5.083609010286996993e-02 5.291286863280744712e-02 4.745926273863623757e-01
1.730572991965093933e-03 5.592883324786733501e-02 4.404644261979615005e-01
3.497496940597470683e-02 2.070414639443415167e-02 4.456053217479278294e-01
3.980515426505104593e-02 -4.876251525406467315e-03 4.480014773851497267e-01
5.512922250144259434e-02 3.678896479809087849e-02 4.833578805743518614e-01
5.644142426884949520e-02 -7.237495033074671513e-03 4.789595935466040566e-01
-1.020343028211342581e-02 2.667708600943418176e-02 4.258831831108727539e-01
5.161452561885430251e-02 3.170984638079680368e-02 5.010602125859890954e-01
1.471751748285289596e-02 -9.869129567608719497e-03 4.356583804279341443e-01
5.270423725603905901e-02 -2.124219594079280668e-04 5.105943689742236113e-01
5.373456278474409570e-02 7.792331322029040150e-03 4.940012026179773086e-01
3.624568536593514301e-02 -7.614280040398350644e-04 4.449057868752764322e-01
2.141028431212275984e-02 -9.557210797346230718e-03 4.372090707093467810e-01
4.847754981204681346e-02 4.022556373338461583e-02 4.584308568288165686e-01
3.129415536898349365e-02 5.111533844583492081e-02 4.475311279235451023e-01
3.271545053084848331e-02 1.213904288896505528e-02 4.433297870390431883e-01
-2.685991921753853526e-02 1.231350746852347827e-02 4.352695255212464809e-01
4.909168996496061921e-02 5.662684989833190186e-02 4.719390443806195656e-01
4.804959972156914311e-02 -2.051418462244916641e-02 4.621388803864701078e-01
-6.302892133763554096e-03 9.578074186957552527e-03 4.321605267624570312e-01
4.877713095966872137e-02 5.455136511836855551e-02 4.899113212793538841e-01
-4.210119370769259406e-02 2.466413683918001858e-03 4.457057741822442187e-01
4.781451900781683723e-02 4.705595165037560618e-02 5.082611810671538999e-01
-6.001570436999426571e-03 -1.277571726713031507e-02 4.347161432288403349e-01
1.149337906457830946e-03 -1.584133818432474639e-02 4.363639258407775445e-01
3.039055290835150636e-02 1.563715485268576608e-02 4.424636647195097083e-01
5.380339206416401981e-02 4.144589875259355877e-02 4.946681416433111322e-01
5.780562292120255269e-02 -2.997580258573315226e-03 4.920284109407690454e-01
-5.681194636244892363e-03 4.932424951071785746e-02 4.345651498292414927e-01
3.925084382242926412e-02 6.678549361023597419e-02 4.714981224133151794e-01
5.041136682057340695e-02 5.317613586172046519e-02 4.881136377041539465e-01
5.571511613710441319e-03 3.984846762143631066e-02 4.319006434550948792e-01
1.613984208639642967e-02 2.081248238133692058e-02 4.370758302921176619e-01
4.359805317850197481e-02 2.804696087886721437e-02 4.523424464003750201e-01
4.847306567573499148e-02 2.387396032397186632e-02 5.091197218956854398e-01
3.791133467542630309e-02 -4.533983456676792846e-03 4.462272957307678034e-01
4.992606344298013143e-02 1.732746940687628426e-02 4.578736357856063033e-01
5.038567751251540883e-02 3.186570484903186035e-02 4.597522564999176886e-01
4.686922094794872262e-02 4.298340295398231370e-03 4.537254591494768730e-01
5.060437775972070895e-02 -2.599160235554124915e-03 4.620825534898961862e-01
-3.918239429464054390e-04 5.445084966122984427e-02 4.378910832867764502e-01
4.366544351712263461e-02 2.059687000163869242e-02 4.515147814555854344e-01
5.686943313798184518e-02 -3.676283631642688916e-03 5.060489437457170725e-01
5.229271015530975730e-02 4.776991563515443212e-02 4.918628169264676053e-01
6.855917440178060235e-03 3.155937754591472966e-02 4.306844536526467926e-01
5.552169379640380098e-02 2.493214169016080839e-02 4.794899907830316166e-01
1.481252584218949002e-03 4.842193287818831460e-02 4.335213323447573708e-01
-2.635276211792062992e-02 3.779957940931029381e-02 4.304268165528428725e-01
5.455434844152246693e-02 3.760593067844120868e-02 4.770390379922608282e-01
1.150484684351195212e-02 4.044418203766909220e-02 4.354536471815767529e-01
-1.034822327370639623e-02 1.306427174865247912e-02 4.311861666350473299e-01
-1.643991860179949346e-02 1.482032615620769954e-02 4.312701393902521052e-01
5.523224803634813052e-02 3.439866722950551264e-02 4.863070954226224596e-01
-9.690904024856474702e-03 2.261486487776201426e-02 4.268062291959581200e-01
-1.548155091588118704e-02 4.499506418902226440e-02 4.345964121251273404e-01
-8.090299531081849085e-03 2.957366794499271048e-02 4.256891027762008117e-01
1.679130403227995991e-02 2.874999841299804779e-02 4.376448862067466306e-01
4.426963168074372901e-02 5.277909212666994504e-02 4.559886859994269348e-01
-1.792483561403381345e-02 2.522813959546653037e-02 4.280737729715963780e-01
3.566166121238579373e-02 -1.934703185312425244e-02 4.455567476420183026e-01
-1.723581706044271383e-02 1.980617094840225398e-02 4.302078080790835979e-01
-4.735769225973341517e-02 -2.639024332936695805e-03 4.425438961517079717e-01
3.025487534272041854e-02 -7.418725267757206310e-03 4.408127102036564215e-01
-2.090811956365161428e-02 4.180814312766605728e-02 4.309805585770284941e-01
1.339648553862553097e-02 4.958935175353120298e-03 4.360552699368508422e-01
-2.481711579026333811e-02 3.507549792048272885e-02 4.294263664896050825e-01
5.204727896752371630e-02 5.086849121575913457e-02 4.804872944918340272e-01
8.962062631653259018e-03 4.426564565941203816e-02 4.356975623669618325e-01
3.051832196027377819e-02 1.120065948274227841e-02 4.419309081537020623e-01
5.589027791601412776e-03 1.600364270604189704e-02 4.334720675568471404e-01
1.243424765156151898e-02 3.551972376533014952e-02 4.347200884377547259e-01
-3.133815699307532232e-02 3.617171078892168767e-02 4.333019520599175056e-01
1.563994649829898720e-02 1.916640263366080690e-02 4.368681678883724051e-01
4.750428562294718715e-02 2.640254247830625678e-02 4.550801677336591688e-01
5.659337712482702398e-02 -1.430002656658766087e-02 4.799759895632016438e-01
4.183771865825422487e-02 4.649074082912284245e-02 4.532849201323501664e-01
4.990842118973469466e-02 5.336604373478349983e-02 4.681241544683165112e-01
5.564054235799593962e-02 7.184505777620885970e-03 4.850930555253648024e-01
-3.297538478600953171e-02 1.601728310034070124e-02 4.366385188150591068e-01
4.909457180902310897e-02 2.524321875158793554e-02 4.569852435077261243e-01
-8.500859296556328472e-05 3.722136482332072394e-02 4.280763112471911436e-01
5.603884418897622094e-02 1.001109851018506776e-03 4.947093393894583246e-01
4.052491152833292282e-02 -1.273175986563928296e-02 4.487649460584033356e-01
4.675445692926121638e-02 3.384288183843447290e-02 4.557217386941827542e-01
2.975240552010075326e-02 5.612955523304883482e-02 4.479757322739339465e-01
-1.769607703092411499e-02 4.141131349973645875e-02 4.300285458413186657e-01
1.178178608567215756e-02 2.477382414493577156e-02 4.340919285918553028e-01
5.515017947293129885e-02 6.434695597449003289e-03 4.726438450601748720e-01
1.089255501382259232e-02 4.368445611072910989e-02 4.364673471788908521e-01
2.100686100365301359e-02 4.302210216992603115e-02 4.411088618552131968e-01
-3.346156158873705294e-03 3.868632303568685787e-02 4.275161136387486405e-01
-2.153673670562360459e-03 4.620165058505772138e-02 4.318609239946984979e-01
3.070484424460880740e-02 -2.012681681658046520e-02 4.420832322122499880e-01
4.092003411809642943e-02 6.381026397899927649e-02 4.583261500078101847e-01
-9.018675207233707927e-03 1.893737464469343783e-03 4.332512359091756915e-01
-8.581865861425123226e-03 -1.496996961564346466e-02 4.353519781948267386e-01
-3.147957186104120668e-03 5.411438448715188976e-02 4.382962724457864501e-01
3.325921439293567927e-02 4.407083448215536048e-02 4.478472897049007306e-01
3.918046766535138170e-02 4.326830016407175183e-02 4.510726349492972798e-01
2.164544447156685827e-03 1.520038001340920028e-02 4.327376525572340094e-01
4.596869442810579132e-02 2.091173602488110433e-02 4.536229787411847347e-01
5.561450572234295786e-02 1.038021389573972469e-02 4.799652316370778271e-01
1.777262765463393998e-02 4.951045041389527668e-02 4.403427968782583357e-01
3.239006812778720545e-02 6.500224851531422043e-02 4.538540078916378229e-01
-2.029675245676798665e-03 2.681670731089400711e-02 4.271335111983037280e-01
-2.845220425333244013e-02 3.754604933118182476e-03 4.359466631022298477e-01
5.379138059442413466e-02 -4.001678425112290688e-03 5.129611861911703707e-01
6.959074825065509826e-03 2.421121134893741700e-02 4.315106927082254518e-01
5.487024219241832396e-02 1.878808018917712402e-02 4.721463100544713853e-01
-1.701199955376568942e-02 2.374557674472673255e-02 4.286570288281102981e-01
2.446958641737195100e-02 2.777954201125465775e-02 4.418008921181639792e-01
5.424318905704605259e-02 -1.930253044631066468e-03 5.100878792020453467e-01
-2.408219838707888368e-03 -1.145862362861312794e-02 4.340838502802204513e-01
-2.410516701251344887e-02 2.864215838171428261e-02 4.296067013067321749e-01
-4.823438084279571374e-03 1.450861311129167906e-02 4.311576904513269581e-01
5.571793460439967982e-02 -4.090587594747152264e-03 5.101128277974175118e-01
5.627568635302719613e-02 -1.905302538899272639e-03 5.001337976027816490e-01
4.300596829965835227e-02 4.721540303161658042e-02 4.542285560726617710e-01
-1.019081074009733218e-02 4.295266309451243464e-02 4.297712416201250329e-01
2.876167389225377929e-02 2.509244732976506631e-02 4.431598781668896203e-01
3.304782769838083417e-02 3.538796075448312484e-02 4.465790848484428310e-01
4.159325758339400131e-02 2.245415176131215426e-02 4.502291276796485109e-01
5.324910215349511200e-02 6.689920252840219489e-03 4.972781402159495712e-01
3.691739052453329312e-02 -1.838149766986664491e-02 4.461733196728538409e-01
1.974219693641558748e-02 3.631025487596261508e-02 4.401336933573183341e-01
2.652059605066340447e-02 -7.615344598519794943e-03 4.385417085263884074e-01
4.513619356648606445e-02 -8.461976644589823751e-03 4.545252476508614969e-01
5.394981023242191587e-02 5.237572689632987236e-03 4.684053587605152003e-01
4.664715267003372370e-03 3.626635682240102881e-02 4.301129632270609404e-01
5.264971243315925281e-02 2.239635119438199498e-02 4.933196094846889479e-01
1.967116167517200115e-02 3.194735698523212125e-02 4.399086883213641497e-01
3.660763286604873379e-02 6.629052378905082865e-02 4.768294209061947342e-01
3.042130137405341800e-02 1.877968550625078517e-02 4.428573272365968760e-01
1.604373055612691099e-02 -7.775435130265973167e-03 4.358098696787857662e-01
-1.205728524308776611e-02 -4.492376392004334557e-03 4.340126966747546722e-01
4.686543763789527764e-03 1.170520069175205388e-02 4.339629994531082890e-01
5.050709765808097246e-02 -1.473344908222304003e-02 4.657414336007982270e-01
5.750903564291190428e-02 -1.040738497622631029e-02 4.842897724831404238e-01
4.737882822322160570e-02 1.142117255232884959e-02 4.542254875212839438e-01
1.450672952873108094e-02 4.921256044301718091e-02 4.392225723043119423e-01
4.219800351209170713e-02 6.661401718391973814e-02 4.722495778850822612e-01
5.529033388756417200e-02 -6.264920899354415804e-03 5.132271226128837238e-01
5.531152320955175228e-02 3.047033701114820747e-02 4.746855617909204184e-01
3.562037809881909989e-02 -1.941887121686036721e-02 4.455446297622216445e-01
2.231622086523393778e-02 2.065358372260986397e-02 4.399356779961123287e-01
-1.439738887508180271e-02 6.111281449032707376e-03 4.325236659048333765e-01
4.326930506764654905e-02 6.571041433355455375e-02 4.761658075247250377e-01
-2.396680355404904716e-03 3.824693351013250947e-02 4.276163867186038026e-01
4.390716828205786654e-02 6.427819830692982350e-02 4.644950009403961966e-01
5.322737224863973576e-02 1.121620036706730099e-02 4.652028366962637218e-01
-4.931313079523618262e-03 4.471123209094227807e-02 4.307584030767429017e-01
5.000580705120877961e-02 5.219863697500484734e-02 4.930820964668445328e-01
3.504832625875625718e-02 1.779389150666043154e-03 4.442084746166806153e-01
6.073185904207148433e-04 -3.875925494224226331e-03 4.333488531360497609e-01
5.009318838094672932e-02 2.434035945420160232e-02 4.584536850072122305e-01
5.414116782461213251e-02 5.156618762007132706e-03 4.965441122572373800e-01
2.449603523874336122e-03 5.229025060387071377e-02 4.360209141855766468e-01
3.828033632598573655e-02 5.551677616111277969e-02 4.522214633389773919e-01
1.438757276608740310e-02 3.443197308844787169e-02 4.358720903571441929e-01
4.747253742372914420e-02 4.529195102632824210e-02 5.099037607216241330e-01
4.854727849580715154e-02 4.144208702617671429e-03 4.564555191970557924e-01
5.443312308139867939e-02 -2.226051616313690779e-03 4.699041545745025750e-01
5.055046333892689731e-02 -2.980238074187615323e-03 4.620920119414879124e-01
4.825604149398517173e-02 -1.134606183688440309e-02 4.607129110986398768e-01
-2.095969006793706874e-02 1.094600271539291833e-02 4.328116847599630113e-01
4.512005134040409510e-02 -1.579581674000875985e-02 4.553995312947359819e-01
5.400347959216596216e-02 4.306053488615507741e-02 4.910498555885052241e-01
2.393853970377662205e-02 3.178381471506303273e-03 4.387460502105646198e-01
5.325689559165034531e-02 4.375528938634286324e-02 4.746018961914603151e-01
1.819420991791873346e-02 2.029112713815565613e-02 4.379692954744495159e-01
5.072904788564926160e-02 4.069189764147596033e-02 4.623208347680811681e-01
-9.062966444065343949e-03 2.805871783126675026e-02 4.257040848107713771e-01
5.531763211693267041e-02 -5.278400860859734992e-03 4.738588024262568310e-01
-2.621396533632179907e-02 3.315275975411063197e-02 4.297982146772796885e-01
-3.588854685998815047e-02 2.163621235475443258e-02 4.363392016817563834e-01
5.001361622328692746e-02 4.291603556873317682e-02 4.612369905373346901e-01
-2.696617027571168029e-02 3.479540597284375147e-02 4.299895944247207891e-01
4.584450402804009228e-02 2.370000372754934442e-02 4.535219020128628542e-01
3.221956026235119064e-02 3.597501529384383723e-02 4.462025041114298096e-01
7.954790300377974008e-03 -1.992690676007894193e-02 4.379013080249242740e-01
3.143890939699554160e-02 -5.345649104137312549e-03 4.415735544779992305e-01
3.890885382441049145e-02 2.635223672273392242e-02 4.488207719755299974e-01
2.723319016240592638e-02 3.718411258865626789e-02 4.442510235267122520e-01
8.899988655082598579e-03 3.692111350991723884e-02 4.328429212477228338e-01
-4.295378789777378609e-02 1.808617347603441467e-03 4.427699846418073348e-01
1.358861530150611702e-02 3.464924549475630056e-02 4.352523171602344920e-01
1.047779108390658673e-02 5.772027648179161446e-02 4.477545475863525803e-01
5.757753458702995902e-02 -2.442175882719255751e-03 4.881216489451552509e-01
1.280222532998654197e-02 -1.169600389762362642e-02 4.360389071052203080e-01
3.807621296587708482e-02 -2.052254561977467050e-03 4.464229500084113123e-01
3.332373285867294005e-02 4.879636059040529800e-02 4.482553011786026831e-01
2.572943850002474067e-03 -2.655505210273796483e-03 4.335264994179357512e-01
5.425166371737413784e-02 4.236348113257745740e-02 4.846107364480793378e-01
9.407441275921147802e-03 2.320653178716421128e-02 4.329032796736869138e-01
3.243728944178875251e-02 -2.571958534227577337e-02 4.449596194364743296e-01
4.987165472241637115e-02 1.114976016865097327e-02 5.046444110289411977e-01
5.222995693130733780e-02 1.441332462541709478e-02 4.941147848851942803e-01
4.918144565893037279e-02 2.932663825418471704e-02 4.575770656432893713e-01
4.933349464046344474e-02 4.594401697050409100e-02 4.603272743265592326e-01
2.467997597610697980e-02 4.558029894750495470e-02 4.435314109491258483e-01
3.819355779594960781e-02 2.318995689116602234e-03 4.465897658559210281e-01
4.887850523756486626e-02 1.170460494113688063e-02 5.072756679112867539e-01
4.187560905187701771e-02 -1.270173529282565307e-02 4.506556080827087141e-01
2.532933964984147510e-03 3.363052961481408087e-02 4.285863509619748379e-01
2.098443495890846971e-02 3.450235435771244197e-02 4.408985425044130158e-01
5.393891571476742280e-02 1.221717255806796954e-03 4.684983712221911789e-01
-2.707683990643654226e-02 4.105104015042604360e-02 4.371346631481672906e-01
-3.674755022969068523e-03 5.005619722691805051e-02 4.345885865302561157e-01
1.883518601520505539e-03 3.208300694062611591e-02 4.283733717698916532e-01
5.816262227854853036e-03 -9.817179277101652918e-03 4.343590076959618074e-01
1.409763074748048364e-02 5.982745193906666148e-02 4.514355377708338946e-01
5.064208137741293275e-02 1.455834840827035029e-02 4.991106309896055082e-01
3.907197144997556076e-02 1.015109412141050778e-02 4.473748565603946070e-01
5.144223348474655927e-02 1.402562677607357630e-02 4.967113895376152888e-01
4.328463907730389221e-02 4.101764179980038616e-03 4.505040361226762546e-01
2.385796667648928254e-02 -1.886393851959114118e-02 4.390870150956857065e-01
-3.423226393144415680e-02 3.595314424310121389e-03 4.384250212375532252e-01
5.336539390666088234e-02 3.402082436353270206e-02 4.963348425927428531e-01
4.784803196207620957e-02 5.051847749421074785e-02 5.015031724451589623e-01
5.741337737794333096e-02 -3.034138174014848997e-03 4.856502434656401745e-01
4.412204208090758639e-02 5.916118168750794659e-02 4.590867299520585698e-01
4.925020421557584072e-02 5.613325724293161817e-02 4.712658554251624166e-01
5.613985618326788885e-02 -4.299149219229615737e-03 5.096253067687095406e-01
4.539815793381857950e-02 5.907019878535480634e-02 4.869669828357925945e-01
-1.633921340889233145e-02 2.499924861329920825e-02 4.275855062059877310e-01
5.219024210517347884e-02 5.596257222903218767e-03 5.033934435182942924e-01
-1.424723877177571339e-02 2.831154039165581851e-02 4.263228737263483059e-01
4.604318004809124926e-02 4.376841113721478133e-02 4.564187929383895503e-01
3.984577609247616503e-02 -2.386885968958911072e-02 4.510846358139322665e-01
5.916865241652195795e-02 -1.070572170002598127e-02 5.066626936850031626e-01
-4.066481272647257464e-03 5.018002959009083136e-02 4.349781628164640090e-01
5.550776777664555295e-02 3.129139773046525630e-02 4.820648161400966081e-01
6.523349991768095067e-03 1.827702062566198896e-02 4.331086780478309306e-01
5.194698926415228235e-02 5.070725834232333445e-02 4.852889883438420426e-01
5.117731987744848776e-02 -4.104683622151348264e-04 4.625838064902311197e-01
-2.356303412172660108e-02 2.730666164733099206e-03 4.346484144563673158e-01
5.454403486294649023e-02 -1.173673920816786440e-02 4.736575121042797543e-01
6.683310305019007913e-03 3.341066190410292309e-03 4.341996424178838354e-01
4.884922792850814738e-02 5.400498352940220903e-02 4.920289156562256960e-01
4.767602186348540022e-02 5.024394501048540934e-02 5.028213981218928597e-01
-1.701831485467696428e-02 1.056033717490351825e-02 4.319863764925349625e-01
-6.573747227776018977e-03 6.295137737451535730e-03 4.326410402896130880e-01
-1.715404639834446727e-03 2.085357156521136859e-02 4.293535543355875839e-01
1.470899691233152479e-02 -1.515417831222571135e-02 4.367418070594298318e-01
4.063414729237508488e-02 -2.035679347836789541e-02 4.504003659374956059e-01
5.144379884946245068e-02 4.803388530464272610e-02 4.958462725628554058e-01
4.786825525135207648e-02 3.615628138335615083e-02 5.109719598376102345e-01
2.997068518628108122e-02 7.089204785117745114e-03 4.413938821369565724e-01
-1.864675645370643745e-02 2.829609463071517533e-02 4.276244450244088835e-01
5.559055094538931097e-02 8.449391204362027841e-03 4.826356295414683251e-01
5.183641251462968447e-02 3.269676639772336330e-02 4.622517562612214470e-01
5.363424880951948165e-02 4.104283639181017379e-02 4.730808510747529505e-01
3.630240288075724242e-02 2.850083996442171613e-02 4.474121059667932054e-01
3.977400784612420553e-02 4.901984872035896473e-02 4.519101333296617895e-01
2.110602560080230769e-02 1.560570164700423798e-02 4.387495405247124336e-01
5.795430843306433738e-02 -6.187547793717266230e-03 4.956750754396705982e-01
5.814974320226116294e-02 -6.442589131104081886e-03 4.918293077539807601e-01
-2.580850329522551764e-02 3.928393812558073767e-02 4.312710981820944145e-01
4.749284035466694309e-02 5.535383151981550232e-02 4.907209515564141533e-01
4.616959406506248448e-02 3.200405097686481043e-02 4.548419055404757105e-01
5.007568957544992344e-02 1.404127412536910341e-02 4.584455597616877709e-01
5.199525120326332212e-02 2.664631539004007343e-02 4.977044779389211970e-01
2.610630273784768363e-02 -1.687836118756768852e-02 4.396101368326575387e-01
-1.058168455414729148e-02 4.033054248393447977e-02 4.281064586865922506e-01
6.833065019425581949e-03 -5.202758945432067739e-03 4.341026911192404358e-01
2.793804678934751293e-03 5.668237245837847577e-02 4.430776389073253219e-01
4.822854582919646610e-02 5.836892908254519285e-02 4.781152969545603426e-01
3.866546151362963701e-02 6.019245424484985507e-02 4.538099432094125363e-01
2.658501327894749813e-02 4.075116277419843502e-02 4.441237825617108115e-01
3.862975582664843720e-03 2.798683703874400765e-03 4.339040199012955124e-01
5.425962112403624749e-02 2.773808704307474324e-02 4.686207990180553673e-01
5.109083499458008659e-02 4.445813758095766566e-02 5.026135029862874859e-01
5.005326914772832009e-02 1.796311266252657510e-02 4.581297502397820853e-01
-2.096945343961671357e-02 2.176291702431430719e-02 4.304457167700982967e-01
4.431204923304214033e-02 -9.240392997069590136e-03 4.535992541668169564e-01
3.518625566274863337e-02 2.718953763298083415e-02 4.465456655028883226e-01
5.336665718869608444e-02 2.978486243944908005e-02 4.648889976042411276e-01
5.149065364747629908e-02 4.154249687605521268e-02 4.641223310410998448e-01
3.639434887578640778e-03 -2.002266703359631417e-02 4.375032438493743348e-01
-3.521838170404314322e-02 2.962500726667168308e-02 4.341560823228701183e-01
3.944179944075244804e-02 3.669756043830497104e-03 4.475126783994341495e-01
5.189444372706120134e-02 -9.684779248433897716e-03 4.668588766692248204e-01
5.427446250031682518e-02 5.751080763817509236e-04 5.049926505948267863e-01
5.239135519622019344e-02 3.194515529391250136e-02 4.630581815321095362e-01
3.927066561000502193e-02 6.048757676173279613e-02 4.543764242050198354e-01
-3.649729710391232118e-02 2.742818913691905721e-03 4.393772506646094755e-01
5.421440814443961170e-02 -6.853430784233869449e-03 4.709812594915517847e-01
-4.105647102837709644e-02 2.031421795176902891e-03 4.416340198111013415e-01
5.286937097043267753e-02 4.550126463078265487e-02 4.738748007552276986e-01
-3.740068495001143412e-02 1.604272604735772559e-02 4.422061295966055461e-01
-3.616546711848707407e-02 1.491606729667952977e-02 4.414093492061070823e-01
3.641464418621606636e-02 1.433643584838764987e-02 4.458706352717388688e-01
4.793657023650239185e-02 5.457990217296102703e-02 4.928518120789722179e-01
5.524227735422379548e-02 7.594720920782524129e-03 4.735638329288703319e-01
5.328226383301960800e-02 3.019499704022921699e-02 4.646515784978725860e-01
7.400376834609959445e-03 3.502531000328221178e-02 4.314415259463786345e-01
2.152531631547713667e-02 2.301431220190842258e-02 4.397275323448009976e-01
4.767413231854143729e-02 1.892756287515381941e-02 4.550447287075409242e-01
1.928549250819453637e-02 4.948163936510838884e-02 4.408142854048475723e-01
4.501541713692033819e-02 1.147546797800835794e-02 4.518541550575217447e-01
2.470002292784179848e-02 4.543006353766440575e-02 4.435317285734600712e-01
5.126497694575601893e-02 2.784451324819942411e-02 5.006582347395029942e-01
2.778374830602882428e-02 -1.172308976823572060e-03 4.397098572884210466e-01
3.889318483328794290e-02 6.630891311562303603e-02 4.773950939490727574e-01
8.307108220790315398e-03 2.183467853108972054e-02 4.326084533937104015e-01
2.167919116346144273e-02 3.865599285577760169e-03 4.381000532029669103e-01
4.541350500335045171e-02 -2.061128574957086373e-02 4.574589316222403279e-01
5.651938214390096749e-02 -4.956508466522767560e-04 4.949474653988863992e-01
2.619110891145917663e-02 5.580968290788593245e-02 4.463898787127232315e-01
5.430019801586886963e-02 3.932233201863868932e-02 4.776088763077735999e-01
-7.824606350887297959e-03 3.041740542884741744e-02 4.256962007561511108e-01
6.264860057483146415e-03 2.172379972216110372e-02 4.316503881846411872e-01
5.774625985712803639e-02 -5.475211179340278532e-03 4.960582070618164141e-01
4.552383483607567310e-02 5.836472338152940559e-02 4.605964938997916813e-01
-3.619659975858519063e-02 1.273383305261145682e-04 4.394943906170117320e-01
5.229470977831458117e-02 7.599747652756053649e-03 4.995663232651991192e-01
1.816418854096766428e-02 -1.446258201992807121e-02 4.370236226301106863e-01
5.350322138192121352e-02 1.484516285137117003e-02 4.653799974608271994e-01
5.116296373836059369e-02 -1.835944814692602733e-02 4.677085628113182292e-01
5.399205704800697642e-02 3.931449353248511747e-02 4.942452831239905753e-01
4.718816466301016532e-02 2.790225284688747920e-02 4.550042162911094312e-01
5.597352382992620834e-02 1.952617668588238617e-03 4.923705617235668019e-01
1.256537894439877651e-02 2.082624443603081979e-02 4.350806030634224997e-01
4.208720559714495667e-04 7.832502526871669424e-03 4.336628708358464812e-01
4.828042086502603442e-02 4.212867841174729178e-02 5.092549139762567734e-01
-1.397314341788284155e-02 -2.421126572456555257e-03 4.338261758198783680e-01
4.537177439072329066e-02 3.663656151820765539e-02 4.550371309523396079e-01
-2.065047600923264684e-03 3.748094232495607914e-02 4.274670008500593976e-01
1.133057459659411216e-02 -1.722895742174779601e-02 4.372732511854949267e-01
1.354785587662862140e-02 7.967743002918199757e-03 4.365454773240313169e-01
4.354927632205558841e-02 4.931756632367499671e-02 5.084353711980421631e-01
3.812172060942486951e-02 3.692580157205857527e-02 4.495826292781715527e-01
-1.169488412877375295e-02 3.395557704091697881e-02 4.261111942253333340e-01
4.624342280846359399e-02 6.286698395182320487e-02 4.722884605233983457e-01
5.573377140357667348e-02 1.047867556519381516e-02 4.789215319987721320e-01
4.486466129458007573e-02 -1.883069885205332665e-03 4.527988208847172347e-01
5.384442781846521253e-02 -7.709521919230346784e-03 4.702141641885521639e-01
5.718761314288071940e-02 -8.727825938930435824e-04 4.841780521513460722e-01
4.856939194232429147e-02 4.505921645241477841e-02 5.080889510366300987e-01
5.123976769102458334e-02 5.097636326093853837e-02 4.895984004619763907e-01
4.814382573719121206e-02 1.942616251833888599e-02 4.554203650225497890e-01
5.621670820902026355e-02 3.779788812307808762e-03 4.847635734764261795e-01
-1.887656105955002814e-02 3.308532188449479078e-02 4.276346377920740016e-01
3.133672871556920231e-02 6.310606657636247396e-02 4.514663992665007841e-01
-2.787576932176492189e-02 1.606057363104392705e-02 4.345222781225266950e-01
5.549874370375539739e-02 2.811116312236472403e-02 4.755403584045285181e-01
-3.363736421020036699e-02 2.886541426408876804e-03 4.381944729155805573e-01
4.363019748521573121e-02 1.424046468478319498e-02 4.508694452019604837e-01
2.987899441697182759e-02 6.305936184819387058e-02 4.513009843899202234e-01
3.354425914843899709e-02 5.742680233498630854e-02 4.501397547146386291e-01
4.712416776356552484e-02 -6.674063582863293265e-03 4.568749973726173308e-01
5.371310865677018237e-02 1.395684441551138869e-02 4.887785489870782873e-01
5.272363221846380205e-02 1.752349432322610964e-02 4.925720249258280226e-01
1.709685931730436925e-02 3.601318115535000891e-02 4.382407599032001055e-01
4.787561661731683932e-02 -1.221186299622059948e-02 4.601752108007317044e-01
5.521407254451041885e-02 3.529435792385985510e-02 4.852568312360192593e-01
4.975710633328634530e-02 2.171951080556406427e-02 5.038539283631561227e-01
3.973606825712974050e-02 1.005500369071210195e-02 4.478345142832790282e-01
-2.209913626371173660e-03 4.262561773061578074e-02 4.299943142178317412e-01
5.154367973903278138e-02 2.647439280805608669e-02 4.990976646978667608e-01
5.533054661000304242e-02 2.806021193089246191e-02 4.741573856871942882e-01
5.733899923211378119e-02 -6.600264359554131044e-03 5.097448706781675387e-01
4.830953040297481654e-02 -2.049518254040158874e-02 4.626480842311972430e-01
4.664784102466289911e-02 4.725547593510174421e-02 4.571973151043779993e-01
4.902999707429624848e-02 4.991126945201664750e-02 4.612811516067977791e-01
-6.169792297745692149e-03 2.943613692438277682e-02 4.261061405677679104e-01
5.023765196155406676e-02 3.616456671081600977e-03 5.112551152863199500e-01
3.398605808424016300e-02 5.082037081685526758e-02 4.488377399701094506e-01
3.206847001601650926e-02 -2.056354835637747014e-02 4.431556997826902600e-01
3.244242448472614559e-02 7.179238371791225523e-04 4.425621250151889896e-01
1.886248671117595962e-02 1.414330023645809717e-02 4.377675180873513150e-01
5.501887397070922420e-02 3.163344996441447288e-02 4.868056625233456725e-01
-2.454464452347216580e-02 2.408778828349535106e-02 4.306983125930126111e-01
2.579834191684593839e-02 4.573411062003091346e-03 4.396263247893284487e-01
3.674133656498215772e-02 -2.252774608549892518e-02 4.471629198759098367e-01
5.052756398044948305e-02 5.404844275396319953e-02 4.775915610401750278e-01
1.409996773679371082e-02 2.140444553406946337e-02 4.358862771110385004e-01
5.051747661322916749e-02 1.514915341017289939e-02 4.997010586207645821e-01
3.065575006299663119e-02 -1.953741699010426436e-02 4.419156080006617637e-01
-1.930615327181126051e-02 1.364174013516245357e-02 4.317594483432868335e-01
2.680433611626126950e-02 5.148108115791455441e-02 4.453063151267406816e-01
3.809460796537243732e-02 3.531845241216997888e-02 4.493495963687191841e-01
3.026924247674581472e-02 6.562097215550462270e-02 4.542903843953982612e-01
3.579090237098142557e-02 6.672489605024949089e-02 4.734583705811886700e-01
3.558759593976876939e-02 7.068670868952639519e-02 4.594091922967944996e-01
5.617033963541834263e-02 -8.194943623521791162e-04 4.980114143403150950e-01
1.971460737780934488e-02 1.219356563110133825e-03 4.371562582721964518e-01
5.291669001407577066e-02 -3.938025868576268580e-03 5.142831837650267968e-01
3.311500764604995845e-02 -3.275009437049980140e-03 4.427111098050334759e-01
5.715298737519844408e-02 -1.121451826817518489e-02 4.821199022126096967e-01
4.884521453949867975e-02 4.558311632174572720e-02 5.071958674005786483e-01
1.557092123489854651e-02 1.925106600511661877e-04 4.357737259693846288e-01
5.504531961754962482e-02 3.101765270028706764e-02 4.852593173138829430e-01
-9.879045977477872442e-03 3.983311206628301071e-02 4.276655720658742998e-01
4.481731963114039818e-02 -2.251452566280508216e-02 4.570583492462848563e-01
-3.105465924487829654e-02 1.410217501147854532e-02 4.368325583620027985e-01
4.681327529749585228e-03 8.147648576172211027e-03 4.345148079944263220e-01
2.506636687719364376e-02 3.150507038436539675e-02 4.427464110816881626e-01
-2.114052608784812090e-02 1.892056629021255168e-02 4.310932260395547444e-01
3.399556917104012976e-02 1.621261313807678683e-02 4.446280057832630583e-01
4.999736985552374197e-02 4.233666164526030118e-02 4.610840101680118708e-01
4.994299774466042646e-02 -1.319274106612916900e-03 5.164754231303929632e-01
4.824505501095553706e-02 4.863984530410860735e-02 5.059998643908351079e-01
1.068456224543848192e-02 3.963190801356600984e-02 4.347091699211280691e-01
4.579807099427165434e-02 6.231328031479783924e-02 4.657473906855276180e-01
5.386398569709570372e-02 4.155371224385329132e-02 4.771248633372918713e-01
2.617274569915636895e-02 5.938230139233459381e-02 4.480436755905465862e-01
4.726081437084816983e-02 5.444453313139189371e-02 4.939487197471456592e-01
4.484909499076200623e-02 4.633186909984070984e-02 4.555938535080355511e-01
4.818863574428346175e-02 3.972604142192888432e-02 4.581472790978795007e-01
5.499276256275346941e-02 1.628063110549606701e-02 4.725899095689662932e-01
4.968080086487839525e-02 8.313401408262723752e-03 5.071531736621807118e-01
5.478118027767436837e-02 -4.990276633534525275e-03 4.719183757948983149e-01
8.037502983613239657e-03 -9.010712571219507173e-04 4.341108835431732316e-01
4.247585880170651890e-02 -2.899212593882431483e-03 4.504972889607160580e-01
4.099658419400519643e-02 2.155592109310636162e-02 4.496913136746791828e-01
5.933958342449868403e-03 4.829431360552254027e-02 4.359327110471390987e-01
5.052601918961945049e-02 1.012213983629258428e-03 4.608854111319856117e-01
5.424825899224508530e-02 5.937896704423200993e-04 5.050700900797941983e-01
6.300313823952689157e-03 1.806672525351453104e-02 4.331142468639835874e-01
1.605841915011911591e-02 1.430867908572214589e-02 4.368376670995857691e-01
4.896960846322467864e-02 5.406459752279969139e-02 4.648964012233892107e-01
5.153219098309547164e-02 3.410711851555337654e-02 5.021874213648267471e-01
5.703645989632381841e-02 -2.223535218697848034e-05 4.848189507568282375e-01
4.416266976614126316e-02 6.546704590909163679e-02 4.696771247897020829e-01
4.953200660752870438e-02 4.524814817552592211e-02 5.057867159221616227e-01
5.238306591400835460e-02 4.068743558557046114e-02 4.663706157707681599e-01
2.930501206849907281e-02 2.942431342984353979e-02 4.441093449185039566e-01
5.253833579936106196e-02 1.886530030408496011e-02 4.932026232145607647e-01
1.512398274950249762e-02 -3.518709258926052980e-03 4.353775739075013695e-01
4.599152334665255332e-02 5.550794476725184889e-02 4.926404809944816554e-01
5.276158453849876667e-02 9.341030235929774148e-03 4.964014232494517453e-01
2.247807738658728557e-02 1.277351338212229237e-02 4.391052097391645037e-01
1.392018217007096569e-02 -7.250211750998808609e-03 4.353411219582861702e-01
5.469865203512977447e-02 -3.591196971468317740e-03 5.111525758256428853e-01
5.539616970435485427e-02 -1.444315946805896193e-02 4.768566189587684634e-01
3.561372390824499995e-02 6.100047124905443735e-02 4.522810402152887543e-01
3.576163657137482882e-02 -2.826744908412334029e-02 4.485346693302260657e-01
2.645541641526676785e-02 2.068841297805661117e-02 4.415540976916837446e-01
5.492868404540462990e-02 3.730529469062229819e-02 4.816755712047134375e-01
-2.543231478228744763e-02 2.276025408492861682e-02 4.311507026256805597e-01
4.384756933497265668e-02 6.359903129642904829e-02 4.630815282671722488e-01
1.522541368506864258e-02 4.096533199144847953e-02 4.375447820991341108e-01
2.259382981271572735e-02 5.512883013805432164e-02 4.445195871469287408e-01
-2.152664768842908055e-03 -7.916053811320659245e-03 4.334927205898116975e-01
2.764059919626121395e-02 3.281459105321796188e-02 4.440104305329761192e-01
5.033232315800701545e-02 4.957438079407061604e-02 4.657608316131218174e-01
-3.605920879489355607e-02 2.850499324785291458e-02 4.348701099694282646e-01
5.380714130308097282e-02 -4.478603411970085921e-03 5.133740688629893079e-01
1.740810701655019430e-02 4.001462009377215051e-02 4.386817709472264348e-01
5.039898864965886016e-02 4.856387808061828765e-02 4.649337409769410123e-01
2.526766248238072540e-02 1.740586134010881775e-02 4.406049274806165816e-01
4.329413612063474914e-02 -4.024172615154771211e-03 4.514771902894867961e-01
3.971303697386503045e-02 2.851528406286611000e-02 4.496625278683015203e-01
-3.401081814122582092e-02 -1.208558429479200669e-03 4.387851243757116548e-01
4.057175475604282017e-02 6.661729763055768139e-02 4.735057377749750107e-01
3.647253692225089355e-02 -2.113752137690042693e-02 4.465976800072677944e-01
4.130665602437391670e-02 -1.530541341547567158e-02 4.499843209414934875e-01
-9.737019212894729159e-03 -7.641376701217081867e-03 4.343959388557341317e-01
3.835452277484797945e-02 6.745975619029509485e-02 4.676769037856779443e-01
4.823667375149956471e-02 5.826476296925105908e-02 4.694585037760745094e-01
-8.476117390014558869e-03 -1.491243039012575891e-02 4.353289586853921200e-01
5.343664044156085785e-02 4.616605673783552577e-02 4.864351155001482852e-01
5.387022997708328792e-02 3.907288990897159198e-02 4.948660519464789243e-01
5.339450920697190461e-02 1.777865774863298526e-02 4.899975643681823145e-01
5.038975368662528681e-02 1.775827340493940296e-02 5.006660014261415936e-01
1.266623794935200706e-02 2.140567330559691936e-03 4.353853268959297917e-01
2.388107246424654717e-02 5.450693614390603181e-02 4.445322893325652780e-01
5.593521066427598054e-02 -8.817457469995501618e-03 4.778210235424263375e-01
1.602040874149875810e-02 3.144369321634812864e-02 4.373388853484957428e-01
1.567906246931210709e-02 5.377946968479073442e-02 4.407264806428001780e-01
5.772784577747151757e-02 -1.265674875860370828e-02 4.847663916358266878e-01
5.313854596957529736e-02 4.648266066756917558e-03 5.017251787593253187e-01
-1.623963053545347118e-02 2.949290686533552041e-03 4.335691655680684042e-01
-1.111199461024233413e-02 3.410380734396484259e-02 4.260124352453823482e-01
5.019011025555671773e-02 4.798166126695487671e-02 4.633721076272891426e-01
3.225649800004920520e-02 6.919756889518137444e-02 4.570546461964949958e-01
1.624716491435677576e-02 -1.504185849583737460e-02 4.369120311269319434e-01
1.064000211366018973e-02 1.590405103610159632e-02 4.348099388943061361e-01
-2.649805231522151319e-02 1.287410709617247025e-02 4.348876947543038329e-01
3.915779912782046956e-02 -2.402078853720664500e-02 4.501750837258476357e-01
5.489364678615810123e-02 3.793614820742866045e-02 4.825864200701588946e-01
5.352490539291884786e-02 3.364700439653821318e-02 4.664982645353492052e-01
8.931625381801849145e-03 2.926730580242119933e-02 4.319458019537809057e-01
4.799255450021912631e-03 4.139601085477703085e-02 4.321498357932637147e-01
5.499209394460130573e-02 3.043464963286135125e-02 4.858696066726669871e-01
1.317907852142575359e-02 5.893283351045926904e-02 4.501419969126854714e-01
5.515894774246673377e-02 -7.507425838334238696e-03 4.743721362345463821e-01
4.589978073581392481e-02 -4.837518961420136931e-03 4.543847891855236076e-01
1.623591146982947958e-02 4.364741026117177625e-02 4.385729555873793539e-01
5.066653300141163441e-02 4.662139262205355211e-02 5.014720850541173336e-01
5.324121440301849556e-02 2.159155420079295409e-02 4.908454791239730275e-01
5.553468217585633138e-02 8.416663367029307563e-03 4.836565407663753202e-01
-3.198141796937319092e-02 9.999461802290171217e-03 4.382673382533373574e-01
2.609348268661167147e-02 -1.662759454103579157e-02 4.395715967989800577e-01
5.432723936208462556e-02 2.323162783920894314e-02 4.879014642781985822e-01
1.757547317968592010e-02 5.966515419181746271e-02 4.488089640200275121e-01
3.139905701961166057e-02 3.002659023447375522e-03 4.421180648029242599e-01
5.001430995379751998e-02 2.035560005435864059e-03 4.595772434858788613e-01
4.720363327020229982e-02 2.976200664498516307e-02 5.120091610538489713e-01
