3.775144609447506072e-02 6.469391115120675696e-03 4.457878059401425563e-01
5.089107273591086944e-02 -1.543349957893130030e-02 4.664332769631051590e-01
5.592541302866232272e-02 4.662004866513634257e-03 4.765169976586247080e-01
2.763769865371870638e-02 5.487285064346001523e-02 4.453015913319809949e-01
-2.605938206017918007e-02 2.084634936777181660e-02 4.305378219446824306e-01
3.381708003409337332e-02 -2.694686875921206357e-02 4.463618039028916518e-01
4.942539127369165869e-02 2.536355498620627286e-02 4.567412280241972544e-01
3.117314644594754852e-02 4.157587241493545388e-02 4.452067107837807125e-01
3.816948749909631483e-02 5.862467754498434935e-02 4.516774161582721159e-01
5.046723488979997646e-02 2.851730592077487275e-02 5.022614780717553629e-01
5.722846653573476078e-02 -4.338145151599488020e-03 4.987567593415150324e-01
1.811158327032470414e-02 -3.958432653250743005e-03 4.356653100779855348e-01
4.038480358649647328e-02 6.498447594464150379e-02 4.784422383447752836e-01
2.581955672040276914e-02 4.865185106232976231e-02 4.428714482562324251e-01
5.551154135306040488e-02 1.532588620008275108e-02 4.780377670284140512e-01
9.501427854234937784e-03 3.310436840243637796e-02 4.301527577928848101e-01
-1.040038679302579885e-02 3.050884668864971977e-02 4.239259995191124730e-01
8.371340880863626516e-03 -1.659299436718980961e-02 4.372526788887076132e-01
-2.626838383091683812e-02 1.195029250111586533e-02 4.343662304534062768e-01
1.642430947880741537e-02 2.876727238983603149e-02 4.359145532836966597e-01
4.866855127123617675e-02 2.137644166933892753e-02 5.065825116356776903e-01
-1.920757350152145493e-02 4.178248161976730324e-02 4.289128397680706528e-01
1.758117561183837607e-02 3.943551815012912021e-02 4.370574103886801232e-01
5.571056932148730351e-02 6.245054310399586993e-03 4.850002416942385541e-01
-7.183098164995686125e-03 4.469904838326382163e-02 4.287752759062909980e-01
5.056646987776713953e-02 7.507834851475753309e-03 5.048413194150419558e-01
5.143289113070600299e-02 5.147754173592626603e-02 4.740244764214917028e-01
4.364277758054574408e-02 -2.303484926880374623e-02 4.555797137137211905e-01
3.225014349237352584e-02 2.186138075265981612e-02 4.432472978406782893e-01
4.997950988540706546e-02 1.141100061626406335e-02 5.028979297178685082e-01
-2.135621897540182501e-02 3.588061701384963331e-02 4.268469121293583801e-01
3.582063938180641421e-02 6.598144766057255362e-02 4.550967887553445390e-01
5.715593210057882262e-02 -4.155643908768155877e-03 4.989084763368507036e-01
2.751688003646153222e-03 3.725075276247713941e-03 4.332874565860143634e-01
4.924128562962564598e-02 5.055991528292168996e-02 4.611082020398142300e-01
3.654861709322627938e-02 6.721252149921817798e-02 4.679002199682852359e-01
-4.126853664896597620e-03 8.874309479447953924e-03 4.316383658976106208e-01
1.213415114245867260e-02 5.805913461626510674e-02 4.482091033798015767e-01
5.596356240601532001e-02 -7.742785340026706736e-03 4.773091000686013330e-01
9.026548333906321553e-03 5.667261957367534381e-02 4.426712102657525683e-01
5.545908232576060581e-02 2.482192564856829792e-02 4.771070572912265439e-01
3.938280358322266556e-02 3.451037935180800015e-02 4.490697963758650268e-01
2.124877231659827795e-02 3.682507674045235047e-02 4.396160016168330631e-01
1.962916862917905500e-02 -1.778751351267520570e-02 4.376740001674893077e-01
4.684755028143156030e-02 8.766415756895004630e-03 4.530110860467298495e-01
4.997565984142635781e-02 2.269412795340568223e-02 5.017778862256470074e-01
4.742838079305542603e-02 4.771834196618992413e-02 4.567995502394625040e-01
5.089806159970441946e-02 3.600199887578554858e-02 4.603568346007470002e-01
2.259347039173122129e-02 3.317817807889906351e-02 4.406115732263375384e-01
-1.286256953866411062e-02 1.684073484273891294e-02 4.290498581992488458e-01
-7.004048112940882906e-03 8.739975906368867634e-03 4.312945942813161126e-01
-3.429090940662418013e-02 1.305009733639295177e-02 4.390284543954479091e-01
3.501595926739748538e-02 -2.613710806622598914e-02 4.470180438219720220e-01
1.941277473437193202e-02 2.955284447322596014e-02 4.380773430961072967e-01
2.552563347526652301e-02 6.230634516888823582e-02 4.485008490582845231e-01
1.803275211831669236e-02 9.795413843797739356e-03 4.371316088387026122e-01
6.338606994981538234e-03 1.069140476356095389e-02 4.335619974766010687e-01
2.519688178308210694e-02 2.191669038814105658e-02 4.403463101575501581e-01
3.735065886732782253e-02 1.640487472407334280e-02 4.459419895789107913e-01
3.893903028655876924e-02 5.643928337692829394e-02 4.515524145195071726e-01
7.131920214940533180e-03 1.323153756910654469e-02 4.332331977010965840e-01
5.540850846490455450e-02 1.581701354215080124e-02 4.750851757394572994e-01
4.657966609950460468e-02 1.439334667031695950e-02 4.529695481586347716e-01
-1.369483154069501413e-03 4.137142813032396171e-02 4.274665515277967787e-01
4.488167084361022185e-02 5.154603769650158152e-02 5.015710852358727934e-01
3.111598263274897511e-02 -9.885514157272292171e-03 4.409675747050637029e-01
-1.544870688627707905e-02 2.251486937315199180e-02 4.272758981189656580e-01
4.864116846349365864e-02 2.362724465331021012e-02 5.070797828201517587e-01
5.946656598091011429e-03 3.621129922955950570e-02 4.285895199126626975e-01
4.571231789398862502e-03 3.744004838536450341e-03 4.334325076305348690e-01
5.164502438886671432e-03 -1.436641310996498305e-02 4.361929440830452642e-01
4.358902099708028555e-02 6.557320896849549996e-02 4.723909692075864419e-01
-2.993264199577243007e-03 3.487738485113767162e-02 4.244856594548376272e-01
4.998722858960682330e-02 3.878130441863191641e-02 4.592945131386829138e-01
3.122330202599140833e-02 3.036862597278117484e-02 4.440000280673519484e-01
-2.736367135556164523e-02 1.704798487156611309e-02 4.327252397867242806e-01
5.132946812726572189e-02 4.752119184605642366e-05 5.127658413309584828e-01
5.442520025256793181e-02 5.577327670640038274e-03 4.939840055109971373e-01
1.625274183537537068e-02 2.031536483192239104e-02 4.359612046327936974e-01
5.594625156184556379e-03 3.498440986968896077e-02 4.280861813257433868e-01
5.030000750840762230e-02 3.809217738167796491e-02 4.598193460431737600e-01
-4.950763779172173348e-03 1.692741343980319613e-02 4.290411125026113437e-01
4.849922389817128143e-02 8.018016748208402558e-03 5.100680780614401666e-01
-3.785275960388827764e-04 8.624822276988065167e-03 4.325871546798433775e-01
5.138966285732884248e-02 -1.020497241584961481e-02 4.659068615114201894e-01
-1.372186838821955711e-02 -5.959841961326968127e-03 4.343689580691958985e-01
5.064954923919980784e-02 1.397577783479699368e-02 4.588583791425698277e-01
5.704561658104902871e-02 -4.496403570505424531e-03 5.064856514249319597e-01
4.952576790115269245e-02 3.764951784943498109e-02 4.583046506265610609e-01
5.234964949963325648e-02 1.543919760655862970e-02 4.929125864707743498e-01
5.166183757305956720e-02 9.710080964933250330e-04 5.105953426136133899e-01
-1.604587188197571443e-02 3.501125361218119375e-02 4.250502215087536007e-01
3.939445144297049062e-02 9.327591762285401128e-03 4.469592552012326414e-01
5.644626579635333985e-02 2.426895738584252879e-03 4.840479019143505979e-01
5.580032747686222011e-02 2.070092503555329860e-04 4.975741263201702291e-01
5.042963168784326405e-02 4.721738564515513131e-02 4.624529403677710149e-01
6.649376228053098352e-03 3.691546078005651654e-02 4.292610348691524580e-01
6.539651884739113409e-04 3.882945685439304767e-02 4.268418160462168487e-01
4.844611283559880494e-02 4.914041790327733361e-02 4.579191056708516450e-01
4.644046043828730513e-02 5.291227315167935236e-02 4.570224862409772437e-01
5.455946066177376486e-02 1.798837316358193814e-02 4.694918642002488540e-01
5.049969654112700101e-02 5.050310347702592628e-02 4.664860117063595046e-01
2.882234028881177149e-02 3.962648364991095545e-02 4.437140694361264570e-01
4.510512920062369202e-02 6.320908215949321007e-02 4.644784173550016715e-01
4.666344930314930695e-02 -2.734940059649399510e-03 4.544166456966780010e-01
-1.543657626287878865e-02 3.400791678659983303e-02 4.247961702600256406e-01
-4.684590069865371929e-03 1.297140522169534099e-02 4.304664661946244752e-01
5.421465125561469867e-02 2.653160569142347380e-02 4.676329912085543938e-01
1.771834754016261143e-02 -1.364494136815285613e-02 4.365085103433225533e-01
-2.655732472598290247e-02 3.370919601443359698e-02 4.282476419066761353e-01
5.725559382096506722e-02 -3.179893241468742179e-03 4.818696648259684912e-01
1.834229436778566855e-02 6.716588599500921894e-03 4.369497616185947231e-01
3.807999515033959337e-03 1.508158882665287109e-02 4.319977482230500931e-01
5.465561213326954743e-02 1.460284855221758403e-02 4.695953232462977134e-01
3.165872453439994016e-02 4.517389235552961291e-02 4.458270877000742871e-01
4.661888141459576834e-02 5.992838315786974679e-02 4.809253292987690220e-01
4.500533582243059633e-02 6.421575725965211756e-02 4.750728447538897226e-01
4.937279647484255768e-02 1.551759806120014094e-02 5.029304257267895872e-01
3.909292827463165670e-02 4.381473290700843570e-02 4.498920256057548639e-01
4.735744957852007497e-02 -8.448176081621559287e-04 4.550296699383022947e-01
4.968207112180797469e-02 1.028459467253553875e-02 5.049608360190102063e-01
5.701541766787477511e-02 -5.527721894363310171e-03 4.811059696588689261e-01
5.150069240524780129e-02 9.402593968282472320e-03 4.997866923981926779e-01
4.861711332478419606e-02 3.535305284815890708e-02 4.569443062469462635e-01
5.288582781773512598e-02 -1.056119327466967239e-02 4.685026601089582465e-01
5.392244090288748209e-02 -8.876734628027582036e-03 4.706911281105554679e-01
-1.718435153775719950e-03 4.854917530647238910e-02 4.312421952128826508e-01
4.075377246211239063e-02 1.210003253529044059e-02 4.479215392483931191e-01
4.798074572441110575e-02 -1.947018236760246837e-02 4.616228909580914475e-01
5.446815058998703135e-02 1.421706290758924761e-02 4.687024714862890185e-01
4.023949189158611967e-02 6.660128995275016450e-02 4.709264671101861532e-01
-5.183814868803007965e-03 -1.331987115756863571e-02 4.344819977876774875e-01
-9.800501248557509301e-03 3.493214916588334440e-02 4.237098898952478820e-01
-2.971085344193428665e-02 8.945032210522842545e-03 4.367285912113156310e-01
-4.060316702346154771e-02 2.703210397257918129e-03 4.422876473032119060e-01
-2.235449431334929175e-03 5.068027861222693803e-02 4.336680508859352412e-01
5.215523818506501152e-02 4.967699272755794065e-02 4.854011486323341895e-01
5.503231226660732639e-02 7.056604042276055228e-03 4.713414094906647200e-01
4.949061488225170446e-02 7.939219530252974305e-03 4.573022850944971074e-01
7.152372497683919840e-03 5.253075420209286917e-03 4.339015253052097565e-01
-2.284789418395547639e-02 3.315977093963365374e-02 4.271508458703538458e-01
1.357523765043640437e-03 5.222832061615195060e-02 4.339097158175130864e-01
5.338327108848725522e-02 1.177426463157037889e-02 4.912113395728305854e-01
-2.052408418737162489e-03 4.243732303888497065e-02 4.280034738814000317e-01
4.133660854222800940e-02 6.532870327973890057e-02 4.600346156119309859e-01
5.554521775845673581e-02 2.237199788915309601e-02 4.753496031396759469e-01
5.298297064241073995e-02 2.336168794260834458e-02 4.628576580987995293e-01
-1.765217458101429882e-02 4.398860470642964454e-02 4.325166529018660833e-01
3.679049074994605179e-02 6.945692124332622508e-02 4.584338374112912340e-01
2.303092002047957623e-02 2.965169624738229689e-02 4.402132678951086731e-01
1.745207021063983899e-02 4.018058839497234275e-02 4.369578105207395646e-01
-4.191204593496034719e-02 1.247327262167801471e-03 4.416431881009340588e-01
5.356683357224385073e-02 1.874423684550819910e-02 4.882695767981669599e-01
5.536294036018819115e-02 3.299953939108896117e-02 4.810355479743439466e-01
4.919971016236981964e-02 -1.473080645984645859e-03 5.173756096266463045e-01
-7.432826177988812073e-03 4.423406924989090050e-02 4.284984106630215228e-01
3.051973665058861640e-02 1.220407015860228844e-02 4.413016489864040048e-01
5.710863830436523070e-02 -2.270889433620748360e-04 4.860069410383101585e-01
1.757245611667085719e-02 -6.690091987686338539e-03 4.356664440204788824e-01
2.178329498883136914e-02 6.205323974659689851e-02 4.489350228185029490e-01
4.838864143782820038e-02 4.717891088913288983e-02 4.576310863168322474e-01
-1.218921814338268760e-02 2.268343487699561387e-02 4.257539007638802553e-01
-3.554671185441989067e-02 1.141761685680858784e-02 4.413941743760104175e-01
1.889768190631532438e-02 4.261219666717322441e-02 4.381706075659451138e-01
5.164442361258342329e-02 4.127337195574419526e-02 5.007054684592356919e-01
-7.637586418808548633e-03 2.158531820035129722e-02 4.259231178725943479e-01
-1.670804597210906461e-02 3.307841085931086111e-02 4.251660435685911121e-01
1.891435858455537203e-02 1.825367511019327510e-02 4.371495950486448678e-01
5.265269166155596425e-02 3.052427033477134524e-02 4.625315112717151567e-01
5.246162416460921352e-02 2.218641897014644523e-02 4.618336337466930064e-01
3.472179494868684463e-02 7.054949723447975773e-02 4.586468567733864021e-01
5.273501484483488627e-02 3.685310465275962177e-02 4.645983182937657996e-01
5.320414211754798117e-02 -1.171322031828426168e-02 4.697616408685389988e-01
2.062077818171904539e-02 1.017751732831000122e-02 4.377664858476836840e-01
4.115730197682008346e-02 6.560561041663524884e-02 4.767421596292023556e-01
5.503442983177248699e-02 1.445535824991061279e-02 4.720317872265352710e-01
-1.045262046165155133e-02 1.445920144300797544e-02 4.296021591219727487e-01
5.641631778939054653e-02 -6.006023738891394341e-03 4.782418209845585855e-01
5.274305616183513207e-02 3.202721201008903312e-02 4.628254622184366229e-01
4.540291155711142015e-03 -2.504052524952509080e-03 4.332460907657807447e-01
2.787243731565387100e-02 5.352319299353988993e-03 4.398997485180407008e-01
7.048191895456304250e-03 4.628192611433971926e-02 4.337654379141829275e-01
1.156175963128664580e-02 3.649526335432087820e-02 4.326078907431651355e-01
-9.951614917668535898e-03 4.654818874361130870e-02 4.310352600797510148e-01
5.145946089823720537e-02 4.812600070904646948e-02 4.940883568653777203e-01
4.126487055407208893e-02 3.123792875343404246e-02 4.501123333963265027e-01
5.473005463557194250e-02 3.133703435810208937e-02 4.884326253020231934e-01
5.395923312835011060e-02 2.290254544705701972e-02 4.879943625985969646e-01
2.210316083365165482e-02 -9.621751213615237913e-03 4.370557542430502096e-01
4.354581907087493042e-02 4.978867018129769922e-02 5.068680093267106113e-01
5.405636509370701989e-03 4.599283721584897233e-02 4.326298506356333062e-01
2.370503268012299353e-02 6.207143094860739091e-02 4.483776032239955578e-01
-8.707364508193512001e-03 4.893794025449314800e-02 4.346573413711332101e-01
2.050596103776564441e-02 6.159381785049455188e-02 4.471117254678462771e-01
5.134728208278571682e-02 -5.039053077751891666e-03 5.167632049928571059e-01
2.358179916655650521e-02 3.430460622482791461e-02 4.413071564618801790e-01
2.224802561160526757e-02 4.414861057940623612e-02 4.403988528930826152e-01
1.324830817119473404e-02 4.597197796990167701e-02 4.362439914339973912e-01
5.338444372458246712e-02 5.868820745239184886e-03 4.660361128858336865e-01
7.094188040583079835e-03 4.168947142787941817e-02 4.316194096609051734e-01
4.095170994533728348e-02 -1.303412979487363239e-02 4.490400814645856831e-01
3.859486763199606024e-03 2.596476301806303205e-02 4.272978982721788443e-01
5.023238048432032699e-02 1.336328395828144042e-02 5.004605881011280344e-01
2.512408006890303261e-02 -1.699688846533358930e-02 4.390820823984882271e-01
-2.583552422653247194e-02 2.320507234299800780e-03 4.350144855527429133e-01
-3.716652429944174857e-02 1.712710800737442252e-02 4.403360245594004629e-01
2.693611413035805133e-02 5.734049318902054854e-02 4.459588245210262536e-01
1.029343733295814273e-02 5.296945871851051202e-02 4.374640401742647122e-01
4.134014126198163469e-02 -1.835283863749952518e-02 4.503238778042776835e-01
5.512314156553996258e-02 1.819258866631125529e-02 4.818564466251220035e-01
1.806229260654428070e-02 -6.420063374345311852e-03 4.357760668958713945e-01
5.486324815087980505e-02 1.346207219608513452e-02 4.707677611901922576e-01
-2.904617454230871976e-02 2.458106113174851268e-02 4.309025085815094691e-01
4.818859073207596572e-02 4.517606479726698002e-03 5.135060782404192725e-01
5.499412076043426467e-02 3.334011526068321463e-02 4.867198057004933909e-01
-1.815372732660907804e-02 1.407946301514938561e-02 4.305532946489730173e-01
3.105863342360041038e-02 -1.834714504426976020e-02 4.416795235594537794e-01
9.037873691427689496e-04 4.256848753970948751e-02 4.285320084631122350e-01
5.523779120045622243e-02 1.059146647492178669e-02 4.819900025822821954e-01
5.868679218728305863e-02 -9.270128514434825343e-03 5.043000693361823217e-01
2.598641302525594304e-02 1.764810366434785630e-02 4.400517129963154583e-01
-1.309064044209946008e-02 4.438583741470707167e-02 4.305448185632142488e-01
1.945334482151373987e-02 -1.075407034736848566e-02 4.364954969218686753e-01
1.962848379356306461e-02 2.974615590606760618e-02 4.382458972201705993e-01
1.443133940320470709e-02 5.344637273600054417e-02 4.388113263412808385e-01
4.155433125371709585e-02 -1.637157344540781864e-02 4.501564991230214141e-01
-1.736022140980927886e-02 3.447491549102474351e-02 4.254550742376811412e-01
5.529971246889362618e-02 2.760240665998174928e-02 4.841071183622094876e-01
-1.918066780778180866e-02 7.831720673314843464e-03 4.317214205390898507e-01
-1.451155094932531867e-03 4.491218355398847450e-02 4.294031098864040663e-01
1.985511031642547657e-03 -5.296095934168233883e-03 4.331719366838641672e-01
3.559063056865544722e-02 9.067023660514709343e-05 4.439860761899681596e-01
-7.128452810712720446e-03 -7.133304694742426816e-03 4.337035358601274981e-01
3.044502649825117299e-02 1.700392005040890150e-02 4.418352484142111236e-01
2.204421430778635838e-02 4.293183501387138473e-02 4.401613912203564682e-01
3.019381357821544765e-02 2.508094511642315269e-02 4.427541670702287990e-01
3.325340938867715063e-02 -2.584315808383751828e-02 4.455101570999144278e-01
8.759185385794728690e-03 5.751590005034928899e-02 4.463774469855302796e-01
-1.607725716020712292e-02 4.150437831432212538e-02 4.280472803705501761e-01
5.428573004477067754e-02 7.608070312769318888e-03 4.688634992698719750e-01
-1.169625535996938505e-02 1.968570630567498952e-02 4.273413008566130933e-01
4.783994375124866333e-02 -1.627131549646940525e-02 4.606335787421184658e-01
3.065601322765626816e-02 1.329671687799375245e-02 4.414954233249484550e-01
2.739744424696198902e-02 1.785498256235409920e-02 4.406583207534747193e-01
1.159454239925982247e-02 5.342336040664509567e-02 4.382273413011242846e-01
5.505822784211360232e-02 1.322089538483936164e-02 4.721665219768220179e-01
1.413506315139963568e-02 -1.467538070545470683e-02 4.362994573006362953e-01
4.942307789640969229e-02 1.355331507006780206e-02 4.565927356816066873e-01
5.049095846371215446e-02 2.628757362944837694e-02 5.012792393201558339e-01
3.691785781577409248e-02 6.038753226309586525e-02 4.514815285202379846e-01
2.024877376266829079e-02 2.091053583752899847e-02 4.379257988209644958e-01
3.655543875523541847e-02 -2.141650830143160961e-02 4.465373191940964492e-01
5.291658040450240158e-02 4.176764195538057445e-02 4.680340189057137779e-01
7.905084374928322485e-03 4.251227043557191665e-02 4.324818804219540125e-01
5.531941412477645731e-02 1.342604520049037881e-02 4.743998087692024024e-01
5.199110902475434504e-02 2.460731490920311029e-02 4.954680042875650448e-01
-2.796577940212599533e-02 3.595526668857407931e-02 4.287776350307603290e-01
2.195185347748906945e-02 5.999321329070011338e-02 4.461608822348137049e-01
7.347331790098064579e-03 4.401449256327610859e-02 4.328699807377545672e-01
-2.942699758174281699e-02 2.405246152381824987e-02 4.310952953082703987e-01
-3.273759338210890935e-02 4.260640613753047083e-03 4.376683291593700398e-01
-7.410997508572530340e-03 1.428279384856131345e-02 4.298884023056552262e-01
2.391222135327625981e-02 2.849248843053856992e-02 4.405323928526195254e-01
3.501473971949372460e-02 1.846295857506292243e-02 4.446110578303766880e-01
5.513214485358110262e-02 2.282544937572490371e-02 4.723824073247906430e-01
5.029567251901936181e-02 4.423390321123621405e-02 4.610410721145117297e-01
5.040299044996914696e-02 3.135320625333983674e-02 4.588159673917975301e-01
5.111306940601064580e-02 -2.493182301130727162e-03 4.626385080593184429e-01
5.428745675906699458e-02 3.869566768462627537e-02 4.757326082959775770e-01
2.730253274315817824e-02 -3.642307349421596702e-03 4.388012907097562643e-01
5.086146302720234713e-02 5.820097116099889889e-03 5.067096037057431390e-01
-1.163218702326587577e-02 4.783793766160181031e-03 4.323239202092999944e-01
1.337033396947126529e-02 4.235749416390027083e-02 4.352782846759421509e-01
5.648524604100817192e-02 -7.786042830797604286e-03 4.792910564177285671e-01
4.968532546672551481e-02 5.346126632425665659e-02 4.899376455194716651e-01
-1.179576956627344068e-02 3.154854452027879008e-02 4.241195684993170900e-01
2.836990260364749203e-02 5.290329580153538963e-02 4.450046630585374197e-01
1.458970764813854147e-02 -2.081740486880878649e-02 4.375003563550999286e-01
4.591270837477917470e-03 2.874135355841495737e-02 4.269812466460486400e-01
3.620909630072143004e-02 1.712793968443720311e-02 4.452732192987662874e-01
5.205341822019575460e-02 4.396644018899822925e-02 4.662072599122841221e-01
4.730789008498903839e-03 4.115435926177838169e-03 4.334783072110896529e-01
5.529976061622707273e-02 3.075925098451014889e-02 4.745664283536198957e-01
-3.441587527609323710e-02 4.720126700666692904e-03 4.393314278882616830e-01
1.886705733123293649e-02 3.725381554675671891e-02 4.379891924728435137e-01
2.038289815421845050e-02 8.097178266294495150e-03 4.375652737197598952e-01
-3.694698950646576469e-02 2.185718002043586863e-02 4.364382340734036525e-01
5.777180908163361689e-02 -7.169996396391673486e-03 5.082943772509016522e-01
4.174114343331961074e-02 6.676464522523080369e-02 4.652373122833204921e-01
-9.607852620910951186e-03 4.856186444919308176e-02 4.348530426021426920e-01
5.490647342237131578e-02 3.173342067303213526e-02 4.863040123217610144e-01
5.290424491724647627e-02 3.856842802002461573e-02 4.658463734996409755e-01
9.678154226023241366e-03 2.498038666804014776e-02 4.312291225429408792e-01
1.784593541143001186e-02 8.932535933677956258e-03 4.370964228005985719e-01
5.533466167627028309e-02 1.158019175796052083e-02 4.804634003450968249e-01
4.316291966918366779e-02 4.610711582471605646e-02 4.530761144936456541e-01
3.757396956455601178e-02 4.411581215688598068e-02 4.489281556346723656e-01
3.831704369586713677e-02 1.868806419417011130e-02 4.467480289010950512e-01
3.375924741986133237e-02 1.469002823172391690e-02 4.435520610529733454e-01
5.378585442424530655e-02 4.285465735656660002e-02 4.925514193195964507e-01
-1.358418668844193350e-02 4.029381155206721715e-02 4.266969243833586556e-01
5.532833008585637258e-02 6.901955599334316967e-03 4.866367909897901800e-01
7.111943040190625911e-03 2.238382126972563585e-02 4.301695764086005402e-01
-3.072519777795450213e-02 3.450265808324030903e-02 4.310021658288081259e-01
-7.379371436309081767e-03 2.270747619000279202e-02 4.252260597247461971e-01
5.677448494651154282e-02 -3.059863027862146524e-03 5.045396328095292926e-01
4.211861919308511337e-02 1.984202092197909564e-02 4.495255213131426619e-01
3.818713425291568077e-03 3.499403718958397913e-02 4.273030719153780854e-01
5.468941070544743738e-02 2.235569143151031057e-02 4.851858430897177943e-01
5.716671394539196878e-03 1.999765598465212332e-02 4.302459161729712545e-01
1.249088781969020373e-02 1.899188999294382230e-02 4.342112875770033353e-01
5.123431635673068862e-02 1.079668300516787444e-03 5.113651458419280482e-01
4.650269168274497739e-02 -4.861519965191655676e-04 4.534689088073503571e-01
4.359535232427405593e-02 1.856301935003881742e-02 4.505427955965172204e-01
-1.618353224338384827e-02 2.329396910655203226e-02 4.270106349386562083e-01
-2.144412003630671859e-02 3.641900405293647947e-02 4.270689472034079892e-01
-8.664584438030888819e-03 -4.062150415788504804e-03 4.332047526819103878e-01
6.482473708186112932e-03 2.877890878848157752e-02 4.282781539584556985e-01
2.614633382053242056e-02 4.755623720776838009e-03 4.391756412541716892e-01
5.286909813159454408e-02 2.245173724136904567e-02 4.914402705772131785e-01
-3.691456274436197282e-02 1.525756302303199301e-02 4.416657342515951656e-01
1.095294741578268713e-02 1.889967795541775547e-02 4.334673619919156562e-01
3.832293180545993244e-02 5.169832835983327601e-02 4.500404201990504949e-01
4.664303322631971338e-02 1.274483084967018356e-02 4.528828131287034320e-01
5.461027433256257502e-02 1.138454393450031438e-02 4.694566403530422982e-01
4.879317221498163243e-02 5.715525922304547785e-02 4.768472046462693403e-01
5.475821004501643663e-02 2.874438404502404829e-02 4.869365744391411788e-01
5.338332738657729920e-02 3.939802187621172652e-02 4.951884573036620107e-01
3.128650326035856827e-02 4.452921709759847385e-02 4.455853676237648830e-01
-1.517169245866951434e-03 4.156985208666261547e-03 4.328869635582595077e-01
-1.910072835256629645e-02 2.233343744239485798e-02 4.285648122773794144e-01
1.632381872058823527e-02 5.768728318476137179e-02 4.443853910206668201e-01
4.143696297478858051e-03 -7.336072396669201731e-03 4.335846334915692823e-01
5.424670366057833537e-02 3.231000850854544998e-02 4.680651454961209934e-01
4.822461708589195067e-02 4.100921404218151739e-02 5.082301523941635812e-01
4.923356701345537462e-02 7.310262183750903045e-03 4.568397828347987577e-01
5.215278578728033826e-02 4.163794663650184635e-02 4.651259953135715719e-01
2.370280534245733373e-02 4.554197832685026592e-02 4.414276617128649050e-01
5.543795951207861755e-02 2.459456672890025786e-02 4.787325225832262388e-01
4.013615609363486297e-02 5.596463770198271959e-02 4.522887376274106752e-01
4.984658352187852637e-02 4.748496629699665295e-02 4.609247167982113980e-01
5.012597594218122510e-02 3.189478732855556553e-02 4.584210911988039761e-01
-1.862419809750226127e-02 2.248399319139847419e-02 4.284419053301645186e-01
4.722245587735412337e-02 4.348726368875879822e-02 5.097387364363292761e-01
4.400375905781393066e-02 6.421531966670725178e-02 4.635364788535804026e-01
1.409557284577870988e-02 -5.612519797034240532e-03 4.348189530583217444e-01
4.466214210550963071e-02 5.730217966543041386e-02 4.573249242356945965e-01
1.006758817069209298e-02 3.274609664521888758e-02 4.304615243511885625e-01
1.060586271393941168e-02 -8.957420161349344268e-03 4.345717968588652114e-01
4.374429796398203452e-02 -8.425775100919324911e-03 4.523785614269172362e-01
5.974389793739844079e-02 -1.277114011036735615e-02 5.077918801953020811e-01
3.172439709919575718e-02 2.677213474067247773e-02 4.436587188016660188e-01
5.342930335807800218e-02 3.764542781631674811e-03 5.016303420104474275e-01
4.959168517442499868e-02 8.317424148778917049e-04 5.147243995005367223e-01
7.857673584400447220e-04 2.612213634546747473e-02 4.260454069457910165e-01
-1.025983663122690195e-02 2.885976145423970254e-02 4.238443477961200134e-01
5.490465800000833563e-02 6.192203177407080636e-03 4.896253539385682640e-01
2.198351240344918744e-02 9.113917375290653614e-03 4.379907519223860124e-01
5.489779545995224219e-02 3.758373829252013160e-03 4.951539064784692967e-01
5.444060105035033320e-02 3.830668791029890469e-02 4.769041456359985331e-01
5.183733656512643645e-02 1.217672295865772532e-02 4.962668904249358248e-01
5.238721489369319029e-02 4.966193513564655382e-02 4.832078197817041287e-01
4.264625460709393218e-02 1.827835151670532954e-02 4.498010893529950094e-01
4.994717536381772238e-02 -4.488257922824411342e-03 5.180891811523133939e-01
4.376929213393901397e-03 2.186937597393626490e-02 4.288929329227381682e-01
5.336507913345731741e-02 3.544412129571707093e-02 4.658074214782609856e-01
5.087509970402768339e-02 2.866866841790049331e-02 5.008838183222918961e-01
5.105913738233400223e-02 3.150228041970262738e-02 4.599350931298985534e-01
4.289681315754611396e-02 -1.410092419143193533e-02 4.518082021651717572e-01
5.238396856938213469e-02 1.676888483279523334e-02 4.619160311397655927e-01
5.727618279316566696e-02 -5.974017740315979395e-03 4.830681406059982863e-01
4.840898902726465530e-02 7.387146308762341899e-03 4.554819734342793192e-01
2.527357808164030096e-03 3.916227224068577484e-02 4.280066075003601256e-01
5.680032253961864348e-03 5.601957042998419178e-02 4.398980504672567182e-01
4.791772545714125670e-02 5.978613343793471799e-03 4.548319970840953297e-01
-2.760574104062177292e-02 1.386550949482503320e-02 4.343410518489670413e-01
2.703940783125245717e-02 4.858719549272739330e-02 4.435357122169411026e-01
4.991901940076243910e-02 4.382265695926364224e-02 5.040695203068685792e-01
-6.080429637650703115e-03 4.325582715931452354e-02 4.277421128595024213e-01
4.951077915525847750e-02 -2.128276715814753951e-03 4.593434769482187541e-01
-3.341783028861958216e-02 3.260208656307335418e-02 4.318801026417154465e-01
5.528563083261606864e-02 1.357429601964002530e-02 4.799651512914192009e-01
1.185201641359649727e-02 1.951910972184589185e-02 4.336897738581140804e-01
-2.215757202084354602e-02 3.979673324732488360e-02 4.285951498442083785e-01
2.840788456564632969e-02 5.847720058978014140e-02 4.471107622738121345e-01
-8.568899092013915197e-03 4.912641878774653276e-02 4.349776765297334036e-01
9.382905914613794834e-03 -1.315473603621825083e-02 4.361246469038714824e-01
1.867008038542307749e-02 2.929735227889205054e-02 4.375871826554765809e-01
2.943714133591628437e-02 4.925849670614364240e-02 4.449659806116501026e-01
2.086308175068289118e-03 1.404557912817933248e-02 4.318492799566444051e-01
4.727267651485213967e-02 -8.025964727469726834e-03 4.573564034830804315e-01
5.323128425456652435e-02 4.003676417936751636e-02 4.956194587673169449e-01
4.862984402268142464e-02 5.592234330622246341e-02 4.644751616271190486e-01
-1.942088111796343684e-03 5.447749241250347124e-02 4.365759670134321535e-01
-2.327840181356289478e-02 3.510502843930507488e-02 4.273323812721983028e-01
4.827933811463983038e-02 2.450647855077289598e-03 5.152916647121749127e-01
-3.663618079342905072e-03 2.535356917002076771e-02 4.249258125954630261e-01
4.146301917652191887e-02 5.054436275193557003e-03 4.484909025307999841e-01
4.846279233740921621e-02 5.795922109656347770e-02 4.702641028079007079e-01
2.882707942073421681e-02 -8.826161587150261473e-03 4.395018824339499974e-01
2.079532016581097514e-02 -7.568857993834703785e-03 4.365706184368760012e-01
9.725358157430811362e-03 1.995047762302396693e-02 4.324494236830622729e-01
5.995998165958328630e-02 -1.313696179551925199e-02 5.050638596350770504e-01
-2.156537267871837943e-02 3.360872089596086271e-02 4.268107387069540737e-01
7.977470970609502887e-03 -1.544493824317042310e-02 4.370558570818933175e-01
5.791714916625562148e-02 -4.708889659237027771e-03 4.923636719643493809e-01
4.836871849971416393e-02 3.291927755897570279e-02 5.083634776804604183e-01
4.968103170234709071e-02 5.509507942033029654e-02 4.706931695805059990e-01
-2.258343091739884595e-02 2.917728522434182015e-02 4.273089911925662676e-01
2.162610108045397161e-02 4.981496076815799395e-02 4.404729706227669683e-01
5.196205619559613430e-03 3.025811446241554251e-02 4.273638235264437535e-01
2.139632253347580060e-02 -6.740376426865550899e-03 4.366708727408223356e-01
5.039963750017044386e-02 -7.924233699575891285e-03 4.633796390428585599e-01
5.026513934262284711e-02 5.370057850598321941e-02 4.707629209192196740e-01
-1.348902911566481413e-02 2.913340318026398992e-02 4.242064831060925467e-01
5.055822495641016517e-02 5.085589829318574312e-02 4.671350683897038114e-01
4.674343929161903916e-02 1.470863288881062332e-02 4.531591823255499141e-01
-2.882978998258746081e-03 1.279528926194516657e-02 4.309182496971400433e-01
-4.343732649467475782e-03 3.847488089798413446e-02 4.249647341139279888e-01
5.765380167413294843e-02 -4.840614593899315171e-03 4.948348200938518793e-01
4.363661777812793963e-02 3.151038662221626596e-02 4.518541216821344575e-01
5.039155033841804382e-02 3.244022430397019985e-02 5.031915929313413027e-01
4.504736413788385657e-02 -1.290403798090750641e-02 4.546423767956615514e-01
4.274983189362639019e-02 9.433780410938395408e-03 4.493332595518855221e-01
2.301932442657117495e-02 3.014043019827886138e-02 4.403139645267236668e-01
-3.422577614887295505e-02 1.613543285039192171e-02 4.365616166824665689e-01
5.753042298027622597e-02 -1.065687681882100148e-02 4.843645751578378178e-01
3.762296791052625183e-02 3.530221944675533685e-02 4.480325561827021019e-01
-1.399339720276137830e-02 2.403986540173470854e-02 4.255169292100630107e-01
4.728043558611490921e-02 -1.531776893276290755e-02 4.593514533191010996e-01
-2.765899058878561797e-03 1.861387046290019498e-02 4.285137010217010545e-01
2.139921467871288771e-02 5.554343689223491254e-02 4.430230381724992172e-01
2.118760320899600036e-02 6.232076763147686993e-02 4.499251616651592789e-01
5.558836614378578900e-02 2.764238029691391471e-02 4.777348346616158703e-01
3.606372580031982217e-02 1.259133845846907400e-02 4.447868177489880948e-01
5.285951259474980235e-02 4.575602434355504483e-02 4.915867039230813473e-01
5.113457199364278283e-02 4.776275155527840571e-03 5.074235210992957823e-01
3.527873701511631543e-02 -1.622543420369555039e-02 4.443524662077365517e-01
-1.211938783536751010e-02 4.432027993416166184e-02 4.295844294213617687e-01
1.695501722975119308e-02 5.324470266226794674e-02 4.393629116226664411e-01
1.497527658301745640e-02 4.388403171869822289e-02 4.362447392998981543e-01
4.319742018858468979e-02 -1.273201607083747008e-02 4.521167605665213918e-01
2.467916075036729467e-02 6.413004499624498644e-02 4.579023225278045506e-01
-4.351347158749658585e-03 5.053956986558724718e-02 4.345372760069218798e-01
4.608803930890790351e-02 6.292637906743854537e-02 4.677789349806867336e-01
2.848289917460400042e-02 2.050768514833288883e-02 4.414026249782734279e-01
4.773862646870923737e-02 -1.188738768566973900e-02 4.595976874106536547e-01
5.413530851607311484e-02 -8.473401008841301152e-03 4.711786143640903091e-01
5.063625417440336535e-02 5.364708376115603222e-02 4.808896028035809511e-01
-8.602211079608592520e-03 -1.238998347358184413e-02 4.348579521359406952e-01
-2.511249677573651820e-02 1.760964650751395411e-02 4.315906043706966289e-01
1.669551293480726548e-02 -1.028116105874673017e-02 4.358034541150316299e-01
5.057067974223518336e-02 1.458432593053904901e-02 4.586298942875419171e-01
4.969171461612310187e-02 4.548456069162209320e-02 5.038994669244363234e-01
5.333404182416880829e-02 1.413363920387425768e-02 4.894219577670324006e-01
-3.035788703803396146e-02 2.069756962875289596e-02 4.321377847058570087e-01
4.626976131118742258e-02 -2.016926088881244861e-02 4.588214391796923697e-01
4.924484252758021957e-02 5.328824582394976750e-02 4.640111710784215471e-01
3.987759462432830665e-02 6.625198454811223603e-02 4.596748778863753437e-01
4.653258292917066691e-02 5.938702508899607740e-02 4.823894396712493093e-01
4.944806900142013906e-02 4.912900305379949706e-02 4.608047784582496864e-01
4.038512421946201247e-02 5.730521189107305041e-03 4.476458121875861451e-01
2.470555914537062372e-02 5.847080348517744164e-02 4.458877329238511988e-01
4.869639505558293058e-02 5.273765898531737606e-02 4.951422759306404187e-01
-4.615266147326671942e-04 -4.176926302660449730e-03 4.328998762920371890e-01
2.020235525470422816e-02 -1.933156617925064352e-02 4.378170817729899467e-01
-2.237874641045352331e-02 2.970189645022478994e-02 4.270799436988733655e-01
-9.133291535903831707e-03 2.423358732414188782e-02 4.242662989815595975e-01
3.935956597963650300e-02 -2.344126765117488312e-02 4.499162900288474765e-01
2.117790259978259010e-02 3.445684568405259912e-02 4.396216106981551963e-01
5.404147879672196314e-02 3.226944904427303529e-02 4.669800066851377829e-01
4.163179538495338089e-02 4.948442438011335653e-02 4.521414871137053870e-01
3.762358839252271520e-02 -1.581596092484524596e-03 4.455339880805208597e-01
5.574904942052297946e-02 8.202999561554806876e-03 4.764939426217216223e-01
3.979008029024361237e-02 6.664132509750538003e-02 4.701732357086604308e-01
5.143427657539650227e-02 3.439349483941670643e-02 5.010720191352610042e-01
5.286698451758720801e-02 6.367764076374897442e-03 4.646936367686548830e-01
4.359441122673432534e-02 7.550275117124543092e-03 4.500583071594260742e-01
3.597630323091353943e-02 6.652309061299738202e-02 4.729390105096721864e-01
5.068081855659336415e-02 2.117937513783329020e-02 4.585840402818927020e-01
5.482399235095516271e-02 2.195673862709057733e-02 4.845103216662614010e-01
5.219787565878269281e-02 2.372786187980180719e-02 4.613033399018515168e-01
-3.133379158635654638e-02 1.132647093425528245e-02 4.373748737708756384e-01
3.735398768297457095e-02 -5.550657363822938430e-03 4.452590168811968452e-01
4.772078972526032359e-02 4.580021388287766615e-02 5.079641918957271685e-01
3.658503219285909325e-02 6.477051951898402105e-02 4.542150899695368560e-01
5.466954753949948564e-02 3.255096978795792018e-02 4.706001983352650631e-01
5.472906008046331955e-02 3.597352255591374642e-02 4.753200652560583550e-01
5.355861928940594541e-02 1.834196870715436301e-02 4.883217304251841751e-01
4.049311364788551679e-03 5.663096726284058691e-02 4.423708412717516358e-01
1.936380201759791558e-02 -7.484779133049851950e-03 4.361901014870966931e-01
4.220797022698621892e-02 1.974994527670462241e-02 4.495859056855714964e-01
5.348561330685160098e-02 1.959134106492525784e-02 4.641461305039362717e-01
3.881814483917385428e-02 4.088553455560789592e-03 4.465297692106188765e-01
4.621407799550406037e-02 -1.902106550130325258e-02 4.583073213887750574e-01
-1.166175066508267147e-02 2.921727532665363905e-02 4.240111717329441698e-01
-3.602824189556125961e-02 2.231290490283668188e-02 4.353082147864846818e-01
3.653483165246010356e-02 6.553728253589401198e-02 4.549423112354815113e-01
4.160007777960413738e-02 5.169295477859556232e-02 4.524255272963844110e-01
3.305154649745078999e-02 6.350367741058371429e-02 4.513656344799499287e-01
