4.062119961427639731e-02 3.468086266239363974e-02 4.497623191550528254e-01
2.959062497071581962e-02 -7.641637730301232417e-03 4.399225974377475312e-01
4.180152274329327483e-02 -2.089770928140409489e-02 4.521773903656485238e-01
-1.196923360172281667e-02 4.304311690992095041e-02 4.278711799834863383e-01
5.517936667600364248e-02 1.521785387355617178e-02 4.730297887779657540e-01
3.071447917290275401e-02 2.766776878809652090e-02 4.431513784203411910e-01
5.540024021488906825e-02 2.731008932697594205e-02 4.833197365436799897e-01
-3.311031701463496013e-02 1.125365116520854730e-03 4.380245798788086065e-01
-3.058251914120410642e-02 7.264082587029211530e-03 4.373150146591352483e-01
7.128268467812315032e-03 5.208652984709973011e-02 4.352693814165277120e-01
5.767762791795146005e-02 -5.791421932633987989e-03 4.982163730016480607e-01
-6.601041357771049532e-04 -1.136029825718679921e-02 4.338370166472040323e-01
4.854228362324163049e-02 5.782655091055922958e-02 4.715077006977557716e-01
5.553716989054201247e-02 3.005440958471093660e-02 4.811752455870756395e-01
3.017825812821547590e-02 6.639645670682578493e-02 4.539308301219309727e-01
5.382255253223934555e-02 2.698083378318523809e-02 4.655846735652675594e-01
4.841655063045700175e-02 5.679647436516722936e-02 4.652193895673072399e-01
4.365213873956496488e-02 3.708879490932367323e-02 4.524401065915183984e-01
5.453143837052400883e-02 2.873089789208276706e-02 4.691357579170317149e-01
4.789365121201860642e-02 4.474020217257286547e-02 4.568165363953434754e-01
4.746391950848076469e-02 6.554897145358737701e-03 5.127730539019024203e-01
5.343291286067588380e-02 -1.607496109721703870e-03 4.667931653011212489e-01
2.918299707726153616e-02 7.179105909945144269e-03 4.403065227968630535e-01
-2.780015308204794242e-02 2.588106454172691903e-02 4.298022247848501953e-01
4.885557588934075907e-02 1.528333681103225677e-02 4.552577052029365134e-01
5.048253185797903220e-02 4.398182398838827029e-02 5.025540193869265648e-01
5.803409054696670455e-02 -8.557716534837306321e-03 4.884289333204321903e-01
4.995807071021043239e-02 2.010419025307787211e-02 5.011471613100244582e-01
-9.037067926670513951e-03 4.238367459715345481e-02 4.271268336403147292e-01
8.270667194704877431e-05 5.396177505377748596e-02 4.354763278067657062e-01
-5.809176979797931253e-03 3.153811155358483831e-02 4.233949871038459878e-01
1.720767427956945705e-02 1.664827808431765949e-02 4.360799603395507651e-01
2.853838498148071438e-03 -1.752831933125453823e-02 4.368039389284997243e-01
5.615299221322173073e-03 5.629761659036153915e-02 4.409016603866390827e-01
4.600051497815899060e-02 6.125134224896166407e-02 4.635330572691935269e-01
4.360803311270668864e-02 6.471858968310871540e-02 4.768067158126716443e-01
5.679803837793640647e-02 -5.854040936920807672e-04 4.785378248183737027e-01
1.086757733437681769e-02 3.721253610933885486e-02 4.319091050926937569e-01
2.915036237110743989e-03 2.274637099815410637e-02 4.277556715521725894e-01
4.722751462951272489e-02 5.949331151640652876e-02 4.647856008551032869e-01
4.945513302986578874e-02 5.599382863551323475e-02 4.751207986749776957e-01
-5.330093819253010207e-03 2.853336508937844018e-02 4.237272320467140307e-01
4.514402542951134745e-02 5.025228990551194874e-02 5.044307051666054864e-01
1.829115332279450043e-02 6.836202458468207399e-03 4.368184382079416950e-01
-1.002041479274949328e-03 -4.064358120753006239e-03 4.327953371324896881e-01
1.786999334854283417e-02 2.440153978059627499e-02 4.365058774249866436e-01
1.524109878958217548e-02 -7.860946131648907653e-03 4.351460679275027110e-01
-2.279537499282174515e-02 5.173551535843415837e-03 4.336194507950787425e-01
5.505094444625110994e-02 3.614465061123350170e-02 4.836958557295376604e-01
-1.513278735662565086e-02 8.168875875163961187e-03 4.309529177643763309e-01
3.401012973084713981e-02 2.237861287608940500e-02 4.441377065251868594e-01
5.530599870213141755e-02 1.868303302237994332e-02 4.743433070880980762e-01
5.476606173813783340e-02 2.736349759919335864e-02 4.868713830070448556e-01
1.477192054119817050e-02 5.005791556808488613e-02 4.375246223838111792e-01
-1.139375385136502487e-02 4.554224460068486552e-02 4.307223594043947945e-01
5.067316297259780861e-02 3.902597678997900277e-02 5.029441737282078773e-01
-2.469308563861729797e-03 -1.061672461846098828e-02 4.336552343299823198e-01
4.927796374762044573e-02 -6.750323038583031648e-03 4.607634290568138336e-01
5.704059354025897699e-02 -6.260426677220747721e-03 4.816395511739626212e-01
2.922842722685521297e-02 -2.320033141990993086e-02 4.417252631517981087e-01
2.876300535757032178e-02 6.281364797610608508e-02 4.501758549706591506e-01
2.494301260358662217e-02 6.280512685594145939e-02 4.501077281518684470e-01
5.795739126292367982e-02 -3.790975516849733398e-03 4.901820344633869841e-01
-5.812760466620318922e-03 1.740356740008009231e-02 4.284704394257501381e-01
5.450618179036293559e-02 3.465567601671761672e-02 4.707094004214581462e-01
2.964234768397304431e-02 4.041976968694559885e-02 4.439830746700723640e-01
2.865246308543362846e-02 5.821663088425915733e-02 4.468008734426975881e-01
3.490233368140086001e-02 6.218308352395137545e-02 4.508179919825257009e-01
4.226824754749421154e-02 -1.498176831328607538e-02 4.509475943400824693e-01
4.600316088921482804e-02 -1.816205826103519869e-02 4.573736400655587508e-01
5.375126103918548975e-02 1.520386070734982935e-02 4.875154438242721433e-01
-1.728912190264792273e-02 3.188929245894692177e-02 4.249227314354278029e-01
5.017251783370840074e-02 7.226410109763199349e-03 5.063960466199870503e-01
3.618966178935595357e-02 -1.964182254088100293e-02 4.457245966329424491e-01
4.200422980134350254e-02 6.632911113878262044e-02 4.728096028294543340e-01
5.444045772794871979e-02 2.762415050231447136e-02 4.886002522345845311e-01
5.255542027763712709e-02 2.482495363064465832e-02 4.618405634753505740e-01
5.247611670335371181e-02 4.643933439797478385e-02 4.708320900529939235e-01
5.524947487662629914e-02 1.456327484123311027e-02 4.802221495943143625e-01
2.009000229263620957e-02 6.093727181300476192e-02 4.463687247469561026e-01
4.786966664883225697e-02 2.797054845578399521e-02 5.090786889474367971e-01
5.100145421491040360e-02 -1.343753624857696449e-02 4.660556941275639242e-01
5.032214635567240635e-02 -1.484432354593851963e-02 4.651446457935893286e-01
7.119690583442825869e-03 3.280427989111780150e-03 4.334764351805325266e-01
4.864550811571310973e-02 7.013143115835062356e-03 5.104364099971198110e-01
5.508533586460882120e-02 3.600812815869933875e-02 4.810876100522266108e-01
2.771371917551782374e-02 2.608180726900170832e-02 4.416673850981644445e-01
4.848505905307750989e-04 5.526988415469509530e-02 4.378402067913335083e-01
4.691622721099451832e-02 2.340068365577074525e-02 5.106659993824228527e-01
-2.353485382951788635e-02 3.833282610840701293e-02 4.279902099126333681e-01
2.324324380937057948e-03 2.448953595231089485e-04 4.329784180855540399e-01
2.618437551015881035e-02 -2.168559989310589464e-02 4.399011687076619381e-01
1.239162622462286999e-02 1.432587910215847929e-02 4.343309195384045251e-01
5.501963652351440914e-02 1.805609054283639769e-02 4.723780543416864486e-01
5.360784629448781674e-02 4.839587967104362100e-03 4.986256339151965977e-01
2.545583269067224971e-02 3.748055966990633536e-02 4.420137620656153232e-01
2.166323347960098442e-02 3.500833224394032245e-02 4.396644291608018951e-01
-6.123423025723818275e-03 2.916119868627039396e-02 4.235473205327073276e-01
5.207516535101674310e-02 9.936558713322597887e-04 4.637078569932224226e-01
4.156659245077818504e-02 6.662425780111651263e-02 4.656338645375613927e-01
4.994651662100792894e-02 4.421614412203098837e-03 4.583603768053465255e-01
4.860700818811568291e-02 3.830347992824132547e-02 5.077410684863780110e-01
-7.086330300992848760e-03 4.461518651786899187e-02 4.283378749251767204e-01
3.915108296210273453e-02 6.663037109655416124e-02 4.705996381144672558e-01
3.073891826031893010e-02 3.038121457969186756e-02 4.435984427349241588e-01
5.109720662363146509e-02 7.136535243495378648e-03 5.036013903279372705e-01
3.083584511449071960e-02 1.156440771785669300e-02 4.412616254398713522e-01
1.969046676476350621e-02 2.378211667004049082e-03 4.367903030944330078e-01
5.322097212622450141e-02 4.572626446318864973e-02 4.886204504937604609e-01
1.812323930943308958e-02 -2.127327089882077860e-02 4.375606363452816394e-01
4.408922485761392757e-02 5.680610082884526846e-02 4.559683320728503131e-01
2.671295660501536370e-02 4.035102448842539657e-02 4.425414386267255695e-01
2.387306660616619891e-02 3.092157059447947325e-03 4.380064407536723436e-01
3.158292865557611045e-02 -2.562280953269909650e-02 4.440820321635555179e-01
5.304544103861581761e-02 3.431799149969067680e-02 4.957908046029687044e-01
4.288273129836946314e-03 4.048034700685031184e-02 4.290930054868248855e-01
1.071047647482860615e-03 2.661665026594724898e-02 4.256175970380929874e-01
5.065585053652843506e-02 5.356698987719295257e-02 4.812505126681001499e-01
7.859854242661260329e-03 2.441423671455877215e-02 4.299188546630606234e-01
-4.823143532175920740e-03 5.878670597161179782e-03 4.319347386081176521e-01
-1.977338504684904037e-03 4.380554456937595792e-02 4.284893240811719628e-01
5.312531284740639598e-02 3.680082730140383368e-02 4.655187818744795369e-01
2.182736338521100092e-02 1.818963654653793852e-02 4.381975798711941206e-01
5.046106205671090777e-02 5.232597019595412735e-02 4.884133676140323677e-01
-1.923869632706681418e-02 2.810080025298685585e-02 4.258168846715092437e-01
-1.411187772298144738e-02 7.396647525837216769e-03 4.311444577007021994e-01
1.877667160878195365e-02 -1.481100424938490163e-03 4.358148647305699064e-01
2.555843776618967750e-02 4.660279252598651528e-02 4.422809970828469051e-01
4.027113136660168125e-02 6.579734128094290313e-02 4.765357283665571653e-01
-2.960274074796485910e-02 -5.332660373857352545e-04 4.367734111450453094e-01
5.564308680713267452e-02 -8.462243151277340850e-03 4.764486745787234745e-01
3.059593184725387105e-02 -1.060889845771610662e-02 4.405800327451469545e-01
4.168639549182624054e-02 6.384079430306205394e-02 4.578702988164325416e-01
-4.038184158851742395e-02 2.740751087717316088e-03 4.476058556942718036e-01
3.647835578292001057e-02 2.773447970980185903e-02 4.462402932044672865e-01
5.214636819200524354e-02 1.305784612635592801e-03 4.637990769557376880e-01
-2.647453311959246589e-02 2.466833705704568266e-02 4.296545227369466535e-01
5.489445769034061867e-02 -3.671466133529646507e-03 4.713140604564850511e-01
-1.089478989598038731e-02 1.091686842039301178e-02 4.305758552186900734e-01
2.136425867903230663e-02 5.323269297382349219e-02 4.408729474659854319e-01
3.604774235603049742e-02 7.744418117890530980e-03 4.444978785382616704e-01
4.953903325480368131e-02 4.253107999923358418e-02 4.587006278809126480e-01
4.613748218741671459e-02 3.142304127487945131e-02 4.536683461436736842e-01
3.667322005151266856e-02 2.847310233847495653e-02 4.464779078575576987e-01
5.446813068662750140e-02 3.510027582149838343e-02 4.903454497613780605e-01
-1.203857711857077122e-02 6.492964849565000321e-05 4.328470096854351579e-01
5.630656461913310928e-02 3.287280848633157733e-03 4.816495308102997641e-01
4.293053272593707476e-02 5.740360500067984845e-02 4.547357772506779860e-01
4.621299605435646995e-02 -1.577438151722698051e-02 4.570286370652739683e-01
-7.451449550725104155e-03 -1.247878202098018016e-02 4.346523898758927196e-01
4.681847827141877305e-02 2.299320347100774001e-02 4.533286998453833760e-01
-3.074301118059908841e-02 3.329125546501739141e-02 4.305293627510264898e-01
5.596449186220448652e-02 -1.223002330196739252e-03 4.993420288843717358e-01
6.360761909992643237e-04 5.531752935468864374e-02 4.379647272930628499e-01
2.616867384813832687e-02 1.995824057264834056e-02 4.402442773265833886e-01
3.340253703618546038e-02 -1.296020212372399338e-03 4.424426510345212393e-01
-3.041115516012334388e-02 7.771254895168238155e-03 4.370169144315750320e-01
2.182303397382452312e-02 3.326718791460822611e-02 4.397870913619387201e-01
4.747626327482647179e-02 -6.710416114540922183e-03 4.570627151140879141e-01
5.234724547217885215e-02 1.428732904304880723e-02 4.926740682021906181e-01
-3.383229327176383999e-02 2.355768911561954230e-03 4.381229817712682384e-01
-2.901261379257401990e-03 5.327882070125925656e-02 4.357043426460214808e-01
-1.871034009371724252e-03 -3.217004894419990199e-03 4.327380443353678330e-01
3.840879933793010792e-02 -1.373895969182463775e-02 4.462565934029706360e-01
-1.404257019520389763e-03 -6.548456768725129801e-03 4.329564323377348423e-01
5.540843689739351902e-02 2.964594758488411572e-02 4.754876876420562892e-01
1.108318293245568733e-03 5.436079845600177290e-02 4.357509526688686519e-01
9.521787700001754784e-03 -1.198968331237554655e-02 4.354651397431331117e-01
4.310664151542011047e-02 2.114004921790992725e-02 4.502127787319173957e-01
4.791084345245336107e-02 1.983812742060192535e-02 4.543651825807334954e-01
5.411221168558169592e-02 2.747842614720681642e-02 4.896000964421737822e-01
2.740748551955088375e-02 4.125588430148247054e-02 4.428969862413312808e-01
5.488379350927874434e-02 1.960953946608664025e-02 4.832695552132258432e-01
-2.224525958872659859e-02 1.684320987152902738e-02 4.307751540151047442e-01
1.797964199921647452e-02 1.272294651448760763e-02 4.365016289495878277e-01
7.688263395746502277e-03 5.639746424921955603e-02 4.413692343121085604e-01
5.241693576209753569e-02 2.120677547609222877e-02 4.922260280917122865e-01
5.750230743577421089e-02 -5.200313862826291995e-03 4.985161181678108289e-01
5.022548414048248061e-02 6.614999852305750161e-03 5.070709411400841082e-01
1.012411706867115358e-03 4.800842638762414794e-02 4.305768193627707574e-01
4.769004902193458434e-02 3.968817253767458614e-02 4.564573660211189154e-01
5.481634918921389488e-02 2.232988955731422809e-02 4.845454770429090674e-01
4.243567755225644694e-02 3.065917594282387137e-02 4.507073721154346013e-01
5.043966709791103398e-02 1.967245463283597007e-02 4.992164947349521653e-01
1.216108514959516468e-02 5.357662716227065518e-03 4.349365715012764033e-01
5.410748361814730900e-02 1.190064202456040526e-02 4.673213591787429566e-01
-1.402098762879972274e-02 1.414081279314755892e-02 4.298302463757052716e-01
3.343902675445669520e-02 3.260937257726434502e-02 4.451454394148670057e-01
3.771651735947220696e-02 1.515583159799055793e-02 4.459085083873720601e-01
5.527102628796778244e-02 1.014904582229858576e-02 4.820457839018182367e-01
-3.385791903206886166e-02 2.212354478492212922e-02 4.336171626464674911e-01
2.916778913553993643e-02 4.151998004780081339e-03 4.402669472189916222e-01
4.691311233519745993e-02 2.281601761554816199e-02 5.106227179888496170e-01
-7.180573190631963330e-03 -1.116623773673680944e-02 4.344248593440490636e-01
2.944573449131799095e-02 4.248692540130440121e-02 4.441390172493068222e-01
5.301702375050611205e-02 4.659181268222932493e-02 4.878638332262754673e-01
5.092571284858877362e-02 2.168689139216007158e-02 4.588491307354307658e-01
5.500268610591108748e-02 -6.440052782118941589e-03 5.136229076447267339e-01
5.079847892203522702e-02 1.331860090866962901e-02 4.984436234597265925e-01
3.606643313160026731e-02 5.907950795712049730e-02 4.503598456373429371e-01
7.648333456667512180e-03 -5.501826550818994174e-03 4.336897319277104867e-01
5.392314966495601741e-02 6.572654739712966918e-03 4.940521590730929113e-01
-6.742945617484974799e-03 4.255639450087648351e-02 4.269815481601528795e-01
4.798331655745647489e-02 1.526283450906590518e-02 4.542987026637255732e-01
5.537606445231939289e-02 2.925439987345758788e-02 4.742151974648688428e-01
-4.295660932253497245e-03 3.602347587489449984e-03 4.327184673059859543e-01
4.103608181648624176e-02 5.570824682756598395e-02 4.526311054651511734e-01
4.672310065272858304e-02 -1.856401071485240875e-02 4.591693690767493230e-01
3.911683499410004670e-03 4.610712984712722617e-02 4.313526915922952787e-01
4.690843321405467614e-02 3.842077636878759445e-02 4.555986998374427777e-01
5.184754732057406112e-02 5.775084096336688400e-03 5.035505091538404754e-01
5.546012109163780263e-02 -7.163970139705219155e-04 4.727758589518990529e-01
4.779628811745446904e-02 -5.264134634868070615e-03 4.570678269685790052e-01
-3.069783295857028693e-02 2.004163637337066234e-02 4.323382235696301978e-01
3.194095337296929543e-02 3.035286730731885999e-02 4.441233154011188233e-01
2.562882166055348993e-02 5.570410147415659485e-02 4.443199409209155348e-01
1.179549535059971031e-02 -1.592849761764136059e-03 4.343137343222624458e-01
5.679045772727208535e-02 1.294557928575598574e-03 4.864794902487234451e-01
2.303789522313543642e-02 1.011740215404109862e-02 4.381261086971650065e-01
3.574158808215244232e-02 -1.020495268394822422e-02 4.438705923043857471e-01
5.184416576928874837e-02 4.487289132272066772e-02 4.979993267771662402e-01
3.959490460137405493e-02 -8.889463427989383743e-04 4.471226083725324818e-01
4.698354328181800904e-02 -8.519470219494083840e-03 4.569075895640705154e-01
5.430650064489773304e-02 1.153954817219381319e-02 4.872840483555857527e-01
-4.510751498507453716e-02 5.178550173915901292e-04 4.461835178190615148e-01
5.334170935761776977e-02 3.746689491344767919e-02 4.664267708905730503e-01
5.614365665293195168e-02 -1.572220225937551912e-03 5.030151737877204265e-01
-2.228441943051942889e-02 1.628670954641845553e-02 4.309301026203072871e-01
5.737531937169011720e-02 -1.426198032044274921e-02 4.826253726006524691e-01
-3.002000799229468525e-02 4.324396335994509441e-03 4.362731540352988713e-01
5.319289687693729701e-02 4.203831586026066103e-02 4.700941756450968678e-01
-7.020442012111135881e-03 -5.904153441966803958e-03 4.333475224896103373e-01
5.106689530857713710e-02 5.098792345607159465e-02 4.692975758006285858e-01
3.063056003739151809e-02 5.713553904617331425e-02 4.470681132369148658e-01
4.723040336018673180e-02 7.550245761332209649e-03 4.535483323546035117e-01
3.953934507642241358e-02 -8.760797369054770106e-03 4.471355829136835491e-01
5.115312371166993999e-02 3.649725327576421735e-02 4.608721081862414692e-01
4.816752715640017224e-02 -2.813169272179021855e-03 4.569120022290910632e-01
1.803845862822665500e-02 1.090845674787856504e-02 4.367956964985985069e-01
2.516853134589505311e-02 5.666129689980003298e-02 4.447824266874920718e-01
1.016380846208994777e-02 5.619998958128785693e-02 4.408930811251964843e-01
-1.244531556232881045e-02 4.171429938505866186e-02 4.270823513095165502e-01
4.792010720385318084e-02 6.407589060280828933e-03 4.546834120958308523e-01
6.712043947887479448e-03 2.534272623022289922e-02 4.290728750392864832e-01
2.053711761946823422e-02 1.211573742734137898e-02 4.374907992997321693e-01
4.801687785545049464e-02 -1.575670411228360327e-03 4.562735213210915575e-01
4.680777632778636288e-02 6.149121790053262149e-02 4.677774729226128470e-01
5.343167545981385158e-02 2.739136484841703939e-02 4.637641184390454141e-01
5.365498944073087556e-02 7.409310899569534863e-03 4.937655680500222521e-01
-9.686686415841456663e-03 4.911454168967185202e-02 4.363603947814179151e-01
4.808381196104864058e-02 5.775173790886523051e-02 4.814256759459515922e-01
2.654553988317937332e-02 1.024196440005868333e-02 4.392345533343084973e-01
4.977945394236665128e-02 1.309611167337780893e-02 5.023743636516461164e-01
-1.911676673657698028e-02 3.887133336008978535e-02 4.270026546144393698e-01
5.053970275777042165e-02 1.303460388630226299e-02 4.994776588832582354e-01
4.937655527839546199e-02 3.943177251223018570e-02 5.058840117198200037e-01
5.074023681500370447e-02 4.081016389589155885e-02 4.611525002217771729e-01
5.102445862207714150e-02 -5.208311551156718545e-03 4.634446410244498771e-01
1.692968122199009842e-02 -1.229501926535650665e-02 4.360601694020449504e-01
3.492774129629623581e-02 -1.360791671974851281e-03 4.433589105688741094e-01
5.304061255938432445e-02 4.480805508656931363e-02 4.738108890245409377e-01
-1.678693326027380639e-02 2.624084152272574202e-02 4.252579567570788921e-01
4.836246959789049227e-02 1.909608459837321137e-02 5.071256550593655765e-01
3.232552205775456045e-02 3.591312467320777191e-02 4.448628846650902746e-01
4.255271856586606560e-02 6.632244371899222168e-02 4.699648315911805208e-01
2.928510134526952566e-03 3.516678677097831440e-03 4.331507084173101263e-01
-3.254862471940214025e-02 1.850643084702632835e-02 4.339248084234729186e-01
5.326475994774929057e-02 4.426251940032181753e-02 4.756419668879790508e-01
-4.731468268697486268e-02 -2.531434208498567311e-03 4.427298192830775858e-01
5.130740014539623972e-02 1.133536156106163505e-02 4.602951193683594289e-01
2.697872330672308402e-02 1.508726286995436087e-02 4.399015108742846958e-01
5.220994075535026480e-02 3.456473443624344388e-02 4.624141284195247281e-01
5.524795140703217533e-02 2.620005121823322861e-02 4.728537247507220709e-01
4.761092864043463269e-02 5.782904624784045156e-02 4.626699467720707393e-01
3.420590191355254821e-03 3.481349000360710322e-02 4.266313183089357475e-01
-2.396458364394424539e-03 -1.418603813836991079e-02 4.349060818043555821e-01
4.839618278020093450e-02 5.283915865247919459e-03 5.123570765747714750e-01
3.338532293442937615e-02 2.566651830036587034e-02 4.441796518694382523e-01
2.923278810804905148e-02 5.498752105002591845e-02 4.457444042634936543e-01
4.805998473230763818e-02 5.649290216672710890e-02 4.844684381919246441e-01
1.687678525800737420e-02 -2.089956515307948848e-02 4.374908935708397562e-01
5.559445148960790589e-02 7.902015007364185731e-03 4.825198419158006624e-01
4.448283764336757873e-02 6.409427864495982619e-02 4.643267928086867724e-01
5.602624977214338414e-02 1.949739903368830074e-04 4.959419366925737482e-01
1.648575422824273551e-02 3.793823571291529001e-02 4.358565982657917615e-01
-3.028853899462649255e-02 3.841948077156635832e-02 4.336937474160788564e-01
3.650130899071186985e-03 2.600161650281203329e-02 4.267678522631160876e-01
3.795710496988430327e-02 6.821643186574741224e-02 4.640064318231977292e-01
1.792215978528450410e-02 -3.867790755942665526e-03 4.355194248538702406e-01
-3.640637076618522677e-02 4.175396917473766720e-03 4.407713038237608405e-01
4.031299167284754792e-02 1.312554356908567955e-02 4.475336386563711355e-01
-4.683727926201593922e-02 -1.680053516716892943e-03 4.458108945080463958e-01
4.951856698442847621e-02 3.240666678855694954e-02 5.050386928698471500e-01
1.102641102993416784e-02 5.569874034288554987e-02 4.395595006571520469e-01
5.117122461884853618e-02 4.422694500402073875e-02 5.010376288373665776e-01
4.960492845399776252e-02 5.537452080846331365e-02 4.712272292501736848e-01
1.545268003757027143e-02 5.876037968459182914e-02 4.474716709841594642e-01
4.923379403192131715e-02 1.532901290245598791e-02 5.031935567638214923e-01
5.147534691377893962e-02 2.945996769873776566e-02 4.990296543820061381e-01
-1.783549244180851479e-02 4.768855020731236835e-03 4.325730236402955953e-01
4.917442653328672059e-02 3.612348813675409637e-02 4.574821735587958904e-01
5.556628607603163877e-02 2.685379981113754019e-02 4.753687417924652991e-01
4.392974356877051706e-02 1.932657564314152129e-02 4.507016332693526972e-01
3.125546177769533696e-02 3.739287009281568042e-02 4.444612981091357606e-01
-2.569445687719540405e-02 2.584341711072615094e-02 4.290663595175033262e-01
4.903937298754776353e-02 9.488903268087340442e-03 4.561741030448625001e-01
4.861357533748870974e-02 -1.725792521164518090e-02 4.623556223725428516e-01
5.545116458238601859e-02 2.956963701597264266e-02 4.763538117763661539e-01
-7.889826212795001195e-03 3.240201498232208460e-02 4.229475841551892379e-01
4.447465269843103169e-02 3.271564980730454902e-02 4.524606811225255210e-01
4.358429896870323617e-02 -9.001823563784911927e-03 4.521694251505622986e-01
3.401256256904334335e-02 -1.285157905211666007e-02 4.429966131738896640e-01
1.760213431278555979e-02 3.572182971911520150e-02 4.366958088213504507e-01
3.868922862489040937e-02 3.806245329219330731e-02 4.487433198153299441e-01
-2.195606581496253873e-02 2.934751033057676761e-02 4.266439326019920708e-01
1.943806340748310824e-02 -2.312131813223747279e-03 4.359486419855321260e-01
3.765545466461363983e-02 4.211179950900590524e-02 4.485367365035158316e-01
2.259800269866952052e-02 3.175895800443008510e-02 4.401294497959922780e-01
3.879248605149340084e-02 4.286400300336076774e-02 4.493640270320402585e-01
-1.020250893499506997e-02 -5.565083128450280976e-03 4.336595518738782240e-01
4.024707048284072164e-02 6.512706603577404774e-02 4.779205178330558912e-01
-7.540240619208476297e-05 4.246295132651016491e-02 4.279580166699646360e-01
5.502419195497988691e-02 1.939964917132762368e-02 4.825209723482432045e-01
2.387763385942373758e-03 -1.086600704643132624e-02 4.339764451703742587e-01
-8.981089030589337746e-03 3.205866798206614271e-02 4.231849499943400317e-01
5.521279449382874432e-02 3.494396147628452132e-02 4.821452499098887179e-01
3.803061114293500300e-02 6.412532073412685607e-02 4.540498796610778487e-01
5.239346760262942465e-02 -1.736609843461603062e-02 4.696978133256349830e-01
5.152469894448299254e-02 3.463260074211667750e-03 4.615846286931301612e-01
2.187630752091888550e-02 -1.822356298113058520e-02 4.381298848499816101e-01
3.798145833623685352e-02 5.177484529767160948e-02 4.496090052186284547e-01
-3.533149375937437182e-03 2.212891299812701565e-02 4.261582952176450334e-01
3.829652559078498136e-02 -2.315449108511213536e-02 4.483946742724602141e-01
4.092974911674904931e-02 5.352883327351285608e-02 4.520152342667766443e-01
5.485706965073191416e-02 3.153655763094661418e-02 4.863920993059898668e-01
5.442771029605448369e-02 7.258993269596373046e-03 4.906222792576696579e-01
-2.926405806865975401e-02 4.494728322488753501e-03 4.359395081071029687e-01
1.051853378019336135e-02 5.516314730836287261e-02 4.389843882075300519e-01
5.286389798679008017e-02 -8.628903189727022555e-05 5.096838685655351586e-01
5.368830812102266814e-02 4.454692511963606605e-02 4.844740233020030096e-01
4.973414189339106679e-03 3.358593944537780623e-02 4.270121317975407171e-01
5.158004069996999230e-02 1.721832251730346167e-02 4.951523508525487172e-01
3.824778824539846328e-02 -9.930526761328748592e-05 4.460073407891128050e-01
-1.835583761454815527e-02 2.651991640628170027e-02 4.258398319199143134e-01
5.300272687473928102e-02 7.188506117198193747e-03 4.647604865196089952e-01
4.820952249851613580e-02 1.865985256291038952e-02 5.076500161034958047e-01
-2.489117677724098088e-02 1.934014361012708835e-02 4.305545877699281654e-01
-1.871262784072668869e-02 2.315660460447551555e-02 4.278925747483107167e-01
3.511345506484834372e-02 6.673271259754662288e-02 4.708416094558916520e-01
4.885115967537694004e-02 5.663097393359576431e-02 4.801947417789658168e-01
-1.512297539796914579e-02 4.398817968529707828e-02 4.311113260186412721e-01
-2.547489783925201666e-04 1.798919018479959442e-02 4.289288995487204881e-01
-3.228271974389142207e-02 9.875470608086293900e-03 4.378879188325014438e-01
4.685319659520275487e-02 4.163113996859699878e-02 4.557754488930980119e-01
3.753047574253517288e-02 2.074701035462091572e-02 4.462042132376362602e-01
5.412053159633117838e-02 2.158975223726294565e-02 4.669683152328982789e-01
-3.326643305743825357e-02 2.440628864662185149e-02 4.327406019816914529e-01
5.044166938124573785e-02 5.398096174271054676e-02 4.752087128227194812e-01
5.368772463298453895e-02 1.042946183287435206e-02 4.909996479553515591e-01
2.783237482747616398e-02 -2.155819950458243844e-02 4.406986332485508528e-01
5.271125580398179633e-02 2.243098745701040814e-02 4.917254584015933738e-01
2.528258236827808994e-02 6.271075716400360822e-02 4.497855956999247673e-01
5.084399128535897761e-02 5.033098571173119651e-02 4.925600934457832758e-01
4.529754343095430263e-02 1.150263083812379412e-02 4.513689795896060897e-01
5.347784801348600542e-02 8.101819051477233621e-03 4.657287113271318946e-01
7.693962663753120546e-03 -2.212557349922654459e-02 4.381568557695360577e-01
3.316295309780297601e-02 3.166121953804046374e-02 4.449074261650573514e-01
1.356480572354162081e-04 5.281085071220020105e-02 4.343112322787086033e-01
-4.092005996502845640e-03 1.697008395568240860e-02 4.287883670985161988e-01
-1.218847958431385457e-02 3.964400735232493506e-02 4.257421449610948039e-01
-6.335048361993510062e-03 4.245285106805932185e-02 4.268705245211252830e-01
4.686712688848537062e-02 6.096254184273560556e-02 4.756550664663965478e-01
4.734947221274825313e-02 -6.704558618626244200e-03 4.567968818675005593e-01
3.288919533005818518e-02 -2.357399202649848244e-02 4.443672588900126064e-01
5.392371707778848000e-02 3.206196701937522736e-02 4.663143951718560776e-01
2.587974479034226699e-02 3.493253116654342853e-04 4.385764469715918157e-01
5.343186735634626594e-02 1.942465594315102850e-02 4.885624376085743736e-01
-2.998033754539481538e-02 1.672012927810555966e-02 4.337540486277485785e-01
5.559434692742822037e-02 2.624963307877997698e-02 4.792619183814025852e-01
5.141037509091270219e-02 3.794058321048289495e-02 5.013613717907443590e-01
3.267983804470919046e-02 1.837244333981657290e-02 4.429917516850140902e-01
4.392725429513580360e-02 1.572050224037128009e-03 4.506907820737827142e-01
3.116695716262674054e-02 3.841440014274797449e-02 4.445429757051785336e-01
4.725380001174103728e-02 1.287624509854759861e-02 4.533697705725918126e-01
8.943899362792419316e-03 3.672968035502847950e-02 4.304045769870971094e-01
4.020717801220655835e-02 6.375714501658820421e-02 4.558996601685366690e-01
4.854366267419151643e-02 4.668102338891166880e-02 4.575143563657242396e-01
4.585591090213309712e-02 5.995931817279458870e-02 4.617061381870982695e-01
1.234478294854575962e-02 2.151959858855937921e-02 4.330458457527004978e-01
2.404770430679274706e-02 -5.151007077825764044e-03 4.372250225623547926e-01
-3.369369370859457823e-03 2.974120862707528568e-02 4.240867927901768031e-01
-2.177509119738469182e-02 3.264747611953059542e-02 4.264882871174655032e-01
-8.065251348914051141e-03 -1.157987972208365801e-02 4.346226631699629528e-01
-6.133436884012694566e-03 3.911473101194539587e-02 4.244782487420893924e-01
5.212344544467594626e-02 2.730519079431196344e-02 4.960237595861777260e-01
5.456891305058083480e-02 1.749250320331848657e-02 4.843904105797710580e-01
6.802056375199551884e-03 6.281227646050028049e-03 4.338487621696527907e-01
4.072858799783412448e-02 5.570323216648248588e-02 4.523995466467896631e-01
2.042258254150490157e-02 3.659782995149611640e-02 4.387271773600186497e-01
7.979017944876798038e-04 -9.597199135438197817e-03 4.332816046890674566e-01
5.095748115558601521e-03 -1.431950486666947256e-02 4.361075215415844419e-01
-1.365105039283500028e-02 4.522154508180702137e-02 4.322200510580933575e-01
5.422926779423323240e-02 8.046778475770722389e-03 4.685823629200907003e-01
-1.217815444247036250e-02 5.488051611070974070e-03 4.318526381786329527e-01
5.457098737993332227e-02 2.680353807177803666e-02 4.693354017131052269e-01
5.366044498185712497e-02 1.200984093046360106e-02 4.655768014851536796e-01
-6.057211362028802615e-03 4.797161183905524623e-02 4.313516281411017284e-01
5.777652358675658406e-02 -2.883443955603934815e-03 4.893767984222132661e-01
3.921743483012581771e-02 1.734067834354472565e-02 4.470894378861046126e-01
-1.405262569180134279e-02 3.179330510175550420e-05 4.330942017812045575e-01
9.222417897802488718e-03 6.572183853531769239e-03 4.341847808373399675e-01
5.315715579940504670e-02 -1.575355809725351511e-02 4.711149092398323468e-01
4.321055465620025210e-02 6.587571306527438553e-02 4.697584964271900865e-01
1.699813352278264564e-02 2.252859926850206765e-02 4.359544865644875422e-01
3.155367664491201540e-02 -1.174501960504906184e-03 4.413187414482648285e-01
3.750262199229373317e-02 6.848758158138716634e-02 4.636596967448395890e-01
5.340614814772919050e-02 4.535545307258062597e-02 4.873603008068585485e-01
1.947428032011544810e-02 2.872614707392549122e-02 4.376672311435311213e-01
4.531445039167219385e-02 4.366441801907183784e-02 4.544188358857797483e-01
1.338880288872795407e-02 3.302354303839697552e-02 4.327734286852643053e-01
4.633832935990705310e-02 6.247098425322585719e-02 4.713405246299923190e-01
5.725874280218214152e-02 -1.237028320624368894e-03 4.856856854330303119e-01
5.137747208256860515e-02 5.657822224565112017e-03 4.610788091208412598e-01
4.100711528972293685e-02 6.079978675576980934e-02 4.542593381227350013e-01
2.275823605841591907e-02 2.101390730284628805e-02 4.390096845079081711e-01
2.027392129061850179e-02 5.943928948599759565e-02 4.448907995630541068e-01
1.061858571376021396e-02 5.658633179775967442e-02 4.425703449355459784e-01
2.568572022228654897e-02 3.682900540998025607e-02 4.421027667909501191e-01
4.522502341437752149e-02 1.607568351751507280e-02 4.516453657224889784e-01
5.362913615440029202e-03 -1.225906422134682115e-02 4.350433049698915755e-01
5.434282427125514126e-02 3.128592478872368327e-02 4.682014027066270234e-01
3.403982855736502333e-03 1.373185635551494276e-02 4.319700251257601042e-01
2.926589570657058686e-02 6.557660460221352572e-02 4.531473784628733958e-01
5.429809944764263374e-02 -1.301770429757666790e-03 5.086004370303157662e-01
5.182963280797550643e-02 1.910253460833169492e-02 4.604629488097747303e-01
3.222782647595278521e-02 -2.172900245297689631e-02 4.432960177508097899e-01
5.442564846284805857e-02 3.590716781978708222e-02 4.715136759993988069e-01
3.646433818127517434e-02 1.615249406530138571e-02 4.452076064890472806e-01
3.968655064370105179e-02 3.222158954054882979e-02 4.488544477105472219e-01
3.374491228232621987e-02 -2.576458541065172747e-02 4.458404127233146497e-01
-2.750822839662590141e-02 4.051361136045424777e-02 4.356170345858610404e-01
1.724734575571451253e-02 3.790634326570013757e-02 4.364438600381453370e-01
3.228090279780308769e-02 6.322665060968639394e-02 4.504476260997528625e-01
4.430758927566606775e-02 -2.281144483268444934e-02 4.563294179093007052e-01
5.795692170269816507e-02 -9.522989234593264019e-03 5.114907638627443909e-01
4.692049628153309448e-02 2.566794800098885776e-02 5.108146519492796633e-01
4.511095056565467970e-02 5.866902491183673823e-02 4.870437251271176882e-01
4.891467646255175106e-02 5.081253861977789305e-02 4.600647487255404844e-01
2.429183063502360004e-02 5.096879678529801783e-02 4.419012177434163413e-01
7.747674882305947454e-03 5.716967988632350173e-02 4.446007830160756957e-01
4.843631980584408442e-02 -4.393086398805491274e-03 4.579437149978993760e-01
5.922504323451174141e-02 -1.082890646172165322e-02 5.035360658156919911e-01
5.256357068608849201e-03 1.937479542348274561e-02 4.299486651414392013e-01
-2.405173704623960948e-02 3.768303501565192781e-03 4.341062906821355760e-01
4.922582305479929199e-02 4.324412288144832694e-02 5.053836106428374331e-01
5.092832532344612056e-02 1.422217650706946238e-02 4.972135501372340616e-01
1.692408279635279969e-02 5.343595670458487629e-02 4.391878619140952011e-01
1.132550799623468704e-02 1.948215591659205673e-02 4.331430430921270891e-01
4.549600557680889140e-02 3.328476226055621795e-02 4.533941814926068514e-01
-3.339483460027157721e-04 2.210338093467180409e-02 4.271961580028630356e-01
4.250436995806219226e-02 -1.107775340678578135e-02 4.510170015513012554e-01
5.263387169064331905e-02 7.595427892785080320e-03 4.974142289880530976e-01
-3.106349017417837227e-02 1.912846011816501587e-02 4.329135859314130474e-01
5.300070044886946025e-02 1.637192645124073073e-03 5.069956278330872701e-01
4.804950420853139337e-02 3.120987975054278184e-03 5.149569823476045638e-01
4.658567724752100958e-02 -9.631052090524203774e-03 4.566149638733820737e-01
4.410899595085188835e-02 5.648635759707234388e-02 4.557646450607468758e-01
3.924710240802194855e-02 6.789370040297418307e-02 4.622076354678064658e-01
4.892609345899379819e-02 4.102469103659403538e-02 5.064984092693290973e-01
4.898709532974202668e-02 1.781841320733140374e-02 5.044959276969190887e-01
5.393587136326416509e-02 3.688737154731867862e-02 4.930220771299369531e-01
4.895388572208885652e-02 -1.042343628393185145e-02 4.614756495801508041e-01
2.775629986643642771e-02 6.513739825503488123e-02 4.531059883720970349e-01
-1.376581793167657624e-03 5.544944853951950386e-02 4.386412840166877825e-01
2.356773486982745650e-02 1.790452229624238389e-02 4.389141089618115443e-01
5.669025740361720994e-02 -9.771425341281842446e-04 4.940362561366365424e-01
2.252360048063271197e-02 5.462150421762249075e-02 4.425568440975781170e-01
1.327007461291291116e-02 4.707640772865607365e-02 4.362076820731429216e-01
4.383574007506380737e-02 6.314472148559775733e-02 4.791552292430902860e-01
-4.424649679421584214e-03 1.162968357336343836e-02 4.306894813707387581e-01
4.888274912873193101e-02 5.372403338036985804e-02 4.920491761314891299e-01
5.208991994534182407e-02 5.036348516288554830e-03 4.626415970153542889e-01
3.348859253303829164e-02 5.060830304359813930e-02 4.469657857209325957e-01
-1.233891977362475655e-03 1.515080197668574116e-02 4.302822624682985375e-01
1.214600252944078584e-02 5.635857172932999537e-02 4.418565316146026989e-01
5.162261737094493014e-02 4.703171820931173475e-02 4.950256229376672756e-01
2.288762038881405475e-02 5.793979095529482731e-02 4.448220749706601751e-01
-3.918960288134408672e-04 2.556284353003083695e-02 4.253367979953293077e-01
9.348784114070118542e-04 -5.994911867934531007e-03 4.330119793352449342e-01
-2.830809142160854372e-03 1.113230159333469457e-02 4.313033357074936291e-01
-2.379119566361705216e-03 4.737069304929966002e-02 4.300861689295486512e-01
4.109702902546457509e-02 1.354367383358735799e-02 4.480651491269586617e-01
4.053406063365096873e-03 -1.711747401902145860e-02 4.369803354410827234e-01
-2.490144881380656691e-02 1.522943088738493503e-02 4.321708281146540709e-01
2.989537314503916410e-02 3.183888326647148909e-02 4.434320697115367027e-01
1.062887946759075164e-02 2.743673023218801826e-02 4.310566271262829541e-01
1.923155014943388197e-02 2.550245814010301121e-02 4.372666872812722705e-01
1.456130793075962812e-02 5.870980209522640159e-02 4.479053170643070847e-01
3.670849126902943349e-02 2.029155607183101215e-02 4.456132474757651951e-01
-1.115688656074424745e-02 3.744199401438190467e-02 4.244447349282651216e-01
