1.488357719166440163e-02 2.398155419369045818e-02 4.339268638377024589e-01
5.099359054030852545e-02 5.129665297260127543e-02 4.876982117300025510e-01
5.492407290893985133e-02 2.341561254490813829e-02 4.710123040702166586e-01
4.958612875143642018e-02 4.783171223435036222e-04 4.584121406478400829e-01
5.067474860731206732e-02 5.338571138702149360e-02 4.747952901041022078e-01
1.600137807160932971e-02 4.154227435911670568e-02 4.357198375469735763e-01
3.157925191442157581e-02 5.741311762803826685e-02 4.472687949902696136e-01
1.722509684482444528e-02 3.369709193441198375e-02 4.359773891466380280e-01
-1.668316613423121222e-02 3.850869956904240388e-02 4.257098489239252159e-01
3.258091261677500960e-02 2.314911208192823797e-02 4.431415567972898373e-01
2.090065138321671803e-02 1.292278339143428795e-02 4.372684781999434667e-01
3.612390460144983273e-02 5.912744038635726895e-02 4.500715150027614353e-01
4.355112541278691185e-02 7.782850930346116997e-03 4.497401875539976945e-01
5.336138756276934819e-02 4.345079450329187437e-02 4.745812664487087384e-01
5.167006963770424260e-02 3.038798421309289385e-02 4.983521632350017549e-01
5.412278525913859217e-02 1.983785422533283771e-02 4.667995836846571822e-01
5.231403629404651756e-02 1.114856706389151606e-03 5.088978514695132738e-01
3.271191555930255679e-02 3.130792992536265279e-02 4.443613137849917183e-01
4.209272449418707124e-02 5.541405123659495779e-02 4.530395370937397859e-01
-1.826538308394162150e-04 4.642421115436058676e-02 4.292571800836669782e-01
2.698346281416525577e-02 4.096252510051284768e-02 4.423127276694353571e-01
5.495808738015892786e-02 1.612839530106417556e-03 4.991992976726972175e-01
4.789425125610263789e-02 5.643834518241921255e-02 4.847476348499221710e-01
-2.403306469110632476e-02 1.536420200691906296e-02 4.314310993544756556e-01
5.240022700289626023e-02 6.907001247017202118e-03 4.994214544153828816e-01
-3.912772765310286449e-02 2.877867451401115804e-03 4.428695863241118857e-01
5.394482524190288147e-02 3.568533656995828696e-02 4.678736969162361481e-01
2.991815534069920332e-02 5.215349300953277950e-02 4.450168664940871710e-01
3.937850312472999242e-02 5.842132976527693311e-02 4.517715068324966166e-01
3.010999564559400932e-02 4.412611323713378636e-02 4.443079351599855120e-01
6.079935777248360144e-03 2.884030413295211523e-02 4.270167826403200029e-01
-3.425275774708250870e-02 1.772327814192825590e-02 4.350969012089742627e-01
3.148170556171855927e-02 3.926842033050530201e-02 4.445146471917960085e-01
-3.323706303978269522e-02 3.360700266960586075e-02 4.321577564581473574e-01
5.720237240075223828e-02 -2.305170496731510140e-03 4.820968411325146086e-01
5.297876157633057276e-02 6.863752238608061135e-03 4.971546041151444495e-01
-1.423636545540600887e-02 3.979082897987283596e-02 4.257304980003376316e-01
4.959528258118307831e-02 9.872192854289651293e-03 4.570343845547719108e-01
1.475526053224480647e-02 -1.857259594740601899e-02 4.370216798216238208e-01
2.744888842034961737e-02 5.267058662839223249e-02 4.438539195121008474e-01
5.299944512089591053e-02 -1.637124781367322798e-02 4.708267492686689093e-01
-9.586944670221876283e-03 3.512852198567855549e-02 4.228607577821612007e-01
5.076574546739389543e-02 3.782346273122546947e-03 4.599127543731846846e-01
5.216492993070463019e-02 1.473883342448689335e-02 4.613856704639245909e-01
6.107524579244006518e-03 -1.465922382061478693e-02 4.364375772547735566e-01
4.062532508336835768e-02 5.208952439184315331e-02 4.511346822980220606e-01
5.204521581071434172e-02 5.006806315676453484e-02 4.759551734656354283e-01
-1.582902226496782708e-02 1.125493890758014551e-02 4.306074034523689753e-01
-1.677635345692920360e-02 3.674207919881550960e-02 4.250197549777038897e-01
3.904218024306197604e-02 -9.033600404006653789e-03 4.465732520329894206e-01
2.870161021081622799e-02 4.106661578457796585e-02 4.432357853276606141e-01
1.231217564028242936e-02 3.098303076820251717e-02 4.315626447923448517e-01
5.543318089518806807e-02 3.685603897735652713e-03 4.903586161030333845e-01
-8.016178134176555822e-03 4.538745891110181063e-02 4.284770982714224408e-01
2.324129969311218569e-02 -6.089883755603567490e-03 4.369282157713026971e-01
1.469758070723188939e-02 2.646533140301086592e-02 4.337776574969514076e-01
4.352778579865518305e-02 3.830724592777381976e-02 4.522401289185628559e-01
-9.354694602467426845e-03 -6.947771575459809300e-03 4.338053196880408691e-01
-7.685279940934709210e-04 5.355535021488410513e-02 4.347888552929350947e-01
4.691361405037675764e-02 2.309193338821433419e-02 5.103716077715644284e-01
-1.664586803936789552e-02 2.806398648522772862e-02 4.244117546235679495e-01
5.773526062559117267e-02 -1.208242713290190624e-02 4.850431147855049918e-01
2.456808421302451514e-02 3.230936543274207096e-02 4.409693923635144563e-01
-2.119776790377913417e-02 4.685618604535810201e-03 4.329287854286901771e-01
-1.244728359902020319e-02 2.264035787175175396e-02 4.250973414203974010e-01
4.945764492940824680e-02 -9.339292559947644581e-03 4.620303119281518600e-01
3.405048622148978965e-02 -2.369106662317590345e-02 4.452694748170046291e-01
6.224973656142660135e-03 2.530826318628465535e-02 4.282178615475613626e-01
5.554640638542271414e-02 2.591210773969771994e-02 4.789442152081685444e-01
-1.629608092354004750e-02 9.075844320833467010e-03 4.308117772476712237e-01
5.326865807566260463e-02 1.555375726664752316e-02 4.891811669862982104e-01
2.233667794752133146e-02 -1.904047104625389980e-02 4.383077083431171084e-01
5.295144707918882088e-02 4.465386498195195869e-02 4.719301452532248531e-01
2.159533991822426557e-02 2.333677560376076071e-02 4.381665868898196314e-01
3.971439037833428970e-02 -2.313492685031040552e-02 4.501515502155112869e-01
-1.796116149727061337e-02 2.890397449754222164e-02 4.247438472028410850e-01
4.389789489788051974e-02 -1.259126778168131663e-02 4.528994005368295328e-01
2.599309346330485118e-02 -1.096233116383832536e-02 4.382920434874725824e-01
1.712222123052236505e-02 2.221233506280361619e-02 4.357294195794452207e-01
-3.296556483960664391e-02 1.963762984862144068e-02 4.334221669344273664e-01
5.556837846886613502e-02 2.889531230935903777e-02 4.802386987425887876e-01
-1.333913353843521263e-02 1.530038559567468981e-02 4.290539119098301102e-01
9.109105915148948962e-03 3.134006503982963987e-02 4.290798307585542704e-01
2.797391798922233344e-02 5.255055373599650664e-02 4.440939715229478280e-01
5.504228716488532985e-02 3.599593491464160577e-02 4.835227079707825060e-01
-4.312105639131209173e-02 -4.332086190245532185e-04 4.412901441235961841e-01
4.390629066739751285e-02 4.861654886628311543e-03 4.502180336082849399e-01
4.722330235292794554e-02 -1.911105471976013142e-03 4.548921006107425891e-01
4.495195241647395590e-02 -1.307934808180792087e-02 4.543868434695594316e-01
2.703984834543030763e-02 5.091439501999550643e-02 4.431780208799713794e-01
5.758239177569565020e-02 -1.006221983217355648e-02 4.849682324209892981e-01
4.942282034400605206e-02 2.976375572677634682e-02 5.047948291534986032e-01
5.316580650630807481e-02 -3.236523885427462516e-03 5.128016991398571811e-01
-1.209113734962507895e-02 3.037235417517254732e-02 4.232054152160652505e-01
1.560810039396166166e-02 -2.105177676919007743e-02 4.374777799718020943e-01
4.660814656514859766e-02 3.506696229082782029e-02 4.545126545936233331e-01
4.191429146171656017e-02 3.498148376867964843e-02 4.504728475035982838e-01
1.117218285701916235e-03 1.339993325503437832e-02 4.312905597804910784e-01
6.931751928408227785e-03 7.775988764000900909e-03 4.337950446987410280e-01
-2.411643372928739745e-03 3.642679479899590955e-02 4.238788715536819240e-01
-1.712532330740358655e-02 3.691019799649564170e-02 4.252023504946719767e-01
1.552936110926614668e-02 -1.707069615097515924e-02 4.369526820367599651e-01
4.716297958087247583e-02 4.958950585388145066e-02 4.562182206522709671e-01
-1.190529581252789890e-02 1.512365325229239783e-02 4.288914490581546834e-01
4.790988043174707056e-02 -5.824501444348057638e-03 4.574239004582125734e-01
1.572719059903094144e-02 -1.801238828565034783e-02 4.370253530139919240e-01
2.150920855374939544e-02 2.822473696771101229e-02 4.385159742360097423e-01
4.819887142206836367e-02 5.662567585125466429e-02 4.629511868391644192e-01
5.205314932550990370e-02 4.941021734758287154e-02 4.730304306384056634e-01
4.407739053309942673e-02 6.342989878991261987e-02 4.617400679041608891e-01
5.012263175237106211e-02 1.419463126925235921e-02 4.998612016875350617e-01
5.108247930369614470e-02 4.875855029422988124e-02 4.939603522395850099e-01
4.735349135247465119e-02 4.785259583116103360e-02 5.066981695299538346e-01
3.744948915958686009e-02 7.854445960842849558e-04 4.452077846671408379e-01
1.708991234595915246e-02 2.262942547228417867e-02 4.357111763918175562e-01
6.679087137141711400e-03 2.540628596588791199e-02 4.285298758086689141e-01
-4.155922144970116035e-03 1.277566945810604780e-02 4.300428730784717768e-01
1.421178347107562162e-02 3.010320825343904688e-02 4.335188779088733901e-01
2.629980005977844600e-03 4.626750342412595807e-02 4.301146187582819969e-01
-3.617020917980188349e-02 5.953093400646028953e-03 4.423394280198007511e-01
5.557628405137925859e-02 2.865007349925977748e-02 4.800927105121799987e-01
-3.350695183366727420e-02 1.154360745084303044e-02 4.382662563442370485e-01
4.195751089526437300e-02 6.661205143047589650e-02 4.646757978090605978e-01
1.228609126506858412e-02 2.979141107355827781e-02 4.317414681519380348e-01
2.042700935754669656e-02 1.975383660309311395e-02 4.375320089681217772e-01
5.543676559066720161e-02 1.987709094961720435e-02 4.749976571463152553e-01
1.452645216911445727e-02 -9.401060258666247421e-03 4.350581908347744275e-01
1.224149998914034893e-02 1.508666882888401624e-02 4.338335516276536352e-01
4.812150131453109096e-03 2.394659268083204964e-02 4.276934056081465041e-01
3.761974651349597049e-02 -1.955074976599480152e-02 4.466065695125185364e-01
6.377778607863105950e-03 -6.915482068824569013e-03 4.335991478531316390e-01
9.587976962357656896e-03 4.751140811734532593e-02 4.345960279291115058e-01
5.285617876870220277e-02 1.590330608799885373e-02 4.628472727234285711e-01
2.437057082731547072e-02 2.828374235973096784e-03 4.380607749549418339e-01
-1.351069620768302962e-02 -9.803829588274923582e-03 4.352059342549919885e-01
-4.065596966952706587e-02 4.935119765362672942e-04 4.411807012939000239e-01
3.189236454861209963e-02 6.359346261166649167e-03 4.416020324221958115e-01
6.911263639484454928e-03 4.096281963686547456e-02 4.303033575115535192e-01
5.621862854030477974e-02 4.352758651597015034e-03 4.807053768590064391e-01
1.260807835257984899e-02 4.092146960877462991e-02 4.337149468359527416e-01
4.635091396339170028e-02 6.087921257308739897e-02 4.780608407965224460e-01
3.195386306998602988e-02 -1.949312822586209484e-02 4.424885304103747807e-01
2.197354199488085053e-02 -2.343630378494726552e-02 4.384645812852389080e-01
1.040226559422534336e-02 4.941608158834243092e-02 4.354212291525663692e-01
4.264576020534422557e-02 7.103847062093148271e-03 4.490477896510606803e-01
-4.723112333244594910e-03 3.487291746717462171e-02 4.229166961034331318e-01
2.886766598825104072e-02 1.171091303646771241e-02 4.399552895563382249e-01
3.123456251539676737e-02 6.148098841793978031e-02 4.487411429481520386e-01
6.794574439312646430e-03 4.018200047964737981e-02 4.298730206589469471e-01
5.765308994289661260e-02 -2.488428246696317882e-03 4.888290252348420628e-01
5.323982523596811761e-02 3.666139421248142821e-02 4.954889228826967473e-01
-9.078588072818244772e-03 2.488399051864446584e-02 4.230639687163020302e-01
-1.331846914534829188e-02 4.334956664572373053e-02 4.280213711336353088e-01
-3.849577928891652259e-03 1.898740911180601607e-02 4.274882240550227919e-01
3.491192853636173460e-02 6.683473652718242841e-02 4.692472347934948385e-01
6.834411004867454835e-03 -1.697803714367968324e-03 4.332188381624832996e-01
4.740204367375554229e-02 1.989272589259160479e-02 4.537542353389129035e-01
5.314504229876179653e-02 3.712061308040204982e-02 4.654978826718855212e-01
3.581008075301077981e-02 4.175983128565855310e-03 4.442565180554187698e-01
5.679153437050000336e-02 3.718496937669998458e-04 4.788187348675839727e-01
5.885765987150864964e-02 -9.882002032862845231e-03 5.045941817633832205e-01
4.647163083189023020e-02 -1.151138277586258481e-02 4.568462711059629866e-01
-3.035467282639883052e-02 2.024924201302192098e-02 4.317814685646431117e-01
-1.865259002517343986e-02 3.827626528792026084e-02 4.262078104574960058e-01
4.342148268252862819e-02 1.478800917319826602e-03 4.500974320176728272e-01
3.719331273781809055e-02 -1.439361055631781239e-02 4.453276834216653990e-01
4.562044783577896834e-02 1.586051659920864262e-02 4.518474748574528022e-01
3.090709197261159308e-02 4.203872058158060823e-03 4.409408031679452056e-01
1.863349947233892620e-02 -9.488860501697116145e-03 4.360162201995505526e-01
-2.253979399773954617e-02 1.647381028364044639e-02 4.307006135182279150e-01
-1.546127007299273604e-02 4.173475612262440848e-02 4.272925351453645826e-01
2.738339103666868196e-02 5.212683729000498062e-02 4.435843325064001141e-01
7.219773195370227450e-03 3.774043482604294564e-02 4.290399921423186935e-01
-7.904252633706723014e-03 1.119285851943419008e-02 4.304125500885336297e-01
2.134191863987428689e-02 -2.174460025241399877e-02 4.381139788885320963e-01
-1.126950784428734295e-02 3.492023249901727439e-02 4.230262417329122004e-01
-2.504350955652544924e-02 2.768252731632282748e-02 4.278888825271464080e-01
4.849282412961586353e-02 5.664062926977664336e-02 4.650676294493612528e-01
5.609218415135817926e-02 3.341717830727202430e-03 4.770298105925901422e-01
3.443862477601139505e-02 -2.525257078884176123e-02 4.461609941033555793e-01
1.115434814100985106e-02 2.018647971611364778e-02 4.324150743085587445e-01
5.005801572915689196e-02 4.968047399440197326e-02 4.969692547923070802e-01
5.490363908754541944e-02 1.547420570142027732e-02 4.824075134629455253e-01
7.038465887758002353e-03 5.404555509491149046e-02 4.365404632832159959e-01
5.361080820847350520e-02 -5.472024225627624902e-03 4.681928896323652167e-01
4.092214007350724464e-02 2.089187090959295640e-02 4.483961421154690763e-01
4.572170594937390031e-02 5.342926873718543967e-02 4.959264737839738091e-01
4.658712216486707997e-02 5.860598124185350394e-02 4.612576979704148261e-01
-3.109387154143226223e-02 3.763922192888723151e-02 4.324865987356159014e-01
-1.539593370925837132e-02 2.866232919899591031e-02 4.238149738696602165e-01
-4.268262582623574830e-02 5.508463975328499723e-04 4.415424510603249142e-01
5.021247435538341887e-03 -8.882282789759981395e-04 4.330012885905722975e-01
-2.839474185027154873e-03 3.715418852813586609e-02 4.238795369647842537e-01
2.236845841410301655e-02 3.437318602340187074e-02 4.398227516489850442e-01
1.569648540095244099e-02 1.612834677627940361e-02 4.352141165722095972e-01
4.851893827720208524e-02 5.784308907990173831e-02 4.725270809824860807e-01
1.866145668144884515e-05 5.908419933575342724e-03 4.324817894400027063e-01
4.716604775778985431e-02 5.747614284103436805e-02 4.610522169113487334e-01
2.341588359482450407e-02 3.842822175796697243e-02 4.403748225698685959e-01
5.385557854485428092e-02 -1.069950270618722984e-02 4.712361317359682888e-01
4.952412235289404413e-02 4.185110532338771200e-02 4.582585058168973102e-01
-1.605858622325462282e-02 3.999860409123227184e-02 4.262660142952385267e-01
1.472762741297789328e-02 3.986763053303269549e-02 4.345580419366058544e-01
5.643324875981222538e-02 2.870659524366920776e-03 4.804042888768324526e-01
-1.055105901681740533e-03 4.266297877549101586e-02 4.275096239294613465e-01
4.692118769041256354e-02 2.224707186470780210e-02 4.532466759026563263e-01
5.797621992405932456e-02 -8.823601934876149078e-03 4.879847605079070116e-01
2.036807346788332973e-02 5.511314248872131727e-02 4.414857697451113894e-01
2.332554621852129736e-02 -2.144912034768888670e-02 4.388405944120371549e-01
4.809216555548673916e-02 3.329716537117792530e-02 4.556663356952754262e-01
-1.324758947041255672e-02 4.042065922486507562e-02 4.259352438494745652e-01
-2.312154494429057711e-02 3.590014933803781227e-02 4.265379037842871868e-01
5.044460009306145354e-02 4.215314926922797412e-02 5.026993844976053172e-01
3.891031576396276892e-02 6.663632002052348458e-02 4.690060110128825288e-01
1.023407061117449085e-02 3.438804275848295761e-02 4.302209889366081508e-01
2.130087063005026843e-02 1.008847517494006543e-02 4.375680993947423936e-01
5.013395121353237532e-02 4.103515001710219406e-02 4.595727692267181363e-01
-3.127360426218739331e-02 2.226024865465281097e-02 4.318278208904737236e-01
-9.580825930332549992e-03 4.426390848049922139e-02 4.279380616267557391e-01
-1.035167023759400728e-03 3.810421272546674759e-02 4.248976064248771167e-01
3.001927191045585669e-02 3.114315920373514346e-02 4.431408668561074293e-01
4.318348453937755765e-02 6.054832492806810906e-02 4.569507223708052512e-01
-2.713960252520085034e-02 1.807373434591073164e-02 4.315631181994609711e-01
5.794588818705408845e-02 -1.099380092722535875e-02 4.868377726684529616e-01
5.065959338733200951e-02 1.845294877637505479e-02 4.978850183094415960e-01
-3.450418038354711309e-02 2.808304433958602395e-02 4.321645614375017597e-01
4.761519864944947777e-02 5.683056135056448188e-02 4.844678887813166357e-01
4.365284663234402646e-02 -2.109336616071774695e-02 4.546572347512592982e-01
5.521542535878082303e-02 7.457584278444940457e-03 4.863765501651838297e-01
-1.286471688397181762e-02 2.523735886861210378e-03 4.324735121639894930e-01
5.066909871223777839e-02 2.490871861729018408e-02 4.583997317238722169e-01
4.394078715396017298e-02 1.916594007994124743e-02 4.505123494617790936e-01
5.062586500142339518e-02 -1.387753318155305997e-02 4.654265361226255782e-01
-2.084155830398712762e-03 5.462306960698728314e-02 4.363176479314968548e-01
4.389779174897074157e-03 -1.050393347924109648e-02 4.339694276828632846e-01
5.237032737845107727e-02 2.953904344610162186e-02 4.958341269096647186e-01
3.321921651704737299e-02 3.289220753853937251e-02 4.447779862829273623e-01
-3.605444016239513216e-02 3.907654479537343850e-03 4.399400440052573247e-01
-8.963691214309104510e-03 9.713452319550053109e-04 4.324897268794911098e-01
4.212158534910536573e-02 6.427602821472080952e-02 4.781828872531898034e-01
4.029511561463876290e-02 6.644243040498297448e-02 4.719397376338728134e-01
1.060997661158471009e-02 2.537053240826837516e-02 4.309314763165841278e-01
-2.817116901219963651e-02 1.354515646376256571e-02 4.344112571245657417e-01
5.230236927897349147e-02 2.494878637223777590e-02 4.940019738494348944e-01
4.819517225128757548e-02 5.849222716925715770e-02 4.703115316929897816e-01
-3.583912981232281487e-03 -1.153715359542688973e-02 4.338888441392610429e-01
5.547037612877926682e-02 -5.115466445972053494e-03 4.739797933064610058e-01
3.355821370320492131e-02 -6.692431406714926048e-03 4.422838763548962437e-01
2.194755049545417044e-02 -1.641287910773668590e-02 4.378437433021548086e-01
5.572973612426840306e-02 6.654032645531152666e-03 4.757643933249709467e-01
4.735941450003607750e-02 5.460250829305574732e-02 4.587290187663115582e-01
4.374848261766225987e-02 3.585435985200204068e-02 4.520768831426029699e-01
2.079452037044957069e-02 3.020008468515690200e-02 4.384603471922595141e-01
3.430974974413283918e-02 3.848722916729361426e-02 4.459447582174072000e-01
4.838279985759504770e-02 2.736917212256562495e-02 5.075381720047947853e-01
-1.894049345988932376e-02 2.143979085628305511e-02 4.281119454113611611e-01
4.919524092225790318e-02 4.892255808960191410e-02 4.593914788542660110e-01
3.683760492222531296e-02 6.702241177738137157e-02 4.673724263240722765e-01
5.566304494123645863e-02 1.025436886877988812e-02 4.787868093529852320e-01
5.522128745222040086e-02 1.747310641550225280e-02 4.806888974508128909e-01
5.936429065263874871e-02 -1.168106993709824154e-02 5.073113535514607308e-01
-2.534140268185966320e-03 3.705300458530296631e-02 4.239529208284948392e-01
4.570964491413509467e-02 5.550100782992612586e-02 4.568922412221876339e-01
4.971535545896627745e-02 -1.489299531526308562e-03 5.164530071860963245e-01
5.499927296246533148e-02 3.691778961065010634e-02 4.823145507000951571e-01
5.289094571304259890e-02 4.724513203052850552e-02 4.818991007863689946e-01
5.425505971761684920e-02 3.734053933036129286e-02 4.907613549805749931e-01
5.185355396727712313e-02 1.096661873459815750e-02 4.612301503659933521e-01
3.832556479307092090e-02 2.826334564120294712e-02 4.472494146374487167e-01
2.690949176307652277e-02 -1.947644634035314640e-02 4.398652885391036160e-01
4.676472320115466347e-02 4.859636340954157779e-02 5.073347703975170653e-01
1.241542208433099939e-02 -9.126739243341706193e-03 4.346948600278188191e-01
1.913160824623742762e-02 2.267164403350181365e-02 4.368230049875408416e-01
4.714214390866697940e-02 5.149870102515685666e-02 4.985306241027698815e-01
3.875284258178788438e-02 4.505842112293122204e-02 4.491957842813042445e-01
1.742024437393091540e-02 5.375900257910717212e-02 4.392684803586930364e-01
3.201992325926771021e-02 -1.243308732287629927e-02 4.415589619718556236e-01
4.050861714324317797e-02 4.404546888800624227e-02 4.504270780433849430e-01
2.274162574388263053e-02 -1.666446947821081243e-02 4.381446816014004653e-01
4.714308769056661103e-02 3.564511602216243608e-02 5.105136903875506782e-01
3.646720600846568849e-02 6.773072718716457996e-02 4.658599928446743310e-01
4.840927275435169541e-02 -1.261425668959683527e-02 4.608298378401102791e-01
3.608013087685998238e-02 -2.971330970444411440e-02 4.491389875449914859e-01
1.969803870314222952e-02 5.303434119627456478e-02 4.395890791443392009e-01
-2.717141953361645879e-02 2.327277427499282667e-02 4.297333762803079438e-01
3.349182549026027272e-02 2.452170344651941752e-02 4.438340378516771878e-01
5.449001297416664058e-02 2.778484681515195134e-02 4.687408273760738098e-01
5.134862038489911018e-02 1.796867073595049061e-02 4.956377181127066822e-01
3.250706834007895119e-02 8.936485321177798855e-03 4.418759779116489539e-01
-1.020170398188231450e-02 1.953139154788158249e-02 4.261076418462685367e-01
5.488396685908491363e-02 -1.157016115880720591e-02 4.746132657889829409e-01
-4.490919485309485121e-02 6.624048467623227035e-04 4.458568549011290294e-01
-8.929914875908820469e-04 3.091067278247461997e-02 4.240469199711756620e-01
4.548070646417058660e-02 7.836550077053881791e-03 4.513671112500554639e-01
5.353215723374331325e-02 3.396655744773650898e-02 4.654059719877580159e-01
4.296323965530809974e-02 3.642014595816202294e-02 4.514843031165955423e-01
4.155890758758993761e-03 7.048601202463334985e-03 4.332465879638242034e-01
1.894530467131486876e-03 -1.084619812155990064e-02 4.338266235558690953e-01
1.206777797638534412e-02 5.641594533839321829e-02 4.421143462066797758e-01
-1.011973246056276608e-02 4.533764477062941778e-02 4.288242989662621185e-01
3.070003926606319853e-03 5.353338239386210701e-02 4.348967705382352777e-01
4.463351824198819040e-02 2.734713727866229516e-02 4.517606525128970429e-01
5.334905777562205104e-02 4.094448149140381132e-02 4.943248800168705825e-01
5.374815070888477181e-02 4.415725047032090234e-02 4.865360704773964429e-01
3.840618825629200234e-02 -4.611959693590186697e-03 4.460497554450369440e-01
-2.890376162961221657e-02 1.333980010665774402e-02 4.349023719038495051e-01
4.440864814633327384e-02 5.366233546460140794e-03 4.506117372630703000e-01
5.701036397270446698e-02 -6.750388497238034996e-03 4.816889391764168638e-01
5.081881749322265940e-02 2.393579060935853778e-02 4.984634806957564668e-01
4.521124166592032506e-02 6.344198166038381159e-02 4.756323560867349864e-01
5.019478128959734692e-02 4.260517780189437484e-03 5.099469834072234420e-01
4.977532699269098665e-02 3.362010762152496668e-02 5.041660217354503315e-01
5.542708567171258233e-02 2.957610791013073892e-02 4.758503494225226893e-01
4.641988878490181658e-02 -1.780662397293919855e-02 4.580823179400102529e-01
3.731439280731180252e-02 -8.070218521954107202e-03 4.449911134661224676e-01
-2.221080846883428939e-02 4.114764241795287707e-03 4.333567416855864662e-01
3.083382427811350544e-03 -5.431548755229015195e-03 4.331114724461279653e-01
3.579853189638548122e-02 3.389952729173435937e-03 4.441850900214113773e-01
1.975597712254451715e-02 2.460139697888216043e-03 4.366696012772706692e-01
-1.338820080644860175e-02 3.979062539601612575e-02 4.255459018333688781e-01
5.759802076888389383e-03 2.448659051373930362e-02 4.282028568033400817e-01
-2.873183213556589760e-02 2.043032251526548729e-02 4.309537862403756137e-01
2.696648900564347154e-02 -1.422914698838629102e-02 4.391336367990019141e-01
4.227896707401031934e-02 3.592500890038981959e-02 4.508440179189117658e-01
1.865841037696912286e-02 -1.041684907304729103e-02 4.361199720691987247e-01
-3.612298938950136290e-02 1.900821127380582926e-02 4.366930078896926748e-01
4.427681311641710332e-02 -1.133717246623880404e-02 4.533167881130747423e-01
3.091843330124491307e-02 -1.206644922297189261e-02 4.407785484634479944e-01
-5.755638921913974401e-03 9.174469637385947174e-04 4.325630765786295240e-01
1.498615132211939330e-03 5.483997610094330094e-02 4.362231244363319882e-01
2.404346138003218142e-02 -8.212961562463502382e-03 4.373196582471388094e-01
1.495864848878397310e-02 5.492548353608373707e-02 4.395628523115816533e-01
-3.631361863211377689e-02 2.323760039817441420e-02 4.348144853153661504e-01
4.046328851123708742e-02 6.654416865377082990e-02 4.699390741885914324e-01
5.391858628686237165e-02 2.996408326704664074e-02 4.658439370819246750e-01
2.643058729340293234e-02 4.558330978051745169e-02 4.423532146941143717e-01
-3.930359225588546564e-03 2.739038495968642087e-02 4.236135113709024735e-01
5.326718631195305476e-02 4.417726337657521679e-02 4.922088372672507317e-01
5.045545550248464739e-02 -9.812619609589649447e-04 5.148847826335778421e-01
3.195975207741458962e-02 2.996335649240730939e-02 4.438243946043646249e-01
-1.259519444080733040e-02 1.447721022507510863e-02 4.292221567465157039e-01
1.206089702677529130e-02 1.837746570333243304e-02 4.335650268742912150e-01
-1.704535413067965327e-02 1.508568313776771641e-02 4.297019035459234138e-01
1.054004384249239770e-02 3.195836667475836224e-02 4.299223704337573060e-01
4.273452283681841712e-02 1.287553015377521787e-02 4.490511726326107400e-01
-9.361116090364142439e-03 2.858841080932689530e-02 4.228329141364282617e-01
-2.782646222111925458e-02 3.780576521749215435e-02 4.292923065241694980e-01
4.888381523423964564e-02 2.359877797062300345e-02 5.054767765759450304e-01
3.748049824413117459e-02 1.056947897683613476e-02 4.453977495561388666e-01
4.176105082188415890e-02 6.650831894766452701e-02 4.685888175570359637e-01
5.521917174281023438e-02 3.678638037077785420e-03 4.928367005870306072e-01
4.941675457901825719e-02 1.436769165374404515e-02 5.027806857558626552e-01
3.669676090897820014e-02 -2.711658056729134361e-02 4.487846850849622760e-01
1.352668588789880319e-02 5.881859431381292885e-02 4.485496416379104456e-01
3.495611034158731950e-02 4.695425538630443318e-02 4.470338825638793812e-01
5.706885227642156944e-02 -1.392941327529581205e-02 4.811375471264695558e-01
5.082323131697103619e-02 5.330181871245943948e-02 4.800665129218156246e-01
4.575955003570484486e-02 7.714346677723581645e-03 4.516101275635345247e-01
-1.205507371465987503e-03 1.426600999713063291e-02 4.303094934739477573e-01
5.357481804250168594e-02 4.490827443728905022e-02 4.860532476630170517e-01
5.401607353322010474e-02 6.265622186301408533e-03 4.679394372050248996e-01
4.234341697160877438e-02 2.392719468760994006e-02 4.497399849605075994e-01
5.223767149573865787e-02 1.718167707245435091e-02 4.928848327686076725e-01
5.176002146872377141e-02 4.918078095814035211e-02 4.892294875391415832e-01
-6.965803460065641411e-04 2.290342148463404143e-02 4.259684943084897091e-01
-1.094524103834664669e-02 3.248759609176145313e-02 4.230574850984841206e-01
5.157604777340019098e-02 4.951497922100267512e-02 4.896094789795162328e-01
6.259029194462624110e-03 3.018624274397240653e-02 4.271478558467054487e-01
5.107581124082836987e-02 5.036544698201891879e-02 4.907993048271914183e-01
5.032199261124972040e-02 5.093499294935315697e-02 4.656846705129765174e-01
-7.762827724705816980e-03 1.524245040330168832e-02 4.289424947914436959e-01
4.725045275673628309e-02 2.265103739205380148e-02 5.097223926672271865e-01
4.842179899549339805e-02 1.215448656282203284e-02 5.070512790705323791e-01
3.975995989202854575e-02 2.744200895049756297e-02 4.482122384365855305e-01
5.525275248989255233e-02 3.156051127272441192e-02 4.819084372382447246e-01
5.665871543003299371e-02 1.098776997827627042e-03 4.804890367960900632e-01
-1.232778000751575190e-02 4.135284403098550554e-02 4.264014348979400237e-01
1.809354968590929508e-02 1.405368316327934054e-02 4.360912712815512293e-01
5.026527610232333493e-02 4.074955852066212275e-02 4.598362510892458621e-01
-1.963196433572390875e-02 6.627639145272574625e-03 4.318909085474163523e-01
5.745258639024684866e-02 -4.779604467040195377e-03 4.855699023117475144e-01
5.370321516769502312e-02 1.723039934134936585e-02 4.649761091547150449e-01
-2.190659851877257980e-02 3.212386341827231512e-02 4.260977449668475470e-01
5.117129178750578350e-02 1.541811458459187417e-03 4.613194076970646984e-01
3.762548193915501993e-02 3.299509822181664886e-02 4.472855648910201154e-01
1.989727806206855257e-02 4.685097433374933729e-02 4.383545960486732174e-01
7.793149582958418600e-03 -1.306212242817394661e-02 4.357983348450997219e-01
-1.448186356802939369e-02 3.504948636295562164e-02 4.236602938046864497e-01
5.085051049098996551e-02 4.589679177802174354e-02 4.623697778431475336e-01
1.297242206764251046e-02 2.919137775175890612e-02 4.324430602806810797e-01
4.344688985854221891e-02 6.563933327205809243e-02 4.643165340743292124e-01
-4.600253399330919354e-03 -1.202597858204662411e-02 4.341129837330924279e-01
2.966164517455211966e-02 6.518154914272968059e-02 4.524200450732105416e-01
5.233362263111322743e-02 -3.924344223170331790e-03 4.652629179912018964e-01
-5.558866415595593510e-03 3.990223967795348409e-02 4.246333628942148830e-01
-3.991628297195860819e-02 2.631831911994295461e-03 4.485425969918859779e-01
1.387631651796646017e-03 4.070482255820645490e-02 4.270355326535843488e-01
2.066724518306604572e-02 -5.117711948583611448e-03 4.361647932439537412e-01
2.931691391021893148e-02 4.760323547308333014e-02 4.440567634410843567e-01
-1.731979606631006002e-02 4.233347589900754437e-02 4.280957823280415742e-01
5.704361155469094696e-02 -5.641142870482187231e-03 4.813522750939894790e-01
3.791526479029258545e-02 -2.591791781926679542e-02 4.493465646299762417e-01
1.049097097447047183e-02 1.681316808270692451e-02 4.328647272721484751e-01
3.372212268788147421e-02 5.114609922340912496e-02 4.468777912359768179e-01
1.930203590724556204e-02 3.574216050805655021e-02 4.375837672261053135e-01
1.511298022654122136e-02 5.071350691291890561e-02 4.373651260725031631e-01
4.245938340816441531e-02 -1.915764997032003147e-02 4.522082896479459602e-01
1.246480127029292104e-02 1.985800214803220762e-02 4.332259277391761754e-01
5.351386637617126102e-02 3.600100933143320775e-02 4.946427040839611045e-01
-1.148038393490108215e-02 9.297617700752616732e-03 4.304356035940310465e-01
4.942425520183876125e-02 5.568982270839455129e-02 4.779208884187020612e-01
2.011687871540215194e-02 1.225109272177639028e-02 4.370990287471972491e-01
5.100521361774599388e-02 8.013502672182960807e-03 5.021668936738696853e-01
1.976665111653467394e-02 3.687037823894305510e-02 4.378534754313408994e-01
2.399101000137415785e-02 2.426387452018468824e-02 4.396363460033358983e-01
1.678590632528669316e-02 9.139805677198173384e-03 4.364202707385693158e-01
2.006923218568668760e-02 5.138599735814355918e-02 4.392977208618684681e-01
-3.350184615058698911e-02 1.738763492635051616e-02 4.348152780559849662e-01
3.317318515568102449e-02 -1.837405770400875327e-02 4.430866801291086232e-01
1.320836140443575404e-02 2.684496468833344127e-02 4.325587927298378266e-01
-2.741614489876733479e-02 5.800781896740464516e-03 4.351726131199674108e-01
4.551538235793403664e-02 6.137411639507051042e-02 4.624228958162470149e-01
-3.127361910317860011e-02 2.652952096484200578e-02 4.307803504581054210e-01
5.049607526907521488e-02 5.090111832077091197e-02 4.923331167937081698e-01
2.024520375372315661e-02 2.526013802292857366e-02 4.374914326930579578e-01
5.744891191876428521e-02 -1.703033832583841995e-03 4.892875715340100906e-01
3.305127243093804179e-02 6.225976857308460066e-02 4.497031339153413354e-01
4.065088516118015027e-02 6.353561177081601397e-02 4.559433858801019146e-01
4.794049527398556998e-02 8.090561125356143454e-04 4.552735532762182680e-01
5.528445677657692348e-02 3.376738176731614027e-02 4.784439258218207147e-01
4.877950367196406956e-02 -8.462049003916038634e-04 4.572391466156131012e-01
8.933380674991765052e-03 5.615510691350404648e-02 4.405293880733781586e-01
4.793865401456678943e-02 5.751018002751933506e-02 4.821659335836110949e-01
4.981247499446146004e-02 5.378643609811599446e-02 4.874198892379840720e-01
5.488659334691793623e-02 2.480636023225690073e-02 4.849248167263633946e-01
1.490843337885016176e-02 3.131600653129393286e-02 4.340277844563449894e-01
2.310493192248386576e-02 5.784326327947050123e-02 4.445002643861235558e-01
2.224859131730446554e-02 5.416174622574992242e-02 4.417592741056263761e-01
-2.984863771151893136e-02 1.250074322588853176e-02 4.357743586986188022e-01
4.977473601176689993e-02 4.989455567161090593e-02 4.978761434273372699e-01
4.174043976905536524e-02 3.965973808308193710e-02 4.508721374573088636e-01
-1.895581138705587643e-02 3.097786835391277797e-04 4.337838070282700187e-01
3.593686067521267846e-02 -1.290800837477493364e-02 4.441760411050788560e-01
2.322435983592513117e-02 3.335212549098311163e-02 4.404173334516500171e-01
3.760692446925999188e-02 -2.711532077607874125e-02 4.494912971870086982e-01
5.513359030016497242e-02 1.910643798120718537e-02 4.811190606446909546e-01
5.894323827457586748e-04 1.174019350209512189e-02 4.316142217209702481e-01
5.020989094355667037e-02 2.264288190248802540e-02 5.002283097954988156e-01
4.736550894629650704e-02 6.015026141085524913e-02 4.681675170041451617e-01
5.439381664465436222e-02 2.223286190084978325e-02 4.682333369659436029e-01
8.746070571370090016e-03 4.943401883762984367e-02 4.348134826432345501e-01
3.056973914663835626e-02 4.768573139182574749e-02 4.447551749725419112e-01
3.536190731867577125e-02 3.364417166941793130e-02 4.460601122652725903e-01
5.202401639762780500e-02 2.956847191852917528e-02 4.969561438609272908e-01
5.755092022131589463e-02 -5.560661687412418383e-03 4.993542050956978895e-01
5.689917965133452910e-02 -6.354666858143700331e-04 4.908428481145641342e-01
4.145351559060296565e-03 1.465965588515377206e-02 4.316358539902859226e-01
-5.919284802299666290e-03 4.989737783128016246e-02 4.338565513799897411e-01
2.449917522854093768e-02 -1.664037514873100906e-02 4.387151919842982029e-01
1.083700035037262616e-02 5.199905947626833752e-02 4.362870965197414019e-01
-5.483694971162522691e-03 1.072577351429871567e-02 4.306894578113597549e-01
2.517026212416832720e-02 7.828334889689834986e-03 4.385514746033085665e-01
5.187276844216115457e-02 2.480717351560128223e-02 4.953773612647440205e-01
4.940069435876774662e-02 5.174970174118878607e-02 4.623477992220939026e-01
-2.296321220657542711e-02 3.141794238360273023e-02 4.263468239130215887e-01
5.245238664446419397e-02 -5.060724789389658626e-03 4.659098866888152779e-01
-2.740144792441868548e-03 1.991169125930757414e-02 4.271728524632296131e-01
5.296911311355333163e-02 1.361806895554164114e-02 4.908626284239627213e-01
3.818239475768334806e-02 4.714360649616070736e-02 4.489193974761302997e-01
5.483238396460150821e-02 2.224316934302937587e-03 4.985392885531520490e-01
-3.451813358030619144e-02 1.938343759043944375e-02 4.343915318962226491e-01
4.595045105488669741e-03 8.226248795364406521e-03 4.333611620073328785e-01
5.262342309529027817e-02 3.884090460901856723e-02 4.972424085912942049e-01
3.970687795321234392e-02 -6.396253162137939541e-03 4.472615709146785523e-01
-6.538438449028483382e-03 4.884757944931317902e-02 4.325164684662001768e-01
5.015695974269306079e-02 5.143291854858916823e-02 4.654896151571843999e-01
-3.670172171239522319e-03 3.609307210327656473e-02 4.234437184461006809e-01
1.412017200857621987e-02 -1.425885926700200951e-02 4.360839541838988920e-01
2.415169039872728726e-02 -1.041194829230260993e-02 4.376021321427960298e-01
-1.872905929843171613e-02 1.288033118100622050e-02 4.304529704349415176e-01
5.421740889626272542e-02 8.566414556432314781e-03 4.902879261154870494e-01
-2.998717170481924113e-02 -6.647815288290080671e-05 4.368108215922382187e-01
3.461479468103074303e-02 6.937392570731579222e-02 4.558082266878350497e-01
5.232409230031101477e-02 -8.446441825364565600e-03 4.668212836316159020e-01
4.223200705197394100e-02 6.008172148997726475e-02 4.551050346532492519e-01
4.980245921915309182e-02 1.597300034783549413e-02 5.008213001349994808e-01
5.580221968437045627e-02 8.442271896886557533e-03 4.791992495507206296e-01
5.036461764735098573e-02 -9.185232908302150279e-03 4.636519784700147140e-01
4.620457161123452117e-02 -2.150732983931311071e-02 4.589269576275056273e-01
5.243800740846839281e-02 4.824227416284785491e-02 4.750949173191055808e-01
6.889740952705688745e-03 8.640931310979151417e-03 4.337761494166642584e-01
1.597692325902849014e-02 1.821496724321106098e-02 4.353739204387636064e-01
-1.713474870775853753e-02 4.453586807793585844e-02 4.336255146292454787e-01
4.993824490159292501e-02 5.423345402290647571e-02 4.844822217612564930e-01
5.465728749555830851e-02 2.276712482077116254e-02 4.850844056859302533e-01
2.685352902677429904e-02 6.481598027286969432e-02 4.545371090470728404e-01
4.408197708767994799e-02 6.520948839226287097e-02 4.714337113923817713e-01
5.528183042730687446e-02 6.320466651032532850e-03 4.871534816470922680e-01
1.527140317201467964e-02 3.281980366829463647e-02 4.341447033518097687e-01
1.967204276115677025e-02 1.253301652456890319e-02 4.368959153460196254e-01
