-1.135493618602884287e-02 -4.656153635412556453e-03 4.333846705440186908e-01
3.576663158344355053e-02 -9.228888066807241358e-03 4.436176414243288013e-01
2.723853502744590094e-02 6.489092136963084401e-02 4.547004297799308592e-01
3.596348409146335467e-02 1.354731223581831165e-02 4.441524335243446919e-01
5.684185797733905254e-02 -1.178950652360189963e-02 4.805484959914754217e-01
5.087658789467284365e-02 5.311572753471219266e-02 4.753047141549421872e-01
2.298657256582380473e-02 1.197953717086162884e-02 4.377099024122209081e-01
5.309280526612114581e-02 3.944519806058635614e-02 4.662743243727450748e-01
5.752532728984712657e-02 -2.578513123266526052e-03 4.880512526549089514e-01
-1.016176217406114871e-02 -9.984574753307622411e-03 4.346174154285662450e-01
3.439447938201836003e-02 -2.938276061692170205e-02 4.476989459407659799e-01
7.784313655132307080e-03 2.626007774673354972e-02 4.282134153562727752e-01
5.167945657290329980e-03 3.620006781031038373e-02 4.263215164398112544e-01
4.995747010597599569e-02 -8.845342988886178634e-03 4.626437323854533656e-01
-9.538710620682061894e-03 1.762842711431969120e-02 4.269278408162278660e-01
5.119278148517723143e-02 6.287216703542680696e-03 5.044359655015336896e-01
3.312372664272016792e-02 1.570275709145252038e-02 4.425347237557801239e-01
3.821118921040642102e-02 1.960712511620572515e-02 4.460373216883427583e-01
4.204302434615685147e-02 4.778509626431053786e-02 4.512562440267225972e-01
4.953948599781122369e-02 3.185816111148996599e-02 5.040475803294659496e-01
-1.596854484427585527e-02 1.976104318332227994e-02 4.275275812439311429e-01
-7.086958734439577703e-03 1.044665580671498388e-02 4.303178068637040776e-01
3.779546832330603345e-02 3.318105321506921446e-02 4.469814036401665303e-01
4.965590495627818929e-02 -1.916196725812546742e-02 4.646946400051398252e-01
4.453520619349769089e-02 -1.424144492408492731e-02 4.538077229117473133e-01
4.813661977030702505e-02 5.593051897978186526e-02 4.851985731830810167e-01
-2.474310501843550794e-02 -2.084602408148594418e-03 4.354560838692546620e-01
4.968529764801531134e-02 -1.244397309860603706e-02 4.630378640813819224e-01
1.697815911495980518e-02 5.734880097824222867e-02 4.428490153458456424e-01
3.651893492596702817e-02 6.985487751288999014e-02 4.594336548575056467e-01
1.468831504712257707e-02 1.357166957552802256e-02 4.346003651314621630e-01
4.252970326156096936e-02 6.099742918142572745e-02 4.557887063992874799e-01
5.088929586706263108e-02 3.551782847777302382e-02 5.014839382669733503e-01
4.881971091293544479e-02 5.109536973512205510e-02 4.967824252541978569e-01
3.508404213794003718e-02 6.712469309482950452e-02 4.543690466401230088e-01
-5.707772942372225239e-03 2.897568841270337439e-02 4.222185730306960982e-01
4.599797334934411369e-02 6.339315716093862907e-02 4.689950885156242144e-01
-1.140199896096119950e-02 -7.692083303451981158e-03 4.342577961853594237e-01
4.453503425770093116e-02 6.492495979059015321e-02 4.737605145652136196e-01
-1.219349001569209300e-02 4.665734805343257907e-02 4.327664344241639593e-01
-7.619640627778258637e-03 1.751500387031203762e-03 4.323006266195172365e-01
3.615384552453414224e-02 3.875795470658862513e-02 4.465615979165274418e-01
1.338602546766864618e-02 2.158286903667277351e-02 4.327484842270364895e-01
4.301304564445780632e-02 -1.082292016146262081e-02 4.514427945876273163e-01
-2.247516705620037844e-03 1.486104302831428581e-02 4.292392245818218433e-01
4.258847872801302392e-02 4.583670642390790667e-02 4.515993519188798433e-01
5.046818096173673329e-02 1.907127484975854395e-03 5.116802819767714006e-01
5.518739716258709571e-02 -1.035789470587124284e-02 4.752902909838310763e-01
5.479675019428850713e-02 2.631184481698479669e-02 4.854923468437671308e-01
4.897062997638773618e-02 1.262765506934847293e-02 5.049825941490253545e-01
-2.192586532908766955e-02 8.400661535018753498e-03 4.320855034720305632e-01
5.699706437353780492e-02 -1.902721696986786875e-03 4.791490144954357322e-01
3.950934657623789148e-02 1.376674075462201718e-02 4.465771135212088239e-01
-1.793250820692640288e-02 2.651783838836545976e-02 4.245491966211994428e-01
5.479521634147576509e-02 2.995738165062063543e-02 4.702077245486879775e-01
3.610593022991675886e-03 3.860793564509369669e-02 4.265825826272401922e-01
4.962125940862550932e-02 5.507702803004183717e-02 4.821706291923517629e-01
5.171704597113541135e-02 1.248349898239571598e-02 4.605177607318232669e-01
4.912286824930611751e-02 2.779478601147307784e-02 5.050730943564751829e-01
5.004682309247984739e-02 5.222489231656459591e-02 4.902957560245206348e-01
4.541823339693662476e-02 6.403723954448783950e-02 4.711005699217732379e-01
1.132519645089180224e-02 -5.090271681541066150e-03 4.339244445136675177e-01
1.467686640017479976e-02 2.321303096686675935e-02 4.333240502360564683e-01
1.335483119721567191e-02 -1.531461859659654680e-02 4.363061731133575649e-01
5.142514369376075672e-02 -3.397423919915547492e-03 4.632548844030920376e-01
-1.168577746391233005e-02 -6.715659144027797192e-03 4.340214214963095674e-01
3.686390562040833818e-02 3.758704275230186076e-02 4.468746696346697633e-01
4.306506145930914797e-02 6.292656526711160048e-02 4.583748210752576213e-01
5.234663212148621403e-02 3.302721665521062694e-02 4.965328795534682538e-01
5.558744521056661198e-02 7.294030800010729496e-03 4.832724177341507499e-01
4.418043367167625440e-02 4.122147277663141401e-02 4.525473503906006223e-01
5.458316830322058194e-02 1.963352819068737987e-02 4.689733210236905481e-01
3.291884380706846386e-02 5.823986025597090166e-02 4.475772761518522769e-01
4.172811629070311001e-02 -2.041540042295931362e-02 4.516859814323284650e-01
5.144789915496165295e-02 3.615022744744000177e-02 5.002560153573460955e-01
4.932491531094795878e-02 3.793044499711081818e-02 5.052961695166653389e-01
-1.987891683532349088e-03 1.890166916979129155e-02 4.271483526779923379e-01
4.337071259122183414e-02 6.543053223718379996e-02 4.632639592684806851e-01
2.738474062750669707e-02 5.823969288670300531e-02 4.454081186348773924e-01
5.163244978676413688e-02 -1.888836103860894872e-02 4.684280685055112747e-01
1.686202819460754822e-03 4.888860912155931077e-02 4.300995118159134933e-01
2.746407445917711104e-02 6.500508780709468581e-02 4.548258032888807811e-01
1.704897684023039262e-02 -1.693369601910757472e-02 4.370146619065998217e-01
5.518676596690906544e-02 2.262947112100479469e-02 4.802711874725502095e-01
5.641067732182880601e-02 -1.029318796438910468e-03 4.955413482352991617e-01
3.815420278381097263e-02 5.927454352709102953e-02 4.507254213101726248e-01
4.155569657467206995e-03 1.446476032514042512e-02 4.312078823253578941e-01
-2.613471294454563359e-02 1.697487007069967135e-02 4.313334034626952196e-01
5.117948847490839948e-02 1.065068872367436019e-02 4.597467373478154595e-01
2.322813717413766549e-02 2.559263945423093968e-03 4.373651501198298486e-01
3.277155508597248690e-02 -3.934667070886346471e-03 4.416414743421150368e-01
-2.971869028263481212e-03 2.428127439173331098e-02 4.234882089802381455e-01
9.092292363345026024e-03 2.674153793151075320e-02 4.290477545716582797e-01
5.801676064912941050e-02 -6.085420001943533247e-03 4.905485965247977642e-01
4.274776882455609550e-02 -5.982598456187858751e-03 4.503335970668808086e-01
3.786893211337626075e-02 5.366181931666200167e-02 4.491701273058847366e-01
2.850199797080699843e-02 6.484445185694256986e-02 4.519218074201968860e-01
4.801240163625642571e-02 5.321012552885382579e-02 4.587660023602275761e-01
2.947493696991593248e-02 1.260721024902353507e-02 4.400640901761365131e-01
4.975938307268918531e-02 3.968025558322166302e-02 4.579941929807129775e-01
1.143649367804266265e-02 5.223432212272969416e-02 4.359413661813772434e-01
-1.782562206975815688e-02 7.601005874475786142e-03 4.309962357838325042e-01
4.965786678370667784e-02 4.860024677810344945e-02 4.994913769091158251e-01
3.326393650982500255e-02 3.294149259904012583e-02 4.443579517499405829e-01
1.211003404271904574e-02 2.200105899070807156e-02 4.318190203791857917e-01
1.289382406462804935e-02 4.634476224510212378e-02 4.347659802219558389e-01
5.298227080770000208e-02 4.143558482854912267e-02 4.673559503703829110e-01
4.698654527847678092e-02 4.613332991336002026e-02 4.553288819775372365e-01
5.678000085495760185e-02 -4.609651538565126723e-03 4.792229431343442703e-01
-4.817288555131728212e-03 8.677062574435220887e-03 4.307579359525992024e-01
5.671074881736071910e-02 -3.038682202853731657e-03 4.999289423402946131e-01
-3.609682227921076625e-02 -5.416513855386454780e-04 4.394401068506204044e-01
2.641290175759887851e-02 -4.844960512724314980e-03 4.377955720940882034e-01
3.252052605858517242e-02 2.432633223367533168e-02 4.428943587146541017e-01
9.249921393606639827e-04 3.339057576168604630e-02 4.237151297906172065e-01
5.467152599227269316e-02 3.848824855914326215e-02 4.811830176440989870e-01
4.881990252594493179e-02 1.862432837170200153e-03 4.562266073528336574e-01
8.744683720722647852e-03 4.815465693136156133e-02 4.337446223983347782e-01
-1.819761629964180769e-02 1.580129275690619201e-02 4.291728461771647241e-01
4.801420419606851342e-02 3.784830859777732481e-02 5.080810041301513369e-01
5.171735210294868545e-02 7.027040707393343577e-03 5.013379009943689235e-01
2.861803767535520820e-02 -1.718911910990864739e-02 4.402147349702655310e-01
3.653482261376648360e-02 6.639884318160993448e-02 4.720282820161376680e-01
3.753233676296820892e-02 -1.625303352451466093e-02 4.457993612247866388e-01
5.397555487741591274e-02 1.851012368802507080e-02 4.859722987264233907e-01
1.749221868459808690e-02 1.427269470000821529e-02 4.354596714599158758e-01
5.307834770423169868e-02 1.703056695283105756e-02 4.894422222592577643e-01
2.088025543909583989e-02 -4.616792357863065341e-03 4.360138903327671622e-01
-2.899094853266778390e-02 2.264114825189524755e-02 4.299844534275912844e-01
1.534735503141759945e-02 6.297633469629733936e-03 4.355870766971611241e-01
5.315354757520986823e-02 2.748823045302431836e-02 4.625831592614902399e-01
3.515564251907866283e-02 1.109524797181729583e-02 4.434514702238772643e-01
3.670204135847211085e-02 2.922939159175880208e-02 4.459491761100893292e-01
-7.676993448104022649e-03 1.261116117537048817e-02 4.294895423890491837e-01
3.525506328735987516e-02 -1.874268290541469470e-03 4.432307545781927205e-01
4.907075487995486707e-02 -9.430362395167819767e-03 4.612229010510914828e-01
2.434075633093724794e-02 1.059087407016787163e-02 4.379790255270571975e-01
-3.603745567638429875e-02 2.352504779924075029e-02 4.340022569245874373e-01
-1.450801657445087347e-03 2.535969792624244434e-02 4.236728695363607411e-01
5.580634086448336278e-02 3.758429534535175434e-03 4.878962439655579741e-01
8.334714649017499477e-03 1.450396811946563780e-02 4.323465645999169937e-01
5.367139470073602203e-02 3.923214634722582000e-02 4.691922728265601195e-01
4.418636374115499088e-02 2.546224774966325544e-02 4.509027643951720177e-01
5.523339282045387766e-02 3.276674098438637356e-02 4.759191849005203756e-01
1.632617945527213565e-02 2.516570233594499217e-02 4.345325826570068384e-01
3.640399211079977521e-02 -2.808310619402726999e-02 4.488361439269527575e-01
5.509445976913190934e-02 2.500101774138736854e-04 5.010946582459301357e-01
2.774988490668840041e-02 -1.206129284970641063e-02 4.390272363092197483e-01
-2.967813678396399521e-02 3.571323600863331865e-02 4.291841453717777366e-01
-3.475892563815827750e-03 1.956977086252737960e-02 4.265800643242119161e-01
1.758185199482392366e-02 7.136348503996344482e-03 4.362663719225921000e-01
5.258874027324453304e-02 4.798926028655180198e-02 4.770560131123520176e-01
-1.373273598495040014e-02 2.503085343261211848e-02 4.234434346420229422e-01
5.559500526638593704e-02 -7.449390974571656193e-04 4.732784037616273864e-01
5.404230256176782710e-02 -3.960814134119760438e-04 4.681374108414826929e-01
4.898090069696516696e-02 -1.940714029585236672e-02 4.634595097410108000e-01
-1.621107725906911290e-03 -3.925051263711176741e-03 4.324924528469070717e-01
4.870796556555222895e-02 -2.248538108783498107e-02 4.634735208577238086e-01
5.108286813145332395e-02 5.193948689792684398e-02 4.843582885778693337e-01
1.574380363530373736e-02 8.380312333903816926e-03 4.358946991753862021e-01
5.016747401890431224e-02 3.378065200215028124e-04 5.139739073462802343e-01
3.800529534506297269e-02 -9.668860688312339025e-03 4.454578491726942646e-01
-1.188651014345220441e-02 2.484680250052477557e-02 4.230100275231077900e-01
3.169014067544673879e-02 3.360582522207779949e-02 4.435713912226385558e-01
5.344709705060571997e-02 4.408303752276021559e-02 4.789888978376837803e-01
5.563008583191979273e-02 6.980093997906484590e-03 4.833786131851736667e-01
-2.525290928373593452e-02 3.757433772337244460e-02 4.270588842688563536e-01
1.022934284337156767e-02 4.304168299530216485e-02 4.325861822613005225e-01
1.138108950320530256e-03 3.371912092845457537e-02 4.238943437628552302e-01
-3.567478123814603330e-02 1.109591563729283355e-03 4.390207975189181488e-01
4.149856690090043126e-02 2.453432940581182220e-02 4.488344734900593380e-01
8.894569506747807084e-04 5.470515455738153565e-02 4.356798291191409378e-01
3.941011562364469395e-02 -1.071738538930496268e-02 4.467685047403393561e-01
4.110109870998872317e-02 6.614191931248496192e-02 4.735792599854010132e-01
-6.996272265936701908e-03 1.218959567342284278e-02 4.296758298427318379e-01
5.404963309490424389e-02 6.246161026858139051e-03 4.678642151205693600e-01
5.030977615984298656e-02 -1.432227584938672652e-02 4.648277667458169948e-01
1.245569483256827453e-02 3.532064769608807275e-02 4.313304202667911369e-01
-2.262781179847893256e-03 4.411464853928571267e-02 4.273649816595688766e-01
5.435960074531379776e-02 2.997943952207834592e-02 4.677405470152218858e-01
2.216027000710298067e-02 -1.822506329687476404e-02 4.380850635798854698e-01
1.219031696330556344e-03 8.268238272937763339e-03 4.322903787123136277e-01
-3.164965947316351197e-02 2.735937658326055566e-02 4.302180359445382796e-01
4.894710378265255957e-02 2.299321836562182725e-02 5.044679798037026153e-01
1.539242128863394649e-02 5.940044904002359655e-02 4.483078047084794737e-01
5.537921229428795916e-02 2.758497133661818451e-02 4.826395278921965515e-01
-3.706647207922796582e-03 -7.512493247432065584e-04 4.323934466778464603e-01
4.001418794822642760e-02 5.838184144569987660e-02 4.517460355340603417e-01
-6.442347341331748634e-04 1.340562584382888264e-02 4.303267673415289152e-01
4.990392557754969038e-02 5.118014800281263377e-02 4.635798091143929489e-01
3.496213421336562960e-02 3.320039414149237450e-02 4.453415264092286940e-01
3.698852678972458508e-02 6.659307786554108377e-02 4.701801177396957021e-01
5.715467825305827615e-02 -6.155956969971029466e-03 4.823995969468237721e-01
3.310242140283536916e-02 3.918638332929706702e-02 4.448960006441676773e-01
5.428705741756489206e-02 5.487955911732699844e-03 4.942849564012026242e-01
4.678911192398031021e-02 4.423011538368969153e-02 5.092220638309767899e-01
3.484723136733231669e-02 -1.308953000902408383e-02 4.433632500796669262e-01
1.821547584114241967e-03 5.113602506922770158e-02 4.315262054039089024e-01
2.523928428547539057e-02 1.493099891569834269e-02 4.386073974743135429e-01
-8.149689914283563680e-03 1.084416605799250546e-03 4.322985724808458552e-01
9.912576428600040207e-03 -1.095591907037445772e-02 4.347218074180140834e-01
-1.290602505306990590e-02 4.490051178306417312e-02 4.304125083660801376e-01
5.224841852896240646e-02 4.110804489467945882e-02 4.643719811394487751e-01
-1.413661046069586251e-02 -9.121175165637783466e-03 4.351521840549953390e-01
4.908903106347597967e-02 4.817441433069304807e-02 4.581139938157999247e-01
5.134780465437433633e-02 4.752221441642449917e-02 4.658748258361740113e-01
5.210996966738061509e-02 4.746918113348406326e-02 4.690761362155466130e-01
-3.906880116881959047e-02 2.819221674206562334e-03 4.408453635467346476e-01
4.424872585244553173e-03 1.727351440713441669e-02 4.298725409783521467e-01
3.528870279578471408e-02 -1.420651956526391979e-02 4.438208967622561119e-01
5.479153529741883494e-02 2.942028667547247692e-02 4.700727013396810983e-01
1.173460366143302437e-02 5.766267450080707346e-02 4.469364208010185302e-01
5.093696065283790514e-02 4.525751172868686112e-02 4.999754325049408643e-01
2.808960928121700257e-02 3.395874453413300770e-02 4.421875725691022940e-01
2.504171863722062796e-02 5.229179985913887801e-02 4.415285390349756312e-01
-1.258038570713222379e-02 1.746877186295981571e-02 4.277221753527856718e-01
8.012663173528000726e-03 4.836330486612917812e-02 4.334902234251719055e-01
-2.811106515232329305e-03 1.884993057397130883e-02 4.270291945183158910e-01
4.830672182382370061e-02 5.391851160139517901e-02 4.927417135156252348e-01
1.170305949652897595e-02 -1.330581908038030569e-03 4.339188652187696005e-01
1.305384109934288293e-02 -1.517218137221989713e-02 4.363036417001380229e-01
5.559389145867162790e-02 2.670947461488015415e-02 4.804758104810913921e-01
4.929013834569487273e-02 2.621041941179122481e-02 5.043521821728162990e-01
-1.689654263324385022e-02 -1.300744183601672439e-04 4.333759886790766735e-01
3.314352294580646258e-02 5.998167757614972229e-02 4.483343085861555277e-01
5.489310792133673261e-02 1.138364390221848280e-02 4.702525317797743853e-01
1.134800707639459748e-02 5.662880802745366010e-02 4.428943275552688630e-01
-2.810780102224680679e-03 -2.345697503584975255e-03 4.324249809390025012e-01
5.526094364402141940e-02 2.071290130579956160e-02 4.784967933788798478e-01
5.581551245010849677e-02 3.118931248470875953e-03 4.887789083413788260e-01
5.548524351566153090e-02 -7.256978113284449396e-04 4.727018317569194328e-01
5.426513130428863713e-02 1.643954106441202281e-02 4.849384459991687435e-01
3.691163743918518536e-02 6.973991037084312228e-02 4.589960219643425821e-01
4.097957313600904261e-02 -2.047492592440623010e-02 4.505018066638395990e-01
5.267143358632339623e-02 1.287072677895685288e-02 4.922894625801792490e-01
2.841013091042042180e-02 2.089631168119921237e-02 4.406470528371605466e-01
-5.620381389090622383e-03 1.452047640254161553e-02 4.288722916394266949e-01
7.725825162597043869e-03 2.866925391762311596e-03 4.330731102095392027e-01
5.505075952830207342e-02 2.378631418658061145e-02 4.832024656225945014e-01
-6.370098461415552721e-03 4.318167417842173894e-02 4.261643495711368024e-01
5.127649474973804827e-02 -2.076880961776612217e-02 4.680539514780721055e-01
5.265354385344421517e-02 -2.374505918127257226e-03 4.652421841804348923e-01
3.308239290605132638e-02 7.029076761157397601e-02 4.563860303211830227e-01
-3.005883619027135967e-02 9.581891121369322945e-03 4.363805545971238264e-01
1.354982005759434831e-03 1.448061278278913420e-02 4.304829267713857766e-01
5.708668532180927006e-03 5.588354878913514429e-02 4.392040197648006128e-01
3.576699095323809113e-02 4.845785549449006108e-02 4.470862661141064565e-01
4.296261355610898891e-02 1.997550940907201478e-02 4.495078453506854976e-01
1.843498213298069149e-02 5.697186769402864254e-02 4.416198888410793888e-01
4.928203028167068428e-02 5.026211197831478850e-02 4.978502662422668590e-01
1.239713303626653954e-02 2.603923593937286507e-02 4.312944431724483607e-01
5.147046210101841740e-02 3.371026883901621224e-02 4.994400493408827080e-01
-1.969949264320452337e-02 8.033616995794277266e-03 4.310336119219997930e-01
1.640481893584773421e-02 2.108447720862560368e-02 4.349385783519384985e-01
-2.593881492407309336e-02 1.055074946109265700e-02 4.341710775161303215e-01
1.162746579874958733e-02 2.675368777735497375e-02 4.306517827688616240e-01
4.754909726295269978e-02 -1.837346737399487423e-02 4.603540377792058602e-01
3.985261787461311100e-02 1.609727053403934086e-02 4.469332963903284162e-01
5.326042996758435788e-02 -1.207590854862259679e-02 4.698984101043311989e-01
4.786992043421311321e-02 5.710399080479857531e-02 4.615847271831929888e-01
-3.352566152798386323e-03 -1.089994727582629074e-04 4.323886183811352923e-01
5.635190042919445419e-02 2.557700415113495218e-03 4.830188916810557176e-01
-9.589925627543625583e-03 -8.858031031637392944e-03 4.342810907286335231e-01
5.632568227121358129e-02 4.878761590511086982e-04 4.924829477781320075e-01
4.937031257031988807e-02 5.608988509755707952e-02 4.732893947081555641e-01
4.059652766747655350e-02 -4.322780778499055176e-03 4.479740410893054969e-01
3.468376262070287097e-02 -1.237594854428147872e-02 4.431479092637848893e-01
-3.027384912124816974e-02 3.787420938644794899e-02 4.315704118609928197e-01
3.321873137389490249e-02 -2.730903125029903247e-02 4.459320361028114021e-01
3.267446491543481851e-02 3.505848891557982600e-02 4.442099963840074328e-01
3.695850215543676487e-02 1.237168664810773394e-02 4.447871017173810060e-01
5.725887976176348773e-03 3.196665007567139200e-03 4.329195269474184204e-01
4.643064800013833870e-02 -1.607636424016542845e-02 4.573657799504290411e-01
-6.615041423154744207e-03 4.002367004515840557e-03 4.320220695862366789e-01
1.682119206495751376e-02 5.560478802336627641e-02 4.400450923280758708e-01
5.477915082038251754e-02 -1.469418269822484087e-02 4.750058919153471448e-01
1.786183208007876763e-02 4.251473413745406743e-02 4.361450493888267554e-01
1.779780816329636084e-02 -1.281663882219007296e-02 4.361369840605355819e-01
-5.919718340362695522e-03 1.782720118384915203e-02 4.273020126068564073e-01
5.189038807159777889e-02 4.106535503387589298e-02 4.987558638139010792e-01
4.915909353613104327e-02 -1.607072639846949744e-02 4.630204104510304286e-01
5.318444633612264688e-02 2.548734994111177821e-02 4.625916331574061457e-01
3.760465859507355901e-02 6.866528042979065660e-02 4.619209796089078224e-01
3.468377830919260746e-02 4.438008490699109354e-02 4.462583521294581912e-01
5.340051040552512042e-03 4.310272199693391398e-02 4.295262304425227495e-01
1.803703039436876931e-02 2.207032930325074707e-02 4.357315928508848080e-01
-1.990364160749981143e-03 5.449893775037231713e-02 4.356210051664605176e-01
4.723940522208601445e-02 5.383434047084772328e-02 4.936396794350447759e-01
1.388600747944550989e-02 2.707852029054410095e-02 4.324689596423382798e-01
2.608495865655038534e-02 -2.120059596979331079e-02 4.397032818715319036e-01
-2.518436108702226325e-02 3.376017767182031698e-03 4.342597963763688562e-01
2.561204867799063423e-02 6.394895651010484849e-02 4.521918726200269134e-01
4.659236070315252165e-02 -2.266495836088474464e-02 4.597321204361740632e-01
3.696669059044890848e-02 3.006945441456907245e-02 4.461759901805892881e-01
5.214637927296332520e-02 2.702955819041364532e-02 4.949761934757258564e-01
1.778957906571977318e-02 2.272897898119714127e-02 4.356052655320826750e-01
5.029536409388580404e-02 1.818739971784680970e-02 4.572622624354731879e-01
4.699030674182836514e-02 2.600848301289798714e-02 5.099588000455359538e-01
5.215152501999149176e-02 4.922003879433224649e-02 4.857249610268248863e-01
4.147789366732943656e-02 2.599338757786900586e-03 4.481878820558961030e-01
3.398188748831174055e-02 1.338302573486250049e-02 4.428827784831772529e-01
4.915886801836673314e-02 5.354328439141390131e-03 5.107149123882819275e-01
1.695739269097048738e-02 -5.729063496278352131e-03 4.350511268441064061e-01
5.110225357256573814e-02 5.208288961201643780e-02 4.727630327074898164e-01
2.050050102230962373e-02 -1.304759460160923208e-02 4.368098385064743128e-01
2.958454491403617742e-02 2.244379325885638432e-02 4.413165462712901332e-01
-2.269668076077471092e-02 3.901050003595327165e-02 4.269423595763514045e-01
5.372023865772507234e-02 3.250069831922772906e-02 4.921253046504575068e-01
-7.225811910740024581e-03 1.971893980281958642e-03 4.323060852297514467e-01
5.545448123565642484e-02 2.739743365731007671e-02 4.737563505120674368e-01
2.509526731013204948e-02 3.303714913991152857e-03 4.381440061555889054e-01
5.154651426377213769e-02 -2.629658448987028108e-03 4.632131942957082305e-01
3.473216643067862652e-02 -3.005349643158358036e-02 4.481815938034196534e-01
4.554114710892336743e-02 -7.569620628648906363e-03 4.540547638413678921e-01
5.113895003071849965e-02 3.196780198227970604e-02 4.593625639297490015e-01
1.218789461513412019e-02 -5.829875532222457066e-03 4.341439084822487637e-01
3.705625079920123882e-02 6.215576668439325853e-02 4.509121232213617048e-01
5.766989179025346773e-02 -4.639093138849617083e-03 4.880080310633331808e-01
5.395529372809787505e-02 3.720056210382646084e-02 4.689347511533131230e-01
5.555509069743370942e-02 2.647708000878152765e-02 4.745297787258092592e-01
1.372550950167271758e-02 5.670522504931634067e-02 4.426071953105501500e-01
1.597545995347433162e-02 5.555430109647124803e-02 4.397961163568754328e-01
4.875991152541367391e-02 3.294965589972778663e-02 5.061233661030201114e-01
7.816105832529555986e-03 5.128561273525125003e-02 4.340467918844634343e-01
2.585059565259112055e-02 5.733932419995564633e-02 4.443989822526190347e-01
5.533419106993124614e-02 2.872294764697589861e-02 4.732882267224219341e-01
2.812611992586012966e-02 2.780477026350637246e-02 4.413555684324866890e-01
3.677323926225274653e-02 5.406718831803235259e-02 4.486364043099871912e-01
4.995745126846601325e-02 3.169636669237625021e-02 5.029664362297516789e-01
-3.570685480365525660e-02 4.636988760543719890e-03 4.405513604086568336e-01
4.775025526348382343e-02 2.720964676613972077e-03 5.154866680319599714e-01
1.542468591348967674e-02 -1.733761026268269140e-02 4.368652914551860444e-01
5.720587074756838114e-02 -1.918604634319305818e-03 4.834103005469496672e-01
1.629561821010981626e-02 1.477502210767974063e-02 4.349781951694333682e-01
-2.266554909421817504e-02 2.515960561334308621e-02 4.271471586429452238e-01
-6.118610018377773282e-04 5.431831716783694364e-02 4.349074246217635165e-01
2.493984535303624649e-03 5.579186726336391594e-02 4.390701980311930708e-01
4.288442517706551188e-02 -1.445432997794155947e-02 4.515582317383550204e-01
3.392602244789025626e-04 -1.536205968483452325e-02 4.356102404162651154e-01
5.121900939809179674e-03 -6.518615654544477819e-03 4.332630709473070940e-01
-7.748661754156470349e-03 4.951276545488667025e-02 4.346656798920793818e-01
5.362918653777171141e-02 3.979555466058522922e-02 4.929255646572933691e-01
2.975041565260359670e-03 -1.036251693234023843e-02 4.335958549743140766e-01
-3.643509418559570667e-02 2.538105383198998449e-02 4.336876847902177978e-01
2.884206808751737725e-02 1.698677378375177197e-02 4.404328724010561080e-01
5.475772656924004361e-02 -4.040834073166320317e-03 4.708500215462774752e-01
2.535741795029029799e-02 6.068579868360779450e-02 4.459087198213607106e-01
2.695633791188847481e-02 -1.739087597238674759e-02 4.395481432673716271e-01
-2.984219018266095862e-03 3.883056584180361731e-02 4.237283446566831313e-01
5.085057772513840862e-02 8.095580120035843902e-03 5.022882831014782168e-01
2.136146915935067600e-02 2.986046044687661397e-02 4.382321592333753291e-01
5.353696791736467508e-02 3.011520480715185882e-02 4.639846141113245781e-01
5.435416509202047053e-02 2.824630762765150543e-02 4.677305652329187269e-01
5.278992172786160092e-02 1.740934932763476412e-02 4.622065888667639122e-01
4.186063579384537159e-02 4.691211893270759437e-02 4.510656316089676765e-01
2.890746715597273739e-02 2.550674067329489897e-02 4.414472881993249387e-01
5.512238609785024418e-02 3.329614542582850362e-02 4.821792824192236981e-01
-4.022247710105729401e-02 2.246968303077772310e-03 4.495850706965384136e-01
5.269657307862037759e-02 1.842822696780452296e-02 4.907464847493854809e-01
3.015768994567341599e-02 5.612821894425987224e-02 4.456045258261011055e-01
5.726821335720906625e-02 -1.866795950484971415e-03 4.858091634223756228e-01
1.431670909571193875e-02 5.687464911467646905e-02 4.428249142782328951e-01
4.834995033967387501e-02 1.220780414029478539e-02 4.543876617371399584e-01
-1.127272648661056115e-02 4.519887918223086665e-02 4.294802048870922095e-01
5.073938348101601076e-02 3.514627158486351155e-02 5.017549368265243892e-01
3.922778796051027556e-02 -9.203518999423176972e-03 4.465923319626304844e-01
3.479230895047735056e-02 2.865563905265044661e-02 4.448078799937757455e-01
4.693243528020986377e-02 5.111719614515511378e-02 5.000559865715862307e-01
4.888104156329796390e-02 9.539824202997348231e-04 4.566229395974102379e-01
1.018025498975144716e-02 5.189492833536804572e-02 4.352221092144475389e-01
-4.115832902383913944e-03 -9.908067088019688329e-03 4.336284211319361703e-01
5.558637501259725000e-02 -6.709304495740787966e-03 5.130700876860401216e-01
5.582556006405864357e-02 2.871548123198275609e-03 4.754335802878252304e-01
4.231641483322601954e-02 5.793670355698965838e-03 4.486379983188591436e-01
1.809545462137695029e-02 3.424031599359905753e-02 4.361123347964855901e-01
-1.497515331924692723e-02 -1.249955617824674309e-03 4.331896598176758206e-01
1.417005366168865195e-02 -1.392078678227902030e-02 4.358873772256806611e-01
4.911743678742096220e-02 1.648607873756843117e-02 4.550896728183407292e-01
4.484264910948584232e-02 2.900219277450809957e-02 4.517239884937268024e-01
3.978612207994622341e-02 5.428754076190710209e-02 4.505045465472050648e-01
-1.657223524913597340e-02 7.403039716730488475e-03 4.309308960887635043e-01
3.190270033169882724e-02 -2.586156177334837398e-03 4.411560752061542967e-01
1.377719368014035037e-02 -2.039641291560292252e-02 4.372991602901464270e-01
2.646295013155688242e-02 -1.813369198453597397e-02 4.394934220318022500e-01
2.361851159560083083e-02 1.131072561991659699e-03 4.374529128634244701e-01
4.671054293912509092e-02 2.738445875101806412e-02 5.105379249091256399e-01
4.479626730916425742e-02 6.003406140617664061e-02 4.838429915629937628e-01
7.163944405731534522e-03 5.337164809787052488e-02 4.353423545941993433e-01
3.268501037761652878e-02 7.042896701113289526e-02 4.571318772648125806e-01
2.313452347834692169e-02 3.957856640639401125e-02 4.394807454253230050e-01
2.034669871510696657e-02 3.268941948837043171e-02 4.378207219107073667e-01
3.347959430320741891e-02 -7.303503665011805424e-03 4.420848019028144060e-01
5.278067859582250693e-02 4.750660922500274386e-02 4.807071553211305082e-01
7.511413206467219827e-03 -1.510076852764314845e-03 4.330602206805272414e-01
4.442516551564167082e-02 4.005046250318365642e-02 4.526727556070536118e-01
5.598043399901870415e-02 8.040809615523520498e-03 4.776418922552074231e-01
-7.908289971388690609e-03 1.093801588506903427e-02 4.300994457653475878e-01
3.441224140840110080e-02 3.627776849794194652e-02 4.453379266098820843e-01
1.624539300246447340e-02 1.452952400370161393e-02 4.349452634427147801e-01
4.832477282722671963e-02 -8.109593819969779585e-03 4.592327791613029508e-01
5.636472354185379646e-02 -1.668306519005917279e-03 4.761826783140959418e-01
5.558494449135727156e-02 -3.192251854279146671e-03 5.087605279077896947e-01
1.370752939222740809e-02 4.173227568720370984e-03 4.348459938400053293e-01
1.603220888178499490e-02 3.867427956810399331e-02 4.342818469158721273e-01
-1.092299624382581623e-02 -5.611365998815750697e-03 4.335672752221342852e-01
2.554707973920528064e-02 1.494140734041357783e-02 4.387222028525490924e-01
5.443834759842808291e-02 1.119905799790772358e-02 4.865235865472093413e-01
5.290138974498763413e-02 3.818858830641438246e-02 4.958554063524184263e-01
-3.419003742296566895e-02 4.628407685850358458e-04 4.384926124410375436e-01
4.391802062797996176e-02 5.720055658452485869e-02 4.552547901403303787e-01
5.381808629465620331e-02 1.607027377801198420e-02 4.652282149342741313e-01
1.931533125666533290e-02 -1.119615909109832920e-02 4.362318432476203767e-01
-8.339950662674108783e-03 1.384599592093171960e-02 4.289642908576603020e-01
-2.331662318238035200e-02 3.966119567259870742e-03 4.335424746476676527e-01
8.129501991415222836e-04 5.171544890953212736e-02 4.322460328972569377e-01
-3.379758253668586204e-02 1.496049792560180669e-02 4.362019692154817108e-01
2.991726843527971191e-02 4.507180509913640346e-03 4.401732348261795380e-01
4.535401348099614427e-02 4.376695763986906962e-02 4.537157407466665404e-01
3.061988209341614392e-02 3.413235409845853663e-02 4.432080606567497805e-01
2.573970509481472366e-02 4.511964992662378937e-02 4.413274078700379910e-01
2.049683696633339963e-02 -7.541207075550105526e-03 4.361479340075402611e-01
2.473560552654376424e-02 -8.367997115942247405e-03 4.373716547499288954e-01
3.320263996568020154e-02 2.532726570110112665e-02 4.434065231035347332e-01
1.376425355538521585e-02 4.580734373138794363e-02 4.349364972452740008e-01
4.279429984723694472e-03 3.652505373454152660e-02 4.259793883594533703e-01
-1.761099207432197805e-02 3.760180291640807110e-03 4.325427940098272583e-01
4.133912272149416200e-02 3.104962115650279283e-02 4.493082239096994890e-01
3.931955171415735251e-02 -1.541288878261588835e-02 4.470720359103073083e-01
4.194080996586392607e-02 6.534522476426291027e-02 4.756298145299518998e-01
5.066107027817940908e-03 -1.703480583727138079e-02 4.370805296246770277e-01
2.149432637562512238e-02 1.902360981528037828e-02 4.375320285867829728e-01
4.484049426859750692e-02 5.603598766023611122e-02 4.556559818493712832e-01
-1.087799102089970563e-03 -1.397027521236524072e-02 4.348012592977292257e-01
3.069817683069529096e-02 -1.144475913245259803e-02 4.404425426976839031e-01
3.326882247815755173e-02 -4.615514760065145619e-03 4.419226911830995697e-01
3.261272414081287097e-02 6.260223585865511142e-02 4.491876075352861375e-01
3.300576619297902747e-02 5.101218892622585294e-02 4.459227600294731753e-01
4.800066760260483789e-02 3.513727181935559496e-02 4.555163065946062906e-01
-3.182638669626637606e-02 1.576703712355831052e-02 4.344869634772745015e-01
-1.203601076588716942e-02 -1.092851133082673766e-02 4.350710351252687902e-01
-3.258446069742440554e-02 1.154802191722596738e-02 4.373947958693182869e-01
3.585716267829148346e-02 6.253524168704835406e-02 4.507280845435897576e-01
4.167955154914063098e-02 6.179555218034045450e-02 4.551062597571416402e-01
4.964107120209397539e-02 -5.586047968910242204e-03 4.606904003999047204e-01
5.308820641541692198e-02 3.145010009825575936e-02 4.626409800914267900e-01
5.171592465401894656e-02 -8.677892131886372901e-03 4.657727146314697975e-01
1.812984370919587529e-02 3.689420362122898533e-02 4.360323487333204739e-01
-2.426225454539950033e-02 2.924959942952455941e-02 4.265270196809164971e-01
5.032623548937383007e-02 5.352585157416998168e-02 4.702666119829174707e-01
5.599913866028257553e-02 1.449270504794922558e-03 4.923879007319773016e-01
3.123445152739867323e-02 1.713087680292272891e-03 4.409044312225782747e-01
1.954277398341093888e-02 5.953990822332654032e-02 4.449994907669900246e-01
3.601691191993352387e-02 2.784629865247977010e-02 4.453763111393359564e-01
-3.199843362520541322e-03 -1.185433056099009785e-02 4.337759689914187922e-01
3.294531735120589250e-02 -1.210436121581144782e-02 4.419769926028200291e-01
3.747977747857980657e-02 -2.204704873237854634e-02 4.471799622610500013e-01
5.065413865793974568e-02 1.868689821397969547e-02 4.974360338832535255e-01
4.374014655402460455e-02 6.433370397435698995e-02 4.764421988055798640e-01
5.040502254962368756e-02 -2.960060685021715168e-03 4.610172033520091306e-01
8.397556176627461386e-03 1.241278842988527246e-02 4.328332358115770107e-01
-2.387675237845771764e-02 3.807749471902926314e-02 4.268806570327946526e-01
2.019708930171205258e-02 1.672780532879519777e-02 4.366959129254701644e-01
5.497483918221785643e-02 6.080326966259930513e-05 5.022757743955759135e-01
-4.713410652131498450e-03 4.885149907700685190e-02 4.312881034722910178e-01
5.014888243489783182e-02 3.408378586918996145e-03 5.107435281370465985e-01
1.971726442112652078e-02 -1.029231122545683913e-03 4.357370616618985726e-01
-1.015511491619728625e-02 4.432091399110268254e-02 4.273236965160512879e-01
3.986633649184403994e-02 6.141529802384047138e-02 4.528020195780061985e-01
1.199334133356725869e-03 5.452348588691427467e-02 4.350672879013310346e-01
4.018703462745883137e-02 6.271903083834738657e-02 4.540625495363331265e-01
3.374427127238247698e-02 -2.350061599878808596e-02 4.449004113530715121e-01
5.182389392397618311e-02 5.122908246699008766e-02 4.787074209395922875e-01
3.473974456302436620e-02 5.773578863376134518e-02 4.483565912082430605e-01
9.954549275558629770e-03 -1.714530405156809365e-02 4.370598388504715603e-01
-2.388978870653810094e-02 1.538475397055535758e-02 4.309501268811167241e-01
5.424478371368957053e-02 -5.822741034322169440e-03 4.700447044614492476e-01
1.358136825200483185e-02 2.063520892746114124e-03 4.345497948301855762e-01
3.243745500120601838e-02 1.756197367815190077e-02 4.422160755953106204e-01
-4.660947823367005138e-02 -1.355869229384154898e-03 4.444147973299578669e-01
-2.164179687473196875e-02 2.858040957431825027e-02 4.256370795159695741e-01
5.132885850231212049e-02 3.901996356402467198e-02 4.614135037792898020e-01
-2.257204083293574970e-02 2.582931968518357643e-02 4.269009045839579630e-01
5.059176825233393376e-02 -9.487104326538455673e-03 4.640720677396207861e-01
3.968029073677553642e-02 5.929850686281745026e-02 4.518183597355587833e-01
5.344134560423791785e-02 3.786056842472019374e-02 4.940667852726682296e-01
2.335110275276477965e-02 4.106996769077731618e-02 4.396031305262060318e-01
-3.632299231195106753e-02 2.372143736837181282e-03 4.391076174540634036e-01
3.730215145186991516e-02 3.627468940340348308e-02 4.470176802763143331e-01
2.553602372710869067e-02 5.262652977384409125e-02 4.419809545161474951e-01
4.967967801158114372e-02 1.596051695907687445e-02 4.561828396250504625e-01
5.410315823467648499e-02 1.706453769323329830e-02 4.665898686966566400e-01
9.981715020953053907e-03 -1.924844063113473423e-03 4.335607371628011353e-01
5.285798069463275295e-02 2.077513022787579045e-02 4.620382620659710948e-01
-1.054866120124361636e-02 1.140114642644771310e-02 4.298112625651045460e-01
-2.141665707501058322e-02 3.603254889374702535e-02 4.255141530258505500e-01
5.054773629847572614e-02 2.649639228406183711e-02 4.998669355189566677e-01
-3.758735783734558356e-02 1.690353496670944991e-02 4.406106989588197131e-01
-9.950765028179972549e-03 4.159412158095410379e-03 4.319918954842834058e-01
3.250012512852049062e-02 6.845155684433959498e-02 4.542042480526509163e-01
-4.358780168740422276e-03 4.351042257161887722e-02 4.265089468982568022e-01
