5.815499392049114369e-02 -1.176363650495941375e-02 5.121228445937882068e-01
4.776362067982301701e-02 2.660383465000657616e-02 5.079662012293437723e-01
5.479552589866293344e-02 -1.210324294474457224e-03 4.700972527355529729e-01
2.954051328276648472e-02 -1.943019310102246655e-02 4.409134032109039425e-01
4.398407749850142059e-03 -2.084686813459544694e-02 4.376058398355899270e-01
5.757976334147238417e-02 -8.760514893837797676e-03 4.856043187338340839e-01
5.499460387439700920e-02 6.887774846660484063e-03 4.873399823606349712e-01
-3.549802715341867504e-02 1.455743930141110629e-02 4.394816237721988483e-01
2.845980638489203213e-02 9.434735030669692130e-03 4.391823326127715643e-01
3.003965305778551198e-02 9.242667275282251405e-03 4.398485180409948958e-01
5.160458367040868244e-02 4.647178454330909425e-02 4.944466924061672319e-01
1.560756830045924477e-02 2.437488678144940357e-02 4.332653461593304334e-01
2.601784823622654841e-02 6.099718898544152085e-02 4.455471312231992775e-01
5.784366689001490397e-03 5.418756344434604022e-02 4.348415111412765599e-01
5.581362182833519980e-02 6.585476299015913422e-03 4.811364348689834980e-01
4.423320756051217495e-02 5.997774676551591647e-03 4.499396115912545069e-01
1.992806271551704478e-03 2.984199180345056476e-02 4.233309548208712969e-01
4.420669014082562187e-02 4.653199763827566698e-02 4.524170536219987993e-01
3.852803543569036787e-02 6.440781020016837777e-02 4.532857755490486418e-01
-2.635807777647378516e-02 7.847532037647021730e-03 4.344207014760955721e-01
4.613174845018050418e-02 7.045608390440027610e-03 4.514755951143811785e-01
2.740891007256682221e-02 6.414501311827065788e-02 4.510115789941158693e-01
5.181118417428298012e-02 4.122841425740646215e-03 5.060259804472549972e-01
5.687433976005080993e-02 -6.836046982407314922e-05 4.881337481580972359e-01
4.444614490233372850e-02 4.091708194880203792e-02 4.522427447501364273e-01
3.723292781234171372e-02 2.375369873734677409e-02 4.453347948266558332e-01
-4.710735894358004938e-02 -2.060038508431417774e-03 4.454309802841101562e-01
7.558221500678241438e-03 2.528697880106604151e-02 4.275636268749518631e-01
2.134193665787061100e-02 -3.114338357144258093e-03 4.359197474703025987e-01
4.961433482231649567e-02 4.125132496566586565e-02 5.034984047239852156e-01
5.023646924758455590e-02 2.560504898367849808e-02 5.000008649122469340e-01
-1.370423748094433403e-02 2.179540867201418524e-03 4.321954586911170293e-01
-5.138498210641318648e-03 6.965924368266998568e-03 4.305606071342341079e-01
1.350944723446875079e-02 2.028986186167495986e-02 4.325647364737168488e-01
3.805156378523534208e-03 1.761677611809268559e-02 4.285507508464672655e-01
4.981049960762616580e-02 -1.716195064209368945e-02 4.645060714778785349e-01
2.910196719554855593e-02 5.175702356182260155e-02 4.432527143737734487e-01
4.906645455522366805e-02 7.400283519890843605e-04 4.568033582001772563e-01
5.431394289506467216e-02 1.055062242498960856e-02 4.873401114098415698e-01
4.723094283084223327e-02 5.826739822780707678e-02 4.612056947075932056e-01
-1.913219979976361201e-02 1.435274439791477813e-02 4.293060671875243428e-01
1.164228528181598075e-03 3.459926263848671357e-02 4.229659666300988330e-01
3.120156962172466065e-03 1.778549646978977439e-02 4.281743681022036618e-01
2.360084398898457461e-02 -2.390943500254880116e-02 4.389790716654147773e-01
5.315265952194413168e-02 2.628668268342433667e-02 4.908120630226213144e-01
3.086985447286997100e-02 3.736517334115070643e-02 4.428925243430644199e-01
3.378811298522779727e-02 -1.632914942110685191e-02 4.429846274163881104e-01
-1.916290269378725583e-02 3.919800688790267551e-02 4.252193535435744298e-01
2.060044224233690408e-02 3.156916007453957479e-02 4.373847694562469912e-01
-1.864757730553988357e-02 2.781940952134578579e-02 4.237288525117348659e-01
1.286263263434857425e-02 3.188389633101974818e-02 4.302278686774957950e-01
5.287231736641532370e-02 1.381790610368834396e-02 4.626773930384148747e-01
5.596601333643234921e-02 -2.885449683290767717e-03 4.747246215991223206e-01
5.082525300853217576e-02 5.037751890958955953e-02 4.664066208867182484e-01
4.658605286176820820e-02 5.660309146902322425e-02 4.865273734573645203e-01
5.081309325840612651e-02 2.963838591228500075e-02 4.996093097826524443e-01
5.625894693552302428e-02 -1.346326860290165267e-02 4.789238528683597562e-01
-1.519485445328107309e-02 7.687081654948269352e-03 4.302667120391476807e-01
4.967121568000004012e-02 -1.558413324845586180e-02 4.638069595436623005e-01
2.777945388954189757e-02 2.325639289932329365e-02 4.402766492384238561e-01
4.730964214995442285e-02 5.729759160843914817e-02 4.602080650159212083e-01
5.289506140615639340e-02 3.069660825124544482e-02 4.934876122346617544e-01
4.938724411726108654e-02 5.012810938638082026e-02 4.976385184737847633e-01
7.491421929692465217e-03 -6.253297012580201313e-03 4.332727371434523245e-01
4.362538119122350705e-02 6.436403339002882973e-02 4.614053869688489184e-01
4.545632779598024475e-02 6.420126805117230828e-02 4.686086646789588417e-01
1.000076256416385090e-02 3.425008422181997220e-02 4.283536767463038131e-01
4.930400372928474273e-02 5.591362599254804527e-03 5.099196989514261924e-01
4.308852905985616211e-02 6.231401681804748377e-02 4.572642845258317879e-01
4.808956614332836332e-02 1.959028915106204860e-02 5.066275445707991709e-01
9.794882816568553207e-04 4.988354613333036147e-02 4.298478960871819909e-01
-1.206122266654217901e-02 1.475121252324544316e-02 4.280367696230277241e-01
-4.613701828459149806e-03 1.135238611254676087e-02 4.296017931564102832e-01
-3.003067697925172752e-02 2.244439908418100274e-02 4.300059171288852511e-01
-2.022909417261717011e-02 1.684546789711251213e-02 4.288298408402779205e-01
-7.963911241027184923e-03 2.491672941521448983e-02 4.213984728265980917e-01
5.799551471244817485e-02 -7.453371914112945362e-03 5.029432367751587307e-01
4.813478488327846416e-02 5.850110514486473595e-02 4.680330455141383794e-01
5.510116671004769429e-02 2.659975148937772024e-02 4.714366574250327679e-01
1.579789670763286774e-02 -1.677578695761351366e-02 4.367000899035397010e-01
3.451056641077720338e-02 6.816902213810950573e-02 4.540336811759105307e-01
4.699869743122916249e-02 6.025705767585721323e-02 4.758154319770839247e-01
5.468421299651403389e-02 3.180080552131013538e-02 4.866078512081769003e-01
4.251843865990666965e-02 7.726343518771537980e-03 4.484041595528036606e-01
3.832613190923155055e-02 3.282841134263960597e-02 4.467712037954145732e-01
3.649663566596665631e-02 6.943541101826872231e-02 4.593222117440235452e-01
4.941841001241478737e-02 5.011181276478103575e-02 4.597950418628513614e-01
3.441024429352930458e-02 1.157216884584738592e-02 4.426254649775940853e-01
5.509632302844487406e-02 8.314003494882482581e-03 4.714634240238619323e-01
4.787890254087304870e-02 5.155755825570663975e-02 4.963976075358070839e-01
-1.155308408794111265e-02 1.909236054923894865e-02 4.256954767213509960e-01
-3.326266206684749122e-02 7.042001190428243476e-03 4.391761543480650065e-01
4.882910649490540544e-02 4.840442824722150650e-02 5.016958400106350524e-01
4.750840190434720695e-02 3.601534565367765783e-02 4.547711062897510370e-01
5.537093124850189785e-02 1.672865128258951145e-02 4.741377420509966245e-01
5.525453194024649434e-02 1.245985431094625250e-02 4.794076597926371086e-01
4.625422500108434393e-02 5.654629193895455153e-02 4.575684803237924370e-01
3.121114899509867119e-02 6.641924622356433494e-02 4.522666729711328770e-01
4.542258799815839659e-02 5.466829938420689206e-02 4.549333059989653649e-01
3.748999416915044236e-02 3.762219162971972009e-02 4.467177769928005748e-01
5.347296996266478336e-02 2.814612263266470099e-02 4.906638389264045275e-01
3.323519861116887991e-02 6.498184356887129476e-02 4.515422759388433849e-01
4.666551606888481168e-02 5.660139948733320520e-02 4.583713290867850176e-01
-3.272070081223070470e-02 2.427342280215792972e-02 4.310994110237580945e-01
5.214820980190423144e-02 8.934061703179656949e-03 4.972029528127077103e-01
4.923994016860735318e-02 1.596683910561955133e-02 5.018613069061197418e-01
-9.087525463068010095e-03 1.234684046137319441e-03 4.320343073986483984e-01
3.221233401009167274e-02 3.555873851768204252e-02 4.434489899366002574e-01
4.031599365240901706e-02 6.620233824634748354e-02 4.733882914820700116e-01
2.593064289127219521e-02 3.676765026862063857e-02 4.407477294957876102e-01
4.928232831471826558e-02 -1.414975709609691754e-02 4.626048096118284270e-01
5.182893272896765130e-02 3.406162559404211226e-02 4.604566926366788771e-01
3.776301914956806810e-02 4.333116453797212185e-03 4.450379966778442165e-01
4.983001526735595516e-02 2.845688732674930138e-02 5.025051740295028990e-01
2.134949774573203368e-02 -2.118697975464296432e-02 4.379240986071811781e-01
4.715194568082143461e-02 4.324513768910696887e-02 5.080650714003358548e-01
-1.818696424084213087e-02 3.397219485802371874e-02 4.233228395600600602e-01
5.359082886381045380e-02 -1.164988221020115539e-02 4.706510527343892858e-01
5.319321983623746808e-02 4.574619309127496425e-02 4.860914145684784304e-01
4.467782988302672776e-04 4.512060689850859452e-02 4.270530362537698355e-01
4.655585099693745205e-02 2.835301452885598955e-02 5.103133236027266317e-01
2.080229011264847841e-02 2.276393090361971544e-02 4.367243409408620991e-01
4.557457692328551607e-02 5.879136022256201827e-02 4.585238433435255834e-01
-5.862334004810019865e-03 5.271993204620699716e-04 4.321092670228203203e-01
1.510315507257308128e-02 5.300508228339299854e-02 4.367729650163441057e-01
5.685388883407761079e-02 7.358441561129084457e-06 4.792985398247742168e-01
3.516479030419314422e-02 6.970925107146486166e-02 4.584424910195436520e-01
5.069852109580595678e-02 3.806445680148234922e-02 4.593664763184059918e-01
4.766548699311107945e-02 -5.759253286485253691e-03 4.565336505793557986e-01
5.214001833563295524e-02 4.122499608264625776e-02 4.635747917803330065e-01
1.597156224073301503e-02 3.636702206127429005e-02 4.334520254260483263e-01
5.177228481699598650e-02 5.017257188978780508e-02 4.716883586147843088e-01
5.074875194946566748e-02 8.384469125322971048e-03 5.019467786189818481e-01
5.233839892349863299e-02 1.224066576122627426e-02 4.935844824416844578e-01
5.322569230976168658e-02 4.235389376306310238e-02 4.699189859336905806e-01
5.400208467947758412e-02 4.174189825128464537e-02 4.798697112090907768e-01
5.189040748698338368e-02 1.649572579760127944e-02 4.931030772516859506e-01
5.430317635278618382e-02 2.063563401475157141e-02 4.671938006528237874e-01
-3.529931097339386592e-02 4.451530352951035135e-03 4.397750364401263878e-01
5.472375982022369134e-02 -6.163959797010166303e-03 4.716173672682917317e-01
5.575965135011376472e-02 3.652892908253619047e-03 4.750446933321702536e-01
9.469858875439003676e-03 5.398203888526265093e-02 4.359715493796051944e-01
4.779884598209430818e-02 2.489672619900383174e-02 5.079050047823749914e-01
5.035737554212552786e-02 5.558150804178188867e-03 5.075601710360202468e-01
2.775356980047764821e-02 2.269368651537456705e-02 4.401920966594329854e-01
-5.375381850110248945e-03 2.329360074241486334e-02 4.225697723830219021e-01
4.720058987711391041e-03 4.437973222452278044e-02 4.287975082081832423e-01
1.516293909681631739e-02 2.763041505172900494e-02 4.328134832250153385e-01
5.516193221196414448e-02 2.190891777048548789e-02 4.790731434429939539e-01
-4.052826458837048909e-05 3.092796600691221157e-02 4.223817660948904207e-01
1.993934046713337349e-02 -1.200864900437230258e-02 4.363602064741476383e-01
7.672284175997311695e-04 -1.194947645034039919e-02 4.339340424705649402e-01
2.413953009095041666e-02 4.288794026330828429e-02 4.394735324851722913e-01
4.140960301254834747e-02 6.267987925784601622e-02 4.550320849929815892e-01
5.093032500067735946e-02 4.286136738927064094e-02 4.608453685732427640e-01
-3.165029867396716018e-02 1.830899708154587469e-02 4.323749944454753913e-01
2.048594188199739929e-02 1.284028280273955165e-02 4.363222863798418838e-01
-1.504360827757202437e-02 1.459460566602224438e-02 4.285945985381286460e-01
2.151072804036437483e-02 3.720307720004206384e-03 4.366678322266359658e-01
-3.247939373487417763e-02 1.718157572378108990e-03 4.374208863707257922e-01
5.258081769293822955e-02 6.346322027836781218e-03 4.632447283330065058e-01
5.307896143506036363e-02 7.835393057563637409e-03 4.947241649911894856e-01
5.492539015896977933e-02 2.150195809153516296e-02 4.705246746287322090e-01
5.221975811782584437e-02 4.945280568514459629e-02 4.775123144909156347e-01
-1.945251189868242928e-02 3.405414680560035073e-02 4.237892829815975149e-01
2.690631810460069120e-02 5.841945290564086110e-04 4.385092733586624103e-01
2.588466623112106735e-02 6.126526126818434420e-02 4.456481609443599945e-01
4.690377977007753607e-02 -5.537348692236768004e-03 4.551351471721331032e-01
5.503414112726074531e-02 2.164115037937363456e-02 4.820567593717874910e-01
4.877040723302676628e-02 1.267519626953455408e-02 4.546783995215497587e-01
5.033775046667028630e-02 4.038821230561429748e-02 4.590218518800558423e-01
2.071572225877864326e-02 5.265076081912570954e-02 4.385196841368050324e-01
-2.255532537276160390e-04 2.888713101805040484e-02 4.225037421851656760e-01
5.013363717349129250e-02 1.539040597692374265e-02 4.984848194066531790e-01
4.025863226943033474e-02 3.102511036407303024e-02 4.480440711888523664e-01
4.882147188353647832e-02 1.096590330112204303e-02 5.058936190175952197e-01
2.584921462694831501e-02 -1.326078809766104843e-02 4.383560334261352720e-01
3.984209737445430083e-02 6.598614030416598275e-02 4.747337436630824636e-01
5.362466185371295851e-02 2.682115806045621068e-02 4.637463784546760337e-01
4.243506461963290205e-02 5.197495383273661312e-02 4.515160337453042461e-01
4.844260601929308713e-02 4.193515147039571234e-02 4.560657476236511521e-01
3.052984888039109862e-02 5.886408287302176412e-02 4.463663524704671870e-01
8.074145805166795670e-03 5.992377873603281849e-03 4.331745757760482318e-01
5.524666348290620949e-02 -1.180133849703907459e-02 4.759291649113791545e-01
4.662679637009272543e-02 3.716761160071627157e-02 5.101703259005945235e-01
4.772439631083892631e-02 5.969693215251247256e-03 4.537475172337009366e-01
3.989447665573732371e-02 -5.465576163609197138e-03 4.471070964019633887e-01
2.090425380735283153e-02 3.802065078931922415e-02 4.372343009529872648e-01
1.120211116398957957e-02 -1.626159807811917990e-02 4.366628445902754896e-01
5.450566957390391015e-02 3.735293447459976657e-02 4.752866585254457710e-01
9.878906864423955825e-03 2.496412937907376353e-02 4.290734307133455272e-01
-1.052885251088300431e-02 4.678638654184925569e-03 4.314999341558467538e-01
3.851694725086748233e-02 6.653561465072095615e-02 4.675824740432506510e-01
-9.463811279260547771e-03 3.527427582716328308e-02 4.212044062457475091e-01
-4.802384041172533952e-03 -6.272033797973636596e-03 4.326969962770792488e-01
4.540672017780661429e-02 6.356291349722248407e-02 4.651969216589395550e-01
-2.773550893241051238e-02 3.949700572057646131e-02 4.321428729309584882e-01
1.642347339077204760e-02 1.959233212191548515e-02 4.344957016093676239e-01
5.258360969747642721e-02 3.889381806701751321e-02 4.961323385182204171e-01
4.344629343428898366e-02 7.084766697361849844e-03 4.491855318775348493e-01
5.308687733505427359e-02 4.584317402108471773e-02 4.802589961776039806e-01
4.661271955417217727e-02 5.000377827342691872e-02 4.547850221741054910e-01
3.387852225121479322e-02 7.281892419160071982e-03 4.422755183902408183e-01
5.095493581375026143e-02 2.993770272833193996e-02 4.992786240204373782e-01
5.505760043127192610e-02 2.645455747427097326e-03 4.957449937524359695e-01
5.774395145314890204e-02 -9.542609062199790965e-03 4.863069020432640444e-01
4.594639223976145631e-02 4.941257225430099181e-02 5.061130519753821444e-01
4.882247080414612445e-02 1.649410302328265659e-02 5.034712052477599009e-01
5.146809256601359017e-02 5.058224906280306410e-02 4.703578197948317108e-01
4.305905257727853791e-02 1.852119227465395118e-02 4.491389106623440153e-01
5.470484922486475859e-02 -2.538112485893027556e-03 4.699429317696175445e-01
4.210354190679507780e-02 -2.246782913972250259e-02 4.530919817538421879e-01
3.951117953431831920e-02 5.744354634695204159e-02 4.504399610026331713e-01
3.060428565361813374e-02 8.350338149256923345e-03 4.401343693341135954e-01
-2.885975024621170032e-02 3.772540200096055618e-03 4.352666772767621040e-01
4.708093770298684561e-02 3.627329517377191320e-03 4.527524013042257822e-01
3.909732510177807430e-02 1.929476282057267580e-02 4.462497398002514548e-01
5.088941771122384300e-03 -1.808931871929836399e-02 4.372200967895150669e-01
5.382888049689529136e-02 4.235123249431654163e-02 4.795159241181709553e-01
5.741867335155372704e-02 -5.164186895516856279e-03 4.847943270840228691e-01
3.191174498758847511e-02 -1.211625580811077040e-02 4.411514729628014386e-01
2.485228952669170030e-03 5.484151040605800276e-02 4.357086588164770236e-01
1.228348674115488023e-02 1.791552260985669262e-02 4.326475582974859679e-01
5.530783197817571578e-02 8.160512209412107421e-03 4.733358406899395576e-01
-2.914393797710499237e-02 7.354528105968230652e-03 4.359038200847894506e-01
-6.463422889963242124e-04 3.012621369642181496e-02 4.222051777687386709e-01
5.475724353743407352e-02 4.999721997940060822e-03 4.919489135799949842e-01
-7.090596663578798906e-03 3.789191128130722785e-02 4.217074632914080690e-01
3.407797422127967213e-02 6.393465533086595265e-02 4.508366867468382444e-01
1.953605572217649231e-02 3.845255274815387141e-03 4.361424477492473750e-01
5.295028689665522148e-02 5.618929402513225813e-03 4.991187249632143552e-01
4.686838004231701216e-02 5.748723384190147084e-02 4.837452898134866897e-01
1.916747666510260073e-02 6.089225952655535901e-02 4.474036846237309240e-01
-1.379363100377508505e-02 -9.003684921100790772e-03 4.349931889216024916e-01
2.474769356754299640e-02 1.198986644184023981e-02 4.377883891766504165e-01
4.335181212263605061e-02 -7.384079697159448216e-03 4.511748616461108141e-01
7.142317987212605523e-03 3.548967696954428291e-03 4.327851969007043276e-01
5.123257074676436373e-02 1.027377194728359630e-02 4.596280441138344552e-01
4.114485877993161872e-02 6.274472524241767046e-02 4.547517024162477939e-01
-8.592356134096600789e-03 1.860952207568363284e-02 4.255892301960746416e-01
-1.007399064474949653e-02 4.684471292177715129e-02 4.306081932576450444e-01
5.366901454859022980e-02 9.155368697954621715e-03 4.914086114258504057e-01
1.534714993450195242e-02 -1.522286104637330002e-02 4.362139691774624128e-01
-2.437210071100993566e-02 2.695227754580486676e-02 4.265134971593392277e-01
4.209355839866622817e-02 6.594194162060967868e-02 4.725825346739980226e-01
4.501775266124773828e-02 2.850065606430273596e-02 4.514014935629623859e-01
1.398001949581502076e-02 1.887214310650121157e-02 4.333526451685371095e-01
-6.258469567596795964e-03 2.492849501985579252e-02 4.217408937593403739e-01
-1.866892576276510743e-02 1.780370234966538456e-02 4.280504248340712969e-01
-3.380083989318802273e-02 1.397496749704258898e-02 4.367646050914623657e-01
3.409324545195226847e-02 4.741930631200489549e-02 4.454802964739912330e-01
5.516052263838633340e-02 3.062597297654335790e-02 4.723412883169523235e-01
1.491301664631839406e-02 2.668547012038896549e-02 4.326165469345381598e-01
4.460438061468237347e-02 -1.483037815554231337e-03 4.514040833072937575e-01
1.077509676986877253e-02 5.667304571415778675e-02 4.429213195888208054e-01
2.503961560305663359e-02 -2.262398531422110323e-02 4.394220807875078849e-01
2.427001179629177663e-02 6.191570123050104540e-02 4.473372708322408409e-01
2.812994911974613099e-02 -8.689829313290240581e-03 4.385331578545687004e-01
-3.344570414211549964e-02 2.644049660928457501e-02 4.308788290805432575e-01
-1.225591586623638821e-03 1.195330208568024834e-02 4.302354601058837047e-01
5.546096115057956577e-03 5.785701824149303354e-03 4.328452872284432318e-01
4.707056659280026839e-02 6.374269989402672754e-03 4.526361241437698024e-01
4.919623260692530115e-02 1.579332145932368578e-02 5.020023167504547024e-01
3.102559356432189885e-02 5.980816082463700362e-02 4.468788906887881662e-01
3.652712781585566032e-02 3.609931333817181787e-02 4.460301414131037645e-01
1.073995924675242783e-02 1.790933111020775320e-02 4.317508161719105786e-01
4.868667834678615247e-02 3.707833522458188480e-02 5.059272267475903861e-01
3.982854034212064687e-02 6.683733867740231094e-02 4.641262442981752834e-01
4.867868759148293728e-02 2.399352910120819068e-02 5.050461211054895205e-01
2.325226017354618466e-02 2.057759340282064309e-02 4.380738590694085444e-01
5.386755363275668590e-02 4.068496428706696449e-02 4.743298806179828686e-01
5.523141384178980456e-02 1.644783059742790238e-02 4.729590013386644198e-01
-1.163111389354574282e-03 2.524837908545160201e-02 4.228074430673627315e-01
5.642360481995565419e-02 -2.414923030707171424e-03 5.002264261238957843e-01
1.200206165061865407e-02 2.878977736704174326e-02 4.300199396486293346e-01
4.844408725944464311e-02 5.778340110344788727e-02 4.741460639609658134e-01
-2.300614616199118945e-02 2.388590461692590913e-02 4.270349919452649523e-01
3.600014902617278828e-02 6.013937167462416605e-02 4.491041222305602321e-01
3.797521346897762134e-02 6.731820888839033790e-02 4.575350083856660754e-01
4.747879223586104480e-02 4.218767781317292465e-02 5.076549630935041080e-01
5.233440238403435502e-02 2.161019932833374048e-03 4.634877042948425951e-01
5.673052643878927909e-02 1.230724495393754978e-03 4.857129488777496285e-01
6.134214671788019990e-04 4.417209709407314555e-02 4.266316971166017602e-01
2.074808661085164943e-02 7.534738863976133717e-03 4.366814006761990385e-01
5.281000281205286417e-02 2.155838178749749229e-02 4.897295944607487073e-01
5.143580896087242282e-02 1.618125208705540469e-03 5.097880378787117417e-01
1.124463878620197629e-02 -1.076710871534820001e-02 4.345626947137767870e-01
5.505385030968533433e-02 8.447606408852227980e-03 4.710985876335711531e-01
4.995926149136687561e-02 1.206995034496063414e-02 5.011352088148767203e-01
-2.171326352223615364e-02 3.110578950166938139e-02 4.245561304983263562e-01
4.718036068030291574e-02 5.978284040274847722e-02 4.641612522957790921e-01
1.206590210860883361e-02 2.112963581700105439e-02 4.312897180898567773e-01
-2.321949696062647686e-02 2.994026678885711862e-03 4.335338214958475711e-01
-1.296752111439883164e-02 4.596666751106937010e-02 4.317333551551117976e-01
-3.637436439587157094e-02 1.539826908788409152e-02 4.400459492960483998e-01
2.507278398364231123e-02 6.382272076974848662e-02 4.554482005759112329e-01
5.709603151520142167e-02 -2.389206211758865273e-03 4.799931445580729039e-01
-1.097032555424408418e-02 1.207771793657270477e-02 4.290227088087184004e-01
1.506410359059756968e-02 -1.704843682391643175e-02 4.366819175219215921e-01
4.794247337898091543e-02 1.949798065497691801e-02 5.071714178661659300e-01
-3.264263246193074841e-02 3.363332558147351381e-02 4.307920351969549699e-01
3.304481739632156995e-02 8.085501695538128974e-03 4.416515323639250146e-01
1.888482856726290612e-02 2.242262406710268836e-03 4.359276518211455675e-01
2.497527174537483158e-02 6.362310455365977058e-02 4.535901843755067997e-01
5.515801788134040012e-02 1.320842713378403768e-02 4.723493878212080554e-01
2.454366772785360196e-02 -1.939780364567863721e-02 4.389064609774813719e-01
4.892982467617983111e-02 4.496333050623359945e-02 5.040797754932463404e-01
3.291574885269952372e-02 4.708259858224367322e-02 4.448140232222500545e-01
-2.494694621474475606e-03 1.129487058238867921e-02 4.301388430581248312e-01
-2.421748606249746194e-02 1.673663383069394842e-02 4.301958309652995083e-01
3.987590640741850434e-02 6.628931484257558071e-02 4.714501220650904045e-01
4.831830348242679984e-02 5.759813878623019218e-02 4.657570342204086500e-01
1.598705969574099398e-02 3.795817457534191031e-02 4.333957094264569987e-01
2.394667441727105217e-02 6.304417883512679344e-02 4.530564754921984072e-01
7.989011322584962937e-03 2.351582006077305304e-02 4.282053093580431291e-01
2.487653291143768902e-02 6.152279926975912777e-02 4.459907716220130602e-01
2.787607762027033420e-02 8.624260542534557122e-03 4.389815704444855471e-01
3.299016720191492308e-02 8.688649284433925743e-03 4.415649699923238081e-01
4.958654791631215281e-02 5.559290661828669017e-02 4.730789588714371940e-01
4.391256809059230354e-02 6.016953669488363937e-02 4.567518078381685998e-01
3.227185268226011317e-02 3.117520071110171584e-02 4.431617820402834473e-01
4.211922871175452499e-02 6.565465752415514111e-02 4.605896993167102882e-01
-1.249037587927759839e-02 2.338654152153618604e-02 4.229868918255489385e-01
2.875712001487275987e-02 -3.355043644956068848e-03 4.390251408563895508e-01
4.040260550916747323e-02 -2.336299927737371662e-02 4.511827664620071121e-01
5.356723585156318579e-02 3.767915138082305465e-02 4.929664508486961694e-01
1.727603738886659968e-02 -8.748754507570307912e-03 4.352789958015897964e-01
-3.105019963829092587e-03 2.701836216984912498e-02 4.219410900425740740e-01
4.247150508530711521e-02 5.835342463035624733e-02 4.532458698275768638e-01
5.391525305977475091e-02 -3.180315691368993704e-04 5.074614570944342429e-01
3.525155600963209013e-02 -9.711088589377418062e-03 4.431357680731732307e-01
5.397744898159180515e-02 2.525546482366445092e-02 4.654875479714483677e-01
2.916812699757763416e-02 3.690732597552688708e-03 4.396000112280253891e-01
1.601934198584671273e-02 3.687242953372236315e-02 4.334700880848765259e-01
5.449853017320624438e-02 4.047286274669205375e-02 4.839845912381067761e-01
-2.798786640428585753e-03 1.341371840715906844e-02 4.290986962169272001e-01
3.129830129845648928e-02 1.518224266087621691e-02 4.409629142332440743e-01
4.052590557959200729e-02 6.014420061739179924e-02 4.521959796139352061e-01
4.895238500005846122e-02 6.626952117801291481e-03 5.094659143331112805e-01
4.492786735202680681e-02 6.316165091206937809e-02 4.625470979208597955e-01
5.416760799128090415e-02 3.054824097225490240e-02 4.893031679922747457e-01
3.518896523811759075e-02 6.998618966653355478e-02 4.579292777016377713e-01
3.607543097115743780e-02 3.263142954778622956e-02 4.454319863112227718e-01
-2.988032564194490447e-03 1.371160875633550998e-02 4.289073569582131373e-01
5.187242577619308181e-02 5.298037224887752750e-03 5.037076675822093064e-01
-6.788325794203729259e-03 -9.449925688702077650e-03 4.338667409442427125e-01
2.038555994374187754e-04 -1.386016515675050562e-02 4.347818509853042523e-01
2.736708909216987312e-02 3.934093767456354335e-02 4.413023625183504217e-01
4.079287051716209284e-02 3.160428855474588933e-02 4.484861294327989190e-01
2.253782767217290747e-02 4.302980870867256780e-02 4.383847961267585136e-01
4.319784469172169988e-02 -4.137390661423664441e-03 4.503938454398532243e-01
-3.934216567437263945e-02 2.779206609079413418e-03 4.417197953270805555e-01
5.607078259185565433e-02 4.435563209961638359e-03 4.818068773470328137e-01
5.586595929860745102e-02 1.944447092154368961e-03 4.753294685356192484e-01
3.024569253981898576e-02 3.933339524413725224e-02 4.427606602678478831e-01
2.900453113302661409e-02 4.600444895856548033e-02 4.425600307902454733e-01
4.578237694084692083e-02 1.087113480343090618e-02 4.510858221334752005e-01
5.748496376835900146e-02 -6.028986880256470213e-03 4.853841069552202736e-01
3.042768451636095745e-02 2.341966031255320393e-04 4.401055477714251318e-01
1.279528220522387072e-02 5.390840176449149951e-02 4.369960926955573921e-01
5.539475390092873930e-02 -6.218285338221824290e-03 4.740862279158220560e-01
5.386713295201407681e-02 -1.475085476865090756e-02 4.723913814647801024e-01
5.047030672266742540e-02 3.009241429071528480e-03 5.102839911469421175e-01
-2.345633730308785761e-02 2.713933538841020038e-02 4.261053920406083773e-01
4.768423508819092521e-02 3.475531904540189038e-02 4.547023954701966963e-01
-3.417075338271303303e-02 1.838486694768337593e-02 4.338252901417800622e-01
-7.734174745164286088e-03 4.336606017628057835e-02 4.256149930497818978e-01
5.477902840092871428e-02 2.561169296289194861e-02 4.847836329293149227e-01
3.690613307336899906e-02 -1.843915684063632612e-02 4.456008395113861265e-01
5.406871481702981569e-02 3.924004201385575957e-02 4.735781897354610637e-01
-2.354334353844253491e-02 3.726089766121424424e-02 4.257279740549597680e-01
3.826693516456787514e-02 5.847260882845733282e-02 4.499642061361929790e-01
3.959549713046437575e-02 1.952754745309046372e-02 4.466155706258272962e-01
6.766736364842212623e-03 3.952105307197289336e-02 4.278918908313207869e-01
-5.948406258531286489e-03 1.589281433685086481e-02 4.276456981568809712e-01
5.424960524584779981e-02 2.513177506157703543e-03 4.998761155194530459e-01
1.837462320825218945e-02 1.669864693728839722e-02 4.354170766824089212e-01
5.292760554696317177e-02 4.473542810531457026e-02 4.915553928990307186e-01
3.873867857769094231e-02 2.376775376789554139e-02 4.463431497029631823e-01
5.354706222813880589e-02 4.125466213879858124e-02 4.922177970142698200e-01
3.789810568322626860e-02 6.430989713269118224e-02 4.527969877701576995e-01
5.169163732362300201e-02 -1.413450723301664519e-02 4.672026015491047013e-01
-6.597607465715674482e-03 2.119210424093301640e-02 4.239059426388748220e-01
4.975262221573984595e-02 5.469838345683606523e-02 4.686997239720858688e-01
-1.113893118508410725e-02 4.037153477920185640e-02 4.241190080531069828e-01
-1.374717331118430891e-02 4.340377728705253207e-02 4.280432952655583434e-01
1.418573310569356573e-02 4.428973882862662775e-02 4.339025708326207376e-01
5.474850665635669356e-02 3.480031870798656023e-03 4.699084238122982482e-01
-2.478389154666501074e-03 -4.274694517851214924e-03 4.323133725388200732e-01
-1.048275881752822221e-02 1.026251879361372854e-02 4.296548936695515630e-01
6.163910066261552544e-03 -1.745874558802311058e-02 4.373226409390300051e-01
5.215657548000675325e-02 2.539457483765065332e-02 4.936022132768502213e-01
2.236465175693896912e-02 -1.514394395629132736e-02 4.375408961098269378e-01
5.076983237646671282e-02 5.111300028646723753e-02 4.886896577767335104e-01
-1.392684419236807705e-02 2.717307490382172772e-02 4.220613458492120107e-01
-2.162101973511487002e-02 3.831312514168020572e-02 4.256330078474711009e-01
4.766097208645261180e-03 1.921446440258525387e-02 4.278884918532500636e-01
5.343275395409043810e-02 3.649371096128284364e-02 4.937371346135406291e-01
4.917922772637431383e-02 6.733656316999377459e-03 4.559876996320757492e-01
4.093435383746638935e-03 -1.613319684645525900e-02 4.366375037709565587e-01
1.929354684991049784e-02 -8.277470759880774936e-03 4.357098363302988608e-01
4.639515918082058599e-02 6.220064671721688143e-02 4.698047457696888918e-01
3.317103189809817582e-02 1.551925724126986678e-03 4.418188981335450793e-01
1.799718717824087474e-02 -1.835863402882490295e-02 4.371967595622432978e-01
5.565996273373142317e-02 8.285063802178294773e-03 4.797438187082561645e-01
-1.652404679123935238e-02 1.361286433646373764e-02 4.291407297621053218e-01
-3.789674248483120185e-03 1.881859896884504474e-02 4.262040295401772760e-01
1.076695872404466806e-02 4.013274633385138096e-02 4.307225943335703522e-01
-2.383562613796103707e-02 2.303041718996667528e-02 4.274160539398358938e-01
4.604819964533583831e-02 3.473206713748710258e-03 4.516391369454770266e-01
3.058098786180707754e-03 4.974532351469319880e-02 4.305599112641909088e-01
2.929787750051281517e-02 4.201601893807917903e-02 4.425264544115622423e-01
1.925426124979166126e-02 -3.203223252563195886e-03 4.353497258152369542e-01
3.502827123642825169e-02 1.627742017837992272e-02 4.434012745826986790e-01
-3.672299692673135219e-02 1.877337145375559957e-02 4.371032570630460912e-01
2.505604691853656821e-02 -1.147565111818882495e-02 4.377770435043398800e-01
3.305832919887846666e-02 -9.981127767222834971e-03 4.417387856975920624e-01
4.372127549258886942e-02 2.809114361300505541e-02 4.503969797464033031e-01
1.024679298031511664e-02 3.207044416991752800e-02 4.279099350479924624e-01
3.065772349825050466e-02 -9.733847102210290911e-03 4.402195458265937833e-01
5.305145121778551132e-02 3.500931338230584000e-02 4.635903041648722356e-01
-1.110622277363003223e-02 1.151281172048536361e-02 4.292652026538207877e-01
3.573009628933079135e-02 -1.229795304685964326e-02 4.436576742721340394e-01
5.239666600890946491e-02 -1.189915171902211806e-02 4.677265516919654198e-01
5.141460875707019873e-02 2.961044923120534703e-02 4.977317690905034842e-01
2.838011910777897898e-02 4.048646804237322067e-02 4.418418812295339948e-01
5.346209901296258143e-02 1.339696116721066435e-02 4.641408867405231731e-01
4.314934441845695752e-04 8.853580977928347459e-03 4.315422896206455028e-01
4.842148550494744519e-02 3.058627773183592632e-03 4.550217039279823572e-01
3.161504673567778340e-02 3.717542137867850538e-02 4.432895673794025604e-01
4.494107392387274025e-02 4.273471565566378666e-02 4.527673239274480621e-01
-1.329453831567781186e-02 3.567303635518593447e-02 4.220111931429358920e-01
-4.455983639869707386e-02 7.043600149784449288e-04 4.450001290278224886e-01
5.375059447909811411e-02 -4.906418469161789343e-03 5.132608489100993765e-01
2.931426821781950298e-02 5.225660065677694560e-02 4.434736899902939067e-01
5.502441539851710139e-02 1.173955431518980755e-02 4.711931370529387486e-01
-7.698657859366943301e-03 1.875212617147993532e-02 4.257114669816637331e-01
2.075765452357336734e-03 -1.716675730522330620e-02 4.364162369742003444e-01
-5.281074458373349011e-03 3.065110999842043937e-02 4.210687075482607566e-01
-3.157101752791317828e-02 1.844570353530929421e-02 4.322658917476904783e-01
1.389027778223514073e-02 2.830250544181826117e-02 4.317260629172919306e-01
-1.288483693710425464e-03 3.670667288605659190e-02 4.223050175153557628e-01
-1.212095507097888346e-02 4.228032153638016516e-02 4.254641053951342400e-01
4.821410211328593792e-02 4.405971235099787747e-02 4.558670888857296877e-01
4.105502707244333693e-02 -1.680197951164387124e-02 4.492023626353898735e-01
-3.518593689112936573e-02 2.883039288967036845e-02 4.311568595004005577e-01
3.697557891880154379e-02 -8.263812542683717996e-03 4.443221518399646519e-01
2.989542256747579774e-03 5.589833759823846504e-02 4.392290071142104235e-01
-8.998500965630444950e-03 3.619364238898321179e-02 4.214073796297654884e-01
3.237718870713185426e-02 1.095677977671349716e-02 4.412725681582553294e-01
5.231642471788378046e-02 4.077711725976159753e-03 5.044560702335736391e-01
-1.095819692847445001e-02 1.114977413394936320e-02 4.294282097093357620e-01
2.613689506467822832e-02 5.449369303734176440e-02 4.424806837185942809e-01
4.520979188563357259e-03 2.381892308213787515e-02 4.257515506365118219e-01
2.445387769064647637e-02 -1.503427863247529250e-02 4.382099288918643309e-01
5.529682662323599784e-02 3.355959359051827184e-02 4.790716413855713451e-01
4.009111023862784590e-02 6.615267110768913161e-02 4.738937507002121685e-01
5.349022096373118318e-02 4.082481507887773808e-02 4.925759289314028955e-01
5.646844434819037195e-02 -1.426535108245435834e-02 4.794729130569787556e-01
-2.691058465812757455e-02 1.408209540277704716e-02 4.327467210175940382e-01
5.396381621765710540e-02 4.028779752254629115e-02 4.747284220392292142e-01
3.617644069356844294e-02 -5.659943264983203527e-03 4.435766904716981207e-01
5.370321805367197360e-02 3.204413484066310353e-02 4.914163630059213417e-01
1.833560380095312220e-02 8.404118127122821302e-03 4.362186441047707364e-01
2.946277892385150768e-02 1.445930260107660716e-02 4.400384800584260514e-01
1.916959586815818184e-02 1.480712450206354835e-02 4.357508426144989788e-01
-1.160992490156375484e-02 1.384244535394371384e-03 4.320557444327554619e-01
4.464014062332209362e-03 -8.377969556708313864e-03 4.332070787759912389e-01
3.901925128744634236e-02 -2.784072491855007526e-03 4.461975346783205731e-01
4.498434578204569406e-02 5.211896892160987338e-02 4.990922586192195753e-01
6.731410809160936343e-03 4.573918723836963018e-02 4.308010053486572288e-01
5.231733427669159331e-02 -8.819666051482495661e-03 4.666952172924319076e-01
-2.295775814868443801e-02 6.394701545585942774e-03 4.328611102034904956e-01
2.590565347372919894e-03 -9.769843559659093651e-03 4.331327874767653130e-01
5.002464729700229623e-02 1.150424111104525644e-02 5.014268783134595564e-01
2.480688419489342211e-02 -1.449717407657612200e-02 4.382313854692474475e-01
5.773243409172425233e-02 -6.917692697997167468e-03 5.061393304275213501e-01
5.069707191647556538e-02 4.346663821040003262e-02 4.604095471694351627e-01
5.497842557313368378e-02 8.646310814334654329e-03 4.704465105656798207e-01
4.641767275699018591e-02 -1.616715053828311419e-02 4.572174422106545788e-01
4.695968882495257096e-02 1.007309989324824129e-02 5.101348734913628835e-01
4.655331039795718856e-02 6.040832222481223174e-02 4.774155653110937481e-01
5.470797774337608083e-02 3.208549099347299954e-02 4.865311027683149048e-01
-1.390571471985129967e-03 -1.357309762558617239e-02 4.344730012304403588e-01
3.395128767670832493e-02 -1.023250491783537011e-02 4.423239245683459053e-01
4.795203429227562486e-02 -1.612809172757986159e-02 4.605071216693664704e-01
-3.915689280554732199e-02 3.532161950686696274e-03 4.459863856401058424e-01
-2.980105860655033606e-02 2.317190372506624033e-02 4.296865465963443098e-01
5.414032805427283768e-02 2.544697600926282277e-02 4.872790263362306029e-01
4.405906613569833541e-02 -1.314495749073056607e-02 4.528948324777001821e-01
3.460539424288553399e-03 -1.147770889925744768e-02 4.340227634277856739e-01
-2.155547141183001766e-02 2.226786618739214421e-02 4.271511833791579171e-01
1.557605366267037286e-02 2.608592874392362884e-02 4.332028832727940482e-01
4.812820393802564461e-02 4.546320697606700406e-02 5.056399826073049164e-01
3.991804999013075228e-02 6.645140273759851668e-02 4.694875422985994584e-01
-7.361701253381768700e-03 4.623269489060162496e-02 4.275283421175639642e-01
-1.893071713519152779e-02 3.492735884960582876e-02 4.236249252025293122e-01
5.081949557413482921e-02 5.300208905289374717e-02 4.822008718125261328e-01
5.106309147976808606e-03 3.838275214285564313e-02 4.263884735115981983e-01
4.347757304942854312e-02 3.404060815929342565e-02 4.506972505686538399e-01
