3.608970560930481464e-02 -2.183741416487957818e-02 4.459333416518612703e-01
5.013037624835901124e-02 1.730261423873519222e-02 4.976892406468187979e-01
-2.424037425718752331e-02 4.964492463849729496e-03 4.331415622060864612e-01
-2.980722411548412942e-02 3.747827491571150554e-02 4.293575668048898453e-01
5.318064917916585921e-02 -1.425510187338806939e-02 4.704385467826125988e-01
5.069098077799323587e-02 4.809733794069867563e-02 4.943087517191681601e-01
4.821635591759151213e-02 2.069125408459182233e-02 5.050769625268725083e-01
3.931258467294386494e-02 2.579881905230609063e-02 4.461221176411023226e-01
5.418096904082381898e-02 4.101201509167300141e-02 4.805710203063459085e-01
5.590613845619814282e-02 5.356174880173157453e-03 4.761374454269092782e-01
4.965312049820996138e-02 4.675403879063794177e-02 4.575103616935154993e-01
1.973675577572032297e-02 -1.714373041008660989e-02 4.370999058601838239e-01
4.084658940081371120e-02 -1.517289361258285577e-02 4.483239347977718836e-01
5.460261673004715433e-02 1.263089408497045964e-02 4.833429363419812219e-01
3.833915420010412800e-02 -1.746974448771327487e-02 4.463250542587578473e-01
2.029692119326657884e-02 1.715843444374713991e-02 4.354504111714151415e-01
-2.324100062786814413e-02 2.908827657084129062e-02 4.239794221624179626e-01
1.544787085615543544e-02 -1.309748740631641421e-03 4.339939417922695775e-01
4.967174995450501784e-02 3.312670550407456616e-02 5.020922898232498266e-01
2.942477283969260546e-02 3.569075646436785376e-02 4.411912710859198228e-01
5.490697213010907463e-02 3.208847484752403931e-03 4.947655750135614428e-01
3.625842198731614452e-02 5.304969958883010844e-02 4.463983544536063164e-01
5.461008195794089803e-02 -1.226739460490863017e-04 5.044966229165355198e-01
4.232955711218336359e-02 2.525264041081454365e-03 4.481893780713531172e-01
4.912607699868330735e-02 3.265753423507670311e-02 5.033764865267147393e-01
4.461099041395350656e-02 2.827176892795750171e-02 4.503241967653296429e-01
5.510725591208195245e-02 3.460148708180373067e-02 4.781956786621048283e-01
2.791462167474692210e-02 2.695778882523518563e-02 4.397594453047554697e-01
1.038977976073489351e-02 2.358964714890188219e-02 4.282452709046377648e-01
5.859629633940945798e-02 -9.705339610079960835e-03 5.066159224494720670e-01
1.290859290283843074e-02 -1.302921144365009123e-02 4.354316625395903695e-01
1.359519363328901692e-04 2.312590122044040630e-02 4.223900688803181036e-01
-2.622396335785510957e-02 2.770498952545909915e-02 4.257473796749988160e-01
4.074300025064531150e-02 -1.929676757297221767e-02 4.492144024729736174e-01
6.917519324967157796e-03 -2.056444694620377430e-03 4.323309017098345142e-01
5.439948951741810368e-02 2.932586679540115371e-02 4.669892254598022596e-01
1.028027893789725498e-02 2.757899277401947014e-02 4.270448350897976253e-01
4.837261493671131396e-02 3.798669146042343847e-02 5.055113493215485088e-01
5.528973909782949198e-02 1.383430446943074467e-02 4.731582464825767609e-01
5.485733031378712404e-02 1.971613486310330385e-02 4.700127397275981056e-01
3.969520863047022730e-02 3.331440902708951435e-02 4.468955249463248958e-01
5.412137829339691564e-02 2.008630212816505875e-02 4.656423398758316456e-01
3.208249612903542325e-02 6.367293812686582177e-02 4.486854035061256796e-01
1.988886302599325237e-02 -9.870773833717014917e-03 4.357346814343274199e-01
5.580173562342143068e-02 -1.895858072226939105e-03 4.733140998751294570e-01
4.923195721027460309e-02 1.917039879633611332e-02 5.011793136096783785e-01
4.873377617028721437e-02 5.631821627648057188e-02 4.804713657870376409e-01
3.759550261608681637e-02 -6.075786271114775282e-03 4.445363819305976349e-01
3.186595102276106733e-02 6.268347535445641106e-02 4.478830219946866031e-01
-1.228275788638259931e-02 5.110293899836439863e-03 4.306542237871429646e-01
-6.588389456623168147e-03 2.631330503911003330e-02 4.195396561235739119e-01
3.626800286282825386e-02 5.614440594712096638e-02 4.470945813221118281e-01
7.365502378086745405e-03 1.234987557888593285e-03 4.321170417284546095e-01
5.542458680001766808e-02 -2.183934860980624691e-03 5.067888440387803284e-01
4.183112601697055316e-02 -1.044056687595960875e-02 4.493566110483252496e-01
3.945071037614487214e-02 6.747360000205430974e-02 4.596370326808794649e-01
3.528478460887892604e-02 6.521372582598140843e-02 4.516111031766931738e-01
-1.032160522770980866e-02 2.029831560889969536e-02 4.229457746542293339e-01
3.787753568587290398e-02 6.648275546566889682e-02 4.649603115436535816e-01
5.158677763773345665e-02 2.686356365067154445e-02 4.949831434739347391e-01
4.135922897472179421e-02 -3.397222580350314335e-03 4.479778223728762554e-01
4.728047256053716230e-02 5.872644190608643927e-02 4.611235196436381245e-01
5.463668105256198892e-02 2.880524706926650483e-02 4.683130032554427835e-01
4.717916177275365691e-02 5.430451142458801728e-02 4.562661024159663237e-01
2.693537360169611858e-02 6.271237191886495921e-02 4.488985280018966129e-01
5.061912332869773073e-02 1.625881448815929761e-02 4.569900330777094122e-01
4.429270509354808760e-02 -1.383331741623913119e-02 4.530154537751215904e-01
5.506502063267213615e-02 -7.126593393397729834e-03 4.731330467222987224e-01
3.998118005576976886e-02 -1.406118113065023094e-02 4.469689814559905106e-01
2.396423287371549429e-02 1.751626742572673714e-02 4.372316906248875923e-01
5.202769568423102481e-02 2.650127315628780095e-02 4.594646696034492273e-01
-9.035381383041307321e-03 4.537167645885183120e-02 4.264681361742047594e-01
3.560053147079293712e-02 4.267391374978434654e-02 4.450481507578453177e-01
2.646859763229980622e-02 3.413531927845196018e-02 4.399540853286236786e-01
4.922132884211124354e-02 8.954429191281958883e-03 5.053949342673573764e-01
2.934349387816155216e-02 4.383576286172660014e-02 4.414928237139669198e-01
5.464399952360898816e-02 6.564045913584917041e-03 4.888761223663050659e-01
5.000198888571819739e-02 5.366777232738471209e-02 4.659275140871142473e-01
2.365887972813789444e-02 3.293220466474575808e-02 4.384856975232298559e-01
4.701320633171048730e-02 4.527316264398031920e-02 5.066917990753379009e-01
-2.092780078823525472e-02 -8.476011118858633314e-04 4.337286078121052046e-01
5.429952075745090451e-02 3.005758322291584433e-02 4.664112803649232419e-01
-2.058166747359496673e-02 2.861000782900426434e-02 4.229097330882661265e-01
3.074277317900074580e-03 9.873332774181462282e-03 4.309724873656707311e-01
5.536820146963932626e-02 3.099333426799117525e-02 4.794907160018599401e-01
4.664008894678187134e-02 3.736977628114218630e-02 5.090054309232574514e-01
4.750265747500697494e-02 1.729184708206435786e-02 4.526342683451631266e-01
4.118233330735925068e-02 3.383041504147629719e-02 4.480622598421407088e-01
5.169821418533620400e-02 -9.241763354655048446e-04 5.123370672876366161e-01
3.105394792951690977e-02 6.600094600710554316e-02 4.510615015701686104e-01
5.505179982950018230e-02 9.701765284337676015e-03 4.836833878104063178e-01
-3.526389296773797810e-03 4.019394139194024801e-02 4.219768464560666454e-01
-2.161577030539827554e-02 2.810638721248336080e-02 4.236142750911993660e-01
3.817175588538003483e-02 5.623175183364450408e-02 4.482526297618302791e-01
5.130422209494844843e-02 -1.371402229993672235e-02 4.662141171635133530e-01
1.336478940134018523e-02 -2.058003473317851495e-02 4.371710889698215974e-01
-2.376905010530259640e-02 2.789108649497030676e-02 4.245639397111333202e-01
5.085945910836308509e-02 3.338868456108105322e-03 5.087301583584999953e-01
2.942705392902535480e-02 4.183586261789925403e-02 4.414579971733997854e-01
5.015884101549938218e-02 5.423924661983767909e-02 4.724174480331551074e-01
-1.405914090712053616e-02 1.828477823693110474e-03 4.319176335813545986e-01
5.460167919197215364e-02 -1.127747387902513186e-02 4.731676172060567676e-01
5.467665481521091775e-02 2.947373953381747166e-02 4.685065539739308726e-01
4.930230621955654369e-02 5.476417803893646880e-02 4.836281900180722793e-01
5.545359704665380612e-02 2.897563867455761957e-02 4.800514139594524998e-01
-9.678492319048794673e-03 4.588678947748821985e-02 4.279077966784218812e-01
4.971092761065913634e-02 4.641524785294543626e-02 4.575836331665780188e-01
5.308557670653581834e-02 4.346230670042886685e-02 4.698573783829201322e-01
-3.415173406704992420e-02 1.383299340668922572e-02 4.371480321120035373e-01
1.027275393628784839e-02 5.584268759807397425e-02 4.392637941007719871e-01
5.189313745488528806e-02 8.055150364694256201e-03 4.607430506038078799e-01
3.717664588578799278e-02 -2.333627154902298204e-02 4.472426854432471899e-01
-5.261816575434332018e-03 4.317494761696129973e-02 4.237546513297228423e-01
2.934376225143687372e-02 3.882684985454805393e-03 4.391526668892304919e-01
9.538455737729541889e-03 3.818981605124199125e-02 4.274515075831996080e-01
3.676383452000392404e-02 4.137797928996848201e-02 4.456134888975922248e-01
5.658075021857811998e-02 -5.236780134582841306e-03 4.783850169873468117e-01
2.127340071068520647e-02 3.281270645754782306e-02 4.366316873652534847e-01
5.447401821525781757e-02 3.838632264037948605e-02 4.856452921403845990e-01
2.516845890168340968e-02 1.502268735369433061e-02 4.374837855474899562e-01
1.307186589570853014e-02 -6.361680646100064708e-03 4.337649059502619586e-01
-1.308814574719065552e-02 3.778033960044977629e-02 4.213196754129294730e-01
5.071817827977546239e-02 1.277438399415340396e-02 4.975734890245571695e-01
1.210383339914580456e-02 4.535509580034460114e-02 4.319580263470965686e-01
4.502708524144271446e-02 -6.043133175386477922e-03 4.525353017327108929e-01
1.197451853887394890e-02 9.701103707388587793e-03 4.333678378591139801e-01
4.692635119403888028e-02 5.175604441435480152e-02 4.546757850527732847e-01
5.567101598827004644e-02 5.712970579519975785e-03 4.849155581704924778e-01
5.242943362309688410e-02 2.955506530347400129e-02 4.603026836942124000e-01
5.403940711546582204e-02 3.697137492345270449e-02 4.893389441605979218e-01
5.401883686807106011e-02 4.051595916598539626e-02 4.877470248420116561e-01
2.326075701313494622e-03 5.099148381736058611e-02 4.293223823007695783e-01
-9.849759058358884163e-04 -5.674421593392351554e-03 4.321020440802600393e-01
2.337950938169174736e-02 4.110226508361838893e-02 4.375629727393381962e-01
3.861395010961812813e-02 -1.649102290061382065e-02 4.463474904771028151e-01
-2.148404947016025954e-02 7.609635857754706682e-03 4.310014142042680185e-01
1.430221360202938059e-02 -2.097446909995019301e-02 4.372244167798639003e-01
1.981280684800184461e-02 5.095028422360075443e-02 4.363618143187505405e-01
3.031249916525517729e-02 9.253504871140809732e-03 4.393844730180656577e-01
4.555154686862421254e-02 -6.460506210389819690e-03 4.532326182384133206e-01
2.722932083880758719e-02 4.008426811269328455e-02 4.400634064419565172e-01
4.053528814168995409e-02 -6.671988572387209035e-03 4.474006814850776670e-01
-7.710291967129532034e-03 6.519537506394132084e-03 4.299552578033557504e-01
3.456802498113741018e-02 3.894958898072120590e-02 4.441283072740998539e-01
5.271015936398978918e-02 1.035236751548398657e-02 4.932617462660396912e-01
5.357859307656284015e-02 4.450450682502006192e-03 4.983654543577767382e-01
4.340232186043580659e-02 5.627874540321987223e-02 4.522909060872847831e-01
1.085212433977940545e-02 2.771413600253138168e-02 4.275239954507783491e-01
5.251418489198970280e-02 -1.543769867828243859e-02 4.691333083770575785e-01
5.443940736535900216e-02 7.102776134456354785e-03 4.891708566081680032e-01
2.452387058552278620e-02 4.641451443149479522e-02 4.385334222554935213e-01
2.928053783026684717e-02 2.266914089316408518e-03 4.391786349009830226e-01
5.005048424388434253e-02 1.926582515628233721e-03 4.579567941176717061e-01
5.396057073630278894e-02 -5.484849051945784454e-03 4.686343348763490346e-01
9.056182757555307841e-03 2.635343004909939529e-02 4.265541338002752370e-01
2.577127114033358948e-03 3.736540351340203459e-02 4.226449423535046934e-01
4.647537779084962017e-02 4.567099074511645623e-02 4.533609383977025287e-01
4.589518058802079421e-03 1.484959441775999221e-02 4.296645804111905442e-01
4.576267415604927391e-02 6.244706331973252922e-02 4.728971616482016138e-01
1.395844348586413241e-03 3.368397858181330223e-02 4.210227584821569780e-01
4.854995098351239102e-02 -3.403480554265883584e-03 4.568459101121237209e-01
4.253964053167601927e-02 2.409909503903730904e-02 4.484434438917164201e-01
4.064194366564970878e-02 2.459090918861671360e-03 4.468288859541288960e-01
2.206697842149383734e-02 -3.510472999003921412e-03 4.357220598650493049e-01
-1.018926336411977301e-02 3.246449517367086535e-02 4.193450164558537585e-01
5.433611686462493096e-02 3.024020097689439530e-03 4.981013342961361223e-01
5.650013961175107124e-02 2.012119107731338754e-03 4.850200968689911130e-01
9.977129906425068195e-03 3.120373794060892630e-02 4.260862162717550250e-01
5.462277626562211941e-02 2.130569331272314654e-02 4.684053702452781742e-01
-3.031560173592375701e-02 3.165893055425980651e-02 4.268476322779667931e-01
4.845039841921078283e-02 5.698105971319744611e-02 4.790142272477698193e-01
4.937164661631850832e-02 4.408809124311879879e-02 4.562570605585478667e-01
1.646328669096381106e-02 4.299603060705176061e-02 4.330934611436350612e-01
5.028653887371932474e-02 5.384825862505386584e-02 4.802743257356316131e-01
4.596160460193783603e-02 3.781842464747069144e-02 4.526025975235891119e-01
-2.790859260626721294e-03 2.712723409468157515e-03 4.316391404354713579e-01
5.448650452186013654e-02 2.562688589334554713e-03 4.688469640418745921e-01
5.057894258924518910e-02 1.918067851195692439e-02 4.961694933887909609e-01
5.291419118717729381e-02 4.477528675678525694e-02 4.709620153751843952e-01
4.557915170879266176e-02 6.378249589671618203e-02 4.685587737982569445e-01
5.511287878565197806e-02 2.295036779628144633e-02 4.808327720176465148e-01
3.145754996773457435e-02 1.475319332144455625e-02 4.403237699535422767e-01
5.405867876216165907e-02 -6.537998050249660062e-04 5.074995180173210718e-01
4.671923108200572161e-02 5.031226376935406946e-02 5.016483268825574493e-01
2.300794992362618918e-02 6.208047445219804644e-02 4.507188421414881629e-01
4.691571017785430703e-02 6.081811021829702790e-02 4.689686901845903644e-01
-6.072628690039520369e-03 3.791665727300718575e-02 4.200591117126166174e-01
1.309731323946194091e-02 1.934365868076376362e-03 4.335964933049022418e-01
2.711123346827290156e-02 -1.735109471750338403e-02 4.392918784106537022e-01
2.819928037256230410e-03 4.917351490596812841e-02 4.283353261684411661e-01
4.634153674818795171e-02 3.804446315816045060e-02 4.529988887074357651e-01
2.879284126053086382e-02 -1.677357036402782678e-02 4.399277414848862811e-01
-3.849126468775971449e-02 3.656635966634182514e-03 4.429836286660686073e-01
4.664878484106017159e-02 -1.411749938124708288e-02 4.571711328493857640e-01
-1.498877227385550341e-02 2.152530885038765954e-02 4.244311542090533074e-01
-9.240713166055364997e-03 4.790578615928263451e-02 4.317847745701227091e-01
2.295303066574900727e-02 3.160665431611397319e-02 4.379112013206827303e-01
1.168103987161172664e-03 3.140311620148469179e-02 4.208510065664598510e-01
4.504936158738553909e-02 3.921124980027793777e-02 4.517561767027859498e-01
5.730881517556097454e-02 -4.325164144676516692e-03 4.835430579715421229e-01
-2.787546145864860242e-02 3.368473296438383863e-02 4.253157932488890736e-01
4.507758949372206447e-02 1.467645852851424265e-02 4.500385552664390443e-01
1.776225547536448152e-02 2.330414054904092133e-02 4.339383446711067571e-01
3.372675006833057015e-03 4.538291702784248705e-02 4.266116092692894823e-01
1.550364474042950115e-02 -1.922124232293489360e-02 4.368088753963169091e-01
4.760825439277895088e-02 8.810841171711755737e-03 5.096202471087496466e-01
4.232696690174296561e-02 6.481842488424911786e-02 4.746755577981519592e-01
1.891081430934056420e-03 2.563249061173374088e-02 4.218941259207107386e-01
3.787027160160468670e-02 6.169000765705571869e-03 4.445513094727060466e-01
1.908595106062500879e-02 2.937566284218220622e-02 4.349433598048805805e-01
2.334391552761093391e-02 3.343321020360492252e-02 4.382337833781013714e-01
1.229806631288220611e-02 3.766055617635407499e-02 4.294066660708783512e-01
3.573091344376828904e-02 -1.141654877979736069e-02 4.432326153699856497e-01
3.483036578950084866e-02 -3.882809523736647020e-05 4.423627516563784501e-01
2.661922182634452599e-02 4.144049505338629619e-02 4.397843530396957079e-01
5.133216041636556176e-02 -3.564196959018925415e-03 5.152724254940557191e-01
2.441183280619596552e-02 4.662015838837783865e-02 4.384617792249570489e-01
4.542682799304924302e-02 5.019548253930035397e-02 5.034358609403736251e-01
-2.700950963472751112e-02 2.548404820245405659e-03 4.345430543153459002e-01
5.143591518105621041e-02 3.115748678558289894e-02 4.969426134374951842e-01
4.975905898589728232e-02 1.031472189054230895e-02 5.025703978317206388e-01
5.431709702549082641e-02 7.429465272581261930e-03 4.894582569318584597e-01
-3.988748018382105853e-02 1.171539821561688776e-03 4.411221570047694773e-01
5.263911114278949782e-02 4.756447529218266884e-02 4.784872763493957515e-01
1.001290590517960911e-02 1.401640455292244188e-02 4.314495333101150409e-01
4.522825760362243763e-02 6.116489323537385031e-02 4.596014602732295118e-01
-2.514764668052970123e-02 4.055951043840407000e-02 4.311819210203627906e-01
2.834102413389851319e-02 2.946135731943805292e-02 4.404459396207085486e-01
-1.420395525593176958e-02 3.404629582001202082e-02 4.202579361195371566e-01
1.533102614899635452e-02 2.004249943227504049e-02 4.327629409750667344e-01
-3.016457806211974776e-02 3.713824446576970834e-02 4.288928253282335845e-01
3.047852956049274323e-02 2.668171075537115883e-02 4.409039692843004232e-01
-3.847888335485247918e-02 4.152579742326598621e-03 4.442312668840067702e-01
-6.702594869699642251e-03 -1.594973568943603565e-02 4.349194826341106768e-01
4.504399292967654900e-02 6.356458194936444317e-02 4.732504278036468448e-01
4.514783385260459636e-02 5.332375104939450494e-02 4.949958091745226274e-01
3.098039668984995179e-02 5.916200994491668114e-02 4.454881022814877189e-01
4.025050162336334808e-02 -2.495623940317790411e-03 4.467889384082242565e-01
5.651370610290181590e-02 2.481296614681989792e-03 4.788151905128186225e-01
5.208054569576754667e-02 3.810765798781775432e-02 4.965970000643249449e-01
4.666056530571981859e-02 2.372778717249133043e-02 5.090004357329440676e-01
5.256814169020038174e-02 4.718826751782842499e-02 4.860889921829962823e-01
3.103980781748026316e-02 5.159182798662120817e-02 4.431393348471170945e-01
5.313337022525391889e-02 4.510511352808276031e-02 4.774067952883047083e-01
-2.115305948148651222e-02 2.604082448093573282e-02 4.241181339898068003e-01
-1.496803462124948400e-02 1.374331858978802140e-02 4.280059818202148758e-01
4.776448744972251054e-02 1.990901869713531877e-03 4.535980186224629618e-01
5.509603064676860812e-02 -9.128218226702119326e-03 4.743174629115280427e-01
3.119974660499683777e-02 6.553631031440243504e-02 4.504557981281088197e-01
5.202179986033508841e-02 3.514766080893656081e-02 4.963448018462467970e-01
5.314194703545208065e-02 2.081875435217483625e-02 4.617205572707896999e-01
5.356679039500282513e-02 -1.097903532763866083e-02 4.700194600593403105e-01
-2.728119833001722838e-02 3.037474706506008287e-02 4.254743370077415099e-01
4.512458825916428051e-02 6.373408604501326624e-02 4.638341148908081135e-01
5.566366531201886320e-02 3.731752255323130332e-03 4.742460230822057587e-01
9.763621874297346431e-03 3.127276428012980281e-02 4.259104671320414481e-01
-3.300528576600969283e-03 1.228316508449040986e-02 4.284408536052208838e-01
-4.628880057092970256e-03 1.960538743941254991e-02 4.242983159031827323e-01
4.824008497872933621e-02 2.072301476420460725e-03 4.544022820951744701e-01
2.179896139090738497e-02 1.322979105793011846e-02 4.359155040167300710e-01
1.470785241778728436e-02 -5.387657126768155558e-03 4.338946227156469382e-01
1.137277141441419420e-02 5.538718273967310757e-02 4.377334897288952531e-01
-1.534529003628883580e-02 1.261024928116371950e-02 4.284814885113247818e-01
4.933923560082021514e-02 5.095258062044719094e-02 4.591132684374334971e-01
-3.283860609049168988e-02 2.509306073563884534e-02 4.298612920261289938e-01
3.501306004607480926e-02 6.257787201082001816e-02 4.489114565874264273e-01
5.574616196116259637e-02 2.292189931247436835e-03 4.907421533127190871e-01
3.597530246135492021e-02 2.082190066597632352e-02 4.434288392757891883e-01
5.047663145750495850e-02 1.477696859335564904e-02 4.964882273678061786e-01
2.535567660620607205e-02 3.909644376517424323e-03 4.374482578456175275e-01
5.293037209880814553e-02 1.985257224702293224e-02 4.884271974033302377e-01
3.125131606237999127e-02 -2.002931678700920620e-02 4.417100471548225937e-01
4.448967685284613977e-02 6.263538905825292991e-02 4.596121023156827246e-01
-8.916507074949427472e-03 4.494799376364605470e-02 4.256725158121867914e-01
5.765917064247696316e-02 -9.608862566762009852e-03 5.115294940542813862e-01
3.271032161240619573e-02 5.033189731667316036e-02 4.438649420326977180e-01
5.059180873982899174e-02 3.820161178120736606e-02 4.583127997314672686e-01
-7.521765449839193374e-03 2.164212889567777940e-03 4.315676193302365737e-01
9.806760036533544722e-03 1.761629496785458229e-02 4.302356215758926794e-01
5.033235414367913385e-02 4.185207373262195968e-02 4.583288209446282901e-01
1.271826389789027303e-02 -1.798662061267343112e-02 4.367001864828999880e-01
5.158336548363345528e-03 -1.015107746282325682e-02 4.332751077225860392e-01
3.328703366427243626e-02 1.764355456714333109e-02 4.416027028478077265e-01
8.979856927685318790e-03 1.262276438489515380e-02 4.315495094701469192e-01
4.849369063922768369e-02 2.444548984113310494e-02 5.045907563165835663e-01
-1.603396687340795813e-03 1.234969495312850107e-02 4.289504263627754166e-01
4.086043355863056697e-02 6.586221795050281602e-02 4.729420640088906058e-01
4.947220439544619888e-03 5.250333671522478679e-02 4.315740274695927803e-01
-7.048981117891352233e-03 -4.240432681492773380e-04 4.316943431897986572e-01
4.626023352367882729e-02 3.146734830841001196e-02 5.099041171679401518e-01
-7.436482731203784488e-03 2.597580873640525576e-02 4.194502962163832449e-01
4.231337234675881104e-02 3.530574697104481297e-02 4.490339006243123099e-01
6.113300579229045267e-03 -5.459559912267783130e-03 4.326614963498142119e-01
2.437205942011103424e-02 3.391310696640103400e-02 4.390157251301772257e-01
3.336448172665415490e-02 -2.898906608837290705e-02 4.465992607433983963e-01
3.961750839930662125e-04 -1.188662840538385126e-02 4.336065246784304716e-01
4.726405827226925344e-02 3.211409387938924526e-02 5.078829258464189200e-01
1.860941767579623457e-02 4.940668400470601268e-02 4.354954412572636380e-01
-1.411245597787515182e-02 1.792702074080106123e-02 4.260869542773267349e-01
-1.907586897860408942e-02 3.688367190308446120e-02 4.229398078895172386e-01
2.417607700794018391e-02 5.180199340876249364e-02 4.388206850338177145e-01
5.160947646639141989e-02 1.057035628358794083e-02 4.967929754822076327e-01
5.630298801810414838e-02 -1.644006622931073417e-03 4.755660673801692662e-01
4.496838182281800295e-02 -2.040329378941868610e-02 4.559444295172886408e-01
5.332271781056541898e-02 3.096769490946149617e-02 4.621040419239654806e-01
-2.746593591482244384e-02 3.870375028288608465e-02 4.286927079545491681e-01
5.425366487125118931e-02 2.612481752666296134e-02 4.663129358324885620e-01
3.027694868216513138e-02 -1.787503436242515037e-02 4.406755044561037060e-01
3.948486054847333976e-02 2.691637216587956447e-02 4.463341779916543128e-01
-1.831457250086499997e-02 3.175239152081072574e-02 4.218309774935659617e-01
5.554952488531381127e-02 -6.447942988409924997e-03 4.746413910534222347e-01
4.439967191057516555e-02 -2.296720294356352846e-02 4.562709121595094897e-01
5.108940083550001648e-02 5.084554746609414033e-02 4.675254981710469382e-01
8.531070476140448222e-03 -4.885302994486676390e-03 4.328458626796196085e-01
4.370317010574903405e-02 5.118575158378008139e-02 4.514028611571351268e-01
5.832209950858998834e-03 5.022312378052268267e-02 4.303661060791093007e-01
4.718191470346704691e-02 5.588014816437891774e-02 4.577274491058398453e-01
5.399185125180636785e-02 2.092662837335361459e-02 4.649159994327612955e-01
-2.148121692987708681e-03 3.935280714077357342e-03 4.314472351351942847e-01
2.019598258164006024e-02 2.602624533825079189e-03 4.357864450890377439e-01
5.077280368652891535e-02 4.644503284667946680e-02 4.970304815917234165e-01
2.549150151068111866e-02 -6.005192249810459987e-03 4.368738364140073438e-01
-1.511042734475340210e-02 3.241380189489343616e-02 4.205832095960587158e-01
4.867148077059837291e-02 5.637519552162506553e-02 4.640364974796520325e-01
-4.346624891121243089e-02 1.631916247933312952e-03 4.449958704311071100e-01
5.044857052523665092e-02 3.308711655672465918e-02 4.570989309680029145e-01
-1.420119274056454856e-02 2.286317591997790236e-02 4.227021619017928833e-01
5.261159297695079673e-02 5.488438572978858801e-03 5.002891007889194164e-01
5.339512016345875772e-02 -1.453963166836324053e-02 4.710434871540644108e-01
5.020913853161498158e-02 3.314795440484490791e-02 5.009416360344098873e-01
-1.462018310490312105e-02 4.165830367992040539e-02 4.241872503183559129e-01
-7.975406908730282851e-03 3.612613210884471626e-02 4.194539733418493621e-01
4.892420780230270771e-02 -1.223394819377536524e-02 4.612461482602173701e-01
1.526461787874701034e-02 -9.281802421013679236e-03 4.345335657626461789e-01
5.402197047203092378e-02 2.931786973559074097e-02 4.649660411848676178e-01
4.214514249426958188e-03 5.355626785245402866e-02 4.324572323362229076e-01
1.838061882669464638e-03 -3.174963591403559202e-04 4.318552742614826800e-01
3.662954712155868514e-02 6.780244937086439549e-02 4.534555555752319278e-01
4.985414438359437456e-02 4.195871503500771260e-02 5.017215933352002777e-01
5.210829723603532110e-02 4.727747048075348416e-03 5.035063748609658330e-01
1.212686902476155584e-02 1.304699735901666130e-02 4.324195370280895512e-01
-4.495993608815263692e-02 1.501994590627571576e-04 4.451437929084077205e-01
-5.574468244016661436e-04 5.420321870815676679e-02 4.337336327748420040e-01
2.154134629562898945e-02 2.841748995475857839e-03 4.361503288752132668e-01
6.845866438105925600e-03 -4.716098779397971674e-03 4.326289344297027939e-01
5.015072453094226307e-02 2.723654782611225483e-02 4.562020701565366321e-01
4.559672680213620877e-02 3.123797892086382227e-02 4.514032280232222472e-01
5.725209581190199293e-02 -8.769853263152438405e-03 4.835593834500973021e-01
4.138425988442635123e-02 5.898909691313996423e-02 4.514022672355617605e-01
1.347405041971262013e-02 3.700268509787501409e-02 4.300605003087771272e-01
3.261870755263070187e-02 3.449105365244228838e-02 4.426101435290513697e-01
4.506668467528866795e-02 4.203023449191123362e-02 4.519007641059090141e-01
5.076826310205127119e-02 7.941789062355921955e-03 4.585492943499688279e-01
4.550799679196324693e-02 -6.691054963430808321e-03 4.532591072627368822e-01
5.276545881495332130e-02 3.344810757142869378e-02 4.615554828368264584e-01
3.554713776531607389e-02 3.667565747803146897e-02 4.445251808046658537e-01
2.644392846945236436e-02 4.860444696767589334e-02 4.398605516457939624e-01
2.664179440008272726e-02 6.406113740176520854e-02 4.523048388212248527e-01
5.369192415990699241e-02 3.135916383756673885e-03 4.664416013084946577e-01
-3.401445920009081580e-02 2.244976739852106926e-02 4.313791166435670399e-01
1.238254589161572224e-03 1.324948862908177649e-02 4.294050637803147885e-01
4.913575136599586390e-02 1.961536635351910154e-02 5.015738168223549120e-01
1.628340592858911959e-02 -2.606948330401758027e-04 4.342117384266860336e-01
-3.214708026731619150e-02 8.369860414389270961e-03 4.373669452368701416e-01
-2.240568306843185656e-02 2.409438602066209592e-02 4.255818455630353547e-01
4.992540096179405584e-02 1.671520980535094389e-02 4.984067958158897027e-01
4.253212907003442976e-03 4.053138771215446939e-02 4.250956293906097416e-01
5.070778274241855010e-02 8.942355033691574626e-03 5.009583788951067485e-01
-4.467630219925767046e-03 2.036828588750054861e-03 4.316106204618146980e-01
4.962185165717413610e-02 3.756655841429639743e-03 4.566784543834276344e-01
5.012931510912536914e-02 9.252382345710429001e-03 4.571154435518307024e-01
1.054554472824584949e-02 -1.011790757716416085e-02 4.339063071277435846e-01
4.605340717169113807e-02 -1.457227078518365162e-03 4.523478555769792631e-01
5.421551764851081229e-02 2.751045291132638362e-02 4.660491708348180051e-01
-2.937392924339151529e-02 1.837087637442249774e-02 4.302793945986638779e-01
5.152184480681130073e-04 3.372886798533378250e-02 4.205500207919771194e-01
4.734620181626594121e-02 5.755730967071500531e-02 4.597099131988444110e-01
3.708271294742281760e-02 3.458205694223372151e-02 4.452869469571664185e-01
4.769078769650661465e-02 2.746986975542459880e-02 5.071057155240367154e-01
2.359971033634152351e-02 2.160231024926676652e-02 4.374024580490604164e-01
5.107702312165217362e-02 1.281115746372562918e-02 4.584519449437127192e-01
5.206051819021551702e-02 2.496701850410735363e-02 4.594174296909371291e-01
5.062300244226750068e-02 -1.900493797073332745e-03 5.148830348480354369e-01
2.222840667599390238e-02 4.231511779922917521e-02 4.367668148328844868e-01
1.892011054804721218e-02 -2.828347226388653202e-03 4.348325276324990774e-01
3.298103575578868242e-04 -1.257341276585742691e-02 4.339448952153637240e-01
4.813605937621612263e-02 3.964425893645713572e-02 5.058123528418909665e-01
4.008292907104907266e-02 5.525842094667747506e-02 4.492682479111417271e-01
1.479980509569434749e-02 -1.717299340691426021e-02 4.364771075557679625e-01
-2.883270460896671106e-02 2.135012923151679426e-02 4.285075688492133716e-01
4.802551865855415880e-02 2.215978333898970670e-02 5.059118294839264340e-01
7.530904567209698204e-03 -1.537590380520961232e-02 4.366821065257071588e-01
1.153317665716872831e-02 -1.467655570646913925e-02 4.360300255989964513e-01
5.013064765849296195e-02 4.881404397515944765e-02 4.604632348571124356e-01
5.283842380746245349e-02 2.412118165210219364e-02 4.609496689495450328e-01
-1.909198045972720914e-02 3.143687849123429079e-02 4.221379721467184987e-01
4.952721347521985701e-02 2.062027532138403785e-02 5.002311376288736122e-01
5.065475996829724853e-02 -8.084640797697247375e-03 4.632357200579728107e-01
-3.354870682725451247e-02 1.420656853318020760e-02 4.356564214488696241e-01
5.182832659418470933e-02 5.088946844142589604e-02 4.782721881329984881e-01
2.591147219708007238e-03 -1.016939754747153528e-02 4.329917314279713714e-01
4.522327688350018943e-02 6.000614263300232953e-02 4.811670365649219350e-01
5.229724741732573456e-02 3.535604363076699785e-02 4.611771187430223073e-01
-3.593917609226917470e-04 4.043119927959622911e-02 4.229738561400656627e-01
1.818965614226572547e-02 1.494239224861839202e-02 4.344605109688745026e-01
4.630154615922680433e-02 5.080271772845774969e-02 5.007377585542284182e-01
3.397244015830276631e-02 2.502639663844371740e-02 4.425414740306842787e-01
-4.311238958443022740e-02 1.935727501998982681e-03 4.435668459411905018e-01
-1.068473159097361926e-03 2.130345508851543695e-02 4.237984096409206369e-01
4.655445774642651829e-02 6.983133653728327422e-03 5.128717996245319988e-01
1.657217057017087297e-02 -1.934791172005254078e-02 4.368736112696829932e-01
4.317334016514057932e-02 6.560776079010736950e-02 4.616760950981422251e-01
5.138831593287099958e-02 4.248557767702595273e-02 4.981927722916266177e-01
5.640281141352763983e-02 3.389867752791060358e-03 4.786153753296815139e-01
3.827056851707123786e-02 -1.584382025264294280e-02 4.459414734615207432e-01
4.846636188195566769e-02 4.247344851745835093e-02 5.044626596555805698e-01
1.656171415589355322e-02 3.450540264975446303e-04 4.343999834154699258e-01
2.121524872667990974e-02 3.665998407876110143e-02 4.362102826045515802e-01
2.830230761236875864e-02 4.706504529374485463e-02 4.409460014775176684e-01
2.097166075739537172e-02 5.037323223847296402e-03 4.360072854843626278e-01
-1.070083183132573140e-02 2.989679993758077164e-02 4.196117184501155228e-01
3.714955999136843046e-02 6.705640036535560899e-02 4.639778523621361228e-01
1.796798303635196992e-02 -2.133064970926183690e-02 4.372309562986314013e-01
1.077472769279374555e-02 1.059027288729032928e-02 4.326730941540123387e-01
1.530968595874903498e-02 5.657283968708756022e-02 4.411529988817329828e-01
-2.424786296022447482e-02 3.776090649345996419e-02 4.248424152408146748e-01
3.387406088954668382e-02 4.712180766013233935e-02 4.442210567868221660e-01
5.215804536725391488e-02 4.425168232514874699e-03 5.038958395331296636e-01
4.536824498186559779e-02 5.535190435409067383e-02 4.903389846776449179e-01
2.645786563954076118e-02 2.059079872293893138e-02 4.386160205868289141e-01
3.875599650977622213e-02 9.549453185536351321e-03 4.450884713390791392e-01
5.603052226036802502e-02 -2.962858839044960751e-03 5.063756547441840006e-01
2.498571999553429734e-02 6.037139762602779236e-02 4.438900532240012131e-01
5.089718285210155513e-02 4.111247428123936815e-02 4.595574909162356558e-01
1.634139783575143390e-02 -4.964066999696171816e-03 4.341930911870778842e-01
3.710197891466397724e-02 -2.214096891052605778e-02 4.467089570375554208e-01
5.303840840310009713e-02 4.799282150578475237e-03 4.998875856820992891e-01
4.143557448325438375e-02 6.326324101249725107e-02 4.546302916406541605e-01
1.564989036557539598e-02 1.890851498825744936e-02 4.332330482292708895e-01
5.722344423480014292e-02 -6.729703516429810448e-03 4.833601321738643097e-01
4.458652766466972284e-02 -6.484456184658879754e-03 4.522015446782731152e-01
4.660018657368890371e-02 -2.096350039062760962e-02 4.591859738730043605e-01
-1.384077402973887296e-02 -4.044984904068316470e-03 4.332147854540994714e-01
5.341323370219615979e-02 2.816070581305315026e-02 4.621753529135353422e-01
4.815066579527214202e-02 2.880125886444106706e-02 5.058775679498064282e-01
5.195494616321276460e-02 4.921051775071935003e-02 4.848751053864436278e-01
3.558380747995871368e-02 -2.368039504390384922e-02 4.461817469467670438e-01
1.569337750702536755e-02 -1.355573360170475583e-02 4.355315898560727095e-01
3.015187410974753957e-02 1.631716551500903001e-02 4.398247273828120862e-01
3.081635035554875293e-02 5.487554905163377628e-02 4.437423926426756204e-01
-3.460050748435376106e-02 2.395260963870655957e-02 4.312441645872027163e-01
5.022232609381799273e-02 2.334759886430250869e-02 4.980639353216069209e-01
-3.652531754307566242e-02 2.042711981624488471e-02 4.345750945299521883e-01
2.972287383861240556e-02 2.138882563308669091e-02 4.400206016137743203e-01
2.922029812713721267e-02 4.253849179197500413e-02 4.413882764967294037e-01
1.650459315131383616e-03 2.560846091764879331e-02 4.218199583023353183e-01
5.017833748528893745e-02 2.411623219219188180e-02 4.984852991769088137e-01
3.948564943956141271e-02 1.003786493424627287e-02 4.455866419453516358e-01
-8.204337308566445747e-03 1.395510989915879803e-02 4.273364460013487354e-01
5.501256485489026266e-02 3.849777602246549912e-03 4.703576626008653117e-01
5.087512347598178303e-02 3.386205123841708881e-02 4.994187200094528656e-01
5.015545688793766888e-02 -9.034140219973294320e-03 4.626885338763991884e-01
4.552458670080108266e-02 5.062974583941882989e-02 5.019066307369516311e-01
-2.261383509019824004e-02 3.812033882424183118e-02 4.243920178810081656e-01
-1.315234921881851086e-02 1.214796613518274310e-02 4.284125789080978630e-01
9.138867553736619229e-03 4.110182327933777774e-02 4.286225964511856112e-01
1.251994699346656303e-02 5.652884621842205193e-02 4.424537890895717251e-01
-1.298651295903882272e-02 3.979127592639405964e-02 4.225866934887094750e-01
2.595139820241506787e-02 -2.148398853175554138e-02 4.394588308031693313e-01
-6.151212316255465044e-03 1.038214654995532615e-02 4.290856298649518563e-01
-7.836641129879598489e-03 -1.505279887223273574e-03 4.317347688509494130e-01
3.494289846739749572e-02 -1.486307806538050662e-02 4.433111990955540538e-01
3.382492631889503359e-02 -2.724198265817248665e-02 4.462446474067550128e-01
-1.225201102191101482e-02 4.421780390171749925e-02 4.274566067098258815e-01
1.524408928971009158e-03 3.851487211499424884e-02 4.224764503791266779e-01
3.314948783533737398e-02 -3.624192953786761848e-03 4.412894442423054286e-01
1.578643443942704186e-02 -6.585485029987304603e-03 4.342731431300357325e-01
5.175937849856746681e-02 3.086809991084930177e-02 4.591624390214397167e-01
1.598689978773383535e-02 -8.304342489901325383e-03 4.345678995745119733e-01
5.078336100073563980e-02 -4.387030638154765239e-03 4.619305046993314456e-01
2.829174602603828567e-02 4.958855308418322339e-02 4.412024856793691496e-01
6.811193907471167763e-03 -4.188493453666711566e-03 4.325515545027477371e-01
4.976344099239171301e-03 4.491276056441171477e-02 4.275340055257335070e-01
2.873213868879602451e-02 5.770332214561774142e-02 4.439499961509121295e-01
3.771335234301795292e-02 6.413940161051151501e-02 4.516110802779392253e-01
-3.319843293994666558e-03 4.097855621604097609e-02 4.225701205515695058e-01
3.919131141313376282e-02 6.551609748722668491e-02 4.545956252269869324e-01
5.520471759892468799e-02 2.355643074029693460e-02 4.785763681139745263e-01
4.931477484408507833e-02 7.268142295998023840e-03 4.557113416974193920e-01
5.303884219751105189e-02 2.087378649299991354e-02 4.615058517748766853e-01
5.084576012617898766e-02 1.038788577675875142e-03 4.599472079295857663e-01
5.318400141351465465e-02 3.777231203602138959e-02 4.931715275777033836e-01
5.650412396488513345e-02 -1.877120690672629032e-03 4.958029642534516057e-01
5.469576523308766064e-02 3.024906589416690578e-02 4.687581414063758944e-01
5.748628365247861194e-02 -6.309780951726861459e-03 5.048143629311137026e-01
5.550785380441632111e-02 1.022429517418871683e-02 4.787523389002446561e-01
4.200282888219353944e-02 2.189160184595187811e-02 4.478716700331322187e-01
5.528635248295368787e-02 1.845244962372924111e-02 4.732476805941999154e-01
5.203921946928541375e-02 -2.169160003800838302e-02 4.696008343164687626e-01
8.565361384467290104e-03 5.342334074895885299e-02 4.338175940275347808e-01
