1.625110959493821297e-02 -1.995025304667968902e-02 4.368885681493023254e-01
5.488962621835499073e-02 2.704830096532331168e-02 4.832518539473812935e-01
4.827439766261250320e-02 5.562949892335779939e-02 4.837180535959250127e-01
4.267216845480314297e-02 6.563612466449657290e-02 4.712473244906444925e-01
4.443447595895085728e-02 5.998180686553417074e-02 4.560975868369230857e-01
4.708503607224282655e-02 5.579245801283474332e-02 4.862592847387778860e-01
3.857816978612208653e-02 4.949833112791256901e-02 4.465911415040583199e-01
-3.351951162223248959e-02 8.479508934267758827e-03 4.383590358745106386e-01
-7.102663205826129089e-03 4.180382850987986523e-03 4.308245009663145275e-01
-4.996210769849445538e-03 -8.997261035439709648e-03 4.331138082798363098e-01
5.022919736210399583e-02 5.222389308305558364e-02 4.646490453731310089e-01
1.759676156925690793e-02 -8.358391492289068622e-03 4.348168780415962997e-01
5.038490178089638505e-02 3.771658555831532145e-02 5.006702492783976499e-01
1.407358258184496398e-03 1.014942377684014546e-02 4.301551417644337016e-01
4.411170907598530727e-02 4.214973409453282721e-02 4.507008477869139385e-01
4.450899180515532211e-02 6.466045269925731198e-02 4.667050666210987298e-01
4.585207596013520653e-02 5.553292612638042330e-04 4.514079957504995022e-01
2.616244224275139640e-02 2.977433516487804771e-02 4.390980857191478237e-01
4.722426419230030085e-03 6.369941592123192983e-03 4.317616467774029743e-01
5.583244056285446150e-02 -4.255564932837289059e-03 5.093375957672225951e-01
5.098741825274397815e-02 4.460948642356577648e-02 4.982795614105647863e-01
5.469143226855467665e-02 2.768681609427148596e-02 4.844542306804789922e-01
-8.347760831164310197e-03 1.656473996929666223e-02 4.254122615091553983e-01
5.299038522293796766e-02 4.424617344836045962e-02 4.903624503088701569e-01
4.639172499325977528e-02 7.713980415652320344e-03 5.122700758311286018e-01
5.007831579858613991e-02 7.756265939764493689e-03 4.570114247415209552e-01
2.016834541273447926e-02 5.918905249024974252e-02 4.426125639939215706e-01
4.991285218639093628e-03 4.578514252025758791e-02 4.272450254877103726e-01
4.690074993400942388e-02 2.339429298323316211e-02 5.081710868114759361e-01
-1.774363938527742657e-02 2.325590223904467832e-02 4.235556846357692584e-01
3.029583617347303415e-02 3.683208332809568414e-02 4.410679492888242015e-01
5.347495319394482416e-02 1.611504848877377133e-02 4.629815573604965651e-01
-1.276197865943168655e-02 2.556485678913875820e-02 4.198788404629997251e-01
-2.965379256481251100e-02 1.992715699832923668e-02 4.290602557097207836e-01
5.470332932369064566e-02 2.419886408262224287e-02 4.686110992652973706e-01
3.512728790751343429e-03 3.580209651805921905e-02 4.216654569777880668e-01
1.435791757093997714e-02 5.184748261615306636e-02 4.339940773597184553e-01
5.225662238530032200e-02 2.698669559067700188e-02 4.596369686906611185e-01
5.256954571415881766e-02 4.315725833443566362e-02 4.935304331363649100e-01
2.248892151775457732e-02 2.215123511179544619e-02 4.363350945762816679e-01
3.376221073582627574e-02 5.486644813265652981e-02 4.448519040128944280e-01
4.068237703309078579e-02 6.231878550530293298e-02 4.522849099310971011e-01
4.628280620046516802e-02 -2.289989339274517421e-02 4.591027252898194910e-01
4.207715609903005249e-02 5.503573619698397257e-02 4.503361178240498086e-01
2.707655908345105167e-02 4.619146490200277955e-02 4.396546344817279794e-01
3.670327528135084588e-02 6.823108447028032250e-03 4.434943441835498268e-01
5.610426437281962331e-02 -4.473498640636506749e-03 5.087571942573074768e-01
5.103055751454311367e-02 2.471172271319618894e-03 5.091529896484542350e-01
4.478263545270789320e-02 -3.037371858936942053e-03 4.513309481563515524e-01
5.164037731446827900e-02 4.119450806321739433e-02 4.970457587521868725e-01
3.401443795372038198e-02 6.650497003553480779e-02 4.514862244792433033e-01
5.205856503101245064e-02 1.433548830622114433e-02 4.598635472467447749e-01
-1.386490663950692807e-02 1.869433546297977200e-02 4.252399320667242799e-01
-1.116757584079812113e-02 2.966485632435539657e-02 4.189603684454985544e-01
5.255831751718909040e-02 4.725231332053184130e-02 4.853901346765753244e-01
5.159402944450081768e-02 4.397016315872436659e-02 4.967664424471386342e-01
4.260118508817285765e-02 2.645239874776561528e-02 4.483431008070931090e-01
5.480371819335522199e-02 3.280895661937241470e-02 4.698692286665092088e-01
4.738318359010209452e-02 3.444576910689766541e-02 5.071741411787215048e-01
-3.524650425658279462e-02 5.030123688507902660e-03 4.403911924529891331e-01
5.471044105266349711e-02 3.498021882764704160e-02 4.719090410646721301e-01
3.915667997046457828e-03 5.462513898835323622e-02 4.343682942559718430e-01
3.544347996668415629e-02 -1.290788259268281155e-02 4.431692967650855963e-01
5.534691532715065032e-02 4.058910158182106945e-03 4.721197463735898325e-01
5.312087271624696405e-02 2.583981334073195274e-03 5.038143445513911800e-01
-6.925858901951625381e-03 -1.267283066042875980e-02 4.341746655698670021e-01
-1.076801690635706063e-02 2.527648003656073061e-02 4.193417290363017358e-01
2.133605122125544970e-02 5.949912416560483933e-03 4.358718895191004972e-01
5.047096450479790497e-02 4.216802606272162385e-02 4.583341933173288307e-01
2.821771100485082062e-02 6.134019729134898569e-02 4.448954028919994141e-01
-5.159900167337040308e-03 4.702473495907120299e-02 4.268962629021674227e-01
1.911107459658712565e-02 2.455433258090438872e-02 4.342334846033321094e-01
3.406290602450582489e-02 -2.598598296384463380e-02 4.458672273120287133e-01
4.289340787181391418e-02 -1.246995093779729169e-02 4.508987179231174203e-01
5.147212922404420521e-02 5.135897983237485559e-02 4.800855488769065205e-01
5.471716816644545817e-02 1.164401717920367056e-02 4.684910775748861167e-01
1.968059292125797638e-02 3.619673186697408562e-02 4.344863398061433180e-01
2.917131587673802220e-02 5.573501029397844725e-02 4.427485749330296594e-01
4.225332898345258298e-02 1.155554526393676867e-02 4.473138665961481908e-01
4.374413745907304585e-02 3.981945734176196156e-02 4.502645488242958405e-01
5.077711135651206964e-02 3.454452169964095792e-02 4.574863108527376099e-01
4.145822561351370644e-02 -1.078684272935389633e-02 4.488106322146838134e-01
-3.049725443778413675e-02 3.441367707019428457e-02 4.275859496781421742e-01
5.391638187561483692e-02 3.504560637770839492e-04 5.057861118755125895e-01
5.613988411742652090e-02 -6.939884144884545664e-03 4.771939379781428570e-01
9.911234794207328044e-03 7.065367881303317998e-03 4.326530478503965438e-01
-2.569642207356915425e-02 1.469855790237336451e-02 4.306588744666490221e-01
4.967456641651297328e-02 5.494107474418519904e-02 4.751172838095351070e-01
4.529987053736397873e-02 -2.091786716460303577e-02 4.566145473361953311e-01
-7.272611251181500952e-03 3.931643543117745165e-02 4.208087972817942668e-01
5.520584396842988933e-02 2.085562754279284697e-02 4.773017297230671141e-01
3.885848515463475455e-02 3.850028513776278596e-03 4.451551221634034716e-01
5.180852491444448010e-02 2.826435415487119768e-02 4.943937669794106760e-01
3.356802434021199932e-02 -2.846319172810623382e-02 4.465134930588572915e-01
5.006385316236455080e-02 5.379396030769299092e-02 4.673867837213073750e-01
9.277226317380797820e-04 3.548721782894257576e-02 4.200543498612535065e-01
3.049177258318692615e-02 -7.666189264425157454e-03 4.395736624199547138e-01
4.509604416009143496e-02 5.280403717917562384e-02 4.962819813433634875e-01
6.433220412044546831e-03 6.243537937989191919e-03 4.321052698580014062e-01
4.959214740587002124e-02 2.018690706880814367e-02 4.994842055439152606e-01
4.497045198479111133e-02 8.940582666082268204e-03 4.496488750250891009e-01
3.010128218975861164e-02 -1.660477326842355397e-02 4.403493552871306504e-01
3.882231902777494303e-02 2.151848161010275901e-02 4.451598346356901437e-01
3.647855608174543213e-02 6.770508292050499144e-02 4.620678406073558953e-01
-3.764103916279996215e-02 2.635163932118497667e-03 4.395818780463460196e-01
-2.981307113422856231e-02 5.416088300245373161e-03 4.356292957308953717e-01
8.783743679643195995e-03 3.571052661598154987e-02 4.251939861418429500e-01
3.579348808597599459e-03 -1.843008200893560267e-02 4.368209345785875608e-01
4.775039975244753376e-02 -1.457143578831119647e-02 4.594930463270451848e-01
-1.695368840160221477e-02 6.890066599784517437e-03 4.299558997821307793e-01
5.646947974657484659e-02 -3.550252623346786783e-03 4.770862501702373137e-01
4.069169932298576098e-02 -7.432236199698676916e-03 4.474175709238173426e-01
5.429934619795169504e-02 4.100196688145334861e-02 4.834681679945105337e-01
4.583870810133616053e-02 1.847188399354804389e-02 4.506924914284757833e-01
5.293614599268399445e-02 2.222796606189546623e-02 4.883163921329795598e-01
-1.073635719031521343e-02 -1.676003820800410406e-03 4.319598987009015123e-01
5.727162064346034975e-02 -1.014348440310298277e-02 4.830784169293654839e-01
5.201865546842720373e-02 1.439599845889085253e-02 4.916860295728371355e-01
-8.718032063626729444e-03 2.606068039505783987e-02 4.187724576630781348e-01
1.085809441629961326e-02 3.510385389220303798e-02 4.267912839467245534e-01
5.579410355720637593e-02 7.206050072053947313e-03 4.758658221010550471e-01
4.970774353529282263e-02 6.028541594898547198e-03 4.564303165947141139e-01
4.675182133962559050e-02 -2.299122314921743515e-02 4.598696105193188499e-01
4.273854354968643909e-02 6.444407318658144923e-02 4.579324332376448203e-01
5.714925481971717958e-02 -7.141047143784402113e-03 5.099716528173439123e-01
2.806999100101057951e-02 9.815891373511019188e-03 4.380968917161568998e-01
5.525021257360901439e-02 3.227494481983089747e-02 4.766538211508200007e-01
4.971473217710829784e-02 -6.851064458314000058e-03 4.608385064998486436e-01
5.495646748810764648e-02 3.429617800093466562e-02 4.821322357442059947e-01
-4.456685757917969171e-02 6.775188633717048586e-04 4.469158451271528221e-01
4.994910430329753404e-02 2.878728212584343721e-02 4.555663605401551464e-01
3.190313143901069709e-02 4.123563631177052519e-02 4.423852763176288061e-01
2.949249726180661058e-02 -6.559622241696203178e-05 4.389191582152329185e-01
-2.439876826883402572e-02 7.320418560618685566e-03 4.327241007102888282e-01
1.358419180607987366e-02 -4.563310691870908764e-03 4.334276943637375701e-01
1.906788845172835423e-02 2.882348616250435952e-02 4.344109879524148954e-01
4.048856264423974366e-02 5.051577449459216176e-03 4.463087375087968489e-01
-2.699440202484915119e-02 3.204500131127054063e-02 4.244595611233997201e-01
2.798849859822392927e-02 1.424324861473465209e-02 4.383410776841578649e-01
5.250701043558781561e-02 2.223109622546316170e-03 5.063714808372138387e-01
4.803387448460457593e-02 2.684933073437559270e-02 4.526653676013437932e-01
-1.150271742853882376e-03 1.738357334870049842e-02 4.255019998637396550e-01
5.496381271968289045e-02 3.587426458100834159e-02 4.796223632379371105e-01
-1.934103095376061773e-02 4.419434804237057889e-04 4.329930773073435435e-01
3.270709474134238237e-02 1.349539413659761426e-02 4.407703832340642558e-01
-7.651329371457715398e-04 1.028091650649794013e-02 4.296392261265452039e-01
5.352052017134213691e-02 7.813073165710511525e-03 4.647556915905045050e-01
-1.122009178331340173e-02 1.291817652027435655e-02 4.273304036720941834e-01
5.404604597519867965e-02 3.511730573399513694e-02 4.664904226587202607e-01
4.088812214668842426e-02 -9.000300028802497854e-03 4.477750527901132038e-01
4.290236347025155883e-02 6.194218958540068098e-03 4.481145351327545101e-01
3.325098988278984979e-02 5.441045718975017625e-02 4.444720736432098973e-01
3.451289661407744985e-02 -8.911275025183242396e-03 4.421706580598750436e-01
3.845326284414961326e-02 6.768200112189090567e-02 4.582431408721207577e-01
-1.589650052110452849e-02 1.616395074215554173e-02 4.266573854131795462e-01
4.662878785751552180e-02 5.573437596910908731e-02 4.880993572584479412e-01
4.460186481396829355e-02 5.073086086550988166e-02 4.516601048583927525e-01
5.505219864120469708e-02 2.309627653704475481e-02 4.705470156290927908e-01
1.583568577074857472e-02 -1.798015874074267509e-02 4.366037404874227867e-01
3.912586150040596455e-02 5.864623398302690194e-02 4.489744853030255833e-01
1.297188109410660206e-02 2.979495064813780097e-02 4.284997415012860023e-01
4.788339224837554614e-02 9.746248748643611404e-03 4.528847353503599460e-01
3.633424659135915669e-02 -3.003309957518095208e-03 4.431851185254045422e-01
-2.424030122251201458e-02 2.514986830815892083e-02 4.252855041484604470e-01
2.958219658938327987e-02 -8.523620796058955715e-03 4.390189811489834670e-01
3.168991402072661445e-02 6.574027104258721443e-02 4.501464783123569346e-01
5.495403657540393755e-02 3.238031773052392481e-02 4.706653410538414462e-01
5.499434976194499808e-02 1.891860683470752633e-02 4.710428707976495599e-01
4.866186207624673826e-02 2.832178225037039476e-02 5.041354383039483578e-01
5.091161468134140777e-02 2.645797461754641200e-02 4.964117246973190900e-01
2.401508018544789430e-02 -4.701531859045953408e-03 4.361942387554454958e-01
-3.374743530567039795e-02 3.609690219936688687e-03 4.374767706266026734e-01
5.154423937131626110e-02 9.784270547540788177e-03 4.974581965741962097e-01
1.510099484821576278e-02 1.189866125897366678e-03 4.338901590725652291e-01
5.131402731745231954e-02 -4.556055423601693480e-04 4.612883732578466622e-01
4.025516224370438711e-02 -1.319321442625480574e-02 4.472017721072117369e-01
-3.023176915949765328e-02 1.797445824868809314e-02 4.304877249594815658e-01
2.461372501315406761e-02 2.343053781660285606e-02 4.377192098168978807e-01
3.089370765463382226e-02 1.087483088014846652e-02 4.394854999158351871e-01
-2.548580290331848783e-03 4.781088980500836083e-02 4.269071168987975118e-01
5.562567876804888622e-02 4.682429389762901746e-03 4.740916338147566633e-01
1.599681647960218833e-02 -5.609345570279433008e-03 4.340125887596407162e-01
3.901317729251754796e-02 2.948124083843339273e-03 4.453072738024652644e-01
4.814875958842577269e-02 -1.774726767246393930e-02 4.610683405700604087e-01
-2.316610618965125185e-02 2.169815740326131587e-02 4.258881358093153380e-01
2.145451706478426063e-02 1.515111302195644612e-02 4.356186713415673983e-01
2.755333930839253334e-02 2.957508083028513590e-02 4.397383568424704792e-01
5.017558219069479658e-02 4.991254001920267247e-02 4.927235167139492611e-01
1.061699850136754025e-02 4.673001901203872183e-02 4.310944754524213551e-01
2.157395244078058258e-02 -1.337828519027388884e-03 4.354284241442966663e-01
5.033793074770057108e-02 1.222379249704795730e-02 4.989029530705725302e-01
2.244742698699559239e-02 4.698705192382751639e-02 4.365433772000388291e-01
4.793884072630184151e-02 5.806718105408798652e-02 4.772442559059425493e-01
5.508055838592752079e-02 1.222950079979106229e-02 4.710774131107566265e-01
6.243111726077964219e-03 -7.582956668742942170e-03 4.328264346190588419e-01
-4.358529278699379422e-03 4.665368320575110500e-02 4.260938251204341443e-01
5.132082152354445516e-03 2.847494947432531801e-02 4.217684436143621651e-01
5.173554318462386670e-02 3.564572230894148819e-02 4.968003490665872102e-01
-1.672355369649477369e-02 2.051468475649367157e-02 4.250134728451104293e-01
6.788090070797725417e-03 3.763845631580846340e-02 4.246419999560067104e-01
1.545125576053292711e-02 4.052727713594120318e-02 4.316747885112761640e-01
5.108969332596645374e-02 4.565457403220130050e-02 4.610741034481152245e-01
-2.672264054493075566e-03 3.636346541207938210e-02 4.190601444066575643e-01
-4.014571679643573476e-02 -5.519827605869659284e-04 4.407475796377472999e-01
1.382106671225581673e-02 5.779067296533334230e-02 4.446830345017783181e-01
3.565478525206181026e-02 5.312861672366327170e-02 4.455980825166249715e-01
-2.733563124709169345e-02 1.551471869712724508e-02 4.310871722124739458e-01
3.450800322076481852e-02 -2.375102436342759957e-02 4.452929049847905718e-01
4.951341839290893110e-02 2.505362683401888418e-02 4.547376601120339257e-01
2.254756368350445059e-02 2.448248161791336669e-02 4.364109240402470058e-01
4.835652689527812631e-02 2.542922141869377334e-03 4.542847030658354601e-01
-1.817658177377811865e-02 3.347835941638170609e-02 4.211650300877269881e-01
4.892610894190340537e-02 -1.803645742892354825e-02 4.627173769255465974e-01
4.277005408176564466e-02 1.039623595002528780e-02 4.477533181738664325e-01
1.781542523625969862e-02 3.286274979246517347e-02 4.331944887114474452e-01
-2.888432738846680864e-02 3.672109997858333946e-02 4.267964568648681678e-01
5.069806759141825409e-02 5.140824901818517173e-02 4.658809116819879748e-01
5.701652396484627183e-02 -1.262319575411907993e-02 4.810202444453332005e-01
3.493304239732554495e-02 4.981261462557186326e-02 4.445663436035288685e-01
3.567335698165460377e-03 3.763694928612506402e-02 4.226422475412590085e-01
1.382382858998751005e-02 9.665998639995416770e-04 4.334462764753019837e-01
5.193902771863319334e-02 4.995697374498402760e-02 4.735174866432675378e-01
4.668573568807183466e-02 5.218259069662841559e-02 4.953227641581001706e-01
4.568591454457215234e-02 6.106523460701811928e-02 4.772088645187904654e-01
3.418308596704795754e-02 3.584102403413506888e-02 4.432279394741435730e-01
5.342779695424073466e-02 4.057596796877015882e-02 4.680596574384119912e-01
3.198548196267562982e-02 3.809557795159149163e-02 4.421361632053600332e-01
2.979019576971258382e-03 3.433051107228868998e-02 4.210932337658082614e-01
5.244486043503229777e-02 8.622718442741726663e-03 4.954505659683341445e-01
5.308459541981287722e-02 2.322043003661039898e-02 4.882955699543066186e-01
5.500471821305569220e-02 1.847306350741348066e-02 4.803261560573947042e-01
6.714812044556484061e-03 2.144273564785758104e-02 4.258975720472566451e-01
4.917916739444865709e-02 5.569843109195728170e-02 4.768954464684306838e-01
5.053674315275728107e-02 6.747300498735980812e-03 5.047806464906942070e-01
1.752853824869605309e-02 3.306729368762616195e-02 4.328344197411687078e-01
2.979597477825456087e-02 5.220092341434344474e-02 4.420244911501940988e-01
1.897715670454257902e-02 5.170862419597660464e-03 4.352945014904053278e-01
5.080471479900156712e-02 5.164214933776697242e-02 4.667910897342130161e-01
1.751230844390135044e-02 3.579533871865168970e-02 4.326627250654769830e-01
-2.059166713577846586e-02 2.236760471673654785e-02 4.251602100160861153e-01
-4.900611012728738232e-03 6.582641146444453105e-03 4.296591803009836563e-01
3.930308570051267020e-02 6.382457082448805830e-02 4.520389702406196197e-01
4.898650147266064847e-02 1.270159705040146969e-02 4.542190797618719245e-01
-1.111480805228200197e-02 4.588480004754932895e-02 4.288825029825867330e-01
4.999413551149985840e-02 5.370802949809765081e-02 4.830249447507736771e-01
5.657825971505894835e-02 1.748953903061470361e-03 4.790619943839177219e-01
-2.638070040427942242e-02 2.589864999538304957e-02 4.258195928198577618e-01
5.656251614167023128e-02 1.401095310446991019e-03 4.830289961508287822e-01
8.055737558959909922e-03 -5.723143931448889353e-03 4.327341016144408692e-01
2.251562417147474904e-02 2.945124097894684725e-02 4.368669074357019455e-01
1.053591243159525577e-02 1.805193920443595116e-03 4.325105762876823579e-01
5.518845204180913844e-02 2.121198109140383370e-02 4.718936517336017045e-01
5.510662808301108190e-02 2.323050624498996380e-02 4.809707117959669542e-01
2.287506686849344328e-02 3.946525287917582343e-03 4.362895963791145193e-01
2.106573103911384831e-02 -2.226028536272229436e-02 4.376953001478416372e-01
4.828181681963794603e-02 3.485870018402656423e-02 4.542093145589745640e-01
2.294923651004380713e-02 -1.796732392802410927e-02 4.379547780793887624e-01
5.244787686836822199e-02 2.594587769824423240e-02 4.914051825817484231e-01
5.694914524541317552e-02 -7.759629700709429374e-03 4.819541478233176912e-01
6.962951912751125759e-03 3.918534405009976851e-02 4.255605560078313809e-01
2.634129084833366358e-02 -8.918700333851859244e-03 4.372984148050889086e-01
-2.829023414580908100e-02 1.615469060378480967e-02 4.309960557272668469e-01
5.403094964243344150e-02 3.959268988230771336e-02 4.878533562567367587e-01
5.072252702204016472e-02 2.035534888004557688e-02 4.567723778573006821e-01
2.210369977115000245e-02 1.431325106276433619e-02 4.358244935649849272e-01
5.373392474022958831e-02 4.211759905650865748e-02 4.771546845367603540e-01
1.034881383459095201e-02 -2.023206333992801781e-02 4.373930082964059829e-01
5.125109975937531398e-02 -2.258477288165254560e-02 4.681806211315704402e-01
4.136832550053308466e-02 5.326596973187023437e-02 4.493723015057587422e-01
-1.646705043987291631e-02 4.402797440728933864e-02 4.299477380020507167e-01
5.446367682329342208e-02 3.031188216713540801e-02 4.854166684783597363e-01
1.254270992260118553e-02 2.082943811376637699e-02 4.298937337235617662e-01
1.823286355854702306e-02 1.663545084891636253e-03 4.349468633541586637e-01
5.286210776595686583e-02 -4.712727315841741538e-03 5.140562569437916451e-01
4.854709409738316994e-02 -2.211658980917703340e-02 4.629260163081846957e-01
4.878157138496046902e-02 -2.158097779827087420e-02 4.632641003407706459e-01
3.058799322493932493e-02 3.101518589324229330e-02 4.411037414594523032e-01
-2.697464158152091881e-02 3.866111804619061509e-02 4.275689855054206068e-01
4.615091812308626251e-02 2.450468339282108055e-02 4.509694760413481829e-01
1.610941258681039198e-02 3.862977185574471145e-02 4.314721291548043181e-01
3.645145414790589705e-02 2.679638940578428843e-02 4.438762035324269051e-01
5.370629201164318217e-02 1.537931162060264187e-02 4.638298611325963883e-01
3.144468986229975727e-02 -4.702788323977514368e-03 4.400567721058105120e-01
3.697894356794757809e-02 1.542403970421523350e-02 4.436858118547193919e-01
-3.532674774830274998e-03 4.557647189171882413e-02 4.247977000981387752e-01
-3.468876599023835994e-02 1.165067240196177717e-02 4.391111380306430001e-01
5.286960856009371990e-02 4.614976437319533858e-02 4.859679536330361871e-01
3.666838973136585592e-03 4.935962467936566567e-03 4.316274270817594960e-01
-8.047660336035471901e-03 7.832571914980806377e-03 4.291588679501976977e-01
-1.062597869793486735e-02 3.561191240992894486e-03 4.312002519429637970e-01
4.909748681038939022e-02 5.621037916703242737e-02 4.738027362369302553e-01
-4.573803063327083578e-03 3.588485761155574272e-02 4.183020425504186401e-01
5.462620575630817293e-02 2.598077812327061198e-02 4.681420485857857861e-01
5.495262290921074794e-02 1.130601798907242966e-02 4.813195086705277514e-01
5.529901228734065977e-02 1.449682114783948025e-02 4.781926405456339846e-01
4.912644435487733413e-02 3.110886261641071862e-02 5.028323072022301554e-01
5.052209552642948631e-02 3.466971058217097057e-02 4.570496784453659256e-01
3.948894370758031236e-02 5.891336625299908175e-02 4.493619367395830788e-01
5.100073375606516135e-02 4.582993729416476314e-02 4.965968477974917472e-01
4.562430955023620560e-02 6.323846883749342784e-02 4.700748085917720309e-01
-5.547147578431596560e-03 4.818146288862712109e-03 4.304916731586498901e-01
4.043643226120813283e-02 6.726550215393901910e-02 4.602886850976386501e-01
2.230118075061466448e-02 3.311928638361419375e-02 4.369189272226355891e-01
5.072085252902201746e-02 -1.953641489729986830e-02 4.665270627050908114e-01
9.735837355220950534e-03 3.859661284807565373e-02 4.271372334553553141e-01
-1.449365596901469599e-02 6.033413029449557867e-03 4.300900865001307527e-01
-6.968833688153600742e-03 1.463984487907720594e-02 4.266017325911586888e-01
1.718748085516038845e-02 5.406989078311794789e-02 4.366009260428430627e-01
3.906590719478848783e-02 2.588698579361799895e-02 4.456000659037300804e-01
4.951646016496498437e-02 4.977159966470272312e-02 4.959667331232655574e-01
5.333806516877445669e-02 4.390827967838193541e-02 4.758517695570014805e-01
4.852662780476200977e-02 4.071777115238114225e-02 5.042785966995803060e-01
2.932253681411402246e-02 1.766837895193379415e-02 4.392271597685807882e-01
5.549398690438803877e-02 1.841052363628830485e-02 4.747605236009489471e-01
5.515945952821262044e-02 1.771654108494600394e-02 4.720935878270294817e-01
4.709187049239795669e-02 7.698653106539398577e-03 5.111209674839950479e-01
-1.211196428709640505e-02 -1.356360703381079974e-03 4.320939900345977525e-01
-2.063644198626837789e-02 1.908037732032230246e-02 4.263879693950789473e-01
7.463528809850880456e-03 4.703830518023425361e-03 4.321312486069541214e-01
5.617660778926204801e-02 -1.238170457037876017e-02 4.785931843340647807e-01
3.140755026742465816e-02 3.895338594990885306e-02 4.418759916532469245e-01
5.427665930375239617e-02 4.555669306981623319e-03 4.951921988988938761e-01
5.463760531143231625e-02 5.433563894931780353e-03 4.903226587071685683e-01
5.048141562247001474e-02 2.218227927694454288e-02 4.562267900249470931e-01
5.239832340202777577e-02 3.528672077484227426e-02 4.948268902194646324e-01
3.913902492264051403e-02 5.952292462080965851e-02 4.493050289399764252e-01
5.458332558160026993e-02 2.771211847306213200e-02 4.850119124960974304e-01
2.768558922494497587e-02 4.274244050740349382e-02 4.399657100017305700e-01
-1.742956215810099671e-02 2.443545321120640934e-02 4.222099889678466722e-01
5.417701915753186243e-02 1.974784201998910915e-02 4.837725959499192263e-01
-8.340631923501982828e-05 3.008700712614593639e-02 4.196209540255216863e-01
3.052158519225204626e-03 -2.019882496742643734e-03 4.317812517790483029e-01
5.735833857584221596e-02 -1.255709642531245909e-02 4.829710037366484743e-01
2.181439981558174271e-02 5.837479042327271134e-02 4.415152667638721495e-01
3.801242100162851439e-02 4.297513503233459098e-02 4.460560199091156974e-01
5.175902913700745206e-02 5.080977621061141120e-02 4.751140718380955086e-01
4.440669126156650270e-02 4.398784726326500361e-02 4.510429201500717467e-01
3.630334055921712738e-02 5.923622291843057275e-02 4.474085490178933422e-01
4.851729856596764118e-02 4.325685043669785790e-02 5.036807471708432127e-01
4.852026626906872503e-02 1.371784884809640294e-03 5.148516188072812527e-01
2.669116125176893006e-02 2.280306544859389897e-02 4.386070428479346139e-01
9.428664829277321954e-03 3.119503080608217876e-02 4.248860683017547935e-01
-1.290128772362061568e-02 5.417751297132636368e-03 4.302104748755956609e-01
3.521106104627950290e-02 3.097096247413545431e-02 4.434970480063611942e-01
1.834544578293072561e-02 -9.942946165022123819e-03 4.352383701162005347e-01
-4.383515725674095621e-03 -7.273807811731257920e-03 4.324759865286445515e-01
4.808066226266565629e-02 1.383828591077028609e-02 5.050408028511906844e-01
1.960098836445732171e-02 5.605473361201617800e-03 4.354627507851487889e-01
2.565952496762816809e-02 7.117235465692063438e-03 4.372734805795538415e-01
3.018082308491982710e-02 5.111780080937871479e-02 4.420452067281638864e-01
3.991136377471427542e-03 -3.827423489591932470e-03 4.320523589655625996e-01
3.811521759506943108e-02 5.340058138063640339e-04 4.446650642230995931e-01
5.079123567532779077e-02 3.782652614762599397e-02 4.997758110092704875e-01
4.941935823109327997e-02 5.562372303484730551e-02 4.694849833887113078e-01
5.717523260598583734e-02 -1.273787479399329271e-02 4.818953796268673484e-01
5.225406405759324552e-02 -9.063425580404117082e-03 4.663462915509837270e-01
4.888311581466298766e-02 3.350938380560859742e-02 5.035320337937729818e-01
5.485644895913022179e-02 2.345633482437986528e-02 4.694634356425854693e-01
5.627187818830892141e-02 -5.425155399551810122e-03 5.100990397352445083e-01
4.231539147671257994e-02 -1.626749259814963544e-02 4.503904792996484829e-01
1.414659309311841126e-02 3.253296904542023020e-03 4.338270849140749008e-01
-4.211076942305117671e-02 2.261880012202089132e-03 4.468824212111934813e-01
4.707561330094006680e-02 -2.295913122231740822e-02 4.603757992045547920e-01
4.947462785031320892e-02 3.940693358390900958e-02 5.024859174177331855e-01
-3.256258655534192969e-02 2.039371294887031699e-02 4.307919965855200317e-01
-1.408433126189934971e-02 3.942770339562904486e-02 4.219903705129670612e-01
-2.870378830678275983e-03 3.385927426997586542e-03 4.313044057790983987e-01
3.778856338775102991e-02 -1.671867765077539661e-02 4.456331310586548744e-01
5.796051666001406089e-02 -1.042361143953706576e-02 5.111268565888266169e-01
-1.535722301502962309e-02 2.338986856409187853e-04 4.323465196372310304e-01
5.566296746182547439e-02 2.899930864743111535e-03 4.740019625094758493e-01
1.788482618378737718e-02 5.078181495236336329e-02 4.349265110257924949e-01
8.826468030310610433e-03 4.446691538651986048e-02 4.294009165759855029e-01
5.367508718194922979e-02 1.255268187436786760e-02 4.871943096467142853e-01
2.901516782900119551e-02 -1.987875214837778876e-02 4.405478745025280252e-01
2.457743237646377310e-02 5.679878628281237463e-02 4.416259858049730869e-01
5.573578906035039221e-02 1.060032342084765711e-03 4.740967379282531868e-01
3.388602880044267601e-02 6.194237508239969908e-02 4.472603455359666080e-01
5.389841039428391878e-02 3.495828169181736805e-02 4.654857170287095003e-01
5.481524125706769418e-02 5.378338760887157836e-03 4.894934941743535051e-01
1.305834566324312086e-02 2.569082009695948868e-02 4.290552761504453083e-01
-1.103826803759543930e-02 7.165167055782111633e-03 4.292209265664108653e-01
5.283646241245644470e-02 4.644336038665976274e-02 4.776606118309679183e-01
5.312835225554875251e-02 -1.780555989331794250e-02 4.711453712388392057e-01
5.709916686333278701e-02 -9.678450152498542774e-04 4.842638228057585259e-01
4.560749355623918561e-02 -1.697743210990649686e-03 4.518698369902077738e-01
5.182401334182486219e-02 2.757578724257819455e-02 4.940828569493798117e-01
-1.304771136206641508e-02 -3.821882127887387716e-03 4.328696075824584044e-01
1.808634133119936191e-02 2.067192845090705389e-02 4.337857869906736608e-01
2.080133436754692464e-02 5.284907209365407449e-02 4.370921991282101793e-01
5.118652773944862289e-02 5.244943425572064916e-02 4.773752279154089284e-01
-2.993315939529063354e-03 1.601439198024542584e-02 4.260526405159120733e-01
5.382213133391325344e-02 4.314795555194762128e-02 4.845361461186492025e-01
3.454635725815428243e-02 1.340638253117457622e-02 4.419704060993986383e-01
4.273227714925763657e-03 -1.630968750801872411e-02 4.365122258569898994e-01
5.504353639880683186e-02 1.695395850865435289e-02 4.711744029910986953e-01
3.779696249964981797e-03 4.849304863626147793e-02 4.278975236391426851e-01
5.279253164700330181e-02 4.654741978162802579e-02 4.762850836545473587e-01
-1.572199014835619704e-02 1.207932734048024551e-02 4.283569037879481622e-01
-2.385432527791683799e-02 3.109917320454617592e-02 4.232514816373021405e-01
5.385235918380121278e-02 4.041814981486270553e-02 4.731496718505165955e-01
4.690487863669207114e-02 2.027076331320791514e-02 4.517267304937748751e-01
4.941666584038861831e-02 5.351226349298537216e-02 4.872851589251681048e-01
-1.857527776739150913e-02 2.331154419835380562e-02 4.239441172840155980e-01
-4.417955093831010815e-02 1.306935135016043872e-04 4.432393846246835967e-01
9.713806113159886152e-03 4.173811675620414663e-02 4.286825072489385824e-01
-2.932170686145938593e-02 2.420649980621132971e-02 4.276946453124439440e-01
6.249217305562513279e-03 2.925235562477620024e-02 4.225371047925093326e-01
-9.886780565511572860e-03 3.778245662291050688e-02 4.200617469791347869e-01
5.959178992823746697e-03 3.019590536302560815e-02 4.221923033362755540e-01
-3.292461339222901157e-02 2.365679659020056627e-02 4.299261768037470066e-01
-8.141935954959211852e-03 3.462945906825711656e-02 4.183417186155637957e-01
4.277230515495137469e-02 6.267356517770021618e-02 4.555790372624431983e-01
5.009513663914096082e-02 5.065793989296568656e-02 4.621044310473760852e-01
-1.218975630441119021e-02 4.450459601266418957e-02 4.274961969861209021e-01
2.406930356899160059e-02 6.262185345496258659e-02 4.515133241180070978e-01
5.325737195003822644e-02 2.606217950510057724e-02 4.890009256689503148e-01
9.582630525739264590e-03 3.182484340908665887e-02 4.249046567098345717e-01
3.417374066344576466e-02 -1.720464649953327638e-02 4.430421245081902493e-01
2.761582520753940589e-02 5.155296832016140196e-02 4.406017105846188886e-01
5.258661663301211070e-02 1.108790433712976593e-02 4.616982860453835991e-01
2.184339565483891729e-02 1.098820314884511179e-02 4.361135552991957098e-01
5.324512610592584128e-02 3.606304214101306582e-02 4.926700226975070374e-01
5.394029676221512998e-02 3.422633294960786970e-02 4.893285640677496606e-01
5.462149651890430696e-02 2.729695416006239217e-02 4.680542497726977724e-01
-9.694966524974701905e-03 3.957712167962523786e-02 4.213368465839862353e-01
-6.700037981027175127e-03 3.910107927229708458e-02 4.205226098127168854e-01
4.511271654269076448e-02 -2.145839619358901745e-02 4.565591067173769280e-01
5.444263646204709067e-02 2.287350903261197235e-02 4.671865730804731776e-01
4.106724135341775772e-02 2.689273179057765153e-02 4.471985223744262550e-01
-2.649026349139095571e-02 2.334275303648487843e-02 4.267152338625719299e-01
1.961911088208181594e-02 -7.558156319555298791e-03 4.352275251412283663e-01
4.415440385537766632e-02 -2.196614922850608290e-02 4.553832628353027268e-01
5.282299524306814653e-02 4.653023562620452885e-03 5.008702789345231832e-01
4.957802496973229972e-02 -1.383135144763055976e-02 4.628114651948807556e-01
5.261416796327889056e-02 -1.860427812216564752e-02 4.700673105622604209e-01
2.376945397016459738e-02 7.918607734439716758e-03 4.365335037834455756e-01
4.800365785361888904e-02 -7.125773556986264579e-03 4.573798945325244225e-01
5.531256727811726531e-02 3.099357496029850681e-02 4.761611589159714386e-01
4.342692484209444148e-02 1.689771175894115964e-03 4.489669454635709656e-01
4.984217270201539429e-02 5.420787510805941817e-02 4.664732823275098417e-01
4.783633996139621120e-02 1.776566857492522990e-03 5.155101623336716399e-01
1.769546861102680793e-02 5.388664975806917862e-02 4.365899490198165700e-01
-2.684275357776510010e-02 9.363508807370017617e-03 4.339336401787541320e-01
-2.087470086043534054e-02 -2.170052091918613785e-03 4.340066989427309729e-01
7.363686449833145055e-03 5.565411970596166602e-02 4.379208727047587124e-01
4.800733305825827940e-02 9.720698467571743532e-04 5.159928716587800501e-01
-3.442861349846298297e-02 1.517331247597156554e-02 4.363435908571784427e-01
-1.154901910420174337e-02 -4.104129154989119392e-03 4.327074925330286481e-01
5.468647884384292973e-02 1.728969114496433507e-02 4.820065038775637745e-01
5.233295927379417317e-02 3.592964002253060812e-02 4.952008308082276877e-01
2.794446511215905107e-02 -1.367903555091814181e-02 4.388853180808819920e-01
5.423973988370981575e-02 -4.187602983744586997e-03 4.688078198632238403e-01
4.258498990938980322e-02 5.041596781266906996e-02 4.498608699589229376e-01
5.144918457468641154e-02 1.472586380284500104e-02 4.932676113133450668e-01
2.363479163682655898e-02 5.182550218619833698e-02 4.379785817826711836e-01
5.443469265128830087e-02 3.332446238209169596e-03 4.969258925747372935e-01
5.649233559711089314e-02 1.655953392599445731e-03 4.825958192636938260e-01
2.493616571311220442e-02 2.361884762114869335e-02 4.378722346455697911e-01
4.973309660109401231e-02 5.096583710919841415e-02 4.606667191049425569e-01
1.070343115800129544e-02 2.603002603520092502e-05 4.325398498583461482e-01
3.440710966010659261e-02 6.946527619734389758e-02 4.530295840587862943e-01
-2.722405856131600646e-02 2.278815127973808988e-02 4.271110205309086028e-01
3.794538792040728914e-02 1.628092203748606609e-02 4.443416326600506672e-01
5.471776540180544462e-02 3.182178848955364257e-03 4.693825274328192743e-01
1.918788873154362445e-02 3.888521949286394969e-02 4.339398135834814929e-01
2.970778807295542875e-02 1.302828415876195779e-02 4.389538843040501348e-01
-1.236846847517423034e-02 6.519473374207134485e-03 4.295762871374203540e-01
5.295220678135136028e-02 4.516303547387933576e-02 4.882301944872293187e-01
3.253060329324892336e-02 -1.390678623593480379e-02 4.414640076347493558e-01
4.073022467529774371e-02 2.529214691165031920e-02 4.468341360923026584e-01
3.087111744786185177e-02 -1.038264694346182314e-02 4.399543521472706886e-01
2.170362911088888694e-02 2.645332150661302770e-02 4.359381205385713942e-01
4.711702936424148891e-02 5.353148629129606331e-03 5.132689156364300676e-01
5.320863418709612797e-02 3.107025377599093377e-02 4.614328604080965013e-01
2.252195427023254495e-02 -1.005558968271766385e-02 4.363249922264804126e-01
1.866615066706501375e-02 2.697558987403095992e-02 4.338987617506031014e-01
3.883852598776578458e-02 -1.124047605721031472e-03 4.454035393204437976e-01
5.314426201344013556e-02 4.288045204644619357e-02 4.692253516120495349e-01
5.587428585909191836e-02 1.906761307790218315e-03 4.905240286096264613e-01
3.460983964778964472e-02 8.300856604292255678e-03 4.418410138805551335e-01
-1.090154742016867517e-02 6.100631252995257145e-03 4.298441561198506622e-01
-1.401429365065320551e-02 1.992898689125594328e-02 4.245740125664471676e-01
1.507078862983579626e-02 8.909112763972113283e-03 4.342002657077483896e-01
5.460545179316384640e-02 3.623313006973667011e-02 4.859873009316824088e-01
5.122194425393366418e-02 -2.065865388775522254e-03 5.140285709751328813e-01
-2.395212739967730528e-02 2.632561709439009898e-02 4.246858692737133234e-01
4.363940397300873804e-03 3.111963182276676620e-02 4.214278681792984482e-01
8.208167111254643239e-03 2.026873458579228626e-02 4.274502735721195101e-01
1.893918271885518256e-02 -2.295238297364208396e-02 4.375196145350954691e-01
5.539933183893323843e-02 2.862324552812983355e-02 4.743320950035517236e-01
3.707426009785434740e-02 -6.402577271452771293e-04 4.438226644605066107e-01
-9.522033296771760871e-03 3.499664298550782954e-02 4.187778874252977013e-01
4.980800792761781726e-02 5.436655760042306829e-02 4.813014843863555603e-01
3.970417199723478424e-02 1.929195904359034403e-02 4.456928225650805264e-01
4.916808910703229091e-02 9.212745705946198682e-03 5.050466806666675801e-01
-1.179692636914551548e-02 -1.160666503214833993e-02 4.348980941963211388e-01
1.005150032120687327e-02 -2.194867843492594173e-02 4.377627662194988334e-01
4.653549653718516699e-02 -8.402597529365558697e-04 4.524107346856053868e-01
5.325551672685832627e-02 2.427345620120911415e-02 4.882328054463987432e-01
