4.598520126198230723e-02 5.735024869316841800e-02 4.829832915043049124e-01
1.964282744773942005e-02 3.214913430281973739e-02 4.329192901139809480e-01
4.665201912160402142e-02 6.033501830750281208e-02 4.601929931022511466e-01
4.626553468076946563e-02 8.113656255679568136e-03 4.500644683733173168e-01
5.472328224695299781e-02 1.814156419598621922e-02 4.685031404703612901e-01
4.336382666393477636e-02 1.519789896372201674e-02 4.473794797682630886e-01
4.669355899945640265e-02 2.483736080579892341e-02 5.072101824306889384e-01
8.814387445863153606e-03 -1.481729822927597973e-02 4.360458058850455454e-01
5.209769751421659822e-02 3.058506459066871047e-02 4.583286619088040581e-01
4.685506233970967299e-02 5.528695970346717697e-02 4.879900373110545031e-01
4.563871128256542786e-02 5.683113783098880933e-02 4.851340125993959806e-01
1.258423272761450239e-02 4.823436058069580090e-02 4.300840970333388857e-01
5.446636396290013143e-02 1.986449537975379723e-02 4.817041639701081235e-01
5.430058852182922946e-03 9.163928809957550686e-03 4.301636549916619257e-01
5.185319493420530168e-02 3.784930918802820177e-02 4.950386715388422343e-01
-7.220288938131613245e-03 1.228935057883366079e-02 4.263298979818433976e-01
4.683361945210508248e-02 3.945542355789084799e-02 5.061796441892821852e-01
4.734816433014754633e-02 3.273966858625022326e-03 4.518086131119034010e-01
-2.580871289770813454e-02 3.623935173348862004e-02 4.224848678483961173e-01
4.760640305056142857e-02 4.330587481950760875e-02 5.037814238523982135e-01
5.775827117970448732e-02 -6.053257817490631867e-03 4.884252564407762232e-01
-1.081191853335873934e-02 1.461387308839576238e-02 4.248728191265149223e-01
5.534484746223197055e-02 1.281458772039293856e-02 4.731300322012751414e-01
5.680324793451235060e-02 -3.436330841041982612e-03 4.966106592799703900e-01
3.080664295276704101e-02 -2.346405197075806734e-02 4.420399494114763406e-01
-6.002404380213070476e-03 3.910218984766133943e-02 4.182978089758115359e-01
3.803007231810138361e-02 6.742426434414029723e-02 4.591805345888732015e-01
8.698872123418778524e-03 -3.340220126412809989e-03 4.318585480339919291e-01
4.843918030591301549e-02 2.005219180682798509e-03 5.138670980412383127e-01
-1.314364495581662670e-02 4.313431506122322734e-02 4.247134877609136661e-01
2.195912062267078510e-02 -2.313339727712093036e-02 4.379029742629033661e-01
5.521499839657581510e-02 1.034932764188548765e-02 4.717665091383464460e-01
5.143693825852707624e-02 5.167778273693768992e-02 4.756350676124588284e-01
5.360786065785497906e-02 -1.809761038259995181e-02 4.722577682583469216e-01
5.098542158525296714e-02 5.145871857331245358e-02 4.814874309240694816e-01
1.589378776747592606e-02 4.880050359444877001e-02 4.316145023977031592e-01
4.901795251172143958e-02 4.147984898219491540e-02 5.014053996262441970e-01
-4.297949914278450384e-02 6.514521576614703147e-04 4.416260305207109216e-01
5.165262097282662113e-02 6.045930096096129025e-03 5.016885321289451527e-01
7.752098353909298370e-03 -2.199252776095272921e-02 4.379160816946079393e-01
4.902302059972741405e-02 4.251886212293028156e-02 4.539639431903446654e-01
-1.372566726821269727e-02 2.938168116691267009e-03 4.307749596600762287e-01
4.917883472907489534e-02 8.956172268906607142e-03 4.543262841023596454e-01
2.006407019363769945e-02 3.728409258093933615e-02 4.326135060001652377e-01
5.551874790379095204e-02 1.467821505126636061e-02 4.752474379669098803e-01
8.887935919030399978e-03 -1.415178639467608995e-02 4.356416127283492257e-01
1.987943907106550639e-02 -7.642663827104458768e-03 4.347685325471474238e-01
4.578823036370446159e-02 2.044158701304344891e-02 4.496625602725797255e-01
-2.701500448540361532e-02 -1.187852952504061393e-03 4.352410423145584017e-01
4.462508732344502155e-02 2.062697719934315430e-02 4.485064603570139696e-01
-1.808113176181672110e-02 1.931930763486208041e-02 4.239801207143458206e-01
4.253088587741834375e-02 1.629371542937966058e-02 4.467518971570164643e-01
5.277214823087856416e-02 4.209269689000950249e-02 4.645725704822643576e-01
4.770219784089843595e-02 1.661739216131349894e-02 5.045237840538840945e-01
5.901665642008039475e-02 -1.118551836808501752e-02 5.059623423664932895e-01
-3.057714466120474775e-02 9.268151762931766888e-03 4.349889372353450967e-01
3.616909932119889703e-02 6.624229627363556472e-02 4.638551970445848327e-01
5.030591387095548900e-02 3.382271354606073560e-02 4.987560289812917325e-01
2.330892408496284748e-02 7.914902936016173993e-03 4.355015790336860815e-01
-8.338196936207306967e-03 -5.968713270911404044e-03 4.323559740381222039e-01
5.321691393196829878e-02 2.135736169381027491e-03 5.035798219885165850e-01
5.521650612346908071e-02 1.808986213225820261e-02 4.719674697739198455e-01
5.446120058100249739e-02 5.369454843985956710e-03 4.911487417393705646e-01
4.186821850777127513e-02 4.184697831069585094e-02 4.474008160086199726e-01
4.837267549968669866e-02 5.253084058967567166e-02 4.920946815476062164e-01
5.161553614752396879e-02 9.809837540809804995e-03 4.962749511173056849e-01
-2.243643899307526390e-02 9.573066900649440311e-03 4.304398590270384073e-01
-7.699724679966520394e-03 4.488317573218271808e-03 4.297908407421389132e-01
-2.072258467236567925e-02 3.546378142127823430e-02 4.203151378309115671e-01
-7.493230320718483051e-04 -1.006916890966071294e-02 4.322104916192766599e-01
5.104215813804245661e-02 3.908523506566106281e-02 4.578894282526229653e-01
5.260150874748996397e-02 2.264439039347427088e-02 4.881087840832170066e-01
5.187206107572074620e-02 2.180658373831786956e-02 4.900829057511698617e-01
-2.053785204207573406e-03 3.894819286366695693e-02 4.183664399412401202e-01
-1.332359853663597077e-02 3.152624454158509809e-02 4.167808047507814972e-01
4.913593960237723490e-02 3.136664226068424516e-02 5.011668262682165143e-01
5.416175545487356136e-02 1.905370106373629677e-02 4.648688227069089907e-01
4.938571398289301473e-02 2.661964770355840053e-04 4.562728582218264495e-01
-8.281076921691898213e-03 -1.028845114334750628e-02 4.337758122578115882e-01
4.346585103677407663e-02 2.882180006866409162e-03 4.482115618931980516e-01
2.630224212518813762e-02 6.334893385607603955e-02 4.507135447299874809e-01
3.729347129613127393e-02 -2.138047467092043033e-02 4.462489853541253271e-01
4.897033773675629059e-02 5.605882712019528286e-02 4.738991126309488044e-01
8.060919891342145649e-03 8.456787891933511755e-03 4.310602846302726276e-01
-3.131882860680965802e-02 3.263766234017667633e-02 4.262543131887195913e-01
2.859370141368744109e-02 3.856820204316417644e-02 4.385116413771886767e-01
5.222022023131268204e-02 4.438051900134144800e-02 4.639211744060884324e-01
5.583870456070431226e-02 3.366880649710047094e-03 4.865096036380762157e-01
2.305508995986253751e-02 -2.140247879259631059e-02 4.381334106652888249e-01
2.580073653567048139e-02 2.502113319635659167e-02 4.369578369938706963e-01
-1.794034609303149161e-02 1.178121668410474394e-02 4.274581290992597316e-01
8.558277206032652296e-03 3.708974476210469273e-02 4.231283027391769536e-01
-2.933719011232363560e-02 2.491233882017664103e-02 4.257612466565259268e-01
4.748097020856996420e-02 -1.992251268941609005e-02 4.600767198221946686e-01
1.635561392105722503e-02 5.715825339332700206e-02 4.412640177485852022e-01
9.685716567559466902e-03 4.448698213145131641e-02 4.277576070154995858e-01
3.563068932172526460e-02 -6.105533664690809999e-03 4.421577765831519180e-01
2.847773965423563980e-02 2.269012086652301766e-02 4.380832820146836060e-01
3.262175519123499540e-02 2.227718964991417389e-02 4.399106667033937379e-01
-1.486682484359874365e-02 1.945067009012121928e-02 4.232638201243425491e-01
-2.378985885569501538e-02 2.307938532882977331e-02 4.238621156883854435e-01
2.665154062898615964e-02 2.792075821645948093e-03 4.370193144791794104e-01
5.626530367273058220e-02 -2.449702763756518315e-03 5.031173874194568851e-01
5.380455574839849292e-02 1.740434044499373015e-02 4.632985759609168364e-01
-2.700215761695227892e-03 2.884414156440043633e-02 4.162269904614778748e-01
-2.396314076722404207e-02 1.019419852551834739e-02 4.311528084671635286e-01
4.021541033960456674e-02 -1.415666137629691471e-02 4.467359776926020931e-01
5.763428514744713821e-02 -4.925818346606972500e-03 4.927541692575459487e-01
-4.054553708028493797e-02 3.001144861116396799e-03 4.461586590016863862e-01
2.170219911530078122e-02 3.769946008995199438e-02 4.338723011444662325e-01
1.445616624151822502e-02 3.511881556160566936e-02 4.273723161897673983e-01
-2.330825970035938985e-02 1.775296037454785619e-02 4.263345791648215366e-01
5.215791107084904316e-02 1.802400939018922871e-02 4.896848088794876763e-01
5.258557003650091849e-02 4.725938637002813358e-02 4.788417043569406228e-01
2.660907657370772256e-02 5.518861063403834866e-02 4.397136072472372925e-01
5.089880455608547516e-02 4.571549028622071825e-02 4.953538149178288164e-01
5.155760959231327906e-02 5.055786709809684254e-02 4.695538875741112061e-01
9.486289453336304439e-03 -1.446727536694544097e-02 4.358493269251926816e-01
-1.049045819971401033e-02 4.124217424968375928e-02 4.203163312741487467e-01
4.325086468515727117e-02 2.554199064482175208e-02 4.476525583289477916e-01
4.712473761853350207e-02 4.582693431432866699e-02 5.040639347393821579e-01
-1.291142980997293278e-03 1.607715497128925364e-02 4.243824407105066254e-01
5.222984386799595091e-02 -4.446935079014590828e-04 4.630850861745312019e-01
-4.275359742312101474e-02 1.730994196535240795e-03 4.471766313683536165e-01
-2.537447868720166602e-02 1.291616612746927101e-02 4.303212205403606494e-01
6.343476325907306153e-03 -5.764877463342883007e-04 4.311514458215564005e-01
1.220421500967542282e-02 5.585607328044146086e-02 4.396398009423623798e-01
5.301224279594860672e-02 1.567813131021130596e-02 4.869880682208911904e-01
2.453639532212425686e-02 6.208042821703224634e-02 4.475849561820098299e-01
3.798685782508910702e-02 6.772134134554208540e-02 4.563130231118751601e-01
-3.521645411350851629e-02 1.463091229965408219e-02 4.377361703619218614e-01
-3.624850335367427873e-02 2.034731468570587926e-02 4.328128916860040087e-01
5.286041953242563013e-02 1.081306504389357298e-02 4.910388020311436952e-01
-2.571440351334765631e-02 3.589761289322775800e-02 4.221925123386918166e-01
-2.793680262914120457e-02 2.359099963474886943e-02 4.256060292472155226e-01
9.182891828415244706e-03 3.204111843950437077e-02 4.220478213116960475e-01
5.433420350296476464e-02 1.360827857659223199e-02 4.824701631812824965e-01
1.506671607341550888e-02 3.134407985160490850e-02 4.279813747286078662e-01
5.629725316980010302e-02 -3.248149158434443604e-03 5.053457344159828502e-01
1.693073015560760120e-02 1.392313296162911787e-02 4.322334952807582176e-01
9.463998173270090492e-03 5.323568616397617720e-02 4.314506660546388872e-01
5.268628304431588472e-02 4.139844694157518434e-02 4.637284590606962631e-01
5.382868574914097953e-02 2.784014341483615623e-02 4.866118419994878153e-01
2.098951604959410633e-02 4.063075948573291463e-02 4.330884800123669387e-01
4.750755255798175258e-02 1.911197622284560235e-02 4.513888788035929633e-01
4.349139172118782898e-02 6.394280024033609233e-02 4.731200598467645291e-01
3.459986694342677416e-02 -5.318648768007384724e-03 4.414606673503680967e-01
5.760455565385705357e-02 -5.237828735400962277e-03 4.933307861970350205e-01
-3.317199382896671676e-03 -1.438638187533828640e-02 4.341223846612535797e-01
7.413616296956642912e-03 3.740536517116987286e-02 4.224848837779803801e-01
1.927181834801117849e-02 1.178625834444510002e-02 4.337257062703233079e-01
-1.593292730155091222e-02 4.183347504227180602e-02 4.230174026722229308e-01
5.065823200335278775e-02 -1.584398158906022078e-02 4.653643611792920853e-01
6.394828927599504990e-03 1.105338058117979159e-03 4.310339138395055114e-01
4.448652241055020551e-02 6.446041506036910562e-02 4.659507474641559899e-01
5.133879122424267472e-02 4.298697391085826158e-02 4.958381208814968133e-01
5.700305928047694898e-02 -4.284597399256349567e-03 4.977532478969015628e-01
1.519706499148189630e-02 -8.724420275062386154e-03 4.337579777929943536e-01
-8.538212572975623429e-03 -1.410108412446882224e-02 4.345184737068957248e-01
-1.371725909710982960e-02 -2.911170096352703844e-03 4.322390037259950524e-01
-4.428470363274831373e-02 1.081655836912494111e-03 4.454905532318241268e-01
5.466866275582123180e-02 -5.002392305508064629e-03 4.700809283843116471e-01
2.290251630922087236e-02 3.326807334883568473e-02 4.355819664184630846e-01
9.754674843932699402e-03 5.212651036308688091e-02 4.306679317089426307e-01
5.366532956618673411e-02 3.728000741797857231e-02 4.643775510243204341e-01
-2.455559043668003455e-02 -6.352024318812691042e-04 4.342332342790224953e-01
2.734200022914388961e-02 6.348490223557309853e-02 4.479889879957125731e-01
4.325721846894611117e-02 5.727772695846589796e-02 4.506708806280834700e-01
4.608521760222374780e-02 5.636842621086740612e-02 4.543355047019037030e-01
-5.465587327331665295e-03 3.900620055590250934e-02 4.180959158609370285e-01
3.654507567741090840e-02 -4.281733425392003113e-03 4.427386131840645445e-01
4.927770635732503512e-02 1.642035258079745097e-02 4.988118332199645844e-01
5.509183016156214696e-02 9.240511271184807113e-03 4.704734978084132435e-01
2.504155551636124202e-02 4.702922935415301819e-02 4.362527854581574327e-01
4.849744093281449508e-02 5.715050884949009896e-02 4.641464860569527451e-01
-2.264820023945241997e-02 2.712437423257063607e-02 4.217129888243127955e-01
5.463446156560469030e-02 1.143038269849184878e-02 4.675292691126064493e-01
5.607976231460546496e-02 8.817174676416685139e-04 4.911973720939203369e-01
4.802211498732422007e-02 1.325264634728244573e-02 4.519523519658968369e-01
4.740129461667883654e-02 -1.898393218478650404e-02 4.596998898907230235e-01
4.566668218416105457e-02 6.234137417041722695e-02 4.708697264089842793e-01
5.851186744653825295e-02 -9.333647944917750419e-03 5.022039986984752069e-01
5.234693288939151756e-02 4.841777202229112509e-02 4.794585715669499870e-01
5.244192019069100069e-02 1.913853003175555734e-02 4.592514530869468148e-01
1.300385898491063230e-02 -1.197354049071226549e-02 4.344940449676334415e-01
-7.165317110957365732e-03 -8.806170577441726696e-03 4.331447189879050197e-01
1.142093008654450001e-02 1.488404814552878389e-02 4.296614883209850522e-01
-1.518511599370379363e-02 3.141734309543040699e-02 4.176024400591699104e-01
2.418239510033259182e-02 1.735849975857037958e-02 4.357890793636023385e-01
-3.474201412131305844e-02 1.260805159620733383e-02 4.385166127557830751e-01
5.521756271005968941e-02 2.477951573595846974e-02 4.775382005473735592e-01
4.654921789929648140e-02 -1.278356189419611877e-02 4.562091767136597364e-01
1.344063826195990990e-02 -1.184962608057059733e-02 4.344425222099460027e-01
1.679059479483958894e-02 -1.934071712797505449e-02 4.365793239246419932e-01
5.089347412929794839e-02 3.425997790651397201e-02 4.564691074927901271e-01
1.831428764379705934e-02 2.750480897101549235e-02 4.319603593395264229e-01
4.436127455734179686e-02 5.025880070384132481e-02 4.498367461293602543e-01
3.005215608930024776e-02 1.311063958260601930e-02 4.381486672900972157e-01
3.787365894823212925e-02 4.644839525794335761e-02 4.444231319073516651e-01
3.321745531766422815e-02 3.552170694855360383e-02 4.411098937328258307e-01
4.905576330392951573e-02 5.459076787801974556e-02 4.606000686269560163e-01
5.434626842227513466e-02 2.366501224477883525e-02 4.832974907193638980e-01
5.086594089326459955e-02 5.125521639851281924e-02 4.654707278237588675e-01
5.611522434089002281e-02 -9.410250775598427708e-03 4.781699549882179046e-01
5.232633799254851961e-03 3.715161718199645746e-02 4.209157970411119831e-01
4.942382681523069254e-02 -1.817613833519753433e-02 4.635319768565218101e-01
4.429726314764684952e-02 6.471640733198959217e-02 4.705620058982348253e-01
4.962446209030423744e-02 2.659856222625378921e-02 4.989421046214197464e-01
4.694232956055579414e-02 5.695548315737996442e-02 4.814443843187929395e-01
3.007676993777346798e-03 -9.359838940301266202e-03 4.322535050022964787e-01
-2.741126543585272607e-02 3.564755259602450654e-02 4.232935894037120894e-01
3.816938386783814280e-02 6.080859246312767669e-02 4.472914796282136396e-01
2.329525529603603679e-02 2.647254888984206314e-02 4.354980644702954318e-01
-1.521199874955979185e-04 4.132926649076365533e-02 4.205992167071629373e-01
4.817102003023607248e-02 5.372385495564836744e-02 4.896991626949004917e-01
-1.711036367472060921e-02 8.185857168452100735e-03 4.284318909296802591e-01
1.214985214934652044e-02 3.132720159225363659e-03 4.322863656981010827e-01
2.528559244362454939e-02 3.553130757610039464e-02 4.372309745523551561e-01
3.660294639450541176e-02 6.572159858878531824e-02 4.708814043817904915e-01
4.856570386203393208e-02 -1.601778844673145893e-02 4.611411286046376290e-01
-1.242085638854303420e-03 -2.293215474265209927e-05 4.308518968710011721e-01
-2.739736394362021765e-04 3.567650061444549436e-02 4.168645744771024564e-01
5.130379212784721976e-02 4.886532887570553541e-02 4.871787775663307118e-01
4.134697162573987977e-02 4.907190201618857883e-02 4.469949116806375966e-01
-3.320437381747236294e-02 1.437663665815589603e-02 4.339632509651611403e-01
1.482640821909056612e-02 -1.499313365014333030e-02 4.353649295168523503e-01
1.469257880363371294e-02 1.188385697188474102e-02 4.320228547048614587e-01
-1.519030445974192851e-02 2.199999410074062606e-02 4.213115328511965463e-01
5.125986717510527119e-02 6.579017966675600182e-03 4.588230479126821360e-01
4.775943138243034236e-02 5.843971302217959574e-02 4.735651050237988380e-01
3.582161718794409089e-02 -2.243174822906426891e-02 4.456339147097133080e-01
-2.011381067447331333e-02 1.449707146964793192e-02 4.269821267825105737e-01
6.252213873213946851e-03 -1.223184864178156715e-02 4.340780591866191251e-01
4.624294854247213912e-03 -5.438477160801685924e-03 4.317747029339670806e-01
8.443315087498829211e-03 -1.753229965426759268e-02 4.368390033881603962e-01
-9.100977235867427698e-03 1.030947137931470178e-02 4.274032739719533791e-01
5.246558102873230545e-02 2.495317930007578261e-02 4.894403906549698036e-01
5.673664575171540048e-02 -1.954851595958990128e-03 4.774412555701618710e-01
-2.845320420662863364e-02 1.437924637131109649e-02 4.312033031854771714e-01
-3.211056223852337688e-02 3.330399083558413520e-02 4.271953395665846753e-01
5.478370432113313648e-02 2.136746578825523234e-03 4.968827343573294364e-01
-1.839219531445861894e-02 6.727822299832153519e-03 4.292805050985973314e-01
3.098735441397706264e-02 4.625354954802673307e-02 4.402148670960780441e-01
2.590681464547476415e-02 1.510926656120520697e-02 4.364032863750673119e-01
4.233380372757994392e-02 6.563846023107766658e-02 4.692001997894980070e-01
5.133174823202870524e-02 2.094670420706010519e-02 4.920277610352703501e-01
-3.886137462050432562e-02 3.197757794355682217e-03 4.472025225461238040e-01
4.618344287791670277e-02 -1.899732716566721394e-02 4.573064960084906039e-01
2.325386462927764297e-02 -3.840244255538978468e-05 4.355919927624526955e-01
5.373363269785563778e-02 2.507008428240588629e-02 4.623966444018234867e-01
-2.140615600492005305e-03 3.369656935265594178e-02 4.157695204251348198e-01
-6.735053442449064759e-03 4.643122799996531047e-02 4.249202709415955681e-01
3.099946988662675724e-03 5.184882713873125576e-02 4.277509279145856325e-01
-3.172967554593525419e-02 1.951662206902021052e-02 4.291432883418304645e-01
3.943616056615124182e-02 6.458717179741746417e-02 4.513862944083957274e-01
5.461841289662137944e-02 2.243696929812278446e-02 4.818677638428942589e-01
5.510277076657007361e-02 3.396328730585760486e-02 4.768945064724061655e-01
4.020002028799063432e-02 3.082901017057042281e-02 4.454597651853445250e-01
5.198470561766883880e-02 4.822165643360933757e-02 4.844695311539100047e-01
1.272590861029085710e-02 1.069897441461995424e-03 4.323426332221837476e-01
8.997685759705957922e-03 -8.074361867334105963e-03 4.327111620442857243e-01
-3.129518058209735179e-03 1.514743705588672204e-02 4.247930693450418516e-01
5.122350089147482272e-02 5.090106458874210649e-02 4.674643462863466437e-01
-2.249348704060131696e-02 1.208711910911904400e-03 4.328671572370398346e-01
1.228263367869500411e-02 5.454835651924829637e-02 4.346666625900573733e-01
5.595356649406732497e-02 4.029120298872851565e-03 4.843014316030495037e-01
5.666424298136782389e-02 -4.321723846430533924e-05 4.885482994262444478e-01
5.137276914997546823e-02 1.900616435143429039e-02 4.571408039983272387e-01
4.059807476731581988e-02 9.128400079224730998e-03 4.453725492751281489e-01
-3.710331170611974941e-03 2.305907662335009850e-02 4.175743415496078748e-01
5.493206646081064126e-02 1.734052509927188398e-03 4.695728715165052303e-01
5.514962563105459126e-02 1.213068773595232666e-03 4.967714569934487678e-01
-1.800215267752892229e-02 1.024393978413593205e-02 4.281327168480285050e-01
5.494498210225304963e-02 3.003738953965523484e-02 4.693828269378991780e-01
5.250995220307738687e-02 4.758151369740652031e-02 4.780841983736013323e-01
5.220632017975753575e-02 3.427905562630043090e-02 4.933687577333069618e-01
3.146908265496844298e-02 1.652629542625888744e-03 4.393942279277446294e-01
2.057376997848277961e-02 2.831730612004394743e-02 4.337347695054722951e-01
5.170149752611970934e-02 4.988606139803788975e-02 4.689672987800356796e-01
1.610195486012767213e-02 2.829487586306904390e-02 4.298010327081380755e-01
3.197498439866643810e-02 6.399689189848439819e-02 4.471761773119390937e-01
5.130070868840618664e-02 1.362297757980160395e-02 4.936381822218433579e-01
1.776776834608533723e-02 4.381959667523487381e-03 4.341561965345441254e-01
5.178296921707402356e-02 3.667078783802915631e-02 4.951686029842364278e-01
5.344686084848857682e-02 3.674578424663520193e-02 4.898406555176970656e-01
5.442699283093548751e-02 -8.248977397624434466e-03 4.710784096773087404e-01
1.853411061596389048e-02 1.446350357519674001e-02 4.329614424092315672e-01
-1.714357813437546174e-03 4.995945514733158427e-02 4.274115964368855325e-01
4.687800937906757420e-02 4.233401211220175209e-02 5.054194062704465695e-01
1.986598420649695468e-02 5.114965719629105834e-04 4.345709068968964806e-01
3.790246109292032262e-02 2.095785196677977386e-02 4.433208049532679773e-01
2.589273782674364824e-02 1.756104106119230762e-02 4.365689873232337925e-01
3.915924892389019418e-02 3.080329388026651141e-02 4.446303053800979010e-01
4.004786541447625386e-02 1.638654870952092370e-05 4.456759341092720872e-01
-5.223663789703899413e-03 -9.558563418004482545e-03 4.329984417102024086e-01
5.228862906386542997e-02 1.998406364515388847e-02 4.588612123437876833e-01
4.336936471026766465e-02 6.543527066334861586e-02 4.620998793557096751e-01
3.489411327776113791e-02 -2.051508072191957077e-02 4.441948371546651231e-01
4.220121445324567788e-02 -1.147125385500925507e-02 4.494390278691325347e-01
4.908058703439126258e-02 2.071608456897619174e-02 4.997423955873181445e-01
2.250564666122970015e-02 4.892251913833896987e-02 4.346291407501791659e-01
-3.420539218782208714e-03 2.410796970422043189e-02 4.171911961756440412e-01
2.793579900169147409e-02 -2.408673463682552834e-02 4.404964550241237120e-01
5.566685607046875650e-02 9.065470816846006585e-03 4.774472655431199475e-01
4.184395144352114765e-02 -1.767028049696207220e-02 4.496881800644155214e-01
5.768817031451833888e-02 -4.116208281700987730e-03 4.889366357297361687e-01
3.200930601093841116e-02 4.094839823695881759e-02 4.408046432662213743e-01
-2.131183294514279753e-03 4.848536616283294354e-02 4.263044533094906274e-01
2.198514839359599904e-02 6.093731532191135059e-02 4.447348600580006139e-01
2.463817297803806011e-03 7.358850359769288259e-03 4.302256122060926224e-01
2.814171962400579055e-02 -1.758678020061299821e-02 4.393920744691225955e-01
4.879330890165946288e-02 -6.730806430878493243e-03 4.583243678952690359e-01
4.877063891840550253e-02 4.895791540781956053e-02 4.976829247657235666e-01
-9.989926603118856607e-04 1.100346183729535715e-02 4.279647017993819524e-01
5.657467940907975890e-02 -2.713744112185777300e-03 4.960345572218281540e-01
4.698702690106033864e-02 2.199215563901006296e-02 4.505991641062769282e-01
5.664965242918076384e-03 4.397672238483540247e-02 4.243370610535777687e-01
5.356447614380911021e-02 1.363725628789371966e-02 4.629072264215014498e-01
-2.517099625982140761e-03 -6.576363216275410775e-04 4.308799380829090309e-01
2.551374981536267544e-02 2.698050070201783029e-02 4.368751743935790910e-01
4.527595450426956381e-02 -4.548005350697317470e-03 4.516213951366682133e-01
4.580967993199247523e-02 3.924493282358414853e-02 4.507485464839770528e-01
5.373400874063521959e-02 -1.719865899239270829e-02 4.723412794813698912e-01
5.108205599233081595e-02 3.882113909180318068e-02 4.579399390325598618e-01
3.475328459279350413e-02 6.802692296247203618e-02 4.506875925838546570e-01
2.933539836170024045e-04 -5.083851704929591604e-03 4.313270762613284348e-01
-1.561984446887191950e-02 3.539175189817540812e-02 4.184615050151134774e-01
2.964544902645932165e-02 4.120408774285339026e-02 4.393533839731627033e-01
1.765372109930257727e-02 -2.595396256115893065e-03 4.336637366115400627e-01
5.145589191217279923e-02 5.143824624538976403e-02 4.768204511062477113e-01
1.189623897192513408e-02 -1.419539189331958835e-02 4.354332507428393395e-01
5.368800713455100515e-02 5.905341460902246639e-03 4.941825369251411915e-01
4.645092110901052895e-02 -1.886087719408941973e-02 4.578760491722076442e-01
5.121787303125770879e-02 3.587322900210587751e-02 4.574967777577546579e-01
-2.516504853654020005e-03 3.564243494227543885e-02 4.159886292076107051e-01
1.926397539503075032e-02 5.768284326113245347e-02 4.408813014176951595e-01
4.605049446390853396e-02 3.392484757338642271e-02 5.082112743277710232e-01
5.290155373530725652e-02 9.433482749626798114e-03 4.621253483072501611e-01
1.658289130063363495e-02 -1.589193699064513077e-02 4.358829428408489415e-01
2.939323838756989493e-02 4.804694029284678827e-03 4.380808202795583028e-01
1.261252995966997276e-02 5.609145912204376722e-02 4.405589919787871178e-01
7.193630035152330168e-03 -8.071909132885794758e-03 4.324785729126846556e-01
4.034549547171749351e-02 5.894038251269459981e-04 4.458768023430343397e-01
1.325768816055299462e-02 1.121952783029121770e-02 4.317274193405137850e-01
2.110881441949617743e-02 6.055329735754311216e-02 4.442315391156181903e-01
5.440569948176649656e-02 -1.308315992940348518e-02 4.728826226024645529e-01
3.522766129796928852e-02 -1.548345203566070007e-02 4.431312870703116857e-01
5.577659044074809863e-02 -4.223056731872535871e-03 5.089909062741142520e-01
9.916624100005946851e-03 4.684563782968620416e-02 4.285508978026213445e-01
5.023926116832854588e-02 3.028291164220919124e-02 4.981189764726430269e-01
1.539865258727628585e-03 3.025282931969928285e-02 4.172557647835222761e-01
5.291041534876666369e-02 3.233748104584850680e-02 4.601561857615996121e-01
2.972840940726731440e-02 6.320281099029417815e-02 4.469184977172369067e-01
4.893604426197320501e-02 1.047638925373878954e-02 5.038710363234778500e-01
-3.297075117286804580e-02 1.401208425611298776e-02 4.338296222855327344e-01
6.454179011653937356e-03 5.294681093493987245e-02 4.299613164184553082e-01
4.960645301443061123e-02 3.600111903108542399e-02 4.545759655004493749e-01
5.625880686924714796e-02 -1.065555869693468952e-02 4.786704941055425766e-01
2.212140214678564795e-02 4.804667653370511132e-02 4.342106684019961249e-01
2.570914297422931608e-02 -1.716114956082664261e-02 4.384014657281848359e-01
3.209067259521226206e-02 6.075523785101857865e-02 4.442314127308694682e-01
4.852817441397209303e-02 1.889118672702808088e-02 5.016237762608509732e-01
5.418858709427258613e-02 3.186070982339275076e-02 4.645894183927088417e-01
5.166010112686073019e-02 -1.967110546631124432e-02 4.682518496917899564e-01
2.942790223343588057e-02 4.158710349720423638e-02 4.392479184875667242e-01
1.402543193835093654e-02 5.475496926465309167e-02 4.358771125247012934e-01
5.329287202343172686e-02 -1.092392670330168472e-02 4.686081813511713823e-01
4.603281764101807734e-03 6.655454952269816704e-03 4.307108816452550615e-01
4.966627417374881726e-02 4.554470167708285500e-02 4.990162186463112381e-01
9.945478035548200452e-03 1.866440373403555758e-02 4.274243589129190779e-01
5.203879080871227913e-02 4.948079786059410290e-02 4.761040647742535992e-01
4.988356032558514952e-02 1.357572031079911506e-02 4.980041276951852058e-01
-2.459325278038932555e-02 9.077046225751141811e-03 4.318675512013973039e-01
2.115891012872335095e-02 -8.964668971830652699e-03 4.353218835423820487e-01
3.247312900537552977e-02 3.167120018687834271e-02 4.405267458170402661e-01
-4.902371673117482745e-03 5.618524238900960387e-03 4.290734102458305665e-01
6.356846112815450756e-03 1.215109159124378932e-02 4.291355459612930523e-01
2.230840720820798789e-02 1.660354095017808895e-03 4.353991533668448710e-01
2.983284570152801296e-02 6.813629828103438986e-03 4.381183236358665578e-01
-1.340587390255153916e-02 2.369805429343079667e-02 4.183898319468862259e-01
3.971303356651659927e-02 5.855572642898598107e-02 4.477601310025856596e-01
2.528815862821426341e-02 5.014464708379483965e-02 4.367432844328913988e-01
3.262672403704421076e-02 5.803091970454726800e-02 4.435201310323184654e-01
1.579389239687883570e-02 2.912621591934592274e-02 4.294871819119744361e-01
3.650721906650402498e-02 5.735632449266087757e-02 4.453393892555984057e-01
2.686105846681304671e-02 5.510359945344862898e-02 4.397342162763455686e-01
4.629567686915025959e-02 4.912600479507926721e-02 5.034451938092914247e-01
4.910026426089335316e-02 2.509658531217884292e-02 5.003127390738683067e-01
1.221244021579316781e-02 3.644597229716006054e-02 4.258953657142582894e-01
1.121939509343114483e-02 6.381151893208871287e-03 4.320692222529080584e-01
4.967596237415941585e-02 4.782635371161537280e-02 4.964644627309708347e-01
5.045455079909454132e-02 1.511262119228605483e-02 4.949475480983225872e-01
2.078806400783702116e-02 2.713223581661011047e-02 4.336934839786197871e-01
9.886411245846805917e-03 3.253191864068973038e-02 4.227948396967456945e-01
2.495566694537009952e-02 4.236663590109851496e-02 4.362328663425908415e-01
3.931925822704649374e-03 -7.082961684926258536e-03 4.319905096987097237e-01
-6.930913867037528063e-03 1.129271060434729017e-02 4.268916315522198746e-01
1.723846932363247778e-02 6.817199080622359832e-03 4.341211971338944098e-01
5.132835476483302295e-02 5.189387108406517957e-02 4.758354253976774806e-01
1.276458439463953529e-02 1.785047936491002823e-02 4.296415914739017405e-01
5.018099576755315205e-02 4.973429920885362454e-02 4.910186533312409507e-01
3.309788538676573105e-02 6.913215479364520633e-02 4.513219770500363492e-01
5.086092887719360911e-02 3.056874495519724608e-02 4.963238815980187679e-01
5.452947660389158985e-02 2.207446789345606647e-02 4.669275278625956704e-01
-5.866563242706431328e-03 -9.596028396079194986e-03 4.331479013376208220e-01
4.519107764572458108e-02 5.000874828621683366e-02 5.040086082839420056e-01
5.637563987126344156e-02 1.299198171274615040e-03 4.869106957811724090e-01
2.475872916835384144e-02 -1.426037659793591081e-02 4.374558508098916332e-01
-3.066723852216497043e-02 4.189332495754501291e-03 4.355036901297220098e-01
5.357113789803923803e-02 3.807194480458854502e-02 4.888753061250278864e-01
2.605075655375643784e-02 6.128075650215986103e-02 4.442582583388720030e-01
2.947724220804182407e-02 -2.191615904693578962e-02 4.409995555019025626e-01
-4.175380990358622257e-02 1.899395815456472215e-03 4.483335701673553664e-01
4.130629182118378956e-02 1.770175553966185991e-02 4.457995801359551091e-01
5.161336458694942148e-02 4.972216862777235902e-02 4.679368673748444674e-01
-1.333180867511575551e-02 2.761793227431604339e-02 4.168402704637680922e-01
5.568792631991679315e-02 2.187952487835999413e-03 4.737323760546161555e-01
2.498765318393988619e-02 4.267682710530911611e-02 4.362673257152313577e-01
5.289200897262829465e-02 3.292814673536285930e-02 4.910408487150643153e-01
5.274787474176471924e-02 3.877032520086070438e-02 4.921521253633922566e-01
4.999947864285900906e-02 2.591087024311952702e-02 4.545328811713129635e-01
5.458261210522100809e-02 3.307268034405729668e-02 4.678238667776974946e-01
-1.114242541695117591e-02 3.372017508846780059e-02 4.161928892441997263e-01
6.622783181240857533e-03 4.073325594030367119e-02 4.235189763566694077e-01
2.132923867525413075e-02 2.099762755675719725e-03 4.351171288297407957e-01
5.708262368191083236e-02 -2.208876012424638817e-03 4.804097524046437306e-01
3.358188272788955459e-02 5.157940299441842597e-02 4.424095202935647286e-01
4.933993411703481435e-02 -1.443518189220969593e-03 4.568685536131034119e-01
4.929575387666861735e-02 1.310428344278252027e-02 5.004852421172805155e-01
1.549096344752684887e-02 4.622916083674732945e-02 4.308320605884780052e-01
-6.291522917062728620e-03 1.507745852059186147e-02 4.246742489999411618e-01
4.996590662131000088e-02 3.951538074018765001e-02 4.552874671757603520e-01
2.235983917049719216e-02 7.903848054306342186e-03 4.352882840089116190e-01
5.118059750794459045e-02 4.468006596236839822e-02 4.960170959198150209e-01
5.299287935565952928e-02 1.796969201690332835e-02 4.867406702825433640e-01
5.019029077311251003e-02 1.683950888213811906e-02 4.550163979503902834e-01
5.717510341159046106e-02 -3.378802587417359740e-03 4.824773386803950515e-01
-1.226586848868187543e-02 9.810867659121912457e-04 4.309969715510527655e-01
5.348723309177553370e-02 4.353532581472841639e-02 4.844739907746317686e-01
4.406516701750825063e-03 2.025821112779456132e-02 4.226483340093333263e-01
2.083190865037170408e-02 1.890086972735182877e-02 4.341502291920260603e-01
-3.195559419627869852e-02 4.450376480897840457e-03 4.362881935443420067e-01
4.967048851973231843e-02 2.693840330199085559e-02 4.988848773463421260e-01
1.271678710999227593e-02 9.037981721691647902e-03 4.322806733113071509e-01
3.882756038778858304e-02 2.860629044676685911e-03 4.444632052348123086e-01
5.267428495910161240e-02 4.675943530384549934e-02 4.771423740900946342e-01
5.730670473974914386e-02 -5.882304372452016802e-03 5.015237934780090168e-01
-2.607517127756175251e-02 2.501834449428980492e-02 4.241480964811003562e-01
-2.832541717539278914e-02 1.039259401990768120e-02 4.336141062654597089e-01
3.182240345607691839e-02 2.142620647590762206e-02 4.393678930921250392e-01
5.372597266263012816e-02 4.044664820951771739e-02 4.709719070685496889e-01
2.265195893033585331e-02 2.606707349914000674e-02 4.350223582833044333e-01
5.208497987204617485e-02 2.397325798592242485e-02 4.902266167651598838e-01
-8.608823708989849291e-03 4.604812396895505144e-02 4.258001290198661359e-01
2.861137832184659432e-02 7.464777760560105911e-03 4.375488320521810914e-01
5.253369639597681856e-02 1.602413224251026877e-02 4.887012879687820943e-01
5.497861240768545099e-02 2.885856631091368585e-02 4.693741035652650995e-01
-2.040816017854608574e-02 3.289048054556552303e-02 4.199137243464359792e-01
-1.701553279993102234e-03 1.901878907835602428e-02 4.221524819711423016e-01
3.852463259806306745e-02 4.440844108720707999e-03 4.441302411920994286e-01
5.666994387597654864e-02 -2.816691228570359761e-03 4.956514305345277038e-01
5.526872511756280443e-02 4.972356440319135144e-03 4.714133097171215869e-01
5.779846176625282744e-02 -5.897706580877884810e-03 4.906562126783372002e-01
-3.493961049672817537e-02 1.358553827881184631e-02 4.382588642078844021e-01
3.650060602601813003e-02 4.179767195301557769e-02 4.435167056480081027e-01
3.276150765557841321e-02 1.388825677695586583e-02 4.397949594574261378e-01
4.050958382815795372e-02 3.553743310005519351e-02 4.458699514856959700e-01
2.971633674802100222e-02 6.232605562748426420e-02 4.461986907942494529e-01
5.257057437539440492e-02 4.744615698597923203e-02 4.821734837927753592e-01
2.853975809739693961e-02 2.136817934625008086e-03 4.378957319027446671e-01
3.148831667302092602e-02 5.389414774024756799e-02 4.415744209619043015e-01
3.067590615037244645e-02 1.948480595359895415e-02 4.387492971424287180e-01
5.930367963170996015e-02 -1.221026537377041359e-02 5.076182907672462941e-01
2.876649404471936372e-02 1.457510360933799310e-03 4.380295078656836205e-01
3.861750335375213616e-02 6.526525779065338317e-02 4.509182004249155939e-01
9.820761143470224316e-03 3.102160247089588013e-02 4.223837496058028274e-01
-1.588108755950704346e-02 7.628345278879809788e-03 4.283736966164847226e-01
4.707073619483684301e-02 1.922395169277025390e-02 4.509842846858981846e-01
5.211702264599580442e-02 4.853302292123774092e-02 4.703161818915996273e-01
4.241287076097843833e-02 4.688290095965914894e-02 4.478632057360252827e-01
3.109175164130830935e-02 2.185835369024164906e-02 4.391010846401026679e-01
4.490172309297092712e-02 6.297182853289295945e-02 4.728490344259554390e-01
4.896791365425918335e-02 8.784725329983665565e-03 5.051210261764146336e-01
4.712048947233304919e-02 5.625845051255342483e-02 4.830373919749923473e-01
4.168323231207389512e-02 -1.651970141183235763e-02 4.491923299975369988e-01
-1.923774934107661677e-02 2.746378385261241672e-02 4.198198925049266284e-01
5.472457195484330128e-02 3.656964215662503875e-02 4.801782308201359983e-01
5.394068395364093327e-02 1.864315305490692187e-02 4.834594547180665058e-01
4.399099891834411941e-02 4.240987317081049840e-02 4.491962579126198563e-01
4.438552801795440927e-03 -1.398283529308380797e-02 4.349013939248715932e-01
-3.338310219057246536e-02 1.627692261031454812e-02 4.325347942627482678e-01
-2.591852998183056395e-02 2.544671948556317953e-02 4.238783947981181188e-01
1.282842244133808145e-02 1.541033599610141386e-02 4.302483183473653772e-01
2.000484450632988680e-03 -1.807130601696745401e-02 4.362366674573675551e-01
2.777868506179422686e-02 3.688051613491963310e-02 4.382691622279557553e-01
3.311246570708417658e-02 -1.403589583008651130e-03 4.404651965074668496e-01
5.383505687212240820e-02 2.470895410768246883e-02 4.852810487223543356e-01
1.664301160507196051e-02 4.266920153534081717e-02 4.303768550666308701e-01
3.969834912088379686e-02 2.873458689171659933e-02 4.449929729377482546e-01
4.044582440715809718e-02 6.220422139291476721e-02 4.503361518407303921e-01
