-1.886293715722542341e-02 2.863674888824151166e-02 4.173533325032361407e-01
2.816628028983685084e-02 6.278563504800188655e-02 4.455230535617419885e-01
4.897546147159432400e-02 2.714438570906692674e-02 4.518205907631838714e-01
4.451235149207468517e-02 3.366591547362058484e-02 4.479837942206630896e-01
4.735933516305888130e-02 -1.543217374359703853e-02 4.582708481546862722e-01
5.424091408862166674e-02 1.267401733813791100e-02 4.650683969315438371e-01
4.672817119625680138e-02 5.511848584774486394e-03 4.500971692932412282e-01
5.652819229386986388e-02 1.534459734673276812e-03 4.784380657159923445e-01
4.924820239797583765e-02 4.112949859920937007e-02 4.530101224724673581e-01
3.371510249092373596e-02 1.437794007880321620e-02 4.394728480560399775e-01
3.807561566525966001e-02 3.394266355033873778e-02 4.427889148530709806e-01
4.949321281801832839e-02 2.366083090024499735e-02 4.525030844779601158e-01
4.287656508267890382e-02 6.160336779444736816e-02 4.519014430329527099e-01
1.793761545706308927e-02 2.024632183539893521e-02 4.307420912926784307e-01
5.426175322378814364e-02 -6.236741274793844436e-03 4.689839156100037987e-01
3.619357652448818713e-02 -1.754134014970432781e-02 4.438805800668071955e-01
1.104477590921602859e-04 4.735436820496301269e-02 4.224428734574940947e-01
3.162953712942639245e-02 1.971416040148006935e-02 4.381182382069876979e-01
3.644790073511009615e-02 5.732276582006506221e-02 4.437511604245645835e-01
2.276322830267449738e-03 2.510752879517300432e-02 4.158636259249759992e-01
4.058514124433500875e-02 -1.700993636662957026e-02 4.475340249797054581e-01
3.643189377291392722e-02 6.698118921140044923e-02 4.493237028044573811e-01
1.065802535160767159e-02 -1.931506277515038575e-02 4.368245763215719557e-01
4.055016759176876574e-03 2.720413373739506355e-02 4.159749628499585516e-01
5.340482982810146328e-02 3.970098112989140643e-02 4.874368159152570046e-01
2.909287755449917190e-02 -2.283359695575861922e-02 4.407727229618372822e-01
5.094463284720662094e-02 2.044690294063917363e-03 4.583450720449390170e-01
-1.222919762990677325e-02 3.967789472932573697e-02 4.177674536525526339e-01
4.638185315487477686e-03 4.456184736059550650e-02 4.214507569066749393e-01
7.674332842406601796e-03 4.336429053307649939e-02 4.234708080571257249e-01
5.436667256919260754e-02 3.507979158581187723e-02 4.841389316793892061e-01
1.364214604491723742e-02 5.204059149723126720e-02 4.305079339087638512e-01
5.339410090561085009e-02 1.756440600054270246e-02 4.609847819617864939e-01
4.059349728406760893e-02 6.575446616421681822e-02 4.597322919830287846e-01
5.294016581368545665e-02 3.320629056604193843e-03 4.631204586973348136e-01
4.450754436791705404e-02 4.466750419760723984e-02 4.483091030659939746e-01
5.522632819103896057e-02 1.484589494711713829e-02 4.768091620037810952e-01
5.735329271691707448e-02 -1.096787013750075146e-02 5.122825449341376070e-01
3.934847275850743981e-02 5.471355537713398082e-02 4.450429884029226124e-01
2.293626781998573880e-02 5.721941951696837142e-02 4.379431309445420140e-01
5.042257272608827168e-02 6.398530848307643244e-03 4.565185997359277881e-01
5.402109642287854924e-02 -6.836716527940644821e-03 4.685030067338701865e-01
5.341513447059456632e-02 3.349319282144945509e-02 4.610619052348621238e-01
4.697898785708055913e-02 2.625680149439429609e-02 4.496975190243319709e-01
1.361267276832923111e-02 -1.235747650218260371e-02 4.342816038599704997e-01
-9.378696384239739586e-03 3.267919168345419234e-02 4.131297888493715154e-01
5.768363277042179438e-02 -7.895849266226724616e-03 5.073355425507739547e-01
2.233748789851929331e-02 2.246029726430678192e-02 4.334031162659727210e-01
4.072551256235800582e-02 -1.786265440537472375e-03 4.458184341614286339e-01
4.456976555864345518e-02 5.880974084552038211e-02 4.814891507236758184e-01
3.481878107091909008e-02 -2.856466501986405088e-02 4.474000286117114089e-01
2.620050990735029589e-02 -2.022592886214869337e-02 4.388444767849681294e-01
7.413421254583229397e-03 9.918256406236468370e-03 4.291106195298857728e-01
9.514296862332117383e-03 1.008474962879037443e-02 4.296455881507698638e-01
5.469833597784309887e-02 1.583637250061899551e-02 4.795511705271336966e-01
-1.308145842098856933e-04 4.714496509029279109e-02 4.222507960278009120e-01
-3.522999918313449164e-02 -9.007432025878649596e-04 4.389356498019487685e-01
1.555200426764101820e-02 5.407480785709681270e-02 4.331012376530971597e-01
-4.417487418094145218e-02 1.001440965883116469e-03 4.467359535398999770e-01
1.207586606524532757e-02 3.486058280105869961e-02 4.230682907129915682e-01
5.370560356042516914e-02 1.751565994185519046e-02 4.620316213855405474e-01
3.136265993822349302e-02 5.722338659489120682e-02 4.412180822480724629e-01
4.280175016575187008e-02 9.755330891770257890e-03 4.462400001314990594e-01
-3.371211075815581937e-02 1.725675022891249785e-02 4.314121525993270811e-01
5.431732792212396604e-02 -4.036794483949337001e-03 4.681274900838136577e-01
4.723560622984149943e-02 3.362053055046281685e-02 4.506658192986837119e-01
-4.188841892947841976e-03 4.293862866135674666e-02 4.187272235419298716e-01
4.652507278517156036e-02 -1.170001781487532526e-02 4.555273746832800841e-01
1.417212639540688275e-02 5.418664329116062994e-02 4.337478398392055068e-01
4.771951924742370149e-02 -6.249248378464838244e-04 4.529362475049453218e-01
3.355120985420529528e-02 5.835792422765656573e-02 4.424750741583276525e-01
1.350190503830979612e-02 3.526760482398482582e-02 4.246109770110330639e-01
1.940085541992846163e-02 1.805562250913025565e-02 4.320278211264390045e-01
5.023305345139793959e-02 5.252306004657789074e-02 4.810755637759036585e-01
5.111602263351788106e-02 4.942746038587372825e-02 4.849084770572610337e-01
2.528019752663487191e-02 -1.490135294404573490e-03 4.356580959026850608e-01
5.534754192170668330e-02 1.938303436549109263e-02 4.737326579851431907e-01
4.612047125583357970e-02 5.524553063901411348e-02 4.873575217557634676e-01
-8.004501486907629471e-03 4.566338533115619353e-02 4.237177154641937893e-01
5.031374554875916311e-02 4.837949820311442106e-02 4.579865903168231500e-01
2.375932015969882058e-02 1.245309709152841310e-02 4.342643069955660073e-01
-1.075367988711354791e-02 4.249397224205894025e-02 4.208379075497108990e-01
5.097273815504328037e-02 2.155754343393940370e-02 4.552845743354103636e-01
-2.324854878976698527e-02 7.286710384952683507e-04 4.328921915023140055e-01
5.250990694876236237e-02 4.707321586882297348e-02 4.764868926822249939e-01
4.895680000749651206e-02 1.354543923550064963e-02 5.003303231552351793e-01
-2.094244005670377676e-02 3.698140251566704728e-02 4.189322359437930854e-01
4.811207680326080871e-02 -7.821831143195446395e-03 4.570107216886100110e-01
2.708551711281173904e-02 -1.172525857090847903e-02 4.372718323441098232e-01
2.958429266164698535e-02 -4.388267476618671996e-03 4.377932376338018461e-01
5.485414429888195442e-02 4.890752170222502707e-03 4.687937440089657293e-01
4.697503200676819007e-02 5.275302140546731661e-02 4.517572864804405008e-01
3.247259678982711284e-02 6.379549541850716710e-02 4.456990810428269056e-01
2.220715400649257709e-02 -1.655008475050561909e-02 4.368101436345663280e-01
5.608293927580529359e-02 4.807005414712638841e-03 4.777803720947218502e-01
2.974686599202560483e-02 -6.426346058717078390e-04 4.377643294130213469e-01
5.756823484187526679e-02 -7.820677680540042559e-03 5.077775174238574607e-01
-6.375699780095262989e-03 2.362286202679207345e-02 4.140757092220840874e-01
4.673519632189173517e-02 6.068220145907116114e-02 4.667035799069628732e-01
5.182267702094443818e-02 4.974451966915111739e-02 4.707184941657771571e-01
5.735106519610787268e-02 -9.031512943118286812e-03 4.843562616425625134e-01
3.879658907375287125e-02 4.722288542459998628e-03 4.436212745507718269e-01
4.336816381735859871e-02 6.398423388838957171e-02 4.714444949969022747e-01
-1.807057993697409187e-02 2.646663722571851105e-02 4.175722487003665773e-01
-4.769516422034845125e-03 4.443210703510353660e-02 4.200757368229727784e-01
-2.108796910013236228e-02 9.215861333318208642e-03 4.288679393586826705e-01
-1.310748116028933891e-03 4.606065156468247546e-02 4.212250563749646570e-01
3.018245115774803936e-02 3.890445513661131699e-02 4.380164058165847418e-01
1.712635247232281027e-02 2.917101164935432742e-02 4.290338919341594726e-01
-2.453743607365478641e-02 2.170126449885068781e-02 4.229263300276943083e-01
5.828735547913940079e-02 -9.473018168920706999e-03 5.071652793569575435e-01
4.402679888465127478e-02 3.558023789449540203e-02 4.477054608780975387e-01
5.538638587746901737e-02 1.960792352385742898e-02 4.733020653932387134e-01
4.308311696931845652e-02 6.528766486036012562e-02 4.674126367162655393e-01
5.421043755131555592e-02 2.808413123332451425e-02 4.640209519694278306e-01
2.676413445933588549e-03 1.575466541138486817e-02 4.240516742126366756e-01
4.939266768140903457e-02 4.940552923154881843e-02 4.551044440423671622e-01
4.663805473156932418e-02 8.093719221462486457e-03 5.101987518431024826e-01
5.118848473294749374e-02 4.130875513287719791e-02 4.574392254070741015e-01
2.239709910405763421e-02 3.434914763667389764e-02 4.332002886182010903e-01
-1.418045030875105320e-02 1.346860810556393950e-02 4.248549688484710152e-01
1.802693045067959438e-02 4.017072619057548977e-02 4.290706567777042846e-01
-2.447790091540490501e-03 -8.231184552414259198e-03 4.315387043488757013e-01
4.109255421314724627e-02 6.548885573167217977e-02 4.693910504564300923e-01
1.219188968621967226e-02 4.067186303258280705e-02 4.258198168233472414e-01
-2.624418035443209021e-02 6.491484784821977862e-03 4.326363985799484002e-01
3.504844412683044003e-02 1.821215371515553724e-02 4.402835276540237319e-01
-3.514003389835772262e-02 8.111464334056449690e-03 4.395513878145527187e-01
-2.498676717488729215e-02 7.096139178894329477e-03 4.317922549350684536e-01
4.078537155344553328e-02 -2.225684069945508756e-02 4.502628378996421099e-01
4.262355015970081124e-02 6.564975984206812554e-02 4.622655515332421694e-01
5.828574695861516407e-03 -1.638112416208147709e-02 4.364545057653634319e-01
5.455956364223561034e-02 3.286375150660879318e-02 4.810781618723205533e-01
5.643629297616519630e-02 -5.648289708441725336e-03 5.090554711816464017e-01
4.628329796733051532e-02 6.197991565402052871e-02 4.642698033615964004e-01
3.496016155820649840e-02 9.868948082258362231e-03 4.402376695185090671e-01
5.527413091541644174e-02 -6.495311167042536193e-03 4.729921712370951381e-01
3.718357342729874948e-02 9.702371342271347981e-03 4.420171597154892162e-01
3.857166045657590969e-02 4.232026395441753491e-02 4.434717268676350299e-01
4.957271780769592628e-02 9.851581827756444865e-03 4.542040805630513378e-01
7.425529277984795930e-03 5.255054456730584578e-02 4.281603144246773907e-01
5.411803734710852326e-02 -9.241585743230140704e-03 4.702767414394957712e-01
5.169094572756394862e-02 2.542914830833986270e-02 4.906152552852311999e-01
5.252720319922972447e-02 2.878427314361641128e-03 4.619824944995608584e-01
-1.578940999729691944e-02 -2.297957930407093161e-03 4.321544780140894604e-01
1.212604503375993605e-02 -1.822654260377662080e-02 4.363100614712671632e-01
5.579409444962050296e-02 -1.673788174852597951e-03 4.724963026831747737e-01
4.422945566578589949e-02 5.307332698139551920e-03 4.479299373255684613e-01
5.336145187911852522e-02 3.842274323013423337e-02 4.880118161833567059e-01
1.832207745870194360e-02 5.612765468945343783e-02 4.376887010532604094e-01
1.556801729044822794e-02 3.148069797139654152e-02 4.263716245370609559e-01
-5.101746765010831478e-03 4.452252878885945217e-03 4.288381226714046424e-01
3.455527153044744837e-02 1.506784365953670393e-02 4.400397428722053750e-01
3.851647567965305052e-02 4.495357115727170727e-02 4.434144429503777407e-01
-7.571717809506299177e-03 2.268606181321728213e-02 4.145221691355422955e-01
5.451447701828556619e-02 2.877641282897858144e-02 4.820679412366129513e-01
4.383395979695879630e-02 6.480856653618068119e-02 4.672136844955566137e-01
4.299530203670659523e-02 6.364991548354935469e-02 4.722940061436589065e-01
4.495390129581861016e-02 6.342198542737141620e-02 4.599861382927925568e-01
-2.137583898913899064e-02 1.278518753581507801e-02 4.269767060459706554e-01
-1.729671002111408257e-02 5.130476914179669598e-03 4.293182702104856308e-01
3.686352916719563833e-02 6.580835296742899854e-02 4.688677407497761629e-01
3.126955041656734324e-02 2.544352324693037806e-02 4.382886455564779515e-01
4.340953934082793231e-02 -7.461269768162847107e-03 4.497840759052066373e-01
2.347151315765400037e-02 5.916792493640121720e-02 4.391362194641691974e-01
4.773199679389578121e-03 4.626207208172179730e-02 4.225320452113835445e-01
4.534032504393258056e-02 6.169472748194052003e-02 4.723949570169754808e-01
1.544202583313750154e-02 -1.780295781963135704e-02 4.359961939713494217e-01
-8.358228558901668534e-04 3.065881098984192185e-02 4.135775117153278058e-01
-1.204033434853119325e-02 -9.814418246273907617e-03 4.342549997137147288e-01
5.366751979682302109e-02 2.468603832350010560e-02 4.611793520765745669e-01
3.903276612716104210e-02 3.694592797737906997e-02 4.435267687733052688e-01
4.992467457152540561e-02 5.359901240138090911e-02 4.635058006599112046e-01
4.710101172023826999e-02 3.679929172546273636e-02 4.508887632593263084e-01
5.788773467511199727e-02 -8.668838613004267030e-03 5.078115226081696409e-01
5.537240022383254495e-02 -2.900119708381466814e-03 4.710206421696394030e-01
-1.310247683182097847e-02 1.321889721504732225e-02 4.247923937880812018e-01
4.492504887183909612e-02 3.985883787106840603e-02 4.486406428991393525e-01
4.657635498291063519e-02 5.265333168554186399e-02 4.922092522676113635e-01
4.922075264631609742e-02 2.310938859143537097e-02 4.519329652249544638e-01
-1.663755623804997683e-02 3.230838706186099640e-02 4.161820848596818334e-01
5.388603089636914006e-02 -9.597081036428117828e-03 4.696439769735313852e-01
5.582377206800621244e-02 -8.321847380526834490e-04 4.729957044369573760e-01
1.907924194053269018e-02 4.013477656228218310e-02 4.297905424999583501e-01
-6.952797293312304276e-04 1.409038898778078829e-02 4.245899150331224337e-01
2.161106081713347338e-02 3.517773392983598868e-02 4.322952891339116865e-01
2.502004068962838945e-02 1.541892338705228016e-02 4.349976975323754380e-01
2.672641366922343456e-02 -4.962579682230863765e-03 4.361035829743418191e-01
5.762286471536832988e-02 -7.286788886194979151e-03 5.047851374052576556e-01
1.206997154271828056e-02 1.156661415832310399e-02 4.299016256710598283e-01
3.504393752330497297e-02 1.516498142450192939e-02 4.403793434672458873e-01
5.455151016062707858e-02 3.492627856999826891e-02 4.687080661819023608e-01
3.730220762279656821e-02 3.846170271341171898e-02 4.424633950971185170e-01
3.349816212057047521e-02 6.698970442986215690e-02 4.482488446418042560e-01
-7.088157857156503205e-04 3.964194546156032256e-02 4.171193190070555668e-01
4.903656576351756585e-02 1.792456332661484381e-02 4.520657251168874180e-01
-2.327110931461333007e-02 1.217822792898759585e-03 4.326914152956687354e-01
3.151759308252183311e-02 4.221336335313388699e-02 4.390291256609478165e-01
3.763754879106410295e-02 2.913764831625727594e-02 4.423379418918341188e-01
5.109106416317869132e-02 3.847262940300102962e-02 4.567789444781218955e-01
2.714713724578456458e-02 -2.291375398600218466e-02 4.396182548134573431e-01
-3.493966959161844826e-02 1.220381559807223043e-02 4.384016073644785294e-01
2.219395891048017364e-02 6.033138613555818347e-02 4.421305007819703592e-01
-3.835743667703480492e-02 1.203348591841228504e-03 4.401634469414780204e-01
-1.099186204456383507e-02 1.833414245316681429e-02 4.205738514093529945e-01
3.420761540838294923e-02 1.582568255340228991e-02 4.397712772296910599e-01
3.516161200014257526e-02 5.519904802738481719e-02 4.424453503664491638e-01
-1.880210358207086083e-02 1.509275949400213333e-02 4.250232973921564961e-01
8.877424368020130074e-03 8.397866563262921039e-03 4.301828371214487245e-01
5.767670933985809961e-02 -7.484840156733339397e-03 5.051466080258665281e-01
6.302842861612690389e-03 4.986009025974615788e-02 4.252553919111283776e-01
5.133393139022542073e-02 5.126647402485384752e-02 4.704608194609299354e-01
1.696878509968481955e-02 -2.136835499258360124e-02 4.367869403235488113e-01
8.029885120285872036e-03 3.661564952392773464e-02 4.202907185280824742e-01
4.744897470180849119e-02 4.506729029023365946e-02 5.020616170968241754e-01
4.934525414802685972e-02 8.174607871459111871e-03 4.540162059790903704e-01
-7.951379700552487287e-03 2.593717122372347656e-03 4.299387087032146004e-01
4.437940917490801329e-02 2.678721277856334002e-02 4.475644956306377709e-01
2.680250123339901480e-02 3.084855366130281537e-02 4.367573526943874240e-01
4.060081287637572200e-02 6.460135412003185917e-02 4.526406419091419386e-01
9.633827165614203963e-03 2.428045656130813426e-02 4.224945711162435558e-01
5.657639263747434727e-02 1.139570868366651278e-03 4.849151183554140654e-01
4.044636751086937154e-02 -9.554540619080825053e-03 4.462800487955851936e-01
7.917953363770390690e-03 1.688344710098767243e-02 4.257997758946744926e-01
3.228886108628381546e-02 5.497454517846935007e-02 4.407121081118745010e-01
5.692995376982507016e-02 -4.514031086186182269e-03 4.985794402861797314e-01
5.103911372591021095e-02 4.168427425346141191e-02 4.571333369532166735e-01
4.924414309017054354e-03 -2.161245873630055023e-03 4.306171126306447827e-01
5.131272719175496155e-02 -1.154126167443416361e-02 4.649219242545382103e-01
1.481003837025081371e-02 2.863485739572755803e-02 4.265554885935649576e-01
5.405571006880527385e-02 3.210473870875628355e-02 4.631481884850014441e-01
2.973994611586490075e-02 -8.876620089309762707e-03 4.381785473950523535e-01
1.412469449546933063e-04 5.095468869538673923e-02 4.256411416622894461e-01
4.120533763259639354e-02 4.448061665315581475e-02 4.454526920795752742e-01
-2.405302100293882708e-02 1.028525580012853817e-02 4.302733547480077636e-01
-3.334982410722439616e-02 1.260035780967750339e-02 4.354521322619222534e-01
5.498887273959678079e-02 2.181006881705664993e-02 4.765549914444910939e-01
5.285761491893654906e-02 8.082021002507595690e-04 5.067692544856595704e-01
5.454414708068799217e-02 -1.242125608177174767e-02 4.729127279531778472e-01
5.427492915301457277e-02 2.066062262208250358e-02 4.648277202734301117e-01
4.803673056081712855e-02 5.743974530201251261e-02 4.602974326317867959e-01
1.560666040543026711e-02 2.930162078679190985e-02 4.273096518199877569e-01
2.398023272250427232e-02 4.000209451812380274e-02 4.336513262022718695e-01
3.859006984796791578e-02 6.156333168398787914e-02 4.467584051372266440e-01
5.505235015309188629e-02 1.008777771237808277e-02 4.795371988187430712e-01
2.370336430040298828e-02 5.068345553197429326e-02 4.340141308041069457e-01
-3.993144334718687349e-03 -1.017990702158413224e-02 4.325878412002572837e-01
-1.673197098286121178e-03 1.014862654648446619e-03 4.301062431016103305e-01
4.175862894108622186e-02 -2.087471081352200442e-02 4.509790382410494569e-01
2.916048709328303290e-02 -2.072029055524560182e-02 4.403205239505782465e-01
3.669895557813084713e-02 3.488042702791295524e-02 4.419408891559165053e-01
5.021864934355704801e-02 3.587163771885173991e-02 4.976864818004860802e-01
1.170367342097326617e-02 4.588496607543188568e-03 4.313332408318991118e-01
-1.933958506755747986e-02 2.348267928334398652e-02 4.199338344927627809e-01
1.445718184219721598e-02 1.532357280925494836e-02 4.297257632498458491e-01
4.907869057767220988e-02 2.091088696883829090e-02 4.516984781101271995e-01
2.605609173571657791e-02 1.138036784529694589e-02 4.352859004745276428e-01
-3.474539752565337231e-02 1.279911729727674016e-02 4.379800964540085384e-01
3.769719554140543716e-02 -2.316642930122610536e-02 4.470195903836738371e-01
2.103912351335863323e-02 7.844811670056872979e-03 4.341277943856500232e-01
6.844079438512553834e-03 -1.566832129225614878e-02 4.362757096483320107e-01
2.314350294310652673e-02 -4.677399876264728799e-03 4.347830890401462312e-01
5.208241443986989794e-02 4.775300268654396330e-02 4.831045256244634878e-01
5.615308533319213896e-02 4.630058554272850971e-03 4.772999782071843389e-01
5.349117354178529321e-02 6.362957251169245806e-03 4.933888929025011527e-01
-4.586421125769585966e-03 5.076590344662073803e-04 4.301537173390215241e-01
-3.409251877069843090e-02 2.168271352746550459e-02 4.285397928426157854e-01
-1.190961987155554277e-02 -3.265399390767999548e-03 4.316103650115148960e-01
-3.232965438333040148e-02 1.510157970311048169e-02 4.314345304730353159e-01
5.469270011875330267e-02 3.293842425851761790e-02 4.796005899202940848e-01
4.932466943636891477e-02 3.180349837761385634e-02 4.528885725156585051e-01
-3.998267050318883575e-02 2.666449354930039775e-03 4.432176485460220250e-01
5.441915254635516785e-02 3.048914275766635446e-03 4.961521550563990357e-01
-2.533868083819844352e-02 6.304234663357392160e-03 4.320581263022885143e-01
5.520466582702424768e-02 -1.309360820271985616e-03 5.047714200137035645e-01
4.957755086675416645e-02 3.183929014871075130e-02 4.987134733006420295e-01
4.667344933203979723e-02 3.036460040750901812e-02 4.497201449915500526e-01
2.720719217779508925e-02 -6.405030733505818509e-03 4.363904238754271470e-01
5.224742840271053013e-02 4.765399445391353683e-02 4.823210662776921120e-01
4.843340141319765063e-02 5.436532052766213097e-02 4.846366902708711399e-01
5.405920475603618464e-02 6.344443529017342043e-03 4.904422432703525181e-01
4.834154201371479442e-02 3.669054833902183482e-02 4.522176092616062570e-01
4.874177438276580676e-02 5.616355826541655216e-02 4.619362855858822892e-01
5.480964152316621790e-02 1.245677352255257844e-02 4.793703429171419783e-01
2.616940085653048087e-02 4.222026144157012967e-02 4.353967477042738898e-01
2.596590100039907270e-02 5.990289830681553435e-02 4.401191922741417573e-01
3.138405948356295244e-02 5.684426521784748804e-02 4.410776938913520961e-01
2.575442464795677996e-02 -1.139960075783913798e-02 4.367440309849390245e-01
3.196143460332707964e-02 5.624421061693731655e-02 4.410937052884987275e-01
4.600755019488347169e-02 5.088424142361896302e-02 4.501903561045122459e-01
4.079884371230220810e-03 -5.803349902618978873e-03 4.312687950246531510e-01
5.123838094348676792e-02 -5.535923675193598834e-03 4.623016413610144815e-01
7.774356694109715513e-03 -1.936952219746756326e-02 4.372000426224880165e-01
1.588441273622420019e-02 2.328892260295809154e-03 4.328516280741518951e-01
4.047918731075777349e-02 3.653117129991343554e-02 4.446389431862466934e-01
1.519990002168517245e-03 5.072741371742472277e-02 4.250368196810649368e-01
1.089505763185107806e-02 -1.464337472006958969e-02 4.354197493491241411e-01
4.449245442111549043e-02 9.202172882981952962e-03 4.477192755675231672e-01
2.508819448471949487e-02 1.205600645227714388e-02 4.348566809966528113e-01
5.784309045562296969e-02 -9.913123384149569173e-03 5.099989777006623815e-01
-2.061254288901291642e-02 1.163981335770717003e-02 4.272868655157721074e-01
5.015425280174894140e-02 2.543374638432163021e-02 4.951941338434717732e-01
4.624003779770151888e-03 2.277977763913659193e-02 4.187815448297814158e-01
2.843553453876582898e-02 9.882779816922421592e-03 4.363537302225763415e-01
1.170243442573306626e-02 1.436061690515095732e-02 4.285624513506624544e-01
-2.288545031841617353e-02 2.109833796395376229e-02 4.224592884134087956e-01
-9.265112456251995213e-03 4.385186423473691128e-03 4.290998779273870189e-01
3.108473578986731961e-02 -1.356514552620452160e-02 4.396183766000788529e-01
5.532098509458485691e-02 -5.569841464095337535e-05 4.976559229564230802e-01
3.364018660286303974e-02 -2.634443107356837510e-02 4.453597041740462448e-01
4.160661116295240325e-02 -2.217221287978578606e-02 4.516354795638009012e-01
2.756423200187000516e-02 6.345972783125063132e-02 4.488137440514336496e-01
-1.764607396212371226e-02 6.984779779722237285e-03 4.281038042225140394e-01
-2.171348643043045576e-02 8.472748704652154766e-03 4.294246270009379196e-01
4.604469763472099353e-02 -2.031767148655915650e-02 4.575141735990913561e-01
-1.689717796102700731e-02 2.126012335032168715e-02 4.210772287865856556e-01
1.211639253882689470e-02 2.119401424832183245e-02 4.256296382316608895e-01
4.468434306867612865e-02 2.467739198614164048e-02 4.477298070580321143e-01
8.141722994299896432e-03 1.267923143707837957e-02 4.281617331843075025e-01
3.271652019174154519e-02 -2.171048938515470275e-02 4.426507203481147013e-01
4.959017333789810661e-02 2.803081020964989095e-03 5.105890549316566274e-01
5.140664983228207530e-02 4.280203108185556132e-02 4.581913421962297006e-01
1.092627423999895618e-03 4.790483829224685686e-02 4.227915545454095647e-01
5.155560107777429346e-02 2.220985746260119992e-02 4.898719718359726971e-01
5.395368014958579206e-02 3.849859775434709419e-02 4.689300874958141629e-01
4.610777367413813194e-02 -1.747911633131524894e-02 4.558596151358053628e-01
5.524150440781271099e-02 2.020210779901439671e-02 4.745377386325073110e-01
4.776819814513317414e-02 2.490565671090662347e-02 5.031522470879439268e-01
5.160621925068695909e-02 5.078888142854914856e-02 4.751490530024230496e-01
4.956866744433158223e-02 -1.764536408402228931e-02 4.634579698607357856e-01
4.298731359651764006e-02 1.151927090076365449e-02 4.462111004022420446e-01
2.574814937288395778e-02 1.642352928030826583e-03 4.359687797249985342e-01
4.846670946497980137e-02 1.558421871045946247e-02 5.008398095830942642e-01
4.451226261170703608e-02 6.169408454801807162e-02 4.748610837505054527e-01
1.797450829097535507e-02 -5.999392279114269984e-03 4.334443496146191954e-01
1.773486259192491154e-03 -9.153858748065782022e-05 4.302493542977375851e-01
9.713993453928921121e-03 3.695449503148646943e-04 4.306242470175564718e-01
1.537868943697351040e-02 1.972201425581064302e-02 4.290127457051756688e-01
-3.251528950780092908e-02 1.653167064268525055e-02 4.303211244461138674e-01
4.032969468128761587e-02 2.684634589597765728e-02 4.443001016737752051e-01
5.536313485371887472e-02 -8.257084448424654652e-05 4.974543895293099816e-01
7.646578180713146065e-03 4.877414774112028006e-02 4.253998416149145090e-01
4.563669878838573502e-02 -2.283016285216958943e-02 4.577615202849851794e-01
3.867488329200358121e-02 6.069220616870330681e-02 4.462165765110950311e-01
4.726653455052190478e-02 3.927917614137650670e-02 4.510578110582725841e-01
1.401101272148020868e-02 3.824216066490244287e-02 4.260634244330891995e-01
5.420212544892500511e-02 3.698190103674249551e-02 4.843952370250190209e-01
4.910990565547350114e-04 5.285893917923892987e-02 4.281213063284062259e-01
5.126549434699039648e-02 3.708795960952718934e-02 4.569503057285491665e-01
4.906543727380253267e-02 1.140120476760071201e-02 4.529747243628082232e-01
2.472119519401516294e-02 9.577469191488498582e-03 4.348890822087262964e-01
-1.156534367150507427e-02 -6.509614177554931200e-03 4.328637569181006950e-01
4.431059941874020136e-02 3.566124217526534662e-02 4.479870126444304712e-01
-1.045937497303717906e-02 1.990892599664528112e-02 4.186897557714256424e-01
5.405338839296400938e-02 3.884756083665167475e-02 4.721909096109243587e-01
5.713177127740201589e-02 -3.436404947138068169e-03 4.812753062573345564e-01
-9.119648451072100842e-03 6.133890269964381928e-03 4.278436383828547740e-01
4.910597371482932488e-02 -1.006478123671532103e-02 4.602940172777452155e-01
1.408870286019462889e-02 2.720456777358682202e-02 4.258947650711716881e-01
2.074484840923696699e-02 1.003369696968739108e-02 4.338211558238148080e-01
5.275770594017969300e-02 1.887152179666405638e-02 4.591748145828912220e-01
-1.134254584622678211e-02 3.830226114171835644e-02 4.166355270583232406e-01
-2.124575844458867491e-03 -1.493114409442546781e-02 4.342991065084735869e-01
-8.295047517879088408e-04 4.973119974544237126e-02 4.251785273284627298e-01
2.245854407704590133e-02 6.056845178479081104e-02 4.454124469168609379e-01
-5.734344557836158068e-03 -1.243453845475742288e-02 4.334099218932669917e-01
3.267384383378388324e-02 5.829359975073303973e-02 4.420973015413697249e-01
4.606424854169663408e-02 3.807778031205540786e-02 4.497742587832900263e-01
4.635790465120132042e-02 3.991689688015905013e-02 5.054531635373135101e-01
5.106727808289329706e-02 2.513466771908286906e-02 4.554186660236146378e-01
5.282902653556614120e-02 2.571253601865220763e-04 5.078152821538435280e-01
-3.404870278613565671e-02 9.378314593318040973e-03 4.376105602590726895e-01
-3.015441772109877377e-02 3.489835559501084511e-02 4.241526851116071417e-01
5.456898407842331045e-02 -7.442841731388583765e-03 4.708339209720600604e-01
4.462694256029533374e-02 4.103018411398026005e-02 4.483684127821832011e-01
-7.037135191967917175e-03 3.409037422514765714e-02 4.130197038409199051e-01
5.478323512900626358e-02 -1.110275945973461520e-02 4.733638868650228981e-01
5.896106034132934243e-02 -1.138280294208952013e-02 5.071035018837344310e-01
5.411140488681013411e-02 1.767309681430671506e-02 4.819695069867858672e-01
5.199423595031021222e-02 -1.768373174225104129e-03 5.117788818771232817e-01
1.139368869352556414e-02 2.978335203320875077e-02 4.216741033498092039e-01
-7.977591238079336650e-03 -1.542698448417707292e-02 4.344816948816315194e-01
1.453954558599331905e-02 4.564781524994554474e-02 4.283583068410707906e-01
5.382123493259202522e-03 5.426720325700823411e-02 4.322928420844776021e-01
5.099372580532113286e-02 4.066120646104262604e-02 4.568703219838087248e-01
5.408946033568223788e-02 3.629948379775542466e-02 4.852306001665330770e-01
4.893541909267506984e-02 5.627542003853254482e-02 4.691312163472201591e-01
-9.767147468109157668e-03 1.423537866772810363e-02 4.235010222030902716e-01
5.145967671202913984e-02 5.007890988229717066e-02 4.668137882444008402e-01
4.340277431762873395e-02 6.463506305363464488e-02 4.576077058343163695e-01
2.235987475130966906e-02 1.791860018554900652e-02 4.337658869650696802e-01
5.070848077507758567e-02 5.178700397354948221e-02 4.802982909143103107e-01
4.841256430640887565e-02 2.566406475925193248e-02 5.011860774479562908e-01
-7.206165228497042087e-03 -2.356555860187972695e-03 4.305024630128105878e-01
3.419303293414516914e-02 -6.640859514860902001e-03 4.408026478304356566e-01
2.079498202712102770e-02 -8.358555861075454146e-03 4.346530565980642469e-01
-4.092066422645128376e-02 2.441535843560407176e-03 4.479599841587542097e-01
-4.216236882482135052e-04 4.520596500167289866e-02 4.204138830653150194e-01
1.402512020342735338e-02 5.243231841390665754e-02 4.309595489467969442e-01
3.554046549576891922e-02 1.152214707770429000e-03 4.413574650960848111e-01
5.553047492663964330e-02 2.499699232534412924e-03 4.724169149645495169e-01
5.350941774683356383e-02 4.078724792842958885e-02 4.680444273825884460e-01
4.116448289370146923e-02 4.830350436188211860e-02 4.453050551175760652e-01
4.335165488987234583e-02 5.193021971727034003e-02 4.984898657297356372e-01
5.363241527527150970e-02 2.491377639334654490e-02 4.609812840829311531e-01
2.678311081908425068e-02 7.219701663838476620e-03 4.359458313298910648e-01
4.969653640244731108e-02 5.424854864556686446e-02 4.643812621724464074e-01
5.046640584159810261e-02 1.102090082643956623e-02 4.977303735778110805e-01
-1.530996175371518268e-02 2.085716500135018081e-02 4.208796176517582976e-01
4.753552105991694365e-02 2.261800038899627885e-02 4.501369752088995035e-01
5.120664733259192025e-02 3.236891772502857589e-02 4.941282534880463428e-01
9.906907347357786150e-03 4.981035671602035420e-02 4.270579877672202596e-01
5.375637432126741111e-02 1.392554581181509529e-02 4.836007506034060710e-01
4.762550235771574603e-02 3.444185128056126421e-02 5.033099440290215165e-01
4.059802462587838723e-02 -1.527301985333957661e-03 4.456877918679371109e-01
4.130123923422201332e-02 -1.536038518978252027e-02 4.480589576448375522e-01
3.853780290478290519e-04 1.057567960860853048e-03 4.301163804488652431e-01
5.718711805245737384e-02 -7.909147230833768819e-03 4.837321270328857059e-01
4.010035862977465171e-02 4.825851432927208418e-02 4.443644002441556884e-01
-1.094715814882446341e-02 -9.907475450782677467e-03 4.340404921384236614e-01
4.519106119746781058e-02 5.086120437557229562e-02 4.999595346685117847e-01
4.509579028790459271e-02 2.409154481682809767e-02 4.480341505656204593e-01
3.861716592807055981e-02 1.654384432089629070e-02 4.428657065923332636e-01
4.520315682232987214e-02 5.416849646864420331e-02 4.502068978985655501e-01
4.198019195250244501e-02 4.937880887382507800e-02 4.461327180160574724e-01
5.050359836011851511e-02 4.898802094616841463e-02 4.891689794552091519e-01
9.555104504810625621e-03 4.822892131405057126e-02 4.263844185556339705e-01
3.903647360037756225e-02 -7.922039515513719897e-05 4.442516175445757609e-01
-1.316800383163546639e-02 1.430907486444944927e-02 4.241002110860282448e-01
2.791921299990167415e-02 2.336960546993147383e-02 4.366970766041154417e-01
4.009937043139285423e-02 -1.834419247372075928e-02 4.472808534066452513e-01
3.544618401437769906e-02 1.061912577121167274e-02 4.405891185529904330e-01
3.316755315095533396e-02 2.407680644039810608e-02 4.392561113713564502e-01
2.037639664008917672e-03 2.223821740685439502e-02 4.178727830111458319e-01
4.844588204500280965e-02 3.070335321316797553e-02 5.014590107359263582e-01
5.678493216630285667e-02 -6.843182639099012598e-05 4.865712821654937792e-01
4.887398730988160023e-02 4.841264024806058580e-02 4.528340867666012515e-01
5.406860301775179983e-02 5.932640515131336334e-03 4.915182218230957356e-01
3.917464227190227410e-02 -1.593200008972450038e-02 4.458804963219464845e-01
4.320781869021773913e-02 4.784791892594473378e-02 4.471907080663711231e-01
-5.296184696408605050e-03 4.483495432175396700e-02 4.208190833532153285e-01
2.515414776737027666e-02 -1.009228790383055220e-02 4.362099816034382127e-01
4.178451039670688649e-02 2.952740598536831781e-02 4.455306315941067186e-01
-1.205466521270331676e-03 1.761102995181523106e-02 4.213326566245022553e-01
4.986124707959422447e-02 2.467484509491935096e-02 4.959785549137519789e-01
1.323048421736564180e-02 4.439583792782217028e-03 4.318868833361987902e-01
4.204169363488149264e-02 7.909896235390151409e-03 4.458340800305969909e-01
3.394878090764451989e-02 4.224821419990490434e-02 4.406385410050751572e-01
-1.121908352961484973e-02 6.008544462023413663e-03 4.279610846828882931e-01
5.122557576690577735e-02 4.337357742041317299e-02 4.578379276827174715e-01
5.059643095144655128e-02 5.241626944604506344e-02 4.669799271374709959e-01
1.109209442187383647e-02 2.520889241693318947e-02 4.232408965322357886e-01
-2.911855417109902693e-03 4.197036648887929322e-02 4.181159322439217951e-01
5.218635713318277997e-02 4.531382300910311717e-02 4.636348434985420597e-01
4.815911159038873540e-02 -1.918541331323285817e-02 4.610352772822760015e-01
5.244677821085353547e-02 8.988326063156512613e-03 4.604538636535109308e-01
2.214835449517415025e-02 3.170064787613438573e-02 4.335094574936919631e-01
2.093320953558881065e-02 2.560878120282433779e-02 4.322920121323476916e-01
3.476404059738524149e-02 3.740114865040489005e-03 4.408399849425650441e-01
-1.362333304216123940e-02 5.894509040647350102e-03 4.282474960455178170e-01
3.766783315498431484e-02 4.118218554173182916e-04 4.430537801193320524e-01
1.279444683847680980e-04 4.487959979965700646e-02 4.202118278957397424e-01
4.138645290409338762e-02 6.114712344269795929e-02 4.492449362996299711e-01
5.350761369467003231e-02 4.146268846659854901e-02 4.704624034238991115e-01
5.529407877117108877e-02 3.302379521581757203e-03 4.892095981939096894e-01
5.119606502078765525e-02 2.615043800333003571e-02 4.923908209866367236e-01
-2.017829237970796691e-02 3.163458460890874319e-02 4.179034567840408942e-01
1.460628052299536503e-02 1.416321919191606583e-02 4.298744175265497569e-01
4.511803994345763708e-02 5.686627610065534549e-02 4.519352828103835873e-01
2.544067758322550443e-02 9.618240656662328802e-03 4.351693920161656126e-01
3.210796096637659469e-02 -9.737297367728494149e-03 4.398017917574109648e-01
-1.840462855603169218e-04 2.207864309234483513e-02 4.170262407175407415e-01
4.596817755574637149e-02 8.570607296580712298e-03 5.108345084921243062e-01
5.536465368189563002e-02 6.200458785450422422e-03 4.838853191501366613e-01
1.078834097747092234e-02 5.934434712800559612e-03 4.310138057843636572e-01
4.976638715286964970e-02 1.999535711698044449e-02 4.958001436564832276e-01
1.582307235407825682e-02 2.626451310480368284e-02 4.277885979225782842e-01
-8.061641606799388113e-03 -1.408618189258536990e-02 4.342389131671299807e-01
5.235584420152888246e-02 1.820728442994161422e-02 4.583758513563468417e-01
4.851947331583058437e-02 -1.286308865461107884e-02 4.599059876236317179e-01
-1.060298721308012421e-02 2.274589442858072214e-02 4.157155512713238132e-01
1.835755336210610073e-02 -2.134977372100751308e-02 4.367698449831143859e-01
-1.710466083845637100e-02 3.505210744488838209e-02 4.170452618035683234e-01
5.344848987760633663e-02 4.294013695869108166e-02 4.770057500827371011e-01
2.271256462221464892e-02 1.252280630273347982e-02 4.337813680648695547e-01
4.866979659447281947e-02 4.753899962288578307e-02 4.522975726316203482e-01
-2.709722548108870269e-03 8.253301507396709064e-03 4.275434647124330412e-01
3.334333628921060805e-02 5.536920114324123815e-02 4.413755292170618016e-01
1.044750833933843527e-02 1.014699392918559477e-02 4.299057539132997152e-01
5.254733558173052543e-02 4.658535721676011071e-02 4.827002123962627622e-01
7.534947958368433396e-03 4.997616845445036760e-02 4.259838570113047562e-01
4.950703478138564900e-02 1.452810727454890635e-02 4.973567747228594960e-01
-1.296629973282534612e-02 1.313495428792602407e-02 4.248184127343033190e-01
-4.076475230008864796e-03 -1.201889480613572286e-02 4.329627762321350826e-01
4.351284658887643458e-02 -8.505316073130911661e-03 4.501743307296237062e-01
-4.927234876209780901e-03 6.770431276337860078e-03 4.275514989638668495e-01
3.632887669577997830e-02 6.602770192361263890e-02 4.643310207820021684e-01
4.833621131473133520e-02 4.548368727467433370e-02 5.001797472220788077e-01
5.194844793883816869e-02 4.939618031619126548e-02 4.738005513921083600e-01
5.156132292010793400e-02 -6.705169758820269180e-03 4.634504608537514114e-01
