1.300984007276046947e-02 7.796588876260349132e-03 4.315621525099972988e-01
-4.173409519623725444e-03 -2.818382941179026560e-03 4.304357254595854165e-01
5.451646951847587130e-02 1.624447682550651459e-02 4.661166867565888494e-01
2.573361896145754529e-02 -3.042387196017948096e-03 4.355720561302737215e-01
-2.984441406434865801e-02 2.562932657565102773e-02 4.238815004263815633e-01
3.081064804184871844e-02 5.842342281516102465e-02 4.411090538353043544e-01
4.835866994883021575e-02 1.752107708457846785e-03 4.529895475629420187e-01
8.556055235690885122e-03 4.027430656316381696e-02 4.223247502552176513e-01
3.647624648893298127e-02 3.701410792970634411e-02 4.416426550385018079e-01
-1.824820846159136466e-03 3.518724770503083629e-04 4.300562049375120099e-01
5.106983036957851024e-02 4.807328759769474019e-02 4.880453585396060667e-01
4.641575924730564906e-02 6.171757863124345544e-02 4.620397676745234272e-01
3.878602187181748318e-02 6.637246595400697613e-02 4.588901496041842276e-01
-3.280431148001169365e-03 -3.174665577813140342e-03 4.304697399320434048e-01
5.071553218998412632e-02 2.539302980366706097e-02 4.546292739439447561e-01
3.351187158265841320e-02 6.745851478771424173e-03 4.393426946396843946e-01
2.197929306883690190e-02 1.100561650291119291e-02 4.337905034500870727e-01
2.931458999501010756e-02 4.601383222569745135e-02 4.371566867202895112e-01
1.263240882226820613e-02 7.629113375916037748e-03 4.314945488043344657e-01
-8.383625495164349212e-03 -8.830436632402283853e-03 4.330684830456120182e-01
5.486420239069548371e-02 2.298678356952675930e-02 4.680981627857944138e-01
2.316537101234198912e-02 2.596439864341769724e-02 4.337548267211668862e-01
5.307099417538539005e-02 -4.894878480620427214e-04 4.642195224329185854e-01
-1.094938832044106171e-02 1.025642800507401906e-02 4.260466929667459657e-01
3.188216502668436703e-02 -2.807371869059772842e-03 4.390484897322803337e-01
4.950263365319089448e-02 4.414728287342217089e-02 4.979529441185808203e-01
3.551839111354004180e-02 5.715204151926005227e-02 4.428433023367389088e-01
4.189341856682547022e-02 -1.597940224836128659e-02 4.489342853070069639e-01
-4.236416589550968947e-02 2.323556459820459545e-03 4.421129213820202963e-01
3.050842402727973589e-03 3.140363133217274894e-02 4.146008181328376674e-01
-2.791170531696314169e-02 3.575485045265845707e-02 4.221210668303089220e-01
1.125778777493025365e-02 -1.642721868435478155e-02 4.358820683214802982e-01
-6.026630881620289627e-03 2.921982822083554060e-02 4.120873882289765588e-01
2.385216841300577192e-02 -1.440109431384105527e-02 4.367805521929312706e-01
1.693454459645060348e-02 -4.533722055943772630e-03 4.328581339826808594e-01
5.511853979080610227e-02 1.138592103088971463e-02 4.703095364021477875e-01
3.116782944913481720e-02 3.167365462412286004e-02 4.384273756706353331e-01
9.437967008912351990e-03 -9.198352664036194004e-03 4.324449880479465103e-01
5.747258427941585868e-02 -3.639717025803783368e-03 4.902600688101507731e-01
2.124395712973261435e-02 5.996443916738068008e-02 4.451067075472157630e-01
5.598336068857209802e-02 5.319950603547903868e-03 4.778337090368287576e-01
4.501867053287465781e-02 5.030693987048377724e-02 5.025833084406425844e-01
2.428202299247000234e-02 2.500604776181072995e-03 4.351056443205107982e-01
8.069918091043820629e-03 5.083732360376063547e-02 4.266349402468803120e-01
5.250355226700145761e-02 2.535489072775105185e-02 4.879472471505247322e-01
5.135892740727161093e-02 4.180762070368062439e-02 4.577221211794801903e-01
5.524054514329185955e-02 2.942849929137055301e-02 4.746002052853249276e-01
5.821018356645819153e-02 -9.174834969033415777e-03 5.061967426924716129e-01
5.050040618429520178e-02 -5.899988048812561739e-03 4.609815611585932338e-01
4.010091353475592896e-02 5.794214066680102720e-02 4.461243704287797263e-01
4.029456246687505155e-02 6.579708904437335526e-02 4.682146257638921671e-01
3.429755088805062913e-02 5.402109956813337666e-02 4.414108846839644995e-01
-9.085972947732980087e-03 4.225438814669892074e-02 4.190244840956880434e-01
3.839381276646064434e-02 4.620935592453881413e-02 4.430236406134741012e-01
4.525536445644744166e-02 6.290087278783956792e-02 4.595650496934038376e-01
5.016588965284781571e-02 2.870011087349453108e-02 4.959684471782906945e-01
1.412145508431559508e-03 4.579178621541703936e-02 4.205542658954471436e-01
3.778909850594128900e-02 -1.363936610013672009e-02 4.440799127204426711e-01
-3.648405297515560329e-03 3.182717359539356111e-02 4.117859813619977327e-01
5.196715335480429909e-02 4.933227990252826711e-02 4.755561971268090771e-01
-3.380985472373361327e-03 2.889382383613319297e-02 4.128501870122879280e-01
2.725784842817030942e-02 1.914077614604766178e-02 4.359973837087416926e-01
-4.692208998210789517e-02 -1.779420075463468897e-03 4.443563200854173112e-01
1.762811186721998172e-02 1.491115164368338360e-02 4.310562858340648007e-01
2.176603681418549235e-02 8.768944231084423169e-03 4.340828916908135993e-01
5.342868714192117174e-02 -4.103556842760852814e-04 5.076508219496158603e-01
5.470965756816816017e-02 2.671859518449868492e-03 4.951146250626775602e-01
-2.489255954322124736e-02 1.892575312060631315e-02 4.242419393464014754e-01
-2.241566853034956952e-02 2.104245738980494579e-02 4.220735134583844528e-01
4.225754206664437962e-02 -2.189267174503517835e-02 4.523204453406195480e-01
-4.588084635259082403e-03 -4.130303835023110652e-03 4.306167279872255560e-01
3.409486480312206441e-02 5.942790352498889678e-02 4.428390819858752936e-01
-3.228939593444537376e-02 2.645844811569226379e-02 4.250037907057561126e-01
4.690312722778903348e-02 -5.071939819805982783e-03 4.532102268798825495e-01
5.331496077568482345e-02 4.317452394348325617e-02 4.739541959596902942e-01
8.261086630043950121e-03 3.649112019629076331e-02 4.200173363727557896e-01
2.554783837197684843e-02 2.168703684035581253e-02 4.353739131108945171e-01
5.006812895038150607e-02 3.715809419003399117e-02 4.538555631245930755e-01
1.807794407618439070e-02 2.449206013642112739e-02 4.300582423346700489e-01
4.721336741672402942e-02 4.393308745746823951e-02 5.025545423756481167e-01
2.963512627604849778e-02 -1.506445571068648279e-02 4.392327608170837339e-01
5.216599733491476820e-02 1.847917083286560944e-02 4.578018001633659129e-01
1.929787100708745332e-02 3.174026683990508607e-02 4.305624529982832183e-01
4.766791532554951610e-02 5.840023543412604240e-02 4.716079972098917161e-01
2.649396593975512221e-02 -2.662986675010900039e-03 4.359577783809827634e-01
8.011232388058115231e-03 3.978461870077616008e-02 4.216076649988901859e-01
2.539984442860222097e-02 4.952059499598310266e-02 4.346192258335980774e-01
6.752385780030710667e-03 4.402418336198574145e-02 4.226108340019023579e-01
3.280851448665173670e-02 6.737380285399453828e-02 4.482443009556688618e-01
2.394550083609130534e-02 2.262940925249401145e-02 4.343908062083872701e-01
5.024369244294962095e-02 2.086004834238548017e-02 4.938750932603857557e-01
5.293039732483346971e-02 2.063881834098769963e-02 4.852862261518439690e-01
8.878100526258550507e-03 2.586682563660058776e-02 4.200310676701450308e-01
4.818750305833525288e-03 2.857219873313013303e-02 4.156962281304124041e-01
4.615314843982153831e-02 2.429156739620174157e-02 5.067030789466552276e-01
5.505455108144528126e-02 1.161767150742927350e-02 4.783572615147464457e-01
7.280010208147337861e-03 3.597044775628059632e-02 4.189610323655904023e-01
1.511455925846804868e-02 1.124702314392778298e-02 4.310245315208694472e-01
5.715256840195973714e-02 -2.972017600847766047e-03 4.861448141616452889e-01
4.587227555745342078e-02 -1.957865853985799043e-02 4.565625541493315565e-01
2.384001614019748416e-02 -7.319749297546989178e-03 4.352333356571165268e-01
5.508787102820427578e-02 2.207631530234806239e-02 4.753179180186554165e-01
4.501290305246653800e-02 5.083122011483380553e-02 4.488934364846965952e-01
-3.124548447766083842e-02 3.285957425171222301e-02 4.247555718786509282e-01
-1.784581885622674516e-02 2.861623953813710250e-02 4.165135343807810364e-01
-2.585363082986010322e-02 2.773084253220077164e-02 4.209221622328216394e-01
3.872434568801684691e-03 3.828935310820964777e-02 4.176638402199573941e-01
1.115116324713110244e-02 4.789278645217465852e-02 4.268862883492537952e-01
4.711163887360640679e-02 5.999915296826864586e-02 4.627493449667499648e-01
1.731807232054596510e-02 3.780985455155773389e-02 4.276428977224380201e-01
3.961000137868478377e-02 3.984964116120195965e-02 4.439477682537931735e-01
-1.829275872549948265e-02 3.927338138481678564e-02 4.186355042752847311e-01
2.671289854762326152e-02 2.368040334928237997e-03 4.362243843019231737e-01
4.864963431240201114e-02 4.226889510667777329e-03 5.107895903508306024e-01
-2.745883823692404566e-02 3.747772277266497865e-02 4.248575223610208673e-01
2.064491999701861813e-02 -1.768144844270511454e-02 4.366535504093244091e-01
1.345040780320345790e-02 -8.888370867550871024e-03 4.329568152965531658e-01
-3.459346770784753333e-02 1.448096146229767810e-02 4.361262969378889021e-01
-4.930022412748175098e-03 4.671941184990036078e-02 4.232838261723962936e-01
5.388853145506634912e-02 2.781329180378248889e-02 4.849345086717703479e-01
3.493983663750816621e-02 -2.816278824471885392e-02 4.472882619420697758e-01
4.810241312673853992e-02 3.892159066378865495e-02 4.517423677090761092e-01
-1.201928637888394777e-03 -1.321480628820334569e-02 4.333207285319078950e-01
9.999444717671408106e-03 5.340502366763437425e-02 4.301701396544819755e-01
2.858705076169838245e-03 4.832161183343439831e-02 4.223870235546098306e-01
9.405920485912218354e-03 3.634343675842254678e-02 4.208288213966711599e-01
2.876954065526054691e-02 5.252007748170645779e-02 4.379610403828435583e-01
3.384948302095829031e-02 1.892499101433827921e-02 4.393165885931894499e-01
-6.796151979416009507e-03 -1.395861334340001494e-02 4.339043170154879836e-01
-1.138945107439231054e-03 3.900764595095675569e-03 4.293917906586845468e-01
-3.241953308450943282e-03 3.845482684328541123e-02 4.150674134480661359e-01
1.942988721118279680e-02 -2.090651993389991761e-02 4.368574721321440979e-01
4.274773316267344719e-02 6.558541454540317561e-02 4.585182346755150573e-01
4.855455340058374009e-02 -1.610531622414131461e-02 4.608363738082230654e-01
5.062762477327863858e-02 -2.176175976642564722e-02 4.665486200112990423e-01
3.283567308812829211e-02 -2.232461326262227819e-02 4.429300438210242441e-01
4.800247568819581388e-03 4.476003479923097023e-02 4.212748758533020332e-01
4.077875743770118661e-02 5.803589502417238338e-02 4.467238415102905980e-01
3.438670443477832850e-02 5.390876220744498376e-02 4.414468788576603187e-01
3.411668508024950919e-02 6.584985480391125634e-02 4.476963678263027324e-01
4.089726374582198370e-02 6.472330405934072217e-02 4.533177345016504711e-01
5.275133561108347885e-02 -1.275910275116680197e-02 4.678819848385717961e-01
5.705229018708224409e-02 -2.359327384900808313e-03 4.803873360091568401e-01
1.351632510371485185e-02 2.056526193271233580e-02 4.267332082695616813e-01
5.471557578486897083e-02 1.767070903299071752e-02 4.677073426985874915e-01
1.855467359484079537e-02 1.105948565392147163e-02 4.323394210608224042e-01
-1.077806401228702596e-02 3.864459194940221554e-02 4.164144641635890709e-01
5.174880838518343407e-02 -2.573492521897930395e-03 4.619225443586201796e-01
3.903309376110360857e-02 6.310463950832649604e-02 4.480208383186369825e-01
-4.454859993060540646e-02 -9.923467251544710460e-05 4.437869953847897175e-01
-1.866996080991647697e-02 3.597009625524058563e-02 4.175551036353273293e-01
5.436213070497850769e-02 3.750011371584893727e-02 4.741697190539270190e-01
3.227277265975288245e-02 -1.601618352156954604e-03 4.392435803664646032e-01
1.987788835443621629e-02 5.767595843892311253e-02 4.393566555586210787e-01
5.448489012927345415e-02 3.297077244220313064e-02 4.816083119207346663e-01
9.327322181646387905e-03 1.296619603044049142e-02 4.281712338841863752e-01
-2.557256615434185670e-02 3.900708479911666610e-02 4.259646800401497013e-01
-2.398983951535338388e-02 1.262510858349291491e-02 4.284766960918570677e-01
2.432100335336194463e-02 5.375871918273766870e-02 4.361494330823889043e-01
2.935022457027023149e-02 -5.586841720276596555e-03 4.376033342677247417e-01
5.952879318226579966e-03 -2.001827207178355928e-03 4.305634987833034666e-01
5.128191262482133944e-02 2.073533732782186986e-02 4.907389407522860236e-01
2.389218256911812208e-02 6.136261785100965982e-02 4.473275847248910919e-01
-3.435672500229531440e-02 1.233021594834658730e-02 4.373901171439916746e-01
4.555241282153132953e-02 4.382623183384681126e-02 5.056792581190387992e-01
1.880883073980828268e-02 4.505877998534645046e-02 4.297603257591566250e-01
4.729093284556107162e-03 9.376439366725613719e-03 4.285513021938294198e-01
3.115879848265048699e-03 5.196700509593606132e-02 4.258121601904313325e-01
4.060447609964976112e-02 5.556232589837176855e-03 4.448164449008450427e-01
5.408448267920869246e-02 1.993697896828313179e-02 4.817339387269183315e-01
5.484678592697554700e-02 1.754144708634353123e-02 4.787203904185624581e-01
8.736442440813375898e-03 3.557584801456070266e-03 4.303696750129539783e-01
-1.269629972240718906e-02 4.007502038482453621e-02 4.178159400578406735e-01
4.597577459973623687e-02 3.629098479801422944e-02 4.494742419945960132e-01
5.443194640663247957e-02 2.397564188821092387e-02 4.816661790451764458e-01
5.405520636230086440e-02 3.610097361382713643e-02 4.655171745781506165e-01
-1.699988013874162082e-02 1.650556514696705640e-02 4.233613315872366001e-01
9.957583056511721403e-03 -1.241255907366050487e-02 4.341147986087083854e-01
2.678427708439468438e-02 -6.784870945867366339e-03 4.360679330194944803e-01
4.071951336421367890e-02 4.763596642851849333e-02 4.446462219911968550e-01
1.824975905867479847e-02 2.440796352129129265e-02 4.301836443959072276e-01
5.307235617150576207e-02 4.474900914918972239e-02 4.822858139122339627e-01
5.249914096818347753e-02 1.966348497645977605e-02 4.583980353357506310e-01
-3.383287460755397824e-02 1.568213992402285942e-02 4.332889352625097223e-01
5.501145405327444171e-02 3.252273125292759470e-02 4.711914050644170349e-01
5.673158220659154510e-02 1.703323904128097553e-04 4.814228351594916910e-01
7.205803413280150761e-03 -6.620900966061385277e-03 4.316295175070687939e-01
4.645125135079359452e-02 5.186248349005569136e-02 4.948734710510007684e-01
-7.441125495551590904e-04 6.102403570376983659e-03 4.285144359032194705e-01
4.726868872155474965e-02 2.851862466656898687e-02 4.499294584858811175e-01
3.975185784934869709e-02 6.419915388224803343e-02 4.499475203259029610e-01
-1.604940633699219327e-02 1.450863433081439960e-02 4.243222409487188984e-01
-4.822738455601575588e-03 2.769177501088411486e-02 4.127988184772997671e-01
-3.464586081726188371e-02 9.427138381086892782e-03 4.384554069631333983e-01
5.242935013817806578e-02 -1.415113795321356303e-02 4.678494563576341414e-01
-2.412748404715434405e-02 1.480562742641979013e-02 4.270676083258873601e-01
2.494568192740644064e-02 3.362932411667144544e-02 4.354309261065462122e-01
1.234671811885185502e-02 2.762214030969137313e-02 4.233302722127239015e-01
-3.117169072862397208e-02 2.289253579406404140e-03 4.357229997710952429e-01
4.971619699656332908e-02 5.444709206382633560e-02 4.730392617133544197e-01
5.857969514131477345e-02 -1.092323413396355074e-02 5.086114608306859797e-01
4.627110004496880896e-02 4.194908032062361763e-02 5.048390571635610335e-01
5.277675561728866621e-02 4.160946480751707977e-02 4.631398569315042235e-01
5.611782619329198224e-02 4.909362264210244409e-03 4.770477696622670294e-01
4.221768411403007543e-02 -7.902425734825930387e-03 4.481809327335393167e-01
3.694736585747124963e-02 6.871109417386139784e-02 4.532795895711888567e-01
5.258502697446597318e-02 4.662287007112884962e-02 4.756230553103114600e-01
5.535279857469044273e-02 1.948956281561518844e-02 4.724782115175522046e-01
4.768622878331559012e-02 1.898851008729600387e-02 4.505262005346699072e-01
6.244751113536955653e-04 7.319586873332579319e-03 4.285402036394139746e-01
5.516279735873907270e-02 3.014741778580536796e-02 4.714014029894634805e-01
1.194087426307526185e-02 3.519189377077532044e-02 4.226411519472658695e-01
-3.167381796504994962e-02 1.821297908842162486e-04 4.367761396873619528e-01
3.716756560898470257e-02 1.243481259371450633e-02 4.416920386587966929e-01
5.257781924298302739e-02 1.613816460821543980e-02 4.591228350045433171e-01
5.259312692972053366e-02 4.507925899213822973e-02 4.863636298851444217e-01
-2.669791245223580509e-02 2.713004049004276962e-03 4.332556760451610756e-01
4.702042707949193739e-02 5.979116378351227029e-02 4.703800638407946155e-01
1.096786968224446740e-02 1.966467804719772977e-02 4.251931774348625126e-01
3.179349482207893818e-02 3.335671057609489176e-02 4.387087250885021716e-01
2.416912340106732240e-02 2.286441939937905454e-02 4.345616816948209005e-01
3.501492544295396747e-02 2.623968362756879530e-02 4.403772232152343702e-01
2.385876245006475840e-02 1.156322024269520500e-02 4.343688251076959217e-01
-3.275638327659916721e-02 2.545294775301053247e-02 4.257505693466425711e-01
-8.287732291549053040e-03 -1.501699513906826905e-02 4.344385136020229576e-01
4.968417053627291469e-02 5.452189514319469299e-02 4.666300842213624844e-01
1.017018341060760625e-02 1.854560328511593512e-02 4.254971773419692904e-01
-3.829138549365600479e-03 2.103987664639947117e-02 4.166563393766479773e-01
9.647453244931318561e-03 -1.980466321804546723e-02 4.370658263601258642e-01
1.971256499850550584e-02 4.474829320275600097e-02 4.300756976633987594e-01
5.719773913879034125e-03 2.051470861808373652e-02 4.208828439138869171e-01
1.638633278984013772e-02 4.079901677976433688e-02 4.276081793923384722e-01
5.503794185683093948e-02 -1.283946989245180262e-02 4.750371375281617903e-01
4.397881035175271042e-02 5.735412351394972297e-02 4.502140463575328710e-01
4.102778092464837156e-02 6.512070391916494061e-02 4.701347014899724397e-01
5.537894130205438942e-02 2.048812759990190427e-02 4.724180646392890925e-01
5.333074231312892599e-02 3.879329638482319903e-02 4.631416847632255362e-01
2.838868918556421150e-02 5.539359223615372523e-03 4.366666918313676926e-01
4.943718357741922614e-02 5.446870708527355720e-02 4.620197619242675247e-01
2.981452774170076370e-02 4.445450976396660148e-02 4.375362559911710192e-01
4.915005150796478151e-02 1.258597685234376026e-02 4.527551274413235127e-01
4.654967181970964818e-02 3.106839074260821926e-02 5.056324351385635962e-01
-2.041346684587279098e-03 4.547358666967648427e-02 4.204941913779631779e-01
-2.354315843060165309e-02 3.936378610359084901e-02 4.242893282734141458e-01
-1.831607376555231467e-02 1.268002461645203246e-03 4.314442678398793807e-01
-3.568746148218319980e-02 2.831914396312370553e-03 4.381203092816133848e-01
3.989389675772599814e-02 5.677059409613208207e-02 4.455578204316534841e-01
4.762836355346442702e-02 4.147742001780624355e-02 5.024141340460176464e-01
4.744240737287227366e-02 -1.728795622489386757e-02 4.590114203588628317e-01
4.978576509681072876e-02 1.466897019963471147e-02 4.535724060350974640e-01
-2.486123551389055400e-02 1.301303027236604647e-02 4.287400229971196630e-01
1.560854605636445396e-02 -1.620376025802780159e-02 4.354889204488882615e-01
4.429284940496712453e-02 -2.008145660290637513e-02 4.540858470521101919e-01
-8.771159730237936686e-03 3.139503045255258307e-02 4.127114235773658990e-01
5.081306236426415962e-02 3.647769439749388998e-02 4.958482940460278154e-01
4.660497762130931532e-02 -1.160096375020363765e-02 4.556069873325232500e-01
-2.922228282476117475e-02 2.898442171291541747e-02 4.222179992808819393e-01
-6.106771341394575357e-03 3.777049562143153932e-02 4.149821146107929293e-01
2.250836006132570649e-02 3.614256493219094452e-02 4.325925522172144322e-01
1.741833464465652667e-02 2.364800362254139421e-02 4.295789044471463591e-01
-2.507274116019539423e-02 1.975462491121627445e-02 4.236568258373283324e-01
8.073496501180412593e-03 4.966487260577094609e-02 4.256793610607681466e-01
4.720757703495045282e-02 4.937141289892000434e-02 4.508955098763026137e-01
1.455488540268598356e-02 3.847288200692360050e-02 4.262445760118354632e-01
1.915343871573024423e-02 2.463586578175664885e-02 4.307612038365362661e-01
4.988447399413768052e-02 2.172654127420266604e-05 4.567153527123506418e-01
-2.399760093655107715e-02 2.027574793844315326e-02 4.228572839479118328e-01
4.995119713198756944e-02 2.503684820542429607e-02 4.533119972358454208e-01
3.052114487710254342e-02 1.033480539106807275e-02 4.372242701835808432e-01
5.034014414278509264e-02 -3.866299325651776069e-03 5.155708855747295205e-01
4.913275063163798778e-02 3.114716914369594983e-02 4.524287092022648560e-01
1.754273700488032453e-02 2.094790355720493880e-02 4.301273827900574664e-01
1.280642343963868043e-02 3.325098878303408417e-02 4.229591365420055094e-01
3.176266647161862106e-02 1.193200160497562019e-03 4.388381727291379431e-01
5.070554203809553295e-02 4.863919082787097892e-02 4.886074875864259703e-01
5.721847715980970389e-02 -4.619947774307418646e-03 4.940794850551900597e-01
3.063264073317084266e-02 -2.269637228711064020e-02 4.414268392802493390e-01
-4.299690193810196299e-03 4.377697171101183060e-02 4.190085241392516591e-01
5.608793298235730668e-02 -6.095019574728128067e-03 4.760709029613068854e-01
5.171285118254893148e-02 2.448379301477752665e-02 4.564155323924329322e-01
2.599881358315978691e-02 9.447502770708708641e-03 4.352403277360163969e-01
4.932735285041298101e-02 5.193254646676739167e-02 4.570502506894655870e-01
-7.321062923033722948e-03 4.698475582970878389e-02 4.259930207839318639e-01
1.048390417584746728e-02 8.693945177035786870e-03 4.303326973643538667e-01
-2.511213318258557342e-02 3.496482544710630136e-02 4.194411383544861538e-01
5.598284057545967196e-02 2.067749365588038811e-03 4.749217750850189823e-01
4.722235485889055007e-02 3.923824738621024127e-02 5.037699611574227854e-01
1.772393723806733531e-02 -4.142229521355875882e-03 4.330513719274056705e-01
5.185847012825731128e-02 4.980613076137725692e-02 4.768426217311768078e-01
3.333230144309275167e-02 3.357120919655245256e-02 4.395001405034869579e-01
5.477382379303556703e-02 2.968325765367341162e-02 4.673331216182778913e-01
2.945667417312182804e-02 -1.859982292375210802e-02 4.397904230122858804e-01
2.741419911682782540e-02 8.812627490523161980e-03 4.358788485693957382e-01
5.220043123157873388e-02 1.331322159109130619e-02 4.587633958340447404e-01
-1.603125847829279388e-03 3.979304473622606586e-02 4.165768249981918192e-01
2.658360041990058195e-02 4.874312665963301261e-02 4.354173828082900100e-01
-1.438207117680044035e-03 4.463654736634763837e-02 4.196322041528061098e-01
4.716071045441567328e-02 5.478060518045217014e-02 4.875712801214794889e-01
1.985818114757554112e-02 -2.158246934602788686e-02 4.369869974202889584e-01
5.378692939216908608e-02 -3.951471423999576571e-03 4.663286445174549266e-01
5.186859913712375814e-02 9.718821463478985109e-04 4.607336299758796883e-01
-2.623663231804754248e-02 3.138234904251182428e-02 4.199775752102408166e-01
5.263296082046476504e-02 4.204764034341794410e-02 4.627822095227001054e-01
5.087557022773105814e-02 1.305111145305887232e-02 4.561096809647807171e-01
4.228857694035531578e-02 -2.091734853109958672e-02 4.517851626451510616e-01
5.110700125370083030e-02 4.287753228935778371e-02 4.572657758746901946e-01
5.051403710023569249e-02 -3.492426031588840782e-03 4.596050021295832733e-01
5.377715104612084546e-02 6.474532261141566561e-03 4.918696067024309615e-01
4.940617911914040039e-02 1.011458842207145492e-02 4.536850836097344741e-01
4.078552746297024745e-02 6.892059458689819493e-03 4.448337569949437076e-01
5.701204571899585322e-02 -7.304008283018712921e-04 4.869125434098569016e-01
5.194472910441927382e-02 5.480342598031999815e-04 5.091585487909944252e-01
-1.270574409867642612e-02 -7.303091000898022378e-03 4.334173119754422543e-01
5.237256584485842914e-02 3.307089106630366898e-02 4.580407076631589081e-01
5.670470893496479953e-02 -2.495305805675549025e-03 4.941295294171337837e-01
-6.832520462212796596e-03 4.891346010033499614e-03 4.285072576923190102e-01
8.958577112173984197e-03 1.200402882240716833e-03 4.302762495722136649e-01
5.045447401391516679e-02 3.325549333711661643e-02 4.543196279703590190e-01
4.024507535474436404e-02 6.486454767407132116e-02 4.524508627151138107e-01
4.395578761154490810e-02 9.704673890028370914e-03 4.470732367063017243e-01
-1.021345702217429235e-02 2.132173274804893132e-02 4.164562519448454792e-01
4.289393307597981486e-02 2.257547581134412493e-02 4.460639085364682122e-01
-1.676559365330229298e-02 2.095640215486287844e-02 4.208518466009043002e-01
4.428707547199317585e-02 -1.258591807033325981e-02 4.519973855416045683e-01
4.124730238854181635e-02 1.744398150820218596e-02 4.446794905638592477e-01
4.774832781307644658e-02 1.184288319848369499e-02 4.507787807249076240e-01
1.703421622524295669e-03 2.479069823235598505e-02 4.153282838108037223e-01
-8.454508494882950059e-03 -5.687190517738463166e-03 4.318127383269298458e-01
5.440558252788064292e-02 2.840550728099799048e-04 4.675587929244094387e-01
1.571491935005560336e-02 5.286867144249743876e-03 4.326410871900921440e-01
5.553751900832131633e-02 7.841537355088114281e-03 4.736879328506253817e-01
1.920316510833219512e-02 5.485375654768975817e-02 4.344400490640002443e-01
4.962068275185621546e-02 5.459030744245467470e-02 4.733510383335576832e-01
5.536715079124763378e-02 -4.047444687852680065e-03 4.717023684791031846e-01
3.767626603734236523e-02 4.114141454137558440e-02 4.425383266256332493e-01
-1.166509272235697128e-02 1.882746280048761336e-02 4.202155588609787773e-01
5.495967539810588109e-02 1.086225126278581032e-02 4.686108251998879481e-01
1.046038635972780517e-02 -1.857610329523117637e-02 4.366184075212353743e-01
5.435135854288321994e-02 4.992064451621633370e-03 4.918470225334737878e-01
-3.861561356527380869e-04 1.221228109542759309e-02 4.257883598556888027e-01
5.178205630348244048e-02 -1.127378746680176083e-02 4.655772791057711801e-01
-1.009019741410921087e-02 -9.965396482128551989e-04 4.305001164845378980e-01
3.995921161824012718e-02 -1.469397675438384974e-02 4.461447513774894902e-01
4.626131705406426320e-02 -8.199917390926588986e-03 4.534797067387968950e-01
5.420419853754664119e-02 2.097491871602953813e-03 4.988768735028747958e-01
5.544681253882140226e-02 -1.205847107126513731e-02 4.762628459276548321e-01
-2.517308519122059968e-02 1.998760616080799690e-03 4.329829007195754587e-01
3.492093376783425573e-02 5.284420435355005694e-04 4.408362149212239900e-01
2.272826481734452689e-02 6.058895059328119753e-02 4.426364508666296160e-01
4.677911379408444814e-02 3.276006522266162319e-02 5.050684241508062167e-01
1.149933200468912335e-02 3.231490859694087243e-03 4.311161243171977575e-01
5.163613637056257283e-02 4.806271719172855450e-02 4.847677546423718731e-01
5.354866470725216931e-02 3.566828058030668824e-02 4.874583604671769987e-01
3.149379510176524011e-02 1.177468032388483306e-02 4.378028800076104177e-01
4.761096112666829416e-02 1.138725005321520461e-02 5.059674285087724099e-01
4.007740569909497286e-02 6.559766475542848363e-02 4.538953412018277844e-01
-2.240314295724090896e-02 3.591392414202397750e-04 4.326923702746432454e-01
1.218381553437392420e-02 -3.833436499521572071e-03 4.318877810086260705e-01
4.145864327826428997e-02 3.326988354659585201e-02 4.451035138435945893e-01
5.577321027021869826e-02 7.969244002336041410e-04 4.734213759302809410e-01
4.813012394718555603e-02 -1.330283653684119147e-02 4.592340168018199109e-01
4.070215438296589938e-02 -6.767756138927154275e-03 4.463567363871576155e-01
5.256378817257176261e-02 1.443158702047948883e-02 4.594622328357141350e-01
-1.636290476448189202e-02 3.055291986307938010e-02 4.157231941072883630e-01
1.493874000687816367e-02 -4.087789323211870121e-03 4.323825287210732449e-01
5.501097084340470650e-02 1.919499641553506358e-02 4.769443209071095313e-01
5.643254696947979515e-02 -3.196717363495080351e-03 5.014743466882093381e-01
5.767482474841797296e-02 -5.473744441556362660e-03 4.884130489630523209e-01
4.785506627448741362e-02 -5.218428241898131516e-03 4.549772429843412791e-01
-1.496005648415020366e-02 7.997459489332536461e-03 4.270801233370568606e-01
4.651702706342996513e-02 -8.175545003001619127e-03 4.538852400889396010e-01
5.344403777002240674e-02 -1.506286236060068971e-03 4.650032972875869364e-01
4.670939803395252748e-02 -1.087860196928967273e-02 4.556446166523264729e-01
4.804311608331907069e-02 2.273600804090296357e-02 5.017134130643781109e-01
1.511600419033687359e-02 1.925261131127814149e-02 4.287425877078834824e-01
-1.314001319624126616e-03 -1.270759469935361582e-02 4.330086736092162436e-01
-5.503569437065086202e-03 -7.077976610410728620e-03 4.317362816818038906e-01
-1.487413309094020968e-02 2.166556728732969145e-02 4.191691486891286345e-01
2.022457009628569544e-02 1.241571783934136176e-02 4.325335906823106202e-01
4.931593983573382550e-02 1.415498916840950486e-02 4.981983244798772192e-01
5.454199744639732367e-02 1.710399826713338012e-02 4.663614387874094325e-01
4.484423360731035896e-02 -1.002849245910658604e-02 4.523389217237208659e-01
4.982031560826815503e-02 4.866202316176734127e-03 4.553088715465664071e-01
4.875604384568715116e-02 4.823666058496732523e-02 4.968726648634513854e-01
4.510671268877409351e-02 6.384342010686318292e-02 4.641322237184843380e-01
5.291864765638523010e-02 1.546753236580847637e-02 4.860980064867351236e-01
5.588094127508357739e-02 -5.440615872966183056e-03 4.747720192529815142e-01
5.260696323321203960e-02 1.950618538106077549e-02 4.865296243375439311e-01
4.100324963249627613e-02 1.432348101103629937e-02 4.444953962891420862e-01
-9.382571509610419108e-03 1.729457148518610127e-02 4.202409892795623270e-01
5.346454083485401715e-02 4.309517342985461769e-02 4.781421948046704617e-01
3.546739279891703012e-02 2.298241493714038748e-03 4.412252266848313287e-01
-2.902799447767665658e-02 1.616746449111565107e-02 4.283707406061401102e-01
1.234973161373729457e-02 -1.158539512414199710e-03 4.315262260577624187e-01
4.525344337313059323e-02 5.324766369005168309e-02 4.921184052327338687e-01
8.304089003004468811e-03 -1.863349365943408817e-02 4.369319321612456508e-01
5.729705135280996342e-02 -3.519539892423992691e-03 4.922102186165822624e-01
2.396291628891199926e-02 -6.214432628745250944e-03 4.350720874430774043e-01
-5.433790501492663343e-03 -6.142371059052360860e-03 4.313525565110353788e-01
3.846004105455598510e-02 -1.174752642544794716e-02 4.443445204135957893e-01
-2.086174786785455551e-02 2.189277981920148379e-03 4.313692110823902359e-01
5.590986671848358763e-02 -1.642198447553440367e-03 4.975966671411510833e-01
5.322398751796528910e-02 1.485497224881755091e-02 4.610090630345480278e-01
7.412069856185032890e-03 -2.101173330256805513e-02 4.376271319448812314e-01
1.409432144040603276e-02 1.256105089372400868e-02 4.300367998876513109e-01
8.583197112882337901e-03 4.880303570943649721e-02 4.255297885223626175e-01
5.113871057579476298e-02 5.164538830227732857e-02 4.701799389923724815e-01
1.170892749040417999e-02 3.391887853035691763e-02 4.220040352172777509e-01
4.636259446648777205e-02 5.555935111100603063e-02 4.863033890118085845e-01
5.157601008922264169e-02 -1.466571773971277540e-03 5.120507187779586022e-01
4.070954745112972950e-02 4.037720986108543630e-02 4.447776175896271389e-01
-1.836517980977690062e-02 2.229105477727754553e-02 4.205819968306406809e-01
4.846584195211574991e-02 1.481151735919464599e-02 5.011883829975967153e-01
3.026027217675663836e-02 1.316296251418930773e-02 4.371874094157724433e-01
-1.085437303274458185e-02 4.403781823251647076e-02 4.230138747400705723e-01
4.397956786262206125e-02 3.612179212542276224e-02 4.474985289046830017e-01
5.357126104282354528e-02 4.303486297387654202e-02 4.798532976446094334e-01
4.101888387514151385e-02 1.152340273025049405e-02 4.445950127276641073e-01
3.810596303274951021e-03 -1.347983395813635854e-02 4.340521166546691956e-01
-6.992427372024804903e-03 2.589639200180186146e-02 4.130033941235379813e-01
4.822160711342136225e-02 1.708609957706442098e-02 5.009927043083356457e-01
2.087803151791053913e-02 3.705543788643750336e-02 4.310457699737463844e-01
5.750358189375154999e-02 -4.808312150018544812e-03 4.875988716134879164e-01
1.834139269719738466e-02 3.938057578127858102e-03 4.334002801560202789e-01
2.952959733867728184e-02 -1.998522115254455084e-02 4.402150588888686378e-01
2.959854168711684858e-02 6.119875687711001655e-02 4.437212310779752866e-01
1.260547789246833743e-02 -1.970762024126089182e-02 4.366145844912759921e-01
7.360367146887864323e-03 -1.603480000563465430e-02 4.363645091896491413e-01
5.057028573048082121e-02 1.920026293654120489e-02 4.545919949301127083e-01
1.922601936869874559e-03 -9.978799689469672329e-03 4.317643540841613614e-01
1.716711496061013552e-03 -8.372545518656203389e-03 4.314361281820001670e-01
3.239192787844730886e-02 6.359838968455669428e-02 4.452725033596117155e-01
3.803657965181381911e-02 5.051292326409236727e-02 4.431105263445905829e-01
4.493856007973696248e-02 6.301104014724251412e-02 4.586096380123773630e-01
4.209138530297572983e-02 6.568696927961455156e-02 4.607645332912398972e-01
-1.650225589507122587e-02 1.185598403046550856e-02 4.258690247405210738e-01
5.401356389213219505e-02 -7.268967982155045103e-03 4.686306659845532185e-01
5.114683060377352500e-04 8.267893450212402198e-03 4.281616676010627232e-01
3.529519537799134798e-02 6.294722572864031029e-02 4.460943182088171755e-01
1.325038543677178188e-02 -1.660606155545807719e-02 4.356284578674187169e-01
4.887951044492483410e-02 5.103495272383579834e-02 4.545582481853744361e-01
5.397034593932080807e-03 3.908227045142244338e-02 4.191758563336973609e-01
4.837037190248000967e-02 4.202223880142327665e-03 4.527277638768246182e-01
4.946702248978089578e-02 2.714520138003744323e-02 4.523845629076444497e-01
4.217933487540158344e-02 5.122116217512671932e-02 5.011314043602893564e-01
4.536404005748358864e-02 -3.430071094904183285e-03 4.508627427923940778e-01
5.171578079383931659e-02 4.183811395464437366e-02 4.928967640800115957e-01
2.790368158219774623e-03 -1.444164060786378920e-02 4.345500027864631631e-01
5.265740741902772554e-02 2.471782570866440723e-02 4.582757120621949176e-01
3.386719436556196415e-03 -1.572019729105589292e-02 4.356058346350314414e-01
5.700501449647658175e-02 -6.343139358356486221e-03 4.818923465586478772e-01
5.130441116843339339e-02 -3.781421042529360763e-03 5.144406761922931670e-01
3.584455498639479293e-02 2.598972836169826696e-03 4.415371286310158516e-01
8.992352093758872525e-03 4.100049384884974640e-02 4.230552326045318168e-01
2.305603488994719882e-02 5.077679285124525599e-02 4.333921377375041795e-01
-1.200991873104616248e-02 3.224346363842055252e-02 4.137664948737866943e-01
5.369925548270302468e-02 1.392685181269137304e-02 4.836617814793272574e-01
-2.958054242976223755e-02 3.341354712201049376e-02 4.231511994072538752e-01
-3.149225236356953395e-02 2.096622058535382513e-02 4.269315778320736943e-01
5.525218152929942117e-02 1.138631102798393080e-02 4.717269543317686997e-01
4.669303731572579941e-02 5.334738628127445870e-02 4.907257654609903930e-01
5.357766487666599381e-02 4.301987024051987657e-02 4.799040245699509599e-01
5.253399495512910133e-02 -2.103008036074899972e-02 4.701860353246286039e-01
5.158228556688609912e-02 5.039096455359739352e-02 4.781272732429902028e-01
5.636716772148534643e-02 -5.625823042185834101e-03 5.091986059109778751e-01
5.375072366337594471e-02 3.253138535588048080e-02 4.618898976201223916e-01
3.524035509385783221e-02 -7.602531803045880707e-03 4.414794443558050507e-01
5.227323540378085720e-02 -1.176515924456732545e-02 4.665675905216283281e-01
1.313975527648959026e-03 2.753046970914791586e-02 4.143770340162501453e-01
-1.163583672251680690e-02 1.492199445439069787e-03 4.300553379779423202e-01
4.826758562068025199e-02 5.757121045892966971e-02 4.682859879389766333e-01
5.510943037885951412e-02 3.165721084045632766e-02 4.734803146763988391e-01
1.803150204185861166e-02 7.181004307733593328e-03 4.333232731477597577e-01
-2.446345258949769383e-02 2.715416380632457508e-02 4.204064055495504992e-01
-2.624108547076603199e-03 3.765164759969523434e-02 4.146241263365549878e-01
5.513505904594979273e-02 2.616192959250117009e-02 4.695606872427987022e-01
-9.708895287787015077e-03 2.794130304586811900e-02 4.134320136649522470e-01
5.156409475485674437e-02 -6.613606276508554073e-03 4.633466298094023328e-01
3.272175669354638120e-03 2.375642641171471156e-02 4.167719383528156740e-01
5.096148346137441276e-02 -1.169412823959774077e-02 4.642760603169446276e-01
3.658768993828446364e-02 -5.585277036901226469e-03 4.422044784484169822e-01
5.185423054526312053e-02 4.882434135771671069e-02 4.670698798089750747e-01
4.422799507244645073e-02 -1.936035987555853252e-02 4.536150499608290199e-01
3.956481590499145995e-02 6.039583363541623645e-02 4.465919949341135564e-01
3.011627614840330786e-02 -4.775100389170693072e-03 4.380253833364320948e-01
-7.114037345147472373e-03 6.742733574335802761e-03 4.272437817340820621e-01
4.740266644698904602e-02 -1.637504976936724269e-02 4.585032611774849665e-01
4.767483668271185054e-02 -1.984195444074717679e-02 4.602070094468921901e-01
2.070869973075357279e-02 -7.035327885222836947e-04 4.339332410805918916e-01
5.311044375928263700e-02 4.318418835712430764e-02 4.688925198091113411e-01
4.243754229921724991e-02 2.698281588172048856e-02 4.458125620526218191e-01
5.411643816161910980e-02 8.413497740963496105e-03 4.656745533329263997e-01
-1.571965468576573197e-02 2.908736047290893384e-02 4.154485084083033852e-01
-1.522085883778292147e-02 1.865858750961812973e-02 4.217731742972354869e-01
5.403112037842406484e-02 3.128838291724422155e-02 4.626323681063665427e-01
1.503057511402611755e-02 -2.120004289416580270e-02 4.368104396491536145e-01
2.193563363980919820e-02 2.961662130422968234e-02 4.333034716551006915e-01
1.982134613146308705e-02 4.724424654813553365e-02 4.307398955469506352e-01
3.044073908389033356e-02 2.671723917611503948e-02 4.378871390549379794e-01
5.079736611147523534e-02 5.559621203044156842e-03 5.045671605512119795e-01
