5.354999338192716063e-02 1.153781294200824023e-02 4.624099542364445425e-01
-2.634936718357148294e-02 3.735484274425226320e-02 4.225093303938106115e-01
3.865200441198014814e-02 1.428653370070430070e-02 4.425894649989975949e-01
5.381403947331194620e-02 3.764132923691102667e-02 4.652801321266017975e-01
5.673341065246867085e-03 -2.099278746720817379e-02 4.375905004789195085e-01
5.124603959397720787e-02 4.585376507017599468e-02 4.593246840673605447e-01
5.188686888018564231e-02 1.536147769402118959e-02 4.574865719972102673e-01
-4.962498953742658717e-03 3.079747331210201319e-02 4.110365464117047840e-01
4.376915674969525383e-02 1.448198309198319572e-02 4.465501225833626853e-01
-1.164580516125855378e-02 -8.420517871761262763e-03 4.336012382007333188e-01
5.055736491108261954e-02 -2.400180057383648636e-03 4.591120036136066007e-01
3.066611904177422160e-02 -1.753783624256992010e-02 4.400080979113972779e-01
5.585174323805192770e-02 5.546113266735363916e-03 4.786763972127676681e-01
5.152769687097955714e-02 1.960777904405238206e-02 4.562328751272803906e-01
4.114415665383652082e-02 2.696685158091072232e-02 4.445261587066594022e-01
-1.200894532997386424e-02 -8.136888216502435878e-03 4.335625274851726552e-01
5.302402038825333036e-02 3.238552981518737911e-02 4.884779209020807533e-01
2.537764872313133177e-02 5.958383268253783505e-02 4.391650480436550263e-01
3.810155123218701007e-02 6.567105767785365311e-02 4.689923309720486211e-01
-4.165733252305630838e-03 2.578068634675695359e-02 4.127507465209567794e-01
5.497502212310397679e-02 1.200642852394482110e-02 4.686510154352951929e-01
4.002097452240204606e-02 4.343924972093438780e-02 4.439300500781152570e-01
5.258009253852230502e-02 4.655990220733971507e-02 4.763739850346717652e-01
-3.305626540073837438e-02 2.873982087241985089e-02 4.240889959973284107e-01
3.452480529002002752e-02 6.536488766439955966e-02 4.473207160773458035e-01
5.543061075070974952e-02 1.127066874306213370e-02 4.735575481884580773e-01
5.408274681046255916e-02 1.217750405897531814e-03 5.010342167352817011e-01
3.197375952251783199e-02 -2.032165752863943770e-02 4.415412465925776520e-01
-1.868698750028628675e-02 3.020973199157539479e-02 4.164633697946795166e-01
3.559814442504233289e-02 6.617175615888315487e-02 4.613946041657499553e-01
3.165576008655988233e-02 4.285605769237749857e-02 4.384878205995231815e-01
2.529105270573245648e-02 2.369150710836546991e-02 4.349730189494850907e-01
7.853338195768352556e-03 3.760532280184287340e-02 4.199682702691387992e-01
4.916472295683483457e-02 -1.070839286872882039e-02 4.604497836687740930e-01
5.297693385390280646e-02 3.050868773470310005e-02 4.585782444472394359e-01
4.864657874603877524e-02 4.947351349345366356e-02 4.524958150031989645e-01
4.453806431006600980e-02 5.097078961363817051e-02 5.001738772321149273e-01
1.563819049595094324e-02 2.443604877562581199e-02 4.271614219089870379e-01
3.219906552618235357e-02 -1.667039023266359346e-02 4.407783508996607758e-01
3.189831201608530481e-02 2.290669113018374212e-02 4.379859852458113934e-01
2.235236878864578156e-03 -5.217397452622650651e-03 4.307725614548174042e-01
5.412039627031510480e-02 2.475300242043959598e-02 4.635436014423106044e-01
5.257712375658092629e-02 -8.667585708754596899e-03 4.659470019314889133e-01
4.996376439184726376e-02 1.432248937206110836e-02 4.957795841667033132e-01
5.372612168433892055e-02 1.103089081527951383e-02 4.630063893009939702e-01
3.568099055773234218e-02 4.064454439875457570e-02 4.410603964976589353e-01
4.928547778984576633e-02 2.543487330542442901e-02 4.975400776048400919e-01
5.427307538853524266e-02 3.813260937052438682e-02 4.747566368664755676e-01
2.541311673379435462e-02 5.270763570824330002e-02 4.357072367172693528e-01
2.307383875280873478e-02 -2.316421353915262479e-02 4.380615831008610184e-01
4.729112322187261491e-02 4.934390176607068856e-02 4.990413419861461919e-01
5.511463165096245481e-02 6.398885869234979124e-03 4.845017888061035061e-01
-2.626385882308494846e-02 1.226616200497906289e-02 4.299090809767316390e-01
-1.704571806336050571e-02 -6.514298474842861175e-04 4.318381205138195900e-01
3.380113271304507894e-02 2.671494820256436076e-03 4.399740493236612981e-01
-1.232649771714581718e-02 3.424468046620053260e-03 4.295672781409680119e-01
5.536980030005692055e-02 -4.007780600890624434e-03 4.716188204880026325e-01
5.062827920049062930e-02 5.072350803805715513e-02 4.836153319287755936e-01
2.194855240641552588e-02 -2.059198550958500976e-02 4.373205982033103734e-01
4.791820601753113418e-02 1.478796808859805280e-02 4.508395189327790709e-01
-2.785760482716634432e-03 -6.061861034670421033e-04 4.300252296622910642e-01
4.019859340067249293e-02 -1.078395578138719411e-02 4.459554757380583268e-01
4.871279780466683529e-02 5.393817711500803469e-02 4.563031781484372940e-01
4.651229572251483479e-02 -1.324159568057006742e-02 4.556983502268586173e-01
-1.733673357292543626e-02 2.955883264855676054e-02 4.158062580142149467e-01
2.707396097859605250e-02 1.142360244848679082e-02 4.353096923548602781e-01
5.174705557269557860e-02 3.443062017703758804e-02 4.925423038378579088e-01
5.372472758564431766e-02 1.052289335613975849e-02 4.631011132189581381e-01
-7.457394080536397865e-03 6.370400020322938665e-03 4.272513826241822743e-01
2.435502305583730348e-02 2.541404489325933477e-02 4.343923514733890601e-01
5.510956158756366574e-02 9.360864498846840562e-03 4.797869910264063176e-01
2.372267955582927842e-02 3.751066031588844857e-02 4.330274054336374912e-01
3.009579245301872291e-02 2.360763362423332870e-04 4.377911103511653024e-01
2.951653254714863006e-02 3.076594546982532735e-02 4.374481391324322455e-01
5.394186124440726593e-02 2.061611823174233291e-03 4.998869841763454724e-01
1.489320527261959147e-02 -8.761674008462868105e-03 4.330456644024517909e-01
5.475718811985358370e-02 7.427345173448381653e-03 4.849498323019807988e-01
3.884998037424897133e-02 3.158610202466275579e-02 4.427247797578399702e-01
8.857792266802538145e-03 3.407165073981058279e-02 4.186191403230637986e-01
5.203891304041226989e-02 3.002706787075373057e-02 4.568081018177619912e-01
3.326405850424567212e-02 5.112358471925321744e-03 4.393172511285287074e-01
2.934646057316456919e-02 1.929085411607006986e-02 4.366722813722162533e-01
5.134387066343552852e-02 4.191394043152473631e-02 4.936719331352136808e-01
9.234369091285714315e-03 1.680454533530206188e-03 4.301675420137988093e-01
2.360872275002456541e-02 3.359852749755419532e-02 4.338208267336577939e-01
4.609087482873984454e-02 -1.740879326260190083e-02 4.556306858102556756e-01
3.502262344075904310e-02 -4.326432720645167519e-03 4.409716816960810859e-01
-7.746121347233822334e-04 3.753595292319775178e-02 4.146589498738176283e-01
1.738292204835806265e-02 3.363089588471324803e-02 4.276226314601271339e-01
4.397522760253514545e-02 -1.642215312119354315e-02 4.519609730875668863e-01
5.295763729682204796e-02 1.312500582650789893e-03 4.637144705422907021e-01
4.003963069405051811e-02 6.579630017520148033e-02 4.658150969696731036e-01
5.190630935361744552e-02 1.851241776589449342e-02 4.888279122193429638e-01
4.739100264139771423e-02 -1.715892624609757777e-02 4.587353779901296447e-01
-2.440206342538686277e-02 2.639196130807697216e-02 4.202894911741640871e-01
-1.685389948340847502e-02 2.190328673406473012e-03 4.307008771802761093e-01
5.607175297222225657e-02 3.817062541267114868e-03 4.760340563537875380e-01
2.391931557520345433e-02 5.841852579381054400e-02 4.383029346305172824e-01
5.075139061281631198e-02 1.553928414681257988e-02 4.551571793236413033e-01
3.880922549837368535e-02 -1.456851596570020967e-02 4.450853800709780317e-01
5.185402530475614891e-02 2.555719290622272127e-02 4.565175423382541453e-01
3.439024926778755376e-02 -2.373584563594925700e-02 4.446827677011697677e-01
-3.417663956322916294e-03 7.318441778335514278e-04 4.298679854025441727e-01
-1.848369375869444303e-02 3.718576935681368323e-02 4.174227743813205826e-01
7.336690292480233487e-03 3.157770794199712266e-02 4.166261018212437661e-01
1.082772314824370294e-02 5.338095769319362721e-02 4.302091325441144143e-01
2.382297611208189850e-02 2.322426677098012385e-02 4.340095096513965078e-01
-1.537002756298846279e-02 6.906418415689023239e-04 4.310110471836448021e-01
4.952281214709559898e-02 5.420004824474013161e-02 4.617113125796025730e-01
4.708104622343309981e-02 5.487787764761029724e-02 4.871522357917851265e-01
5.361157347305597898e-02 3.377426580951568141e-02 4.866405324608419347e-01
5.637712678416888917e-02 7.746868372761422060e-04 4.872612337738509436e-01
3.080915733900302551e-04 4.342482262634148743e-02 4.186531845061214896e-01
5.002495176575426361e-02 2.302584473529472459e-02 4.943826734825016445e-01
5.421225434665340875e-02 -9.849465097345371303e-03 4.708969510537974745e-01
3.272120781318164223e-02 1.682088001402219646e-02 4.383606906530811420e-01
9.057282466039618188e-04 2.143820912419043198e-02 4.173885583359286389e-01
3.964521539396923672e-02 1.105825637686220012e-02 4.434645455936526703e-01
4.904443707828214094e-02 6.793566122478215952e-03 5.068251160846385384e-01
4.579441651651283349e-03 2.017985785635384791e-02 4.197423563155611714e-01
2.003327343837235999e-02 3.976662944968988207e-03 4.336401077337654342e-01
-2.633573832075546475e-02 1.822786977380529833e-02 4.250120665786361052e-01
4.491631422824503977e-02 5.096529100566416642e-02 4.996913012834899304e-01
5.360304197974833512e-02 1.552990774274696367e-02 4.616524796467013081e-01
-2.615122081887411888e-04 4.168060159202031933e-02 4.177830983817111821e-01
7.446274644202763087e-04 -1.252179615378103301e-02 4.330223531102641576e-01
5.402662720974116956e-02 3.479443101636126023e-02 4.640652462731581496e-01
-2.791289418097001387e-02 3.584388661190168746e-02 4.218778539940862271e-01
-1.228019878813631921e-02 -1.066887215336149650e-02 4.344048422298549261e-01
-4.019706041014897702e-02 2.231385852746269223e-03 4.409973767901750885e-01
4.985268856388713754e-02 5.280048033378536426e-02 4.607740431689221206e-01
2.969524752540287499e-02 8.878263824035472623e-03 4.366620580656438433e-01
3.756250616988693336e-02 -2.233232694803157642e-02 4.464608363577997063e-01
1.370994858057197202e-02 -1.046185605670251276e-02 4.332211381715909693e-01
-4.171879077864197594e-03 3.691339701376968735e-02 4.132822382525463412e-01
-3.105333000262964008e-02 2.074940822526554970e-02 4.264623045620820618e-01
5.508410204754085604e-02 8.567400397708483523e-03 4.697867297667435715e-01
4.248549942986822037e-02 1.109531222465942255e-02 4.455540937834854831e-01
1.924749637193430563e-02 5.612071687850728879e-02 4.369833753109087504e-01
2.638875949794953352e-04 4.080975536347404564e-02 4.173968340951041966e-01
1.835959089883024836e-02 3.507241363506806431e-02 4.284440925124600175e-01
3.181335867109695570e-02 4.016101899692740146e-02 4.385816734548075302e-01
3.317219238190637770e-02 4.011266524989460375e-02 4.394777854095435199e-01
3.014658822033957838e-02 4.947185566729966899e-02 4.377041843656295228e-01
8.111510282870359675e-03 4.658785074324030273e-02 4.244293570356004186e-01
-3.898077040770787580e-03 2.736998746463239346e-02 4.125085463721959167e-01
2.085919655301373896e-02 5.023979450991769569e-02 4.315634821385301301e-01
3.957180945148008194e-02 -1.571479047102265769e-02 4.460147244072352746e-01
5.580224895459444390e-02 -5.924664682664559923e-03 5.111008261488545479e-01
5.096212279258371253e-02 5.008342380903743271e-03 5.048315763272080980e-01
5.532334673009350889e-02 2.064169772270964612e-02 4.732153544112243648e-01
5.245284840598771897e-02 4.712419726898531280e-02 4.743801807364452783e-01
2.841429058986845099e-02 -5.016398022332026890e-03 4.369134459603063458e-01
-4.615127207696578804e-02 -7.301098401648771757e-04 4.451897477212532483e-01
1.857727502178632695e-02 1.559132414078276060e-02 4.312032421821383465e-01
5.085534386462830375e-02 -1.624257068661488779e-02 4.655802410151341220e-01
6.769160046676870462e-03 1.047564358177422578e-02 4.282099329780731933e-01
5.223187860936690657e-02 1.043309799325239581e-02 4.592836036255318333e-01
2.758864870995159091e-02 6.327961752810085105e-02 4.480778443604858108e-01
2.172261545527332319e-02 6.000640446906646552e-02 4.413651183978856696e-01
-7.021990584464983011e-03 7.557737402570327036e-03 4.268138777601517275e-01
4.807911188385331075e-02 4.028493170916223887e-02 5.015080900494328642e-01
2.688507473409797524e-02 5.754249123201523458e-02 4.386855673498809560e-01
4.856213358642347266e-02 5.201711502037953405e-02 4.541748548577147493e-01
7.024111808426993300e-03 -1.914201905551126889e-02 4.371797626749289178e-01
3.378449781472758068e-02 5.711705772715276741e-02 4.415836319852092240e-01
5.527954148887730818e-02 2.780816728549511188e-02 4.776312526211703435e-01
4.982147289226233206e-02 2.488162013257601973e-02 4.528803184572954277e-01
5.225228596495710975e-02 1.907113106265568084e-02 4.577561282384980390e-01
2.311637762616294833e-02 -1.764043687798061075e-02 4.372635166116658478e-01
4.174754483052889320e-02 3.834338746628797312e-02 4.452617473347453836e-01
-4.114115327113555820e-02 -1.202068483721968877e-03 4.407002594169517340e-01
5.003806860772784526e-02 -2.440894844947840737e-03 4.580024401434256709e-01
4.376280193056440726e-02 6.191806459522233158e-02 4.534471383450971449e-01
3.679845098227008809e-02 -1.128293783517338861e-02 4.427609228324738688e-01
4.345646236171579052e-02 5.624799717838986635e-02 4.484057555322574218e-01
5.483613921286403792e-02 3.509181103278316560e-02 4.772606057341473029e-01
8.296839553219477470e-03 4.851861993473895879e-02 4.248316206295859043e-01
4.456351586887197236e-02 5.523097614782870868e-02 4.495173966496291973e-01
4.063129566517914570e-03 4.992072231149355388e-02 4.235606300346604347e-01
3.925217502381583151e-02 4.208095226560475133e-02 4.434169328086203232e-01
4.915989029546934813e-02 3.716548665635773657e-02 4.993712301061224990e-01
4.214861060297405565e-02 5.381742412629093864e-02 4.465076471108108125e-01
1.668276722896717273e-02 1.759695458453207698e-02 4.299845998540882674e-01
5.074458590112890244e-02 5.228056386691975338e-02 4.690109440387623674e-01
4.652252616667389151e-02 2.697118787976848439e-02 5.057225752775124095e-01
3.378601431510139252e-02 4.801284128986214872e-02 4.398397113784660584e-01
4.272950229941852029e-02 1.428669563643287024e-02 4.456407040690144039e-01
4.890684651627520002e-02 3.726483465401859985e-02 4.998956980963934482e-01
-2.800578003083476278e-02 3.332779671299230390e-02 4.211462060497283555e-01
4.891163469815589665e-02 5.268215375693228314e-02 4.556925794311044720e-01
4.949306383889932881e-02 5.508007629194378724e-02 4.687852134103685509e-01
5.202322869198328786e-02 -9.576105417292752123e-03 4.653639835815834846e-01
1.058139177051442559e-02 -8.537656430252208231e-03 4.323658539325314631e-01
5.172842164824815320e-02 5.006730557504883439e-02 4.722424071367339882e-01
1.773984109229502504e-02 5.007845518584826822e-02 4.300045647163297513e-01
4.929830410822697712e-02 2.558955310410692546e-02 4.975379879958011786e-01
1.137276597470890036e-02 1.201215411265417173e-03 4.308826259896263999e-01
4.914889652613477905e-02 1.807442841458517524e-02 4.518198114158851197e-01
4.576369460029672959e-02 5.674184092654737527e-02 4.523067453316408359e-01
4.264487097900097196e-02 -6.841781779438950786e-03 4.484024760309378577e-01
3.773793354143006873e-02 3.350594651607435165e-02 4.420587255570317398e-01
4.832588414859722431e-02 -1.880783333777858932e-02 4.611788597762290776e-01
3.843664199777923479e-02 4.634750288384591188e-02 4.427258749725115905e-01
5.252764281720365136e-02 4.276078309270484740e-02 4.895279017566070423e-01
1.640701576442079104e-02 2.484106511805551920e-02 4.279320368152650933e-01
2.108802494814365595e-03 2.229975226498881469e-02 4.168438756056884187e-01
3.214023466657393857e-02 5.005343803865135166e-02 4.390737623469569972e-01
3.243010823085250294e-03 3.020201928298723183e-03 4.297663001619495549e-01
-1.212399003759605590e-02 1.916302042093036284e-02 4.197996151321227720e-01
-2.194030002884113373e-02 1.929491312372793449e-02 4.224753603432968574e-01
4.453166505791439356e-02 6.420653312895632792e-02 4.622768583707299039e-01
1.767880189118616052e-03 2.191166858183016611e-02 4.170262710414209817e-01
5.546284515952041444e-02 1.774983717677158096e-03 4.924642436546652902e-01
3.593241516218729364e-02 3.985672196468021539e-03 4.413926309441398299e-01
1.257915364310995682e-02 3.440875071389582970e-03 4.313363362879248375e-01
4.925107087644718662e-02 5.352559656677984001e-02 4.834301658323083561e-01
5.288066696218976515e-02 -1.691776681936326548e-02 4.698618965623077570e-01
1.732739557067165814e-02 -2.118733035493577076e-03 4.326969153538774981e-01
3.519500693791636353e-02 1.924208426384607304e-02 4.399707890381063247e-01
5.311291220401569840e-02 5.368199201185214903e-03 4.965660182699764835e-01
-8.363093443385923725e-03 2.790940935186776023e-02 4.126481039376256321e-01
5.473361526746563233e-02 -1.435392227082904308e-03 4.684890497837642109e-01
-2.611289758439006709e-02 1.364377524176859334e-02 4.288575149328768821e-01
4.718538721908561301e-02 4.781560162342007175e-02 4.503773576827049263e-01
-3.134230187264936199e-03 -1.202297264495278198e-02 4.326400237019485950e-01
2.474851346444727901e-02 3.532864090297788834e-02 4.345039515505170202e-01
1.518321947951185337e-02 1.983592870131533487e-02 4.281280164431127133e-01
5.087909064101416717e-03 1.336402466901618659e-02 4.263983101443467594e-01
5.481935168700519112e-02 1.382069838089332314e-02 4.784429233616184218e-01
2.543560913233954349e-02 3.108477031200528734e-02 4.354723018257071754e-01
2.150263651904737788e-04 3.206315573621546042e-03 4.294190162054936644e-01
-2.234004188494024407e-02 2.898294422599210010e-02 4.181716718883620731e-01
2.298182795077485102e-02 2.403766943049637922e-02 4.333381940443241098e-01
3.414715178522097216e-02 -2.822694801153668998e-02 4.466147137553816981e-01
5.602179035201531460e-02 -1.798508705511591300e-03 4.967861645389266001e-01
1.883616387688975130e-02 5.426754197599868539e-03 4.333405537660870444e-01
1.027840333266451245e-03 3.414854617833733980e-02 4.131819741829506620e-01
-1.451837356025504483e-02 2.702187404719797945e-02 4.145819168114764919e-01
8.629819372003133537e-03 3.069568443840207592e-02 4.177895004432582438e-01
1.974519781944152064e-02 3.345676201748231521e-02 4.301862994610983204e-01
5.747606523645431426e-02 -1.207723009586476187e-02 4.839577162968149993e-01
-2.956834644117301014e-02 3.777828901766091922e-04 4.354407674328896194e-01
1.768935150084187044e-02 2.629172344738060427e-02 4.290911916927314662e-01
4.814063579147215971e-02 5.580003000111721789e-02 4.797073077906906513e-01
3.701239587240169951e-03 4.073999282948694706e-02 4.180465334855194559e-01
5.485043753490335267e-02 1.274991126875901944e-02 4.785781677547266688e-01
4.318413993256374483e-02 6.105194664925337605e-02 4.789185839559221836e-01
5.529939868937903957e-02 6.940539905234606802e-03 4.822878452337867050e-01
-9.343238876196426415e-03 2.530388505230633106e-02 4.130938265197039438e-01
3.595517637295031488e-02 4.088757378450453422e-02 4.412432952636488603e-01
1.752138343529081529e-02 -2.725023351154935020e-03 4.327860467971400560e-01
4.141630802328550263e-04 2.051161020083945227e-02 4.186175264551873498e-01
2.821601810134592367e-02 4.523595145470991896e-02 4.360714058855837405e-01
4.620126716062884775e-02 5.493831782213823289e-02 4.875421958526066080e-01
5.773236850967642525e-02 -1.147170022525563840e-02 5.114162402029756027e-01
-2.807596137735605610e-02 3.097852689945943677e-02 4.209936369765526210e-01
4.787465915685694406e-02 4.643025112372396734e-02 5.002241890852383577e-01
3.493597324223795403e-02 2.385411222469640408e-02 4.398971680346779878e-01
5.370559789190226807e-02 -1.339475211406490271e-02 4.709186239677385921e-01
-1.218183057580911680e-02 4.082762175542524463e-02 4.180866841037281789e-01
2.391211874811197124e-02 4.574735183461500765e-02 4.327995281174912279e-01
4.932452066484339231e-02 3.825613332655158905e-02 4.527750636136808615e-01
2.152614305416681098e-02 3.839982171906684144e-02 4.310245747005789219e-01
4.364666306087843992e-03 4.083509827891437100e-02 4.186063293756516757e-01
4.206363474251592627e-02 -1.446180712105198107e-02 4.489716296959628261e-01
2.085452296885999257e-02 1.890642485124092650e-02 4.323602856561986618e-01
3.368975483032150831e-02 -2.932798960061277355e-02 4.467731314559424405e-01
2.606284877929834418e-02 6.270256574529038673e-02 4.489887033989817811e-01
-2.174061124006507889e-02 1.831403070281809736e-02 4.231541295565803273e-01
2.417498133478663755e-02 5.471100148297847188e-02 4.363281273681483552e-01
5.068623634002056982e-02 4.161442776436935498e-02 4.956281540340627956e-01
7.346113468789434878e-05 5.187916109398313380e-02 4.256126590384111119e-01
5.480422178422204166e-02 1.152495700828172487e-02 4.796339972262391727e-01
4.986812840296454830e-02 2.631794320798913622e-02 4.528982942803181921e-01
2.272402123916161462e-02 -1.238168559959745233e-03 4.344112754502047480e-01
-1.656743176064705628e-02 2.859087789759353487e-02 4.154516433945589227e-01
2.739157610645280572e-02 6.061288222006075421e-02 4.418899104324205407e-01
4.685206404885370463e-02 5.190115390021012021e-02 4.508802941083145388e-01
3.027838359948297961e-02 2.296257471919329121e-02 4.372903898329753569e-01
4.996100609819156130e-02 1.723997857156176622e-02 4.946706104417162297e-01
3.258249332387726932e-02 4.450108962404553115e-02 4.390575410464959694e-01
1.817733994855631405e-02 4.157458486048400126e-02 4.284358864111821319e-01
3.292174963662156117e-02 2.325060368102871075e-02 4.386088128705353251e-01
5.879362779045813753e-02 -1.080010943038259633e-02 5.055760519116205831e-01
5.743990676884433433e-02 -3.510066968952813438e-03 4.902422726832370570e-01
5.365926531182989290e-02 1.657381721164406796e-02 4.616313353361350402e-01
2.883012753968541148e-03 1.062126297357135485e-02 4.272482853531830438e-01
4.771099171266277722e-02 1.748371997996167951e-02 5.024981573218184616e-01
-1.057502060530329758e-03 -4.809418368036089651e-04 4.300113657977615578e-01
7.697696356748434145e-03 5.444284310388618209e-02 4.328953542811100341e-01
4.448102792368739677e-02 5.974571265201641945e-02 4.787460053738436527e-01
4.895619357195422905e-02 2.885099017932459334e-02 4.995627022306683429e-01
2.815610400534539551e-02 5.146001824693874349e-02 4.369652111468047551e-01
1.970269267483824166e-02 3.271243982450744436e-02 4.303091979022260483e-01
8.550621303336902040e-03 5.288459051202163558e-02 4.282748387966764936e-01
5.091155442023957006e-02 3.648914560919387651e-02 4.555273791338185774e-01
5.411568297181178211e-02 3.018368927718234271e-02 4.629241750828973490e-01
7.246920540127578525e-03 3.171157414740434499e-02 4.165500539113949907e-01
-3.061360427983966098e-02 2.935385123188444592e-02 4.224205303051717375e-01
-1.139651542801911957e-02 2.705032572381637149e-02 4.133103004692142424e-01
-9.601888021952238034e-03 -4.464767412521423832e-03 4.314619706119601772e-01
3.720352440311489733e-02 3.973903481914008856e-02 4.419284017512515317e-01
4.677151145110720887e-02 5.963703024738439828e-02 4.722512452446190889e-01
3.926037226820851961e-02 4.334989256736476726e-02 4.434161200635843292e-01
4.742238907766900546e-02 3.201181698544591087e-02 5.032691985770810783e-01
5.185781913636782620e-02 4.945905281056380692e-02 4.697682376656660552e-01
5.487247433431206162e-02 2.211736546038972628e-02 4.770278921724510068e-01
1.289280876418726421e-02 4.442034133329513662e-02 4.265023962996006279e-01
1.425281393605767194e-02 3.749423682603347102e-02 4.252502749355553946e-01
4.840616769689162768e-02 5.407757134052060266e-02 4.553857431533383515e-01
2.620634188381611510e-02 -2.207012402014063915e-02 4.390463568696267305e-01
1.638691707608880277e-02 6.125293211103404259e-03 4.326984643445206946e-01
3.192593225492250386e-02 1.638971982119304636e-03 4.387611501489075416e-01
-3.949219078772632854e-03 -1.485768434341055468e-02 4.339928076668430612e-01
3.601604925689852899e-03 4.711208179333495338e-02 4.211514478022864716e-01
5.363286935036282871e-02 8.886834150961432297e-03 4.886878170735708404e-01
-8.756380866631375409e-03 5.749823912155390543e-03 4.277500659158825491e-01
5.433567066000032780e-02 2.520201516936573100e-02 4.647768755977950694e-01
4.868011364735609636e-02 2.209399802521093761e-02 4.991432458618006995e-01
3.234723725429158175e-02 3.051385218312614722e-02 4.386299238833718528e-01
1.883469732339976277e-02 5.847078997260072436e-02 4.413406962822278290e-01
2.644742013092507213e-02 6.238968785604216000e-02 4.458600456513762689e-01
1.006750767591385945e-02 5.503022014711901611e-02 4.355887931001781732e-01
7.294057083501365168e-03 3.423332109390376382e-02 4.173129625517286168e-01
4.252303762997848091e-04 5.237263718448596783e-02 4.266624724075517849e-01
-2.538418877340530705e-02 2.691489342812149362e-03 4.326827272875828911e-01
2.121807249023474617e-02 1.564901260763331553e-02 4.325834663519925738e-01
8.203965952119269406e-03 4.698021999571015683e-02 4.245427780514433591e-01
5.700394967122423412e-02 -4.111294489088846392e-03 4.948244593729525520e-01
2.246196901658609885e-02 2.619249251706162046e-02 4.328977719474320640e-01
4.725077937770787856e-02 5.685803535926556296e-02 4.786237677112698541e-01
-1.195106331531936919e-02 1.378909405268354850e-02 4.236339536886938317e-01
3.380063808958867766e-02 -8.028013123598978784e-03 4.405136225931869376e-01
2.213518108214111019e-02 5.254341164936423419e-02 4.338033042352938407e-01
2.117591985612331251e-02 5.348763449834451067e-02 4.339148708041994928e-01
4.936734770725071525e-02 2.644202830788634773e-02 4.975320590887944983e-01
2.607470574176780007e-02 5.615583031188609020e-02 4.378944026495023012e-01
-1.967003203779396983e-02 1.245511544632970508e-02 4.260610494284051697e-01
4.210782080383240755e-02 3.509668280128153128e-02 4.454298001431080123e-01
5.500703551832773763e-02 3.330933250194836187e-02 4.740719934229875032e-01
2.796401195547586552e-02 -2.241912072725631144e-02 4.399349022881611226e-01
-2.704795486375762351e-02 -2.828562828539973352e-04 4.345205791792420280e-01
-2.133881525312564947e-03 4.488377796098435429e-02 4.194245608849326845e-01
4.999180941181162463e-02 3.838374730764965159e-02 4.535139636650551975e-01
-3.995953901966577820e-02 -3.958548206524964332e-04 4.407678888151171925e-01
3.541161963680296981e-02 -2.009828359253910957e-02 4.440645943398821571e-01
3.087361210026456568e-02 7.051121277337311574e-03 4.373923524255954876e-01
3.309531079372816931e-02 3.689126425325802393e-03 4.393755330856600749e-01
-1.441922725605292860e-02 4.280253106399588281e-02 4.233803355603873442e-01
4.851051159371400079e-02 1.448336327132923075e-02 4.514776881169503819e-01
5.864662456823585557e-02 -1.011501881074435352e-02 5.034367172509793820e-01
5.580272434218844918e-02 5.454532368652486793e-03 4.793727786395888257e-01
3.196426500399228432e-02 3.053874076818260605e-02 4.384699654588709028e-01
-1.734229443713014573e-02 3.183507807453564431e-02 4.157386962400352881e-01
1.430067648241781578e-02 2.698529878729390152e-02 4.253773092064188632e-01
4.547602396786309259e-02 5.666821631106958024e-02 4.518011357429093655e-01
1.717568664433333572e-02 2.384709472502427423e-03 4.329818581108632047e-01
-1.595817124782432372e-02 2.147174984137352471e-02 4.197249477782302729e-01
5.618249982643518103e-02 2.650604022109781001e-03 4.836030157271001828e-01
-2.285182944101541488e-03 2.410192474409222560e-02 4.137937729902523287e-01
-1.275170570822138812e-02 3.569083323893473825e-02 4.147926036897408020e-01
3.484911154770159447e-02 -1.366641918563986716e-02 4.419853726040526287e-01
3.215730753555053750e-02 1.798662770029969826e-02 4.379829817626350597e-01
5.754705873294408552e-02 -4.105256005838653181e-03 4.883116625484967832e-01
-3.844234694284518090e-03 2.044117814264237790e-02 4.169878419887214638e-01
5.411271567117820203e-02 3.413446222362084143e-03 4.965133162150413559e-01
-1.906643012275482246e-02 1.096492478165577225e-02 4.265572559831717347e-01
-5.464163542415784343e-03 3.969695266704656271e-03 4.288220943806907437e-01
5.088632858583816421e-02 4.295968127780976781e-02 4.948288507097405309e-01
4.050676800152212820e-02 5.356529847905182329e-02 4.450634717930777029e-01
5.244236219663960669e-02 8.015178180158764182e-03 4.604217962848720092e-01
-3.483967303690652106e-02 3.409846558939976999e-03 4.375615563622215487e-01
1.056851707203796363e-02 5.348100215458933410e-02 4.304691757306846056e-01
5.641925701429062467e-02 -6.413951224348473160e-03 4.777537940491732860e-01
4.870816572503134517e-02 3.961848475895595606e-02 5.002768145463033500e-01
1.924805856365038523e-02 3.056196617418131551e-03 4.334932998366368695e-01
-3.353672611382362695e-02 7.051084202750391994e-03 4.379716861529585614e-01
-4.185950842161389150e-03 1.352856703239799750e-02 4.236194729347967369e-01
3.727186107703366752e-02 3.340815928238816124e-02 4.417544267576030137e-01
5.534090731534737490e-02 2.724648509275965497e-02 4.717292337847774908e-01
3.018859894903920885e-02 7.192579596751140850e-03 4.370795421455568874e-01
5.508837377481715786e-02 6.046714320863223052e-03 4.851602051229790269e-01
4.718635072410643644e-02 5.068764407176662434e-02 4.977248509324878611e-01
1.469643322573297925e-02 1.448285259174081352e-02 4.293976161886515763e-01
-1.656323179850771599e-02 3.337994713575405392e-02 4.153342893775183731e-01
-3.887205368587829529e-02 2.734649901660089494e-03 4.408213424396957847e-01
9.430317490741116707e-03 4.463464974514044087e-02 4.248021123867362081e-01
5.553423296722924396e-02 1.101246627360823530e-02 4.743500619032993693e-01
5.244203222172526963e-02 4.731029154624923766e-02 4.805419532930259585e-01
5.194232813676437355e-02 4.299856225715613378e-02 4.599196801372006371e-01
1.347005329540844343e-02 9.627971760511673527e-03 4.308294301577567098e-01
1.218016109641964842e-02 -3.816171477510964076e-03 4.317627968617720469e-01
5.290552403182043756e-02 4.423099550600761987e-02 4.687973571959118124e-01
2.336341039686461174e-04 3.798825751339535844e-02 4.153497923908051059e-01
8.904693469532244665e-03 6.181583576899253672e-04 4.301371040861050599e-01
4.853727675712193879e-02 3.756699355304747578e-02 5.006717391050005128e-01
4.590509849459103314e-04 2.287359300323732816e-02 4.154415146938140735e-01
5.382193811042335074e-02 4.186294260456627919e-02 4.793738119281377164e-01
-3.458957528008781840e-02 -1.014388968813670529e-04 4.383657750645780782e-01
4.751297698252930635e-02 5.912772847250225700e-02 4.623211868984061224e-01
4.881620288165795102e-02 1.112051089351441882e-02 5.022172414157124454e-01
4.150772182440749108e-02 1.857745098051048066e-02 4.446944000197984859e-01
2.846060877734993277e-02 -1.169741132835560964e-02 4.377499446953110884e-01
-1.233465204188490677e-02 9.980440625781437231e-03 4.260653505240246663e-01
5.285122309326931861e-02 3.701740236049164134e-02 4.603576066972837055e-01
4.914760206698239736e-02 1.109621696742132957e-02 4.528824367199734136e-01
-3.318500682119301243e-02 8.139076687349110217e-03 4.370107680307520059e-01
-5.955129223443621223e-03 3.786177269893477998e-02 4.146458233527334225e-01
5.500835307716663014e-02 1.117125509938564007e-02 4.787145715173087845e-01
2.703632247592948831e-02 4.279197588343357228e-02 4.353519994416055194e-01
1.034129171501805416e-02 3.207053236792031803e-02 4.197793715416476834e-01
4.968687889523536877e-02 2.286891277875019793e-02 4.955498244824338983e-01
4.812918272345215187e-02 2.197235343013664161e-02 4.503192014358372020e-01
2.704970831896960290e-02 7.175356832531716231e-03 4.357269211451462176e-01
-6.240605077311545817e-03 3.476953887658014442e-02 4.120754025536563225e-01
3.109083344225153488e-03 3.654504352941025797e-02 4.156790291743734933e-01
-3.687585572970633607e-02 2.354889363024461821e-03 4.389212755637458829e-01
4.907570939285552797e-02 -1.357189020735175347e-02 4.610102475571422054e-01
5.118359085196107217e-02 3.875908333575371623e-02 4.566067656780508632e-01
4.821772038211567801e-02 9.429073883808601229e-04 4.529319237496171602e-01
5.706199340041488710e-02 -5.419748660996735919e-03 5.005463360793062089e-01
-1.060814949527661213e-02 3.702863338302871121e-02 4.149195865740554767e-01
-2.580897926879981152e-02 3.364210534746320952e-02 4.189246698573483862e-01
3.787517345219492543e-02 4.644322871262176328e-02 4.423640053533132721e-01
-2.614140174723308604e-02 1.089349593971362419e-02 4.307858889474047159e-01
2.912858923888392987e-02 -3.503527572840951960e-03 4.372728440904538605e-01
2.000983856416121975e-02 2.764311402687326391e-02 4.311546213420428542e-01
4.118035832704734084e-02 9.133768957667955796e-03 4.447494512006818779e-01
4.964591066287214055e-02 5.476337186636732329e-02 4.681307187023676097e-01
4.739244670489398126e-02 1.750226281184341301e-02 5.036412923711934830e-01
4.957680652735617366e-02 4.237989759516030963e-03 5.087855014521779351e-01
5.442623632976020115e-02 1.040496757183993759e-02 4.837047802143402131e-01
1.519396645949684828e-02 5.016552040360422460e-02 4.289511442182954992e-01
4.733468241632842605e-02 2.045311386206708978e-02 5.038327749739294203e-01
-1.591420148917326721e-02 3.773642723098074442e-02 4.166477880176454041e-01
2.745256127836841198e-02 4.851913843506231241e-03 4.361649016740756779e-01
4.036882038963559433e-02 6.652801321621477915e-02 4.567365677232764209e-01
4.978557582057110270e-02 5.319379658170655945e-02 4.609588034183195182e-01
3.528394970825034227e-02 -1.774373289911699778e-02 4.431676424635240252e-01
1.996861831562152939e-02 -1.149493940745390831e-02 4.348737231726949592e-01
4.996400610131836867e-02 5.070904253639427900e-02 4.586003763435069214e-01
5.458748865487813434e-02 6.371180625622179655e-03 4.871155559213714570e-01
5.355490999159623344e-02 4.181543163219021003e-02 4.840576326502338822e-01
3.675210193541108422e-02 3.427017208331210180e-02 4.414421361777351449e-01
4.997235160451556774e-02 4.703903153572094875e-02 4.550083396273248981e-01
4.018240197623571680e-02 4.303771052660192165e-02 4.440772293861418030e-01
1.553704421898800640e-02 2.930842460601026586e-02 4.263759592255194075e-01
3.667085030920109318e-02 1.008446458540825444e-02 4.412525933511006748e-01
4.859413011767525076e-02 2.015020079441449605e-02 4.994238633861543541e-01
4.953600825805594410e-02 7.967903453753694479e-03 5.040187827236152218e-01
5.155841483075671722e-02 1.747894147413078803e-02 4.565278058782826776e-01
2.200416283984067342e-03 2.254089144442570844e-02 4.166785238788838219e-01
2.314183375820986696e-02 -8.229884244306808969e-03 4.351005087464901999e-01
5.427299853367061055e-02 2.950663238832087337e-02 4.639302902607589374e-01
4.658348597911129985e-02 1.116082489373770165e-02 4.493558421685533433e-01
-3.493427334095051268e-02 1.073197945815261220e-02 4.385338181231580590e-01
2.929750509317218324e-02 4.109362130639872268e-02 4.369464599146873351e-01
4.560304043894757714e-02 9.605222202870897230e-03 5.101730014873661068e-01
4.907938223725429039e-02 1.325269839818532004e-02 4.995686591639261209e-01
1.261060396339957861e-02 1.827322976911459340e-02 4.268847863786220942e-01
5.271710409747799170e-02 -1.590595199173052907e-02 4.691465803548975355e-01
3.248749172167178512e-02 -5.406195548550722131e-03 4.394261635202035832e-01
4.254341128495003899e-02 3.448714236994691873e-02 4.457727211243506793e-01
-2.062086975391453150e-02 -8.495831144213232197e-04 4.326485934489091578e-01
3.165272549576639283e-02 3.427059391787191933e-02 4.382755001035194553e-01
5.070963412204740339e-02 5.653116828330031866e-03 5.045177786155174982e-01
4.821061742121637850e-02 5.764271153900581840e-02 4.676168353927635524e-01
-3.020644103795411782e-03 1.081895301334151113e-02 4.255429173067509785e-01
4.887545957403370556e-02 5.567612070480870007e-02 4.750920377180155030e-01
4.665054923231649192e-02 3.754689811303495856e-02 4.499311601002115024e-01
4.732995145354216421e-02 -1.184862948922468795e-02 4.571532571481526364e-01
6.226802549179162247e-03 1.368817523699865368e-02 4.266112217546160768e-01
5.351692196766896781e-02 3.462527275666572174e-02 4.614657152223436420e-01
4.427937149055656552e-02 2.856254890523048096e-02 4.471024720375142980e-01
4.576698435933772985e-02 5.904048592903726050e-02 4.772367189033627222e-01
5.491844682596956628e-02 2.600025886529797395e-02 4.681613815695275238e-01
3.841403230427321847e-02 5.956124288192608807e-02 4.449338181418303062e-01
2.519961438846046037e-02 -6.358658888256834077e-03 4.353908128584356718e-01
3.157392283500885105e-02 -2.223964198119639767e-03 4.387033266077325355e-01
-3.299160868233539518e-02 1.998345349514349216e-03 4.368280764131297622e-01
4.036765268881668811e-02 2.049853569907078912e-02 4.437878625731630500e-01
4.820508586110223287e-02 5.628018502485348379e-02 4.576026414484482552e-01
2.134067097939305879e-02 -2.008621717658825093e-02 4.370297420813114564e-01
5.117344462799538335e-02 5.204841668273036542e-02 4.722358715945323970e-01
2.208430200850360590e-03 1.905777995469937550e-02 4.198718553901453210e-01
4.658563056594389878e-02 6.113654636318599511e-02 4.636198984015881264e-01
1.093225854512129558e-02 4.403076537755624964e-02 4.254590584492862759e-01
5.101747473581588754e-02 3.564366137395489492e-02 4.947637410800390656e-01
2.807264166206135080e-03 6.627354648720145541e-03 4.290465138673349998e-01
3.970746842304898050e-02 5.033590898090300331e-02 4.438273406589652303e-01
2.386967613179427281e-02 4.860179645981243385e-02 4.329496323642761935e-01
4.775300315479231311e-02 1.383658975834871178e-02 4.506505670559603494e-01
4.412853007246236164e-02 -5.001074246261277313e-03 4.497884113571233855e-01
4.169653875186923875e-02 6.240854745782794394e-02 4.503664628706200435e-01
4.593422521721114704e-02 -2.089904188979176125e-02 4.575204714436877929e-01
4.514276263185994925e-02 1.499068177071566366e-02 4.478362188983255887e-01
-2.729152270945868833e-02 6.149950575366379922e-03 4.330620839237196984e-01
1.024778632823623165e-02 -1.518219462727765645e-02 4.355842327689700699e-01
4.964412993036384364e-02 5.455267759239040837e-02 4.713094562490050543e-01
