5.515892753856346808e-02 3.447035488795162535e-03 4.891355884383297714e-01
5.688649764166115591e-02 -6.105944544024558777e-04 4.840430407454356376e-01
1.589198182033972617e-02 4.557765133844585148e-02 4.272662502867793921e-01
5.326180742605522711e-02 2.110573010702672739e-02 4.593189576253812745e-01
4.116476880348214629e-02 2.606892879343695665e-02 4.439730287513665163e-01
1.429106513139019423e-02 5.195340595635823677e-02 4.292097986599357484e-01
4.077606740474103153e-02 -7.701710847709369347e-03 4.461334568349123453e-01
3.484341115713558007e-02 -2.824026148291632413e-02 4.471653654802299482e-01
4.902214900354579658e-02 1.052290536687726374e-03 5.130646087809382916e-01
4.495135950065559660e-02 5.101514628909615406e-02 4.991971098919609218e-01
4.053938113210314720e-02 -2.264691413804535008e-02 4.498730941240059455e-01
5.470610738538946721e-02 2.018574755551148098e-02 4.784018175106231063e-01
1.299100499243810436e-02 5.542236712180109715e-02 4.376308728937445824e-01
6.946374984512214759e-03 4.359612211230992629e-02 4.209637157288790288e-01
4.913665128129121595e-02 5.545687615412624866e-02 4.702545615511597443e-01
-3.444592144429246133e-02 -7.988293271720394925e-04 4.384461068160864783e-01
4.772696456062655579e-02 -5.925013115550774485e-03 4.546991687208497002e-01
6.074659888390533495e-03 2.847726634437537305e-02 4.142520585252500998e-01
4.639477312194355968e-02 -2.197257483793275609e-02 4.585978193001688519e-01
-1.725624369355914858e-02 3.581745769037626009e-02 4.155974591907872773e-01
4.984268055126116898e-02 4.385022647534995814e-03 4.549578546771497201e-01
4.783703867272354193e-02 5.830001409220169489e-02 4.651681374989988793e-01
4.723774346089978926e-02 -1.416756985237610685e-02 4.573997781671223506e-01
-8.354181084931277743e-04 1.454834342576639267e-02 4.226879248146332424e-01
5.085030622073008488e-02 5.107954143150478243e-02 4.796933442683219417e-01
5.347162810748346679e-02 4.585692795306211232e-03 4.963833130771653224e-01
1.588111475677786433e-02 -1.306594298841511938e-02 4.341078438789532923e-01
3.717590182410521887e-02 6.566910380107558731e-02 4.664999187028188721e-01
7.681407280790891745e-03 2.771710593685185881e-02 4.162018513097384687e-01
4.566592932543520056e-02 5.479537931578226662e-02 4.876441673680100841e-01
5.419067976431174438e-02 2.641964421148520689e-02 4.634069975902189720e-01
4.772787288352427215e-02 4.952282672482828663e-02 4.970588466830814234e-01
-1.385298296412906284e-02 2.736869879787860727e-02 4.130677109778846390e-01
3.741716960236134148e-02 5.939717088228199660e-02 4.434683904902962936e-01
7.465520667785575763e-03 6.217048219057293330e-03 4.295865560542839190e-01
-6.022069632588364189e-03 1.018986447337967040e-02 4.252273461952025824e-01
5.219549410951464935e-02 4.807805642377212252e-02 4.722444874560664529e-01
-2.456889956537338174e-02 3.625322242805428807e-02 4.188829903583293213e-01
5.094011431170945847e-02 4.379573226667238250e-02 4.936887658982250793e-01
4.958353300617360931e-02 4.336912945672386638e-02 4.522382802810133162e-01
5.386931132207217754e-02 2.617772924771238213e-02 4.615630343711309425e-01
4.666021858219341484e-02 5.708400596052830983e-02 4.787755656137729354e-01
5.082774609677079281e-02 2.464157982512739375e-04 5.111788516028281659e-01
-2.821804645186470201e-02 3.442367255876230964e-02 4.206809068017054454e-01
4.967848625774647781e-02 5.340268386742811485e-02 4.801149636106522567e-01
5.470347966577265159e-02 4.702786371567506179e-04 5.007256506397580464e-01
-1.418861946778684179e-02 3.584017191362880161e-02 4.144151540806595979e-01
5.559322107083875669e-02 5.161364832534964461e-03 4.733177668450427311e-01
5.256054589069401872e-02 -1.071365369989814124e-02 4.665010577923591750e-01
3.630342916798418723e-02 6.395028748835326904e-02 4.464889566126583054e-01
4.552395999898440487e-02 6.081390431431677596e-02 4.556726489371911160e-01
3.953456181050809398e-02 5.816163809263457741e-04 4.440491351252279784e-01
1.980183638837381896e-02 -5.561181420939258387e-03 4.333837808244072609e-01
5.501608740186161167e-02 6.450083281206607164e-03 4.688332485053560150e-01
2.723948990804892986e-02 6.039572345270703690e-02 4.410808754002922272e-01
-1.284465280090739923e-02 -9.736184192401029294e-03 4.342517582102377594e-01
5.258172214254738103e-02 3.029769515808604027e-03 4.615742624822518070e-01
4.234707391228648143e-02 2.466828083323120355e-02 4.449377961224983413e-01
5.531338860831079562e-02 2.550472834006367248e-02 4.702610854394188578e-01
3.159496693397803591e-02 -1.457445463739044655e-02 4.398230110405284554e-01
2.705635642307787497e-02 4.383477045807717548e-02 4.344436447117017153e-01
3.688282726200262790e-02 1.009052972491331253e-03 4.418714724449728792e-01
5.183709145411527497e-02 -2.162485965421889755e-02 4.688378830186776258e-01
1.375333160978804876e-02 4.353478009483598837e-02 4.257120704385063958e-01
5.697931582140770834e-02 -2.004735220206369743e-03 4.847513253526499755e-01
-3.159290757527793980e-02 -1.478726944023358702e-03 4.371392264989538146e-01
2.470195799506908624e-02 5.925699224371690221e-02 4.381169235038097631e-01
1.287674768669306094e-02 4.810246576401588925e-02 4.263818064204950575e-01
1.158055729425738756e-02 3.600045494365917975e-02 4.209070502534202340e-01
4.235264468934886450e-02 6.512423799363803445e-02 4.555138947379380188e-01
-3.373160760214034826e-02 3.988828148525019358e-03 4.368144879754444210e-01
-1.029710616537515486e-02 1.903243138514703475e-02 4.177427334349047006e-01
5.242612993453844156e-02 -5.752583789066862546e-03 4.642811011668144250e-01
-2.235960373586222058e-02 1.372115784682835515e-02 4.258957055759215460e-01
5.308180824452326391e-02 1.336844135932691892e-02 4.604920752562484121e-01
4.994112592691891256e-02 1.604355750152572022e-02 4.942500900818518894e-01
5.180545105987518356e-02 2.785565637294283581e-02 4.559560840054167064e-01
4.996725498028913720e-03 5.339615722290108613e-02 4.291069184927275848e-01
4.684550820663133108e-02 6.024379637866202758e-02 4.660382591206068126e-01
2.143856829386533991e-02 2.801450343409007428e-03 4.337366488717294133e-01
4.310330955486565106e-03 1.434863805967446365e-02 4.246392872359008308e-01
5.563326167053957855e-02 -2.846350023823108946e-03 5.059587213313502252e-01
1.881259373194659953e-02 1.500905044360562220e-02 4.307565558410453854e-01
4.006049701747496639e-02 -9.960313622634137110e-03 4.454797771738556733e-01
5.566609744850044283e-02 1.193948182539712310e-03 4.728547505089362168e-01
5.529104600602512826e-02 1.765731142704365236e-02 4.741647402213767237e-01
4.923141556936342506e-02 1.520938810985880858e-02 4.968837539214890908e-01
3.881986781924642166e-02 1.767072142359057442e-03 4.433221412845717024e-01
4.059918126080541007e-02 1.123841811728699437e-02 4.437264301970474945e-01
5.093183964119332025e-02 3.331463397953519229e-02 4.544347917237552825e-01
4.960344252538555210e-02 5.286870890469692191e-02 4.590134948648820212e-01
-7.223554705388728417e-03 -1.292346371503131502e-02 4.336458624263485051e-01
3.049304628895038727e-02 5.704656091205459467e-02 4.393706509422632411e-01
-7.642452995608827251e-03 2.192002082752100844e-02 4.129655052402094184e-01
3.519084562423843709e-02 9.098937396256796123e-03 4.396883000974309841e-01
2.539929700403160615e-02 -1.104043098366046076e-02 4.361498540507318666e-01
1.582731919146119007e-02 -9.725074126422676365e-05 4.319666806815328219e-01
2.058901090273676168e-02 1.201329755438413846e-02 4.319858892446173382e-01
4.010489405969808879e-02 2.120389566530719860e-02 4.430675715466053100e-01
1.953163247633167912e-02 3.333878907784208756e-02 4.290298048846502010e-01
3.212250701021263782e-02 1.156946807897783454e-04 4.386221106551108084e-01
4.961016893667177796e-02 4.882358149037481498e-02 4.543231256273740915e-01
3.779385027454505025e-02 5.309486662619678637e-02 4.423725540419723989e-01
5.346798572620802686e-02 4.242571290086511598e-02 4.830462958340973612e-01
2.107202497974904748e-02 -7.960470719313396046e-03 4.342151035744474252e-01
3.579105832511297186e-02 5.731493898199523096e-02 4.419328026471500137e-01
4.377242293280301025e-04 2.995140711806403011e-02 4.115134702892553342e-01
5.186640678160969742e-02 1.557217162450985973e-02 4.889039938050818157e-01
-1.092690713669999120e-02 1.134432285552065475e-02 4.244567548546305247e-01
4.625065769149187822e-02 4.140690552600012619e-02 5.039293784374561103e-01
5.384087211354010583e-02 3.770433378746583519e-02 4.845050109382491588e-01
1.519832501019169162e-02 -1.306658843198766316e-02 4.340222725916172419e-01
5.303949452913106488e-02 1.096070475387457208e-02 4.885084424922145896e-01
-1.527594573979800929e-03 -8.110859880018632395e-03 4.309637711157319750e-01
9.480933195863070970e-03 5.072675826582912634e-02 4.259771391332944357e-01
5.123179451122739092e-02 2.493990503679348325e-02 4.905927847624228511e-01
4.254563464014570959e-03 2.783439685334437863e-02 4.135889379000151633e-01
4.611948397271585509e-02 3.701451214337772924e-03 4.492336668651534248e-01
3.042983448292139494e-03 2.211715358321647215e-02 4.161964469987347592e-01
5.678916998762754791e-03 1.830626930075356790e-02 4.208309460570063831e-01
1.694399537053254551e-02 5.656148960395636360e-02 4.382705588562098020e-01
4.787951987169408730e-02 4.536544490888236997e-02 4.997229813534463383e-01
-1.201670417981768983e-02 6.785355704925411305e-03 4.265179820607510885e-01
-4.546541601724917586e-02 -1.849329281670642790e-03 4.415866941230151554e-01
5.009129453835492463e-02 1.255352131527566126e-03 5.112764370654322432e-01
5.532544004688724065e-02 2.527935374077287800e-02 4.713594681400185005e-01
5.475249184966771848e-02 1.060957820841733519e-02 4.671770856927198179e-01
5.296427264811576219e-02 1.096745785012118862e-02 4.887948689032903804e-01
1.207848077096094520e-02 -1.475259663439342298e-02 4.349989745970270216e-01
-1.878740206554311686e-03 2.633034274646688100e-02 4.116629289481392173e-01
-1.708165814773307881e-02 3.630078129259412673e-02 4.156627497007720495e-01
2.218027768183727239e-02 2.958871113298356531e-02 4.324787288715095102e-01
1.973413832974277912e-03 5.071530977300679754e-02 4.234705362053177713e-01
4.598182594904366011e-02 2.628979136396335584e-02 4.479455109411591418e-01
-2.664444202298794570e-02 2.808656408311759403e-02 4.198998106494114535e-01
3.226729073989122870e-02 -2.038611140676325345e-02 4.416371147677019549e-01
3.206727341182274288e-02 6.522144145072437255e-03 4.377487172585282638e-01
1.874844781836751059e-02 3.945706535770315826e-02 4.277828142303626846e-01
5.347692686693644032e-02 4.836838052997251107e-03 4.958644830155960470e-01
-4.601321855453829098e-04 -5.280258486854264716e-03 4.304006430934487204e-01
-8.874365034247480230e-03 2.371494850004785687e-02 4.121587006596968972e-01
-1.041257641677476313e-04 -1.170535942272732735e-02 4.322588879774303394e-01
4.949419742878911899e-02 2.451241496252226995e-02 4.958097498420049321e-01
-1.048378581568254822e-02 -3.655946371474276882e-03 4.310864063384512446e-01
5.373040127348407968e-02 1.623292697318686958e-02 4.616416138823222215e-01
5.425288641345872576e-02 -4.077632364345299895e-03 5.107293959015946072e-01
-2.360469797840772724e-02 2.705427493161496888e-02 4.186469070586591457e-01
5.602093213795087540e-02 -1.280557142607129106e-02 4.778000745074543754e-01
2.933005267296389176e-02 5.690606031512704388e-02 4.387371228415501423e-01
-3.379589078802645863e-02 1.160394873691535707e-03 4.375318090936097803e-01
2.730833182471891114e-03 2.125886840045335818e-02 4.171173771722689327e-01
3.967852888451314092e-02 5.995750593900153226e-03 4.435395594380358575e-01
1.243468252182936690e-02 -3.218349513714109569e-03 4.314823748466480313e-01
5.352000751625031472e-02 3.512809054378102092e-02 4.863459588183453031e-01
-7.405193659839322089e-03 1.430585146936736579e-02 4.221336012321836861e-01
4.562844699685204147e-02 6.141342020687564490e-02 4.699406572567333962e-01
4.379229154904145521e-02 1.855683382223408465e-02 4.460916584243309058e-01
4.443404449163513431e-02 6.254623680715006018e-02 4.555012433460478571e-01
-1.325316412995745756e-02 2.070768094591681971e-02 4.179337638780486475e-01
4.924632629869682421e-02 -2.130194511550666595e-02 4.636757451304717725e-01
5.528756176969069902e-02 1.727026100431392625e-02 4.743915064677817761e-01
5.587668232450242189e-02 2.609319310548073069e-03 4.861427171341971554e-01
-3.877564524799579672e-03 9.590653332209611581e-03 4.256447154801588084e-01
3.285716943462813761e-02 2.899770821326490972e-02 4.382960779014671293e-01
-2.389514708102427262e-02 2.081231567583464656e-02 4.214918293253694936e-01
5.505742009757572802e-02 1.799730283568254027e-02 4.698656426368384431e-01
1.972225586493426414e-02 5.130604619841355046e-02 4.308309309281216359e-01
5.111877393706488332e-02 1.430146972421306867e-02 4.917902053159008413e-01
5.389698791814762080e-02 1.595663201701209150e-02 4.624724755915192165e-01
2.998995693291974310e-02 6.354026492497326373e-02 4.446489834094646265e-01
4.907693493565509768e-02 -2.354355460313753076e-03 5.157870061427101138e-01
3.407175052278659660e-02 2.819525554319464791e-02 4.390540520620155318e-01
4.802529346924758191e-02 3.136199694567935042e-02 5.011234514156581721e-01
-9.486191137547042920e-03 -6.548802482063808411e-04 4.298772604352505411e-01
2.234193672899671690e-02 6.431853779499769816e-03 4.337268228110756074e-01
-1.255849081549557239e-02 -1.763985826297150526e-03 4.308452861956086899e-01
4.999503192823515074e-02 3.237703627133453610e-02 4.528133422853095058e-01
2.549075377359539749e-02 3.011757897964024294e-02 4.347672369635953160e-01
4.708452989505866604e-02 5.738278622856001626e-02 4.550820829105260978e-01
-3.555345990263041739e-02 2.021690797891370628e-02 4.300368849987885600e-01
5.374023412902038943e-02 2.670856369933214541e-02 4.607626521067553216e-01
5.492416098024502369e-02 2.393342398832261006e-02 4.778773297203031678e-01
4.454643000633312644e-02 6.178836596795019703e-02 4.544767373867675264e-01
4.717201438961483861e-02 4.244101178761820747e-02 5.019477302966288690e-01
4.415125908807752270e-02 6.420283720375750958e-02 4.688587299489525018e-01
-2.784164961463785407e-02 3.525138663451907184e-02 4.207303806242859157e-01
5.456693426664578628e-02 9.946302258943070726e-03 4.666384022710461932e-01
-3.541234808409643442e-02 5.512110431178347987e-03 4.405253775140484107e-01
-1.537967383694721982e-02 2.292726803807884975e-02 4.160961383368636524e-01
3.379491763403670579e-02 3.462005171288734529e-02 4.388519615258388296e-01
5.054448554512508407e-02 1.486885112013284355e-02 4.929838929752511367e-01
-2.471266944212590494e-02 1.791033658750954341e-02 4.238538022243837355e-01
4.385842977710992241e-02 6.428444187367837737e-02 4.690119971466288340e-01
4.148020066870247019e-02 6.032376494002913286e-02 4.474010055713948941e-01
-1.078034615164692039e-02 3.078775633878443746e-02 4.118686803088862369e-01
3.509970237187177294e-02 5.526720790755041551e-02 4.410161408052197252e-01
-3.462627375201118851e-02 2.551529648979828941e-03 4.374797933828088459e-01
5.399509356924889203e-02 2.758906835932562526e-03 4.658643079881121807e-01
5.359014277243706603e-02 4.161096635204953459e-02 4.737812510002426536e-01
5.479072867335677000e-02 1.694113235917472926e-02 4.677400744615955452e-01
5.181656177011031289e-02 1.054692479433126835e-02 4.932633590380071098e-01
3.227381775277129907e-03 -1.754900377592987989e-02 4.360460876661242380e-01
3.713004347982300224e-02 1.941341725208145519e-02 4.407714673376311176e-01
9.639757805435557325e-04 8.787923167853870995e-03 4.271739232540965325e-01
1.895746096314898654e-02 2.943685308807434536e-02 4.293510695960222612e-01
5.903175784790657896e-03 3.582531574512879541e-02 4.163341793344331188e-01
4.878363496217426321e-02 -6.789109374546407547e-03 4.574313314388945839e-01
1.811131269031245050e-02 3.379416699929661816e-02 4.273615282405071047e-01
-2.161351994829214043e-02 2.685044819526508780e-02 4.176465691544615222e-01
-5.740309220575249768e-03 -1.043783232919215376e-02 4.327831170081150591e-01
1.387572462167835016e-02 5.153252982296364221e-02 4.287156364734613367e-01
4.863291420585749009e-02 4.213886001694089334e-02 4.512054313925749627e-01
1.042198813729288201e-02 4.221732891501656787e-02 4.233857578469816252e-01
4.911508196905336326e-02 5.432659091977542348e-02 4.584148195578218177e-01
3.556717219054610080e-02 -1.413958503855920756e-02 4.423668927199957968e-01
5.912369713755433881e-02 -1.189549865655811084e-02 5.060492442333284213e-01
4.013408659259534716e-02 6.609076552629453150e-02 4.542038339416177850e-01
5.262876692611798829e-02 5.558738224033148503e-04 4.629622774591481416e-01
-1.240817576291584293e-03 5.636546317727273402e-03 4.278393930561502079e-01
2.457144047555223990e-02 1.178542211746963497e-02 4.337875586035183639e-01
2.607036195821118077e-03 4.765353712295671007e-02 4.206821757318940924e-01
4.329388854513564061e-03 1.094266515632167681e-02 4.267625221249293221e-01
5.352107533590558935e-02 3.550068839948102364e-05 5.064274753691829778e-01
-2.620267993352792812e-02 3.623020561053332672e-02 4.200011304087862829e-01
1.219982054945144279e-02 3.331165909924942332e-03 4.307859440134815254e-01
-2.118363338633533210e-02 1.661388343302005674e-02 4.235236992266205869e-01
3.025132480861924753e-02 -1.048772394563373886e-02 4.382964525623204155e-01
2.214913691497606696e-02 2.995352862195449321e-03 4.339141479091679354e-01
4.772983678534236524e-02 5.377473519291472992e-02 4.881182438464674589e-01
1.623534524812457816e-02 5.060833891972198184e-03 4.322419282566930532e-01
4.460135784950546717e-02 -1.580291520477411504e-02 4.526576957789733013e-01
1.779103064377198645e-02 4.478455236547328189e-02 4.279239684647402897e-01
4.513542501370752802e-02 -7.288163836243768956e-03 4.515493903372544415e-01
4.079655520657177181e-02 4.086555687655837182e-02 4.438931066172792095e-01
-1.601546198064661072e-02 3.768485858609491035e-02 4.157120668074122949e-01
-3.427260922914908414e-02 1.550021077694881122e-02 4.338129660455422032e-01
5.375624493762291151e-02 4.037473553821481487e-02 4.718474343722035003e-01
3.247981362483352841e-02 -2.675603286893010746e-02 4.444786959410099159e-01
3.307680432132281689e-02 4.600933775068619114e-02 4.385530792482998375e-01
4.016321756732923326e-02 5.875791046617973024e-02 4.453820501458328196e-01
4.694277926679837898e-02 2.091074614915423759e-03 4.501591634468414815e-01
4.069736477440663580e-02 1.671702527483498804e-02 4.436093159959466070e-01
-3.113182398433454040e-02 3.140706788520170045e-02 4.226449293073061830e-01
-4.441573148605286805e-03 3.376682984383831687e-02 4.098713160440177750e-01
3.290638138630357090e-02 -2.183124879684438316e-02 4.426089512612710331e-01
2.967452587940921233e-02 1.099341450157220387e-02 4.360488497493891225e-01
4.811721029134979205e-02 1.122861647313405653e-02 4.506961895879420532e-01
3.062608837302254958e-02 1.651948932296455966e-02 4.366972025157551118e-01
-6.880888505561481502e-03 5.553934310822168305e-03 4.273760373319041017e-01
-2.846932933036740859e-02 3.086421276102990080e-02 4.207239199438564947e-01
5.121964069168594841e-02 -5.942644634475465620e-03 4.620909540146146410e-01
2.579569177349678999e-02 -8.154743135313065328e-03 4.355759934210306494e-01
2.245798423065141318e-03 3.808001416867844852e-02 4.150122367789106925e-01
5.661376322245015302e-02 -6.587171884612111165e-04 4.904611461722558352e-01
-3.136083864773561367e-03 2.107952133688392043e-02 4.148556139008894861e-01
4.727554865960812563e-02 -1.455888655984714439e-02 4.575872693416110915e-01
3.882448181346195848e-02 -7.213927582722374013e-03 4.441171593561337172e-01
7.393407696452785477e-03 3.482029044350642283e-02 4.166736709430016172e-01
5.542082979803139575e-02 7.006775407835676497e-03 4.724431776863362575e-01
-1.466255662211644190e-02 1.056477417217303698e-02 4.255338462716659609e-01
2.198125367191559529e-02 3.983559379779343795e-02 4.302837920008448780e-01
5.136874769868608748e-02 4.301309485202457761e-02 4.570707056733659401e-01
4.964053300490454262e-02 1.618843473959979268e-02 4.524495104520088185e-01
4.468858377906480966e-02 6.372346583854393565e-02 4.675196303211416882e-01
8.925269610005066856e-03 2.208703602582109005e-03 4.297645373587538620e-01
-3.797769835236395556e-04 -1.218255399382269129e-03 4.297824354055725382e-01
5.510494740188497803e-02 3.096553221354871738e-02 4.754467476743090559e-01
5.514144561770342040e-02 2.513044005204879972e-02 4.750115622000048998e-01
5.411449361342060560e-02 1.767705460603102158e-02 4.635648138386500583e-01
-2.710118987189518575e-02 1.989944784889291149e-02 4.231929606194923532e-01
-2.907016204516352925e-02 2.538346504459871103e-02 4.223948010483282722e-01
2.139686422098823967e-02 2.946392496367169697e-02 4.317544944597909162e-01
5.332439366830420829e-02 -1.577007071833969043e-02 4.705793726255055320e-01
5.428423698373807671e-02 3.297082525291412936e-02 4.821750889526860706e-01
2.568433111544144234e-02 6.111203725103373646e-02 4.429231203945483974e-01
1.679339918226167155e-02 4.049405249086849429e-02 4.264019173457032630e-01
-2.065356411459024367e-03 4.661170541628959635e-02 4.212557078772761754e-01
5.258785584116466155e-02 3.267591451772314942e-02 4.577238680702959139e-01
5.495101720024777453e-02 -3.881651607221588834e-03 4.697342122372932804e-01
5.165980923732638869e-02 3.703863099716851737e-02 4.925963356053454922e-01
5.142516253446255403e-02 1.516450701160166302e-02 4.901737923437595179e-01
5.048840797947599934e-02 -1.489799279689686499e-02 4.642229518038750724e-01
-1.328977223762698757e-03 7.879306191225586564e-03 4.270699972471232453e-01
4.738320965857693856e-02 -9.560330913132150318e-03 4.560697845679723139e-01
2.463985184700593495e-02 5.490915173106902802e-02 4.359224754804457702e-01
5.524122532157207249e-02 2.462306630086141465e-02 4.698854761266418878e-01
3.179729770396514527e-02 3.232889132131664539e-02 4.377437909722001197e-01
2.802946147169658314e-02 -1.059189048639429427e-02 4.370128247214972728e-01
4.959234170588468910e-02 -4.793167263223690328e-03 4.579561648610554481e-01
3.618791619508202051e-02 9.897710204519218069e-03 4.404379458739868802e-01
5.713051927344699882e-02 -9.061850998323763701e-03 4.828210523366923135e-01
4.226697786000872814e-02 4.747548540649086657e-02 4.449969650166137325e-01
-3.412251531193229159e-02 1.021019334661321491e-02 4.371826705191114160e-01
-2.535725489885326880e-02 1.107197355360711732e-02 4.297029827298869398e-01
4.095255215019472615e-03 1.985971112590152049e-02 4.187306737568504689e-01
2.025689752974633648e-02 6.437911201511035877e-04 4.335378053350842920e-01
-9.578678107166296862e-03 3.147367714630223967e-02 4.112423911685996747e-01
2.846701150924428256e-02 3.978151372040560074e-02 4.355545952037302992e-01
-1.613956276035716925e-02 1.287688309165310394e-02 4.243341285539140584e-01
1.970703151807489187e-02 -2.026430503162091057e-02 4.366813469997909425e-01
2.023194210297131132e-02 5.356930089165468784e-02 4.327330744820707120e-01
4.624889920129067467e-02 -2.301800454532946551e-03 4.510067735440895786e-01
3.770607509445474126e-02 -2.117813261985169657e-02 4.459828626112008476e-01
1.380668941026103221e-03 -8.749011170143282390e-03 4.311596648362611695e-01
4.800368232589521944e-02 3.456355641687489100e-02 5.010171554585308717e-01
-3.047174131889432078e-02 5.265569871158571821e-03 4.347828471893295244e-01
2.779696331540341264e-02 3.787163806397061960e-02 4.351929586167018194e-01
-2.986586004469835368e-02 1.498678413498991287e-02 4.290031044811147276e-01
-1.405021996429149309e-02 1.978962280923408923e-02 4.195737259911693218e-01
-1.934570306417493848e-02 3.826249976792983620e-02 4.170772551247109439e-01
2.320909507239618530e-02 -3.904996244662590956e-03 4.342413444464885974e-01
-1.103158073361514349e-02 -5.840628872040870556e-03 4.321476644508530085e-01
1.866616806121121006e-03 9.411270674382259463e-03 4.270363566753061502e-01
2.484981108786116916e-02 5.949379070242810652e-02 4.390168842392663251e-01
5.043660665175828811e-02 7.303946019477216244e-03 5.020459381547379696e-01
4.781571144090143027e-02 2.475108952104639395e-02 5.014945924895314322e-01
3.500560903135797181e-02 1.104554103374391291e-02 4.395198137682262418e-01
3.748492131672673949e-02 -3.621598081356456039e-03 4.425152072245759349e-01
3.350503430213119804e-02 -2.834087515936451872e-03 4.396564554659963542e-01
-7.507770964539524187e-03 2.454044567312809594e-02 4.115677315070759290e-01
2.780637018152785217e-02 1.346803854466182594e-02 4.353015727361388976e-01
1.561161797289936648e-02 3.936479252322579170e-02 4.255587111794774668e-01
4.891723251978240955e-02 5.298832721035087734e-02 4.853818781486182732e-01
5.526552423814751203e-02 9.758532198866975288e-03 4.777455458536677413e-01
3.389864388279994339e-02 -2.877200307871011567e-02 4.466266160640454674e-01
5.058666026226118356e-02 2.223178297684939159e-02 4.918117011317744147e-01
4.895322036828461676e-02 1.694082774974318278e-02 4.513871838383883839e-01
-9.775274577320322220e-03 3.805071784523766931e-02 4.144746284331886632e-01
5.648687996878883066e-02 -1.449395950304782979e-02 4.791708592514209997e-01
5.252536706192384441e-02 2.296225540214175131e-02 4.574922120793634139e-01
2.283813586368652754e-02 2.674477826464968094e-02 4.324635255578332393e-01
1.915620712938349846e-02 2.034134989336684393e-02 4.302721058842246538e-01
4.903676051833747579e-02 2.366701228080242414e-02 4.971338863789206974e-01
1.319725750779183939e-03 1.974328767585799629e-02 4.181836032973355599e-01
9.480291358683737291e-03 2.471120612991862739e-02 4.200565256669308578e-01
5.051999592272467948e-02 -3.233102244229322814e-03 4.591437493968362205e-01
3.700753268734242873e-02 3.291013763224795441e-02 4.409210444276702723e-01
5.106713525936901199e-02 3.121519604088725947e-02 4.929441415606263810e-01
4.741848335557825866e-02 4.797056166272058164e-02 4.499194471475617130e-01
-4.265366241305565409e-03 2.334396066094330396e-04 4.296151971108210232e-01
4.280355509949626547e-02 -6.928342944640647483e-03 4.483821750557112629e-01
2.423682568567758072e-02 4.352660928652610228e-02 4.322056194984554289e-01
5.269853316472399019e-02 3.652769395365522420e-02 4.592014815772730851e-01
5.434559348484070684e-02 5.966181504058607442e-03 4.884870714564211180e-01
3.371031168595638866e-02 4.137540774637935709e-02 4.391779324051223732e-01
1.954926722531142441e-02 2.741332322061419344e-02 4.300038187014953439e-01
5.489121329323840698e-02 1.712889983231909857e-02 4.777500949187641344e-01
2.286571893638268335e-02 1.759220127417130894e-02 4.329862361856027797e-01
-6.954899142546627343e-04 3.061730220120309487e-03 4.290747279860622765e-01
1.856873994529089494e-02 1.937321535909658499e-02 4.300274101328195875e-01
4.094092187683091161e-02 4.995125402525441016e-02 4.439755837278400175e-01
7.272268908795883301e-03 3.669696852152625616e-02 4.179236998695661232e-01
1.420218040222414116e-02 5.041252656003090971e-02 4.280228393611917315e-01
6.007568330813112603e-03 3.485275432899515632e-03 4.294872935714494910e-01
1.570744258879069183e-02 1.051459012029167493e-02 4.306813540726700529e-01
-1.015603779096971087e-03 -1.399989396258676487e-02 4.336012032242461123e-01
5.241124811677326523e-02 -1.815006906914614845e-02 4.690460007873792359e-01
-9.095373332730853633e-03 3.725758706795370689e-02 4.138339386340841863e-01
3.039505389698560212e-02 -1.544858379766586229e-02 4.393717486543931017e-01
3.796268327034135748e-02 1.020099185516208998e-02 4.418590681326809988e-01
5.345949132089795885e-02 4.221981372224050538e-02 4.742153298190632249e-01
8.656226525613486267e-06 3.744767215502575047e-02 4.137670307250302937e-01
5.123126655100300464e-02 2.592007435186191242e-02 4.909244912458038956e-01
-2.472038826252713137e-03 4.649365986453854460e-02 4.212662882828973610e-01
1.574918259073075297e-02 2.976815808618007292e-02 4.253274509385934765e-01
4.300633003138119165e-02 4.433499148532344530e-02 4.457335680244061682e-01
4.731944859646237261e-02 3.092170329365361708e-02 4.494342278363516741e-01
5.186999082473537498e-02 3.880637624085122445e-02 4.577451451068793031e-01
-1.104386014664070215e-02 4.063289512690780592e-02 4.168668592890716340e-01
3.431424663725016200e-02 3.001998153846138773e-02 4.391705409149412320e-01
4.404616033608988596e-02 -1.160338320668563572e-02 4.512984425595966131e-01
4.964777991791215900e-02 -1.818687684893261283e-03 5.148240226840681277e-01
5.334878819321135779e-02 3.980572206532811963e-02 4.642030646892634227e-01
5.436646787501347999e-02 1.573741081606357811e-02 4.802460911486812756e-01
5.094599852679985302e-02 2.965649030139421577e-02 4.929498471639977564e-01
5.363961649020451694e-02 1.559974554701692995e-02 4.613909798134221418e-01
4.141614645427083366e-03 -1.180113466138322902e-02 4.327352803908496304e-01
5.308997386209099445e-02 4.289508717970619278e-02 4.675073825131719762e-01
5.544586748531065562e-02 5.797757143782704230e-03 4.723603362844333575e-01
5.193332707699651468e-02 4.665584557792919196e-02 4.629554245089081421e-01
2.802286671021469652e-02 2.487803101344621820e-02 4.356255184355968257e-01
3.335040433477524935e-02 5.139985455537721126e-02 4.392679283336895502e-01
8.130286577974561897e-04 1.679748219760059114e-03 4.294129858805058597e-01
2.688028628239978735e-02 3.965226655149187845e-02 4.345149741355250894e-01
-1.806620039401764938e-02 2.331476834952399962e-02 4.173802695210767633e-01
-9.995790962750634480e-04 -6.539177819430734388e-03 4.306521333300594723e-01
1.230579839838160869e-02 -1.809243169577009688e-02 4.360451887164272788e-01
5.415731176622266135e-02 1.621832812028528928e-02 4.638245459982566210e-01
-7.806797088555686090e-03 -5.732093525251487007e-03 4.314052347291566503e-01
5.121480258664271035e-02 4.423334767435445347e-02 4.926581462898069752e-01
-2.552563614256696256e-02 1.831425197671418537e-02 4.238156919194398520e-01
-1.988045338903944234e-02 1.507503776860931802e-04 4.318508224383940108e-01
5.386357992156597108e-02 2.013077170677691000e-02 4.616925860593983355e-01
5.374491188834842892e-02 3.729239539228583478e-02 4.850667318367390957e-01
-4.405463736663334934e-02 -5.872938441405829713e-04 4.418793924229185155e-01
3.012523060599205452e-02 2.513799540261303297e-02 4.366323326378912517e-01
4.929794374766800075e-02 4.634348933423560607e-02 4.519393261351236646e-01
-1.827952461404562523e-02 3.288919093400602400e-02 4.151703061020149410e-01
5.609110747868113755e-02 -8.248678491801589643e-03 4.774086967584755259e-01
4.847493651128016723e-02 -5.773103009124248147e-03 4.560678562324500529e-01
2.478699749134936209e-02 6.376551638409846089e-03 4.344004216020148634e-01
9.542777314885555681e-03 -1.685833786159674982e-02 4.361168559428128533e-01
-4.028495451220218126e-02 2.638402754846019219e-03 4.435101473079607337e-01
5.514490461290302847e-02 7.269577184444854512e-03 4.702551644378328843e-01
5.007547062488407197e-02 1.249325600081404447e-02 4.967024852282593272e-01
2.260263232460778260e-03 4.999818522744500521e-04 4.295803923235693156e-01
5.360732680127391209e-02 5.758104037083462169e-03 4.935281415878246536e-01
-3.157101873304245937e-02 2.470645776397331281e-02 4.242324146377392524e-01
2.845083534362166308e-02 6.085995065823728012e-02 4.424095688093266365e-01
1.829032317392754667e-02 3.031423202335049513e-02 4.286449813215213456e-01
5.469369058339688255e-02 2.608251888053885609e-02 4.799745475738577682e-01
4.502163289490138803e-02 4.858986758209064838e-02 5.032813267459855799e-01
5.119156531479245736e-02 6.668188339196991048e-03 5.008157552663232703e-01
1.055682862162497099e-02 4.757626467641262041e-02 4.249065080773064551e-01
5.096840073147490546e-02 5.196293714696562788e-02 4.750957796294877911e-01
1.325809817724946625e-02 4.607346610325499352e-03 4.311430723629323669e-01
-1.544868867873537555e-02 2.366597443334845022e-02 4.154869401012873942e-01
1.521254414865892170e-03 3.701799161321406295e-02 4.139169572133105657e-01
3.159284670410344303e-02 4.167201308079625244e-02 4.377020467879396137e-01
-1.902136398229088005e-02 3.387194821098086367e-02 4.157462611860219814e-01
1.792051749529054161e-02 -1.321059906960512717e-02 4.345746893081081641e-01
5.379638228770015906e-02 2.683237562388243822e-03 4.652484942063301876e-01
2.204986450852776739e-02 -1.193152701122437639e-02 4.352932768974758782e-01
4.620539368774018857e-02 5.961522156652901416e-02 4.558416835431584047e-01
1.469898136375555331e-02 5.548137391334558022e-02 4.371840802074528076e-01
1.317214820368208666e-02 -1.487491606293256732e-02 4.348583453102041751e-01
3.238229270347741523e-02 8.975295681972112784e-04 4.387673574493822781e-01
2.555100502583474917e-02 -8.937345417677756282e-03 4.356640090601677229e-01
4.580893342529625961e-02 4.432110967364693427e-02 4.483228324332717563e-01
5.175639981998740591e-02 -2.066694015717229077e-02 4.684246972542233656e-01
1.306925078034880568e-02 9.622350266632082733e-03 4.301087667805224557e-01
4.704695945859216355e-02 5.985831127067671453e-02 4.653956960897366324e-01
5.016081284836275411e-02 1.842248150812937982e-02 4.934298772584691517e-01
5.405358616939333338e-02 1.916300467215447528e-02 4.811545058069885417e-01
1.542344957721069124e-02 2.298383545506053199e-02 4.262773838100202828e-01
3.771162380885821619e-02 6.233151274254066648e-02 4.457051132007972538e-01
5.221186540097385448e-02 4.145472365250226637e-03 5.022612459825807063e-01
5.055084684338093104e-02 1.774366326637209345e-03 5.097307428049265843e-01
-1.358348857100498061e-02 8.819251203326937058e-03 4.259910487662647016e-01
5.437920396296915676e-02 3.228180838145393999e-02 4.807139417986424634e-01
-4.430182165830516376e-03 4.362387973144827430e-02 4.176069411136887344e-01
3.584614286781735021e-02 -8.924671119311618217e-03 4.416724799903871679e-01
4.279125929942833445e-02 6.529313784498176620e-02 4.658121194132486820e-01
5.102916963096645886e-02 4.494046833571756216e-02 4.929996702546996512e-01
9.596365945183669977e-03 -2.265537523564771592e-03 4.306083811222491953e-01
5.558679796263410466e-02 5.044083595938419692e-03 4.818505955889436088e-01
4.979001537784174397e-02 1.262964245048273440e-02 4.973863941966516489e-01
2.217957457288477138e-02 1.655238416548263786e-02 4.325509133371355786e-01
6.961639065626206227e-04 -6.500281355632846203e-03 4.306174419791526931e-01
-1.844712309229408834e-02 2.228530017775801064e-02 4.192039069700795317e-01
2.022094145117499502e-03 3.505127300142349151e-03 4.290654466151495039e-01
-3.439612603313162847e-02 1.354451375804024103e-02 4.363351776088325029e-01
-3.306338164483250269e-02 1.905704616029048684e-02 4.278455875390932417e-01
4.227729115305149665e-02 1.934610495653877119e-02 4.448325623102239446e-01
5.530079772508604552e-02 2.159146393207193523e-02 4.725920921495209703e-01
4.476432166242508282e-02 -1.679918367990243522e-02 4.531130473561329475e-01
3.340520071081119063e-02 3.581918139769196818e-02 4.386684918939106059e-01
5.170030554006550122e-02 1.152262158453219720e-02 4.927532533315590046e-01
5.226419913382805010e-02 4.753326806518724107e-02 4.699088814741921860e-01
-1.277267614270724723e-02 4.062161695959922575e-02 4.174107190472648998e-01
2.786813931854327520e-02 5.613351040147351520e-03 4.358441201143367083e-01
5.443889297063192467e-02 2.619027610017337845e-02 4.649335572624743174e-01
4.589582705511863203e-02 5.885990923349688347e-02 4.543036610645114215e-01
2.799980419834063178e-02 -9.548910578562816442e-03 4.367105376953464568e-01
5.484410280823179967e-02 -1.321144565146568223e-03 5.055891677298893772e-01
5.637861033984671588e-02 2.882192451399210546e-03 4.770529094023197580e-01
5.499002963594043503e-02 -9.863757055954363445e-03 4.735565373695435620e-01
2.915694881215720978e-03 6.403217390201706126e-03 4.286196694561058007e-01
4.281005649839549065e-02 -1.609980748701912018e-02 4.500681652789799148e-01
3.110957938354503086e-02 -1.177112887616023340e-02 4.390289916633690059e-01
4.665501725071832112e-02 -3.288467701263481091e-03 4.517294839213550905e-01
5.180705825307754808e-02 -7.483289142227261825e-03 4.639375803320890945e-01
4.788267043140507356e-02 1.115993113516526580e-02 5.045367178296708000e-01
-2.343086952975901617e-03 3.874943998177381166e-02 4.140290290334679435e-01
4.325449060635738752e-02 2.447307319110902588e-02 4.456784799354179816e-01
4.718342662553436789e-02 9.941906408105268683e-03 4.496377843358937421e-01
4.968019552819784301e-02 5.321812699702431482e-02 4.806261347103668036e-01
4.604931937076196802e-02 3.858841368628821572e-02 4.486413107416691859e-01
7.925201788564198088e-03 1.884600648187190197e-02 4.222493890356675550e-01
-4.029501568661277705e-02 3.264119570099378951e-03 4.450342576557061447e-01
5.401084159178211330e-02 3.903271391467471457e-02 4.724299408534275435e-01
4.698440329015097366e-02 3.830336454241870664e-02 5.032400159954371066e-01
5.328189053366880895e-02 4.339251325607096366e-02 4.766850105106173463e-01
4.173522023949485793e-02 6.570811447467275745e-02 4.569299587353238823e-01
-2.229878326244030470e-02 1.918096896211894317e-02 4.218269556045849966e-01
-3.190427514638874418e-02 2.177201132789560040e-02 4.258277916652328243e-01
5.487712408545720316e-02 2.704008332525517991e-02 4.674746183762794050e-01
4.932754225939820630e-02 1.020746554528846606e-02 5.009505714736840476e-01
-8.962302010440174882e-03 3.379686974986571835e-02 4.115899131264807442e-01
5.002759371447817321e-02 2.489906341893815406e-02 4.527438208396442620e-01
-2.463037514277580803e-02 2.795152983433898952e-02 4.188342839467142920e-01
6.775808502016818224e-03 3.683510360961523428e-02 4.175899413007496674e-01
5.140462785347345298e-02 4.829742578123708691e-02 4.841803554169051838e-01
5.297167309444776595e-02 4.801918026060390463e-03 4.624034521444836954e-01
3.980824235681827347e-03 4.634899786549542822e-02 4.198055731176853489e-01
-4.999346089833444501e-03 3.595971822711135218e-02 4.116244624643528027e-01
-2.277444579707722794e-02 2.299027010212055175e-02 4.203266967981995617e-01
5.171063087315196094e-02 4.950486199549965910e-02 4.790139587804534416e-01
5.110159383382560649e-02 1.712300136660078326e-02 4.909099029003633485e-01
5.534663983162792927e-02 2.009700372595766421e-02 4.719511717865330636e-01
