-3.101833612759683986e-02 2.514380438219786240e-02 4.229654464021375126e-01
4.544709562255913604e-02 2.650772785448796826e-02 4.470329376811065236e-01
4.940413043761843204e-02 4.278491634712661834e-02 4.967424639564888555e-01
5.223348153011422162e-02 4.208706487625415993e-02 4.597945158904129248e-01
-2.517117041179554870e-02 -2.220618036454481518e-03 4.344912214002389361e-01
3.386928937848420612e-02 1.310073007228611253e-02 4.383376854658192490e-01
4.574489233857625958e-02 1.831610727903359558e-03 4.488958010432472778e-01
4.726997997304962368e-02 2.673872391971704975e-03 5.138636192143397619e-01
8.152974211073891336e-03 -1.369632635706181933e-02 4.345384644570715049e-01
2.372908044846847378e-02 -2.292023034102877790e-02 4.380916607109750505e-01
1.208853606707647500e-02 5.475780992942611350e-03 4.302968914985501048e-01
4.885875288996158194e-02 2.297915856271765672e-02 4.970898054063156435e-01
1.645047412108358725e-02 2.636595385425909849e-02 4.260415467261325917e-01
6.852523607405660612e-03 4.236623941680872640e-02 4.192709897381021178e-01
2.519195744915234125e-02 -7.732187189605438729e-03 4.351014637272100360e-01
4.406681172686358755e-02 9.214118766882741646e-03 4.463459053221899842e-01
5.383372121517062542e-02 5.063934122915699290e-03 4.649189280883295750e-01
2.883126247412530485e-02 5.337313004732865268e-02 4.363391206850645299e-01
1.329340295793611515e-02 2.799753525062293434e-03 4.308603543568731431e-01
2.639135745145396693e-03 3.430130341077593931e-02 4.117303139516255706e-01
3.410812055951194938e-02 8.126641008001018671e-03 4.384954528238151350e-01
2.886795636447313934e-02 2.114526587266485000e-02 4.355083529026497757e-01
4.341708832923608236e-02 6.478332064600855755e-02 4.606045962463449772e-01
5.616570507929932038e-02 2.491552178856866126e-03 4.833373206230814900e-01
5.147851315890913243e-02 5.071894789163988726e-02 4.728494076373353505e-01
-1.536565559335699264e-02 2.223477036886578606e-02 4.161584110376225776e-01
3.774105678414389070e-02 1.975686175933101529e-02 4.407623357057913194e-01
-2.452457739690137601e-03 4.453043495325929163e-02 4.178907402937431792e-01
4.788065602651860736e-02 2.798775563019378909e-02 4.492655179279682609e-01
5.084144986244278769e-02 4.982220565727973893e-02 4.829007179255909166e-01
-1.179545021360019555e-02 2.595699686219519499e-03 4.290991125466173117e-01
-9.395172652479556741e-03 2.996732763047825834e-02 4.104419436949549027e-01
4.173811645361736461e-02 7.388093620490479400e-03 4.446745196403459888e-01
-2.686662909388214115e-02 2.406703585735896558e-02 4.210239807570353987e-01
5.511112814627726342e-02 8.694524854812925654e-03 4.798195793652746399e-01
5.078277339133694529e-02 1.800480728942164405e-02 4.912263037460591897e-01
5.085617635054343055e-02 1.212499181332626561e-02 4.943432535248298842e-01
1.189365166060230711e-02 -2.103116735367019027e-02 4.369316527514092718e-01
4.475619859433714598e-02 3.784664511190315855e-02 4.468112937235947379e-01
3.027486077178167742e-02 2.508432034322242293e-02 4.361581216741194367e-01
3.525676678629053457e-02 -1.650222937251047406e-02 4.426103496682204375e-01
4.909821066721523769e-02 5.532219512711471915e-02 4.705619436964884050e-01
-2.105113537728603088e-02 8.273456649380830571e-03 4.280076333608385797e-01
1.274465036413141746e-02 3.215277699295251285e-02 4.200353079178601456e-01
3.593439301810666398e-02 6.628361645153946213e-02 4.585960338168940109e-01
5.632744319827046042e-02 -7.921956883359108914e-03 4.781896961327983808e-01
3.689277753381252356e-02 5.451476287851976521e-02 4.413766197661043167e-01
5.450954353853545986e-02 3.640325238301495708e-02 4.778788842571392581e-01
1.588828403920261242e-02 5.198796145802253577e-02 4.291266922212790269e-01
4.517060825860270967e-02 -2.271900134307314190e-02 4.566583034197361224e-01
4.961736409234342865e-02 5.443631193803421392e-02 4.696366828946159089e-01
-1.356001356742224558e-02 -6.973704995155064965e-03 4.331698149974768097e-01
-1.772070084209874732e-02 5.527207631326909280e-03 4.280121028254195159e-01
2.901090961598952120e-02 5.890329040162740892e-02 4.386564545632274936e-01
3.384312017437411668e-02 -1.564994717422049653e-02 4.414748770807682687e-01
9.182565449542814603e-03 3.416738843367411738e-02 4.166766819006534339e-01
-3.229486884403604333e-03 3.625195830425495536e-02 4.107026068686973064e-01
-1.164189432387158912e-02 4.920736623547042332e-03 4.276169030782102087e-01
5.065231467526123965e-02 2.980429488915283323e-02 4.931744959278251406e-01
-8.974799265822511890e-03 -1.333869563028839376e-03 4.297470278159339352e-01
5.204852395801255749e-02 -9.451595624469281975e-03 4.650593236188094171e-01
1.873935208462054400e-02 -1.519262932327796953e-02 4.351284146364339800e-01
3.409254418453178809e-02 3.461898577460326143e-02 4.384450083975310331e-01
2.867994922413462031e-02 6.098447534879391542e-03 4.357677551339337874e-01
4.410469626411724769e-02 6.243672646627007605e-02 4.539255768482193809e-01
4.650408062218243377e-02 5.555555868206291104e-02 4.515014616779884360e-01
3.616956679605867059e-02 2.820223991195542138e-02 4.398009188817285642e-01
2.215914748610802940e-03 3.421423849469705514e-02 4.113655320728635822e-01
1.925905194413013791e-02 4.039574858706157512e-02 4.272983711145956209e-01
5.415735443057420606e-02 3.516382923621758083e-02 4.644645552508227526e-01
4.995447345186140170e-02 5.168952539574044047e-02 4.588121792790988973e-01
4.396466720032746883e-02 -1.763388277167661500e-02 4.519010512166380944e-01
3.592563599794256629e-02 -2.354629112876860646e-03 4.409202119914309992e-01
-3.200938488773667073e-02 1.057476402038737620e-02 4.338476713517136485e-01
4.704686182002011663e-02 4.417095859922349349e-02 5.010194417204383299e-01
-3.187962761558674890e-02 1.180648383795242402e-02 4.328071734478107224e-01
5.264703375905385729e-02 3.535850712166329485e-02 4.582773422259412421e-01
-6.436299313398487210e-03 6.862566809339577627e-03 4.261063853060249595e-01
-2.654772047631904705e-02 3.384375605672806236e-02 4.182021475632312080e-01
5.392841380718872007e-02 -6.828068074988370185e-03 4.677079140304468141e-01
1.894876120554836452e-02 4.216608217361028643e-02 4.270952828684466684e-01
3.750915670340371211e-02 2.241956081846218501e-02 4.406754634778536905e-01
4.990886150725128145e-02 -1.524399384928074724e-02 4.630301919401277888e-01
4.989247884627465851e-02 -2.269152909518196409e-03 5.146475966958652393e-01
5.376013564465224187e-02 4.040460373493624108e-02 4.723601280224422605e-01
5.079900930118492336e-02 4.248269534200344033e-02 4.935871830234824786e-01
5.520325437137827557e-02 7.988386055872322492e-03 4.707806230924979629e-01
2.739379742786851937e-02 3.644197705747800973e-03 4.355381939030615324e-01
3.522575207309721484e-04 -1.878215923252749778e-03 4.295960463937979479e-01
3.242748295702971295e-02 -1.103553522515747162e-02 4.395940175716404608e-01
3.778215516165613769e-02 6.668999782335892357e-02 4.482439518592162275e-01
-1.404075660046806215e-02 4.582593421971835335e-03 4.281708135944997662e-01
4.452452664311777608e-02 6.321683815235708270e-02 4.565367082364521489e-01
5.570498192141318944e-02 5.858702140493060248e-03 4.742529347339127788e-01
5.446233193132201528e-02 1.621832071519052967e-02 4.793261192050685682e-01
4.815381564244930468e-02 5.223840125719944605e-02 4.899159745531849741e-01
4.076959522917431022e-02 -1.673702339042923426e-02 4.472165465008794971e-01
-1.744914555304071316e-02 2.189456970208962516e-02 4.182055861027079158e-01
4.859328384633788273e-02 3.618290333247498047e-02 4.509515687994877786e-01
5.097929081317857658e-02 5.221139998712385349e-02 4.709016010772353322e-01
4.125168177054459873e-03 -1.867121349457386004e-02 4.364905950626908337e-01
2.207752589655858147e-02 -7.233621915217362591e-04 4.336913922131119814e-01
5.377952372985728147e-02 3.887163268033854563e-02 4.667827507466222881e-01
-2.178600330411116157e-02 1.074376839635568862e-02 4.272840357731674255e-01
-3.015942434679319203e-02 2.912061166736423790e-02 4.205721633460542397e-01
4.233269907926617837e-02 5.600982390488815771e-03 4.453562068082708159e-01
5.458837858235029289e-02 2.817311195080988290e-02 4.652786586044078132e-01
4.693322485816689427e-02 2.938268066257799377e-02 5.033760027040912188e-01
5.019872133891301047e-02 1.447756754025781786e-02 4.535257137433320596e-01
3.272149977438815888e-02 5.987009918895851157e-02 4.405507539361418479e-01
1.213157637522563337e-02 -5.767290071127079924e-04 4.304556127453442183e-01
4.247177614858366201e-02 1.574472403042049412e-02 4.446625526854761090e-01
1.439596117529354236e-02 -2.392889401332172396e-03 4.315062422271643272e-01
5.138764774925951712e-02 -2.165801819427182195e-02 4.679098841746236470e-01
5.711519899694309649e-02 -1.006926942100431696e-02 4.822143318293189429e-01
4.976246372998310158e-02 7.373895612857314479e-03 5.037357145848450068e-01
4.724219564382915737e-02 -1.015013922402248706e-02 4.559460072942920217e-01
5.340735542608860548e-02 4.085151061190828853e-02 4.663216742916193591e-01
-1.000225698958549098e-02 2.568292963576074978e-02 4.109329660592724864e-01
5.411967908725542203e-02 3.897703549236325449e-02 4.757674063856851543e-01
-2.429814692995739545e-03 2.951274705403228709e-03 4.288003424295946941e-01
-2.656475884907240695e-02 2.905405578969686570e-02 4.186147795420790962e-01
2.565729569959103104e-02 -1.136914660772585413e-02 4.361403715166249917e-01
4.623564090779408442e-02 9.005866568244249790e-03 5.091284913692564196e-01
5.452254467810369043e-02 3.554364310005563021e-02 4.791004249498053702e-01
3.976118994859598882e-02 4.378220184281033517e-02 4.423763091382555412e-01
3.803659246675816091e-02 6.280364646510680493e-02 4.457018708836305576e-01
-2.433821192247782525e-02 -8.598676463507292853e-04 4.335210254087932258e-01
-2.724572960523651000e-02 2.085407325194143721e-02 4.223940224229040252e-01
-1.053513254720942968e-02 3.908754330748152178e-02 4.144896427178348941e-01
-2.286194230269831748e-02 1.478047324749368237e-02 4.248824224603403588e-01
4.956126669784220728e-02 1.139654821170473994e-02 4.528815584180874154e-01
1.661841234389156013e-02 1.169785197713636184e-02 4.299755567737892359e-01
4.395817389831990080e-02 -2.003855390148663509e-03 4.483046336853943603e-01
3.921429724519800986e-02 1.302693225717629433e-04 4.435573236035036393e-01
5.141102843701549768e-02 1.674869481031014337e-03 5.078880469830553412e-01
5.704663603655913545e-02 -5.764350491033216374e-03 5.023839278882723525e-01
1.395682486530090693e-02 5.263818149696027765e-02 4.288023084269033669e-01
4.888764479223108722e-02 3.994967416117276016e-02 4.983932956669261394e-01
5.472719666161004332e-02 1.847117698047638992e-02 4.781312116750359720e-01
-7.907302460816714382e-03 2.405551950297836472e-02 4.106617090472889919e-01
-3.448511442335976812e-02 7.767868071386562281e-03 4.382166637184871649e-01
3.264367613143263902e-02 5.328099652410131504e-02 4.384012844548438315e-01
1.777878229383409239e-02 1.620824131706280827e-02 4.294804093821542046e-01
5.178415462084084986e-02 6.751182879016326410e-03 4.584277806524763021e-01
1.488237295000341062e-02 5.511362900757316857e-02 4.359071342679609051e-01
4.554109899743257611e-02 -1.348826655095956666e-03 4.497744291840070074e-01
5.448595539776062563e-02 -1.368730321354042455e-02 4.729624850358959409e-01
-1.271450806725438372e-02 1.628510485984853776e-02 4.207261713019869176e-01
4.617289567306449849e-02 3.401567926074158810e-02 4.481074061374223927e-01
5.293099258052735324e-03 -1.264231643372584757e-02 4.333059387820165642e-01
2.180616526144709549e-02 -1.671685551713206208e-02 4.363073360765822861e-01
3.411931952111098287e-02 5.653423982918666379e-02 4.401325074121182346e-01
4.886461817087706799e-02 3.265520111404621173e-02 4.983884528687063664e-01
5.468334915849703409e-02 6.599878724809202235e-03 4.673783421858261344e-01
-1.221191483153080681e-02 -7.574571646155128096e-03 4.331156147732517780e-01
3.270020902643351601e-02 4.563342442934800736e-02 4.376206022679781649e-01
1.105253067778367779e-02 5.459441652058924510e-02 4.340860842788955010e-01
3.927846857613302711e-02 1.071862704617256370e-02 4.424426824119905843e-01
1.809626589392190205e-02 5.630952673381484780e-02 4.369959791298362872e-01
3.822372932257576961e-02 -9.921548772468454305e-03 4.434795191612865839e-01
3.637312852928216954e-03 3.732629765134175270e-02 4.142176636536969991e-01
1.493462777185410040e-02 -2.278554587439674678e-02 4.371295926632865481e-01
4.051859192845718577e-02 3.731451061735764629e-02 4.430170398352873962e-01
-1.974811633328264066e-02 2.295609706337833553e-02 4.181547481394765620e-01
2.025994311552393665e-02 -1.545182705344263357e-02 4.355821624310601825e-01
3.965010742114446346e-02 6.534734069715530946e-02 4.681719662094649403e-01
4.252216302334466819e-02 5.996929998583039323e-02 4.480440707767625041e-01
5.405253524727852976e-02 3.846650315795839548e-02 4.714986017709326682e-01
1.838379532538233010e-02 -2.257630576979444137e-02 4.368082366264380290e-01
4.684367462528078729e-02 4.650185356559000810e-02 5.007338433774117803e-01
5.586143012714672035e-02 -6.918841437151914721e-04 4.946750989620349870e-01
5.297219726204936002e-02 2.416583241963385364e-02 4.847372041052027125e-01
4.697864305783404359e-02 -9.799135512670267834e-03 4.551079731507424730e-01
5.136015842347187860e-02 -3.759992556189302275e-04 4.595193993282979950e-01
7.504089999160559223e-03 4.835097344449733325e-02 4.221364280380953127e-01
-2.121780989892152816e-02 3.568139362995547542e-02 4.161215092162421914e-01
5.381678231229285875e-02 -4.580228330952009277e-03 5.118306574901623218e-01
2.690477375475759138e-03 -4.657921294396382902e-05 4.293584828293478539e-01
4.052910803914704096e-02 -2.204261942783329598e-02 4.492497644724138817e-01
6.297218487100077547e-03 3.397119691997939339e-02 4.142623015175255219e-01
5.475792915668133143e-02 -6.814245950137418420e-03 4.707656540724265426e-01
4.866570210232908089e-02 5.264542645202702209e-02 4.864879020710471402e-01
5.589618830855516002e-02 5.105797647115308847e-03 4.779677297200312647e-01
5.176733547451024126e-02 -3.355605122065946980e-03 5.132326359371196522e-01
4.900419578204657373e-02 4.127724521946871117e-02 4.510917757101892689e-01
-3.230734025312020224e-02 2.016174257266082834e-02 4.262482944309751720e-01
-2.179060302545242356e-02 3.286267897765338120e-02 4.156907876035316751e-01
2.616215313351157382e-02 -2.032087415826175011e-02 4.385390020009138912e-01
3.692339827391331875e-02 3.094458836377880773e-02 4.402768230185983289e-01
5.034134122619409596e-02 -1.242964136560839074e-02 4.629043057441711850e-01
-2.791042680230366307e-02 1.152837657914845826e-02 4.305878509352867312e-01
4.672112753480839320e-02 1.342675548072716323e-02 4.487975777737902572e-01
4.615567024760985210e-02 6.168605913012203262e-02 4.646423802470053821e-01
3.317862863646872662e-02 9.490768647451795423e-03 4.378148434074216055e-01
9.187650739734973260e-03 -1.409571061078636681e-02 4.348845286055689208e-01
5.137431577533813076e-02 2.860759181984247335e-02 4.907512251514618562e-01
1.881626375767631379e-02 2.122643133714276903e-02 4.292515131668329653e-01
-3.941275326156962883e-02 3.331721063867339530e-03 4.437680268658913962e-01
1.279320254292324634e-02 -7.638106783541950481e-03 4.320104697710021036e-01
4.725453477154872156e-02 1.322322352653278882e-02 4.493867114204973534e-01
2.914619361152126671e-03 1.826752034571660702e-02 4.186656568888065255e-01
3.484716366820690692e-02 3.006868643805829522e-02 4.389319585049545891e-01
5.701400191555160840e-02 -2.572435692496747965e-03 4.812065359876975257e-01
5.284981066545916401e-02 2.458366042529340836e-02 4.576663506645411439e-01
4.737629814123917038e-02 4.985435571861220744e-02 4.497011701391664951e-01
5.109443601162976661e-02 3.802829882466786382e-02 4.552256652096745015e-01
1.882044753260093614e-02 4.228332667560787128e-02 4.270028421769467286e-01
1.900473840879153206e-02 2.219651582803383247e-03 4.327975714971357135e-01
-1.134667859112744800e-02 3.224597058656557269e-02 4.107599159439657144e-01
8.571060664435012355e-03 5.322709261406895903e-02 4.289224965624933716e-01
5.167151615493389277e-02 1.642535010849363597e-02 4.889077365521883323e-01
4.977157103037929686e-02 2.023712889504978782e-02 4.939303325358563312e-01
3.567506594524531144e-02 6.008658302999042577e-02 4.420958469801363200e-01
2.306716321490894991e-02 1.981421166802432854e-02 4.325013720910916848e-01
4.727593724716619428e-02 3.724607812521885716e-03 5.128281328732208211e-01
5.184155147678603387e-02 4.925654327077806649e-02 4.704201745969046056e-01
4.313607425693567060e-02 5.255492771672442415e-02 4.957246357901239353e-01
8.020326269067646133e-04 2.590781696246801866e-02 4.111918173079814331e-01
-3.141605851595993815e-02 1.310405233331024544e-02 4.312491621125302821e-01
-1.430567618335316536e-03 3.153222944960096946e-03 4.287067816103349860e-01
3.267380982607669127e-02 1.528655808000602134e-02 4.373827835455139645e-01
5.278834710469759023e-02 1.127832022072197682e-02 4.887543478833416555e-01
4.168152767523525259e-02 3.661395326934776401e-02 4.439222405859921672e-01
-1.912144791010565378e-02 1.051293921184752629e-03 4.310721406528079114e-01
-7.017534143164016851e-03 1.051431928122078564e-02 4.244429572111522164e-01
-1.979335919951798889e-02 1.910543128503581350e-02 4.204959118807398699e-01
-9.470269407617015137e-04 1.149361304325806007e-02 4.244489635205098144e-01
4.277483490104341118e-03 -1.260934664003857814e-02 4.330896213140117412e-01
3.499275541665312211e-02 4.988603037855631264e-03 4.398367106010994121e-01
4.076075801116473690e-02 6.576335226616154828e-02 4.540040118041528405e-01
4.595576377684642416e-02 6.143295262229977322e-02 4.672526851457987629e-01
4.775028900984198271e-02 2.465845491960044419e-02 5.009832079805500715e-01
1.026913550244255152e-02 -1.852018619503039126e-03 4.303548095935033069e-01
2.905481900197161294e-02 4.407959485345398082e-02 4.350803319166587357e-01
-1.191329176044494259e-02 1.320715025563239456e-02 4.227088264696282627e-01
4.460071906521548279e-02 -1.203401124233706258e-02 4.519594250931521784e-01
1.408817964647436638e-02 9.174791015261582645e-04 4.311534289434966749e-01
3.544362674272288211e-02 5.531314616809904217e-02 4.405677206756017927e-01
4.375934638192153364e-02 6.387519538252908746e-02 4.556746147887524856e-01
5.349686975207565420e-02 -1.327747760780466704e-02 4.701326706564588065e-01
-3.070060284912183926e-02 1.279312835629202276e-02 4.311752242923117540e-01
3.359742770888322211e-02 6.317989876509008673e-02 4.439438589370992005e-01
3.117887210961985123e-02 -2.415799799744345125e-02 4.420683751480781187e-01
-1.075260640737845871e-02 4.165548990952645803e-02 4.179856947791351640e-01
3.003492475438808082e-02 6.366191063589536625e-02 4.445760801562180231e-01
4.013582371981285618e-02 -8.450847342830053455e-03 4.452884413322898416e-01
4.952335422869426351e-02 4.946742775743788456e-02 4.539001910715724786e-01
5.453625594646461378e-02 1.205106607900127344e-02 4.798338855308342255e-01
1.788343279590192889e-02 2.984535683527450578e-02 4.274464552540790385e-01
-3.492153962785909255e-02 1.786311022622391609e-02 4.313106747271774344e-01
4.500389157573579657e-02 6.190969588662537104e-02 4.705994385708814343e-01
3.570751164931799254e-02 5.454871549853826385e-02 4.405909284333673348e-01
-3.044604652891765191e-03 -5.547820487057609704e-03 4.302764119498005968e-01
2.997653090027267708e-02 -9.869367742901728399e-03 4.378361556703060931e-01
8.404530883603850144e-03 4.017995466882159222e-02 4.196366208789586993e-01
5.030660598115219845e-02 4.909758371272399113e-02 4.574159726616912058e-01
1.338257070396410911e-02 4.734414246405628524e-02 4.255758961853584044e-01
1.944676310869794880e-02 1.992192066658752050e-02 4.299187734018125040e-01
2.408446252098091211e-02 6.056859603835258732e-02 4.426487243090320711e-01
5.472180446842480478e-02 9.610348584865355259e-03 4.822618072004757339e-01
-2.289604663124474027e-02 1.930245746935479317e-02 4.212073864918103316e-01
4.752081966728870233e-02 4.322252585653058032e-02 5.003658091088845072e-01
3.397821087075641924e-03 2.252523682335967961e-02 4.147972668304112931e-01
-3.658523728991437858e-03 1.819781337886071382e-02 4.179010707112391088e-01
-2.389485649379357798e-02 2.101768279904436126e-02 4.207124274423003074e-01
4.953350429469160349e-02 5.432748921138506187e-02 4.761624398574800798e-01
-2.976794392018372246e-02 3.141174707936857102e-02 4.213285245025557568e-01
5.039824841967489866e-02 5.273559390555060400e-02 4.667968221987594535e-01
5.675640442475490821e-02 -3.273434298350053409e-03 4.777871519411210910e-01
5.245424545232590940e-02 -1.655873146747297714e-02 4.686185952572571312e-01
4.894597070892078156e-02 5.275648623718517255e-02 4.548189570934421111e-01
-2.755408809879159038e-02 2.577535941351685733e-02 4.206507588038120304e-01
3.877199913252449281e-02 3.600907956987500769e-02 4.415691494088961888e-01
4.665512148891116234e-02 2.214179574800131597e-02 4.480719609487407440e-01
3.801407947356044009e-02 6.572313331822081384e-02 4.618339508822459916e-01
5.108491657143977155e-02 8.457913244734617184e-03 4.975198744889649527e-01
-9.790071444926418641e-04 3.387086736734334913e-02 4.098334297284677574e-01
1.467505287021686824e-02 -1.747727603965499449e-02 4.354871304373428287e-01
5.229603889398574262e-02 2.151790229484884520e-02 4.858358411870506988e-01
3.650409539887359937e-03 3.979959968127945447e-02 4.152852109238868161e-01
-1.073222071349012180e-02 1.154505988752029845e-02 4.237092156042652769e-01
2.982572986251292094e-02 6.017091076464067129e-02 4.404575293996175755e-01
5.389498749249099080e-02 3.686239880128538288e-02 4.838097994007342639e-01
4.846065872882467096e-02 -1.479496938062438254e-02 4.599066523513571370e-01
5.276339444149283353e-02 4.472475428650892620e-02 4.684008826444749363e-01
-2.009229088359507434e-02 3.332932170541660216e-02 4.151517370637661242e-01
5.253425568186005645e-02 1.715294108923573826e-02 4.579271692720674469e-01
-3.271878007791063914e-02 7.258812587997091892e-03 4.366433984749972241e-01
3.572905148572431272e-02 -2.982313782785491960e-02 4.485812055166059076e-01
4.236502375591481157e-02 6.546601017171899128e-02 4.616223678966580035e-01
-2.290720706642423998e-02 1.691821089412182816e-02 4.233180211399173443e-01
1.308111025938293696e-02 1.597173543834282464e-02 4.269990034905111198e-01
5.230982175370852555e-02 4.237402466259552331e-02 4.603542661168296690e-01
3.974268033311201959e-02 6.667241875786725225e-02 4.543001593840454433e-01
5.514578945091377221e-02 1.639156250746257037e-02 4.700149803669323445e-01
-3.983397511415852354e-02 2.117762304677003708e-03 4.407695780573302469e-01
-2.439862111404511938e-02 2.521333601336917495e-03 4.319371352216995197e-01
1.368359562319703716e-02 2.414610561708921410e-02 4.232566134237700228e-01
3.518075810046870228e-02 4.522309597569235118e-02 4.392331304406844605e-01
1.430226809200333890e-02 -2.176970482154990533e-02 4.368409331507636661e-01
2.563761934551544996e-03 5.132100883161869187e-02 4.232768425170649884e-01
5.305934298614140010e-02 9.612543675131562937e-03 4.893690132169565277e-01
1.658259240180391322e-02 1.397439354941278425e-02 4.291898617193131704e-01
3.556464158595844249e-02 3.728930871745399483e-04 4.405260543856815980e-01
5.009760847076672602e-02 2.355804215496430654e-02 4.523767842040023468e-01
5.528099570481848773e-02 1.428151342813291542e-02 4.715009296907752279e-01
4.819172748926521532e-02 4.551430575888077562e-02 4.500624077717252369e-01
1.686063476868559369e-02 1.986524395177980892e-02 4.280038090254396632e-01
5.168065266898438231e-02 1.716414708625808166e-02 4.887439131965125583e-01
-2.423573882407606753e-02 1.527156478371106268e-02 4.253759385352532396e-01
5.511215353650514986e-02 -1.346430808496179923e-02 4.751802813101128620e-01
4.562229405014067013e-02 5.460549289056623734e-02 4.876973799693399281e-01
4.404426464078924769e-02 5.910710352459351558e-02 4.500274128921576966e-01
1.767677053971457996e-02 -2.431473221635774805e-03 4.322150321809554718e-01
1.300206769348797795e-02 5.265867237404840695e-02 4.283721504320311957e-01
4.711497751411358043e-02 -5.306810525368937936e-03 4.530808254692154646e-01
5.206687280545038710e-02 4.979845619303169615e-03 4.593360009260494814e-01
-2.431777414942547927e-02 6.666534853266288356e-03 4.306400781350440687e-01
3.019344722938142531e-02 4.274505563340842001e-02 4.359511647579076277e-01
4.793035039856602397e-02 3.336614904583744181e-03 5.122348135881241715e-01
2.057904986721004539e-02 4.011514865478341824e-02 4.282620661032381926e-01
1.154936253361947031e-02 5.371494816182156157e-02 4.310870312992360343e-01
-1.062499246133011971e-02 -5.410678199845477335e-03 4.317026301112515951e-01
4.705614777700087986e-02 -1.642849464952518893e-02 4.573288215573123594e-01
1.813417174390570888e-03 4.371949475510339411e-03 4.284428978411914390e-01
5.043156250299340310e-02 1.681722691870300018e-02 4.923199098592260237e-01
5.105868533298026785e-02 3.690553967083686632e-02 4.549930302284181383e-01
-1.811772325193448940e-02 -9.083059140460006571e-04 4.318151465344644002e-01
4.474817362949579103e-02 4.701239559913515664e-02 4.467347866012749691e-01
-4.406034138940047046e-04 -5.868289572260092235e-03 4.302935058863689433e-01
7.408256841320935010e-05 2.025997273268595467e-02 4.164474313039833175e-01
5.435935791473413270e-02 1.935771834096209135e-02 4.797717918665381776e-01
4.985235987303836963e-02 -4.137539016129955852e-03 4.578813272489502539e-01
3.251437027617703340e-02 4.037336652164721928e-02 4.376716187304299788e-01
5.431187732956706260e-02 1.237405676115625741e-02 4.815169164114701528e-01
1.425543395352100139e-02 3.796089075474053109e-02 4.236610104890002892e-01
5.209888263165856487e-02 -9.404958485866692086e-03 4.651260982290255641e-01
2.841911868560757087e-02 -3.989417765949646033e-03 4.363340226613852679e-01
2.793176923710460197e-02 2.969343292230473136e-02 4.355405125439280045e-01
4.720128943700324653e-02 -1.621338226098784085e-02 4.576392169691542722e-01
-1.019386823585917423e-02 2.630398526927585270e-03 4.290671901666865962e-01
4.600600562630128426e-02 4.408100920709526714e-03 4.487597606187860855e-01
5.228992970624705972e-02 1.174977281912795157e-02 4.900759832620614764e-01
2.498022259408931231e-02 1.875843214035935111e-02 4.337008372207898366e-01
2.764184805646414250e-02 2.262036929961733223e-02 4.349641030874432657e-01
2.340346022462758135e-02 -2.346833301456056203e-02 4.380446278084076384e-01
3.852497606716170225e-02 7.708848854974063684e-03 4.421125813292978712e-01
-6.152142503261879419e-03 1.519300726059452699e-03 4.291689141434662513e-01
5.431881099531423590e-02 3.777856745437260799e-02 4.756795197558911226e-01
5.677159581118607773e-02 -1.912906846131847663e-04 4.808187347700241254e-01
1.710643719316800107e-02 5.123110157688609730e-03 4.321789905915824903e-01
-1.576833977575981330e-02 1.585323347683646744e-02 4.217096807114444901e-01
5.591547572625017726e-02 6.319839452714526296e-03 4.759596778796703065e-01
4.671979549524458292e-02 -2.055191164850215559e-03 4.510912012402201188e-01
2.454803826432881003e-02 1.504816044171437828e-02 4.333329354864538518e-01
4.683618843420876005e-02 5.992589115702846858e-02 4.682684372874165724e-01
-8.269730246531482171e-03 1.692876224622746461e-03 4.291777487242386946e-01
7.098100777944644016e-04 -1.505606465747293121e-02 4.343045657028893336e-01
1.011617573108511848e-03 -1.469685716547712226e-02 4.341048726271169445e-01
3.635860819387106563e-02 -8.017328692373518542e-03 4.416759185735360527e-01
4.679484078580395390e-02 5.096302465727290537e-03 5.121767915351171929e-01
5.059592263851903776e-03 2.339250029696517130e-02 4.148553931232287217e-01
5.449062096927503873e-02 3.514171577479096448e-02 4.685529183911729678e-01
4.028661837398782308e-02 1.186559004778852192e-02 4.430925021065696967e-01
5.250106174925462527e-02 4.317209860402655697e-02 4.621137210612255020e-01
4.267955469412057501e-02 3.949094128348904637e-02 4.448876075432521837e-01
2.873467216734076554e-02 3.681720740300221950e-02 4.350945984981183789e-01
-2.483804028793956415e-03 -1.835669792422737513e-03 4.296190588606070282e-01
-1.180905285490207492e-02 4.292375220427962351e-02 4.205626408963683560e-01
2.143902258772984598e-02 1.857067431527233137e-02 4.315812549274738452e-01
5.500769604288869435e-02 2.508154255080854295e-02 4.770542438774027505e-01
4.725973202109522153e-02 1.611878582536253879e-02 5.028360665912994243e-01
-2.950469614237452923e-02 4.205636678711171909e-03 4.339525468677697950e-01
3.240593441219998677e-02 -7.498336790409804858e-03 4.391035367070605933e-01
-4.464843805201373916e-03 1.955955692697748660e-02 4.156734529574070969e-01
-1.142324998863101376e-02 -8.473445425556037913e-03 4.333440329193351537e-01
4.866027612157954735e-02 5.486856097994800840e-02 4.798467183505520373e-01
1.281960770332649102e-02 1.750854899301759748e-02 4.259606613186492918e-01
-9.265507545252921889e-03 1.238803254996717271e-02 4.229397023244985121e-01
1.281834607717183966e-02 -1.973777076354483670e-02 4.363732165487754777e-01
4.916013661800598677e-02 5.368912225435090030e-02 4.572950027524523842e-01
4.699025694629677119e-02 5.997238750669117713e-02 4.595270089983592432e-01
1.534654347810805904e-02 2.514962403375029659e-02 4.249649946582613191e-01
5.481327856583778635e-02 2.336950572899288911e-02 4.780391147313469702e-01
5.327315973800401255e-02 4.996433252172216913e-03 4.630326221730230452e-01
5.265995099181614708e-02 4.171015930298458546e-02 4.616298687169516080e-01
-1.430595701969188983e-02 2.862168377470749106e-02 4.123314431616838527e-01
1.093583530132608006e-02 5.322348915025831156e-02 4.294330333513892706e-01
5.129105144608564482e-02 5.027280597261402778e-02 4.650334826801874044e-01
3.851911965321808129e-02 6.565848898914304621e-02 4.666162270558533720e-01
-9.272466390122661647e-03 2.528134814105699457e-02 4.108128730989775157e-01
1.128358290825226019e-02 -1.277359218639495357e-02 4.339759336054337946e-01
5.214647074084595435e-02 2.842991367526126814e-02 4.561476586783932419e-01
3.692837971642067701e-02 3.530471342314926708e-02 4.403349470854541758e-01
-8.693030988574473178e-03 1.391739359678247426e-02 4.216969368566741982e-01
2.322382747559039937e-02 1.105533699430852335e-02 4.330203127011388875e-01
1.066056012416207247e-02 4.309860106974137267e-02 4.231628180960317342e-01
4.761041111168917012e-02 5.795915740553553991e-02 4.723786530594542565e-01
5.049069576206464960e-02 1.941405726200559970e-02 4.919011369726773997e-01
-3.243025170382678180e-02 6.603619152496506550e-03 4.367706549728099796e-01
1.485656267759562481e-03 1.664603751360810985e-02 4.200079844159030351e-01
2.308611262493919652e-02 9.660914961614567101e-03 4.332441685003148857e-01
-2.871896225822112916e-02 2.939209943073074413e-03 4.336180623595799477e-01
3.601343059346388820e-02 4.057602783068148256e-02 4.399454258192718736e-01
5.541946333340126013e-02 1.289980543842188937e-02 4.746652873643521509e-01
3.118607438078114819e-03 1.599398643410250564e-02 4.213593272619657326e-01
4.925136507772724659e-02 -4.945267164378035207e-03 4.570502526931917164e-01
1.406469017664173024e-02 3.950349768996230110e-02 4.240159644943778949e-01
1.716061678722004963e-02 6.520911363590316603e-03 4.321368788096426883e-01
5.401644232077810331e-02 9.568581134095564128e-03 4.854452734675525072e-01
5.495827793147815138e-02 3.225720497757691985e-02 4.699528728444005155e-01
-3.059537995051297282e-02 5.359925543003275783e-03 4.348122280376268689e-01
3.715080046530638141e-02 6.871240486265900449e-02 4.505286848957928414e-01
3.408759038794247770e-02 -2.677782098748075074e-02 4.457325360671362535e-01
9.402854378594348132e-05 -1.322743521093206268e-03 4.295190857008671648e-01
5.219760777762005172e-02 4.763348783511699852e-02 4.797936331315348912e-01
4.907989627420595441e-02 3.666050360526766638e-02 4.980965362322882228e-01
3.779749651677915406e-03 1.144315262314155729e-02 4.257792960166879581e-01
5.258753494526969413e-02 -2.095560178717982211e-02 4.701740558647019008e-01
5.511192772328846190e-02 4.978944199723325456e-04 4.967284685302997271e-01
2.379588258353476649e-02 6.351836359688983920e-03 4.337024741569322495e-01
1.972834811212081929e-02 -1.857079872401179096e-02 4.364015926675510193e-01
5.545413551699896609e-02 1.351696537683906400e-02 4.742900670285353781e-01
5.745409668702405187e-02 -4.194387578234300661e-03 4.896457145223817031e-01
3.560485499933287862e-02 -1.038709965517314870e-02 4.415035517248205310e-01
5.410506100423526782e-02 1.839408382152849138e-03 4.660525603349853774e-01
-1.048070127234471648e-02 7.779806844174882129e-03 4.255876317347841997e-01
3.849295920980635999e-02 1.778417069528389141e-03 4.427916967118485925e-01
-8.433060605993199232e-03 2.386214489802287661e-02 4.108229598857504605e-01
4.879188427815943363e-02 5.030465649403870199e-02 4.919168183800878835e-01
1.660908182284101878e-02 3.227548508522829623e-02 4.246870654207686169e-01
5.736348495482638046e-03 7.953890433079155789e-03 4.282026329420882127e-01
4.409091767686038055e-02 2.692538025193969356e-02 4.459191698109152280e-01
5.439754113620698384e-02 1.925583691758718172e-02 4.647514586565699712e-01
2.439018576035063141e-02 2.011813984448633172e-02 4.333827384513080916e-01
-2.098647617510355015e-02 1.654791153592839389e-02 4.228245140602251428e-01
4.755515305064448445e-02 5.604089716390778936e-02 4.540072437485698775e-01
2.555087031166226874e-02 2.947705489674158630e-02 4.341837234599919548e-01
4.269089147969430675e-02 -5.776461421439236035e-03 4.478571640847914259e-01
2.476653207014017227e-02 5.133557377418333095e-02 4.331835044477966856e-01
4.606180082556492889e-02 3.071831778550083297e-02 5.049981381302870442e-01
-2.718182154888277788e-02 -7.061847909807668876e-04 4.344828548823347902e-01
5.470028254296252501e-02 -5.041042856604976974e-03 5.112526541883896103e-01
2.457977860238554774e-02 6.078099226867599708e-02 4.422298713020583194e-01
-4.955256522815332590e-03 1.679878082235052375e-02 4.191943125492987865e-01
5.098003692847306867e-02 2.822276241236072042e-02 4.538770723534704676e-01
2.572538185408934988e-02 2.146721567117557215e-03 4.349359523430872954e-01
4.799730810587375662e-02 4.379949843714379780e-03 5.110636720394965415e-01
2.950679335844677564e-02 1.144342061717248601e-02 4.355890307840005193e-01
5.322133342673887602e-02 1.970709072029978165e-02 4.831714330422550163e-01
4.417327063145751881e-02 -1.019290843215919784e-02 4.509525431649583083e-01
4.051129727910730144e-02 5.388923488978605847e-02 4.437244883780098181e-01
1.334741913337529964e-02 4.686953719448583994e-02 4.254475813289353425e-01
4.442357474577417198e-02 5.466203705872215574e-02 4.883973160630102894e-01
3.244493393658476332e-02 3.259949123880634403e-02 4.374266965506031779e-01
3.138146971755670367e-02 1.244288623821402512e-02 4.366226660291438466e-01
-5.027657727363334106e-03 4.573329873350934910e-02 4.204268050447160232e-01
-4.497039552014304997e-02 -1.227990783750267795e-05 4.449291077231833924e-01
1.170001759915301198e-02 5.302170215869746878e-02 4.289927462714399065e-01
3.068678669464773925e-02 5.103465482262008190e-02 4.367884007855332706e-01
3.091354435991804095e-02 2.587760573687604426e-02 4.366410823709175326e-01
5.622297928166064551e-02 -2.329874956215361240e-03 4.744842618834306247e-01
-1.897952221339191175e-03 1.853988576653355091e-02 4.176356674798943902e-01
-3.118550464368823050e-02 3.076524626725155379e-02 4.216241838667317832e-01
-8.416823825559471839e-03 4.203135768483312606e-02 4.168909867029134686e-01
1.406405326816049552e-02 5.287006694541351859e-02 4.290688830519688857e-01
-1.718937312254325287e-03 1.075465617582184279e-02 4.247690950740629079e-01
3.840361310832847430e-02 1.295541967272785359e-02 4.416066617779081938e-01
-1.597502256312860469e-02 9.353747592604469765e-03 4.257622176157772609e-01
1.786437427873225833e-02 5.550779874255121205e-02 4.356843847293356276e-01
-3.297711369662296305e-02 2.164769423084639613e-02 4.259475567087364634e-01
5.113131552975221095e-02 8.417048966599321308e-03 4.974483528206369298e-01
5.473962172050571978e-02 5.152422842994519928e-03 4.874581513307393310e-01
-3.040497679244187623e-02 2.219272870733693739e-02 4.240403247438851442e-01
1.329032066034245910e-02 5.361476882314204773e-03 4.307481951213199545e-01
3.324038586871480572e-02 3.432440486522218490e-03 4.388101176641238110e-01
1.142434459365499790e-02 1.767304926821633079e-02 4.249000553372012101e-01
4.136830210835976823e-02 5.734874503125502593e-02 4.453180759487098128e-01
5.675027785100804356e-02 -5.046023973754222396e-03 4.788528127414876656e-01
4.678108695933351491e-02 -6.948498376720576609e-03 4.532467794476127132e-01
2.596720277939678148e-02 5.962011390410874162e-02 4.390120054866114008e-01
1.453486167060597661e-02 -2.761028880636105711e-03 4.315538519493529179e-01
2.125860477314068381e-02 5.884124024277001541e-02 4.382044369849813492e-01
2.002986312047565741e-03 1.498183031185486638e-02 4.222672129970084232e-01
8.442790839687294019e-03 2.278061091846141431e-04 4.294586626161175924e-01
-1.835423768861114621e-02 1.731327123233620743e-02 4.213377046641619272e-01
7.741649194871485888e-03 -1.199989937242141973e-02 4.332395288881784046e-01
5.632251676924211747e-02 -3.054710656126118258e-03 4.997456133012828094e-01
3.891312565687003733e-02 3.149333634422202266e-02 4.416008111401534819e-01
-1.135581057529576679e-03 3.977381943101302580e-02 4.142396720248850417e-01
5.110136843363879272e-02 3.584325100747573489e-02 4.931090667347602374e-01
-1.676717463440249509e-02 3.385215170093182346e-02 4.139922017629448781e-01
4.273325604789342258e-02 5.284569902999519675e-02 4.454524898213637618e-01
2.136113585293385186e-03 -7.334256081585462279e-03 4.307248781520571779e-01
3.648582552870575230e-02 6.577768327765858014e-02 4.597070019670871366e-01
9.362005705761558202e-03 5.413471945327116841e-02 4.318889932306628210e-01
-3.890658964979688828e-02 6.473522932495703701e-04 4.406218980161387133e-01
4.044944090830288747e-02 -1.479860711564717074e-02 4.462262890947792937e-01
5.296412632407580812e-02 9.421611758617089161e-03 4.608262007326887622e-01
