3.586791487335935086e-02 1.031990477661293495e-02 4.394545593372989889e-01
-3.659776720977361841e-02 1.213279233169613008e-03 4.389586924081693708e-01
5.157568307646273609e-02 1.509163873351758098e-02 4.559522523598401045e-01
5.395966678651983178e-02 3.949626916964894124e-02 4.802052360384935770e-01
4.442556890084156662e-02 2.961560460491127408e-02 4.458176721826305755e-01
4.160537701149715634e-02 -4.779533088503042440e-03 4.463158703192092180e-01
-2.058902081994218314e-02 3.098214434311538645e-02 4.147508169167781200e-01
4.794276214095123667e-02 3.194372097869895705e-02 4.494125553555611274e-01
2.334942426740589660e-02 2.630640482951362991e-02 4.317591435341598949e-01
2.934598157585825533e-03 4.921871712331328530e-02 4.206743433642654573e-01
4.679951247334531578e-02 4.282673843498552117e-03 5.128209953252089726e-01
4.229067316392411818e-02 6.534587708680221485e-02 4.557629238316741049e-01
5.212869438008840145e-02 4.340585494537454320e-02 4.600152248387145426e-01
5.748099014505410331e-02 -6.955512781507240498e-03 4.865993562554203344e-01
-3.872967762245301329e-03 2.255625681220871023e-02 4.107237432206258809e-01
4.751159379498236246e-02 1.921039070185208419e-02 5.013643559661885574e-01
4.738149044178530805e-02 4.322446012433168831e-03 4.499831889719123068e-01
3.327248238984348294e-02 5.859018661814544005e-02 4.398751221306892445e-01
5.490255385079365752e-02 2.427641614683013344e-02 4.768657562128614247e-01
3.987313524442029355e-02 -2.216045503423830915e-02 4.480287491198960970e-01
5.450620234953997695e-02 1.071087273555973093e-02 4.818925298266991675e-01
5.135338271289337925e-02 4.479067234032384909e-02 4.904940567250822836e-01
9.880954815135591790e-03 -1.623795485902400360e-02 4.356715288795899310e-01
3.677986788655157602e-02 5.856778285871235001e-02 4.416935225758666372e-01
3.624176805110999183e-02 6.843219043109491362e-02 4.484556115835778844e-01
-1.822013896320124823e-02 5.082693383477419197e-03 4.281601224388286719e-01
5.054823800731857858e-02 -1.314620762498083101e-02 4.634997704077815084e-01
-1.923851485653538945e-02 3.195796904767009283e-02 4.141978745491990410e-01
-2.157487654292621071e-02 1.099978712920621562e-02 4.266125747840939231e-01
4.777212149588844214e-02 3.634402629379287347e-02 5.002978262249654362e-01
5.150173400645398358e-02 4.984187379997142425e-02 4.778071870385149911e-01
-2.017528957140308013e-02 1.755579674869300194e-02 4.210332585668997707e-01
4.511665011620104304e-02 6.258391895352187484e-02 4.672200863497266154e-01
-6.559288767001595841e-03 3.800433429898466414e-02 4.123599207280830847e-01
-5.971077383503808553e-03 6.501584739134408548e-03 4.259155070068399995e-01
4.532233886912370724e-02 5.941133589121316144e-02 4.752927176805768483e-01
-1.934527565106934632e-02 6.780673720310975011e-03 4.269823315803120689e-01
-3.554617684427071808e-03 1.899601891339619542e-02 4.161238981186096697e-01
2.691316128542961539e-02 5.227411448239053376e-02 4.343021600774462643e-01
4.978476882092303796e-02 3.594802868247075171e-03 5.083966431313531320e-01
5.069443191958229733e-02 4.938021481128160306e-02 4.596398241766982418e-01
4.585223109362913940e-02 2.802830152806270667e-02 5.051993543604041959e-01
5.641864575035526741e-02 -1.394165243041779224e-02 4.788878705937898994e-01
4.240156493504441265e-02 4.860898001648552430e-02 4.440154326005691932e-01
3.362505584857113788e-02 -1.762599046097401007e-02 4.415651252946953265e-01
2.642872208512302146e-02 -4.725900234600609665e-03 4.349913835601121326e-01
-1.006680269233782565e-02 -2.380867242414513862e-03 4.301594527558689762e-01
3.257609707422520068e-02 5.624408912590607434e-02 4.388502535209484745e-01
5.275353802669471154e-02 1.238599445474585121e-02 4.874603559645641071e-01
-1.148231785339196356e-02 3.539020673384149149e-04 4.295039584213375394e-01
4.133664037651797740e-02 6.557614063310766850e-02 4.634235292009206142e-01
5.196494838717475445e-02 4.008447751323326869e-02 4.572980857625275064e-01
5.375066542399250386e-02 1.394584941592072469e-02 4.616820278126081978e-01
5.490231109635256707e-02 -4.963214691954532382e-03 4.699846340162707192e-01
3.755664027553302226e-02 6.662535982884353059e-02 4.554883054585311952e-01
-3.585514247511679964e-02 2.185648108305898209e-03 4.382254886424912232e-01
-1.869282389503592462e-02 1.476950184499746001e-02 4.229044001242419082e-01
4.077044764589076581e-02 1.167647089955889741e-02 4.431795525497829180e-01
2.120638715343529240e-02 3.990160938587096473e-02 4.281090571713703774e-01
2.728573406404583013e-02 4.477309337870973016e-02 4.331875948850415492e-01
4.978221930212211460e-02 4.983263132920549149e-02 4.550317162396133042e-01
-3.418705929779454478e-02 2.181210473743782144e-02 4.265417309513813704e-01
4.378518933950374670e-02 8.221283061843770792e-03 4.459544939865927593e-01
4.944335979452462587e-02 -1.484394694861264005e-02 4.618250160104208080e-01
5.730580241794121926e-02 -3.668309626260006766e-03 4.871629030821095219e-01
4.640696550770832818e-02 3.454023161406374193e-02 5.035290325393352306e-01
4.414094968459724572e-02 5.576470216671109564e-02 4.474715888296740829e-01
4.701057046538636985e-02 1.942110186473942207e-02 5.030741954712005803e-01
-4.129200005002654078e-04 1.939705964938094954e-02 4.163274988814936739e-01
8.771138449406796003e-03 5.274833755180167311e-02 4.273992103371775375e-01
5.236285894192468232e-02 3.153015815401523370e-02 4.883083057391872095e-01
4.869793321532929486e-02 4.888394972107872050e-02 4.937767157910837312e-01
2.666857209181011830e-03 3.166604646771762482e-02 4.103122786340089867e-01
5.050743847474473136e-02 2.647739949436629225e-03 4.561540264753541907e-01
5.539302043984452306e-02 5.595109400788459732e-03 4.717371381907236594e-01
2.714575038024076396e-03 1.380095142977242305e-02 4.233961175604301075e-01
4.496457692261526806e-02 1.849297851144827975e-02 4.463672816075769378e-01
3.697135326434945746e-02 3.212298694042544506e-02 4.398905794833156135e-01
-4.809632616451243450e-04 2.409671129220409061e-02 4.106979867447707044e-01
-8.220611498697124458e-03 1.662730013498803228e-02 4.179811416406492564e-01
5.480800465266839894e-02 3.277867887107772937e-02 4.674344872725965661e-01
5.512815613669434789e-02 1.211673961202495639e-02 4.697786146367758375e-01
-1.442719790796464022e-02 2.844821251533744683e-02 4.117026418020792722e-01
5.494107789491251698e-02 -1.129489931207681985e-02 4.738097670393726091e-01
3.407691480582128452e-02 4.342616199556861151e-02 4.381032393607118824e-01
3.968394479770036981e-02 -2.402572943462879737e-02 4.494732664351682172e-01
5.251014963790134882e-02 3.738557181050968653e-02 4.582524434101083455e-01
4.535466259493395325e-02 3.981364434703660998e-02 5.047845599109153092e-01
1.704492097107367446e-02 -1.428275494382465378e-02 4.344165416192775075e-01
-1.708333208492830366e-02 2.000673724108879142e-02 4.187174724416795057e-01
5.062726379904357310e-02 2.503467672257873606e-03 5.079627638408987789e-01
4.669840672458632630e-02 5.229563094246141020e-02 4.908419953563283311e-01
4.919714652706324437e-02 -2.212410618438950469e-02 4.637037717773088707e-01
-1.556467066438380412e-02 1.243322269484085571e-02 4.235209010483055314e-01
5.020824422066704623e-02 1.116790137386380888e-02 4.968886756224597523e-01
4.796005189902976390e-02 9.739709412883951895e-03 5.048352418127596275e-01
5.184458996635166877e-02 4.848185342886916771e-02 4.653303366708407829e-01
5.204531184638314795e-02 6.619937404989804930e-03 4.973846608949294423e-01
1.717428717683687142e-02 4.408433603886401098e-02 4.260338173056733013e-01
5.453500220194893583e-02 3.053945986522737729e-02 4.787045095610419909e-01
5.098373136455886662e-02 5.135265034291574757e-03 4.568489504774549959e-01
-4.705047885872449577e-03 2.891867155268636538e-02 4.080007065342082240e-01
2.248379817807905773e-02 4.646006736133607290e-02 4.292166254525195956e-01
4.631553472562489893e-02 5.768648896514669278e-02 4.529129078031681188e-01
4.596399494757217111e-03 3.452091217520991684e-02 4.126721890854045394e-01
5.446512294450487485e-02 3.077051601125655247e-02 4.789388153783398216e-01
-1.784653336702739929e-02 9.620779013591594306e-03 4.256318790522073958e-01
2.066162865498432852e-02 3.711489839118179562e-02 4.279335887083230983e-01
5.088706329808436596e-02 4.716418006681345754e-02 4.578560569506837652e-01
3.818528608241569117e-02 -2.553997947266429050e-02 4.486000657657756019e-01
3.687927170181658915e-02 4.533610555584749457e-02 4.398368216163421329e-01
5.170142987527908546e-02 4.806270027047580828e-02 4.631420439081131435e-01
5.330830741553793661e-02 3.875474288045960974e-02 4.618528350857514786e-01
1.944152036024542410e-02 3.895339135195653724e-02 4.267601261293085813e-01
4.614055348739354301e-02 -1.967534540292001713e-02 4.568911117596531901e-01
1.537631387952650280e-03 1.979401665321210702e-02 4.164912596944090883e-01
2.668596694144897280e-02 6.072672675384473834e-02 4.415720743316535191e-01
4.555043893744011030e-02 6.194678658667272103e-02 4.669907422151650667e-01
4.752644357433151445e-02 2.319245426592497078e-02 4.485188497585044787e-01
4.514185497429060862e-02 4.671350219094441009e-02 4.466470238626213951e-01
4.852676441707227430e-03 1.221157999061723946e-02 4.251313464702899947e-01
4.592657953627137662e-02 4.389582760990114185e-02 5.026646182272984653e-01
4.199458162795581539e-02 6.449044938324982601e-02 4.683622374162417779e-01
4.277300163102563252e-02 6.250357955095434126e-02 4.718831186556513568e-01
-1.886293873244821329e-03 2.085009383375909658e-02 4.135410858262160705e-01
3.976666728873435447e-02 1.064197403450915444e-02 4.425278574333160742e-01
5.625442439434198000e-02 -8.731705425244753668e-04 4.925785920498013670e-01
-1.181487135943288212e-02 1.814373718033939972e-02 4.184307283664022714e-01
-8.695521062297758424e-03 1.502175385175542194e-02 4.202053909976370960e-01
-2.580905793522737454e-02 1.418529897000348969e-03 4.328474482349128349e-01
4.406782000919565873e-02 -1.529154001793529751e-03 4.481010688944427889e-01
2.780745429379963274e-02 4.945013601245640267e-02 4.338784207729015630e-01
-1.628797703728581889e-03 4.298189216801812096e-02 4.156202321889767570e-01
3.516479438103773530e-02 2.155633113325468656e-02 4.385736052661800000e-01
3.748538214496914545e-02 1.171047377740210352e-02 4.406602235565019177e-01
4.531717598872944675e-02 -2.263110938390189633e-02 4.568507178443299011e-01
4.698019072058286227e-02 5.675667383409702116e-02 4.532435967581073255e-01
5.127600729400444944e-03 1.809238884406314321e-02 4.188977681416518051e-01
2.334056865478850371e-02 4.211407616247398594e-02 4.299937682466561384e-01
-5.180768082748808331e-03 1.623293695804968462e-02 4.190984742255928208e-01
5.496686702055460921e-02 3.255950354863291346e-02 4.732773512314239484e-01
2.516311920574133831e-02 3.716757384648037427e-02 4.321682490423774392e-01
4.779649556228141027e-02 -1.741671283087472752e-02 4.593271386787653454e-01
4.491057597971092469e-02 5.764380473243187891e-02 4.806848624432025208e-01
2.135059450933642078e-02 -1.707721165047735787e-02 4.361838514569340575e-01
3.892487739268515184e-02 1.956634553214264133e-02 4.413648022950518168e-01
-8.347234281893827976e-03 -9.566204244642875429e-04 4.293877449561815940e-01
4.247730682056146539e-02 4.033879066821430270e-02 4.442995960357535301e-01
5.127479475829022082e-02 2.720011445662387159e-02 4.901120273655620863e-01
4.711884331448056712e-02 3.464690450920138165e-02 4.488305140039834384e-01
-1.197729089958186194e-02 2.530546586939480189e-02 4.110302046961931688e-01
-2.178349666901607112e-02 1.913844871297484124e-02 4.203157764199039192e-01
4.611480791907945909e-02 3.107614218526079733e-02 4.474282489811035046e-01
1.948782159451718440e-02 2.739214743045386910e-02 4.287211406241191458e-01
4.718826451619541340e-02 2.714320234495039980e-02 4.482478046556449547e-01
1.548368088639899900e-02 3.904873786326537588e-02 4.239694681414891142e-01
5.419073525446642392e-02 1.769058819366638863e-02 4.634707855031683366e-01
6.865017550804287765e-03 1.904552648830102127e-02 4.196028627560723923e-01
4.982342876969003687e-02 4.383771837965512452e-02 4.519518718360143739e-01
6.694937355704713711e-03 -1.743660638945215488e-02 4.365688113770522238e-01
5.046306081792959614e-02 2.312905938363636962e-02 4.912305242872598288e-01
5.228843520323343819e-02 -1.264093475253971581e-02 4.665000474427760668e-01
3.683252814073008363e-02 1.895092722582073647e-02 4.397677944479393419e-01
1.468016533069902568e-02 -2.056364548769299555e-02 4.363492496208438154e-01
-3.399257057237640989e-02 1.644009870461028006e-02 4.314442464031961189e-01
4.752888401943296259e-02 -7.019531184671617269e-03 4.544719951100890665e-01
1.893677854956951276e-02 2.950306700624993200e-02 4.280101859902812889e-01
8.409793767293890360e-03 1.070990433735290875e-02 4.269617814702439951e-01
4.422434890210433234e-02 6.431412683877116288e-02 4.657997894810799733e-01
1.639975004054464863e-02 4.647062381096200151e-02 4.262617325550125957e-01
4.755256322530088120e-02 -3.940359705601017767e-03 4.530736290416600420e-01
3.498577130580110550e-02 -7.980637065950819953e-03 4.406513409323544184e-01
-3.111996308027770511e-02 2.954517699789457885e-02 4.202957513075931684e-01
3.340762157808144922e-02 -4.119568724929027065e-03 4.392383092794754917e-01
5.272966981970663575e-02 2.010355726536927276e-02 4.576522170532055789e-01
4.379249354658113630e-02 5.445082769684024548e-02 4.890669172752508120e-01
5.278803885990505235e-02 8.136487318308665423e-03 4.605658707619478265e-01
2.430379255866626023e-02 2.339619921928637672e-02 4.327060818767090589e-01
4.720492837917246443e-02 5.149953250203067462e-02 4.930259792022714804e-01
5.054619061020147741e-02 -1.412597722546961136e-02 4.638575814078910731e-01
2.593035163581625460e-02 1.635851223526776574e-02 4.336694825911249773e-01
3.143680058901827251e-02 6.008804829161129568e-02 4.402079432819874794e-01
5.852500748132491784e-03 2.137863693280486060e-02 4.169894681187629182e-01
2.809474623076899796e-02 4.551223997048286021e-03 4.354540796816546155e-01
4.411091035064601540e-02 1.594671865145098205e-02 4.457701921975909531e-01
4.591635203914960078e-02 6.192594757936117911e-02 4.582378533430466194e-01
5.000366368989841298e-02 2.322817512728311481e-02 4.926367719659764388e-01
2.547176320777089220e-02 1.492578289101038208e-02 4.334412240493327184e-01
2.221309784411127503e-02 5.556673103019689475e-02 4.339374287646987072e-01
7.312916236836229482e-03 -2.143276113092860286e-02 4.376187107181735980e-01
5.721277105987527395e-02 -7.172927467290641894e-03 4.845533564789596404e-01
3.711211090538321655e-02 -2.547756089082619385e-02 4.476198146193556271e-01
4.144964453453724856e-02 4.633610257009397604e-02 4.431082639518821864e-01
5.068084374969184652e-02 7.478418306945338635e-03 5.004257801300393549e-01
2.375429495246244097e-02 1.175664618743180699e-02 4.325603293333283861e-01
-1.167585731088718014e-02 3.837044697477680344e-02 4.136487492747769057e-01
2.601474008452912129e-02 -4.092322176187296323e-03 4.347827012961851256e-01
4.859330942730086950e-02 4.282102679379106575e-02 4.501251952971609405e-01
1.649892133508117087e-02 4.940401422467666226e-02 4.268674730244549353e-01
5.507180456092774373e-02 2.637259950860102939e-02 4.772998189278696013e-01
4.894821551734496179e-02 3.866003376075334303e-03 5.097644281800587374e-01
5.469505354275090020e-02 1.165904150599572468e-02 4.661662655261600841e-01
5.921090062017139027e-02 -1.194092721279140130e-02 5.033827183082839607e-01
-1.709778713347453669e-02 2.755736067117578458e-02 4.132275242858308717e-01
2.993957555007766350e-02 3.979836113367325734e-02 4.353609953985875802e-01
4.284163147844227693e-02 6.512929291180875879e-02 4.595543711081566673e-01
1.759406211337418563e-02 4.115195860953483470e-02 4.254904526595694736e-01
4.704801396703826855e-02 5.180430898804412598e-03 4.493377620251869375e-01
7.767580725860867563e-03 4.448817673225300903e-03 4.290360230826564258e-01
-8.415166768797961022e-03 2.921083916705335612e-02 4.093628976209153780e-01
5.647705236781522947e-02 1.114357115540949269e-03 4.835713471735033075e-01
5.545468002174352290e-02 -7.050100933774928157e-03 4.737774524681866439e-01
3.452059185152680371e-02 7.552773915563779777e-03 4.386075172105219355e-01
4.985890565701234928e-02 2.268993711203675170e-02 4.515313978672593764e-01
2.096539510239746676e-02 5.893368824541416612e-02 4.387514631170585377e-01
5.527292039158419185e-02 4.702459459619757164e-03 4.706052317188208489e-01
-1.938725652540179006e-02 2.406585976795177356e-02 4.164037895312174276e-01
4.992616808440084736e-02 2.633302100123442215e-03 4.548887231010632637e-01
4.580157005710965012e-02 3.383744537203845631e-02 4.473392383379261039e-01
-2.137588982488645289e-03 3.735200161017862563e-02 4.112980951991078160e-01
5.603364178783026839e-02 -2.572272735131886801e-03 5.022539458363491915e-01
4.905061914359332836e-02 -1.086548698276489262e-03 5.147112606583008620e-01
5.220445156510859774e-02 1.306955530003338015e-02 4.888254683643769027e-01
2.372859623525481326e-02 -4.246721020705641371e-03 4.339990270003336037e-01
3.550401442186498779e-02 3.462876950432867106e-03 4.402410281352309163e-01
-1.361740981610661330e-02 3.375003445590618600e-02 4.118095238202584274e-01
5.504225337209452118e-02 3.070651441524106101e-02 4.757619374346833130e-01
2.190070715331876930e-02 1.680112720220248990e-03 4.334027214889783486e-01
5.163114759786726488e-02 5.732137779447239387e-03 5.006812326880097919e-01
3.682503936629474145e-02 2.735739286113601440e-02 4.398287008513658281e-01
8.672190063413041938e-03 -2.199852536056154731e-02 4.376009895252436777e-01
-4.211917367354568037e-02 -4.977473618633823475e-04 4.410993047566380554e-01
4.561104667362177179e-02 2.770370746749095149e-03 4.484413528042974773e-01
3.848768768113736138e-02 1.820458698736173581e-02 4.410760595972335052e-01
3.200905300778612850e-02 -1.450857604625895199e-03 4.381551944927161713e-01
1.362747179862828367e-02 -3.331297675462748225e-03 4.312312782208920781e-01
4.907172932943418969e-02 3.539760611413220182e-02 4.975751348142346542e-01
4.366249738411654563e-02 3.683867585344860474e-02 4.453668309762188193e-01
2.569978709012153348e-02 6.200009479173288623e-02 4.471013282839637060e-01
8.119720285213311711e-03 -1.184812059318087439e-02 4.330023134612457358e-01
3.810478959585882758e-02 -1.051311601075082328e-02 4.432519627876662094e-01
2.890308723955476583e-02 1.931188811435790437e-02 4.350842973133113856e-01
5.485693788959618983e-02 1.869539505152005218e-02 4.767060682152812201e-01
-1.852409353887186656e-04 1.358910241929657797e-03 4.289049669729284586e-01
3.980902377657054986e-02 5.158382043261345445e-02 4.422847076646601039e-01
5.365824631931760680e-02 4.188515856187214476e-02 4.776184880167084201e-01
8.818554753614342087e-03 4.997096668134456965e-02 4.235656634829597089e-01
3.314214945706997484e-02 -1.427138209943369825e-02 4.405640902030328321e-01
9.819670079353156819e-03 3.326230685116844665e-02 4.162057647891368450e-01
4.564416839621173588e-02 5.437835007409923260e-02 4.879390760972783236e-01
5.552437686565825370e-02 8.080919591809794522e-03 4.732702496049187579e-01
4.621306571112276940e-02 -1.866855359897991867e-02 4.563665307008877292e-01
2.503995937369032573e-02 2.463482301631617424e-02 4.331856726914934952e-01
5.437966096022695678e-02 3.456407244240417009e-02 4.804270567276108794e-01
5.354102930039335989e-02 4.146571731947121253e-02 4.721247818755685555e-01
5.567068249443641453e-02 6.642857907314145098e-03 4.772716023134371821e-01
-2.327287911354493366e-02 1.339652760420813153e-02 4.258086351848335283e-01
-9.025326945004642429e-03 1.119847213884821342e-02 4.234811689714134131e-01
2.318835107527497316e-02 -1.669872419707496558e-02 4.366645066421049326e-01
2.629751059286593654e-02 5.393439710699420020e-02 4.349956974152464628e-01
-2.260721270975968485e-03 -1.123475005580180930e-02 4.318704764803932283e-01
4.933917009327198899e-02 3.024694100176043496e-02 4.965157544360356834e-01
-3.373417225647321049e-02 1.044419228372729311e-02 4.361827751116306162e-01
-5.986573437853507165e-03 -6.038685882830040208e-03 4.307911404798389077e-01
4.710870902778811764e-02 9.326550645261767053e-03 5.073521727227507938e-01
4.948087528773578020e-02 4.671923180300829870e-02 4.944609892210115043e-01
5.696068748776011298e-02 -4.741819569597893573e-03 4.967178627658060952e-01
-1.363955464020528800e-02 3.087160393874285522e-02 4.111823409187957967e-01
-2.342972164108326344e-02 1.229883134314412735e-02 4.267724427285344846e-01
4.677147061791138427e-02 -1.284076574471141111e-02 4.557550333209367532e-01
6.546540817941962423e-03 5.218655271481158903e-02 4.254102890108141244e-01
1.282486409473829192e-04 1.094167377049477807e-02 4.248324560742445244e-01
5.385921718734418273e-02 3.843286025469810213e-02 4.670241004430056297e-01
-1.013940071278965696e-02 7.102233763882210421e-03 4.254996413902234487e-01
5.021015300052499020e-02 4.814015188043295479e-02 4.891098130904874552e-01
5.445851957328779608e-02 1.995140677586869013e-02 4.648925162775843778e-01
4.862803220091898443e-02 5.641005683787060632e-02 4.678327617442344932e-01
-2.798235011531290464e-02 2.690343847052463835e-02 4.197971395647289716e-01
-1.717972535851955418e-02 3.829569537321193123e-02 4.150047572597888035e-01
2.761579399040298144e-02 5.450416166353427155e-02 4.356769282071077942e-01
5.074184951570208379e-02 4.952007883336913968e-02 4.600303119133419827e-01
-1.754248345265669445e-02 2.923631606493010474e-02 4.133914165931910079e-01
-7.408860656529825915e-03 3.678564869685857497e-02 4.117013346759195724e-01
5.724796162501140373e-02 -2.150050208038511903e-03 4.875823407483871885e-01
1.728311035137282056e-02 2.898187655471376814e-03 4.320585193467131879e-01
8.104630725099197519e-03 4.556523187461605957e-03 4.290676011068957907e-01
1.033661494828200592e-02 4.900952352480945212e-02 4.236741050447562773e-01
5.453987477873338541e-02 3.544561110758450567e-02 4.713422257225610701e-01
5.236477880140843338e-02 4.305847299705247572e-02 4.609826090138256505e-01
4.806742611858243197e-02 2.376312360902063658e-02 4.993357689320330195e-01
5.003712431339250866e-02 4.563260284229759406e-02 4.528177878655609834e-01
4.150345086061305727e-02 1.563481652488114826e-02 4.435477963536678669e-01
4.620138988473491970e-02 -1.596008706798071955e-02 4.550314236650950250e-01
4.733010720431281640e-03 4.004747844401122803e-02 4.154902032002579793e-01
5.439073203772966381e-02 3.503329459953121588e-02 4.665004970748282687e-01
6.192084192752168870e-03 3.666044117118456847e-02 4.152574907241297630e-01
2.245394101592917274e-02 6.212837223542199208e-03 4.331125184422480734e-01
2.336714152195127486e-02 2.936869960728430776e-02 4.321911596380927367e-01
7.908621781442139523e-03 -1.101926175345455464e-02 4.323558567822635146e-01
4.673826011917807735e-03 -1.804212974711186940e-02 4.363712032683112474e-01
4.950178816491192929e-02 2.755721860772722669e-03 4.539465769131960649e-01
5.129869321316916225e-02 4.699043593016834219e-02 4.864427569574241716e-01
5.157442936495254537e-02 1.233093587576596789e-02 4.916600994143570103e-01
5.538748745538737972e-02 1.548309563846679907e-02 4.725395970623431086e-01
2.006846567807346951e-02 4.200880999951127348e-02 4.272540157769111890e-01
-1.751315051255389332e-02 2.268007846875452413e-02 4.162423138441159187e-01
5.130012149940806759e-02 2.406689321427615477e-02 4.890413401589570053e-01
1.155131057858574395e-02 5.344855458007227722e-02 4.301233587656894675e-01
5.415406843098270057e-02 1.668130416525476223e-02 4.633360668060694243e-01
5.301471001160639601e-02 4.310404873608815468e-02 4.669596483572501233e-01
5.350199453161663676e-02 4.242460872725732635e-02 4.771311648550115581e-01
5.376159974662771124e-02 3.032495738760802167e-02 4.837590537949879033e-01
5.279787846275792867e-02 3.657355317849932813e-02 4.587835014801042166e-01
5.217267900976256534e-02 4.555702643391586204e-02 4.848714713301298107e-01
1.125452484767566590e-02 4.784428111307521825e-02 4.236829921374588026e-01
4.405608602741514085e-02 -1.548514553427637365e-02 4.514993413565548397e-01
-3.459936430399904173e-02 1.244100160011917498e-02 4.369988059467549979e-01
1.090287387979567250e-02 -3.630119629132916564e-03 4.307817466582866683e-01
-5.019234366963939292e-03 3.448593024601701029e-02 4.086610091263689903e-01
-2.200325762049935678e-03 4.433293092114678341e-02 4.170828560841736143e-01
5.385838686992146934e-02 4.096933645553433451e-02 4.788666423376490844e-01
4.494423168757334663e-02 4.654950351095157174e-02 4.464545794188078953e-01
5.446120835489823286e-02 3.124626626940325835e-02 4.787124920999016875e-01
4.300411482071645614e-02 1.184843294649730143e-02 4.448265299925804883e-01
5.897069274672846195e-02 -1.126495694439272680e-02 5.033421450724112622e-01
-1.626422730452926207e-02 3.679586077842018216e-02 4.139543400663396877e-01
5.435246979997414990e-02 3.187783925680097441e-02 4.791106822832107426e-01
4.915315272230337540e-02 2.525804947372618098e-02 4.503811451005091948e-01
3.999989072973213211e-02 9.294780100606069365e-04 4.439023343140997557e-01
5.295495561286635983e-02 1.033741174403625743e-02 4.887417838279014548e-01
8.215197955493368925e-03 -8.307318906124221830e-03 4.313638541479811184e-01
-3.046204808029548405e-02 2.495918144335819520e-03 4.347630854079108098e-01
2.638987576377838443e-02 -2.002764613347644829e-02 4.384871449052038517e-01
5.432937217635071953e-02 3.717169945890499289e-02 4.734538110214782658e-01
3.226577288679934735e-02 5.460989343834755233e-02 4.380760198559398577e-01
7.931726451067310293e-04 -7.894942683914208531e-03 4.305635667356570440e-01
4.162020698478302583e-02 -2.146105928337425917e-02 4.506890495811392561e-01
5.216864325268186914e-02 1.105952810928227670e-02 4.908388396640838702e-01
5.214477172836684549e-02 -2.524226912693935693e-03 5.117148136124920477e-01
4.648798205853190563e-02 3.775436940478744431e-03 4.490566268180369303e-01
4.625673480460318343e-02 3.615277756251611407e-02 5.036857053984746813e-01
5.029847463435833249e-02 5.096332074782066596e-02 4.823852820349424086e-01
4.836347729162333159e-02 5.709845166335464350e-02 4.628461121810468759e-01
5.751854200997728872e-02 -5.146199240288999374e-03 4.900129900364071922e-01
4.592162052035979325e-02 6.247881596704998181e-02 4.600446777325207792e-01
4.046183783104546905e-02 -2.917300021127061747e-03 4.447961761786630719e-01
-3.621022924211584476e-02 1.565863557451748628e-05 4.390975265247757942e-01
-1.466515112512437047e-02 6.633269191996976274e-03 4.263216839969524719e-01
9.325235116954534026e-03 -1.809630577922372030e-02 4.363794232769067638e-01
5.307222119644103980e-02 -1.483320688595304165e-02 4.694491428430008217e-01
4.611930715637230227e-03 5.010994308059301544e-03 4.284829075664602915e-01
3.904391825569886870e-02 6.443117453681929119e-02 4.476070096065203341e-01
3.713703348955085803e-02 -3.373000489671837063e-03 4.417508608939184622e-01
5.415258368312479698e-02 3.875341503244207619e-02 4.762716063352174789e-01
5.482921411745732970e-02 4.752369277085718297e-04 4.998410314606185900e-01
7.951469562196548935e-03 5.143236870761609680e-02 4.243812284022536740e-01
3.278722933144247609e-03 -1.826179190448119771e-02 4.361337466956090037e-01
2.922476862754000079e-02 4.960320905077952522e-03 4.358941424448475876e-01
5.416380028203440777e-02 -1.444520052811460245e-02 4.722213004200612185e-01
5.242918430532891860e-02 6.849539214909714999e-03 4.954189042565319556e-01
5.086610816833102983e-02 4.183707904593746835e-02 4.929635092510958327e-01
-1.828755273376824267e-03 4.801058081929118759e-02 4.214250471615022531e-01
4.119537650029235498e-02 3.988777419246118672e-02 4.431589938704990628e-01
-2.061922385983031708e-02 3.027473901993605124e-02 4.148089772044115109e-01
5.323224617920602891e-02 3.233240552980388982e-03 4.632652639460139166e-01
5.549557910186036364e-02 5.037105990384161021e-03 4.724040297232208196e-01
1.214556089034573780e-02 4.089805592653446287e-02 4.226864169267000593e-01
8.080625702506420358e-03 3.086293961543305764e-02 4.138648491700313015e-01
4.880156128983184627e-02 4.294323746924887802e-02 4.503354988718939467e-01
5.117065802247755535e-02 4.632836689241578293e-02 4.882976987743032904e-01
3.547638308368635668e-02 -2.331598227057774669e-02 4.451118440753457639e-01
3.089598081704865440e-02 5.296378590614413823e-02 4.368422701434035438e-01
-9.646441854129252091e-03 4.322814259447264190e-02 4.191178077547716430e-01
5.318101576298429195e-02 -1.864274965929300226e-02 4.709711069432246378e-01
2.632553323699595924e-02 5.104200790360099299e-02 4.332884999113491009e-01
5.397415222132714852e-02 2.696879680810693528e-02 4.614610053029407633e-01
2.396365110772590706e-02 5.736216395565577053e-02 4.358350214986512206e-01
4.943449922936879459e-02 2.194258462819093786e-02 4.506505594772109435e-01
4.442211348524363612e-02 5.893351004985997871e-02 4.501208021478422250e-01
5.912921289927999813e-03 -1.728691004753445462e-02 4.364141807852032762e-01
4.318267003876066074e-02 5.279268982231150736e-02 4.453554963945159928e-01
-2.304239344267308698e-02 4.206008011610589022e-03 4.305851097711479447e-01
4.735715981882836906e-02 2.077951450379286052e-02 5.018475612947173037e-01
1.566985089888610697e-02 4.173257079297128941e-02 4.247343469206846800e-01
5.234666007688656281e-02 4.632120135814203621e-02 4.661803118709051397e-01
2.403976752123988120e-02 2.179816570284153626e-02 4.325664704572341202e-01
-5.378297278423439451e-03 1.131237871002471924e-02 4.233747895324241894e-01
-3.243552989312495360e-02 1.040596525357419602e-02 4.341574959954722646e-01
5.177807235110707534e-02 1.965719180563807456e-02 4.875097472753468497e-01
3.963681207891912167e-02 6.620593554438117256e-02 4.528926067644022391e-01
4.456661014875989285e-02 5.346289202986127115e-02 4.912474726580747242e-01
3.550905072222932529e-02 -6.158675587687786196e-03 4.407256231900013588e-01
3.883640367322156728e-02 2.486178539142626723e-02 4.411957065274225154e-01
1.456637602760717937e-02 -4.575334562893614010e-03 4.314824606245888927e-01
-5.203846926997888860e-03 3.096404430648837941e-02 4.073969335803109271e-01
3.095928773321224986e-02 6.400418868861175448e-02 4.444050728972703257e-01
4.126163037211767748e-02 6.549930955040567104e-02 4.560863089281685379e-01
5.701442550396428749e-02 -1.282674980426191935e-02 4.810119422679369205e-01
5.224458823134042057e-02 4.756287707415747523e-02 4.786784683505040938e-01
4.862770264958437422e-02 1.912490508885985110e-02 4.975179873327681412e-01
4.885398619101925799e-02 5.607631820193747368e-02 4.639802437608195329e-01
4.147478497952494098e-02 -6.032822327965673900e-03 4.464220435696026890e-01
2.408007349379898826e-02 5.511980366990272551e-02 4.346096459312135396e-01
5.587352650268500448e-02 2.752940882362072024e-03 4.743091869805844407e-01
4.175811373981093422e-02 5.562211366792989276e-02 4.446864676072168066e-01
2.818041741019388507e-02 1.638940154280349795e-02 4.347115792589469896e-01
-1.000294929450097625e-02 2.793728698728534243e-02 4.099774099882847467e-01
-1.999618751455930349e-02 3.280925718853464762e-02 4.144280239596739301e-01
-2.938748772449034999e-03 4.058068306236057438e-02 4.136525996028347918e-01
3.678662010684068118e-02 -1.008838143082906383e-02 4.420579849526544147e-01
5.068356020761595471e-02 2.067855351449025478e-02 4.533108464363680978e-01
4.073898864958154509e-02 3.018554326615619648e-02 4.427044041568386490e-01
5.378222385889334933e-02 3.416694686754562921e-02 4.612415220072914046e-01
3.171007591714848639e-02 -3.070569479965447584e-03 4.380852591752020242e-01
5.291559474908431177e-02 4.485275220552512043e-02 4.774260703828323571e-01
3.384989217692899177e-02 -2.816591481668341557e-02 4.462004138432458245e-01
5.167240642589408794e-02 1.993785962088860490e-03 4.590093905653171991e-01
1.899050098920043728e-02 -5.150085561592432706e-03 4.326604827662490771e-01
5.697095368709888252e-02 -5.415490933403472804e-03 5.002750351351440417e-01
4.417475543274446831e-02 6.419122020930921602e-02 4.598412556506832338e-01
1.842596504976463240e-02 4.837319555242192842e-02 4.275764867092080590e-01
3.549145541037662666e-03 -1.878187002917633408e-02 4.363484601079907765e-01
4.550907725890881994e-02 7.655019442170279444e-03 4.475800822849828053e-01
-4.012898229160145186e-02 2.305989456671929047e-03 4.492829222341493955e-01
5.397692263192767348e-02 6.864097160101650247e-03 4.882473714167530621e-01
5.074397299770985748e-02 4.373541322052956239e-03 4.564314100230388860e-01
4.985882939529594216e-02 5.252877265901267217e-02 4.799435816077750050e-01
-3.354960252868039589e-02 1.677014529411353233e-02 4.302243408402554592e-01
1.830179817300795625e-02 1.523251498025929296e-03 4.324345198102933496e-01
-2.156493352841029609e-02 1.265916532518177734e-02 4.253003696633974595e-01
-1.596856146119502926e-02 2.982054030000605080e-02 4.124898047905632970e-01
3.854148655899976295e-02 4.953760544284138007e-02 4.410759395197302313e-01
5.335604111656723492e-02 2.588445326397522187e-02 4.838679860521963305e-01
3.903846758332464584e-02 6.437728866522733628e-02 4.470444193041155367e-01
1.963861963883539036e-02 4.214004041147233204e-02 4.269348745338904516e-01
-6.518542666097344382e-03 1.746731072045864738e-02 4.173431407387245828e-01
5.273881517911128969e-02 2.962423680154642296e-03 5.020953335457122302e-01
-3.000267207433932048e-02 1.327617904146380021e-02 4.299510837809477071e-01
2.069961279303443591e-02 -6.031854410323656684e-03 4.332879958537514398e-01
5.700779346693386068e-02 -6.099500548104589380e-03 5.057550495226613707e-01
4.990301702817245139e-02 -1.861761570378764677e-02 4.640983479455663696e-01
5.639377427809023208e-02 2.111230151585573485e-03 4.775836132481137142e-01
4.731612999431583644e-02 2.413987129345568361e-02 5.019416966571251804e-01
9.798471003801208917e-03 -1.238321081283806462e-02 4.334798940313064897e-01
4.427786511310689149e-02 6.057900776784477109e-02 4.515208404957927746e-01
4.032409949142883726e-02 1.018370792648305018e-02 4.429718798280579128e-01
3.439803390381169362e-02 1.040459045658424092e-02 4.383975047897936128e-01
4.905086363861058812e-02 5.545520710186511992e-02 4.690750703530988663e-01
1.573662710139681412e-03 -1.300567026374483542e-02 4.329692429000573939e-01
4.684178507874445924e-02 3.448573128665916032e-02 4.485111609257743104e-01
5.294882291665291979e-02 3.373433674218266620e-02 4.872096371594667463e-01
5.650715364689850445e-02 -7.589667509039632956e-03 5.110320339601678308e-01
5.019409283454919629e-02 4.655985274422095449e-02 4.922923779433804325e-01
-9.487493942630573912e-03 3.993186494047095553e-02 4.142058679360691720e-01
-9.628124555819617819e-03 3.846304453296039982e-02 4.132416740815658684e-01
3.128217584070112911e-02 3.813299373160371208e-02 4.362313805198445027e-01
5.617591082838771510e-02 2.937492797349024361e-03 4.784336663040971160e-01
3.608729983633498367e-02 4.774877665292384665e-02 4.392936958022308769e-01
-4.505369909691853136e-02 -8.423876119448234787e-04 4.433132272977471366e-01
5.437510603437474555e-02 2.083910978529760274e-02 4.792832708773103190e-01
2.831270300001489937e-02 -1.777505611020889845e-02 4.387647692901007201e-01
5.233303421554176549e-02 1.016293808323150138e-02 4.911054218802657356e-01
5.317222480935935441e-02 -1.243520960749194999e-02 4.682656872184129959e-01
-2.161754541096719967e-02 5.704065355214407718e-03 4.291031644629986208e-01
-6.658095660484329714e-03 1.953549171507105650e-02 4.138873050878619786e-01
3.492495592977587493e-02 6.527756482683313988e-02 4.454717097064493925e-01
2.916882991399869993e-02 -4.720763319253630692e-03 4.366407058145723163e-01
1.753779211579577918e-02 2.951519653696515338e-02 4.264494803979951287e-01
5.269629552959268631e-02 2.267816974791885334e-02 4.572337562023140456e-01
-1.912252252166867644e-02 2.704201461771328641e-02 4.145661868994636179e-01
5.632745583746070345e-02 1.624286798382274530e-03 4.806383487117337205e-01
5.172145599596540688e-02 4.958571893184123697e-02 4.694486576820617874e-01
4.635885437820732452e-02 4.948623304879587459e-02 4.480157045068229316e-01
1.923671788888771036e-02 3.289527846671122524e-02 4.273233720606021135e-01
4.036664716101715650e-02 6.544141862678855281e-02 4.591761766945330892e-01
1.015600631290061381e-02 5.017306559430206175e-02 4.245076214217686772e-01
3.839799509110617542e-02 -2.301952791216797106e-02 4.470935051295706897e-01
5.735364835978499359e-02 -4.235094581789312050e-03 4.915400222511806527e-01
5.552247442750803813e-02 2.151586664136013148e-03 4.718210212977457796e-01
-2.121678509546345154e-02 1.150322217269505835e-02 4.259881644398400558e-01
4.858227590090236081e-02 6.469520477225074867e-03 5.074969903637077673e-01
-2.703070470337027090e-02 3.050634735214632215e-02 4.179993092666121068e-01
-4.711348357104593043e-03 -1.117928408567490407e-03 4.293452132260119902e-01
5.701079825850760563e-02 -2.995593598401879651e-03 4.829370155945643117e-01
3.699597945092483742e-02 5.299879951618023666e-02 4.406511119531014153e-01
3.292331735559342332e-02 6.659921777595469161e-02 4.456485314031516931e-01
4.728194089651522984e-04 4.503619167628605119e-02 4.171037530884699196e-01
-7.533274121809063230e-03 3.628420396294217837e-02 4.112762493416924903e-01
4.807929373531439135e-03 3.715843731758243507e-02 4.143161156400710921e-01
4.838424685826585650e-03 3.494287610532244986e-02 4.131302000368610172e-01
-1.929674054968861727e-02 1.035271588237488688e-02 4.256698485455066572e-01
4.540141528020626149e-02 7.830212685043287310e-03 4.474622158634798397e-01
5.339664209520422061e-02 8.604667277251266955e-03 4.620204500457442132e-01
-5.616282056113927959e-03 6.524902745276688412e-03 4.259263633188701825e-01
1.889043049506540159e-02 1.516380411604210075e-02 4.298075131926135106e-01
5.402864733147327153e-02 3.028819800547305832e-03 4.968319864883397052e-01
5.410752468598910986e-02 9.889839187729653966e-03 4.642052189420628472e-01
4.762156311022598676e-02 2.005133237641269772e-02 5.009647046563289186e-01
4.828081281795151142e-02 2.771659181668942318e-02 4.994184258148840483e-01
9.070931721294384423e-03 -1.061248815169960405e-02 4.320880423315758834e-01
