5.271790055371366329e-02 1.700183137449200188e-02 4.581419449364159679e-01
3.447837195461122411e-02 4.865073039423264273e-03 4.391727546845621277e-01
4.376470963996974273e-02 5.387110955596680073e-02 4.907860747563614345e-01
4.575569602852661705e-02 1.035089826512475969e-02 5.084015120560873013e-01
-1.681932530606677217e-02 2.785451828106928762e-02 4.129838261253505061e-01
5.300777086886312300e-02 4.082073871167858636e-02 4.626012281554301442e-01
5.502529828319707716e-02 -3.892617703211338244e-03 5.093082730030259464e-01
4.182223032258613332e-02 3.032645275093462725e-02 4.435830398525782980e-01
3.832552579755274091e-03 4.847728409830946023e-02 4.198478117597843617e-01
-7.495400120012443712e-03 -7.509071184801294901e-03 4.318148685537558928e-01
4.607930053698609807e-02 9.667907340954448592e-03 5.084882792701530541e-01
4.692808068708943792e-02 3.112572026724698404e-02 5.026296923960216212e-01
5.277101213439464727e-02 5.177030575422300954e-04 5.069210512029819204e-01
2.239070743558749244e-02 1.418840282492416643e-02 4.318307447088348128e-01
5.104681013289670555e-02 2.920468087379361408e-02 4.535785590141442891e-01
4.669802388353710976e-02 2.569408880424269709e-02 5.038688906775036225e-01
5.185550765071761381e-02 3.248540931508346608e-02 4.898946094022899600e-01
-3.257405025386472808e-02 1.357229644541863532e-02 4.318522276044386432e-01
5.123951532315563356e-02 3.810146257453349283e-02 4.925211237997461633e-01
5.212214409855225883e-02 2.677390207733034572e-02 4.875007587821646449e-01
3.613613980154451594e-02 4.673146975727395652e-02 4.392709445408959912e-01
5.037278071728953921e-02 2.887267725633396731e-02 4.931409525402978278e-01
2.227653054861789342e-02 5.612918291434516177e-02 4.342654699977143151e-01
5.715787586571506596e-02 -1.081697021317975203e-02 4.823356731326709501e-01
4.899426668900851850e-02 5.555100721664689434e-02 4.622262119775851774e-01
-1.126812437367469104e-03 -3.827653434978378708e-03 4.296962930447907891e-01
3.445407748185501384e-02 -4.330968829637757943e-03 4.398962963671807502e-01
5.290763302843265459e-02 4.504960266725910323e-02 4.783444533664918397e-01
5.282887087792927094e-02 4.017805585270410595e-02 4.868824975956845269e-01
3.525599773857271586e-03 -3.827158479290379296e-03 4.298230483975947758e-01
5.021798177413522302e-02 3.643046590190057027e-02 4.523962555096879279e-01
5.448652126866557893e-02 2.284749523122597825e-02 4.649340233583831861e-01
6.634127742143493441e-03 2.038820110366111257e-02 4.181811335005057861e-01
5.493834114879481145e-02 1.895177645296263619e-02 4.757929286261743385e-01
2.760225291479000490e-02 8.110354077588867797e-03 4.346723026547963387e-01
3.337789172809956656e-02 -1.609642012745695488e-02 4.410951451637941112e-01
5.346859777487081300e-02 5.408953235401772926e-03 4.942272177395166666e-01
4.741198293339754510e-02 6.212833499294941400e-03 4.497803272989875922e-01
-5.029235014818720859e-03 2.354732863604604848e-02 4.097465450350107896e-01
5.179913055228160812e-02 -7.314311345775518017e-03 4.635411077179134587e-01
-1.324769607461100118e-02 -5.989357940521205029e-03 4.325089207623023513e-01
-2.460495904709531292e-03 4.231728805438832175e-02 4.149409305321602459e-01
6.350240350872275730e-03 -1.821713382009513410e-02 4.367822392822513500e-01
4.356161867934593007e-02 8.556188052308020056e-03 4.456899698288053768e-01
5.479856973253036112e-02 -1.514414579677194998e-02 4.742936031941960562e-01
5.042872431082251472e-02 1.754712599507353074e-02 4.918369814806082263e-01
2.904800600143773309e-02 3.140968562881300136e-02 4.354201354417032710e-01
4.951719996904692389e-02 3.945083028782542245e-02 4.513099092996312733e-01
5.015708706104442943e-02 2.555791797948316416e-02 4.927907092525286581e-01
4.903811842628171686e-02 8.420017643661074219e-03 5.037019412378321848e-01
5.817503158258871543e-02 -9.618889753050729671e-03 5.072555094176705026e-01
2.156578307043714032e-02 -4.124842713272387426e-03 4.332687071278907287e-01
3.778658430531608298e-02 6.242386789016784315e-02 4.447797210556877490e-01
2.443668614338643033e-02 5.744678084583032529e-02 4.359393123279960980e-01
5.476460342293709704e-02 3.051366570758181143e-02 4.664789247378133830e-01
5.138552914404462268e-02 5.065474727113140896e-02 4.679021585717174636e-01
1.492419337119662084e-02 3.576403945146430091e-02 4.224131146522066005e-01
4.247578261075254935e-02 -1.551995467728957065e-02 4.492188958195213466e-01
3.409475245553166695e-02 2.187552445975528975e-02 4.378160619870387626e-01
4.766523371308883927e-02 2.253514776402335343e-02 5.006887379769514590e-01
4.649308202916423854e-02 -1.057767168680029402e-02 4.543528302586960499e-01
1.072145652334536778e-02 -2.067626282199959767e-02 4.369537064588581710e-01
5.207848155136949458e-02 4.635480604653178377e-02 4.833570987388629003e-01
5.104339320805854896e-02 -1.045607174935981459e-02 4.635252138750525774e-01
5.419481065839359957e-02 3.777685360513386575e-02 4.725882563578716611e-01
-3.165851071218964835e-02 1.726377326154272807e-02 4.269222071357981485e-01
4.707396394127077999e-02 3.241886312271304027e-02 5.021074735591355420e-01
3.207492748844534974e-02 -1.269311817390943176e-02 4.394516889197259690e-01
2.127355864818025744e-02 9.850042804922534700e-03 4.322914743269237747e-01
-4.661549246218561759e-02 -1.374966110597519893e-03 4.455074585012379629e-01
1.014048240518559962e-02 2.363464479660686707e-02 4.194095757156363624e-01
5.199604424571790950e-03 1.765857142632024090e-02 4.194387735280359353e-01
-7.529092688423076607e-03 1.165532955488723238e-02 4.230828217127742819e-01
4.387979622175022104e-02 5.246206858048060861e-02 4.949504046781197930e-01
5.368131443066677388e-02 2.153267058416447055e-02 4.598612140024787576e-01
4.275534571522478927e-02 6.524592944353441171e-02 4.554807500180182989e-01
2.732228284558452583e-02 4.520385851252456400e-02 4.331190379013411529e-01
2.292610132080007829e-02 1.722120783312408934e-02 4.320637036021650612e-01
-7.311509181976089469e-04 2.164770951990358308e-02 4.124629096785256133e-01
5.304839016477309183e-02 3.387157834018922342e-02 4.868830300276238421e-01
2.668431652685117686e-02 9.987583889302271978e-03 4.340312268517495520e-01
5.494630923364182684e-02 1.184801497207066401e-02 4.676849622448733257e-01
-5.642270502238395415e-03 -1.547373229979391758e-02 4.339313216234343962e-01
3.670718286126975483e-02 3.053734344947283200e-02 4.396620513078609571e-01
5.045357247089976571e-02 -1.299979577686904107e-03 5.129750635123382363e-01
1.893614601506946396e-02 2.751368791595780114e-02 4.280815727279428939e-01
2.006176953254516435e-02 5.808943638451354030e-02 4.381925981251403868e-01
3.165419014157414002e-02 -1.708791450790384664e-02 4.400331185804794987e-01
-4.519587295672088112e-02 1.521725512905092344e-04 4.457137678016804272e-01
2.354158774999223075e-03 1.199370282696604444e-02 4.246509165551017317e-01
4.653120252764166020e-02 1.114399269713998476e-02 5.067043662352531674e-01
8.647631636579816011e-03 1.307451001908234260e-02 4.258014846038318812e-01
-5.413638389055492814e-03 2.355874394784105222e-02 4.096816172531266842e-01
5.052607907553435806e-02 5.888163939176486658e-03 5.038499246889939220e-01
-1.236264815962927026e-02 3.215852005814306969e-02 4.103557909202490417e-01
5.664689259303785918e-02 3.740862732945686529e-04 4.779011134196802235e-01
8.950851709120202782e-03 -8.992783791748414080e-03 4.316160665759550263e-01
4.742916977184891136e-02 5.899644045568414041e-02 4.598028019524680876e-01
5.203040979375039149e-02 3.618978939146140321e-03 4.592973952576989149e-01
-1.005506690465602163e-02 3.093518511796396891e-02 4.095951706504185608e-01
4.686003005867300786e-02 3.121342301076847348e-02 5.027822386951448230e-01
4.508194162876148769e-02 -9.387249159155303807e-03 4.518848712556341463e-01
5.695065108962557576e-02 -7.234499829922055696e-03 5.087026858297968301e-01
-1.235655045345147862e-02 1.874000774671016542e-02 4.180793703682958995e-01
-5.343309645821013067e-03 2.772471057884883655e-02 4.082061285144076290e-01
4.566361070456401855e-02 4.896902032184374115e-02 4.471253070256808182e-01
4.086380610439037386e-02 -1.606377512839536961e-02 4.470016111420658800e-01
4.766846583037902957e-02 1.044173059995599263e-02 5.051033700415784589e-01
3.469775786801174156e-02 4.956576053615585620e-02 4.386194016843026899e-01
-2.807286656166490396e-02 1.319756046855241442e-02 4.290357747852685533e-01
2.089419349492619218e-02 5.675526819020852015e-02 4.356752178261114050e-01
5.183662787218187851e-02 3.333590099831124781e-02 4.553621399095382216e-01
-9.803071554832948689e-03 1.876515305700901873e-02 4.161051424587718373e-01
5.268992384594000516e-02 4.542288526379436447e-02 4.733967130902237419e-01
5.248530494972578758e-02 4.640149394877490091e-02 4.796381427469711967e-01
5.065747543747427251e-02 4.987528866766356012e-02 4.831340887458935862e-01
5.195723148641348543e-03 6.006712878274552032e-03 4.283757149378049078e-01
4.046610815673346018e-02 9.836653199410287651e-03 4.430732752452370971e-01
4.575078363594989317e-02 5.439862175034623770e-02 4.877638509724063764e-01
2.945443162188324249e-02 4.013498655642171176e-02 4.349774916733706864e-01
-3.470206484788947859e-02 1.260377202643375369e-02 4.370975305451613169e-01
-1.919116783780422733e-02 3.363547662317398212e-02 4.142438749335907167e-01
-8.685179735700380294e-03 9.658238395440704033e-03 4.246469912337552666e-01
5.409445890282926772e-02 6.991178026166168860e-03 4.652376992410250378e-01
5.648720567558797312e-02 -1.781061858839008390e-03 4.755075104512184181e-01
3.521532946886045401e-02 -7.824974332997437082e-03 4.407561685868354173e-01
5.332836495671716692e-02 3.984928834076874316e-02 4.847739093991980663e-01
5.192130536556695264e-02 4.638078143490596827e-02 4.618319172960358987e-01
3.692131993771428922e-02 2.233122485846350536e-02 4.398053552461440585e-01
2.206139946240678017e-03 -1.725724462615872701e-02 4.355923613443378750e-01
4.811772483694756047e-02 1.896372836585683008e-02 4.992385239789675633e-01
5.291747371786315740e-02 -6.251234820104895930e-03 4.650680950640722067e-01
5.426902209429095708e-02 -1.519908925442290011e-02 4.727467744965901386e-01
4.185665852459326264e-02 -6.009606926903070592e-03 4.468080799465380948e-01
2.100020094139332799e-02 3.478188788528083220e-02 4.285428253345419658e-01
5.026149671891529808e-02 3.126617660395032000e-03 5.079590253234853581e-01
2.672321104264867644e-02 2.863698754032898211e-02 4.344443598219167035e-01
5.044055692067141161e-02 4.201892536937509165e-02 4.940754580624678871e-01
2.007983981502574344e-02 5.120679187660114040e-02 4.296881713685225535e-01
5.243018953096246354e-02 1.305933306855354067e-02 4.879930417598064007e-01
-4.158854193563617241e-02 2.611811714690395747e-03 4.417699597606265516e-01
-2.773431738991105622e-02 1.145851601850647605e-02 4.301805854705005316e-01
4.229566130987592008e-03 3.189194781368329124e-02 4.112070320995995787e-01
5.686447888099172704e-02 -4.275687781363784676e-03 4.793740205712897495e-01
4.488937255014879141e-02 2.355136499617669146e-02 4.461668656037895975e-01
5.021379075706489115e-02 2.482234245843483594e-02 4.522806049907561743e-01
4.396327281371099904e-02 -4.696350546850852105e-03 4.488474170966726406e-01
2.576694150819349577e-02 3.735429529904071150e-02 4.326659149626993495e-01
3.627250000248075090e-02 1.123318938133416496e-02 4.397142680860087194e-01
5.170373753263528965e-02 4.078477995622625113e-02 4.906832711637803546e-01
4.996162218986156811e-02 1.127814318157790291e-02 4.534671214175463039e-01
5.041895000835384250e-02 4.382416153951768784e-02 4.535613503210703112e-01
5.123393006960653279e-02 -2.768258926738450740e-03 4.600994671735166297e-01
4.385675722974072960e-02 5.376182061757349417e-02 4.460751555400188084e-01
5.297245409846197683e-02 1.528264819226862227e-03 5.045450231731813950e-01
-1.067091545242162404e-02 1.560092791835469318e-02 4.200935464066536951e-01
5.189741669976934146e-02 4.164985472039839376e-02 4.897736682212069925e-01
3.321708747240207510e-02 -2.737632886587683737e-02 4.452736806061705077e-01
4.908667263786208046e-02 2.005226866830621402e-02 4.958358188924983923e-01
5.643702936822242618e-03 3.537775302579254655e-02 4.139807541727089091e-01
1.996862819684596096e-03 1.449442289528783331e-02 4.222060373078255213e-01
5.147327772076212837e-02 5.057942649607961860e-02 4.719699317732338750e-01
1.455815233047745225e-02 3.383244425855382737e-02 4.212168558553480158e-01
5.320318293187942943e-02 3.332112227192450538e-02 4.862090300418625555e-01
1.496569684002358770e-03 3.939459807587311624e-02 4.139556590875057007e-01
2.484388010864301347e-03 1.360246071487944755e-02 4.234175026875294789e-01
4.798155814582029388e-02 7.857465425406152254e-03 5.069903913893828440e-01
-7.374181619143185991e-03 7.994563588591780887e-05 4.291787110658272231e-01
3.507135066768714282e-02 1.430790814334895016e-02 4.387736851252149739e-01
5.158873227675193213e-02 1.812613606813410095e-03 5.071203335596422557e-01
3.006011326239180909e-02 -1.786058985700279128e-02 4.394552797682135248e-01
1.584413328432927870e-02 -6.192470630196791719e-03 4.319283073948556595e-01
5.510255654797175523e-02 1.151938334721258096e-02 4.767949691206106455e-01
4.783279809806288696e-02 -1.211652965267106738e-02 4.578649906543555415e-01
1.885533276437555833e-02 8.751371732900328076e-03 4.317253702628612855e-01
5.556684794354770085e-02 2.622718464258792879e-03 4.873209081337046555e-01
5.004132857237107018e-02 4.746602094364123225e-02 4.539280003168194022e-01
3.784576495566693149e-02 4.835218805861399988e-02 4.404217151745217773e-01
2.412465900261623331e-02 2.399459598156313683e-02 4.324749679630627286e-01
5.501635146465794907e-02 1.917439563759669452e-02 4.749766401512146574e-01
7.952136710675222070e-03 4.366342768908574451e-02 4.201502931130881024e-01
5.289110111828614069e-02 3.732335773065763307e-02 4.593308327910307631e-01
-3.511755580949906669e-02 -9.562692010933364697e-04 4.388033075022828022e-01
-1.101141541395796175e-02 -9.665262191225640342e-03 4.336582788119708876e-01
3.625025306763418609e-02 1.168191008590309561e-02 4.396986242798415212e-01
4.393769810524662117e-02 5.311050395755038261e-02 4.929260919559745324e-01
4.921182505956329251e-02 3.478322648425113267e-02 4.972176504719071910e-01
3.602999896724985718e-02 3.635671258663327604e-02 4.392578719622035610e-01
4.159762471263044742e-02 6.539506036595893468e-02 4.649084262542459434e-01
5.385132465357189702e-02 1.421403379954313574e-02 4.620253288342829334e-01
-8.036386325525220892e-03 3.630890061239191308e-02 4.113871665568449854e-01
1.000605242088810874e-02 1.170778775219266654e-02 4.269251897601535339e-01
-2.514385691695110447e-02 1.185963710682913334e-02 4.281764317100665851e-01
4.447274330449616647e-02 6.402213359558665828e-02 4.587442699244712041e-01
4.803001608019421415e-02 3.219792903523738259e-02 4.998354468081970814e-01
5.329994486660146608e-02 4.261808820389614144e-02 4.730506066019380951e-01
5.523911359764879098e-02 1.049736923014924286e-02 4.710645514472815432e-01
5.032129344047422959e-02 4.761743830283949458e-02 4.895592747551437141e-01
-3.464570043391703574e-02 8.054352109127332904e-03 4.382826373903069839e-01
5.532585399406811377e-02 1.543828071470601873e-02 4.718220260124448839e-01
5.472268763140406694e-02 1.620727479324830106e-02 4.666904070478806177e-01
4.976490365822012346e-02 5.299834264264664113e-02 4.790920955064737474e-01
5.502652118373901197e-02 -7.939884778561220185e-03 4.725695519065076788e-01
4.623638523352384400e-02 5.478262281811119988e-02 4.499386718223701287e-01
3.590450951479319530e-02 6.631925410349205630e-02 4.576133923262984404e-01
3.955946236774827984e-02 2.724439192203524304e-02 4.417124509716900405e-01
5.527864272618959740e-02 -2.507533691068760534e-03 4.698119869479454591e-01
-3.052431201382280884e-02 1.288795226125216513e-02 4.305848184291988234e-01
9.157034178304745628e-03 4.960693463440319501e-02 4.234021922821464279e-01
5.519654747197667854e-02 2.750433617591976909e-02 4.752895060344817790e-01
2.042323100724445853e-02 4.197814783695068969e-02 4.274442997054161975e-01
5.040769637473335729e-02 3.964522053034288951e-02 4.945988593249561749e-01
-2.994588150014837642e-03 3.064517169389219600e-02 4.077363910824470250e-01
2.847881066427814314e-02 -6.171731535072165140e-03 4.362855008095867237e-01
1.840074199279298495e-02 2.963744260924243423e-02 4.273829059795301588e-01
4.711597806341696199e-02 5.495441217850663418e-02 4.845442676868206844e-01
4.433691758957792467e-02 3.550925641612515116e-02 4.459596092343562912e-01
-3.710743590822232138e-03 6.848702183710315972e-03 4.259229297990899665e-01
7.937153955328469720e-03 4.421620551817123657e-02 4.204445661436974069e-01
3.147087869768580310e-03 2.051692644375098518e-02 4.162692050892107809e-01
3.662487950452254781e-02 2.770129749456711268e-02 4.396464587299819260e-01
1.364751645658191133e-02 1.120504034015076811e-02 4.285480579655834843e-01
-4.088494694027861726e-02 -2.225505764065017003e-05 4.410483233359243638e-01
5.320428495062970442e-02 4.398390712265346641e-02 4.790524505788213983e-01
1.624935117029286183e-02 3.291123242674626193e-02 4.235309235079932622e-01
2.025386921233186463e-02 -2.314763087550204129e-02 4.369148324838263431e-01
2.670424651302705232e-02 -1.636320157228287123e-02 4.377292241345909773e-01
4.869485083163831857e-02 5.203614738402002893e-02 4.874752307438885435e-01
5.538780125864489062e-02 -2.339043328568590156e-03 5.054942170891528752e-01
5.436060329889697701e-02 3.708086420152331697e-02 4.739361641992149154e-01
4.874382076614053316e-02 2.501705086892815413e-02 4.971947455324941534e-01
4.907381290455081063e-02 4.547260777451885005e-02 4.960987773968025816e-01
4.336360844859580427e-02 1.797297810866476525e-02 4.450019153039118658e-01
5.049070039918829994e-02 2.222795739696551039e-03 4.561731003141535346e-01
5.105717131475016879e-02 1.606118815409674980e-02 4.546655764018854851e-01
4.596421843709404959e-02 3.463779134197247228e-02 4.475332452165672881e-01
7.337777924518693561e-03 4.350016765118973339e-02 4.194739064568902553e-01
4.205360255345520770e-03 1.866779647031584916e-02 4.177787436667685927e-01
4.922524883334358087e-03 4.482048055230132555e-02 4.178937284684728359e-01
3.989212909935380830e-02 4.892731114262998532e-02 4.417928879645598994e-01
3.416004335941762865e-02 1.934411423896045465e-02 4.378703752430929130e-01
5.652413047612699082e-02 -4.339707530727980600e-03 4.770652758898059620e-01
-1.772289045226810994e-02 2.750983327655252136e-02 4.135034608232875941e-01
-3.874822782983185221e-03 3.760260565770891586e-03 4.280061002293310546e-01
5.388852111771994663e-02 1.804938921752640216e-02 4.809309236519463959e-01
5.183318920402837232e-02 2.759157923802803281e-02 4.885681497621635616e-01
3.401783006684479249e-02 -9.437053914655161441e-03 4.402224788320377447e-01
4.373357646767474238e-02 6.148758179608324742e-02 4.511995724541169595e-01
3.902969153851386375e-02 5.933148449450269951e-02 4.433778063757936594e-01
2.241726218314457619e-02 5.852822259389574983e-02 4.359614351591557524e-01
5.398414077950717399e-02 3.871532061971350025e-02 4.711692101372526031e-01
1.124582234347864217e-02 -1.373426755464926888e-02 4.345329304223254918e-01
5.239039041091870380e-02 2.872716055550723208e-02 4.874358113098929413e-01
4.874532094417391437e-02 5.605931097500139321e-02 4.687803996707723964e-01
1.835211490581947769e-02 2.529586407764629688e-02 4.276160355334587826e-01
-7.601292023698445928e-03 3.555198626338566814e-03 4.281598435517883772e-01
3.603107064503032614e-02 9.082832689652417524e-03 4.396715383621552786e-01
5.396712603565830685e-02 1.600369928357394181e-02 4.808857194546015679e-01
-2.387170067908866294e-02 3.645146313554624429e-02 4.173422886620923311e-01
2.268603926268045190e-02 5.130084338940776173e-02 4.312410623458748926e-01
3.259374460663226614e-02 3.495076812427622137e-02 4.369676503211650243e-01
4.877916534989964331e-02 4.500460523684222947e-02 4.501918279463654748e-01
1.288847671710432324e-02 1.570670027104302535e-02 4.263911327360816461e-01
5.412877510705776940e-02 -1.213745326264171857e-02 4.713506913324376768e-01
2.319076739868943665e-02 3.306300594750976457e-02 4.312647143012909856e-01
4.626728357358355498e-02 6.076242820974481901e-02 4.565157531721187323e-01
5.488234559771988652e-02 -1.328372770859308910e-02 4.743829608600638181e-01
-1.664771028273571291e-02 1.139040166271477854e-02 4.243118163639361118e-01
1.804019017018507892e-02 -5.875169476486977876e-03 4.324684970317239641e-01
5.401178832643196981e-02 -4.662045628280656745e-03 4.667424579274934704e-01
3.185376696097240445e-02 6.398682646562918463e-02 4.436561461634122017e-01
5.376721880503380901e-02 2.299787978286717272e-02 4.816781686230400816e-01
5.002497695873927425e-02 2.293115506138953055e-02 4.518369229219711403e-01
5.514589012096218767e-02 2.697367212117229851e-02 4.686851623456629867e-01
5.654463004522637670e-02 -5.593060102994613231e-03 5.074815445213805010e-01
4.506686731915380412e-02 2.877630672234579925e-02 4.463241914114488562e-01
-8.562504787089961211e-03 9.070565421479093865e-03 4.248623491602160906e-01
2.585277135741038956e-02 5.896007022534982545e-02 4.370147444478147403e-01
4.295524623936460874e-03 2.164899547112611802e-02 4.152523406588529142e-01
-1.404812881568502300e-03 3.712842558518927166e-02 4.112824629684848632e-01
1.546525627107193587e-02 3.840562066290673093e-02 4.237281309199469881e-01
3.863184705736220914e-02 1.342964749020639399e-02 4.414144836008100925e-01
6.787446768347545241e-03 4.856324313314007435e-02 4.211657141157019724e-01
4.807914338193898518e-02 2.628122387160562821e-03 5.125300100215066657e-01
-5.107551056369660780e-03 -9.358023606139808520e-05 4.291635087892812228e-01
-2.050982328073784611e-02 2.222405634581881007e-02 4.184342599845305988e-01
5.621780642037960823e-02 3.100959752145904073e-03 4.776848131878346781e-01
-1.284305648239809916e-02 3.780983718514318442e-02 4.134706139696689431e-01
1.587752177922504074e-02 3.197203633787185778e-02 4.229966681433661724e-01
5.338274279082454860e-02 4.308120057956503490e-02 4.780968917718380062e-01
4.688248097324109603e-02 -3.024306497778231437e-04 4.503527560463714829e-01
4.018633918013438111e-02 -1.330283892356323022e-02 4.455785314193734248e-01
5.128659333887138072e-02 5.129743585928608907e-02 4.715657794444648720e-01
5.476149652008138746e-02 2.200810739078778305e-02 4.666223110001854191e-01
4.418555750409047800e-02 1.891688475939429584e-02 4.456511240059327639e-01
5.131761975255647729e-02 1.742826139233281252e-02 4.550089697353769114e-01
4.037500609546360725e-02 2.792482915053993292e-02 4.423907465860620891e-01
1.920415991520032020e-02 5.555019714487657856e-02 4.349515874589980347e-01
5.028065208791436536e-02 4.175746514477537974e-02 4.945249258031955142e-01
4.791550615005965574e-02 4.067308865728031658e-02 4.495414543125402229e-01
5.288336957724140697e-02 1.522000499604089611e-02 4.846434915166673574e-01
-1.906694659932919866e-02 -9.118398365337556863e-04 4.319356127617909324e-01
-5.883589134168028950e-03 8.269273242037569402e-03 4.252973630618211986e-01
-1.623840868984415681e-02 1.887618481799182429e-02 4.192216718481527327e-01
-7.960180732325523867e-03 3.624801751418056661e-02 4.113010046086554850e-01
5.272843468276025569e-02 3.673501074458260240e-02 4.585920261451171820e-01
1.428323132658806255e-02 3.280670546797271464e-02 4.210944567713778564e-01
3.388763102430612795e-02 5.518228743737706860e-02 4.390388626083005508e-01
4.869052318400138996e-02 2.150421874640336128e-02 4.496486575108225026e-01
-5.609481513149742679e-03 1.382952532337774348e-02 4.212719899189212858e-01
4.947421845905106141e-02 4.762163724356808375e-02 4.931622625801352910e-01
4.905222135052505344e-02 1.580493197456069032e-02 4.961671531502401256e-01
3.038751190186746859e-02 -5.528036010483687764e-03 4.374082989218396333e-01
4.653029411073809907e-03 -2.628169514929871824e-04 4.291743353671731986e-01
-3.025318524845847443e-02 3.022270379578218327e-02 4.202552884795098254e-01
3.513993045101971441e-02 -8.809590720507493034e-03 4.408405117052849320e-01
5.103629827178939038e-02 7.819919068411491578e-03 4.564444798766678635e-01
7.493916705018301323e-03 2.908274442030460774e-02 4.132708358528455750e-01
2.930704429062018848e-02 6.192171519609768887e-02 4.424070478428669961e-01
4.568518906208995228e-02 4.224876534946143264e-02 5.035010832123328894e-01
5.444751660541014698e-02 3.584848700398737820e-02 4.706988250528157947e-01
5.124169661796676434e-02 2.379643238313225093e-02 4.542024203701073293e-01
4.065668606218294893e-03 4.177728126032410894e-02 4.155699957926543564e-01
-2.669342067329353446e-02 2.787576359097737252e-02 4.185381090252427994e-01
3.507106315287432385e-02 5.963774705873128162e-02 4.410618645692944151e-01
2.334326074018629529e-02 3.358150207233867590e-02 4.312707818120437020e-01
3.830999412194978360e-02 5.175387830635495845e-02 4.412498105036794516e-01
8.874822936078621827e-03 -5.490765352542698041e-03 4.307365051856134053e-01
7.146204493048108168e-04 4.370076245863353109e-02 4.160867185263278367e-01
5.211350549359713286e-02 1.726234759342051839e-02 4.869057435197976513e-01
-3.335692990343294695e-02 2.531349871696704501e-02 4.238002734675658245e-01
3.591418444495639989e-02 1.994091974666828068e-02 4.390354442501534504e-01
1.520841812778871149e-02 -2.234873052656611431e-02 4.369085264018137682e-01
-1.637848621004470498e-02 2.294022200966518155e-02 4.148778695060837962e-01
5.269150151830235412e-02 4.270515308178813446e-02 4.629226064701597032e-01
1.379246169392552533e-02 4.888002195531938876e-02 4.253990580757419093e-01
4.938889188270260966e-02 4.561622578004473350e-02 4.954407105634866526e-01
4.632887613131216747e-02 6.111854718881173237e-02 4.643459299625158354e-01
3.395572978651142243e-02 -4.275302422574811002e-03 4.395763041276664618e-01
3.593224972952083901e-02 -2.810892370489317948e-02 4.479840227711175960e-01
3.830105372249705681e-02 -4.259342968672918082e-03 4.429329246571963030e-01
-2.417890157578861388e-02 6.794963419955598292e-04 4.325567612946194518e-01
5.332700740357679270e-02 -1.491842136337937462e-02 4.701471529280485395e-01
1.186611701948188727e-02 6.069440157143780358e-03 4.298545837389150526e-01
2.810123293254552027e-02 2.452605305172613631e-02 4.346485942517113732e-01
5.710271809255749315e-02 -1.335325232282066248e-03 4.870038009651443400e-01
5.212861840001378061e-02 4.541393688037378279e-02 4.618194444367493268e-01
-9.341416259726821603e-03 3.825438260145000435e-02 4.129765597203330363e-01
-1.251408550631430763e-02 2.431544736451152905e-02 4.117030810465243107e-01
3.017873123182641601e-02 1.743328856702122329e-02 4.356087620213097145e-01
5.895489144720748864e-02 -1.104376711234378305e-02 5.019343326930032489e-01
5.483814811401621636e-02 7.933199288127398829e-03 4.829833669980225785e-01
4.821265568606324103e-02 3.492997207263582454e-02 4.992724918193927053e-01
5.406199916039013120e-02 3.778662950337780685e-02 4.692576429094130752e-01
-1.083477689385043546e-02 4.152939698441347055e-02 4.174021079567198367e-01
5.575042218712741166e-02 4.529690759014566755e-03 4.742143111218917739e-01
4.504224872225267434e-02 -7.288797842430387239e-03 4.510633368268164856e-01
1.743565023310871334e-03 4.038983430818257614e-02 4.144639888494655589e-01
3.015155413412633559e-02 2.384767005627930550e-02 4.356894652204426066e-01
-1.605486816012403548e-02 2.759315340396088431e-02 4.125716829682810061e-01
2.519742662789978965e-02 4.465951915639375380e-02 4.313911652540526331e-01
5.483961344608046656e-02 1.261091556510933118e-02 4.669074611824225451e-01
5.052055002147261276e-02 1.126507083672326388e-02 4.958853128753361594e-01
5.198101661826877440e-02 4.863557945305867214e-02 4.736685078594283227e-01
-2.557083137795984965e-02 2.645817420685107890e-02 4.185427290312201953e-01
9.140329224916202838e-03 2.865433963471625267e-02 4.153226857700856867e-01
4.807479607945048389e-03 1.501039071126015340e-02 4.226576629533308482e-01
3.574404365674540424e-02 6.459711395364051145e-02 4.454737165893629114e-01
1.417196805009199485e-02 3.483781521358968181e-02 4.214784405738548623e-01
5.327801956242588649e-02 3.757295774587975090e-02 4.857251989095046074e-01
2.258030166673324554e-02 -3.543329989103301443e-03 4.335152777007511560e-01
5.223114885820061282e-02 4.752288017223699201e-02 4.745432039627184850e-01
6.554764637249202441e-03 2.328451614773272699e-03 4.289161109952695505e-01
5.045709359432740820e-02 2.271249699378200676e-03 4.560745324255620070e-01
1.285534768153982592e-02 3.105193772840527527e-02 4.191458842770527937e-01
4.821120774756592481e-02 4.981068454383753147e-02 4.938710253333591926e-01
-2.955695035757954434e-02 1.830376796232753220e-02 4.246664194778721479e-01
2.782711976044802832e-02 4.133687966845204370e-02 4.337320945336561873e-01
4.774991934226407997e-02 5.825441342835574465e-02 4.649990868052628068e-01
1.165074258613260985e-02 3.886779374849192586e-02 4.211224152059094838e-01
1.683190423205305208e-02 -1.345490476368742250e-02 4.340462086050946855e-01
5.589792943512171715e-03 4.354428684035253211e-02 4.178061538597609426e-01
3.829324323084595805e-02 -1.599388827315684561e-02 4.445823444543809955e-01
3.379281708895132130e-02 3.248722114910418401e-02 4.377166575821336836e-01
4.664592395422845206e-02 6.033093393165034346e-02 4.579233548138811338e-01
5.140307308948806331e-02 8.827384520866397508e-03 4.955825245467494478e-01
3.352843832244677136e-02 -4.347818625718911402e-03 4.393109065903033073e-01
1.814241624020885083e-02 3.027920893033488742e-02 4.268744295645706122e-01
4.938727276637864920e-03 5.046623587741635997e-02 4.220650938247587081e-01
4.815591733187140483e-02 1.896897994892293021e-02 4.991060003388957389e-01
1.321048114000907686e-02 -1.321350235621879601e-02 4.339993194299306412e-01
-6.237799150148595415e-03 1.754951830608486585e-02 4.172430006293754157e-01
3.425844158521641758e-02 -2.853563457975250017e-02 4.467197785247401520e-01
5.108713775589929923e-02 2.701210901326139141e-02 4.537281440721073755e-01
4.941970524769065398e-02 5.682453251178500378e-03 5.067005418689585206e-01
-1.366591938775304875e-02 1.397130647440256342e-02 4.219765844171082803e-01
3.799892041678766541e-02 2.662541163021538149e-03 4.420743819143599929e-01
1.351164126935915089e-02 5.454369250036651684e-02 4.346177695596613599e-01
-3.857993212325259297e-02 1.677720502385791337e-03 4.400862503876510345e-01
5.672851470852752209e-02 -6.243715295454040082e-03 4.795943694627715637e-01
5.393529113978633854e-02 3.939546275878667153e-02 4.728840247107517492e-01
1.369172300602513465e-02 4.630406818412428210e-03 4.306115038021983144e-01
-1.961388910425140332e-03 -5.154510270856927333e-04 4.291791343369426581e-01
4.159538254779319988e-02 5.540834175184251344e-03 4.445210208043575140e-01
-5.026683253183118240e-03 4.050613220066112685e-03 4.276028526463187540e-01
4.414059725200393525e-02 4.657101231214551967e-02 4.456207761246999688e-01
2.052704109948392738e-02 4.437622065692938683e-02 4.276135447888843033e-01
2.597715422382977646e-02 4.880317881259164242e-02 4.322322622036533502e-01
4.724812166016986725e-02 5.698288300004195756e-02 4.760985813494100771e-01
5.040379125136554977e-02 4.425486643111158774e-02 4.535837702950714090e-01
5.560992482256405661e-02 -6.915454584849053433e-03 4.743415599586730536e-01
3.509370864850829691e-02 6.859627114543891124e-02 4.490536471106199023e-01
3.798804165659316195e-02 -1.541703101518503150e-02 4.441528657135191405e-01
4.112355279024038773e-02 3.949958794174620105e-05 4.449575995047542754e-01
5.381674111270531163e-02 -8.289530506661032389e-03 4.679885453777277715e-01
4.319744291086366483e-02 6.486112740911309515e-02 4.642948791801949082e-01
-1.568220957846412980e-02 2.484492090253463334e-02 4.133651473456222414e-01
-4.596608758610847001e-02 -4.589300354986133521e-04 4.461428149183545577e-01
5.009859725755843457e-02 1.515982038713263765e-02 4.932689146079413112e-01
5.316440547318145721e-02 4.362207673251415618e-02 4.762900765219200694e-01
5.492953262950629051e-02 2.408618657879818895e-02 4.675601348881561758e-01
1.581452612549187620e-02 1.526528384133618056e-02 4.281611621870096140e-01
-1.358721719720481017e-02 2.316709594112112067e-02 4.128394390206301945e-01
4.547122274629199906e-02 3.929625147734132351e-02 4.469883418210027770e-01
3.821687620446580919e-02 4.135963492750932557e-02 4.407909975008973968e-01
2.976010146496154210e-02 5.374948634680137838e-02 4.363958049857016297e-01
5.535621964025725511e-02 1.484983516741060494e-02 4.722115496118214351e-01
5.457697703237868875e-02 1.876892016792208046e-02 4.784473490824238118e-01
5.644106631764414517e-02 -1.168466945816071245e-02 4.788576880358484944e-01
4.109732120471550759e-02 3.562650379463463274e-02 4.429139168038777608e-01
9.482241041988800218e-03 5.190208579617355128e-02 4.254424151620914141e-01
1.879129871598146304e-03 3.844949044207557343e-02 4.134680661022415160e-01
-3.596262606902569242e-02 1.828460686806241547e-02 4.320964828120164580e-01
4.487086196739283744e-02 6.192160564726575944e-02 4.704252799838049004e-01
4.967407868165036461e-02 -2.446063317095804532e-03 5.148508290065179072e-01
5.185632244475357755e-02 4.636785285245539900e-02 4.615092939499821356e-01
5.653502994489589817e-02 -5.558831166255812258e-03 4.777718348656845304e-01
3.811936346892490224e-02 6.676126573433696643e-02 4.545418141578462801e-01
5.231854452418516210e-02 3.083458246049371188e-02 4.882107946510158558e-01
3.067415904379242747e-02 6.044281734686429708e-02 4.410745711215027232e-01
5.082523707525612999e-05 3.816210939340844432e-02 4.126318295842896777e-01
-4.018297044756891090e-02 2.394984918399557967e-03 4.488451728008459041e-01
2.316406563420585901e-02 2.046953148492511310e-02 4.319657320590044036e-01
5.002255440013718413e-02 1.168251578031580425e-02 4.535041228704537186e-01
3.238052622274164433e-02 2.363255688773914162e-02 4.367552453414632607e-01
4.791603605768461616e-02 1.190599040534241586e-02 5.030599753057048984e-01
2.240031880919284360e-02 4.827828374119088467e-02 4.295453804090119121e-01
-4.862430063908158330e-03 1.776657750194906432e-02 4.174862510392183257e-01
-3.410248734606109028e-02 9.562102704034671982e-03 4.369981814184191182e-01
3.987731199188913195e-02 4.927351109871389023e-02 4.418471677348322357e-01
4.925670208860054300e-02 5.149457724841662032e-02 4.865759429222176191e-01
1.715647831023330017e-02 -1.301171161234635290e-02 4.340073325546756622e-01
-4.280874913324642095e-03 3.492188470065291095e-02 4.088240706223686405e-01
5.135044680906786924e-02 1.423428577227514591e-02 4.903984589203580491e-01
3.599721246366275468e-02 5.887531050045106268e-02 4.413159032961216366e-01
-2.598677245215683454e-02 5.963625975519196848e-03 4.315384460019919821e-01
2.682817051046375301e-02 -1.394698398192093652e-02 4.371137617080342319e-01
-1.262280143658507658e-02 1.985697398969411831e-02 4.169736992307385703e-01
5.274615553235464938e-02 4.574728173198704811e-02 4.785799889113666050e-01
4.675612373969762620e-02 5.738684664255695733e-02 4.534586577711925415e-01
3.709050644633857946e-02 6.205747944606575250e-02 4.441404452554698623e-01
4.392468680662252323e-02 5.379568245151126332e-02 4.908592858479320364e-01
1.412652798389064240e-02 9.848407691494700036e-03 4.294632898291115275e-01
3.243926469911165983e-02 1.307495466311124274e-02 4.369380800521071029e-01
-3.930844453915970094e-04 2.795403853784577536e-02 4.094329693502630207e-01
4.857587022255495379e-02 2.043065971188342059e-02 4.497302308770212420e-01
5.381208296452029416e-02 2.242585013188499315e-02 4.607117493299086597e-01
5.470215750505586644e-02 3.510708892799477981e-02 4.742582974640320859e-01
3.762806847688215245e-02 4.274446030233207405e-02 4.403563284764642760e-01
-2.913658123414681646e-03 4.493822711150175647e-02 4.181959330476671122e-01
4.305065216514145088e-02 5.973590550928557785e-02 4.482896245229369692e-01
3.913362338629954723e-02 1.714505517825083876e-03 4.430453860193435123e-01
-2.245657436888829663e-03 2.751305510087343614e-02 4.092030103918129491e-01
6.749793065219420601e-03 -4.435460698460079280e-03 4.302645946520107789e-01
4.752027899581447862e-02 5.452013232362219047e-02 4.853334020173009078e-01
5.523884861041893773e-02 2.754925451138738601e-02 4.699525948799710973e-01
1.929964131504488534e-02 3.479185627151425153e-02 4.268638184519030210e-01
5.323657848117661906e-02 3.287870463584094405e-02 4.860401924356426151e-01
6.641617939933374022e-03 4.691373883828683922e-02 4.205199533571598591e-01
4.762772820968670662e-02 3.178620633673840540e-02 5.008554445317847659e-01
5.448952465994765654e-02 3.152508555871385426e-02 4.645712266161944326e-01
5.715478919327510177e-02 -1.463175920454225145e-03 4.873045395995409534e-01
-1.326630049370634834e-02 1.066706795489513228e-02 4.243389160121612824e-01
5.384184710416309999e-02 2.523968340376530131e-02 4.608951412876431397e-01
2.564964850606455543e-02 4.340112301599403921e-02 4.318587964367320842e-01
-2.490751273332837690e-02 3.476871927559176817e-02 4.169104105189377907e-01
1.962784683806895192e-04 1.031220700686715126e-02 4.251651212161233762e-01
5.400562360142098506e-02 3.064325730587433988e-02 4.611531547958007127e-01
5.206539516003162726e-02 3.541107085138882338e-02 4.899548008957900214e-01
5.423642500499412100e-02 3.316926204098622627e-02 4.635918858079172700e-01
4.898082970768326272e-02 1.846628639857053958e-02 4.504637996804997102e-01
5.300626814111081622e-03 5.089679827506791293e-02 4.226547612978817092e-01
3.899257642401651736e-02 2.309320176930640400e-02 4.413349410222658920e-01
1.947663793995211071e-02 1.928892967807808653e-02 4.295371864258717420e-01
1.367303901261349673e-03 2.093668664418154787e-02 4.147981915405766218e-01
-3.590721636098535841e-02 1.713566725915737637e-02 4.336877648013444109e-01
1.931400971815463302e-02 4.251640174804085376e-02 4.266206784392182483e-01
3.575524807329795093e-03 1.293583539696496754e-02 4.243654751204647413e-01
5.153938609048103886e-02 4.203767364294867456e-03 5.038237984458622254e-01
1.289102495997444114e-02 -1.929009499277417605e-02 4.361446353172355184e-01
