1.035997256185872996e-02 3.079146024237987972e-02 4.160243898195690737e-01
5.498134732978725986e-02 2.774153585873069539e-02 4.675155848224172295e-01
-2.233027348140895901e-02 2.857607772596752749e-02 4.155209641813006338e-01
3.727828729134628760e-02 4.216550913756477587e-02 4.399497250355424716e-01
2.498649021329407693e-02 7.573029364768051920e-03 4.335092025203117760e-01
3.318400091081316616e-02 4.997791235088372419e-02 4.374918022835764253e-01
5.452846151906093342e-02 -1.457424162662991803e-02 4.734341048119668494e-01
2.905534275489488841e-03 -1.289204987591943338e-02 4.329670450696296302e-01
1.187761355275314575e-02 2.375675799014444201e-02 4.206011996207880133e-01
3.305671384526427670e-02 3.454879536302746940e-02 4.371122750705845883e-01
1.974277817426057027e-02 2.150008417706943467e-02 4.291427044942465185e-01
4.735445899241063489e-02 4.838196782675278917e-02 4.975805536229536696e-01
4.950435008842770518e-02 1.419713757275105001e-02 4.517612696547192441e-01
5.381807858477235390e-02 2.603904618802218088e-02 4.605528334640987542e-01
1.510007886029940405e-02 -6.932539840024815048e-04 4.310203639321981139e-01
2.739539591492599901e-02 5.996056012910432748e-02 4.395353099589290879e-01
5.464301324462238207e-02 2.461711192578189267e-02 4.657434810761455490e-01
1.759815632286718806e-02 4.932506058923694092e-02 4.270874160397688524e-01
5.785617713508652005e-02 -8.453098495053282257e-03 5.053729949259390120e-01
2.288340021074787220e-02 5.574387764556162916e-02 4.341546926868756207e-01
4.659177764105090769e-02 5.654970383690239438e-02 4.789732593749689848e-01
5.666248767738113479e-02 -8.468092816757047392e-03 5.112524858619726942e-01
5.466806474732806981e-02 1.020350634742319025e-02 4.810798980138655256e-01
3.526334554530037579e-02 -2.123871850725112670e-02 4.440195058749327184e-01
4.429133148435530909e-02 5.942877896798763604e-02 4.775116524551347164e-01
-2.414114369419509409e-02 3.748837147487529137e-02 4.193353983305965760e-01
5.592264193902082847e-02 -6.242569114123320065e-03 4.751813388162294260e-01
5.488537244048308922e-02 2.036640950188648921e-02 4.677092627801516800e-01
4.670624810355628737e-02 4.809964621525492784e-02 4.479607093005968377e-01
3.032839920772232439e-02 1.328510810751500591e-02 4.356734411872689727e-01
1.998722524186866308e-03 2.295923659114819382e-02 4.121106574492972574e-01
5.545544226427273626e-02 -1.390971774176947770e-02 4.761095485091538237e-01
4.085285239423533388e-02 -2.197193677446090260e-02 4.496415926140752140e-01
5.041738772364155047e-02 3.057635626520275110e-02 4.933299328281037233e-01
5.284210271760856475e-02 2.380034688654504918e-02 4.573060858533983253e-01
5.111330218415032628e-02 1.102976797569251571e-02 4.942315299049979127e-01
4.533426516030165943e-02 -2.139337789979602056e-02 4.561091060182133616e-01
5.485605503736087213e-02 -3.932482729817964907e-03 5.095536433382092945e-01
-3.484029845607317100e-02 2.192191552345695849e-02 4.270517338775255411e-01
5.310418694891344549e-02 3.553709384708354964e-03 4.993246841536920222e-01
4.816720460980867397e-02 -1.411455978783097281e-02 4.590288859237359742e-01
4.468973597220687183e-02 -5.854390777522000891e-03 4.500113265067678947e-01
-2.141704645533852418e-03 2.811255353785502634e-02 4.087714155698478069e-01
4.574834025945975075e-02 2.650126875289022729e-02 4.467894054968828965e-01
5.265345404842328159e-02 3.834987450252970442e-02 4.590397393633205425e-01
-2.512054172542521613e-02 1.559212056052866613e-02 4.248549495097822537e-01
3.532350312830323524e-02 3.589398454893828749e-02 4.386205959476493499e-01
-2.826100633358737124e-02 2.475647371018478010e-02 4.207004985842006106e-01
4.976250001755370272e-02 -1.619446686966216978e-02 4.629509440683446386e-01
3.566828573621670662e-02 4.751902178911786290e-02 4.387721633410183730e-01
-1.250080104795325310e-02 1.291715081786732645e-02 4.223854501123845417e-01
5.007520250696023689e-02 -1.614679132152687172e-03 4.569115848087363929e-01
4.872967511840596566e-02 3.123494132402631490e-02 4.981077936227661374e-01
5.483562003512845034e-02 2.134275813710561145e-02 4.755822848841204098e-01
3.743233042462765919e-02 -6.269789303251802580e-03 4.422095204611329322e-01
3.597952798139850139e-02 -6.650842124040702748e-03 4.410181770656615430e-01
5.504548293723973695e-02 2.728025650515939274e-02 4.679161990987826258e-01
1.106411516373528685e-02 -9.902349466631148178e-03 4.320771746196515051e-01
5.711902322524119863e-02 -7.076668115496641265e-03 5.074609097915259159e-01
4.751411862728440599e-02 5.143247386664549781e-02 4.923616742336697771e-01
5.623515748542688708e-03 4.042996111771499784e-02 4.160525423395789457e-01
-7.922002611129732794e-03 -1.039863811867792510e-02 4.330618685115253941e-01
4.568134871198660518e-02 6.232193308422202815e-02 4.642861039383835986e-01
5.219106186071515580e-02 3.962627630515592331e-02 4.576648236418971449e-01
1.503312106932641959e-02 6.516921157225947711e-03 4.309231837670285947e-01
1.985296321242186607e-03 4.938206012940782319e-02 4.207981151938639530e-01
3.281858313289005152e-02 -2.749866035748747828e-02 4.449950739014435497e-01
5.006090375833052719e-02 2.405842601351967924e-02 4.924691508113362426e-01
5.491388414065535156e-02 1.388992639794069291e-02 4.766574128833206969e-01
3.521031158210911199e-02 4.736464884031921577e-03 4.396744901625767032e-01
5.360848612351572229e-02 9.972216967128275794e-03 4.864201722446914733e-01
7.166001618125879442e-03 1.535773285889502349e-02 4.237119404585232285e-01
-2.001857254924902310e-02 2.295014340535755579e-02 4.173114038024394179e-01
-4.687404213119916729e-03 2.929095161885243714e-02 4.073805739203719134e-01
2.193018352188764314e-02 4.509666445440979610e-02 4.283682410514656480e-01
1.753920373622376225e-02 8.089904170830528735e-03 4.313245497853684940e-01
2.797778096063198786e-02 -2.078462358059894599e-02 4.392920551141630270e-01
3.666734001015969219e-02 4.280721298821216214e-02 4.395601907669149377e-01
4.567149035101208260e-02 7.728333573269427145e-03 5.110298699069704131e-01
4.393914453852622998e-02 3.545552942360075122e-02 4.454157189818477858e-01
5.301097289577008653e-02 1.667868037990217003e-02 4.837635965409924910e-01
5.488910124332403023e-02 1.606937044119238073e-02 4.768139557876850954e-01
5.469623383414864981e-02 -1.515217542657380529e-03 5.061727293436737440e-01
4.984777074603175678e-02 2.671385960738480517e-02 4.513664477696230914e-01
5.277783904037582074e-02 4.561183760428917655e-02 4.787098557168812385e-01
4.135183725584103132e-02 5.517146468704946238e-02 4.439757121010143859e-01
-1.103597525592101870e-02 1.989997123647698624e-02 4.154823987615683945e-01
-3.159626736108948897e-02 2.031679176789236846e-02 4.250523896714387129e-01
5.217322236383879069e-02 1.981413306244571640e-02 4.563317437389788900e-01
-3.105690652379580405e-02 9.287311284898462811e-04 4.357711488786730758e-01
5.625941522661039723e-02 -3.173468592755737325e-03 4.750090029748540443e-01
1.784887084693293283e-02 4.180045282130188944e-02 4.254932808141919653e-01
-6.777942703427423422e-03 1.289392827270963680e-02 4.218642072006320021e-01
1.849076024123130421e-02 3.788699982774542535e-02 4.255127475214129928e-01
4.803960916786197827e-02 1.551700109176964125e-02 5.003197777491287246e-01
4.780711613184816106e-02 5.013520080428750941e-02 4.944509425669751934e-01
-1.644409842684489004e-02 1.234678681795740168e-02 4.234962822770720892e-01
2.198654253703916442e-02 -6.457331715373948629e-03 4.336669280724367859e-01
2.886840436922931408e-02 -9.719370018483226847e-03 4.368233077436055600e-01
4.118148357089772282e-02 6.543714172736407597e-02 4.602334421813357723e-01
1.227102035098386924e-02 -7.897500834895002098e-03 4.317434991694754087e-01
5.430945045193970311e-02 2.860444223461888064e-03 4.957394790204803781e-01
4.718555562203071568e-02 8.778454878698639663e-03 5.075800338927691779e-01
3.901613304681995215e-02 2.156887284142013084e-02 4.412871166985698479e-01
3.575767214571224512e-02 3.349030206153070371e-02 4.388787698708425666e-01
4.494378502302788514e-02 2.751679444312019052e-02 4.461069018807540254e-01
5.424938802769518897e-02 3.301976225036066387e-02 4.805039606488989978e-01
-3.327848768313047302e-03 6.820733555076436035e-03 4.259143863494976867e-01
5.283970305083471319e-02 4.386848940997844365e-02 4.834377741001436579e-01
4.948015091781333280e-02 4.742131895487109589e-02 4.932528289012551026e-01
5.278509987093499278e-02 4.393801821604883390e-02 4.653094266420251257e-01
-7.803274021407186588e-03 1.077309430046096903e-02 4.236257369788005156e-01
4.121067655411680963e-02 5.812505384151381294e-02 4.446986860254601437e-01
-2.835021465474456964e-02 1.016973102509805341e-02 4.314972561994943612e-01
5.415818949856445602e-02 3.912995332044223555e-03 4.659017181071986036e-01
4.579070846202979578e-02 5.614327289873887600e-02 4.832596489326007050e-01
1.467504346431536960e-02 3.023550568202051925e-02 4.213620324318841370e-01
-7.795957301900127354e-03 2.314437090440175232e-02 4.096201828585752103e-01
1.516777289473942442e-02 -2.029016426516457722e-02 4.361852002370807391e-01
4.256742679872601437e-02 -2.322825618253769944e-02 4.532589117019766856e-01
2.423785259240581608e-02 -2.448864557046587578e-02 4.384115077330814070e-01
4.802241100215182135e-02 4.903407349415397215e-02 4.953785396156621945e-01
-2.787252064439598581e-02 1.125669591444756340e-02 4.303223546656276266e-01
2.721106342119070098e-02 6.225763917247190138e-02 4.447235282263449219e-01
2.743213255374709822e-02 5.109511100734603212e-02 4.339286905864950805e-01
4.952389885780674600e-02 5.381655481647219796e-02 4.596232561670295369e-01
2.082732495302631534e-02 -1.934041374409942171e-02 4.365435776196145423e-01
4.396808404593226249e-02 5.154310647131572082e-02 4.976409462708847875e-01
4.289307190750487470e-02 -2.259451147183752853e-02 4.532962329861274786e-01
3.033057777564524340e-02 5.177978552911370602e-02 4.360071325522478225e-01
1.569489358588063363e-02 2.518720392305599798e-02 4.244455214621193906e-01
4.751789283332098768e-02 1.981998964125914094e-03 5.139447491789608247e-01
2.273301149940341881e-02 5.502238699897024632e-02 4.336235017275034687e-01
6.215294552042652590e-03 2.414085064201530045e-02 4.136871688454567542e-01
5.294982805990070679e-02 2.412933403633456611e-02 4.575122206187202667e-01
4.535774197238030131e-02 5.585442571688961633e-02 4.492291173365066670e-01
-2.982057014672206269e-02 2.194731868680329170e-02 4.230692777510924318e-01
1.810172854105993739e-02 5.698384132132167969e-03 4.319819295875449439e-01
2.869607053101674160e-02 -6.158853167547036732e-03 4.363587482593394573e-01
-7.671099862031949095e-03 1.002234941198112440e-02 4.242168075745797462e-01
4.721315810738770102e-02 4.395332734888755810e-02 4.484609642725921330e-01
-1.677593027557176472e-02 2.328144900938698345e-02 4.147318039402838052e-01
2.638337606811936090e-02 -1.589458514227676256e-02 4.374578493929582312e-01
-3.413674444383300172e-02 2.220479288162343842e-02 4.260380740159964708e-01
3.764481196655333067e-02 -2.861381447821487525e-02 4.495393833269306638e-01
3.909546237242747524e-02 6.428581080789247393e-02 4.471134851279668920e-01
5.753298393963390822e-02 -9.111838748099655716e-03 4.859282313450443147e-01
-3.438160942259747832e-02 1.707746937093351097e-02 4.310750668545447750e-01
3.311747065293107334e-02 6.820358200376097635e-02 4.474314061860401037e-01
5.593458088075745072e-02 7.327028863120136964e-04 4.906755140849924368e-01
4.431240618558058425e-02 5.777392404915718260e-02 4.487325249679873784e-01
1.120412666017981014e-02 2.464428983379042537e-02 4.195452616053217954e-01
5.166586151861937010e-02 4.865962954365252169e-02 4.798220249636158674e-01
-2.084231871389929935e-02 4.431201112395566008e-03 4.293304073344611504e-01
9.291697519710741260e-03 -1.086518073642582516e-02 4.322184206533610795e-01
5.428926694185362556e-02 1.194797388681874753e-02 4.815540530738290359e-01
1.501739583830824509e-02 4.213068192590835315e-02 4.242196881566835942e-01
5.050355519659462805e-02 5.208432351363299906e-02 4.770652281633259717e-01
5.219278999439590228e-02 1.255213155496978476e-02 4.892072509424798543e-01
4.237249098800537073e-02 -2.039579042587848223e-02 4.511434731273439858e-01
2.810655247537952039e-02 2.512178072324056100e-02 4.344747395539315660e-01
-2.319789784784830750e-02 1.638566411019769589e-02 4.231880463348696719e-01
1.843973252677287913e-02 2.747986589759791529e-02 4.273751504683503954e-01
5.226810353758930966e-02 1.674196812733822707e-03 4.606623827517499215e-01
-3.245809737850757597e-03 7.136869629174383278e-03 4.258153625764360961e-01
2.076371364908851519e-02 4.740129083492633510e-02 4.282185189975161732e-01
1.744991873865964216e-02 -1.282003774297570467e-02 4.339836718640651125e-01
-5.092713202926076564e-03 4.183030199943282151e-02 4.144808712491773739e-01
5.342818422281494367e-02 2.743797018378882693e-03 4.996887205957151190e-01
3.437307335420443366e-02 3.058778126386230145e-02 4.379879289155752531e-01
-3.363726684335893724e-02 -9.411216112348433967e-04 4.379795967819427038e-01
1.409289614224751644e-02 4.525949046700090267e-02 4.244991521780955845e-01
3.846007625868513163e-02 6.553551567076544571e-02 4.647154890218222478e-01
4.653607928903018276e-02 3.785381328208353019e-02 5.027511191195892515e-01
-3.194867998172341850e-02 2.743450362190943265e-02 4.215788254482926711e-01
-3.480924205011596412e-02 1.774704832010729968e-02 4.308142223783021363e-01
9.585189463587001288e-03 1.010898762797706428e-02 4.274506638994851615e-01
5.511030367736106939e-02 -6.123227759749652697e-04 4.690209345783536987e-01
5.271031970373652592e-02 3.098225772026970068e-02 4.567127184171456689e-01
-9.559459142437814333e-03 1.879260640202168320e-02 4.156579178394598229e-01
-3.246206989770752949e-02 2.850887822824220083e-02 4.213465767788773242e-01
1.621519930376155976e-03 4.747751250496381158e-03 4.278837224065311085e-01
2.837397289992963506e-02 3.415537436251011444e-02 4.345452963616422415e-01
5.365850882814164613e-02 3.088340963170689915e-02 4.594888829319412338e-01
1.243685544442794250e-02 4.507921037436557476e-02 4.235792961292602632e-01
5.684736750004572466e-03 -1.327192297619757960e-02 4.337101489667725129e-01
5.212156535531526497e-02 8.298077119196865109e-03 4.936065505777884610e-01
4.700634837572802843e-02 2.507167807849482004e-03 4.496004096585808352e-01
4.010832252595707137e-02 5.210978614231390887e-02 4.423612944349041842e-01
5.659366802059063312e-02 5.388877494346401521e-04 4.821538605721148452e-01
3.781508836608466623e-02 3.109508140797463682e-02 4.402592776925834950e-01
-2.001159381236249438e-02 2.608031087629717609e-02 4.154165990889265303e-01
5.521456894078324851e-02 9.898400489417986947e-03 4.707580761532806357e-01
5.636446053983978563e-03 1.639693845466997160e-02 4.211913317095299925e-01
4.175251840503804712e-02 1.483307106621336441e-02 4.436226988423029871e-01
4.169186289908084070e-02 1.978751185106938579e-02 4.434446970209536265e-01
6.106283105802921655e-05 3.246453405076238884e-03 4.282413573660283079e-01
5.372188232868740226e-02 6.335718518440201091e-04 5.042620425607449164e-01
-1.968142480408399675e-03 4.578684030317575065e-02 4.188909408669685419e-01
1.527634220422107586e-02 -2.278842755237287746e-03 4.313439699802623650e-01
3.258280858248844419e-02 1.879574820805878302e-02 4.366960132894099345e-01
2.143475049561791718e-02 1.149212543128641344e-02 4.314765830709241246e-01
5.365359842630414156e-02 1.374145265569074945e-02 4.824865590640273205e-01
3.844854317816193481e-03 -9.299782231471723226e-04 4.291826413606352197e-01
4.641951928441821057e-02 4.430637843514248497e-02 5.013994043367366871e-01
5.541966952025989546e-02 -3.300386475051103261e-03 4.708681227669931357e-01
3.201759503208089636e-02 6.099206044945318372e-02 4.411796615508842834e-01
-3.514829709544584069e-02 7.670418108407603235e-03 4.391567933805284318e-01
5.237455593484006272e-02 -2.127551113642477121e-02 4.697076960494133702e-01
1.094431532680560301e-02 3.379388740726515378e-02 4.173001555016472852e-01
4.151042098084600090e-02 3.624028793552679095e-02 4.431385926957069343e-01
4.816651281139903290e-02 3.834319916610800377e-02 4.992678513780929861e-01
-2.378109979970505564e-02 3.757571588659673438e-03 4.309213516791220999e-01
5.264859417970096239e-02 4.592182068441968273e-02 4.775757553785290321e-01
-3.475245153204964410e-02 3.905139127210524846e-03 4.378270559225303504e-01
-1.497105630907164930e-03 -3.364726435334233247e-03 4.295631163770411431e-01
5.512837852626634172e-02 6.898682420443548631e-03 4.698129280580894962e-01
5.168319170059516160e-02 3.360895903138786875e-03 4.585314019930190055e-01
1.123150420939455184e-02 2.370150947180846290e-02 4.200483804939744714e-01
1.234564825930670705e-02 5.333975437184198913e-03 4.299628252798844974e-01
4.624464172407725948e-02 4.006257116566009496e-02 5.029217252418214379e-01
1.009385284328141383e-02 -4.443245513170632904e-03 4.306125602581938328e-01
4.661698760832401478e-02 5.574425878724075661e-02 4.817448351678752516e-01
4.910628824526969832e-02 2.155889738133603267e-02 4.955514419061319287e-01
4.718693961817562593e-02 5.862820554239633192e-02 4.710872471336077782e-01
-1.230015249104243757e-02 -2.168506423093954569e-03 4.304906847071468534e-01
4.950384349637486359e-02 4.736254951776947691e-03 5.075582521986931051e-01
-4.283911505606093940e-03 3.013778939083723574e-02 4.071522524695824208e-01
2.356735269205771297e-02 2.571664453677059356e-02 4.317533610520850607e-01
2.558470246567852782e-02 5.803509404979363684e-02 4.363102686434813249e-01
5.549175444515776906e-02 1.138322107232700442e-02 4.736531431031343331e-01
1.231999731540662016e-02 6.860773462170035447e-03 4.298830633254850375e-01
3.734347377113714228e-02 1.393730070386750390e-02 4.403530185279318498e-01
1.010214631466932467e-02 4.999724758363478794e-02 4.240641250983463451e-01
3.049824579814928646e-02 4.960830574333505161e-02 4.356393984763032301e-01
3.041351857159511549e-02 -1.104496894119071440e-02 4.380803176921277409e-01
5.282114168097976070e-02 -1.718202784327882079e-02 4.695198715784260624e-01
1.378960616968295111e-02 1.346465169509739046e-02 4.272462816910467809e-01
7.919370233663400489e-04 2.683925741115167005e-02 4.095973488456806089e-01
4.685654670528328902e-02 1.935516152704979190e-02 4.481777901462636327e-01
4.482477836839278418e-02 1.985060645807983342e-03 4.477789727348274740e-01
5.292368676179109305e-02 4.132278854351287278e-02 4.626173129474166479e-01
-3.319168834992823613e-02 7.561596758629689739e-03 4.367002017488637033e-01
3.739784530263207118e-02 4.710639550504906042e-02 4.399004873253126169e-01
1.146778741366495658e-02 5.391424239599795082e-02 4.316876361264974094e-01
4.874179403150729478e-02 -1.274010575334390966e-02 4.597365069713164054e-01
-2.004831709421077413e-02 1.354414338911808652e-02 4.239093729166868996e-01
4.502067090442102293e-02 -1.790059887849244219e-02 4.536317266906187973e-01
5.162755432370166181e-02 1.497936418439541756e-02 4.559707449868383722e-01
5.271548630046742068e-02 1.513334105992811610e-02 4.851262982472876462e-01
-1.945081508175006135e-02 2.368548540332333918e-02 4.163741233437948663e-01
5.425959835410529286e-02 1.866626956133109194e-02 4.635934418216867692e-01
1.635419129290647047e-02 3.833122289669889382e-02 4.241386092111552042e-01
4.626442835588313873e-02 6.145049197790585643e-02 4.625601049575766011e-01
-1.529321581511002698e-02 2.041080501560216948e-02 4.177990974365632937e-01
4.602934986898697678e-02 1.090882240901342067e-02 5.075072665172764008e-01
4.651832653421238140e-02 3.400067219384686479e-02 5.031244950130874249e-01
4.338193170013648903e-02 6.452123514714912245e-02 4.671876317939883672e-01
2.394781834465988662e-02 -5.371866078018047198e-03 4.341083178831272038e-01
-2.606434050654032886e-02 3.628546645445258900e-02 4.189745610137510234e-01
1.984399377669899059e-02 -5.229341083248600919e-03 4.328347618845659328e-01
2.535799034027820184e-02 5.777612626217317610e-02 4.361431124847996443e-01
1.655763001334946763e-02 -7.407361620629437926e-03 4.323546095562723068e-01
2.875895220260716451e-02 -1.657480019658855164e-02 4.386483225266735730e-01
-6.556698508818534742e-03 -6.872393221898896037e-03 4.312596958496290878e-01
-3.477893014085444573e-02 7.735047074430993590e-03 4.385509949890556425e-01
1.458506458694758083e-02 5.239240821481923327e-03 4.308187852463781220e-01
-3.829208494098428582e-03 1.423604983418730839e-02 4.207819763306758776e-01
1.397587942385786729e-02 2.733879152733588794e-02 4.220374172644846267e-01
-4.930208778787088797e-03 3.385540177107813908e-03 4.280432226093279224e-01
4.551640807296726543e-02 6.126978817510053688e-02 4.689873331513978449e-01
4.582846412136187819e-02 8.482231141679324321e-03 5.100139170276376532e-01
4.363293125717714743e-02 5.192848814436458460e-02 4.967134568547170170e-01
-6.735151103948838237e-03 -5.274310520469270049e-03 4.305553783520298938e-01
4.882746701844732640e-02 -2.170516573610630981e-02 4.628421989714975315e-01
-2.590805136966355463e-02 9.105844821042156229e-03 4.306540830781771523e-01
4.818473365831606875e-02 -4.654704751522864732e-03 4.544522139248414749e-01
4.810099023795336853e-02 5.031715596840129201e-02 4.932928519558394953e-01
-2.983763693918663196e-02 8.309675990933287557e-03 4.330004538736418329e-01
1.060471700908144355e-02 -1.505957064634150938e-02 4.350830333746225631e-01
-1.178211537531894532e-02 7.300034288728503296e-04 4.293460653779060943e-01
5.244103007837806751e-02 6.700752708939963082e-03 4.598009686839211740e-01
4.596219479082127440e-02 5.498437568224871091e-02 4.858841371500626782e-01
5.712096058513864427e-02 -8.226692021415991235e-03 4.832955322511314211e-01
5.502980847085595095e-02 1.146443211963835661e-02 4.686143208802690530e-01
5.531989268913040103e-02 -3.831973419694200203e-03 4.708240629018143886e-01
4.854575158047833017e-02 1.490649716491085700e-02 4.504271966294837726e-01
5.464170330385959007e-02 3.501694372405055738e-02 4.723313481603855224e-01
2.566187569804563237e-02 3.713546091898543844e-02 4.324127420160099877e-01
1.813193238372257793e-02 4.486249015900437703e-02 4.263989857930300942e-01
-1.115321444878383111e-02 2.471014859908004374e-02 4.105471755658192667e-01
4.374510527603761578e-02 5.497330489716532181e-02 4.461391636960390095e-01
5.266079866395977083e-02 4.579994457504877464e-02 4.793658651032184359e-01
-2.954527398923464596e-02 1.600458980878619042e-02 4.265788440670691406e-01
1.794325420725534706e-02 3.340769183651232186e-03 4.320751721267292456e-01
4.569623387107216855e-02 5.850883576425362081e-02 4.761269339626782449e-01
2.069300602403974926e-02 3.877026474208427470e-02 4.273423605725411023e-01
-2.383600689303182890e-02 5.787955726494436667e-03 4.303372884198760073e-01
1.828170172101413471e-02 1.268631446803783133e-02 4.296125225435626360e-01
5.043411983224074802e-02 4.821276372329229981e-02 4.564813744675074170e-01
5.538449025329118119e-02 1.486293146881591774e-02 4.725068740681376278e-01
3.182246487691341857e-02 -1.436704661147635356e-02 4.396141560845522878e-01
3.880666894723388410e-02 3.922718713014197722e-02 4.410840396769172833e-01
4.337053184186633048e-02 -1.206995531885339534e-02 4.500742892222146518e-01
4.009067774261136641e-02 5.476564147948904254e-02 4.428394503986698427e-01
3.193872564817311355e-02 -8.985553596615934030e-03 4.387791040094480843e-01
1.244516208827221556e-03 -1.097502364342431945e-02 4.315584110648492122e-01
5.185507502874118352e-02 4.862492715387531361e-02 4.660372972688260340e-01
4.759158526938341710e-02 5.778193151050110832e-02 4.566441679564119394e-01
2.611929301505946325e-03 3.872179224994908714e-02 4.134416625051806626e-01
4.890614506770026015e-02 -2.011187504594028671e-03 4.545812074163049776e-01
4.985818357711140070e-02 -2.141104339207014484e-05 4.556685853951895071e-01
2.742839369939412825e-03 5.211995530314572633e-02 4.246939424344828296e-01
-1.509160013579200973e-02 1.029716769555193666e-02 4.246980813228072860e-01
5.238254541317081264e-02 4.676985612497758238e-02 4.743189648123816160e-01
5.454898132197447819e-02 1.063471179952117825e-02 4.815367135267958898e-01
5.618412748506160931e-02 -5.159391540760005501e-03 4.756692047766730158e-01
5.248585636854921632e-02 4.137241405342455269e-02 4.877153974053485830e-01
2.021761935495861376e-02 4.231793254302764623e-02 4.270646663221029371e-01
1.493842323341680253e-02 3.413628875684002195e-02 4.213801105769077737e-01
5.314754151452159847e-02 6.334230513277671823e-03 4.620095697288305603e-01
-1.596748640189589105e-02 1.842420796916693915e-02 4.192637842375425694e-01
5.510576368878701559e-02 -4.872919447168253676e-03 5.104104865099011734e-01
-1.906009210309802734e-03 3.449315867662527957e-02 4.086028228952252039e-01
-1.998728301251151765e-02 9.011477462256400200e-03 4.267189220265297234e-01
1.186379450583822416e-02 4.003680586687676651e-02 4.216922833378367597e-01
5.428268765432923970e-02 3.557721666428262375e-02 4.661519971120432482e-01
4.258077013936945043e-02 5.103609246541084693e-02 5.006796420816385096e-01
1.809819380867312352e-02 -1.847354489553358972e-02 4.360117375225938674e-01
4.676741965991711159e-02 4.244124864014872656e-02 5.013036755755820861e-01
1.385248756768189295e-02 4.541892576654098929e-02 4.244111186491263399e-01
-4.431716617617625920e-03 4.155125351392617572e-02 4.142132280178202897e-01
5.091423899721361779e-02 -3.641133063961851830e-03 4.597466131267068934e-01
4.979507450120081169e-02 4.837189914943594571e-02 4.902630422774321151e-01
4.794062966196572378e-02 8.061317915041112461e-03 4.503675156484136521e-01
5.403714989984181177e-02 6.224580903338701107e-03 4.651293378091337360e-01
-3.180893913052743049e-02 4.727513317868268193e-03 4.353517524093258317e-01
-3.171913754361347509e-02 4.805710149729016875e-03 4.353456736898270174e-01
2.707675201619209882e-02 5.282030522856374227e-02 4.344820327898494816e-01
4.740282762100830882e-02 2.849662347393597597e-02 5.016710454346493542e-01
5.102993511474118032e-02 4.918302526863154063e-03 5.039973650257016935e-01
4.670716853619249348e-02 4.675474615970792724e-02 4.479610150573317684e-01
-1.130742494208736119e-02 4.165103144498905757e-02 4.177548658233337098e-01
4.635746511979379342e-02 2.430696439422876803e-02 5.043707581771578186e-01
4.498095793278829996e-02 2.954661772756921045e-02 5.063807687522723366e-01
7.438445584370360388e-03 9.970401054068919744e-03 4.268517415727631770e-01
4.703149112508431262e-02 4.040131147575437565e-02 5.014137665469632354e-01
4.080155392852475443e-02 6.047302641847985410e-02 4.455572965850778666e-01
4.954285387818713193e-02 -1.632196191666432719e-02 4.625402513606496901e-01
2.142629852169831289e-02 4.126593637549809401e-02 4.279829030376363641e-01
4.667735339203043371e-02 5.745198913909525112e-02 4.532341842592378378e-01
-1.855887721534294280e-02 3.348325909454742677e-02 4.137318466777320514e-01
4.922631241050978018e-02 3.660815369930990604e-02 4.510714472515277018e-01
4.399552726972538741e-02 -6.769228638692533287e-03 4.495548746849242772e-01
6.221020742861477909e-03 3.224023744819963511e-02 4.121604626739134303e-01
5.505204709301331906e-02 3.049459927696175979e-02 4.703868110673742331e-01
-1.947506559049601640e-03 4.225423085133941936e-02 4.148293732469413020e-01
2.903150722266600522e-02 5.431497347027349973e-03 4.356121109961874627e-01
5.518922953344335830e-02 8.276900902878301866e-03 4.791531690335649185e-01
4.183323335965383194e-02 5.160513229754522951e-02 4.991250758759658845e-01
2.998214184287483972e-02 4.455939256639431661e-02 4.348875947870560754e-01
2.834613063839918831e-02 3.128441429914049360e-02 4.349199652308199382e-01
4.353065018595466545e-02 4.231318855320016087e-02 4.450328673196741747e-01
4.971183464312661782e-02 1.888706830760172525e-02 4.514556527702945354e-01
2.537328019332585165e-03 3.025991316009305973e-02 4.096588584398009325e-01
4.543205247791249485e-02 6.197840215693151827e-02 4.671536609080074731e-01
-2.146473466479330641e-02 2.417046233645700135e-02 4.173997783319964849e-01
3.810139092981500164e-02 1.320609536587339337e-02 4.409304418275213355e-01
3.745647839633930998e-02 -2.696331481681903813e-02 4.486907796538329718e-01
-3.028306006538909051e-02 9.680828479102751224e-03 4.327424202646965590e-01
-4.005513898843008486e-02 2.342919885419097147e-03 4.491899585376033510e-01
7.082968161284784389e-03 -1.299766514703792376e-02 4.337726976114277266e-01
4.183078148914273070e-02 6.524973885751725322e-02 4.571996018940979734e-01
3.448638656819928011e-02 -1.386854612140927222e-03 4.396459621071719948e-01
-2.396152330744918263e-02 2.873229352766327321e-02 4.163509043831438161e-01
4.738912093686735438e-02 4.740850823448165136e-02 4.984093267894320056e-01
3.992938151173804073e-02 -2.419603666129080399e-02 4.500310029625592678e-01
5.359750026502378001e-02 7.348085204134872928e-03 4.628998798062688991e-01
1.655107396536920333e-03 8.234028337401316094e-03 4.265597304483526031e-01
4.555158769991820428e-02 -7.390005767116116994e-03 4.516299934988425857e-01
9.371739901513017473e-03 -1.364925048388196394e-02 4.343839745132483943e-01
-3.020090398012519398e-02 2.645550824070962842e-02 4.209706670011404972e-01
4.329016087790894113e-03 5.223977104109005232e-02 4.251009509270458619e-01
3.708976843899755571e-02 4.697128062514123459e-02 4.397043083374044259e-01
1.352626853335437210e-02 1.857304831189556318e-02 4.248921746784241615e-01
3.946660177613488425e-03 2.260249208260487266e-02 4.136713531347367412e-01
3.683257696713779922e-02 -3.738065232208649061e-03 4.414318258154517061e-01
1.543254800265092021e-02 3.145153423236425431e-03 4.312719967118658349e-01
-2.126401776721221354e-02 1.343065271683688625e-02 4.244315786445786443e-01
4.967310334459557053e-02 5.083273992592125118e-02 4.860319272203887375e-01
3.663885873200945636e-02 5.408490346288374190e-02 4.403768032115736863e-01
5.328955456962673060e-02 4.106779911514754806e-03 4.974580425028246045e-01
-3.387935041155547972e-02 9.253687365627719097e-04 4.375208563446288390e-01
4.877376496916241422e-02 4.821098429891653575e-02 4.942711530825371624e-01
6.757416959758261177e-03 5.369625989094273938e-02 4.297604505706057454e-01
5.373697741106832348e-02 4.129577722539459067e-02 4.770948750734272381e-01
-1.571005423759239475e-02 2.214046798640093711e-02 4.154650024076372294e-01
5.299477258658357587e-02 2.053202427834222715e-02 4.580577268899391208e-01
4.441768974837220774e-02 5.499059843497965117e-02 4.869300955922649110e-01
2.619279623639272914e-02 3.671586305485995821e-02 4.330490795561841577e-01
4.587480904673627707e-02 -2.118997028769772917e-02 4.572399941716807636e-01
-1.836168514304536981e-02 1.585865953418102818e-03 4.304181100065849752e-01
1.878248252332580942e-02 1.976944098447543444e-02 4.287745916402139756e-01
1.434467601383039581e-02 2.464298689394496533e-02 4.229710141930322354e-01
4.059857790933747018e-02 5.709247818055150636e-02 4.438389281458121616e-01
-9.094039245031985963e-03 1.658364239838633000e-02 4.179175004849496888e-01
8.219279814200064482e-03 1.169721654686898052e-02 4.262016183398959490e-01
-3.386198884500329215e-02 2.477862441657957895e-02 4.242257488174732138e-01
4.476375102527212907e-02 6.235262413441707008e-02 4.550644929826344054e-01
1.559427058666874345e-02 -2.220883878136719475e-02 4.368114448036867770e-01
4.853782986611174244e-02 5.668136051273534037e-02 4.626829611905873829e-01
-2.554587955196916879e-02 1.594906457258120358e-02 4.246659327358949243e-01
4.407283409615974507e-02 8.936542121470915367e-03 4.460157237384669293e-01
-1.319251973433651845e-02 4.253476753725501242e-02 4.203095773543744640e-01
4.603970079575173818e-02 4.537639662171797511e-02 5.017867975634935362e-01
1.291159291509637666e-02 6.246199536773038366e-03 4.301346277868141610e-01
6.920388123177540624e-03 1.773610585982530845e-03 4.288801383790917798e-01
2.232178569903461862e-02 5.227358164968411852e-02 4.315427980430493471e-01
4.953853265715353615e-02 -2.116011659199650008e-02 4.640795008830166934e-01
5.449639364826591031e-02 2.273308149151213875e-03 4.960112035114197515e-01
5.725372578913026297e-03 2.310370679187240955e-02 4.143642198111311958e-01
1.669996166927761091e-03 1.050389770730517786e-02 4.252228772880459196e-01
5.082521310084252286e-02 -7.687221569163581875e-03 4.618102913640892981e-01
3.937197222029024425e-03 -9.042259021005286460e-03 4.310640773874945264e-01
-1.923006439734155013e-02 -7.048343635107767041e-04 4.318136040669378062e-01
-1.210094528492973096e-02 2.350666882918162406e-02 4.116335847487583854e-01
5.185843385570262226e-02 3.298654858383093247e-02 4.898236523740749915e-01
5.498632484681727217e-02 1.636076892625642001e-02 4.763659172797500840e-01
-9.238750282884317100e-04 -7.268936101513228526e-03 4.303637430052016377e-01
9.674197065066222206e-03 4.321660241237042233e-03 4.291038821052579055e-01
4.263796887113509293e-02 4.474134438923185048e-02 4.440562370894697852e-01
6.763341186693937190e-03 -4.782993439838302205e-03 4.302840896387401526e-01
-1.159829950069734411e-02 1.134692363503055426e-03 4.291620916748426495e-01
1.462682474774020316e-02 5.555891356312178675e-02 4.365294763648570608e-01
-3.365293563531810556e-02 1.791093046856195165e-02 4.286020681691158352e-01
-2.661195019782541110e-02 3.696316311119545589e-02 4.216390172634010280e-01
3.088214756904934279e-03 1.824058998622847538e-02 4.176595301419765427e-01
5.295760571094506458e-02 4.167849817689241176e-02 4.856258429540877830e-01
4.486214845911092042e-02 3.306338821996885474e-02 4.461766065114142754e-01
5.525392137319732472e-02 2.170772444882244565e-02 4.718735209977368283e-01
4.777323495730076419e-02 3.894754962121892844e-02 5.000771710214304555e-01
2.078371549114808176e-02 -4.446696890937316959e-03 4.330107940412482037e-01
4.962906814172263897e-02 4.563923261787270619e-02 4.514749191328769062e-01
1.893750730058016418e-02 -3.968056961921347450e-03 4.324027090859833833e-01
-5.105607411960396205e-03 -2.722825400703438644e-03 4.295260794710336061e-01
4.835828627816342318e-02 1.448355185467149406e-02 4.998200544594957329e-01
1.520667238172647776e-02 2.889721886096254660e-02 4.229401263301830749e-01
4.274710270289857478e-02 2.828845860498667777e-02 4.442486859466890925e-01
4.914057602221106463e-02 9.870768608886212533e-03 5.009878566824343959e-01
2.911526742260449677e-02 5.227185185051416716e-02 4.354475764115278147e-01
9.069725898082858784e-03 2.156013675351886594e-02 4.192905510771253730e-01
2.609746455143274052e-02 -1.258464356149705671e-02 4.364479943118722560e-01
-3.610429960526681525e-02 7.740883995305558075e-04 4.387906703501239791e-01
2.104371678258275258e-02 3.746833156793513697e-02 4.279236210212802316e-01
4.056394864953643403e-02 -8.900323199554140488e-03 4.455426808465369204e-01
-1.736095062141878014e-03 -1.229087606434473359e-02 4.321567515199711274e-01
3.802872904094577178e-02 4.185246339400410659e-02 4.404881207412973398e-01
1.285551728577296118e-02 4.134734934202220769e-02 4.228906424866097358e-01
-3.736420565245696448e-03 1.598364383146051032e-02 4.190904003198749894e-01
4.936896370146666435e-02 5.468485782130429185e-02 4.626754783689918660e-01
3.468782189929683207e-02 4.714274099743386015e-02 4.381414856155180226e-01
6.573706587929228212e-03 3.212444095949440470e-02 4.123559951672236545e-01
4.826479574548700469e-02 4.764425066744429338e-02 4.494947999217457357e-01
1.844701726022469554e-02 4.303181487156178264e-02 4.260862770108668762e-01
3.202635060205231976e-02 -1.746321202413405119e-02 4.403336936920710931e-01
-1.907547064989383728e-02 1.926462777423770117e-02 4.193695291120714819e-01
-3.160739761528046001e-03 -4.559484674904095217e-04 4.291132552026407643e-01
2.811933438285138531e-02 2.012615119085187435e-02 4.345892741892014022e-01
5.009809712684012289e-02 6.687834878689813758e-04 5.114714873903021264e-01
4.350724530500819920e-02 5.753684528493382966e-02 4.472497573915692470e-01
5.316608750085220075e-02 3.656754588093695524e-02 4.597919769141443069e-01
5.404023836927231150e-02 3.912100093417057722e-02 4.749481416143121471e-01
5.569824432516649881e-02 -2.403612817873162708e-03 4.715960432753498743e-01
3.118662861095819125e-02 8.576003958206736624e-03 4.362410032798050841e-01
4.931450166008357477e-02 3.255327118583056789e-02 4.967738132862766776e-01
5.258795749392944363e-02 4.629968909064430260e-02 4.785904485672768938e-01
5.728113957993432453e-02 -9.985888492944114403e-03 5.107738645390402787e-01
1.444747417166650921e-02 2.972758662945478372e-02 4.212549999216103069e-01
-1.786292781981726335e-02 -2.258470768794834920e-03 4.320210041812345136e-01
8.444098222830542788e-03 3.598734665106884806e-02 4.164103418066352202e-01
2.398714951379858282e-02 5.865260598699247041e-02 4.361982804093088584e-01
-4.111611092523678734e-02 2.611397764943734767e-03 4.428355054490454856e-01
2.183786818268421831e-02 -1.341206581676700031e-02 4.352665177414178355e-01
5.538187988229113096e-02 6.299183512417557036e-03 4.807439878670264344e-01
1.586501153162237290e-02 5.238866384602033910e-02 4.286594543706185867e-01
-3.706877909809644378e-02 6.892504986182037760e-04 4.394154399642485886e-01
5.113239581617996278e-03 2.837080972703981060e-02 4.113042040881325634e-01
-9.755725220863015190e-03 3.526888871397786118e-02 4.106151473374963778e-01
5.338682796583354984e-02 3.558074807587975619e-02 4.601043761837334545e-01
-4.201571466577765090e-02 1.026896275993687121e-03 4.415875938574536641e-01
7.295971101654429719e-03 3.717972070250328415e-02 4.161000328655558578e-01
5.689110026514613422e-02 -1.001998224202873319e-03 4.799285715782202200e-01
5.012534595395195386e-02 2.302689025232681000e-02 4.919897077143929320e-01
2.701870164505891167e-02 -1.426369451337275961e-02 4.372217460748231144e-01
5.185708540338933997e-02 4.897349291184913828e-02 4.679567515504495234e-01
4.885849237483797652e-02 -1.754905742302789035e-02 4.615453661240795369e-01
5.067382418331807525e-02 7.798489919573741401e-03 4.556183257541815967e-01
4.919426762259678648e-02 2.662992569370452138e-03 5.107136141013780550e-01
-1.249883589302835767e-02 3.242948737365507900e-02 4.102554466794138821e-01
4.705451202491846285e-02 4.774734337393915506e-02 4.988636726399267585e-01
