5.242985103316719075e-02 2.203880444567568597e-02 4.565833462576083801e-01
5.532871765302978945e-02 8.702495135382322736e-03 4.772710951690719017e-01
-1.314428821047403280e-02 1.056892397048603792e-02 4.242459178777165385e-01
-3.510728836077829651e-02 1.620393195979791257e-02 4.335753733915378438e-01
-1.220949687912188664e-02 1.374724110561028126e-02 4.216438540032008686e-01
8.311449186555540380e-03 -1.448340088135364502e-02 4.349911065095522500e-01
5.119662434788885969e-02 4.873364863355936216e-02 4.610951344053825229e-01
5.020661475878168689e-02 2.475515715745857034e-02 4.521545944441768827e-01
3.541564497239795689e-02 -2.084616338194495572e-02 4.439739717976838307e-01
5.048548172345470458e-02 -7.928801412045227009e-03 4.612676773609238334e-01
4.183235526542749411e-02 3.381846333834966772e-02 4.433740189109309227e-01
5.698620459858751153e-02 -5.587491307104165000e-03 5.012186146654847851e-01
5.129342831246692241e-02 -3.030853363333854775e-03 5.133722404078971957e-01
-2.042920727699323695e-03 -5.594477371096940981e-03 4.300209602186909619e-01
5.707856855400977869e-02 -6.690026966192818419e-03 5.068894677552489014e-01
-1.065543739513995919e-02 1.255785504156670812e-02 4.222430142254721686e-01
4.339667427018869400e-02 6.467210082517220460e-02 4.600917081273392384e-01
1.766481018623370508e-03 4.297377837790724436e-02 4.154943740088979931e-01
5.329943443406588016e-02 3.611722596319796169e-02 4.600330506490052929e-01
2.105437039801921414e-02 1.763904948093556260e-02 4.308449398527330887e-01
5.120294508172770764e-02 1.987710659647363813e-03 5.075936621391159420e-01
5.056056044954636980e-02 -2.683598996325505318e-03 4.585000705477938476e-01
3.802293871545546489e-02 6.554797294253626727e-02 4.597482049805345361e-01
2.276294812667628564e-02 1.083010302484993179e-02 4.323664823735926532e-01
-3.065406534541407699e-02 2.476104036186439761e-02 4.221387092306795874e-01
-5.824596463765959256e-03 4.440543148833402815e-02 4.178309509449784076e-01
5.480033247707412347e-02 2.546333044699533241e-02 4.781884553727630549e-01
4.614402839152676600e-02 -3.807393751892232999e-03 4.509707812242036429e-01
-2.811262821889649877e-02 1.838813281567490757e-02 4.234864780761888881e-01
3.606301571143046697e-02 1.380573719506767577e-02 4.394201300778817765e-01
5.231193670844828253e-02 4.714089156476673759e-02 4.704943505591770436e-01
5.497257957749195761e-02 2.783581661164028637e-02 4.674649224278823456e-01
2.644376094566738139e-02 2.748687692458250814e-02 4.339038727991257893e-01
3.441493092147485111e-02 3.784449683660674052e-02 4.381212235889040407e-01
-1.783583057309203607e-02 4.636510091403138467e-03 4.283338560154339447e-01
5.250248196855768906e-02 5.310101543254813761e-03 4.981289764410314902e-01
-3.332821515495670850e-02 1.564089762051763810e-02 4.312119550091995102e-01
3.573744565969840664e-02 1.011144913351410060e-02 4.392251280889271081e-01
5.196724079433005100e-02 1.762850016112153806e-02 4.871624802549145428e-01
4.157603130191014906e-02 6.259406601579380058e-02 4.484809546799879976e-01
4.850631670124913586e-02 2.102513010423340961e-02 4.976654128100686525e-01
2.330640001473896147e-02 7.947656444611152574e-03 4.330127147057925563e-01
5.289133127564618619e-02 5.142441408554541959e-03 4.969303991531669462e-01
5.620610612298034686e-02 1.225333195689734707e-03 4.860672328739946702e-01
3.473191523655424356e-02 6.758364998559839021e-02 4.461458311805947541e-01
1.718033816672597490e-03 -1.640590573732576135e-02 4.352052230545278566e-01
5.104229765996846913e-02 2.513372364906658191e-02 4.536324463264758133e-01
3.781319453422493648e-02 6.673297694591061313e-02 4.545638598781283068e-01
4.602912412673136611e-02 6.225592008429253754e-02 4.608236430521274185e-01
4.806478386431183719e-02 3.127607806865166651e-02 4.996974841295008241e-01
-3.634220460424595657e-03 -8.342089630167699721e-03 4.311409652296161465e-01
9.811240857630102938e-04 -5.968918833735132289e-03 4.300529753389800702e-01
1.341125659692029258e-02 2.563077546376848342e-02 4.216486995565721374e-01
3.438450638098122791e-02 1.900980908927743865e-02 4.379039032936268283e-01
5.144957219934052917e-02 3.989798793217455564e-02 4.914113398651593356e-01
4.468778060718141959e-02 1.156040591431077569e-02 4.463335315026291106e-01
5.200363463951437198e-02 4.592636897400272783e-03 5.015443220942206182e-01
4.917733801624469409e-02 4.620399781899035135e-02 4.504012551146505672e-01
2.948436290514796360e-02 4.753122259384807285e-02 4.346735237305273114e-01
5.584823751950095810e-02 -6.703283032820264720e-03 4.751945620174777285e-01
5.625368117279764407e-03 2.289910899389754895e-02 4.144802885444865970e-01
5.496626887121047050e-02 3.234924331319953550e-02 4.729549621518116531e-01
4.025494180461229587e-02 4.933003816061162783e-02 4.419414762885962578e-01
4.725669219734558724e-02 -1.913040798959624034e-02 4.589377911184931436e-01
5.475702766102107794e-02 4.015455264678865002e-03 4.900832630547248825e-01
4.765293578548082665e-02 1.101736215197143473e-02 5.044910286855366355e-01
-5.710427781480132900e-03 2.810143352631091357e-02 4.079709260555687833e-01
1.557550018194867915e-02 -2.700945781600057848e-03 4.314245255507055954e-01
4.836333130710100681e-02 7.271770015160440061e-03 4.512085930966379110e-01
-3.588547661670805911e-03 1.002490288843066457e-02 4.241491748282943397e-01
3.441245688481051751e-02 6.849864211612857745e-02 4.486977270582982458e-01
4.500012869304929886e-02 1.994964346967016688e-02 4.461755041605345307e-01
5.085474006022325244e-02 4.870292831284469409e-02 4.594382865515208580e-01
4.903685473839903414e-02 4.889267758857647472e-02 4.924811691521426282e-01
-2.529202355798088400e-02 3.002477096662892544e-02 4.167229621613460777e-01
4.685469691775894646e-02 4.230383803546245575e-02 5.011764857237300808e-01
-1.354796009864522519e-02 4.211636625436517706e-02 4.199362718092567448e-01
3.031077932476609893e-02 4.414955560205756357e-02 4.351416640582566608e-01
5.098698731817479651e-02 2.131337217764671041e-02 4.895045804781891774e-01
4.840796592861842940e-02 7.028341514210858371e-03 4.513195830630914451e-01
-1.662874104478023751e-02 2.700309590932731610e-02 4.127047178839248764e-01
1.872624600602186551e-02 3.248813661153913263e-02 4.264792015268611403e-01
-1.111123883893620247e-02 3.722490364485373654e-02 4.124282737979484970e-01
5.287208946356275474e-02 2.492674745782327492e-02 4.572728961749145671e-01
5.020062376396045023e-02 5.262504308005089282e-02 4.620775242133842164e-01
2.455779252928329617e-02 2.966509985853438280e-02 4.328127121655504506e-01
4.507867914770238849e-02 1.069345000534733560e-02 4.467638339349544463e-01
2.114918428516715174e-02 5.287411578815272295e-02 4.312669477550298835e-01
2.462926399302009864e-02 4.409804214412215567e-02 4.307322565344203769e-01
4.427320933781918322e-02 6.381962104746513598e-02 4.568071205856584216e-01
5.568323236665374820e-02 4.408901922747201357e-03 4.835365672418807659e-01
5.573754747065657461e-02 -1.548789838825824407e-03 4.716480872660886448e-01
2.694477880816651197e-02 5.946732829084884486e-02 4.382508622434661549e-01
5.449140349901633595e-02 2.601824440457472729e-02 4.646504838832709594e-01
-2.166122757867176840e-02 3.758009231456536925e-02 4.169187211442896279e-01
4.098415102252470771e-02 -2.067517412679336156e-02 4.488096270151961109e-01
5.063910982218029766e-02 -1.214916561071535065e-03 5.125749050835937126e-01
2.612034578294673923e-03 1.224866291695473654e-02 4.243904667924809915e-01
-4.301295544208135618e-02 1.077489893161610261e-03 4.418330271320622393e-01
-1.351110457355956390e-02 6.311476056226350724e-03 4.262437393647630079e-01
4.033358713078373514e-02 -1.949458800979543549e-02 4.473882150362699095e-01
1.803126295929120826e-02 -7.172580675389447075e-03 4.326889554937439208e-01
4.700090484995364526e-02 2.711368176999465890e-02 5.028188618500494256e-01
3.427235298423007837e-02 -5.138894666563312112e-03 4.397771763199964101e-01
1.555220968565423738e-02 3.655088145939712485e-02 4.229836729608320023e-01
-1.897418060113732763e-02 2.156717939025535116e-03 4.301897452029814217e-01
5.029621519248159145e-02 5.321112867078707509e-02 4.706156986264106723e-01
-3.350693217392206741e-02 5.739960126128430297e-03 4.382211010059623990e-01
3.207126262934101996e-02 -1.812001673401796714e-02 4.404862154934744423e-01
5.334312726410005839e-02 2.005356451004605689e-02 4.589353147478520412e-01
4.837797860476169415e-02 5.693003822536975289e-02 4.613915424634595364e-01
2.329658956173005779e-02 4.567031561895777692e-02 4.294988207593555263e-01
2.583334740834392594e-03 4.082010780694171614e-02 4.144738714408471858e-01
-3.472754488581691196e-02 1.660368583003619947e-02 4.323607542997823794e-01
-2.690826871615547428e-02 7.615538563756697396e-03 4.316851434882549299e-01
5.370235547180192415e-02 1.341318241398605643e-02 4.826255627633024292e-01
5.183837922090211298e-02 7.177934663234169371e-04 5.085376187961255789e-01
1.584309145802068226e-03 1.969614337359930356e-02 4.162169186715690139e-01
1.467156121795526284e-02 3.781157960672668072e-02 4.229724074230446496e-01
8.106266750623033340e-03 1.133514357219454760e-02 4.263438517971150366e-01
3.016043990177797243e-02 -3.221852308752209439e-03 4.370380375478668533e-01
5.383425295360460411e-02 1.460448149352582860e-02 4.813286766143904383e-01
3.555676289721697997e-02 -5.406279058191132414e-03 4.406123470924388497e-01
-1.191810268185590667e-02 2.977659393172080171e-02 4.099981983451149170e-01
4.330790925635144561e-02 2.419267312630539110e-02 4.447590540168930850e-01
-1.660804634622002618e-02 1.569951418898217835e-02 4.212434766349851811e-01
1.077142864032182117e-02 -1.160393270945865585e-02 4.328454100468736021e-01
-2.478831092229480393e-02 3.089176177631350328e-02 4.162333331588200513e-01
2.959807219745349063e-02 1.536061167864159055e-02 4.352570959045202192e-01
5.540219286727354059e-02 1.371966524583781259e-02 4.741871656108717081e-01
9.114688097896166130e-03 -4.497044678907652707e-03 4.304568761416767142e-01
5.501174855307053996e-02 3.089012431460695304e-02 4.691921317880424214e-01
-1.692251094016506557e-02 1.659834302523706742e-02 4.207022145189918128e-01
4.330754194149740582e-02 5.897071978715565793e-02 4.479376920909940440e-01
5.002988807391169773e-02 1.735261024811921363e-02 4.523091886955673546e-01
5.226729443821548360e-02 3.452877613491746323e-02 4.890641310614166626e-01
3.498080613701289032e-02 5.485362659060209062e-02 4.393939328829967184e-01
5.416410824484834546e-02 1.708460811369423224e-02 4.633011219223151511e-01
5.201717514295967765e-02 5.978431186810640938e-03 4.587581436037631577e-01
4.698838303100408981e-02 5.516479364321175832e-02 4.836223548799836180e-01
3.317843136776137819e-02 3.468154157516074865e-02 4.371895829529058308e-01
-3.247409263005265195e-02 2.550359580928859837e-02 4.229337422380339828e-01
3.834286074445883430e-02 8.928055827146702539e-03 4.414956592386728995e-01
5.347110051364484945e-02 4.225917930581980092e-02 4.757748575799281010e-01
4.820584528250156792e-02 3.352275059420877640e-02 4.991797277074481176e-01
-2.944218778703931380e-03 2.599751696747053947e-02 4.090113085267984006e-01
4.409637004414032613e-02 -9.765984519399230346e-03 4.505203484677302028e-01
4.700068288351837847e-02 -2.036348701948316117e-02 4.589195669575920067e-01
2.527053134111147126e-03 1.931390751861243246e-02 4.166943677552357728e-01
5.565983217874397732e-02 9.094163230923274152e-03 4.744978688995828975e-01
4.658748706871893713e-02 6.063187103511410991e-02 4.626187096512636154e-01
3.856448536497545515e-02 -1.854386640375735654e-02 4.455018317514496395e-01
1.630202815453607110e-02 4.717938057248746708e-02 4.260520544821340683e-01
-4.109226034641268177e-02 2.689036659924891326e-03 4.466770200284359560e-01
1.674354288276617628e-02 1.836020310840026301e-02 4.278214420328029788e-01
-4.157480324996271071e-03 1.911131145458433434e-02 4.152714337048769022e-01
5.548082120301836562e-02 3.915682218941675743e-03 4.853995640810817025e-01
5.427417510415381841e-02 2.104384586736562229e-02 4.794712467041645776e-01
5.549179177899687260e-02 4.600570964872244609e-03 4.722240863066110017e-01
5.336555414391543073e-02 5.679290010082251039e-03 4.940077009978291467e-01
3.726785069098048631e-02 6.202374417499702253e-02 4.440395162810610308e-01
4.294323990339909969e-02 5.114780696209958455e-02 5.001892827038296740e-01
5.376156317967319825e-02 3.652329508364208360e-02 4.621859958690053838e-01
4.347463816725694041e-02 -6.909397636437621636e-03 4.488417913202746856e-01
4.812325552383595051e-02 8.091073182216154333e-03 5.062457449921919928e-01
2.256791366936584942e-02 5.927104455772580494e-02 4.384889182634480465e-01
1.700008306624547355e-02 -2.064298160148872463e-03 4.316778260429748881e-01
-3.814607408426933660e-02 4.188283042509937520e-03 4.429942931684514029e-01
5.685260294561033517e-02 -4.708935586686469402e-03 4.796100828941594618e-01
1.300514533905492397e-02 5.247338439501229856e-02 4.274791512184994979e-01
-3.353454073429828347e-02 6.251079674062451352e-03 4.379110581548885661e-01
4.133656375841589237e-02 -1.173130741245945012e-02 4.470758416394819967e-01
-1.381166156740245773e-02 4.075089030169220389e-02 4.173149474559892935e-01
5.289983257904283531e-02 -1.479905593514996634e-02 4.687421996796015122e-01
5.258663653110549202e-02 2.904347767324095761e-02 4.868467772777698710e-01
2.105083061158280477e-03 -4.753961628109974746e-03 4.298697961970082693e-01
1.259829704063089063e-02 3.980944405510497552e-02 4.222275062681019042e-01
2.541976715778596768e-02 4.110164540262132432e-02 4.316031737845639760e-01
5.161626678430201315e-02 4.359699189759101701e-02 4.572393124180977320e-01
-2.560854072425497105e-02 1.446089253432693289e-02 4.262937805926125812e-01
4.491437751730532890e-04 7.812059046821849019e-03 4.265433045866334205e-01
5.073667161587210039e-02 1.503936916740636516e-02 4.913392077513366041e-01
2.398806525861916367e-02 5.898874964688938238e-02 4.374695274496119279e-01
3.928329145430720787e-02 5.435040409312365955e-02 4.422097825138704974e-01
1.065571570530896711e-02 4.413683462077051117e-02 4.224066349804397325e-01
-4.500745249148351695e-02 -1.146744396747171463e-04 4.448670352348836898e-01
5.523651232151074314e-02 -3.851328593981414618e-04 4.976710638098970074e-01
2.688881609248103266e-02 -1.342145942144317393e-02 4.369461574261083725e-01
-6.676349769763401283e-03 4.504511892522149868e-02 4.199418373646490177e-01
3.055662242414310462e-02 7.595654731542778905e-03 4.359541205509482320e-01
4.874273432428513630e-02 2.132171931336446918e-02 4.968303168582677842e-01
4.823704063537208320e-02 4.714943737499942972e-02 4.494493762759479982e-01
4.210855469181446625e-02 1.976982332176616119e-02 4.437836051468539433e-01
2.165603478138158899e-02 4.946433619933902903e-02 4.292167070076137181e-01
-4.848346911704880767e-03 4.577018564397005579e-02 4.200612602457406419e-01
3.439114655431429329e-02 5.960564859946029803e-02 4.405023113192580442e-01
-3.341269774814474569e-02 1.858837999881930714e-02 4.275171497289422251e-01
1.196677827603106863e-03 5.063011311314298546e-02 4.218656298590244269e-01
4.840347961991459808e-02 3.646305371430536013e-02 4.501590709783138133e-01
2.334219072198149419e-02 3.129597310944157856e-02 4.317375093406654596e-01
-5.565794224303428038e-03 -9.143698385358205866e-03 4.320347813570060147e-01
5.422372835307769784e-02 3.643656844185772653e-02 4.808261048626713552e-01
2.537001882540277503e-04 1.607308725511908884e-02 4.193877690145904058e-01
-2.308338522172519169e-02 2.482911942922138085e-02 4.177457276423305332e-01
1.197955297819089035e-02 2.151149529845386779e-02 4.218240041476857827e-01
5.245466458709563407e-02 1.894154196944645638e-02 4.570783405608223049e-01
5.291113371659750264e-02 4.085382898753172481e-02 4.618507349691657327e-01
5.658225610198314853e-02 -1.355679235169162875e-02 4.793263065274143697e-01
4.767883348956528794e-02 5.767977266903629580e-02 4.719383658474664012e-01
1.065170893167408095e-02 4.349250417176639405e-02 4.222475146404919277e-01
5.507324429240535724e-02 9.114042121375820135e-03 4.788259797996244904e-01
1.371168718667660491e-02 5.129650954658931256e-02 4.268774189828451471e-01
5.005317259696716314e-02 -1.168999302921351277e-02 4.619254896865308546e-01
1.260079185104539569e-02 3.827475851949838082e-02 4.214347956820589935e-01
3.994266242962036390e-02 6.553994027636018960e-02 4.518868245491267088e-01
-1.746859747682917878e-03 1.626648707306051211e-02 4.188789707712649579e-01
3.022902833565466185e-02 -1.441894715563915921e-02 4.387998475087547257e-01
-4.100866528765917396e-02 2.044653767985356307e-03 4.415331112832501237e-01
8.362614722655266342e-03 1.715078306982320555e-02 4.221847921289786920e-01
-8.365695167254325222e-04 2.558679504096367588e-02 4.094202135553056676e-01
1.041168352618010960e-02 2.608164346917443352e-02 4.177662819994792942e-01
5.800375451631912399e-02 -9.579830536270754482e-03 5.079806795993052626e-01
5.365893920006963719e-02 4.196134463306331469e-02 4.782525425528163510e-01
4.453779118646936097e-02 9.067980763115787365e-03 4.464180162050639944e-01
6.997861399889337107e-03 -1.471623952305939689e-02 4.351231391999877962e-01
5.017885021277238011e-02 6.324136567693136590e-03 4.548282790480697169e-01
5.241116708391945628e-02 1.337683601793156728e-02 4.581294708993621234e-01
-2.760765050992971745e-02 2.773244065273242423e-02 4.189171989354005810e-01
4.959821776816901451e-02 1.937807837693475421e-02 4.511533860687333419e-01
6.543259932703490017e-03 2.671170452171275564e-02 4.123610839876408751e-01
4.606189762158522522e-02 2.560492257279305475e-02 4.470559250882364943e-01
1.053048176094360799e-02 5.232441088335091500e-02 4.264543661497077753e-01
5.698865357902608425e-02 -2.359543412481613506e-03 4.798653348541803698e-01
5.303418091780841975e-02 1.944195870381614996e-02 4.582967322922074094e-01
4.493877483057877320e-02 -8.779477195050124430e-03 4.514615924668570757e-01
3.396451269846696014e-02 3.065232584789939763e-02 4.377244099341128791e-01
2.188411854813947233e-02 5.875859748762018997e-02 4.370461414291184066e-01
5.417975042347560749e-02 -1.184665639404514428e-02 4.713642250724385252e-01
3.509290562696591037e-02 6.270689749047105022e-02 4.436206033671877824e-01
1.269975786616964024e-02 1.267381807844073643e-02 4.272172598864796833e-01
-2.996593538285307126e-02 2.431831580518078670e-02 4.219236421248419022e-01
-4.443921676900931990e-03 3.795195493999612563e-02 4.116141797792589596e-01
4.892933357102498271e-02 1.212286124402941513e-02 4.994461237302277867e-01
4.136014670445061631e-02 -5.528401920208115498e-04 4.451634926554100535e-01
1.982567199791945151e-02 -5.828803401769199095e-03 4.329049236625750474e-01
4.137930907892203858e-02 3.661693543907383608e-02 4.430486297753212788e-01
1.110348337240094421e-02 4.137376225091532467e-02 4.216919002407891193e-01
4.892768524562061266e-02 1.823384896997327920e-02 4.503495436996938772e-01
5.374214584084067992e-02 6.481474033995082012e-03 4.638866441771515303e-01
1.768758508177553992e-02 1.378762864370602914e-02 4.291530581279897616e-01
4.514755119209157286e-02 4.164239120428950974e-02 5.044536920085394005e-01
5.725104583092186644e-02 -2.373704452787984108e-03 4.894067771956346902e-01
4.425541779078431825e-02 6.402535567353902224e-02 4.612479473610228697e-01
-1.148161575577478014e-03 4.038777359206597445e-02 4.136678066044284230e-01
4.762742556959623230e-02 -1.025978917810852799e-02 4.566971506230391165e-01
5.245715866860004711e-02 1.854627372294764820e-02 4.571400144952511013e-01
2.485619312543225004e-02 1.404404731219495613e-02 4.329579938516995852e-01
-1.362799033350134068e-02 3.129911860404600409e-03 4.288647748422506623e-01
5.233176123356346465e-02 4.704261690059548945e-02 4.710555364460899952e-01
5.027349306317138722e-02 4.988089609403299762e-02 4.577497980317411508e-01
4.894265118458185349e-02 2.540151221274608573e-02 4.498285601334825468e-01
4.679293350240395361e-02 2.561972622683431067e-02 5.035204396159634888e-01
4.492756361436195389e-02 5.849076767771609064e-02 4.505367194850474766e-01
5.525465447727818946e-02 -4.608239525552542543e-04 4.978504818452033076e-01
5.108576797414766252e-02 4.991231013159630470e-02 4.801324460578738629e-01
5.508385195624005554e-02 7.575159091110727182e-03 4.815429867481222370e-01
-2.262124013349929574e-03 1.075432732484113765e-02 4.238569682446391984e-01
-7.329418415908474198e-03 4.135809370747427216e-02 4.145605908415187502e-01
-3.485911582202991937e-02 1.910721249303701588e-02 4.288895177424959515e-01
5.519771210352329011e-02 2.546289172984816246e-02 4.690615792139121165e-01
4.772737560793669648e-02 8.411141422537255202e-04 4.511150387357370506e-01
3.552074703551044710e-02 -1.937352720007964532e-02 4.434303693302809046e-01
3.650891433527098801e-02 5.857233829710412065e-02 4.413136148591555452e-01
-1.880930865178009372e-03 4.535160150774327804e-03 4.275746770499513350e-01
4.875529162448434539e-02 5.589054903344719410e-02 4.601111341171882918e-01
4.126258450090057595e-02 6.521100121696465912e-02 4.531481043377036944e-01
-1.645736600731580179e-02 2.328694925996377396e-02 4.144974525571111235e-01
1.212685497490001083e-02 5.339364376399102080e-02 4.300604809992165101e-01
5.100203501156663766e-02 5.023385347659205247e-02 4.795508582051785651e-01
5.378262110204840712e-02 1.478299324400961061e-02 4.615322682667548637e-01
4.421361097129425377e-02 -1.973556213072009263e-02 4.533152145224972340e-01
4.766701015695065657e-02 5.146249326968228149e-02 4.918252359494100778e-01
-1.831625059809278283e-02 1.006543508070154545e-02 4.252861863092047279e-01
-1.161300065082290084e-02 1.992180268540201873e-02 4.158923521939756895e-01
5.195407066596217927e-02 9.567518411508710036e-04 4.600261097920601006e-01
5.487420899405427710e-02 2.945526699774845755e-02 4.670372379945428865e-01
-6.779641551560158970e-03 4.448417595422896748e-02 4.187922041889682867e-01
-2.769737546740011491e-02 3.431506805727661119e-02 4.187193105473589472e-01
1.956425347641055357e-02 3.126671539494355057e-02 4.278648443956530323e-01
-8.741475969649924876e-03 -8.606620002840946818e-03 4.325923870611804722e-01
5.535764932306747738e-02 -2.909103088692474061e-03 4.703153556114758049e-01
-8.589212895718977003e-03 1.635461231120754685e-02 4.179196808759748638e-01
5.648212005487423387e-02 -6.116943288933116701e-03 4.777748010882857943e-01
-2.966446251711503737e-02 3.128312862953726986e-02 4.205132990831418893e-01
5.727386899593137071e-02 -2.974098106916591572e-03 4.895885133770752073e-01
5.332357438016195605e-02 4.295072246249787007e-02 4.811839206351462561e-01
1.943527134918960828e-02 -1.557448741469917748e-02 4.352382027374849249e-01
1.431369315990810472e-02 -4.229969882518225255e-03 4.313217445964516172e-01
4.120495923289044238e-02 6.360934424851007185e-02 4.497688742530522310e-01
2.908695789122685976e-02 6.209201654343764892e-02 4.424083771008731070e-01
2.590570034253201342e-02 1.906371013711183685e-02 4.335664208017003252e-01
5.436782904494641411e-02 6.368595678036427683e-03 4.661662637455213365e-01
5.073227505217271782e-02 4.609510462581576512e-02 4.904802497165247632e-01
8.264688023814165119e-03 3.109370563512165939e-02 4.136660823005509080e-01
-2.922571241234738978e-02 1.089705950627711459e-02 4.314894168780112893e-01
-1.644452102035481519e-02 3.894390106560609993e-02 4.149138822426549633e-01
4.257181016528409356e-02 -8.729523668896496669e-03 4.480676274199104081e-01
3.503397343655498264e-02 4.571534090798198835e-02 4.383801460482391610e-01
-3.947295461124341806e-03 3.930700859383984280e-02 4.124721005379230476e-01
-2.061062918948971742e-02 8.656730164554413132e-03 4.272415690135807353e-01
5.704214057077330174e-02 -6.824138086887571349e-03 4.830582188197938831e-01
-1.520485503120803938e-02 2.636283587685103735e-02 4.121139902943708466e-01
2.769176690946130795e-02 -1.676525519043736701e-02 4.381523751528398902e-01
-7.517271480530282948e-03 2.777569314381500912e-02 4.089238233023827496e-01
1.547003590502306694e-02 5.293741930372634907e-02 4.294953026071724467e-01
2.266017689261220699e-02 3.672312519755778493e-02 4.295274253286736621e-01
4.232260754588744456e-02 7.443349598706277409e-03 4.447672540894378468e-01
2.653526772108361770e-02 2.514944512400957288e-02 4.336918695777466359e-01
4.599528540178946662e-02 3.622261184705190956e-02 4.474965699954419063e-01
-1.236419063414552835e-02 3.896077946141673909e-02 4.139329210059318753e-01
6.454670128316015824e-03 2.518186968704002465e-02 4.126971526212521724e-01
5.351237040802196004e-02 3.885873415958476101e-02 4.634223534479153805e-01
4.668021549903109829e-02 5.529192178217584575e-02 4.510133038390574667e-01
5.541486955637781736e-02 7.328054924004569551e-03 4.785248164414119265e-01
4.671819038989024481e-02 6.028271645503317788e-02 4.637772785684635135e-01
5.432730254767389327e-02 6.000573589606398358e-04 5.017890184328629433e-01
4.451866928414546787e-02 5.213125731371989063e-02 4.952278339538085383e-01
3.059948145887828388e-02 1.699045555830400872e-02 4.356956629976261319e-01
4.912044887816809091e-02 1.999921054116858207e-02 4.955530538559542730e-01
4.333847446009608112e-02 1.111337416302142500e-02 4.450842358327983250e-01
5.422542908346756479e-02 2.927701636205770359e-03 4.960772664519159103e-01
-2.169165973549891727e-02 2.539960799411896883e-02 4.167073261215723523e-01
4.922448171146878021e-02 2.154021679990811983e-02 4.951311015093148860e-01
-1.924251273987695465e-02 2.425975268658505865e-02 4.158967242455576807e-01
5.612055308095615508e-02 -1.650908049204436942e-03 4.734503638253773627e-01
5.478976663323645996e-02 2.284424598265925865e-02 4.760772990077049016e-01
5.545759143077452075e-02 1.199429431425699973e-02 4.735095305249716890e-01
1.793083270670222523e-02 3.852142142379678946e-02 4.253148377468535246e-01
5.048379770221407548e-02 1.000339133713622555e-02 4.547629740829169376e-01
4.314890445527184287e-02 2.200647046701570755e-02 4.446155050249306351e-01
3.093549989428861363e-02 1.827902888856972399e-02 4.358218595410252028e-01
1.360548074625973769e-02 3.202775184665759833e-02 4.198987774732743650e-01
-6.665257968708532613e-03 4.123372288531165081e-02 4.143285003729681448e-01
5.475716374586260538e-02 3.403761521171880244e-02 4.710128889481747794e-01
5.079762946292975395e-02 4.646641638784767409e-02 4.562690135909810429e-01
1.090993363514924409e-02 -1.591483854690382144e-02 4.353322920781527716e-01
4.872244654200660191e-02 3.691871380490015925e-02 4.980988054457362590e-01
1.503139761501739308e-02 -1.418544825446717630e-02 4.340651522391865691e-01
4.134870165668848990e-02 -1.317179885877028944e-02 4.472186639258582397e-01
6.460206157620471817e-03 1.374964267758035583e-02 4.245759035156357331e-01
3.015947924197092886e-02 2.577835114417588447e-02 4.356517293913366728e-01
5.369275006234610487e-02 3.788121099191240487e-02 4.635633603378540579e-01
5.484645462738601401e-02 2.237068643292732060e-03 4.940107674787853065e-01
5.044595067464716781e-02 5.259851945337584711e-02 4.670489470257553899e-01
7.538345564359734408e-03 2.463030810525414574e-02 4.148887030037493040e-01
3.298831453903371819e-02 -1.205563187036833885e-02 4.398808430573845074e-01
4.935918737943033319e-02 3.181136914820288653e-02 4.965843061078167309e-01
5.890895860757400238e-02 -1.131522186961267731e-02 5.048161217301089243e-01
3.186125884490430965e-02 4.780660356725485727e-02 4.363501947821376015e-01
4.169486255421665094e-02 2.558403047904460673e-02 4.433899304080360371e-01
9.977382994931715057e-03 -7.728226772988408891e-03 4.313811099296159246e-01
5.490122307240532379e-02 3.176258192916561751e-02 4.677186737217271517e-01
4.571731099677492360e-02 5.483157957144636080e-02 4.864358382480051257e-01
4.302807166595793570e-02 -1.460667596628479302e-02 4.499057989675342983e-01
4.040247630501350024e-02 -1.046187262903184277e-02 4.455334311001067360e-01
4.149748236762890174e-02 6.453068062507479052e-02 4.521790468521614814e-01
5.525436034850920997e-02 -1.142580101422959425e-02 4.751414871499261006e-01
1.629334097503186071e-02 4.453052692349820235e-02 4.254387726128274760e-01
4.296241910047787077e-02 6.459102935803684442e-02 4.543955123008400210e-01
3.804322974859640494e-02 3.965512830909057734e-02 4.404938770576325435e-01
5.389082454973934816e-02 1.217736641868771971e-03 5.014479378750745786e-01
5.431672340337150018e-02 1.971732293067586170e-02 4.639506237363472119e-01
5.265541658750963472e-02 4.552532602968903386e-02 4.733557522980949561e-01
4.681662727887913461e-02 5.584170686251958143e-02 4.808457037450357685e-01
4.151103585560915465e-02 4.753315576869484443e-02 4.428863343679206310e-01
9.815221834087855049e-03 6.593021019456017651e-03 4.290414965100685096e-01
5.046313654721013009e-02 6.527533405397591658e-03 5.028041952519267666e-01
5.070176787495421500e-02 3.425469933257242749e-02 4.930900987494700183e-01
5.256158349319698525e-02 4.497482675762896204e-02 4.648868224692985773e-01
2.564180000263757437e-03 2.190420950838717351e-02 4.136156436893799193e-01
4.715676062367168964e-02 -2.754251078976407106e-03 4.517220197101894374e-01
-4.189469814369910922e-02 -1.060254873289898352e-03 4.408747373047265383e-01
5.858061721173415948e-02 -1.026247678323779881e-02 5.037668562649284532e-01
1.688311098663657431e-02 4.539323083913295725e-02 4.259349125031209327e-01
5.648948126811181164e-02 -7.679351686643391510e-03 5.110737446202006096e-01
-2.575662421851702619e-02 1.181378987829348123e-02 4.284914815755833661e-01
5.294928587632506678e-02 -1.699933997952776665e-02 4.698009907924980411e-01
4.656732288573124656e-02 -4.416779602435788772e-03 4.516021896451523077e-01
9.139332121594217345e-03 -1.926843401082506402e-02 4.367431934473092192e-01
5.203763719732572290e-02 4.694719528120797070e-03 4.590421049392257591e-01
1.262457691376053792e-02 1.192188939704218707e-02 4.275899925982836192e-01
4.712393988427772407e-02 -2.053555646657309174e-03 4.513360954136996783e-01
5.890796694083958937e-03 3.953809871601837722e-02 4.158902038005019564e-01
5.760608356810201225e-02 -7.250868137214263112e-03 5.008772494614537329e-01
5.493463462741406123e-02 -9.254031169377532201e-03 4.729110643055979279e-01
5.101536030167246050e-02 4.926191121011321006e-02 4.822570607964615785e-01
4.502970591479016349e-02 6.171581450176258365e-02 4.699941214496619613e-01
4.225104719882692705e-02 6.141612655725707526e-02 4.483053049871947304e-01
1.930726701060259815e-02 -3.905704539502828990e-03 4.325013107303968818e-01
5.248784210814125967e-02 3.248267786701478088e-02 4.565348604117662190e-01
5.012320429633883995e-02 4.750960447174877588e-02 4.541052053872282612e-01
1.791928928877565413e-02 1.512930187970782346e-02 4.290812378041575781e-01
-1.685910151438532734e-02 3.703766524382243186e-03 4.289362708002048552e-01
4.446492744825927129e-02 4.165966242080641063e-02 4.458811625442192228e-01
1.077437023207266503e-03 1.174157781507502787e-02 4.243145298294668799e-01
4.765301743820651165e-02 2.319579773911193549e-02 5.005347190162756643e-01
5.068246276272963396e-02 4.860040782784862123e-02 4.584171862222781724e-01
4.124582437490513509e-02 -1.878927852410387789e-03 4.452396411063317960e-01
2.875022982201467722e-02 5.139743180402137762e-02 4.350317982143257489e-01
5.149140730109211250e-02 6.533164407090919293e-03 4.575577933329908475e-01
5.229702574723806008e-02 4.492060472663363807e-02 4.854172940105688228e-01
5.282846833676849152e-02 4.084128577878023275e-02 4.612981564747970498e-01
-9.701448832657435725e-04 3.856709355414347090e-02 4.123385045343873623e-01
4.301240214446498678e-02 6.184416980017525683e-02 4.736833454896003937e-01
5.059553680150495614e-02 9.719771361360672601e-03 4.550616989456863215e-01
-1.273387590004532686e-02 4.100104365252399408e-02 4.175700178460107770e-01
5.466419812431964897e-02 -7.117793065996098206e-03 4.704677152987775113e-01
4.547282617480517125e-02 4.134010578797451402e-02 4.467733106843848057e-01
-2.802159166251994363e-02 3.018496739451082683e-02 4.188625909798428526e-01
3.974527793016948557e-02 5.757252854959891974e-02 4.432496774001231654e-01
-2.179555464723004557e-02 1.246658999794948014e-02 4.254206917718204028e-01
5.737053990454076685e-02 -7.161251405891113676e-03 5.058357500091124059e-01
5.336505281839745707e-02 3.088986722406025787e-02 4.851520954393345741e-01
5.040569323175569244e-02 4.792280592266405514e-02 4.883706838406864925e-01
6.094807568354849124e-03 3.295427673718172301e-02 4.121840483690345502e-01
5.211522816216705017e-02 2.261321377756197321e-02 4.859571514777160095e-01
3.951801539058248658e-02 3.450113506616687281e-02 4.413991786137090867e-01
3.185970929131637375e-02 1.721508318114092426e-02 4.362992018218542212e-01
3.754286819162910155e-02 3.331912037811921717e-02 4.400708638540729023e-01
4.548750450203116469e-02 3.468821275593857167e-02 5.050769721364202214e-01
4.059492693335412655e-02 2.336889576364045359e-02 4.424904933836359411e-01
5.357282765197034224e-02 4.030596388937239538e-02 4.823458489213902078e-01
5.688101867132720063e-02 -9.234172460009289901e-03 4.808851863130753079e-01
4.228456501128700223e-02 6.512100289911045004e-02 4.544408055371521038e-01
5.521815250093440458e-02 -2.607979486920738825e-03 4.696184815805065083e-01
5.662320449073505318e-02 -8.586667657213293420e-05 4.869740918166621246e-01
4.759752238890061632e-02 3.930263064076211510e-02 4.491600252184902442e-01
4.549997387450514102e-02 3.190933167507586932e-02 4.467130575620845701e-01
3.793071441134249211e-02 2.820361136527450158e-02 4.403319588068414503e-01
5.316064438232630252e-02 2.023040786244202291e-02 4.827685642197341309e-01
4.437936519812907959e-03 9.627767688340428676e-03 4.263495216959518608e-01
-1.973934295519051002e-02 6.793248350132312895e-03 4.268862977584161333e-01
4.845920098644405927e-02 5.299652794953032403e-02 4.854926755647328562e-01
-2.822967466930870889e-02 7.525746519634550491e-03 4.324354348291511996e-01
4.626459457345850901e-02 4.824632458398785823e-02 4.475235286620017905e-01
4.193836609012455141e-02 4.809301621473762584e-02 4.433034026937166527e-01
-1.730817568535918593e-03 6.459506153390019711e-03 4.264815360005875799e-01
4.851233697934836941e-02 4.277152292453157562e-02 4.498412168592504368e-01
5.062632406682774505e-02 5.040917150112171619e-02 4.603904142275908051e-01
4.945650555488655120e-02 5.481037107747045722e-02 4.659004382952174894e-01
-3.214589923155330986e-02 2.040329986919613148e-02 4.253569830466086832e-01
4.963929041869037662e-02 5.070066775506176793e-02 4.551789825984305926e-01
-8.729065841503440976e-03 -1.025719377035910242e-02 4.332214272597407212e-01
4.775869648050700550e-02 -1.563409146791477217e-02 4.586599650503568881e-01
-3.055346647567785002e-03 4.606453188904063162e-02 4.197333261314096786e-01
-6.768099788403504451e-03 1.986586661167051224e-02 4.128399854456505369e-01
5.512423026707247153e-02 -2.693310701658452669e-03 4.693525546802990167e-01
5.512019095006416569e-02 -3.944127610777018768e-03 5.092222776868257084e-01
2.538400531671360788e-02 4.327128864119629548e-02 4.314259926263212530e-01
2.748899946506728684e-02 1.169533605583955756e-02 4.341516427571356362e-01
-1.598010157739144371e-02 3.121609480971642911e-02 4.121181593147361655e-01
4.054854401853145301e-02 -8.003551742877139386e-03 4.454732856785646455e-01
4.715812100445758437e-02 5.874800078668926395e-02 4.707446594535425466e-01
5.143518932373006280e-02 3.656322492502932231e-02 4.916359191793058803e-01
-1.014216728741777242e-02 3.159541122241379257e-02 4.091686779096042614e-01
1.655900156541572146e-02 5.328589653412040689e-02 4.301088256478940441e-01
5.052775786083684578e-02 4.143376696090331907e-02 4.535041484429923608e-01
4.154212090688778891e-02 -6.415266362355028992e-03 4.464391194683032804e-01
4.713218803321347905e-02 5.946208454913053110e-02 4.639436202729103620e-01
9.276024174267420708e-03 5.220975759128099192e-02 4.258429364428931718e-01
4.514268730077126285e-02 5.259091335220989621e-02 4.932180219090084305e-01
4.237225853707578260e-02 8.196634726314504585e-04 4.458440831394449022e-01
3.096886557621338076e-02 2.669049806920994593e-03 4.368882981631831419e-01
5.034357931596371988e-02 2.833580922778091912e-02 4.928927857384330369e-01
5.432960233796298860e-02 3.652159589666582884e-02 4.706712096889617003e-01
4.708265096392299370e-02 1.464280745503853016e-02 4.487996409068896742e-01
5.562524861115214492e-02 -9.847242649231740391e-03 4.760266433514968587e-01
3.614502281078565971e-02 6.442570794792157329e-02 4.453856368477628336e-01
3.538847141733495599e-02 2.208740207227687102e-02 4.385519059755267901e-01
5.250469728547686038e-02 4.370148763605936904e-02 4.623678796581998651e-01
1.090145634858014426e-02 -9.256600939190923194e-03 4.318908316889608079e-01
3.880666502862557821e-02 4.335759098280759366e-02 4.410230735692741710e-01
1.808849715102858746e-02 -1.137684546147711175e-03 4.320120297463818648e-01
-3.287929127199069185e-02 2.473597951705754777e-02 4.236033500935148521e-01
4.663759107270862986e-02 1.012958090255308870e-02 4.483656081880517119e-01
4.146441031531337279e-02 2.012385062414711462e-02 4.432432493794480899e-01
4.735536657760407164e-02 4.106485514725749866e-03 4.498566987155013797e-01
5.361488098368207694e-02 -7.818010969037857139e-03 4.669963551319310513e-01
8.950675845612005715e-03 1.558004632503452724e-02 4.242590641263702111e-01
-1.580574401487443506e-02 1.364053099368598906e-03 4.301627656823043822e-01
4.748748886858771001e-02 1.590010461964721372e-02 4.491780098336720650e-01
1.801313600402456097e-02 4.265805517305999717e-02 4.257792458692519211e-01
4.872506172436297418e-03 2.510625660672875792e-02 4.116459309961091884e-01
3.033994298538606957e-03 1.039993620325162238e-02 4.255736040067033543e-01
4.674208573063636657e-02 2.624748030333435775e-02 5.035585541923792707e-01
9.261221922423379035e-03 -1.325823938293238004e-02 4.340745462023339329e-01
-3.784722011656706936e-02 -1.165102584527482731e-03 4.401554824743498795e-01
5.390174990254992249e-02 1.466862949525203630e-02 4.810916050960071244e-01
2.199375152011543572e-02 3.425332832337106559e-02 4.294608136884441874e-01
4.981384720781341369e-02 2.017849610999206122e-02 4.514805821236279604e-01
