-1.687952377287089967e-02 9.999549698926878116e-03 4.250809524383800664e-01
5.862237342425370701e-02 -1.085260024592268370e-02 5.072994811699754747e-01
1.399850859902805958e-02 5.465688514972697615e-02 4.346998894829494087e-01
5.391929542690431648e-02 2.124199990244765579e-02 4.613052706835260586e-01
2.684637064188319031e-02 3.236354678369529614e-02 4.339613430717944031e-01
4.816911590415259847e-02 5.558579181895662025e-02 4.779494714186597881e-01
-3.284118284103364205e-02 1.005493680470150725e-02 4.347839937145170364e-01
3.771681375821318849e-02 -2.398019928946608023e-02 4.471418718935633030e-01
3.153677749679893727e-02 5.268629030812931741e-02 4.368066676303187790e-01
5.215323155825277862e-02 2.053607501608628247e-02 4.858600179943341479e-01
-1.734651725313038351e-02 2.506844017470818975e-02 4.140137230518616818e-01
-1.041726672905796992e-02 -5.164054189995435570e-04 4.294634963026875973e-01
2.486740054980286774e-02 -9.492353327425977205e-03 4.351305806206120508e-01
-3.408275379508051827e-03 1.265604158525670750e-02 4.219916702650126639e-01
5.464114652805388689e-02 2.425348980528814827e-02 4.786292662644637264e-01
-3.044755992417578355e-02 -1.037621373612189219e-03 4.362352457806494277e-01
7.503408977332722170e-03 -2.181883268513729740e-02 4.376869316100180374e-01
3.386577366748121792e-02 1.586568617715228974e-02 4.376157869581133730e-01
5.212851241217731496e-02 2.945843470946914178e-02 4.881646893432929346e-01
-1.237066573118830552e-02 1.459943933668131182e-02 4.209176750824010216e-01
3.785397391353775148e-02 6.659895681066232975e-02 4.476439663066561492e-01
-1.736186848035793304e-03 7.980547468229477054e-03 4.258471892142571824e-01
5.220366007611967896e-02 1.194914591826171275e-02 4.896870490128026332e-01
-1.152207838375943726e-02 1.770498741620805602e-02 4.183653752561324879e-01
9.907490396771165969e-03 -4.831719004233275133e-03 4.306241828481507938e-01
5.456371000925315518e-02 -3.036121111692687349e-03 4.676597502929231154e-01
2.794022551648962099e-02 4.656344595749510595e-02 4.332756820535123010e-01
3.410103719730283450e-02 6.217309118263786294e-02 4.425265236720075657e-01
3.023513380567844841e-03 2.049711235526826061e-02 4.158647692338123258e-01
5.534387856858678095e-02 6.497492132517906915e-03 4.807303022867582820e-01
4.010164325893335324e-02 3.712125161580150101e-02 4.419583649408530546e-01
1.726806258757201257e-02 1.348414032626329279e-02 4.289214579512897196e-01
3.797680884755560288e-02 5.327640275687433452e-02 4.410521250505199942e-01
5.116376447423566683e-03 2.112422471508411045e-02 4.159694252929439506e-01
-5.160456938835564743e-03 4.025702451617463318e-02 4.132697996809604479e-01
3.239972866905014431e-02 1.761503017249913330e-02 4.365564860535446345e-01
4.326388038094413496e-02 6.323159376819857680e-02 4.525292891768533110e-01
-2.705913004228882764e-03 2.261661122971657910e-03 4.286399158353705330e-01
3.792193292738387650e-02 4.342320885270734704e-02 4.403248239535155206e-01
-3.085141709480393457e-02 1.063944103282774521e-02 4.326541654639479151e-01
5.765030244181629931e-02 -6.104035996112809268e-03 4.890413485988414632e-01
4.474759741567278098e-02 6.372049064440873933e-02 4.618676567067631078e-01
9.043165321028253170e-03 3.549511395098742337e-03 4.290195535104295854e-01
4.907970829608402502e-02 3.122615701884253261e-02 4.971904827617407152e-01
4.977941706353799373e-02 1.809413982224142292e-02 4.933803740761363854e-01
3.469933839166095685e-02 3.772201701736746515e-02 4.382262204051534660e-01
3.454285887587531245e-02 -1.944956050806362358e-02 4.427022388969451550e-01
2.408203961529805856e-02 4.564753569227407437e-02 4.300605619160889903e-01
1.034465232903424535e-02 -8.864855920723748589e-03 4.316926045689612468e-01
2.181530856733952112e-02 1.338777601012503156e-02 4.313721135791339090e-01
6.577257242534041877e-03 -5.465182819715216564e-03 4.304056392357799021e-01
3.449545724831455662e-02 -2.631579252193362584e-02 4.457471848309468854e-01
3.489441856159854194e-02 -1.942777486860658778e-02 4.429551226958426402e-01
5.518460258344694974e-02 2.749257044230859690e-02 4.750579210444902944e-01
-2.551988756834040750e-02 1.676635179640391035e-02 4.237452783194582961e-01
2.950616542597982173e-02 1.923502236464040560e-02 4.351225450978121745e-01
2.927152050632359642e-02 -4.316771155596024409e-03 4.365564122125671354e-01
5.688039762204925853e-02 -1.479005392737272294e-02 4.802296814717607609e-01
-2.919654464743926328e-02 6.269907737372113800e-03 4.334902419829320119e-01
-2.790330471574969246e-02 1.467270691892398962e-02 4.271465008859698931e-01
5.254808364417269673e-02 4.617097291947191984e-02 4.768089753595821101e-01
8.105354163266482309e-03 -1.804080912379675203e-02 4.365194460885263861e-01
3.153975635936646926e-02 1.903261972172345939e-02 4.360384315734296967e-01
-5.875280730877152288e-03 -6.909284868632487031e-03 4.310711160056447944e-01
5.333498258998141395e-02 9.464188787348299520e-03 4.879705878634726379e-01
-1.079307679462878158e-02 1.605202845194938360e-02 4.195452897309458473e-01
1.123526088099010591e-02 4.038060561791939618e-02 4.211978480631834998e-01
3.745593881787297880e-02 5.319793136846007794e-04 4.417230956435103106e-01
4.007298136956756462e-02 3.295343359770484815e-02 4.418041808005804261e-01
-2.509304413163895159e-02 1.981540385518899133e-02 4.208040967945304023e-01
4.640740313061076511e-02 1.415443634303518126e-02 4.480151334197556845e-01
5.173893000212381743e-02 4.949978509532138721e-02 4.732993609214553032e-01
5.563015931733042430e-02 9.038177050759821363e-03 4.742443188392826969e-01
5.479007039911538285e-02 1.513599386222258189e-02 4.669077829972163030e-01
3.127337629572640720e-02 -9.491935785076949586e-03 4.384035394500321314e-01
5.521339604812702806e-02 8.782755091848198914e-03 4.707471431109043758e-01
5.273447224138299444e-02 4.270532850523537510e-02 4.631380108024519271e-01
5.018887763995253520e-02 2.229926615693662503e-02 4.519430257020822794e-01
-2.456127085791804526e-02 4.094386969291691387e-03 4.310973022307746927e-01
-2.476513431095104991e-03 3.455738324705068254e-02 4.082772936614249004e-01
4.523061274160725814e-02 2.040287339059772449e-03 4.480910783132731057e-01
2.651013658776898985e-02 4.503462225175826339e-02 4.321435127117440045e-01
5.000400325914367006e-02 -1.956067307424348006e-02 4.645265543287295240e-01
1.167743667415114660e-03 4.360886122759601025e-02 4.157132059433094051e-01
-2.407823026369135949e-02 1.207058002873746122e-02 4.271456598119158232e-01
4.981970797455671091e-02 8.008540559063984099e-03 5.020302849423899927e-01
1.069840289158128371e-02 5.039176781412627038e-02 4.246098577610247782e-01
2.950999584718359131e-02 6.128577830533607496e-02 4.416675389381196637e-01
4.022869029637061999e-02 3.496195473939883334e-05 4.440942614019282586e-01
-2.385229533667965890e-02 1.742439465503935539e-02 4.223938485189799863e-01
3.775418721515822612e-02 -4.775276475075604897e-03 4.423477937125701587e-01
3.086239656655489702e-02 3.417698061800467785e-02 4.357229900568119207e-01
5.002526366700016380e-02 5.317647683846923184e-02 4.766921769494447680e-01
-4.361937621465135362e-02 -1.624457329457884742e-04 4.414642382945070942e-01
5.075780331649163563e-02 4.637392114065105181e-02 4.897254431815982190e-01
3.905636937584328755e-02 4.841562127086080497e-02 4.409422498382819522e-01
3.535841887275485707e-02 -6.731634546530926647e-03 4.406054979873330613e-01
5.399445602467450867e-02 2.607364254747972232e-02 4.615507324064923589e-01
5.559434537939144522e-02 4.717215675512028555e-03 4.821359976276035075e-01
-1.218228803854506069e-02 5.796413415068171066e-03 4.264032770949918172e-01
4.482507061295974010e-02 5.717496378879687730e-02 4.491551593230616035e-01
2.584694795705654025e-02 -1.145635681659234800e-03 4.348328608894821423e-01
4.653608197470011747e-03 2.348763734195398814e-02 4.129434124700417374e-01
1.151747672070992275e-02 2.274544792501652368e-02 4.206651390896660181e-01
-3.352662209918851055e-02 4.224697556651816135e-03 4.367595115585199417e-01
-2.822134233657018834e-02 3.144135656847700522e-02 4.190297939823791618e-01
2.715122133837570215e-02 3.230808164176102865e-02 4.341210302664165188e-01
2.071612787557972762e-02 5.873608212330469480e-02 4.388241739566502986e-01
9.832776153942370673e-03 3.004412611865384108e-02 4.151905770943668528e-01
2.723621047288538044e-02 4.205564965845355607e-02 4.329757043690779517e-01
3.120790804806732738e-02 6.399221174215712071e-02 4.439101263239907391e-01
4.816153603691498281e-02 5.188719363998572226e-02 4.510839408026364183e-01
5.062626054107210311e-02 5.783708338794968026e-03 4.558501309042335414e-01
5.455675374719755333e-02 3.108524398945342743e-02 4.648879306518426402e-01
4.584998322135976773e-02 -1.505496943257166390e-02 4.541714708415892643e-01
3.644178762774900188e-02 6.413733162561911783e-02 4.453165383623656215e-01
5.701423688870001921e-02 -3.337179947504311135e-03 4.837055068870922403e-01
2.605870637008914428e-02 3.049124005791235825e-02 4.337892995045909417e-01
-1.227695197283035916e-02 2.390317062911760312e-03 4.288272319876212935e-01
5.506037216635605025e-02 2.090913816948848300e-02 4.737158585917702336e-01
5.012474500462391763e-02 3.469329431197137881e-02 4.947505736498926110e-01
9.368718452646074973e-03 1.170943527330374316e-02 4.264942586093584675e-01
4.958775243080160156e-02 1.322925132672355189e-02 4.965015942668127846e-01
1.425332488244581905e-02 5.350822276999681049e-02 4.311611227970094107e-01
-3.080030892077255042e-03 1.968884462459777329e-02 4.146343868396192844e-01
4.447998374735313148e-02 -3.263116870074953858e-03 4.489304578524762612e-01
5.682774641483506056e-02 -9.134932479603990324e-03 4.805630158191797063e-01
5.401906951152748299e-02 1.953705202543741352e-03 4.655338812552883287e-01
4.449168488756081313e-02 -8.455773292114290851e-03 4.507070825239279377e-01
8.358482911388324596e-03 3.786531695067227310e-02 4.172447310316348967e-01
1.265895970794453460e-03 2.855906459423383087e-02 4.092521509981043581e-01
4.559238832164473620e-02 3.428699617973629543e-02 5.048297817687148470e-01
5.337654835954797061e-02 4.294430490431010161e-02 4.805306917551026569e-01
1.425162144504835485e-02 5.530325083961204480e-02 4.361706051827629604e-01
3.872848396697046221e-03 4.493925599574052215e-02 4.167888823047697366e-01
4.993250234802044246e-02 5.188321759852749376e-02 4.584279109431269594e-01
4.493450623215451689e-02 -8.631029346471356944e-03 4.513928199982379375e-01
3.608045368698226812e-02 1.617546235861028539e-02 4.392061277529861196e-01
-4.773106648294960300e-03 2.027589398784275868e-02 4.127785158016890055e-01
3.277377456036188047e-02 2.606314024233584783e-02 4.369345344596375913e-01
7.533546377771083852e-03 4.563144885046005461e-02 4.205227093306730390e-01
-1.234647660835614183e-02 1.603847088837205559e-02 4.199267128096263457e-01
5.182061568642565980e-02 3.065609164192970720e-02 4.893106401392584015e-01
8.893676824068450296e-03 2.701363826664749529e-02 4.153096525747740908e-01
5.156203606159879410e-02 2.310145394152931034e-02 4.876845893156344647e-01
5.513219458572132803e-02 2.825946107179248476e-02 4.761938034313631385e-01
1.827787317120922045e-02 5.378550053411143561e-02 4.309268136258899706e-01
5.617016251958015932e-02 3.050835532325361747e-03 4.781128425349572275e-01
1.290373929695074265e-02 3.863529200667825680e-02 4.217999870044529809e-01
4.997367965903355691e-02 4.355707496073018409e-02 4.945535706383704655e-01
5.650053594329258050e-02 -1.469824996837518997e-03 4.753744474450919411e-01
4.111192649183699477e-02 5.830702709074133544e-02 4.445921794392638238e-01
5.213600858362059387e-02 4.312165770852938868e-02 4.596048306106442771e-01
7.973144280552294655e-03 3.629953436954828916e-02 4.161480520723737087e-01
-1.641212357137716155e-02 2.604694332128753079e-02 4.129073114937917843e-01
1.184463281904580417e-02 4.582259440893185487e-02 4.233223029456711362e-01
4.470597551382818335e-02 2.009662175392620126e-02 4.458701577210096301e-01
1.195290263340067181e-02 5.422225926496938853e-02 4.329261292771593439e-01
3.589421140207715855e-02 2.857215725918400666e-03 4.404425879820706990e-01
5.404423095048631331e-02 3.707750634239839055e-02 4.660196700693209904e-01
3.905455768505886743e-02 5.899987501695646425e-02 4.430357037141006149e-01
2.804408445389052970e-02 -2.421902694849853779e-02 4.400310725661059630e-01
1.820881944083357559e-02 1.816605115343645008e-02 4.286081810757539912e-01
2.998573114727113437e-02 9.073065562827982086e-03 4.354466663917806457e-01
4.972943332149230844e-02 1.090286245417640063e-02 4.983079997405258088e-01
1.661953298552589289e-02 5.429340556919366734e-02 4.328590566072093582e-01
4.237166957821245777e-02 1.736397620890707538e-02 4.440337301803024550e-01
3.010912080548377306e-02 2.642141406498708586e-02 4.356698479669262603e-01
4.812790823452866434e-02 3.772552342097644507e-02 4.497468386605985580e-01
4.377069416854401096e-02 -1.100056294142427726e-02 4.503704851337847481e-01
4.440843444635497045e-02 6.157540360060218682e-02 4.720131047015085901e-01
2.036439545864619782e-02 1.445794738677445845e-03 4.328580746962026882e-01
5.308704027238718426e-02 2.593656475097976671e-02 4.843707276074575296e-01
5.279804274232513528e-02 6.246352944479399358e-03 4.950472453940450435e-01
5.456158418928565984e-02 2.606432058228446910e-03 4.947953695857993384e-01
1.977102260565259673e-02 2.762060591337017756e-02 4.286629491209849041e-01
-6.914424059764495180e-04 1.065483209404303674e-02 4.245038154156722254e-01
2.668741335084496083e-02 4.342357850450070250e-02 4.324154922540464629e-01
3.772178637008881397e-02 -2.016948931747688384e-02 4.453235538458701348e-01
1.390773173035304844e-02 6.587145512383090797e-03 4.304455260727388932e-01
-1.021797244839912737e-03 4.803378657949055469e-02 4.208103794555133059e-01
1.697662874001567082e-02 3.574914763930128747e-02 4.233781642818040813e-01
2.056700300399282033e-02 3.219281691181546251e-02 4.285022576787681503e-01
5.496613103242137949e-02 3.160909078873768568e-02 4.693860067728870544e-01
5.505212237029099426e-02 2.636909044081819573e-02 4.680336841785340818e-01
4.597802367329908296e-02 -1.724708324791623948e-02 4.548414125122049456e-01
-3.055846099751611047e-02 1.401550286891720121e-04 4.357894138327301770e-01
4.287773097410150190e-03 -1.664569960797241885e-02 4.358275460078908092e-01
5.052686809339314994e-02 5.225570992235652190e-02 4.656677949119093496e-01
5.701216570646288478e-02 -1.048239782847483134e-02 4.814774988518428778e-01
4.851060672216155750e-02 5.265539831690548012e-02 4.527124129946409337e-01
-7.278756996729871974e-04 5.514831580336345372e-03 4.270676925398522727e-01
-1.603100461640335345e-02 2.379890337052362886e-02 4.138093431308780268e-01
5.630517351743371396e-02 3.141764737683438655e-03 4.765645228159848257e-01
1.584386090120671817e-02 -1.400001839287968140e-02 4.340727987864577697e-01
5.521584944477908596e-02 8.822579538921307418e-03 4.778063406529435286e-01
4.984372876924922369e-03 9.363048089708267407e-03 4.265734152579909733e-01
5.146520281631792454e-02 1.943196852563943908e-02 4.883211903613284832e-01
7.414459292705714681e-03 3.829531064302476445e-02 4.165584342794630412e-01
5.445868661364118568e-02 3.529696038511224987e-02 4.687248515816456185e-01
-1.236007340859068479e-02 -4.446346947855001411e-04 4.298608667935444050e-01
5.533448077742147281e-02 5.813985123690298268e-03 4.823440904577810939e-01
-4.098563943772440266e-02 9.354467124170770878e-06 4.410758376759659760e-01
5.045989350036249321e-02 5.254321317028012167e-02 4.755545716934316269e-01
2.324044477488536320e-02 -4.456766628945685489e-03 4.337376639617451790e-01
4.847517159543552473e-02 9.827007859349595406e-03 5.028830136832673769e-01
2.608426976777854234e-02 1.858636912642218711e-02 4.335766378353538841e-01
-2.566138397109204300e-02 1.210556365287594055e-02 4.281464099704356818e-01
-1.477921644912167168e-02 1.806001650713634499e-02 4.191473022200610798e-01
5.194535386399829618e-02 6.365614245872955150e-03 4.981582126012624179e-01
5.695364672338337764e-02 -2.398079908690362114e-03 4.830975315865643771e-01
4.989988304338336539e-02 5.096533114584914786e-02 4.846472603259004974e-01
2.116503264088120603e-02 -2.129701385156664711e-02 4.368120827781958870e-01
4.041099916692515032e-02 6.599074971782242782e-02 4.547237859522274550e-01
5.701430731256802720e-02 -6.202432000048649363e-03 5.059987597219406386e-01
-8.114938647620046491e-03 2.297893391117968379e-02 4.097315969038434202e-01
8.209366858897077651e-03 8.083647041661808780e-03 4.280904343257658784e-01
1.590942765305208492e-02 5.126356380170381255e-02 4.277176798175120198e-01
3.583587544214536513e-02 2.956670815543084238e-02 4.388728843412245118e-01
5.466147819640097827e-02 3.431124404133387845e-02 4.696877606223299195e-01
5.519557215030346936e-02 2.728771715109612472e-02 4.749699044450436669e-01
1.287000235248706229e-02 2.792604502385089699e-02 4.198295568332375272e-01
1.849953602083996909e-03 1.840467663875000950e-02 4.171808324724332051e-01
1.038688363935065528e-02 4.970642865422280482e-02 4.238914543788806499e-01
5.000310807811955000e-02 2.703405027939055974e-02 4.515664299899483369e-01
-2.754887959620943086e-02 1.745721936435002666e-03 4.332852877348570275e-01
5.275515081704333642e-02 2.311778002496493040e-02 4.843117429900333226e-01
2.074368567950948816e-02 5.034455959577612688e-02 4.291529170449059905e-01
4.695605412973785642e-02 -2.027235947924136208e-02 4.588086245988967082e-01
-3.504998551109203900e-03 -1.117044816147566740e-02 4.321063112880366708e-01
-4.657923368362846747e-03 3.308022616485902130e-03 4.281080894971709960e-01
4.379772918189013195e-03 1.642517015383663723e-02 4.201223496893292109e-01
5.177265977547792358e-02 1.348548676737165719e-02 4.897155371857680461e-01
5.218632047449152378e-02 1.360938469770805841e-02 4.574574060318215007e-01
-6.330635692760660724e-03 4.461987717792613439e-02 4.186861251002875761e-01
4.622073421355793466e-02 1.901271397723393666e-02 4.475098042464157322e-01
2.431572635393642809e-02 3.616002189851896115e-02 4.312083869946834458e-01
-1.273246109695295829e-04 7.759612712655653173e-03 4.263776360151054212e-01
1.494569966612782456e-02 3.011928490759992194e-02 4.217032683960624806e-01
4.714328307417285646e-02 5.104486642972217575e-02 4.949957221700751475e-01
5.753075241889808039e-02 -9.298691481995340763e-03 4.858295185228410640e-01
6.567184459787414087e-03 4.129539959682696632e-02 4.172283723731570193e-01
2.609058018119894337e-02 1.708149633904293072e-02 4.335376690654879073e-01
3.317499514187852855e-02 2.215251002553021362e-02 4.370360414542585059e-01
3.795117298968387481e-02 -4.947284606991947734e-04 4.421706107033180344e-01
4.072343769932407903e-02 5.045568989951800670e-02 4.424599859892527909e-01
4.013724462874235926e-02 2.875863242796544011e-02 4.419747916295302392e-01
4.469401063650324524e-02 -1.673730438146551688e-02 4.526719634469314468e-01
5.501570276480465677e-02 2.703304626889463380e-02 4.774340185359173816e-01
5.055233673860169696e-02 1.311622785633698683e-02 4.541594395483928293e-01
5.356017853582490523e-02 3.968767439890428378e-02 4.829489983826749100e-01
9.753153622965495678e-03 -9.465550138439571964e-03 4.317639113913832039e-01
5.225552433946031861e-02 4.550579990619590259e-02 4.840951749642582458e-01
2.286209310688621515e-02 3.419423203356865282e-02 4.302858962377572594e-01
7.905267194380859175e-03 3.486215221800733483e-02 4.149844822293283775e-01
5.441582615382618837e-02 2.784979203061871411e-02 4.802473919847983774e-01
-3.245448481060164703e-02 2.324819257253206081e-02 4.240211855442342359e-01
4.077176605607121113e-02 -1.021327994557140635e-02 4.459527113707530410e-01
5.665885379504178448e-02 -3.097187913837067159e-03 4.770958639585607952e-01
-1.267568599137833610e-02 1.410587653123233573e-02 4.213878395547288602e-01
3.350013023140507168e-02 1.818976196018455907e-02 4.372811621467013188e-01
3.114333872301160849e-02 2.335257099779033951e-02 4.359698210413642250e-01
4.945139675977278104e-02 5.473891650086641636e-02 4.679470039170701146e-01
-3.390583363595624060e-03 9.866809267357952440e-03 4.242077271241987968e-01
5.344612914008794319e-02 3.052213381353793484e-02 4.847574169748642969e-01
5.259479727241651859e-02 3.833390942993485095e-02 4.882095556280136583e-01
4.289173645780759020e-02 4.231706157139611402e-02 4.443886035955506575e-01
5.031494914021828607e-02 4.818498337591965719e-02 4.557024945839477925e-01
5.500073438678922816e-02 3.184450403155070219e-02 4.734319233134022809e-01
-6.699915458393529595e-03 3.532419298279414893e-02 4.096570529170780461e-01
5.511032458700996367e-02 2.412845405700010312e-02 4.722912178154300977e-01
4.129172921251919592e-02 -2.313992791560994661e-02 4.514133462081749704e-01
2.999061728212448156e-03 6.946820575141249982e-03 4.275520810327950727e-01
5.713805303127333923e-02 -4.788452920047314709e-03 4.940117620282133415e-01
3.873232491165214814e-02 1.593044400306050171e-02 4.411924809093757949e-01
5.537582526037967273e-02 1.216032172835992270e-02 4.725619380436002492e-01
4.571477256308114495e-02 3.911555484299647847e-03 4.482318792049584943e-01
5.608932640130680908e-02 -2.439182841733130054e-04 4.921294092856925428e-01
-8.178602513344384456e-03 5.932500394665592147e-03 4.261178974121032637e-01
-1.294431151512340054e-02 2.469847327286268240e-02 4.113658211716594848e-01
4.117551936645445082e-02 -4.795603965371061581e-03 4.457382329435638502e-01
3.249953177680825478e-02 6.561628846281354621e-02 4.448972132003836677e-01
3.482862567274115639e-02 -2.532448808207940494e-02 4.455066341012928199e-01
5.804002332169191231e-02 -8.799987059037705714e-03 5.040223481228247593e-01
4.936387837768758946e-02 3.236374373975688806e-02 4.965806999640690056e-01
5.026271857607803734e-02 4.744721563036705808e-02 4.898613078651308239e-01
-3.519907061014061062e-02 6.047414188121660698e-03 4.397130522635621652e-01
1.177535503912394144e-02 3.114687671136086994e-02 4.175347332560657709e-01
2.520307793645285704e-02 4.720775818318477535e-02 4.311130686787932320e-01
7.138979610805906879e-03 8.734371354278539987e-03 4.274519300441244618e-01
1.804612115390157034e-02 3.338922445436974529e-02 4.252938675387256673e-01
4.823933654915454894e-02 4.107215996598880675e-02 4.987171136941674909e-01
4.739570889020731231e-02 5.695609677281550376e-02 4.541279842980032178e-01
4.731754715230095977e-03 -5.280810285796839684e-03 4.302000079478044969e-01
5.510740377133092199e-02 2.665038098633233307e-02 4.764336713889926189e-01
2.490218439593579192e-02 6.094148352714467975e-02 4.438437200788090675e-01
3.998378062756995782e-02 -1.841792244351406552e-02 4.466121819359434864e-01
4.782513293629449963e-02 5.720538160223681556e-02 4.734255419676857146e-01
5.254790104735785478e-02 3.433541768185325704e-03 4.607712831455280100e-01
5.464968089796732459e-02 2.805268737491794367e-02 4.652951942091862469e-01
5.458332153198658387e-02 2.534148426896558684e-02 4.790727022784747602e-01
4.629172392451711554e-02 6.095329112147319928e-02 4.572996861063101659e-01
5.114387941956395622e-02 2.465113729116730212e-02 4.538043582674095577e-01
4.123490332046921697e-02 3.183013315401773957e-02 4.428359720818011436e-01
5.473107256118714403e-02 3.332011655808320150e-02 4.759824083198586631e-01
3.323153857339761208e-02 5.579606633718936504e-02 4.386846253003462426e-01
4.986852804130088856e-02 8.218978655249054716e-03 5.014788651743027348e-01
1.114119733340336940e-02 -2.024125467393044636e-02 4.367276905706764523e-01
-2.096967873806835497e-02 3.635095960204932919e-02 4.151901978025216988e-01
5.394238368946872864e-02 2.989335726241178562e-02 4.607053517771577678e-01
2.832523750672782947e-02 -1.634953190897915631e-02 4.383473571757042775e-01
1.267037501358400306e-02 5.397245730016939080e-02 4.322798016771471352e-01
2.432008700428785544e-02 2.761883975054886878e-02 4.324421286225046401e-01
-3.865468663434265366e-03 4.600800502054468166e-02 4.197635045591123215e-01
3.211816381712419288e-02 -9.691722311766109293e-03 4.389731552311249008e-01
4.802336649681111097e-02 3.046759212931279132e-02 4.491722955508844484e-01
6.892321015677056739e-03 4.259723139192121352e-03 4.287770841674128364e-01
8.048741580308604437e-04 -1.120980530663218382e-03 4.291384314861119154e-01
5.294734205530566423e-02 4.332283454822780100e-02 4.664387679254692332e-01
-1.367782595921881658e-02 2.027210767311361447e-02 4.169724901944363293e-01
3.837298095367897705e-02 6.314124204853995004e-02 4.454535424015225176e-01
-4.649910389831973280e-03 3.047437884243644687e-02 4.067109190345602476e-01
4.787858494492758937e-02 5.128900551930298812e-02 4.919897064281401611e-01
5.360721803640008248e-02 2.264653381622320008e-02 4.592766724755739105e-01
3.594011273792441924e-02 1.421156446689682100e-02 4.392517159791083370e-01
-2.186881504782374128e-02 3.394573833198825247e-02 4.148731021385674289e-01
4.346277471324731800e-02 -3.704491655741434970e-04 4.469848736467659789e-01
-2.437319931103629905e-02 3.316311852911814351e-02 4.154850564739315244e-01
4.585345674504431174e-02 5.520555912217006006e-02 4.853633474265231507e-01
5.788331348882427146e-02 -8.107160264360964083e-03 5.017219877969553155e-01
5.302021647804689569e-02 1.483013575807001772e-02 4.840711797233118174e-01
-1.003463154849488365e-02 3.538660208735428577e-03 4.282220503549253321e-01
3.183518880536119477e-02 -1.187195627915053377e-02 4.391155127200358499e-01
9.665493711848830577e-03 2.241057869887848331e-02 4.192485740081700607e-01
5.603123689459824086e-02 4.834650400435217335e-03 4.764896130608832769e-01
2.928172598959932413e-02 6.126246784754575680e-02 4.416797702935659209e-01
5.397634586824349989e-02 6.049508680790058324e-03 4.901577961595985355e-01
2.220717201799497428e-02 4.163425727865455866e-02 4.285797648934943083e-01
4.992292277355321606e-02 4.181727780237336906e-02 4.950138726342364071e-01
4.924937145317279802e-02 7.487917568727262517e-03 5.044410198004473100e-01
5.591374370756659398e-03 2.644895434246043175e-02 4.116056083782020925e-01
-1.441631661656900786e-02 3.637266590482939130e-03 4.285775419543104703e-01
-1.564149243859209309e-02 1.099200480934492408e-02 4.242380276985592835e-01
5.039024712292673736e-02 -1.733326259328534652e-02 4.646460172724121707e-01
3.879756080571561405e-02 1.523146098605195412e-02 4.412849532658570939e-01
4.991325484712730298e-02 -1.196557895086122585e-02 4.617217387764280256e-01
5.519010828786237444e-02 9.444936416196895654e-03 4.704685327872195622e-01
3.990303911460860511e-03 1.359668912007697301e-02 4.237511414865594017e-01
5.503957351402349180e-02 2.432212845819148317e-02 4.732406713413348509e-01
-1.144505451880070690e-02 2.352746704073125847e-02 4.111637765164445901e-01
5.235588098614765012e-02 -2.095412476577166241e-02 4.695728126364496213e-01
5.706172337042379750e-02 -9.531599098527920172e-03 5.109880954282292054e-01
3.839957752661189716e-02 1.653988174100240634e-03 4.423873526702863934e-01
-1.534396180486044016e-03 2.298630844180324026e-03 4.286022951124910940e-01
9.039371736448392758e-03 4.839118501025267693e-02 4.220419460429625791e-01
2.147299679272814121e-02 4.404598888654335381e-02 4.279123725735897166e-01
-1.266113151716109428e-02 1.859173820433933713e-02 4.181902537835732736e-01
2.406557546748580231e-02 3.011915183960444178e-02 4.324006645867344845e-01
5.371634613592157770e-02 1.468161768054185995e-02 4.816744708677329068e-01
1.974813542003433370e-02 4.518587383755412468e-02 4.271469195739905356e-01
4.211809411003480247e-02 6.222042883351209391e-02 4.488206860102199047e-01
4.898696957203498709e-02 8.552012153533350425e-03 4.520649399184606954e-01
-7.356984867998356790e-03 1.949735659475215072e-02 4.130700867744074301e-01
2.421860904387079794e-02 4.792759041422013644e-02 4.303883229745582573e-01
3.672956390131709714e-02 -1.639459490560210564e-02 4.433396679712683919e-01
2.371818114495311686e-02 6.019696794408665314e-02 4.432581066393176950e-01
-1.858978308509401899e-03 -4.128875802462308141e-03 4.296705748535818437e-01
4.917879419199109453e-02 4.214600727952574205e-02 4.965170673185975159e-01
5.298737574350503160e-02 1.505695141517972117e-02 4.591656903894867914e-01
1.672400571305342198e-02 3.969899017469814134e-02 4.243322248639260219e-01
-1.318828687578251294e-02 5.042991976480942252e-03 4.272043369223702536e-01
5.026468789207833021e-02 5.046053119408341892e-02 4.837005693225078784e-01
4.673892193830302827e-02 5.901392286137878418e-02 4.716986370269416473e-01
-1.163522908304981049e-02 2.074985906976890143e-02 4.145120214292278837e-01
5.471277901557921458e-02 2.950808749779823548e-02 4.657715521324025665e-01
5.486162649733181129e-02 9.468160078092948545e-03 4.671789262441706780e-01
5.849313575054226194e-02 -1.101930928454855629e-02 5.081590848086303680e-01
-2.787382321767327073e-02 -1.935087681661010889e-03 4.352074514921763226e-01
-3.589762905903316065e-02 1.902530392480768565e-02 4.307235340727842976e-01
4.246258969114526799e-02 5.097072567736803117e-02 5.009043039420437715e-01
-1.369003954299135781e-02 4.880376438752161844e-03 4.274253432857104129e-01
2.258665915006613512e-02 5.855231309670248796e-02 4.360677698230842614e-01
4.635171265006011315e-02 4.385568545608112961e-02 5.015739713078773976e-01
5.321542067940166626e-02 2.005929630133067732e-03 5.020170093210488682e-01
4.372240257496100985e-02 2.307352489666418885e-02 4.450406351598624188e-01
2.590949395725080859e-02 2.380951164904552761e-02 4.333856321145523882e-01
-6.337578164814679227e-03 -1.375965041351312826e-02 4.333943776006900506e-01
2.746006831125806166e-02 3.034741780268001773e-02 4.345100979088598603e-01
3.187725987030926716e-02 6.033116508099759662e-02 4.406223616935419640e-01
4.719566062633698961e-02 2.964382344295996875e-03 4.496835347953034856e-01
1.107164698922735724e-02 5.428052545980342064e-02 4.328410167834970679e-01
4.482675024223661125e-02 -1.100764048986601663e-02 4.518926298572191191e-01
3.167196485248892357e-02 1.284810361059568647e-02 4.362837995851274187e-01
1.704354243512871611e-02 5.438554605818085586e-02 4.329781041483589665e-01
-3.279490698699637219e-02 8.300969314204736937e-03 4.357829699493279696e-01
4.375180617330282073e-02 -4.184256974336443037e-03 4.483770407500069499e-01
5.720842904119086830e-02 -1.299900049096173668e-02 4.822329821613884904e-01
-1.264374469565410219e-02 -4.991316607781839595e-03 4.318039194294024941e-01
1.224828380295895497e-02 -1.895863883600956701e-02 4.361129200266383732e-01
5.440101805333862062e-02 2.863220879377717173e-02 4.636714089954953044e-01
4.588533999744097425e-02 4.615616544709272295e-02 5.017585276701510555e-01
-6.085817227093412093e-03 2.922715339232574011e-02 4.077223548205667347e-01
5.512673182410050832e-02 1.099322206934605535e-04 4.969863868777059657e-01
3.521933680491576985e-02 -4.019545881577517819e-03 4.402689305362975647e-01
5.512830989009739197e-02 1.719446751846911633e-02 4.697728284780112173e-01
5.818731668179016187e-02 -1.084371004548156069e-02 5.088847771419240384e-01
4.661186590395129115e-02 6.629450519600151373e-03 5.105780565225185308e-01
-2.117208398596830826e-02 1.830633712652432465e-02 4.204224283765369830e-01
8.889086660832849415e-03 2.431466725485816396e-02 4.170629883832716045e-01
-4.528352146114775906e-03 9.183446878434118471e-03 4.247681898758236541e-01
5.384857190835017071e-02 1.315459385758649055e-02 4.822779949398511845e-01
1.758995389306622359e-02 2.490452292458889341e-02 4.266570575876043603e-01
5.454865107414534620e-02 -8.153011644398131582e-04 4.672937861386450287e-01
4.048909618344393585e-02 1.992688926679856559e-02 4.423970123385577158e-01
2.248430931665911653e-02 5.912974985395440253e-02 4.381399648224865162e-01
-2.000699823881191969e-02 1.311436075225570069e-02 4.240749228615264266e-01
5.539834068829863067e-02 -5.760860541429766064e-03 4.725533061477857899e-01
2.304655255413912834e-02 3.750985472963865724e-02 4.296610977925467423e-01
3.851516893658552682e-02 6.564457082669684918e-02 4.494720882935768769e-01
5.717916247777123789e-02 -2.684689692874775001e-03 4.868473426835862039e-01
5.613081211486194155e-02 4.172354705155516957e-03 4.761004171955995901e-01
8.275315361129208236e-03 1.717504473926377215e-02 4.219851739674008173e-01
5.324861986079551524e-02 3.985302407166871341e-02 4.628749211195797297e-01
3.310049047877873518e-02 5.547793512710741566e-03 4.378694076748112507e-01
5.411269839591553721e-02 1.906218692613055252e-02 4.799987085183195501e-01
-1.234023837843842286e-02 3.949626121895428305e-02 4.142079491761226917e-01
1.555581195374597468e-03 1.922177675600817001e-03 4.286505210537604471e-01
5.196521796325050124e-02 3.398061466321686958e-03 4.591066666919064732e-01
2.259183944676938782e-02 -1.006444302944924096e-02 4.346298847456221970e-01
-6.046526328975901192e-03 1.377844803040131558e-02 4.210282483467856496e-01
3.692503290801676941e-02 2.242929932871775070e-02 4.396289224258388417e-01
4.729790272544025231e-02 1.775729833871504335e-02 5.018710785574999056e-01
4.064286819809944176e-03 4.126592096666816673e-02 4.149343203562096960e-01
3.511541659771499901e-02 -1.347209812767409184e-02 4.415258391096323343e-01
3.280582167758535478e-02 2.187642365631008168e-02 4.367893121360674757e-01
5.330192276818961766e-02 3.956425813429430977e-02 4.628504445652971699e-01
5.531363944921129094e-02 2.423670681149950323e-02 4.705142623554066650e-01
5.934750173948235945e-03 5.112632024801467938e-03 4.285542216124572090e-01
4.609299421535257429e-02 -1.948484637257558161e-02 4.565740240295378949e-01
3.244370434519840141e-02 -1.206687096238663430e-02 4.395224037600592437e-01
4.062180999973118850e-02 2.417402105303655471e-03 4.440462744643656201e-01
1.915520012121789233e-03 -5.889025669385557389e-03 4.300971586166724703e-01
3.769217931557342777e-02 4.146888705816511450e-02 4.401551520846820886e-01
5.138131668442932898e-02 1.863050076282779521e-02 4.887697879066407736e-01
-2.147164419089825707e-02 1.056111239975128166e-02 4.266838658314042187e-01
1.141647381313484234e-02 5.297502959906166126e-02 4.285888341663683376e-01
3.846354025450442887e-02 6.230225372952176432e-02 4.447715116243278199e-01
5.593122443936939664e-02 -3.444447548761673909e-03 5.055909341936677404e-01
-2.233887813863806235e-02 -1.820521420568610611e-03 4.331158237905263220e-01
4.167278547997328719e-02 -1.167945712420531343e-02 4.475576403954314442e-01
5.460284610250851905e-02 1.706082923240598639e-02 4.658730766299221115e-01
2.923859593556240449e-02 2.531253081162660595e-02 4.349782238063815143e-01
4.936165472902763474e-02 3.054381379690590537e-02 4.962133117823095407e-01
4.082294501726208003e-02 6.930217990538901571e-03 4.436050318545165516e-01
4.836139712684347364e-02 2.170056262698770097e-02 4.491607175178349842e-01
5.003617149312777207e-02 -1.530003435579063535e-02 4.631749957918568916e-01
4.469319806758110386e-02 6.372261658996165867e-02 4.612875436349494485e-01
2.830496593785068044e-02 1.817770942279322774e-02 4.345568438715279869e-01
5.352531736907493315e-02 4.027482245448280040e-02 4.667580941869792222e-01
-2.962941253024238553e-02 8.745501877816879224e-03 4.326971575025570504e-01
-9.749565812537502527e-03 2.179154406427182000e-02 4.116974620029538179e-01
1.886988081587556362e-02 -2.344788360421937515e-02 4.369647412532204345e-01
5.245782369660791089e-02 2.548290488919128204e-03 5.039193369693455438e-01
4.051581685418964573e-02 6.291962113695914738e-02 4.472375466204429606e-01
4.989168773873016438e-02 4.308460587614920678e-02 4.948224756614080233e-01
5.725346174995127324e-02 -6.314213569300577977e-03 5.010648626094486024e-01
2.724270812273388645e-02 5.992813601690497038e-02 4.394162926800415092e-01
4.436391493393515746e-03 4.182355457785492253e-02 4.154958495741952751e-01
5.326502815722457262e-02 3.360525552611867001e-02 4.857073074801319668e-01
4.442543158627348249e-02 -1.669163073931267255e-02 4.522314401628068081e-01
5.279583271789099752e-02 1.920235619356077013e-03 4.623349803403792868e-01
4.819926735236282345e-02 5.195325680419309727e-02 4.896153157719415616e-01
5.096458502596483420e-02 1.301649598318993170e-02 4.926366722226606099e-01
5.607858796792069417e-02 2.319350148758911843e-03 4.750010199971043123e-01
6.039800767439983641e-03 4.126049826181746316e-02 4.166951084395735805e-01
4.751958186299026082e-02 2.722951835512824048e-02 5.014686462804225364e-01
4.731486367516854474e-02 4.005292202805293272e-02 5.008744588745865922e-01
-9.872494379981004015e-03 4.086497116615393083e-02 4.155803708951051334e-01
7.304308795820271469e-03 2.410333885562005590e-02 4.151048921089408039e-01
3.253100467313968513e-02 5.803806080633291259e-02 4.390615257732422005e-01
2.776299811125116507e-02 6.042704116278059534e-02 4.407571252592656919e-01
5.502462041126255504e-02 4.730901012365271163e-03 4.863055075361824020e-01
3.410194986872200351e-02 3.467371239033174846e-02 4.377106338828338772e-01
8.161495612521284942e-03 1.631584508854059395e-02 4.230577645385564245e-01
5.451617653824251258e-02 3.443795263975368143e-02 4.785344959960388667e-01
2.493885391670888629e-02 7.190453570776082944e-03 4.334883578304987162e-01
1.408544586231142391e-02 -1.162745183180695016e-02 4.329621613337830688e-01
3.292028256824785365e-02 -2.278274412689204609e-02 4.427704431144806607e-01
-1.901727823581366231e-02 3.396984730091366644e-02 4.139446571403113673e-01
4.955678087679261240e-02 5.459417210755691807e-02 4.672155181600707308e-01
1.646917673488973791e-02 -2.162824139808307115e-03 4.315071765229306355e-01
-5.413493179227200913e-03 2.954245529253808969e-02 4.073137482789123687e-01
7.307998444534160795e-03 2.201243095636363362e-02 4.174309312809791894e-01
2.967731814595753539e-02 6.090478329474154073e-02 4.413530020390802888e-01
3.913708247861225065e-02 4.955521744615005997e-02 4.411540797955794679e-01
5.185353876669553976e-03 4.220822291753528743e-02 4.163390993067637713e-01
1.627886151354651645e-02 -5.049043350463475535e-03 4.317336169706428306e-01
5.510827891796597072e-02 3.367070442923797684e-03 4.689076694899291797e-01
2.582784639160383422e-02 3.044330408597729215e-02 4.336549534611592871e-01
4.041609628276317256e-02 4.562639961220004564e-02 4.419305254490233370e-01
