-8.889273828289336044e-03 1.062822522455974389e-02 4.236343307608922415e-01
-2.941617449760881159e-02 1.535893526582940427e-02 4.270619445778758849e-01
5.135915731910386389e-02 2.183860388756676124e-02 4.880747217609536226e-01
1.379211059272891435e-02 3.827782566622386223e-02 4.223407657831577122e-01
4.339358542344937814e-02 5.920450622111537997e-02 4.481722539100755354e-01
3.612343381903728584e-02 6.287714992155793436e-02 4.441268749523838433e-01
2.169740007188563496e-02 -1.598522752505208283e-02 4.358988543035177687e-01
5.073316912429146064e-02 3.937119658989565035e-02 4.933889752239772886e-01
5.345913445747157294e-02 3.219654403192624692e-02 4.847565499775409181e-01
4.808358315554977364e-02 -1.716625555702642331e-02 4.597753301710342244e-01
3.336944006219972475e-02 -2.859408280548302386e-02 4.460009185228025475e-01
-1.750340884889911575e-02 2.154321628230427763e-02 4.176325184299500282e-01
5.521916338802775742e-02 2.629674482080361121e-03 4.905933208150689007e-01
5.003562507951987010e-02 -6.913817405255350164e-04 5.128940151592656926e-01
5.175639035782258340e-02 4.725290266170883297e-02 4.826390681785491799e-01
3.796241005532018792e-02 -1.378692930181206998e-02 4.435502692269587821e-01
4.792939618286871234e-02 5.783968269292651121e-02 4.650511274726785160e-01
-2.252812003858900569e-02 3.678254988552091820e-02 4.163832847034776297e-01
4.534932242806712088e-02 2.706379833565887919e-02 5.058164328817171818e-01
1.200903710060123933e-02 1.755239634126514597e-02 4.243405573333590142e-01
5.322693770999430141e-02 4.371289778465549392e-02 4.796339441322015618e-01
9.319442135568224012e-03 4.200672811003392654e-02 4.201922225421579338e-01
1.586981382580493483e-02 3.159696377514076282e-02 4.225124194831680335e-01
-4.322881474747524572e-02 1.860069302821689384e-03 4.435889756329061129e-01
2.417504603294513832e-02 4.306619973987796390e-02 4.302582391754227742e-01
9.461906462463837153e-03 -2.237546755387328362e-02 4.375836726847097125e-01
2.612436159592237267e-02 5.898065796637318170e-02 4.371052360111303825e-01
-2.079338914913777397e-02 1.534674762774844090e-02 4.229615469945946504e-01
2.002433356123565350e-02 4.429013773807104898e-02 4.269782425748599453e-01
1.184250819946102047e-02 4.460982923765362956e-02 4.229618806843747914e-01
-1.342170401969113719e-02 2.133668518576814152e-02 4.148729137719933679e-01
4.693264218048947417e-02 4.678813391863532317e-02 4.995580952758762461e-01
3.850952412198325320e-02 1.526622274095764190e-02 4.410186547826223102e-01
5.399284514991905398e-02 3.741938989537300225e-02 4.662010819974329867e-01
-2.115494264789813741e-02 1.414777247022137863e-02 4.238554654834669200e-01
5.256689681414238036e-02 -1.122332790670332175e-02 4.663914384838070970e-01
-1.032307410246363980e-02 1.951599376751534179e-02 4.151962488066017198e-01
9.551998054625579146e-03 1.457792132180742682e-02 4.249388330008614378e-01
5.683196803512895884e-02 -6.099335140421406273e-03 5.068996665708213056e-01
1.648547644410900889e-02 3.043967568960556994e-02 4.238226797528574785e-01
4.305842945412634987e-02 6.227972483002961433e-03 4.454496825098597235e-01
4.754350862739067929e-02 5.548160002308900884e-02 4.527840444809276277e-01
1.011622611418145148e-02 1.689511288950784965e-02 4.236439045896004396e-01
4.809030817820311721e-02 3.154910087182760670e-02 4.994693178872033346e-01
3.601131556450973270e-02 3.573666649338572837e-02 4.389491093924630105e-01
5.655753739610303726e-02 -5.378757692556541264e-03 4.777732861754226956e-01
-2.850855055708479205e-02 1.177150750278342303e-02 4.302397148710437880e-01
1.460240134999564801e-02 5.379297576608977477e-02 4.321060070874210846e-01
7.728508002249670321e-03 3.960553787550302740e-02 4.174174367225207405e-01
3.931223394984587755e-02 6.498575404416268020e-02 4.494292055367564709e-01
-1.043169729818440791e-02 1.810465185184352696e-03 4.288208715367753388e-01
5.209809829505979845e-02 2.660185987519097725e-02 4.872280899399263343e-01
2.315705018557523420e-02 1.265624839872452057e-02 4.319959564616303038e-01
5.537197228038548413e-02 1.079427875085495550e-02 4.725304601447663511e-01
7.252424313027126292e-03 2.595594369576981197e-02 4.132884045142811158e-01
2.181389330654924519e-02 3.203294854259559898e-02 4.297706599908057701e-01
5.493601094286622299e-02 1.951234818380170877e-02 4.752569158995228471e-01
3.659021448105677365e-02 4.153745267387406320e-02 4.394235653753714721e-01
4.367662094712564114e-02 6.444543629412793906e-02 4.602044465873407764e-01
3.362991892707695163e-02 6.935738093121698172e-03 4.378595493564854113e-01
3.305222132295123488e-02 4.078929176270854051e-02 4.372061084092842553e-01
5.040806177255390680e-02 4.319964006023366276e-02 4.531765264051786923e-01
4.928710982748497893e-02 5.297084992747366078e-02 4.563625429673142664e-01
-2.885043597079252342e-02 6.868818603169691769e-03 4.329416075751953419e-01
-1.762138334267729020e-02 -4.714826796190473013e-04 4.312876103108477244e-01
4.097100961558532844e-02 6.568481112955515400e-02 4.551365375268207614e-01
4.954824766838919481e-02 1.506579664572109574e-02 4.948269455511499770e-01
4.838901598554856687e-02 -5.864562451831072803e-03 4.553817442910497726e-01
2.991721388768718223e-02 4.934531925637063859e-02 4.350581402514546725e-01
5.039639411488033155e-02 3.697502434419796397e-02 4.526782425212111383e-01
5.008150888994572503e-02 1.172441469930881816e-02 4.965039128944356284e-01
3.696089435911986687e-02 6.779989774357819687e-02 4.510700703929047539e-01
2.181764737028741089e-02 6.976528134852411425e-03 4.326888071292646076e-01
3.412248523730038868e-02 2.797550852471686333e-02 4.378115423148288832e-01
2.858839778771564769e-02 -5.910685053752418039e-03 4.362326505306063362e-01
4.713494322236359835e-02 3.755855866903046875e-02 5.013415316494649332e-01
4.113968955152676882e-02 1.800192144849333334e-02 4.429535212771906760e-01
5.372907043705870550e-02 4.121156309294814191e-02 4.765908159646108366e-01
4.399921279900850801e-02 5.292219685007402280e-02 4.932368709619133762e-01
5.318168256062105054e-02 3.296588362545235101e-02 4.859380721838320039e-01
5.532394693828490695e-02 2.069144366447501701e-02 4.714765047980929991e-01
5.325918629395561682e-02 2.093197241780419063e-02 4.823089398691902119e-01
3.644700406157947575e-02 1.741019545508359911e-02 4.393391581591081785e-01
5.475381403499898769e-02 1.743622961699962948e-02 4.773727940198314035e-01
2.335772320401402480e-02 6.022914253556138631e-02 4.445299518162841301e-01
4.950100580911657999e-02 5.039174841229890345e-02 4.874839910240118535e-01
6.371351171774331662e-04 1.433426194621800071e-02 4.215813836297062078e-01
1.257396372377614889e-02 6.418571403122802152e-03 4.299110535462100091e-01
2.704510143990420529e-02 -1.435718034979622908e-02 4.372222426979219811e-01
1.795006073739083968e-02 2.099412362086691686e-02 4.277960553219489759e-01
2.639332417267332975e-03 4.280310314468578625e-02 4.152726623705512154e-01
2.611291040010349160e-04 7.258048825275170268e-04 4.288235860715408632e-01
2.179544971830823380e-02 5.894225652277148425e-02 4.376773446954733693e-01
8.122833156380617967e-03 2.084224880273814404e-02 4.186399278644427624e-01
-6.482344723339091876e-03 4.520556171793587569e-02 4.200706534140911663e-01
2.775510522386938524e-03 2.637589956592199109e-02 4.103277816684268720e-01
5.503033170036325528e-02 2.288643725735272499e-02 4.733067306516838268e-01
-3.931460650561149558e-03 -3.167155233803235076e-03 4.295245169802401897e-01
4.524496052331327539e-02 6.178208649722322088e-02 4.552227217429888340e-01
5.136966377243158688e-02 -4.276103103612794408e-03 4.611368352520063829e-01
-2.632045502731452866e-02 3.176271085550963491e-04 4.334830737549043023e-01
3.236841396359716599e-02 4.827967341810552454e-02 4.365588970145479752e-01
5.356764230095290014e-02 -2.202106183271175695e-03 5.091312778484584634e-01
5.198592056343458168e-02 3.303813108851775399e-02 4.893560886923034037e-01
2.250358595899324722e-03 4.227456530263015710e-02 4.149852909525998945e-01
3.296930837490073818e-02 4.186676358814472344e-03 4.380272567498612046e-01
7.998624165635440444e-03 4.317429218053921852e-02 4.194882728255583393e-01
7.457608717761314912e-03 5.179572378820196388e-02 4.243569121409178080e-01
-3.516804882558362960e-02 2.119689106267105133e-02 4.277941151626115102e-01
1.681401183101445540e-02 -7.481011865562428240e-04 4.315804455261584294e-01
4.605929072563266780e-02 5.357096366268555843e-02 4.486043180643597417e-01
-1.992350841664187067e-03 4.619636885032811502e-02 4.193770679516646838e-01
3.728990466905147266e-02 1.932353570496312539e-02 4.398139839323692013e-01
5.035768988458515921e-02 -3.521638423849093522e-03 4.584016600618750492e-01
5.485996983375172192e-02 -1.085816366036546077e-02 4.732521441913676297e-01
-8.849580593078531718e-03 1.551195208476104440e-02 4.190250276738749502e-01
-6.925570963210101773e-03 9.932936991007372800e-04 4.288850504146893283e-01
1.613518955837486835e-02 1.926985697973600253e-02 4.267261085219813954e-01
5.172021433746284980e-02 4.958221450704644595e-02 4.755294742171269906e-01
4.067084073984444242e-02 3.445996547589855186e-02 4.422485537952547396e-01
5.475659914413530394e-02 1.461188848686518181e-02 4.773128958249243659e-01
4.938246002151402969e-02 5.475943245165214995e-02 4.687557964003227218e-01
4.756319002379914146e-02 1.672870189059934287e-02 4.491306839318043309e-01
1.537934704383429364e-02 5.386238985104888077e-02 4.320506700435446379e-01
3.546217878938694862e-02 1.867367502806622018e-02 4.385498325547679266e-01
-4.080099512506905196e-02 1.723017559118005014e-03 4.414996518865326181e-01
5.343429124854917611e-02 1.424154739797015359e-02 4.827354893499492539e-01
5.001821568513285798e-02 1.290457335221607132e-02 4.530590683464455481e-01
4.503502698199352006e-02 2.933142936538937068e-02 5.061799556467296846e-01
-1.234362682012943996e-02 2.713529648944767309e-02 4.100806979788903517e-01
-4.953803026288595979e-05 3.898050804653590412e-02 4.127763401493709794e-01
3.625117344975224004e-02 -2.598209177802606601e-02 4.470810129202206773e-01
-3.152372324357876482e-02 1.482268982838427090e-02 4.290016976691752304e-01
5.702906872983107972e-02 -8.064671724820678123e-03 5.098092478962078511e-01
4.500820402074069693e-02 -1.962079359442623055e-03 4.491292597453821478e-01
4.954503319737647155e-02 5.112207714391613783e-02 4.858687539431462143e-01
-1.230618716784812050e-02 9.411192645272695168e-03 4.246233313752398875e-01
5.462776284054758624e-02 8.867066310766464482e-03 4.665108441057172484e-01
1.548971358121464109e-02 5.198254516798255648e-02 4.280578932945579007e-01
-9.424156157801792839e-04 2.554329181664601739e-02 4.091607632478049816e-01
-4.153436986705974499e-02 1.895160904183494904e-04 4.412284007749414649e-01
4.620736326810179900e-02 3.744791466724080309e-02 5.032940050621367289e-01
5.184747349384571241e-02 1.230057880801893773e-02 4.905617682299464044e-01
4.307824009881379423e-02 6.416505733843773374e-02 4.537188719224755085e-01
5.459732335392664115e-02 3.447055708750612624e-02 4.776565678472302623e-01
5.199491040643847845e-02 4.832032359604399724e-02 4.783435902799672568e-01
5.514742545886816560e-02 2.526575945545891239e-02 4.726001622786726308e-01
1.959906054480782533e-02 4.590649269081707035e-02 4.271810174121419834e-01
5.111717682659967094e-02 2.258822818490234183e-02 4.537214417207813821e-01
3.112612767781972045e-02 4.071732403182105192e-02 4.358174940482216764e-01
4.486219294462147344e-02 5.425878549579921800e-02 4.885128334968115160e-01
-1.155970604552607368e-02 5.323300950560062514e-03 4.267442121081637674e-01
-2.163992948891518137e-02 2.799737014907442353e-02 4.151173511460228283e-01
-2.397017333180011950e-02 3.678211029876724686e-02 4.174581887332077246e-01
5.734216113115356284e-02 -7.735986635586241875e-03 5.075915549290127560e-01
2.597137625937790892e-02 6.046027079903663198e-02 4.407135489239018544e-01
1.762018782444271445e-02 2.860085106060484064e-02 4.261957727457064693e-01
3.487366770993863968e-02 5.754887889977126220e-02 4.399743089527096696e-01
2.067540753078743465e-02 1.621546022751330952e-03 4.328927221382817270e-01
5.050660627759291643e-02 8.714286114903683697e-03 4.984891710462053815e-01
4.479387541077382850e-02 6.210825089129586030e-02 4.697737454533933432e-01
1.738839582509539572e-02 3.643833684493919672e-02 4.239153150398429215e-01
3.267325915479932230e-02 6.009557184530908702e-02 4.402097808968575277e-01
5.490863793060705988e-02 1.545559991378281720e-02 4.678193086982198046e-01
3.600571109983916746e-02 -1.199795636657257497e-02 4.417218539727423288e-01
5.216409815697424512e-02 1.295894883116076920e-03 4.604455552347407887e-01
4.393259134825712453e-02 6.431743723258044609e-02 4.590654246435647012e-01
4.056732150431877071e-02 6.545222692628779870e-02 4.602726470911419066e-01
5.471440715873011201e-02 2.173941519587600443e-02 4.763670392729327796e-01
4.657011664653619432e-02 5.184573469241993832e-02 4.484696139856323427e-01
-7.131479799734863866e-03 1.888145493340006795e-02 4.140968055663561409e-01
1.676033561306691788e-02 5.199794582331519754e-02 4.285498891746009065e-01
4.946952457636783623e-02 5.167075638698494233e-02 4.555218544588721108e-01
4.241717951705420431e-02 6.525950833447180521e-02 4.615740279543680269e-01
3.097948465365963147e-02 -2.775645058872457018e-03 4.374522266121929626e-01
4.325640827325323567e-02 6.479821513759631557e-02 4.642507761676358813e-01
5.216833606990183697e-02 7.043487236144369869e-03 4.958715712809455001e-01
4.396513621826374230e-02 1.734349805428651858e-02 4.453518921439870715e-01
3.182484776764262641e-02 3.237301696829085473e-02 4.363802088736023488e-01
5.459636894633886073e-02 6.230594662349210958e-03 4.860278589281938344e-01
4.139754624583029397e-02 2.478272676263703483e-02 4.430503776345928180e-01
2.059052697937113416e-02 4.384930054800575960e-02 4.271650054313440581e-01
5.583183308463975092e-02 -1.093957976446285202e-02 4.770506822286142423e-01
5.257284147828667625e-02 3.517693083950568234e-02 4.574777678079546828e-01
-7.714844989063862277e-03 2.378408444573025353e-03 4.286685774132038551e-01
-9.728066855461015017e-03 -5.591148376382284492e-03 4.313590535694783457e-01
2.201535480621204244e-02 3.230505697690288364e-02 4.298970651178646296e-01
5.343072940235775448e-02 -2.051377321660842554e-03 4.642948834300444361e-01
4.509101716867060933e-02 3.078555033853593720e-02 5.059735220666674582e-01
1.303827425292029656e-02 5.480399958172963576e-02 4.353305731776953014e-01
4.420223726663825847e-02 -7.275414393399442375e-03 4.499453000689023763e-01
-7.319814017704024886e-03 1.778562259108509153e-02 4.158652433397102555e-01
5.192360364632336855e-02 1.667701182650454736e-02 4.874133656463298658e-01
4.074457932602366939e-02 1.522418575846834835e-03 4.442769806424124446e-01
-2.552831267978627333e-02 2.590894727893269106e-02 4.183978045750229025e-01
4.734285165879568991e-02 1.184129487707892732e-02 5.046478290665782351e-01
5.172643702722738712e-02 3.518377971786693786e-02 4.554565373314769516e-01
5.396888361824039165e-02 3.920248878128419767e-02 4.732097679002597590e-01
5.669905587449327461e-02 -5.206584801348302163e-03 4.785344390223576494e-01
-7.599155457324660579e-03 -1.179526335950501631e-02 4.332698315110661835e-01
2.392584456538055307e-02 2.388669558823190361e-02 4.320272802753366004e-01
5.520441595980508237e-02 6.630617057654395255e-03 4.818875224368031063e-01
4.843358329217647973e-02 -2.968266787886726567e-03 4.540981406480281146e-01
4.111859608707253699e-02 7.040286925082232805e-03 4.437947388436634388e-01
4.868580595475493350e-02 -2.547676186584452770e-03 4.543670948242403140e-01
4.938084105508018518e-02 4.492984626083459249e-02 4.953423877183838475e-01
5.478923785217471726e-02 3.450785020073508791e-02 4.741655075176748335e-01
-8.645148806089807819e-03 1.000326924542727265e-02 4.241293028066062676e-01
3.877636161616974941e-02 -2.376602041336489321e-02 4.478410989980310397e-01
4.931235028694629791e-02 5.205582658555694964e-02 4.843933802416592327e-01
2.569785794155744069e-02 5.236455781559886530e-02 4.333850911569632758e-01
2.631686963959842945e-02 3.912028434958803036e-02 4.323448327241918299e-01
4.688337911873963898e-02 1.001994908649752117e-02 4.485748342765550345e-01
3.124694047960729221e-02 1.184802190103377562e-02 4.360051925484927371e-01
4.952899249330622311e-02 5.433747219914907695e-02 4.631387387359894858e-01
2.776245770531509532e-02 -2.523695194903531960e-03 4.355760451145059831e-01
5.200206320817076650e-02 5.645159655713639923e-03 4.993788738910684422e-01
3.436719121133178373e-02 6.845869648691894904e-02 4.479339796733693424e-01
5.336354887585678664e-02 2.062564359318176666e-02 4.820288992155710717e-01
5.334331676848477755e-02 1.450146404292159200e-02 4.601776099380625595e-01
4.665354977157574329e-02 3.171762596859658417e-02 4.477392001169313018e-01
4.125385479051457693e-02 2.117438706344393351e-02 4.429700609119770482e-01
5.292596113606977404e-02 4.418861124697021775e-02 4.813148911930368867e-01
5.357877129671218680e-02 6.517424020664288817e-03 4.631026709513960671e-01
4.741953131289047829e-02 1.898611859131071888e-02 5.013367474971546223e-01
3.324268008517130418e-02 2.259221993124634065e-02 4.370434703548366495e-01
4.322620445871206557e-02 9.357345281341061111e-03 4.451505991548713181e-01
4.841627121167812325e-02 4.751501704370241158e-04 4.525057297089032926e-01
5.244127399058262640e-02 2.571738652489729410e-02 4.859987092445943180e-01
5.426227522134915993e-02 3.757775423743250909e-02 4.738205387318303319e-01
-1.391295958100492031e-02 1.227565983834137849e-02 4.230759707674884296e-01
4.396506565845043069e-02 6.375924341504343729e-02 4.553983593722654710e-01
4.809206658372428000e-02 2.538975998725303759e-02 4.991068005396377405e-01
5.373787921341768165e-02 7.215736735364477149e-03 4.886427488314034617e-01
5.306041987313165481e-02 4.437769003001252460e-02 4.783543067148066652e-01
1.882421187366996491e-04 3.561729702088704125e-02 4.100735474281023141e-01
9.900762474661931739e-03 4.418998360907044898e-02 4.217687213834531712e-01
5.080476962668099838e-02 -4.195734800323900476e-03 4.598103799882502507e-01
2.313352394589353322e-02 5.552676398708208949e-02 4.340004740099353553e-01
-7.000986656385061596e-03 3.499881032188811164e-02 4.093301441757454806e-01
-3.519407176524443764e-02 2.177178563562992206e-02 4.274503463613914533e-01
4.994444601221763314e-02 1.238188574983309018e-02 4.962654385234607779e-01
-1.956936848483076252e-02 2.468131360745520753e-02 4.157143121664370611e-01
3.688113878348341784e-02 4.813580263170859352e-02 4.394767591242493276e-01
4.784474962684828747e-02 6.507724654457137242e-03 4.503491333281413045e-01
3.371056081024711298e-02 -2.788334212583253036e-02 4.459114237713686091e-01
5.416924740727239312e-02 3.598224986240437795e-02 4.818840476407633688e-01
4.015225856389859505e-04 -5.073534555154958665e-04 4.290183525972190992e-01
5.070214794046767892e-02 1.307262305898896325e-02 4.933380819707946507e-01
2.119982380447359149e-02 5.893377065088621636e-02 4.396700411038299006e-01
5.461823935941071545e-02 2.881563367467295661e-02 4.649584063850387139e-01
-1.192914423233918525e-02 1.152741092912844614e-02 4.232499092763452597e-01
5.222068869159218751e-02 3.493161807208151198e-02 4.891462355694939368e-01
3.224049696668571802e-02 -4.557879910461199412e-03 4.383932952287745710e-01
1.755148235657002717e-02 -1.431397069439524841e-02 4.343964031231631329e-01
2.392246383698903162e-03 -1.004116288115261026e-02 4.311132306920176238e-01
1.191646404774892969e-02 -1.815990050152009594e-02 4.358992313597620516e-01
-2.203078602556702778e-02 5.095437371138226458e-03 4.296569061060836470e-01
3.019134930450879679e-03 -1.828693159578798424e-02 4.360446535425706038e-01
5.338728801685604930e-02 1.480742060100511022e-02 4.602135425682118974e-01
5.067666834308495738e-02 1.343373846387657840e-02 4.930515646903179117e-01
1.778219365261729523e-02 -1.248135751490757686e-02 4.339373415276319701e-01
-3.312047129008199343e-03 3.308865288595225218e-02 4.072238110828120261e-01
5.023223133167693810e-02 1.366334622008267760e-02 4.941669860946306114e-01
-2.356104003679175204e-02 3.364755490329409543e-02 4.152704198154757442e-01
2.851407502665170152e-02 3.293310567049458765e-02 4.346605578828364180e-01
3.060180879268325008e-02 -2.237769903216716219e-02 4.409454125929425650e-01
-3.974119916643672340e-04 3.634964036120365283e-02 4.105087975050655258e-01
3.709962679723712714e-02 2.547409706365977647e-02 4.396641150663438968e-01
5.698635749088755420e-02 -2.537708261786169629e-03 4.808530261897699387e-01
-6.145032996246260759e-04 3.687767984877499822e-02 4.108962660323925431e-01
4.167275577996491787e-02 6.527607315618585981e-02 4.578816297700205595e-01
4.306126829554120239e-02 3.759955671896442198e-02 4.444439789980690336e-01
1.083140698580785030e-02 4.609519579301868397e-02 4.226293598259313056e-01
4.112022768500228631e-02 6.421741933144860248e-02 4.509459288903988616e-01
-3.094067195968215958e-02 5.939321162217290825e-03 4.354568709058558862e-01
-3.281084210836203614e-03 1.437056658330731346e-02 4.205189641838392722e-01
3.020115918419548351e-02 1.938580632169248710e-02 4.353919446818502181e-01
5.022479698794077296e-02 3.025814117334615482e-03 5.080379617806383141e-01
4.024163391048595634e-02 -1.022731012932026617e-02 4.452335348112769764e-01
5.506290193345419332e-02 3.704307314074433560e-03 4.880892960883138620e-01
2.575516903429983170e-02 4.159472730542303903e-02 4.316998318343309160e-01
2.872070732619692868e-02 3.870929265094291520e-03 4.356356914745301290e-01
5.219559787908605725e-02 1.211312108541405877e-04 5.088103132474999235e-01
8.125760516735264921e-03 7.429816442214099217e-03 4.284158879798288244e-01
-2.701787471128821658e-02 2.199950008758544406e-02 4.211218581759669788e-01
5.657308723162766950e-02 -2.124095728920793839e-03 4.931183528237293445e-01
5.252834844047007956e-02 1.539248417306028974e-02 4.856216232557443724e-01
-1.465409792379731777e-02 2.524081443888342817e-03 4.292933760984223857e-01
4.669664002775015393e-02 -2.021399676652910551e-02 4.583608027950424879e-01
4.862336298390509265e-02 6.659932237689382417e-03 5.070446797712834242e-01
4.901499228115370477e-02 1.822450439686877643e-02 4.958672744933247944e-01
2.986017565510912502e-03 3.597529200694638690e-02 4.115434977791108673e-01
5.676169563588708694e-02 -5.991363435885224166e-03 4.797478486229808659e-01
5.473628977063969142e-02 3.284514699871496357e-02 4.761451017677625908e-01
3.778542186246072743e-02 -6.953183191073271721e-03 4.425575558318909364e-01
3.343655742395774955e-02 3.722725708705239278e-02 4.373471963052030786e-01
4.261920043833011124e-02 5.099058170647538524e-02 5.007634380603226409e-01
4.958234155606270482e-02 4.592600179945081906e-04 5.124020859597364641e-01
-2.413977495212760865e-03 2.686714144435372112e-02 4.087034174746737025e-01
2.115003055317817016e-02 2.766148905826472729e-02 4.298406734747050040e-01
5.159482377975712492e-02 2.114021303392481232e-02 4.874726225558834170e-01
4.313632982925208470e-02 2.429093174267710556e-02 4.445243676923631981e-01
-1.719598845490639960e-02 2.788083675273400966e-02 4.127761899899750064e-01
3.912413618295602219e-02 5.969995552565460217e-02 4.432873978469351051e-01
-1.460905228565829647e-02 3.647668630606008561e-03 4.285686540083261664e-01
5.300552569747467996e-02 -9.092739349351503311e-03 4.663637974770943884e-01
3.109567070933185254e-02 1.483401982357562474e-02 4.359045721199638623e-01
5.657021513557548842e-03 5.180340320845908120e-02 4.240778992287473348e-01
-1.578854787702610105e-02 2.568350765603388819e-02 4.125986743924829336e-01
5.237238217529469053e-02 1.269831901094346099e-02 4.883512884388241382e-01
3.326759441222310043e-02 -5.164019961501780699e-03 4.390929146532187022e-01
-1.529928427069538431e-02 1.185107109071276144e-02 4.235546671040191780e-01
1.163520889523641903e-02 2.053516538305718078e-02 4.218206867400279281e-01
3.426497373200496077e-02 5.242662756543468860e-02 4.384082740885650309e-01
2.201625268853354273e-02 -1.420116040999191975e-02 4.354922249634237685e-01
1.794493061990334176e-02 -1.736196531380077360e-02 4.356745121900751361e-01
4.814790880581341220e-02 5.440681797203899411e-02 4.826066599563027526e-01
1.467887671573453803e-02 -4.156854252680548117e-03 4.313255706378721355e-01
3.877896567427338570e-02 6.344717351078407730e-02 4.458530205247354106e-01
1.851550388255985939e-03 -1.533640084169234606e-02 4.345773629204035537e-01
-1.169673976645010591e-02 4.003881435859998894e-02 4.148753206334269139e-01
5.161326943820090246e-02 4.121232850918438162e-02 4.905025703140987736e-01
4.274485207605466242e-02 6.494283688963624346e-02 4.656579062693533833e-01
1.628253203115085854e-02 5.539844010908554633e-02 4.355656831191568878e-01
5.010630514163470078e-02 2.485758928878248342e-02 4.924379855487568403e-01
1.159593836486550247e-02 4.952843736992751378e-02 4.243407563080409117e-01
-2.870613676574750375e-02 3.197053438246676149e-02 4.195433022105227172e-01
1.215169594812450654e-02 4.428481402222521346e-02 4.230479020874530760e-01
1.173448820478920421e-02 2.107666266329490459e-02 4.216356561816842485e-01
5.826760574047432084e-02 -1.094703306468243140e-02 5.087240248834389300e-01
5.356873896540713387e-02 2.821528881757082857e-02 4.588962775169637132e-01
5.345518136239196111e-02 1.008202365962049089e-02 4.868494046098090777e-01
4.932638304746496394e-02 2.265461362052405628e-02 4.502708629922999584e-01
5.256030962251641986e-02 1.235120872076558157e-02 4.586894743635572258e-01
4.963232052874871209e-02 3.104863890556194481e-02 4.955315828351309348e-01
-7.691076105515331530e-03 4.298075375815637450e-02 4.170750086619924857e-01
3.275095253851702942e-02 -1.156079523793575098e-03 4.384547828497276090e-01
3.165559157580375566e-02 4.279352767912571881e-02 4.360532046366426551e-01
5.398395208284841040e-02 2.706364698770893570e-02 4.613136448015460744e-01
1.401737815525069125e-02 3.596351783633226773e-02 4.213845980075595632e-01
-3.378408671210451908e-02 1.824098433701004662e-02 4.282345509436173980e-01
-7.266713544202068990e-03 -1.477794664263505295e-02 4.338460926386977778e-01
-4.162704316904337898e-02 2.586081763659081340e-03 4.436771364670227813e-01
5.005616347754963252e-02 4.686411675099171059e-02 4.533217099933670724e-01
2.073354847152114946e-02 3.386063891939843085e-03 4.327015727696977843e-01
5.032548981958541445e-02 1.814787486813102414e-03 5.097784562863401092e-01
2.189611725557079336e-02 4.552553233763698831e-02 4.281774191865641566e-01
-4.291229637952634346e-02 1.945386810315754720e-03 4.428721372382131705e-01
-1.773576183517754784e-02 8.241935685476681206e-04 4.306990907732270446e-01
4.906143871258087513e-02 5.013693056956843724e-02 4.522613011922675397e-01
3.214824352289333970e-02 2.629189123197617911e-02 4.365274367025495650e-01
-2.593141264079983077e-02 2.325763845813205374e-02 4.199721750860864744e-01
-2.524150181344676086e-02 3.752088040514320322e-02 4.208348239954619041e-01
7.554467341385145453e-03 3.688388135454062633e-02 4.159800451308773850e-01
4.093344146990079979e-02 5.173920709092673376e-02 4.428245363163237913e-01
-3.451839992651409977e-02 9.076300798106048950e-03 4.377208609577882270e-01
3.715013064139256489e-03 -1.632400915554951815e-02 4.355962521913075980e-01
-1.362100725591262537e-02 3.019693702051855569e-02 4.106648032059312947e-01
7.948535807058322578e-03 -2.165586872628409362e-02 4.375773692222454936e-01
1.523635618957738976e-02 5.541822929443719625e-02 4.359752595638707318e-01
-1.727006939454583251e-03 4.710279915153691571e-02 4.203694925978871955e-01
-9.433216527865722831e-03 3.508701126224872402e-02 4.101625174997092782e-01
5.345495827138664613e-02 3.638129362372559406e-02 4.849785118826855923e-01
3.517475002517946037e-02 1.271232099357583103e-03 4.398746682060449276e-01
8.781776376528835706e-04 -6.603191301967164389e-03 4.301475481814079904e-01
5.604720674038764228e-02 -2.252530685001769700e-03 4.996904045318152354e-01
4.791083423765547106e-02 3.376325183989759698e-02 4.997245975539412743e-01
2.849800622570345179e-02 1.398264151684705569e-03 4.358932155600465652e-01
2.086056067352724461e-02 5.728707152047064766e-02 4.361188970479517035e-01
4.693213236870155680e-02 3.823603142323154635e-03 4.492794455059387349e-01
-1.486666428875521584e-02 4.141577069200266109e-02 4.191504177646249163e-01
-7.099165891699859079e-03 2.119558122489939231e-02 4.108581020336936063e-01
1.532058341698646145e-02 -5.607769015315322222e-03 4.315736903772725008e-01
9.820382873131172294e-03 4.537571557433762309e-02 4.218706367529116430e-01
4.773714253098450960e-02 2.244651564372758187e-02 5.001322879671725730e-01
3.929458786154024080e-02 6.008039622868769497e-02 4.437141042316932182e-01
2.814702430079697726e-02 7.020939750910013336e-03 4.348929744494048344e-01
5.387580204841399545e-02 3.020637200790157739e-02 4.824105838608778174e-01
5.546941547159922603e-02 1.271221470000714719e-02 4.736150505443368908e-01
5.271386834433725022e-02 4.445662895183861985e-02 4.659544908058881330e-01
4.153248694933677626e-02 6.445151477134290763e-02 4.682588674468569079e-01
2.335209704286491522e-02 5.994064594744477614e-02 4.422443908461045625e-01
3.009196438276433294e-02 -1.201260868134306110e-02 4.380274378815017244e-01
5.400038058786373572e-03 4.629272991654395653e-02 4.187408294740014303e-01
4.782156221929963896e-02 4.285533422492603106e-02 4.990024365612160118e-01
3.092623917457779786e-02 4.312202462884144605e-02 4.354984581477048255e-01
5.003834852451383326e-03 -1.081190938032828425e-02 4.317603058131082028e-01
1.360450002094513652e-02 -6.627702991794649952e-03 4.315757215949440062e-01
9.391903774844176725e-03 -2.075684143797392606e-02 4.371254662217661235e-01
2.904176707302472127e-02 2.341369156886423733e-02 4.349038955579691001e-01
3.770785337370614106e-03 3.644973525489664506e-03 4.284461272696197254e-01
5.195289762524153004e-02 4.821897060236625399e-02 4.790003891822114945e-01
1.632978473691376609e-02 4.997827915007849869e-02 4.268091296294756476e-01
3.466279416449881412e-02 6.817765835001619867e-02 4.492937093182452490e-01
5.131514697860653160e-03 3.444220926924265735e-02 4.124547123526397518e-01
-3.174720000621042426e-02 2.892370694724272044e-03 4.353224188705981934e-01
5.446262523931310467e-02 1.592527682210341522e-02 4.647866204517628330e-01
5.191980814944027051e-02 4.880367990990566729e-02 4.751041823425712907e-01
-8.105643183642763372e-03 3.775759491241257454e-02 4.120036010511035074e-01
5.016617045571671735e-02 2.834086600856120658e-02 4.932605081846855866e-01
3.100361596302841222e-02 -2.154703568741048181e-03 4.374184175878400582e-01
1.971245351176797306e-02 7.442195779875336592e-04 4.327047243761195094e-01
3.883311923524834092e-02 5.065996928359382985e-03 4.422312670381706168e-01
2.491043540541333298e-02 1.033892138737695782e-02 4.330404418964574065e-01
-3.034519183156733114e-03 -5.000934996942507996e-03 4.298662843858840898e-01
5.172452191193131765e-02 4.957112041635916566e-02 4.759937178528267920e-01
2.283113478058786117e-02 1.687710378824816213e-02 4.317517874140120449e-01
5.088709774994215618e-02 1.525872982899640316e-02 4.542980902717853042e-01
4.994915968483847751e-02 1.525197286164151241e-03 4.551012362965745628e-01
-6.325117086635693303e-03 -1.595785726485994191e-02 4.341471683917763613e-01
1.754173542966419932e-02 -1.000120169443416071e-02 4.332252871778923820e-01
5.451496760079906079e-02 3.020167412889730729e-02 4.643565635611526243e-01
-4.152787254930553895e-02 2.601614034488477969e-03 4.426494978161821248e-01
5.518301018733859364e-02 2.818353824814092898e-02 4.725982229660859457e-01
3.884877469764819180e-02 6.931513809513669896e-03 4.419959929853199965e-01
2.383914255809368304e-02 -2.301659732807644770e-02 4.380312677679117916e-01
3.293208886508010302e-02 6.617734648976648926e-02 4.448205842193512782e-01
5.082739786497653817e-02 4.506101339295158492e-02 4.919094836053417574e-01
-3.468890702354329031e-02 2.147468887012120298e-02 4.270463387339204497e-01
-2.400982845087755446e-02 3.190164871740917146e-02 4.153822905637311602e-01
2.876511708510422899e-02 6.006187807674687185e-02 4.398524484047785510e-01
-3.289252852651769476e-02 2.657691148506672457e-02 4.224892848526393130e-01
3.863715106520016623e-02 1.608397895000002881e-02 4.410688532867230727e-01
4.737822629540915792e-02 5.872086246236755264e-02 4.676400387445041051e-01
-2.463817333441168170e-02 1.911612831023151368e-02 4.210327062172828927e-01
5.363379050524504088e-02 3.832105688086559492e-02 4.635777615337008939e-01
5.369263046642376580e-03 5.056707203984091292e-02 4.219711378050972628e-01
2.097336863852845151e-02 3.578602011783480613e-02 4.279496525318989275e-01
2.706594649152917892e-02 4.531597891464324290e-03 4.347976563885148638e-01
1.365709128139706418e-03 1.345833762387119506e-02 4.227555536891542953e-01
5.042427864415659905e-02 3.397306043809801383e-03 4.557179666453999300e-01
-2.570180570484992613e-02 1.241583861270016687e-02 4.278822368475645455e-01
5.096301299772802718e-02 -1.715983022197026253e-02 4.657122671345991227e-01
4.613721398659041684e-02 5.239271726578973581e-02 4.916037459214648853e-01
4.597159916234726251e-02 5.194456542012367700e-02 4.940289256991440281e-01
2.273867844441531533e-02 -3.542052926316970572e-03 4.334412751321291557e-01
5.698377670724494998e-02 -1.401237436757845484e-02 4.805867191729243371e-01
5.207505140272043753e-02 4.047870156337450565e-02 4.575013307739270729e-01
5.611937383527228207e-02 2.573368588751239090e-03 4.752967058917276777e-01
4.159628459736668116e-02 1.021984695335164534e-02 4.437255292846851162e-01
4.290767807522818250e-02 6.509680781596421939e-02 4.574938716117442628e-01
7.189456354513974051e-03 4.363480587612460215e-02 4.189280850863385530e-01
3.236591885716297995e-02 9.510653178801188254e-03 4.367999785842372473e-01
4.827506210255295971e-02 5.717728447777641054e-02 4.641120113408311321e-01
5.402503752116424862e-02 6.621863690012487653e-04 4.655963340946427942e-01
7.098812099793327599e-03 5.308260231504270676e-02 4.279712625354102906e-01
-4.907133615733130436e-03 1.173867551900617187e-02 4.226849510100539886e-01
1.295952759705965192e-02 -2.175283991864340738e-02 4.369008003168211030e-01
-2.070958698843503379e-04 -5.585131099175678210e-03 4.299326085337454306e-01
9.808255676473530069e-04 4.384618412333929002e-03 4.277900911929450323e-01
5.413703829064514528e-02 1.329445445116131733e-02 4.808278281316027969e-01
5.434003484365837466e-02 1.669752068272256293e-02 4.641604711557261176e-01
5.186539818899519802e-03 5.142243968563379314e-02 4.229713283010859137e-01
1.872974651749324121e-02 -1.248665061263692401e-02 4.341814255281118418e-01
-1.496895670294322300e-02 1.794255594760180584e-03 4.297309612686712188e-01
8.532307414705552276e-03 3.448125628432243545e-02 4.151002460569410135e-01
5.290498746987727652e-02 -1.527428076638127040e-02 4.690604996280355876e-01
3.675561023894750173e-02 9.555843460626779621e-04 4.411238558568071344e-01
4.160057376752610003e-02 -1.049214037114109231e-02 4.471534340233939142e-01
1.936225036732195509e-02 -2.305898920230846361e-02 4.367820683648211966e-01
-2.559917462980815933e-02 2.550149994414331253e-02 4.186330834737795881e-01
4.602129701383149418e-02 6.095506951656611688e-02 4.674677811860847298e-01
-1.793044450836815684e-02 3.743146544214464438e-02 4.143124486104450277e-01
-1.615444399156722513e-02 1.421329262635032467e-02 4.220446984781270339e-01
-6.538308087865065538e-03 1.343382752585325565e-02 4.212504167095090235e-01
1.892957512401172507e-02 1.675967217262576414e-04 4.323688454272090476e-01
5.387403286001072461e-02 3.996161492904420909e-02 4.743447656550447977e-01
5.386601831204418378e-02 2.871007009527926090e-02 4.603740044777971385e-01
5.309518178416685469e-02 4.354153235683269618e-02 4.746056039693380413e-01
5.217738820788500598e-02 -2.586718446718812552e-03 4.621128797974569657e-01
-2.834668013302326511e-02 1.902172672143868926e-02 4.230430172989722570e-01
5.199299657530924434e-02 3.307126043290881806e-02 4.893443110511730421e-01
5.073757768983235689e-02 2.446657501828573833e-02 4.904956307344237043e-01
5.129216792530263969e-02 5.119129560323505690e-02 4.714191603340108783e-01
-2.930137061228983708e-02 2.627718080897446101e-02 4.203925365780223911e-01
2.034744983155925557e-02 1.256234593938747313e-02 4.305814682572591812e-01
3.247380299796920333e-02 7.969577641905608786e-03 4.369640486882978014e-01
5.276371337337364131e-02 2.910243547225306593e-02 4.567380937060097068e-01
8.323326717760282448e-03 2.803770635068720402e-02 4.141135729372890650e-01
8.749508378195628919e-03 1.426158307472154621e-02 4.248727605101166316e-01
4.869449623045652570e-02 4.317263107650336912e-02 4.972060289373323450e-01
5.554679659841534056e-02 -8.611184862870191123e-03 4.751735961565588529e-01
-2.478366246972204048e-02 2.410414520913899128e-02 4.188658390559662492e-01
3.625691172678414953e-02 -2.601120921788837442e-02 4.471021730812949069e-01
4.857840818093999563e-02 -5.531806184647630742e-03 4.555894059075387137e-01
5.128696704621928809e-02 -2.001490399930791822e-02 4.671770234413653022e-01
4.794979085711957578e-02 2.438067326788470254e-02 4.993553415341783208e-01
4.920101428505177510e-02 2.143423952406748288e-03 5.112676468488750459e-01
5.155779376136142983e-02 1.786568520130306370e-02 4.883245568504781531e-01
4.559666598868710591e-02 1.388786082669309953e-02 4.470825673288295055e-01
-2.553590654515490790e-02 7.817124660046389020e-04 4.329491909261025673e-01
4.835129420839508890e-02 1.643897127717386039e-02 4.982473049684824074e-01
2.980142045117941535e-02 -1.192377140684388291e-02 4.378518084780987918e-01
4.165999748702361311e-02 6.519178569634241638e-02 4.563001848335287991e-01
4.913603593035944378e-02 5.504143811298646723e-03 4.527340477277552733e-01
5.255043103684015754e-02 1.670971965204392021e-02 4.852592818404698471e-01
-1.327592623976877467e-02 -8.723758653788713999e-03 4.338115951197638598e-01
5.028895602463268749e-02 3.212048189229649298e-02 4.938027569896868418e-01
1.969039328815947593e-02 -1.921462037593057656e-02 4.363263419777216878e-01
