2.412835483195211253e-02 4.906451117472516998e-02 4.300941197017399409e-01
2.283574382281661208e-02 -3.312191118682838650e-03 4.332932057243613078e-01
-2.442894538877579680e-02 1.042740569562878618e-02 4.284093485425307102e-01
5.328772858087646447e-02 7.477747094749924786e-03 4.904626027654553355e-01
3.470222986595111747e-02 3.295178554646594621e-02 4.377017649011494260e-01
-2.265481128634998578e-02 3.367958938178340633e-02 4.145229927473543241e-01
-1.620607543257647845e-02 1.569140757166877925e-02 4.206254393981635475e-01
-6.252552960260420421e-03 1.856327927377552159e-02 4.143734509831358270e-01
-1.527492293911391838e-02 1.179874968705699190e-02 4.232629191783195965e-01
5.245212240367375274e-04 1.693494546428553349e-02 4.178548234633981395e-01
5.459814643150042585e-02 1.826637998516518133e-02 4.657466252600191425e-01
-6.124344078459549069e-03 4.586833455096630402e-02 4.210638414016918962e-01
6.344920820112301407e-03 -6.541848645219772856e-03 4.304963041038724070e-01
-6.104335258732319219e-03 3.031484021280526908e-02 4.066586117858268512e-01
5.700173356844898120e-02 -2.071348910581275512e-03 4.859801219746718859e-01
3.945707040260611198e-02 4.315238047855601833e-02 4.409947115226084957e-01
4.664363200527420900e-02 5.788676707468817795e-02 4.746142994945344307e-01
2.594496396992287610e-02 4.950430626137588414e-02 4.315121912349115796e-01
2.435703736261943600e-02 1.956332172794184032e-02 4.324100882049308203e-01
2.294129258483778872e-03 -1.327707153194953270e-03 4.289861346834403788e-01
4.884653287143889133e-02 1.500838792140240033e-02 4.504874678796626508e-01
1.965042299730313663e-03 -1.564800621642888079e-02 4.347930150584972120e-01
-3.207955683036912975e-02 2.002278821848575870e-04 4.366758682146229531e-01
4.026581281307774207e-02 2.364294017088071354e-02 4.418355985396561492e-01
1.503153959442520698e-02 1.682874906971855433e-02 4.268495035064283072e-01
5.563011325071887808e-02 6.622921459589299273e-03 4.771851466145776155e-01
3.338320439304753168e-02 -4.354938132554391980e-03 4.389611237920540976e-01
4.554625537041768341e-02 6.170367579815760894e-02 4.557225666067579728e-01
1.084987897655892430e-02 -1.032663913071633910e-02 4.319979632485935195e-01
5.250070203431954352e-02 4.909129785354371736e-03 4.987262245271430472e-01
-9.472278284069688553e-03 2.224941538467316553e-03 4.285626535402398685e-01
5.028876972761663761e-02 4.569420216937580131e-02 4.927056483521077834e-01
5.140879493598528305e-02 2.833676005981274754e-03 4.578054889953557249e-01
1.976388460173669499e-03 1.405713720107416333e-02 4.219450973712832176e-01
3.813156365760491523e-02 4.852845299134327280e-03 4.415112023275502562e-01
4.867354948478844201e-02 5.556439841156673998e-02 4.744638080668180380e-01
3.659789686146826260e-02 2.092962951251207265e-02 4.389953768331850137e-01
4.914872928291805221e-02 4.537776939999656894e-02 4.952776187604099878e-01
5.293761878462963782e-02 1.806478922703223106e-02 4.833310959349274016e-01
1.674856245020788555e-03 2.683606740805866142e-02 4.090180294667709604e-01
5.598184781927765391e-02 3.279318054127905099e-03 4.793780751845801436e-01
2.811542269316424925e-02 4.879411875572459839e-02 4.331465564703682047e-01
5.502301609192458698e-02 8.214687358092259001e-03 4.684664522584104929e-01
5.006332572229141298e-02 2.471765816186296746e-02 4.921684236075461460e-01
4.365405670349388131e-03 4.871768866196042602e-02 4.192795003775241502e-01
5.452931067391761366e-02 1.194270465535117627e-02 4.651077720739316135e-01
7.620339507570853682e-03 3.215013336176038988e-02 4.120597875206518657e-01
1.278200255038346340e-02 -1.140049677548692075e-02 4.325915262243841819e-01
5.362944079747038878e-02 -3.331174677976887852e-04 5.064745258602368905e-01
4.446121745481260157e-02 9.186447165181816504e-03 4.460735218624344300e-01
-4.715043204683668637e-02 -2.098481140894437741e-03 4.439627233050098543e-01
5.277516327683820507e-02 2.373393181792506079e-02 4.568587075354580418e-01
-2.514916164883142236e-02 3.789760607096007670e-03 4.312674523955736805e-01
1.782607322233757327e-02 5.921707535763355568e-03 4.316064148388445432e-01
4.923268264814500972e-02 4.566067279794216310e-02 4.500252889949287183e-01
-3.436311635105463586e-02 1.316135125094392011e-02 4.361514868140575762e-01
5.302595475609513109e-02 -1.461192808166163811e-03 4.633807457793711615e-01
1.474388291125218464e-02 4.285156653381006625e-02 4.235815181879695746e-01
5.356900017157693872e-02 4.181922303838905841e-02 4.801756803716688005e-01
-3.214046392374649702e-02 2.298195309038895268e-02 4.235139338445008672e-01
4.507891678010354786e-02 3.959329377844954256e-02 4.460029291631478765e-01
5.454367302282003838e-02 3.196049865397778030e-03 4.669965109626866284e-01
3.582712162102223707e-02 6.783550490028932012e-02 4.461149497913627915e-01
-1.321601695208393656e-02 2.019912866196650614e-02 4.161246521695425860e-01
-1.842579429684056483e-02 2.722113309079387394e-02 4.130218116506003123e-01
1.788899420365605564e-02 1.944341752922626454e-02 4.276820120547262793e-01
4.862862340264714756e-02 4.594813880059468725e-02 4.493851697313790416e-01
4.737236387497579387e-02 5.888030970879737369e-02 4.643760702515990491e-01
5.443196823532717166e-02 1.828619440037483265e-02 4.645000658424528472e-01
5.258547986513354561e-02 2.504065484754519708e-03 4.611314311814964650e-01
5.112376750882952070e-02 3.948424247839727591e-02 4.545297757283804918e-01
-3.368243732071107832e-02 6.247587847219328305e-03 4.379407766159303383e-01
7.396895546869589229e-03 3.747856549107867613e-02 4.155223300686977650e-01
1.699588960673048543e-02 4.558354153637526884e-02 4.253976373262234323e-01
6.514810788576875025e-03 5.087444506057238469e-02 4.223322336456398762e-01
-6.134714564840801181e-03 1.505406531987673810e-02 4.193464503754164574e-01
-2.177656506995259179e-04 1.180805046305210236e-02 4.232185703925857023e-01
4.523778170632871548e-02 5.534341861815098712e-02 4.850484697218281904e-01
4.833193100985023333e-02 2.715242243652717449e-02 4.488340361707329196e-01
3.143687507822505445e-02 -1.446678650798463930e-02 4.392270383603797956e-01
2.974501697126621588e-02 5.807526829588539885e-02 4.373779007963810028e-01
4.674616022295146472e-02 3.537064773846985283e-02 5.019776734783680805e-01
3.748491578904937505e-02 1.206116808696961785e-02 4.401833711189933607e-01
1.109730611165154687e-03 1.508101844316702897e-02 4.202516628268735399e-01
2.372286957114359829e-02 5.361865802121456442e-02 4.327369036475792741e-01
4.776942845556455403e-02 5.381260197674808503e-03 5.099390773426756285e-01
4.994012392541472001e-02 4.776444004713630703e-02 4.901820603857328096e-01
-1.190591843865107871e-02 4.008906883725416731e-02 4.148586430006636627e-01
4.021667801535044884e-02 6.551379999355562422e-02 4.640595779465342408e-01
1.224110810683703629e-02 5.027789559679061993e-02 4.248368739262278759e-01
2.615347328845656072e-02 6.051799510310409275e-02 4.407357085147672882e-01
3.411925622633118355e-02 5.902510344199110581e-02 4.396414178996395639e-01
-3.372050345982759503e-03 2.929559872736239162e-02 4.067673180950643896e-01
5.188469688417171599e-02 4.860797396456851410e-02 4.779377510593076361e-01
1.671519096041819072e-02 4.282703325938551353e-02 4.245699311446927138e-01
3.376628117473119695e-02 -6.274707096377760834e-03 4.393667786512915896e-01
1.602172635835145617e-02 5.396389741781961596e-02 4.320418798837877272e-01
1.901874598173398934e-02 -6.022308154281326084e-03 4.325150213148336586e-01
2.814477828432112097e-03 -1.002919577699401023e-02 4.310450688285732967e-01
5.373106518698143874e-02 3.583806999757695178e-02 4.611642091761632423e-01
-6.741201402208692184e-03 3.031144515286613578e-02 4.069777647668612053e-01
5.151073891908593272e-02 -2.184880310701568101e-02 4.681241358897432758e-01
2.392000929798917576e-03 1.057296283668352453e-02 4.248849022044317025e-01
2.145771940180849630e-02 1.378990032080341585e-02 4.308218423349213233e-01
4.747148051326676582e-02 1.706655928639820574e-02 5.009098735407565561e-01
5.312262527164121617e-02 -1.350434036506261738e-02 4.686514799743908832e-01
4.887516909855542380e-02 1.364277500419591206e-02 4.979598943320167614e-01
3.417225528251191524e-02 3.918983039466213819e-02 4.375474718927032658e-01
3.775691840383668674e-02 6.552129934361396180e-02 4.623190539405823696e-01
1.401326611565938650e-02 -2.073796414194700385e-02 4.363676481748419711e-01
5.162815021602184390e-02 2.274298574353818270e-02 4.869953162791417767e-01
1.282911811041270722e-02 4.222130708739028904e-02 4.223999777886475737e-01
4.800075805707315624e-02 5.321701162125075379e-02 4.862557301867471149e-01
3.007281812486503614e-02 5.338798790509928505e-02 4.357104154271395635e-01
-2.523545937464907220e-03 3.053313758127103664e-02 4.065035898807683457e-01
-1.971302656133130937e-02 3.223277801500518819e-02 4.133594582304352949e-01
4.994670655844042628e-02 3.922574267896339340e-02 4.950588226626391197e-01
4.993545960113494192e-02 2.207294289798505341e-03 4.546613264902474860e-01
5.032002814254110667e-02 -3.333283393862780317e-03 5.145108926107987424e-01
-5.405253326304993063e-03 3.413374217782107894e-02 4.074565733143329371e-01
5.058963175879471058e-02 1.815641833302537866e-02 4.530415804153641313e-01
5.266202263766492364e-02 1.891505759011930313e-02 4.840983257557403552e-01
2.540182184834188089e-02 1.270354830568831001e-02 4.328549948547514847e-01
5.590549233397850565e-02 4.936277984229046553e-03 4.773172846572086847e-01
-8.150323121193611686e-03 1.641467877793209226e-02 4.172429702073590096e-01
1.854566470414814247e-02 4.366031923747090010e-02 4.256576083950317502e-01
2.045695768721749949e-02 2.391792146174750045e-04 4.327349851441433803e-01
2.740913387590853539e-02 6.187227342927131835e-02 4.425339739472983758e-01
5.287161242101537373e-02 3.414336537580416053e-02 4.576336804336292308e-01
6.398158070102948763e-03 4.785673378760910840e-02 4.194607740274126639e-01
2.255765056368424018e-02 2.188345969528496249e-02 4.306380799585591279e-01
2.599650135755831454e-02 -1.409613710936586696e-02 4.367096964759771272e-01
5.498570353223308088e-02 1.111145411765443979e-02 4.772486853600402812e-01
5.262175185678390904e-02 3.964422636296661279e-02 4.594751330474239892e-01
5.257244340051301507e-02 4.562543251184024429e-02 4.799665907355896155e-01
-3.296004519465442484e-02 -6.701267659301531239e-04 4.374832332116981304e-01
-2.088161721190019693e-02 2.896277963361486296e-02 4.140051418023293905e-01
5.744763766984020692e-02 -7.232892913680333095e-03 5.041342177301023630e-01
-2.013291563784215185e-02 4.955819946796055815e-03 4.282080644322472929e-01
-3.004796324428555404e-02 3.308758039087547620e-02 4.207579431470294673e-01
-2.453687640986970328e-02 2.319213966336142879e-02 4.188875300306025840e-01
-2.166272635515848269e-02 3.659439707535466768e-02 4.153193620797890895e-01
8.449378504133525300e-03 2.476101272245724919e-02 4.149626369009739024e-01
5.150878023464491862e-02 -1.106112540380661466e-02 4.644549322082071607e-01
1.527351907844804423e-02 4.045341408484699752e-02 4.232815120620348481e-01
5.370904608889114779e-02 1.226291553863788700e-02 4.615490837675657043e-01
4.569409081017072882e-02 3.074630407005384328e-02 5.045500790259265234e-01
3.299815654905477458e-02 4.660586230243056460e-02 4.365061318244555788e-01
-7.810885533651473756e-03 1.173662503798631254e-02 4.223461763006749470e-01
2.998775538737065774e-02 2.731289698983180303e-02 4.353134900464269985e-01
9.565541728882444306e-03 4.393866690015380688e-02 4.209131708122020865e-01
-1.693233111492643828e-02 8.836358007568548972e-03 4.252451841810064304e-01
2.547447881774773243e-02 1.450052567664053549e-02 4.328943918206129005e-01
1.310217952294822838e-02 4.321048188319383948e-02 4.227873770192348557e-01
4.662136069600221477e-02 4.205175411541824115e-02 5.011668242711838639e-01
4.719092952100693156e-02 -1.971959411919604194e-02 4.589545361046804550e-01
5.712340320109467878e-02 -1.139208969181565445e-02 4.820285102236412378e-01
4.011648664737220427e-02 -1.859223679183896402e-02 4.466851279490663407e-01
2.365996526936697819e-02 -2.447336992557279031e-02 4.381308984712910526e-01
3.873532728256726121e-02 1.317120010109027947e-03 4.424802926879978227e-01
5.078509858566915974e-02 -1.327685418495905614e-02 4.639001762452151789e-01
4.645393779863620128e-03 3.331433799471796714e-02 4.105759008212280237e-01
5.488416187490904874e-02 3.274661299213597887e-02 4.698616288831887200e-01
5.168709575609938683e-02 4.894539664709122995e-02 4.648158164696739592e-01
-9.310863026019905800e-03 2.775780173743300910e-02 4.086179688947867983e-01
4.538913605105551058e-02 2.856441747976819906e-02 5.053097719089386652e-01
-1.963402682653882236e-02 2.358632430304111530e-02 4.159132920770182706e-01
5.189456073732989783e-02 3.404356145673054224e-02 4.894382887419118644e-01
4.759586721072187748e-02 5.845504499685553329e-02 4.636384619359617543e-01
5.167536286422928088e-02 4.413196728846374012e-02 4.889569129563615668e-01
3.625854957547557794e-02 -1.368046386924499057e-02 4.421920324873667707e-01
5.708725196385156658e-02 -4.420638766288521523e-03 4.826362924941391963e-01
-9.525990314928376584e-03 -1.153763012582679354e-02 4.336217886987406289e-01
3.932662625176507748e-02 -9.197112490876475227e-03 4.441288786950310374e-01
3.146779488649360107e-02 1.015764698991531052e-02 4.359906578814503053e-01
5.338171979453869981e-02 3.630335106712599680e-02 4.600420756117430399e-01
3.084113133065231882e-02 1.637585175899501297e-02 4.354682788275561767e-01
4.767685892107832030e-02 4.779202717688951080e-02 4.968628647673761223e-01
3.438214599396934024e-02 -2.746854939858149602e-02 4.462128969261668354e-01
4.092131615351184831e-02 5.223405211547252347e-02 4.425341435763107678e-01
5.087154541424801502e-02 -2.137547195790652846e-02 4.667183105717638281e-01
4.735854297526414375e-02 1.860469186891636900e-02 5.012073410526725059e-01
5.348342423665214396e-02 4.157931376461903444e-02 4.726857912965082842e-01
7.106804399480853331e-03 2.672207424556897332e-02 4.121281001824758095e-01
4.186398551495385673e-02 3.705834690584029062e-02 4.430410607999481498e-01
4.995275069022354214e-02 4.100881001730299902e-02 4.946767201904319622e-01
7.130950707455004783e-03 -1.119419882789632163e-02 4.321640743322793243e-01
5.506220380649225199e-02 2.477915191378922063e-02 4.680773204987193625e-01
2.644439483598537768e-02 2.401335842912574389e-02 4.332618040785534141e-01
4.281734536012208464e-02 -2.153522115802674469e-02 4.524214920935304418e-01
-3.051133124627994353e-02 3.307714220787628945e-02 4.213089156393143297e-01
5.201478422954227028e-03 2.046303742670907422e-02 4.158670695138342865e-01
2.585061140147731570e-02 7.061549161389426427e-03 4.336371923629681047e-01
5.029671378494291606e-02 3.547594295606011638e-02 4.519408786296755243e-01
4.133653189376057524e-02 -1.618487801049462577e-02 4.474874426389204296e-01
4.185573840203555412e-02 5.466756138291896730e-03 4.444117545270417358e-01
-3.134311079549007700e-02 1.442869979771865471e-02 4.289862751726348788e-01
4.821550407019274676e-02 5.586272111240135618e-02 4.763415749660735443e-01
1.962022457168936806e-02 -1.647141997622107073e-03 4.322464826811533434e-01
-1.738211911208289301e-02 2.172465158088983384e-02 4.166940909052637143e-01
5.366644460330870919e-02 -1.698417844371342966e-02 4.716554473464807939e-01
4.936440513967893517e-02 2.998941631025732815e-02 4.955966754636897953e-01
2.021513923108508512e-02 -1.970971872658571628e-02 4.364082774829945444e-01
2.659861173264867207e-02 2.941526304628903563e-02 4.337793040010717860e-01
1.130972440761543289e-02 7.148508392193400618e-03 4.291528848382178962e-01
5.531508752748633129e-02 -6.344664935836126334e-03 4.725516791014170437e-01
4.661698401897742400e-02 -5.940969189118504648e-03 4.520708334607320689e-01
-2.553942500033646798e-02 2.021989844727584487e-02 4.204229499007752224e-01
-4.133547357941235595e-02 -8.008785189012039996e-04 4.408662118233576677e-01
1.511840837370836618e-02 -2.040310436441788999e-02 4.361539765651817890e-01
4.977749128664803180e-02 2.045147208519826690e-02 4.510442215038030223e-01
5.594861455605201761e-02 3.122553131984343294e-03 4.806950091179548190e-01
5.411103091311727370e-02 -1.026274222130515827e-02 4.703512057855951389e-01
2.697872199614379310e-03 2.528565940561099817e-02 4.097397249929282670e-01
-2.832108630256791743e-02 2.316294713655807011e-02 4.209361659181691251e-01
1.189152682044682628e-02 1.354994080803626801e-02 4.259503038741944136e-01
1.024570473494549640e-02 3.497445413552847243e-02 4.164611456592106076e-01
2.096776415031845892e-02 9.476378025583123005e-03 4.318238919671729126e-01
2.784000944260536098e-02 -3.396754726798536378e-03 4.354536405744875438e-01
3.188866745079407816e-02 -2.933149316854131820e-03 4.378914257360864704e-01
7.315511462248471507e-03 -1.794912354190649276e-02 4.365483037898412744e-01
5.543592676246948681e-02 1.448427109147786516e-02 4.730511474075319578e-01
-2.656119518689030803e-02 8.902644814019856218e-03 4.308053170430681256e-01
5.093729643875413021e-02 3.418239980676192162e-03 4.566869241862061557e-01
9.404574665104427009e-03 5.130274913127134441e-03 4.287433475651202808e-01
4.667714423030359938e-02 7.933377691581719113e-03 5.089787334359185955e-01
3.165353310920372004e-02 5.036138963874287056e-02 4.359597753556314070e-01
1.095199924988062359e-02 7.298242632565345514e-03 4.289714282058226247e-01
2.071062981704871117e-02 5.346395312688369261e-02 4.309374859667158275e-01
5.442970232430224126e-02 2.286266278101786731e-02 4.643061639130613982e-01
1.123985444383839016e-02 -1.639862825688973014e-02 4.353540563763091953e-01
5.480410458920617622e-02 1.029622732093918823e-02 4.790248046194579556e-01
5.159904805766105801e-02 1.835632840851164974e-02 4.877886459021600341e-01
1.807032083081530627e-02 3.118483576317697056e-02 4.253688344434864987e-01
5.434642384601509613e-02 1.251045489930220416e-03 4.989823594188967371e-01
3.897448129706899272e-02 6.450983149503002057e-02 4.468660673106637504e-01
5.418638001868238130e-02 1.589468297529835275e-02 4.631818686085437120e-01
5.562913949945254288e-02 -1.452243350010777069e-03 5.029097145782870371e-01
5.183213515552320683e-02 2.022216176374233218e-03 5.060438515220759825e-01
4.903118134865805389e-02 -4.187325314723080484e-03 4.556236735828783080e-01
4.777974552979992462e-02 4.201306986844258184e-02 4.989578281361591316e-01
-4.010433623623615301e-02 2.875216903103144667e-03 4.468054558556698863e-01
-3.865427585680846628e-02 3.931352588792253605e-03 4.434046958456243637e-01
5.498013867580556907e-02 2.680013508780200449e-03 4.919120711903351983e-01
2.751447826361638066e-02 -9.990968773178041801e-03 4.359676240785558821e-01
5.186278009981849096e-02 4.889173825705931536e-02 4.726094297475834649e-01
1.975926146060812821e-02 -2.172406436932210541e-02 4.365785550378307178e-01
3.905028095793107445e-02 -1.941704532078057308e-02 4.460538380096894517e-01
4.469701937403156022e-02 6.323467835925716818e-02 4.565962255486605281e-01
1.164502048534583716e-02 -2.028190841125505559e-02 4.366058620899530007e-01
-9.042096259344295506e-03 4.025045571972361846e-02 4.137765395156083326e-01
9.709285034122865782e-03 1.744655921184280756e-02 4.223151123861290102e-01
2.735069247186357883e-02 3.797438521331977790e-02 4.328690042054691434e-01
5.426156519116126509e-02 2.142887128522728141e-02 4.633400618715660113e-01
5.365341339794979514e-02 2.967570401929164881e-02 4.590736470114214485e-01
1.476142020229923371e-02 2.859181552016467134e-02 4.216382984881895113e-01
4.695006004331128691e-02 1.641208479697859116e-02 4.482496929155207477e-01
5.454425895204431662e-02 3.202907927007341699e-02 4.648249680637985271e-01
5.457464476979586449e-02 -7.115170486209689352e-03 4.700141127504464111e-01
2.550839218586247684e-03 1.931418182051911417e-02 4.159348056538944571e-01
9.366814946467235531e-03 1.679311779377629446e-02 4.227227602835146314e-01
4.997828759774000651e-02 4.332773506706512345e-02 4.941426214683514173e-01
4.174312207643219447e-02 1.213855097088365961e-02 4.434345974849374650e-01
4.969023330310686284e-03 3.769321561029182616e-02 4.134722047137731060e-01
1.950945224060047015e-02 -2.176185547888508098e-02 4.365434219064166510e-01
-3.313614768830085849e-03 4.093163868413133427e-03 4.273886971956483150e-01
-1.281933707143862247e-02 1.736088778727961843e-02 4.186452666310462312e-01
-1.317740012978266956e-02 3.782202299928848904e-02 4.127069783172782058e-01
5.136443413173483880e-02 4.936415405280816099e-02 4.630420708184817546e-01
5.520842730609232252e-02 -1.441057859588147335e-03 5.042768468663374470e-01
4.993324783819557550e-02 -5.391584614336945511e-03 4.584995592923015173e-01
2.956537063742377403e-02 -1.217528307684060708e-02 4.377015715038674593e-01
2.720256528597040507e-02 5.695961211783103634e-02 4.357864392262179587e-01
2.655836191923927232e-03 4.714944489717698417e-02 4.184111509694766751e-01
-1.126397998040296923e-02 2.781256022293233932e-02 4.091247519257359411e-01
3.956716397069368063e-02 6.549853829372467851e-02 4.640735796219165321e-01
5.403999981723173890e-02 5.489580259551388175e-03 4.908479236400186130e-01
4.641501192950965582e-02 5.185850907050491843e-02 4.929947718760742670e-01
-1.304442686682313890e-02 -7.646111773924922986e-04 4.299746107791873051e-01
7.682088239489684271e-03 -2.123073897552766459e-02 4.374662918384789601e-01
-6.503231207142553053e-03 3.907232261914719840e-02 4.121029207025913021e-01
-5.219205686710403150e-04 4.302378157659635105e-02 4.146589741329381740e-01
5.252328554246631781e-02 2.802352970840316093e-02 4.862176015201406520e-01
5.709575650460289864e-02 -8.693550700289667810e-03 4.828877415509561510e-01
5.376034389229438631e-02 3.653652156571173676e-02 4.831809501044349586e-01
5.203324790325240812e-02 4.820599653421142605e-02 4.696135028752553842e-01
1.443094668223935534e-02 -9.847558433298641070e-03 4.323650478470947300e-01
3.461396546507489180e-02 4.062446851661209724e-02 4.378912051474044276e-01
4.809523091137021117e-02 4.770840539386372869e-02 4.488753260619405272e-01
4.702155989886733917e-02 7.307230088348227667e-03 5.090556143302366054e-01
-2.971337928502371800e-02 3.122622822595795891e-02 4.200304400316208220e-01
-7.070689128685090155e-03 -6.511617287443195040e-03 4.310692604932548355e-01
1.035596059055302748e-02 1.819208341061061968e-02 4.221050153829620233e-01
5.687632935100046111e-02 -5.370444144963669800e-03 5.013116863904351073e-01
4.550519317093868789e-03 1.983586836801909045e-02 4.160027883695667783e-01
4.894460509442455365e-02 8.703035009486114609e-03 5.032132586390999363e-01
5.151447506541583649e-02 5.018987178441277480e-02 4.680892132404644856e-01
7.654566809824195350e-03 -1.316476191921997149e-02 4.338195275081060953e-01
9.310826433124915619e-04 -8.115089421192102706e-03 4.303974636334298443e-01
5.287385838079337874e-02 2.629294861341731349e-02 4.569516534027033838e-01
2.087946253960485873e-02 4.265228010925867924e-02 4.268796452622333204e-01
4.972442946653966162e-02 5.374855446514782004e-02 4.622797851089381904e-01
7.322680168971369696e-03 -4.445342973582392353e-03 4.300465205433385840e-01
4.645100396079168692e-02 2.648921551562818250e-03 4.488818941464424728e-01
5.194560937928888178e-02 8.420484708517328790e-03 4.579337882251424130e-01
4.936914094242023793e-02 5.367123838666720131e-02 4.576048732143387920e-01
5.616851364659272011e-02 -5.550965399166610074e-03 5.089767331074983581e-01
-3.773988008193392835e-03 -4.045240281630703427e-03 4.295361837801133231e-01
1.449116755888613280e-02 -7.674737335416822190e-04 4.305520982716248835e-01
1.867754816226660855e-02 3.526341559590450564e-02 4.249433951503087115e-01
4.444192185483339386e-02 2.291139308959368875e-02 4.453347038412188152e-01
4.825558156884653810e-02 -1.073145134406112630e-02 4.581440117957296110e-01
4.700754857799225445e-02 4.902145106784671497e-02 4.479761924652438387e-01
5.431272187623761849e-02 2.463654976520019378e-03 4.963726494883848317e-01
5.104882539614691295e-02 -6.025890110247449083e-03 4.612788291351467285e-01
5.289151049369967411e-02 1.858689458860720428e-02 4.833746415165430799e-01
-2.405679744903899825e-02 9.292675759478981681e-03 4.291017973435800603e-01
5.430846079386485170e-02 3.640847664178011728e-02 4.787288472565223163e-01
4.691706119957817639e-02 5.303330065776014346e-02 4.887156794489695422e-01
1.248020887289573271e-03 -1.627617125327585068e-02 4.349901853337734270e-01
4.115498540098728314e-02 -1.522145109544639600e-02 4.469970487320838459e-01
3.871409375842737709e-03 3.521714525498269993e-02 4.112127757247721616e-01
5.509150642012052013e-02 2.784667639577435155e-02 4.682149557211292557e-01
1.881568418718040925e-02 5.499779709335921724e-02 4.337572594638232637e-01
5.593749390325154780e-02 -1.198691505935134231e-02 4.773643172446774829e-01
4.074381286339473496e-02 2.981594855916881379e-02 4.421136869847537287e-01
3.527559265677939274e-03 1.428244451966490837e-02 4.221579207041386006e-01
2.443582371134831940e-02 4.638966179005087065e-02 4.298516165592757288e-01
4.094352868118197181e-02 -1.383927906349514958e-02 4.465293261679777470e-01
8.566149932461145089e-03 1.654645589436242598e-02 4.224624577688835259e-01
4.983386204541320058e-02 1.006550700048358844e-02 4.985595038892540742e-01
5.041520431606738573e-02 4.758576263885153784e-02 4.883703272383506655e-01
-7.966984882782942104e-03 -4.290626862566427648e-03 4.302143223220549206e-01
4.359306395532556999e-02 4.149412489236634083e-02 4.446517534461220666e-01
3.748862800667640549e-02 -3.636075644422809283e-03 4.417797885117745738e-01
1.689527278805325050e-02 -2.225811288774812158e-02 4.366596854775006697e-01
1.387114159101436074e-02 2.008176768935437950e-02 4.236786366850682217e-01
4.959576651433390826e-02 8.678363630322056405e-03 5.012764113462322424e-01
5.408355950836829518e-02 -3.476100987245114848e-03 4.661709812396704344e-01
1.377543771057903113e-02 -6.624512477303613235e-03 4.314587105245788479e-01
4.964392937774983472e-02 1.560797019887075719e-02 4.514866601796565515e-01
-1.105455416001839206e-02 9.190049008921683318e-03 4.242373176368235965e-01
4.762546441019785415e-02 5.845865259505213241e-02 4.606920255092503691e-01
4.589256247553023110e-02 6.234362648475583191e-02 4.615781077387994258e-01
-3.143123314858645156e-02 1.270526906009047940e-02 4.308136555034536297e-01
1.889236200153177753e-03 1.806666971687207607e-02 4.168859332756117975e-01
4.805208798347405247e-02 2.275800476240831191e-02 4.986753236377726162e-01
4.989094393248162673e-02 8.975415568388562387e-03 4.997789654760224631e-01
5.190175221673359179e-02 4.762748551089094479e-02 4.803126658288218720e-01
3.017843499402832544e-02 -2.112290226408726837e-02 4.403203338735313666e-01
5.024481719250722261e-02 2.163579338670955365e-02 4.913336214348435482e-01
-3.408714503664851680e-02 -5.445054578475331392e-04 4.380704111666616773e-01
2.246393495312316510e-02 4.138705651149904297e-02 4.282517833771524729e-01
5.305334077327022307e-02 2.251246356141927904e-02 4.829397684300288374e-01
5.875233551904578133e-02 -1.055612822287662657e-02 5.018763617771128116e-01
4.903988014786463123e-02 -2.064324596449527635e-02 4.629004246216862906e-01
1.320562713843241240e-02 -1.366620140361716335e-02 4.339943701452290692e-01
5.480462114802425733e-02 3.070055486554984850e-02 4.665581624899537427e-01
5.508132528071044837e-02 4.793241708724850676e-03 4.690009323533778085e-01
1.549178678934470983e-02 3.103823117161099918e-02 4.214553340824449545e-01
3.493619268889772839e-02 1.375653219739426253e-02 4.382618431124357672e-01
1.055888727434989988e-02 1.532634931374286455e-02 4.244000897725734300e-01
5.174640232260705602e-02 5.713685566991466395e-03 4.580366316523742376e-01
3.866305960383045748e-02 -9.670388800371019708e-03 4.435077469750368095e-01
-6.046286942719386603e-03 1.295675631854029813e-02 4.212905822662458832e-01
4.892539853690657664e-02 2.830637411772567863e-02 4.498393303872949556e-01
3.465771940105747545e-02 5.840173886914046264e-02 4.397390535153196112e-01
5.477506568976051732e-02 1.629453912058244358e-02 4.668578415579462959e-01
3.749259729045829187e-02 5.806576538196942666e-02 4.412439535379445443e-01
4.764775592720819214e-02 5.014450352884216450e-02 4.943618557903321498e-01
6.406952797301463179e-03 9.232087009706953923e-03 4.266247357530614237e-01
1.794062507215819433e-02 -2.197036385234653506e-04 4.318378505632279873e-01
1.501899409783924444e-02 4.408336806622379506e-02 4.240290770090367478e-01
4.500104592194311554e-02 1.472800647274715748e-02 4.461822535811617030e-01
1.390714827293698663e-02 3.168223158106566600e-02 4.194586914168298986e-01
-2.420892299861990282e-02 2.857477315707375107e-02 4.158735522055749256e-01
3.179033765976950476e-02 -9.524557829041541482e-03 4.386039687697483869e-01
4.471867783814621050e-02 5.108961913936665294e-02 4.986322652724422544e-01
5.013080410137352172e-02 5.231995466846743603e-02 4.779033941751458237e-01
4.539108620923720111e-02 4.751469898901818090e-02 4.461887076304442701e-01
4.251299461134463997e-03 3.545147139110643025e-02 4.116884399211816481e-01
5.337387895923846604e-02 6.869361204444109255e-03 4.622379699358659111e-01
3.888407189605171121e-02 3.343181409387958880e-02 4.405281229134325738e-01
2.478157715418264836e-02 8.960115704406079740e-03 4.329259116250222528e-01
-1.683817085936162306e-02 3.472659045689792390e-02 4.126797788399776956e-01
1.189227631591453782e-02 1.777793762796690130e-03 4.296832583440075015e-01
5.493083260635433368e-02 3.167164909986186494e-02 4.679155312510417386e-01
2.681446756850433544e-02 7.577095270221535089e-03 4.339845808740201427e-01
5.487152690119874443e-02 1.834419164656846818e-02 4.761103598510798007e-01
6.198421351067171610e-04 2.321552169593833065e-02 4.102559986546249204e-01
3.408909235162180858e-04 2.858440226486027094e-02 4.081478997318204183e-01
3.112716491735922214e-02 4.245430263482820321e-02 4.352818715538877004e-01
-3.188767944402895460e-02 -1.971139918576855429e-03 4.373108096818063562e-01
5.742155819675224399e-02 -8.038203145040164616e-03 5.076452412770614542e-01
3.351788514578210587e-02 -3.634425609017260823e-03 4.389857851583515158e-01
5.616542129391479711e-03 2.254372430124271243e-02 4.139243761181253811e-01
5.043725310353188579e-02 3.487204895863228044e-02 4.934052201674106186e-01
6.665860286386889044e-03 -1.175744276012284997e-02 4.325349309331985026e-01
2.171542906104071899e-02 5.393443483351404583e-02 4.318273802729530320e-01
4.121012927462107400e-02 -5.710399044642492511e-03 4.458751316367761119e-01
-1.225969158601874619e-03 1.117720412841464832e-02 4.233907313719953991e-01
3.131629116196394530e-02 6.207387660714171196e-02 4.416515053610485242e-01
3.228173677161601945e-02 -8.044713265892396853e-03 4.386884115904287618e-01
5.001542637071457881e-02 5.103556351809635655e-02 4.831003841827923306e-01
-4.130907535267537567e-02 2.368766186445511387e-03 4.478465136363388721e-01
4.956872518981386005e-02 1.943856173014309879e-02 4.935378997304353255e-01
5.530305363792599460e-02 2.303833662906001195e-02 4.706163521325852361e-01
4.451454164396816821e-02 6.255424003775322817e-02 4.692418275551632489e-01
5.127756830275728012e-02 1.099342572697574807e-02 4.934727752840935566e-01
1.755566846595250571e-02 4.875191434579390776e-02 4.263001560902154874e-01
5.227338810239412492e-02 4.596820225742240251e-02 4.634572672667771065e-01
3.627984252675016397e-02 6.554927598450503712e-02 4.618222506840609087e-01
5.187136872156643957e-02 4.871566495522014484e-02 4.672574124324207490e-01
5.405040917689760138e-02 1.211620509301864976e-02 4.630330535202397124e-01
-1.652509850180759396e-02 9.922046688454479527e-03 4.247573539007757915e-01
4.193869528285520260e-02 -1.622819923401282172e-02 4.483044815129444971e-01
-6.139967115858374624e-05 1.714517154837730609e-02 4.175448916823599754e-01
-4.369601109660440491e-02 1.504881065156603217e-03 4.446288556020500660e-01
1.733924862839615263e-03 2.418845789703208404e-02 4.100263539853060690e-01
6.283950723620273029e-04 1.308865985976016832e-02 4.223805876589694641e-01
5.083716661607023263e-02 -8.312284751265136551e-03 4.620151012473071028e-01
5.245843001473481787e-02 2.112865622008046687e-02 4.564868202835533073e-01
5.614151298645728150e-02 3.179942492691567070e-03 4.756161158457177796e-01
1.071424538216891702e-04 1.350379967562552463e-02 4.217852085278576690e-01
5.308954911479787930e-02 1.807927448165269624e-02 4.828177370719063388e-01
1.982084930829499173e-02 5.818386435750541597e-02 4.383207422895770144e-01
3.889885820077858269e-02 6.552404895099149529e-02 4.496989224975722621e-01
4.853247308677123562e-02 -3.946428607740646091e-03 4.545786918111606179e-01
5.228614402772868708e-02 -6.996206917170646328e-03 4.641291764368523642e-01
4.020421580115728089e-02 3.098554349198908917e-02 4.416061200481583016e-01
5.122644809115399489e-02 4.943135297237914727e-02 4.798525954097158652e-01
4.724235411505359195e-02 -1.131863839334940232e-02 4.561752164453091729e-01
-7.549898069440707724e-03 4.414705341145406386e-02 4.184372115245512114e-01
-1.168613309861301752e-03 1.627969791424720147e-02 4.182759994602200382e-01
2.450486308961964677e-02 5.474384556527999574e-02 4.338380637810402285e-01
-8.848710788103338748e-03 -4.006185302087512771e-03 4.302878872756391582e-01
-6.943601909714979328e-04 2.173190364145457382e-02 4.108618912295772252e-01
2.127205426706618718e-02 2.196252722064163769e-03 4.327990589264379961e-01
5.653323139919248091e-02 -7.508402748598500855e-03 4.787760641798359806e-01
-3.317234958216268986e-02 3.602323575423432150e-03 4.361038493254840720e-01
4.936949479153338038e-02 -1.306516963930398102e-02 4.609105182595452654e-01
5.317980479837152580e-02 4.295757057252767158e-02 4.711431419738086324e-01
-1.653177390961818594e-02 2.733335612898630043e-02 4.119250652246873590e-01
5.299080364726372477e-02 -2.157150823362629852e-03 5.098728338715466935e-01
5.202569459402519442e-02 1.579258001581291745e-02 4.870053437316441691e-01
-1.435252788139851007e-02 1.691769983622104512e-02 4.193266947708310655e-01
4.488910309132339987e-02 -8.974447786536219815e-03 4.512942789852910086e-01
7.927397332860366963e-03 2.821258294897775742e-02 4.127953114805556489e-01
4.851829937259566350e-02 2.443099458811394745e-02 4.489022416867040621e-01
5.375836900656839890e-02 2.430777603309576540e-02 4.600667635760285479e-01
6.649792104774182241e-03 4.369521246070189741e-02 4.178708833259470734e-01
-8.000665993765775086e-03 4.187528016222537286e-02 4.153933609239383595e-01
-2.504724262030016621e-02 -1.216265821416096394e-03 4.337098772418190307e-01
5.305826057373062149e-02 4.159403023398842297e-02 4.842457235481718580e-01
5.292874296089466329e-02 3.710114476175741666e-04 5.066996965024522792e-01
-4.169562190272776969e-02 2.325567936874949754e-03 4.473781474304054928e-01
7.991406899136538171e-04 -4.254519277503515835e-03 4.294758553600896422e-01
5.508680692913338339e-02 2.543653419479997152e-02 4.682010720930810388e-01
4.795237509715617047e-02 -2.030720464073034089e-03 4.526579537670745168e-01
5.278488419478787053e-02 2.193462595117733407e-02 4.834767353145517643e-01
5.504343631426585753e-02 3.070378743001879809e-02 4.724224162148440986e-01
1.115751287217855471e-02 1.916791833939620812e-02 4.217949403641660933e-01
1.297353669131342917e-02 4.455972785469849290e-02 4.230467293532644835e-01
5.376074179299956957e-02 -1.369001464139577191e-02 4.707971914164749139e-01
-5.842813524185516694e-04 8.630370419301394008e-03 4.254306786210257929e-01
2.231085520183733253e-02 -4.187756107021833180e-03 4.332226963101291628e-01
4.029521172432658747e-03 2.047109757482989262e-02 4.154254300048116910e-01
-2.271830906332010513e-02 2.257541803209164866e-02 4.183024961720649970e-01
5.342619338505951582e-02 -4.938009619822129534e-03 4.651967485504753808e-01
3.437514354616863499e-02 -2.063511792681595874e-02 4.429446234521209891e-01
4.551625808560726127e-02 1.097915418934070943e-02 5.079280160251615772e-01
5.018840272750426518e-02 -5.748689035969638261e-04 4.564625894080102664e-01
-2.371120270114587120e-02 2.461432284585966454e-02 4.175348526159539109e-01
4.925377427979640843e-02 4.981993196340582519e-02 4.522695411892290185e-01
-6.881918798665802653e-03 4.453846010223170421e-02 4.187527265331717485e-01
-2.793919071110727639e-02 3.525384983164381314e-02 4.192869327657627876e-01
5.165745626274924340e-02 3.060119311761948929e-02 4.543366309310749585e-01
-3.435822945582046178e-02 2.369613650028053881e-02 4.248680987233685591e-01
5.380329429031568272e-02 1.456746937702618587e-02 4.614395487403696872e-01
1.940615200123387007e-02 5.149887008434420391e-03 4.320340018997919640e-01
-1.981868429065299780e-02 -2.113428897618460558e-03 4.324129954869135872e-01
5.519228165925664509e-02 -3.030723022811833076e-03 4.696211118632652171e-01
3.309543032773788057e-02 -2.198639680582273326e-02 4.424948932655051737e-01
1.650528647711533084e-02 5.193819387170607593e-02 4.280050530123725161e-01
4.148223760300588647e-02 6.285587342297123403e-02 4.719389630927863233e-01
6.066040559032735008e-03 3.969264127130207875e-02 4.153015481589873437e-01
-4.737962281319796527e-03 1.403889600407231923e-02 4.203476587610979198e-01
4.461412715491919201e-02 6.194301291716964447e-02 4.706380930549614594e-01
5.287938357845794329e-02 2.362161310935468467e-02 4.837882832277982659e-01
2.181278788988266076e-02 -6.951975530005243681e-03 4.335399015587874105e-01
-5.499268978655626888e-03 4.405438969252802039e-02 4.167528645698759249e-01
5.444023884513615047e-02 3.634820467102004710e-02 4.769236473503509766e-01
2.694349763849893109e-02 6.050706648430453916e-02 4.407634087776717835e-01
4.196720264526881267e-02 4.851506004954574125e-02 4.428652771814790556e-01
-1.478678708674944706e-02 1.680817457240723831e-02 4.195085961437296507e-01
5.348887690381655402e-02 1.028697415734837819e-02 4.614204964312285107e-01
3.939590502130874139e-02 6.072023798032633035e-02 4.439052465901591749e-01
-2.272969313684383014e-02 3.788601320057387312e-02 4.185517713954348129e-01
5.529269603380409376e-02 1.889760211148020300e-02 4.711613222950264412e-01
5.189465654589583282e-02 6.993419709239582713e-03 4.968639847924672948e-01
