5.306272645161512480e-02 -7.542168840431167504e-03 4.656716257448376695e-01
-1.001038841120364259e-02 2.275567580842854758e-03 4.285019023684038530e-01
4.699679521245343772e-02 -3.936667616724199951e-03 4.517225973480659684e-01
1.384831106984328424e-02 1.067562022771508315e-02 4.282084822288269588e-01
5.445191476941092790e-02 3.542609513383390002e-02 4.779952660321924451e-01
3.135440298011159949e-02 -1.643593067283181941e-02 4.395095928287331977e-01
5.522988520977904076e-02 -6.146536130666212846e-04 4.692093403565326670e-01
-4.448178912617346825e-03 -7.326751829640886643e-03 4.307082859849813428e-01
5.211037967840226326e-02 2.548351762518402674e-02 4.863652540390524526e-01
4.598775688381107757e-02 6.048642160601903905e-02 4.687244928974699243e-01
4.678389426245797844e-02 -1.163570345893024001e-02 4.552191810889024692e-01
5.300057909489245406e-02 3.674853258430806069e-02 4.862743361903412165e-01
-5.887956573882941781e-03 4.163223995050919883e-03 4.270898793275852978e-01
2.648898778957585118e-02 2.317924951503724795e-02 4.332110989153826752e-01
5.450903128471235731e-02 2.689458410446827694e-02 4.643340012935800454e-01
5.634987324761468047e-02 -3.359073702456485955e-03 4.755048686396530777e-01
5.636592882296013324e-02 -3.411690297479515188e-03 4.984886865961156710e-01
5.278939566922562915e-02 4.472321218445545615e-02 4.721395717847883811e-01
-2.565697010974123463e-02 1.297260219508404068e-02 4.270234060032270795e-01
-4.120575015350386172e-02 2.612297939859352207e-03 4.423188424193735813e-01
8.951269864133965318e-03 2.435889207392260072e-02 4.159712417177177102e-01
5.118362828047504781e-02 4.011160432822040434e-02 4.546427787815681132e-01
1.103066229838817539e-02 -6.626809847319192238e-03 4.310126147674774311e-01
4.875561437635215351e-02 -1.485194696629829961e-02 4.602249223958940760e-01
-9.707780983666786101e-03 4.300727817642423234e-02 4.180821178879388089e-01
5.358212416803104922e-02 3.624055638253163153e-02 4.839035607063303934e-01
5.339117925040408330e-02 3.565108982790114039e-02 4.847074706855151183e-01
1.483905281383639599e-02 5.481751775158645590e-02 4.347055585073913431e-01
9.146302129667943301e-03 4.310634900076406456e-02 4.198409398268829751e-01
5.534605051254951058e-02 -2.924740131205769231e-03 5.064056041444390255e-01
4.020116847089504758e-02 5.828615621166808626e-03 4.429658244687783575e-01
2.327608519651105240e-02 5.078205415547194096e-02 4.304387397214536337e-01
4.873586993570692971e-02 5.618160309921900464e-02 4.635347841828729165e-01
9.594578611972097437e-03 2.480233391141647981e-02 4.162901940715679205e-01
4.580868555852137675e-02 8.267562587848028069e-03 4.473483996225025017e-01
-1.204349715215908591e-02 3.960803207589046367e-03 4.276844903189385150e-01
3.273754755242957309e-02 9.853960066232767684e-03 4.366913982373033520e-01
9.892675532125801835e-04 2.016798607893988127e-02 4.145457221271438009e-01
-4.852692633510936882e-03 3.495400188645289563e-02 4.079794650412724710e-01
4.750169976970321228e-02 2.461817909879416427e-02 5.003614395963544847e-01
1.536612177367078017e-02 3.089353822115237930e-02 4.210790504352507346e-01
-1.597653738136241980e-02 5.055118386750141399e-03 4.273385298937875110e-01
5.260281988526381569e-02 4.602358799555072988e-02 4.777791185121111339e-01
-4.930903748575502302e-03 2.781781866288094915e-02 4.065998296654810829e-01
5.641046056098317218e-02 -7.397285782923270457e-04 4.911813157360536142e-01
5.635424715337191554e-02 -4.357194455093040507e-03 5.050714147108169572e-01
2.748374766478384537e-02 6.295303518580459314e-03 4.344064663502746337e-01
2.552579270821627930e-02 5.327927719389109057e-02 4.333133108638030917e-01
4.728033918054878187e-02 4.244488332485948923e-02 4.996524544352495822e-01
5.520780651866132732e-02 1.896301405177178503e-02 4.705017905411445489e-01
1.453536847136025021e-03 1.143097938681286035e-02 4.240267198871807697e-01
1.280119573221877999e-02 7.548025813189637029e-03 4.294084448711192326e-01
1.765316863756004329e-02 1.876354835412483851e-02 4.275284893006885967e-01
-2.787207433737610984e-02 1.680471836164687885e-02 4.242335944865360808e-01
3.816283828590141119e-02 6.111437053137480646e-02 4.431146291249580815e-01
4.179887844125278890e-02 6.212587367439634939e-02 4.477732848503688801e-01
2.287479854531112786e-02 -1.199210218820325954e-02 4.350039333609192482e-01
4.769034887733557965e-02 -1.185171331913693199e-02 4.572843502010940919e-01
-1.502887992185039483e-02 -1.601533129876443404e-03 4.307955092490975413e-01
-9.007618703768809076e-03 1.040629998187093952e-02 4.233705895919539497e-01
5.004517486344468857e-02 4.955893438954749042e-02 4.860134196778370663e-01
7.236523426049768296e-03 1.400361742624548107e-02 4.240042854633819247e-01
4.379422333628928132e-02 -1.059757132700144509e-02 4.501311108688286211e-01
4.485921938768416134e-02 5.813329082799354591e-02 4.494592783863581853e-01
4.597518606022554799e-02 2.246025109165808442e-02 4.465394410289806881e-01
5.557894974589233650e-02 9.816036584930059455e-03 4.749034414593482634e-01
4.412667098680099487e-02 4.975579049236977802e-02 4.449811181240708735e-01
-4.012230284915573736e-02 2.622528745300140886e-03 4.437223989064895124e-01
5.217249284123910702e-02 3.617626849761714641e-02 4.890013240026369612e-01
4.975298157904556318e-02 5.510826989421367672e-03 4.537253111445117004e-01
-3.483390284192693087e-02 1.542762016234493216e-02 4.338443605639471512e-01
2.341199977626749751e-02 -4.861151994469616218e-03 4.336178694172720949e-01
4.900701431457415991e-02 5.329328664330127557e-02 4.819020178827163048e-01
5.164404866763123297e-02 3.157443864863695993e-02 4.894492756209642970e-01
3.982482593806319776e-02 -1.626223183350963483e-02 4.457282520269542081e-01
3.825134781908612336e-02 3.404195404348875353e-02 4.399710357293479257e-01
1.624543215084379294e-02 4.312382326956820666e-02 4.242390841189126460e-01
2.289965647562032178e-02 -1.066602580681715907e-02 4.346799000468382634e-01
2.016780471775645595e-02 5.290867041375450081e-02 4.301302999298839969e-01
-2.317023318431537388e-02 3.838025900438275795e-02 4.200793262641721593e-01
5.264535620002721433e-02 2.852156398565972029e-02 4.562132346990155907e-01
4.289502628563020281e-02 -1.294496700376299939e-04 4.461543545399292432e-01
4.733401190206932424e-02 5.793819565795688131e-02 4.721566963964600738e-01
4.998940203411539329e-02 4.764495024249865152e-02 4.900229063056998347e-01
3.944024894389828312e-02 1.175814189416267246e-03 4.429966116427234146e-01
5.082060074052761195e-02 1.901876288623137803e-02 4.533007034222610865e-01
4.173894810360773838e-02 -5.606773674319254740e-03 4.463717255363659486e-01
-1.340876495463566055e-02 2.914539511591379695e-02 4.098403969965802029e-01
-1.950571367329100416e-03 4.312718011151330660e-02 4.144917086994742150e-01
-1.620320337123739088e-02 4.497893708115136176e-03 4.278474597768321397e-01
4.798157721996280933e-02 1.499875904516888812e-02 5.003935144422952952e-01
4.710090412169241209e-02 2.416538927576589862e-02 5.017535247807770604e-01
-2.616923379624517751e-02 7.381914590322257927e-03 4.310019484063042916e-01
2.098770917985897863e-02 5.627592876336561661e-02 4.345307711995953781e-01
-3.364824175718215959e-02 8.099614921013201241e-03 4.365964080738947706e-01
-3.971192230757069827e-03 1.788661377492324709e-03 4.284560894478305348e-01
4.348044415491270770e-02 2.234511298492605769e-02 4.444473878351550833e-01
1.727398267995716025e-02 1.807721932032007456e-02 4.275104317168998413e-01
3.124110324408036973e-02 2.533907569387424188e-02 4.356398093931515003e-01
4.359741059320679235e-02 1.258858387525656035e-02 4.448440982243604402e-01
3.176642653852303211e-02 -8.224338959069531566e-03 4.383388743229418849e-01
-1.465809486844945296e-02 4.071497022539991711e-02 4.171073226841630621e-01
-3.307468778032336687e-02 -7.468977861222973053e-04 4.375620630597316651e-01
5.308452544476142954e-02 1.371315902207550196e-02 4.594749793751310429e-01
-1.792713093655062470e-04 2.117846560332399194e-02 4.119192594889918846e-01
4.922719885626456598e-02 -1.247275767418914993e-02 4.604449354832047536e-01
3.583781895050976163e-02 6.124804036195219403e-02 4.421025115082146129e-01
4.872045850862036231e-02 1.989166474782227967e-02 4.963500077218108153e-01
1.682792000607387373e-02 7.510753120207184705e-03 4.308552436194802437e-01
4.635102874917734761e-02 2.900453032591659985e-02 4.469509778807042033e-01
1.009206663377234386e-02 3.786862916121577771e-02 4.180572212341552296e-01
3.723110351526726092e-02 5.763483494694141701e-02 4.408255313743766890e-01
6.320864355611528762e-03 -2.431425286758304247e-03 4.293050635442769991e-01
5.283653156628576042e-02 4.448487664206472736e-02 4.703250685141432408e-01
4.708626988295938620e-02 2.747670017758431157e-02 5.019630863648065766e-01
3.012729195353868253e-02 2.456931846571036582e-02 4.349427975750970732e-01
5.479083647702631676e-02 2.757843548329397265e-02 4.659846003218972577e-01
1.073530783214994566e-02 1.733632762696470098e-02 4.230232757922521847e-01
3.191019998703403110e-02 4.640489426640059117e-02 4.356525597747984979e-01
-1.672460597046814684e-02 6.041575237677693049e-04 4.304830957503545941e-01
1.565629050291971608e-02 3.054313958906746881e-02 4.216745511805503610e-01
4.522025312419557241e-02 3.194540345641038587e-02 4.459435088596962471e-01
2.943019601893281934e-02 8.575290231282109085e-03 4.349044742628119242e-01
3.989630562170706773e-02 -2.164293068486092611e-02 4.474798947683889527e-01
9.197673470566790355e-03 3.834128092228314411e-02 4.174702229576140455e-01
5.602722009561362376e-02 -2.833869735765603970e-03 5.026060532613919607e-01
9.304565550478927083e-03 3.721067540526731138e-02 4.169853504884068474e-01
5.408385673432512808e-02 1.694409338960681591e-02 4.799097581378315436e-01
5.111051686455875265e-02 1.910424535199268387e-02 4.538795317296771548e-01
1.178129563606894817e-02 2.886815395459201711e-02 4.166429143597094598e-01
1.894480208730247445e-02 3.649346921954320106e-03 4.319499996529924668e-01
4.720933756670316755e-02 4.809012520282356096e-02 4.975113586580607872e-01
5.028035490474875441e-02 5.091511812515155111e-02 4.587288072093786417e-01
4.518365214610720743e-02 5.244735546659156505e-02 4.932090268729651950e-01
-1.332494122421075053e-02 -6.141970111677472893e-03 4.324341488873451600e-01
4.756165140455757834e-02 2.012035891044456487e-02 5.003172325226136197e-01
2.402655552257881855e-02 -1.067269968829451807e-03 4.337818481025663697e-01
-1.819185747829416694e-02 1.793112007653857717e-03 4.300290580073152236e-01
5.475278896925883654e-02 -1.327938515546908844e-02 4.737679290195463966e-01
5.239133003312426706e-02 4.493443439401185319e-02 4.627530450499557912e-01
3.035354458786385101e-02 4.014550295341150904e-02 4.347382138447016819e-01
3.574356484096000153e-04 4.796611146230977257e-02 4.196299284972371257e-01
1.715950849689738128e-02 -2.182611130317455364e-02 4.364642436557636396e-01
5.351865846721828857e-02 1.589349222478950163e-02 4.816981995294116192e-01
-1.523607133073260483e-02 9.609336620444592844e-03 4.246455066623316399e-01
-4.029821036903142445e-02 6.964466582557477404e-04 4.411875218294547540e-01
4.218768840622441618e-02 1.359813394456787367e-02 4.436106938697592095e-01
1.230689583420657533e-02 2.701570667031804457e-02 4.185776954145991047e-01
5.264629076829002025e-02 4.540785787141346508e-02 4.702715148279071888e-01
2.970989769608538625e-02 5.308257315322524594e-02 4.352554464249787647e-01
5.254118835615299160e-02 1.370076628536277819e-02 4.863644299663947290e-01
2.067675377585652396e-02 7.289585730119394098e-03 4.320705976131472004e-01
4.932081618135313039e-02 5.480187473016113336e-02 4.632279795604647976e-01
1.190534873883245318e-02 1.153676287915629019e-03 4.296386965218831344e-01
3.732106529809648549e-02 6.629619513504467210e-02 4.459340254719686425e-01
4.245943911919089139e-03 -9.682675197460622468e-03 4.310518914199691909e-01
1.792408223456195410e-02 -2.359311003709887306e-02 4.370296619882130251e-01
5.531249034460028469e-02 1.418324072877757969e-02 4.715935034837653861e-01
5.419740161092185399e-02 -2.863979280316343058e-03 5.089634224628989401e-01
-1.890904094614959813e-02 2.233404519468883478e-02 4.165771482123441505e-01
5.181568517006487906e-02 2.053968361061581441e-02 4.864747708033967388e-01
4.424224505130357893e-02 1.236765586636061863e-02 4.454937066283875535e-01
2.017188249092730090e-02 7.394793210678362108e-03 4.319389601829463077e-01
4.707158204548460984e-02 2.210115120116928900e-02 5.018914347737726267e-01
-4.217773640845267485e-02 2.190854750698756955e-03 4.469516844974185110e-01
4.721727245195006528e-02 4.121133464273582514e-02 4.480411229071503687e-01
4.772471346130683495e-02 2.105457936367942720e-02 4.997223070423824631e-01
5.518839569836100217e-02 1.715204178185680828e-02 4.738377551997541848e-01
4.647216769404428210e-02 5.420572659526561032e-02 4.868392797390187487e-01
4.780974516138750130e-02 1.063553368312613635e-02 5.038926573476808501e-01
5.331536833088059563e-02 6.093882599022978908e-03 4.930746846529039384e-01
5.484780902129838404e-02 2.811472193716936172e-02 4.775717252620023667e-01
5.407442436468165581e-02 2.366761042244267671e-02 4.620509249214374004e-01
-6.262378245479789142e-03 3.111431692382895728e-02 4.063179606760567442e-01
5.332569897106586437e-02 4.111423292446153566e-02 4.659102023525565350e-01
4.767950838169974365e-03 2.822518378898177319e-02 4.099028995055080671e-01
-7.889377628850514565e-03 1.585507180997103652e-02 4.181308680464931871e-01
5.355197295953329634e-02 3.920935868142721298e-02 4.639520521076744286e-01
3.834771687839637344e-02 6.412792967300887104e-02 4.455063316955849562e-01
5.403952151026337331e-02 3.713165904836875780e-02 4.810666963511737726e-01
-1.388897763236946609e-02 9.874593030052889950e-03 4.243180482335479620e-01
2.764902305362974128e-02 8.612902073147469389e-03 4.341009778297629795e-01
1.717931900482818491e-02 5.462631906411223592e-02 4.334703967593219742e-01
3.809375601113671600e-02 1.872454983949572820e-03 4.418783219579295318e-01
-6.164481202291748757e-03 1.053622596216793189e-02 4.232063085755856657e-01
4.944287194178725864e-02 5.437160459751178704e-02 4.618850996267840903e-01
4.695447678744019832e-02 5.541582493617924071e-02 4.813890843109296380e-01
5.051505680031440071e-02 1.314556254538298136e-03 4.562824269029682744e-01
4.957228146231275334e-02 3.358809040382317035e-02 4.508162058203227796e-01
-1.132114360265457434e-02 2.552575172762529265e-02 4.091508437337181836e-01
-4.159655910159126141e-02 2.596700760187671455e-03 4.427823932621630099e-01
3.943812042323802808e-02 6.428400910240558708e-02 4.477130974751586945e-01
1.218572133458269841e-02 4.266098811318438933e-02 4.219679547275139164e-01
5.892067298970767725e-02 -1.139742017628730258e-02 5.045641757925124482e-01
4.190594827994569005e-02 9.637696858675916245e-03 4.437753707144436177e-01
5.714135185393984240e-02 -9.503375800767302831e-03 4.828158354447487643e-01
4.710176239312793833e-02 5.872358396955677101e-02 4.701655589901467813e-01
5.442902920991503357e-02 -2.299766775165293462e-03 4.668115797922046117e-01
-3.236672461370184578e-02 1.583346329930508667e-02 4.285168312103613819e-01
4.283296178428736001e-02 6.109930169066595668e-02 4.483087959702677927e-01
5.454300373332914703e-02 2.868516867411150667e-02 4.787942645982359302e-01
5.713993696841673797e-02 -8.737538237263453231e-03 5.098873765239959610e-01
3.185415926346549936e-02 2.718530173851336010e-02 4.360311089104896842e-01
-2.244713669104316314e-02 2.634593702835227522e-02 4.157053021859209441e-01
5.292090351655520664e-02 -1.528375837158040679e-02 4.690476313712874656e-01
5.420136810135509770e-02 3.144836832266550974e-02 4.791517348090544304e-01
5.540718263885949235e-02 1.324477362616603704e-02 4.739647068378939343e-01
-1.754524664125862304e-03 4.196790121077011160e-02 4.137674541684131513e-01
1.548676906005653879e-03 2.541687101563469900e-02 4.089658964930064644e-01
1.514499470447651548e-02 3.498374573625395029e-02 4.210993523676524464e-01
5.363196283335600056e-02 4.881572029384217970e-03 4.942851063835757008e-01
1.794038193594503505e-02 2.301930571832099676e-02 4.268356563417698979e-01
3.627831063846983367e-02 -2.200974648079195503e-02 4.450477068155980764e-01
4.741969341669757115e-02 5.671083298168021897e-02 4.753716507693021565e-01
4.791391678576853441e-02 4.002358507152907474e-02 4.990206409864920145e-01
5.654095046311447686e-02 1.433289355166608497e-03 4.766367419620393120e-01
5.451418765958963852e-02 9.457088130029444456e-03 4.658355260442267332e-01
2.484685325647091950e-02 1.756843719206029400e-02 4.325460026880940667e-01
2.019835638486050869e-02 -4.434126363946511856e-03 4.325720548821920808e-01
3.705938699818067672e-02 6.615962110960520171e-02 4.558332002001217464e-01
5.197528561014574944e-02 4.839407333807652783e-02 4.695598971323181603e-01
5.212422069390985208e-02 -1.114758187057077361e-02 4.655077524706392467e-01
4.861346376886088033e-02 4.084891918928629240e-02 4.973793666615801135e-01
3.791549252545835247e-02 -3.355648764878231636e-03 4.421196923764338926e-01
5.359226644345032459e-02 3.989546881880898233e-02 4.817003144647446500e-01
3.985749713691135593e-02 5.886908507431606874e-02 4.431016993177026575e-01
-1.296948281294742905e-02 -9.038281611293398285e-03 4.338188863336573386e-01
3.141641013026142543e-02 5.746786295395833744e-02 4.377864635373840407e-01
-1.304597487915365103e-02 5.985349013963043446e-03 4.260259614021217889e-01
3.700633278751476463e-02 -1.358639012778961944e-03 4.412002419369814299e-01
5.132070347110658654e-02 4.913223384682819522e-02 4.620608424858517194e-01
4.673772399564134206e-02 5.178882856177190186e-02 4.923561555805036072e-01
8.290007785226967060e-03 7.620400912377678880e-03 4.279485672584892875e-01
5.442348976788143750e-02 3.300323027439815149e-02 4.778461593955207753e-01
-1.930626536136152704e-02 1.792898028084302653e-02 4.195626319954618988e-01
2.393074548867469425e-02 7.841080801362894717e-03 4.327701681619152696e-01
-9.359501968210906520e-03 -1.312990445154720714e-02 4.339203434282064009e-01
-3.918214009811612358e-02 3.115846917084497993e-03 4.466329130155015092e-01
1.764360167145452921e-02 1.930283622558737894e-02 4.273909981276015624e-01
3.366429461964533937e-02 3.052192400473848627e-02 4.369589422293927439e-01
4.605588921209399084e-02 3.306697418719382192e-02 5.034778464240183826e-01
1.431532825230246234e-03 4.081753483333815102e-02 4.134675051071696195e-01
2.900910655857133827e-02 6.279213316456189187e-02 4.434525275827380097e-01
-2.977505515950687638e-03 -4.140822541874499864e-03 4.294870097788417440e-01
1.271035143846351370e-02 2.161598168249869931e-02 4.215737902774237544e-01
-3.376876033358922058e-02 1.399505384069373200e-02 4.338089425965942492e-01
1.179907663662117454e-02 3.203758881362715749e-02 4.167051862753253233e-01
5.512199830920610361e-02 5.738529942074902489e-03 4.694792391868082837e-01
5.352628013855936784e-02 -6.642714591158112997e-03 4.660768597400048452e-01
-3.685641570647214121e-02 2.399352326949042054e-03 4.386947720738237355e-01
5.116267560426002864e-02 -6.378283076883100797e-03 4.616390842988219445e-01
5.434787979200455393e-02 1.573328483895111360e-02 4.639725005951629289e-01
5.471888695676047770e-02 1.955406454242329672e-02 4.766908410919821759e-01
1.729088225596450701e-02 2.447182757824738208e-02 4.257162172637741215e-01
5.397807215065267977e-02 -1.476773344178807131e-02 4.717316010383879044e-01
5.457543812589915611e-02 2.179626544330821522e-02 4.776030127865648622e-01
5.500083415399173448e-02 -5.078698494758252142e-03 4.702572745914238017e-01
4.544263336816108112e-02 -2.443360750505996215e-03 4.495576495795483019e-01
5.286014247596938082e-02 2.034924449029216348e-02 4.831566701307598022e-01
2.684559948842133933e-02 4.654126991233439176e-02 4.317012103992160510e-01
3.503718015349895076e-02 -7.867781414367763099e-03 4.403780993623517270e-01
4.428896104366696063e-02 2.873912262004901103e-02 4.450483382749125805e-01
-2.791462450812772986e-02 1.743749320969830915e-02 4.235875800142966940e-01
-6.750144861898434157e-04 3.344203444698870542e-02 4.073211091839137321e-01
2.353043356742559947e-03 3.897323349640312296e-02 4.125958813422472282e-01
2.019045917681263139e-02 3.896302727135577543e-02 4.261622460743351160e-01
-9.413632514325351308e-04 2.175428486751107560e-02 4.103983189815880173e-01
5.155866194433932764e-02 5.002728688170463012e-02 4.724509979485120303e-01
4.119796786531260135e-02 6.180081125707267975e-02 4.466164816677379856e-01
4.538318843697417004e-02 5.659926963065380068e-02 4.815309083015121838e-01
4.962013893015108229e-02 4.847525680726988417e-02 4.900574113479791993e-01
4.417451143666303176e-02 5.554896440867528734e-02 4.465859900084884759e-01
5.525953581638116952e-02 2.577945471515204201e-02 4.691862813818396538e-01
5.881752796629646785e-02 -1.133745158984432976e-02 5.062666277962590833e-01
4.953492726811660474e-02 5.455703097914966354e-02 4.658556869590504412e-01
9.327990818257934913e-03 -9.493886349578451248e-03 4.315313786628834358e-01
4.482399129204671373e-02 5.328686988149285847e-02 4.906690419119068558e-01
3.593666471134307483e-02 3.118684507832233596e-02 4.384243217127182790e-01
4.686944595368901928e-02 2.082714134934288489e-02 4.474868474500840465e-01
5.410086307727593469e-02 -1.255841971836767559e-02 4.713045974241288349e-01
5.505816437713668965e-02 -8.909927072854985711e-04 4.686923308161257129e-01
1.784936243636867439e-02 5.413546147480343546e-02 4.319224857509320614e-01
1.843045388719062941e-02 3.243896346304305650e-02 4.251602577655088089e-01
2.496013343965922462e-02 3.069566229152679085e-02 4.324856393409173827e-01
4.018267863148931862e-02 2.924458801262916699e-02 4.415290381233413219e-01
4.578229785785253858e-02 -1.735172668799857612e-02 4.544489151106290703e-01
-3.194745411242552735e-02 8.288665676393492179e-03 4.347192403493012058e-01
4.876626140416679550e-02 5.605296511569392987e-02 4.624511671535930790e-01
4.682863301056230942e-02 5.094688843302618009e-02 4.481015998389469845e-01
1.994152155826359532e-02 2.534048368647325716e-02 4.280155000187300107e-01
-1.527172564866553089e-03 -3.995732448247671723e-03 4.294256639846241175e-01
-1.800349857218999650e-02 1.614046946024864926e-02 4.205480548355657877e-01
4.994866091158480653e-02 3.469075443677877013e-02 4.946309078066905562e-01
4.071496319513250722e-02 -2.186544468437631727e-02 4.491565149034176252e-01
-1.840730048378996786e-02 2.428517291147961818e-02 4.144399874443774334e-01
4.936463891413246652e-02 3.831561038760671056e-02 4.961982175851240018e-01
5.332360962842863650e-02 4.293003347455686541e-02 4.801978136664996066e-01
3.563053231161987522e-02 5.309085084949256156e-02 4.388226340179435248e-01
4.398318486663539001e-02 6.439201714973058488e-02 4.655647339386650430e-01
5.084583633968949717e-02 -4.897436625039466168e-04 5.113576221062288152e-01
-2.945641771729111402e-02 1.820805216001969082e-02 4.238626080200392776e-01
-2.772522497320215745e-02 -1.872351432754854050e-03 4.350354178122018411e-01
-7.961147709976058862e-03 3.362113418213702465e-02 4.081787793490591620e-01
3.668155830421657160e-02 1.981121966036807416e-02 4.389604050010594283e-01
5.013440900003652417e-02 -1.858996271737482775e-02 4.644310858641919615e-01
1.112468280110208776e-02 4.157817019104512873e-02 4.209478958876467503e-01
-1.683768331032219068e-02 1.900867052731046100e-02 4.182559950024423712e-01
1.874932704864001095e-03 3.490349987031243773e-02 4.095022823960009495e-01
5.238759396297199000e-02 2.169395896628358716e-02 4.844074400184918416e-01
5.425141942555067320e-02 3.670267513718617619e-04 5.029729591010149159e-01
5.349581088440857890e-02 9.167401399435025355e-03 4.872483223313304190e-01
5.234050469923768462e-02 4.664462166271959864e-02 4.790150451075262383e-01
5.524001638193053176e-02 9.089009630401965328e-03 4.709545512517252508e-01
2.389722700498267058e-02 4.351274999002732735e-02 4.293201867677926553e-01
2.148874688288148968e-03 -4.581469716667715963e-03 4.295821385207776455e-01
-5.079580958020320398e-03 2.588313127988991699e-02 4.074343593882531200e-01
3.117693511499789946e-02 5.820087188803595851e-03 4.361375275919437411e-01
3.764806334385777109e-02 6.578037414545154227e-02 4.565663353699876970e-01
1.219866330348456929e-03 5.097698539522921984e-02 4.218484315220372149e-01
-3.447607139839670848e-02 1.404079580689164639e-03 4.376373764059294791e-01
1.931750713590118032e-02 2.586514830468873358e-02 4.274648983832722293e-01
2.073549237846455257e-02 5.854802964462449411e-02 4.387890040645744949e-01
3.179846014999851422e-02 -1.823100836451797824e-02 4.401747791219473016e-01
2.341637857114289151e-02 -1.637866182827390354e-02 4.364619838538412733e-01
1.991484145629417168e-02 1.839246902738277123e-02 4.292633585513847549e-01
3.162907080306570640e-02 -1.533760968752209339e-02 4.394976140955593191e-01
2.989922623599181300e-03 3.502085942950024927e-02 4.100826542823216014e-01
4.573294965539935475e-02 4.663947454854020652e-02 5.012821233537144705e-01
5.451832177247852018e-02 2.818637010008785346e-02 4.641873888026062933e-01
4.733799015634020113e-02 5.523884089926016372e-02 4.808402181842078016e-01
2.929600684101656138e-02 1.699208428856275113e-02 4.345880489808787717e-01
8.415741634509203012e-03 -1.958174001316864699e-02 4.368669460896278389e-01
1.447587691419550612e-02 4.439218092886734746e-02 4.236253479010695377e-01
5.451572130253120457e-02 2.015801501701203896e-02 4.648797853816867276e-01
-7.134247821383029979e-03 1.169002707081047768e-02 4.222677945333833116e-01
1.783955527524669696e-02 5.720433053653147491e-03 4.315408487629283085e-01
1.845033126391174352e-02 5.569309375151648006e-02 4.349959684712201846e-01
5.335911041487517020e-02 -1.280589326740124920e-02 4.690861347101257794e-01
-1.583935401988643618e-02 2.758437807235244316e-02 4.113171775722289092e-01
5.344059349063979419e-02 1.550836309992381992e-02 4.820558676280755628e-01
-1.894133033675820480e-03 2.574024064031333464e-03 4.282062408718768087e-01
1.823755340772623829e-02 -5.512533499582656510e-03 4.321413713714351013e-01
1.652687507421975177e-02 4.870026901188424101e-02 4.255958844007458053e-01
5.092375012971560311e-02 1.796243513600194117e-02 4.897937074312522787e-01
-2.824107706050937167e-02 2.082756682196901590e-02 4.218035577740274489e-01
5.152537565181818796e-02 1.629636531917845119e-02 4.883404557377907795e-01
-3.147389985195794132e-02 2.178849488192110065e-02 4.235713781398653399e-01
5.312065335824648488e-02 4.180079728100830061e-02 4.644499361104434954e-01
4.998878832211366835e-02 1.287840621972920901e-02 4.527343474551762115e-01
5.168957524663919667e-02 3.815033986845111497e-02 4.557171789682398777e-01
2.396662019896926912e-02 2.954922403840121517e-02 4.317645098493537170e-01
4.869404676093939954e-02 1.584007535400855371e-02 4.968931942943522473e-01
-8.166819655181692394e-03 1.171866329964942402e-02 4.222155035938691681e-01
4.919160286538457050e-02 5.513136768373983615e-02 4.634181818083113469e-01
-3.192663080668581288e-02 2.412116288078171647e-02 4.226184581996541012e-01
4.703005262684126914e-02 1.427469351194954154e-02 4.483969419344830953e-01
-6.375264355676462519e-03 3.312123555279595372e-02 4.072682861430974022e-01
5.152493507831840125e-02 2.193420355954237358e-02 4.542944578770352071e-01
7.796495430409637259e-03 4.108094871332151898e-02 4.174577659643267658e-01
2.245798748326106181e-02 2.874663815464924277e-02 4.306408431750569088e-01
9.162367683002766577e-05 -9.811063268184637767e-03 4.307166566911752037e-01
4.748023476569256107e-02 1.493717022711315255e-02 5.016280618426893767e-01
-2.695970082789755223e-02 1.532616159822051093e-02 4.254222324118072662e-01
3.936715177761516277e-02 1.914091524027258795e-03 4.428361454270280939e-01
-3.310591194261053999e-02 1.315196761442897523e-02 4.332369029549079098e-01
-1.213406743607684316e-02 6.935958879207029110e-03 4.250437106437122692e-01
3.367250166485933477e-02 -2.113766243823577903e-02 4.425728806644158575e-01
3.885476877255782113e-02 5.409220081799005070e-02 4.412114624390169881e-01
3.986512986283833465e-02 4.371253665494476137e-02 4.410999641671835558e-01
4.103151906856578740e-02 6.333417548287127719e-02 4.707094944506610701e-01
2.366292058297577924e-02 3.249246781871639733e-02 4.309533413994418583e-01
4.195967974318814964e-02 6.384649974395258110e-02 4.686704155802078331e-01
5.198901711150805821e-02 6.990237911187385800e-03 4.964301069778897513e-01
5.339771496400395889e-02 2.902524996899680937e-02 4.840500500004778495e-01
5.522170248331667586e-03 1.013873369737739068e-02 4.257361160553853052e-01
-2.957185037911166242e-02 7.130199555913880292e-03 4.330766256940087322e-01
4.543111845799642501e-02 5.703151323812270801e-02 4.798552747655358552e-01
-7.037273869564792707e-03 2.325876384961127891e-02 4.082508057566488491e-01
4.830487566237250119e-02 5.636879211522211747e-02 4.713826727482083867e-01
-9.278249154871180682e-03 2.039050562368448921e-02 4.122786216026023687e-01
-3.458386372084020204e-03 -1.042696085574577533e-02 4.318088395949065683e-01
-4.444843775597482477e-03 4.548137438826062307e-02 4.188251107463887846e-01
3.371308487056021153e-02 1.213321015237146458e-02 4.373477508326740204e-01
4.843473710653850572e-02 -3.603718855383290787e-03 4.541933411550083677e-01
4.011354490035699827e-02 6.308670643327561611e-02 4.463086468420278674e-01
3.247629079174958744e-02 5.491388584442024462e-02 4.374232968056926407e-01
4.379376243059549673e-02 1.957961090835698414e-02 4.447539838022618874e-01
5.422030035046427471e-02 1.249078447739798009e-02 4.809154871983798984e-01
4.796399897214748825e-02 5.687465040783050430e-02 4.563270048669412216e-01
-6.284442463962709724e-03 3.299696898933363737e-02 4.071779262615093931e-01
-3.961334541010433016e-03 1.122435414056393611e-02 4.225920618763976955e-01
5.440635517456206272e-02 3.281992092358233110e-02 4.642240107579074793e-01
4.585106405873423663e-02 3.243899412886381423e-02 5.039292818903502447e-01
5.159344014913188475e-02 -1.259074480716235525e-02 4.651192895444170583e-01
-2.884883226675941104e-02 7.563308614602530684e-03 4.324608166545081400e-01
4.902891523551451691e-02 -2.015278195469834017e-03 4.545503145956547586e-01
4.670202331923132416e-02 3.648274127956742385e-02 5.018633858723263730e-01
5.413965331333919773e-02 3.669348985010156827e-02 4.804487971757543385e-01
5.618523368303051518e-02 -3.361857395979367998e-03 5.024530072784446633e-01
5.439296850055110044e-02 3.508147246557884874e-02 4.664426249426518178e-01
4.573605819262226840e-02 3.371505912551327200e-02 4.465825356853904693e-01
9.350853714667820699e-03 8.335692011778909893e-03 4.277670667218751444e-01
5.514504954434384237e-02 1.972198786293530813e-03 4.925353453668849246e-01
4.756913362480315322e-02 9.219700465795519287e-03 5.060359979020689902e-01
5.511037206301709623e-02 2.803937092868649672e-02 4.757607737206682730e-01
4.504543229136027949e-02 3.529231755606587057e-02 5.052297918756404327e-01
4.384929061735914207e-02 6.429790018839921795e-02 4.583324560006603043e-01
5.460706849644768324e-02 3.348118204968607292e-02 4.661286546374843187e-01
5.244306858614942307e-02 -1.006778298340110962e-02 4.656647406670814671e-01
3.774533248420099130e-02 -2.360206095884452918e-02 4.468223519506971941e-01
5.673919023229528208e-02 -4.743373755481876224e-03 4.991770660109623448e-01
-6.895405719245269530e-03 3.308537198690921638e-04 4.287748547583995484e-01
4.392208273584319311e-02 1.441100177378222547e-02 4.451330431102928364e-01
4.542960744795467021e-02 5.695813092669994165e-02 4.494971405315074109e-01
5.090132227834178597e-02 4.955118181331508165e-02 4.602547134356350655e-01
2.187811054030903285e-02 -2.106626734870293768e-02 4.369338559617989559e-01
4.946457144798011019e-02 -1.870082962289034215e-02 4.631173854942441381e-01
5.291694215407997254e-02 2.951335522354042729e-02 4.566642840561040417e-01
3.485339576341355688e-02 -2.339590853279455845e-02 4.445102892367078229e-01
4.670676248473996928e-02 6.017771411190570019e-02 4.637551953958101159e-01
4.896000921658102273e-02 -7.532313695277914785e-03 4.576943468885936173e-01
7.477087867103993091e-03 -1.821097578768961223e-02 4.365877183708851694e-01
-1.161297597925681560e-02 -4.835176825885069592e-03 4.313097107010279707e-01
2.455674426550397138e-02 2.014235948452020725e-02 4.323479249450435380e-01
5.116415467202759665e-02 -1.920991062775789446e-02 4.666457041403831441e-01
2.259714531543376148e-02 5.952402967988190685e-02 4.433053831624936270e-01
5.352275963126737479e-02 3.235329468811434100e-02 4.839785268112236638e-01
5.523563268542563270e-02 2.709963763517806226e-02 4.707099927549318052e-01
3.863005894557264720e-03 2.289237741241104129e-02 4.119950070062117220e-01
3.809856979189689321e-03 3.532366754173342505e-02 4.109823912335117679e-01
4.504319411099572817e-02 5.598548136904839267e-02 4.835150495298778384e-01
4.621111712624258877e-02 -2.297569279429296715e-02 4.584199177630814970e-01
-1.331993226978809251e-02 3.098943156298814700e-02 4.097086959334437783e-01
-1.040988435231641335e-02 -5.796035027122628525e-03 4.314864742771224448e-01
2.452320457035279261e-02 4.376062282872567044e-02 4.298336363296388352e-01
2.337756636236031083e-02 -4.014048271734193402e-03 4.335027863139376825e-01
4.000056772091425267e-02 3.105161571791013875e-02 4.413065606752752390e-01
4.902658752940685510e-02 2.270669910100015648e-02 4.951427471525949864e-01
4.194041893433045343e-02 1.796623304659861371e-03 4.450267167073344021e-01
-2.601093504509593285e-02 1.734310382633667130e-02 4.227775205842476680e-01
5.618248636719468808e-02 2.772416522698853587e-03 4.781151369520337258e-01
5.129896235143989458e-02 5.058994518817898356e-02 4.666664354821480898e-01
3.990683446962048353e-02 3.982349315449327382e-02 4.413174444723834133e-01
2.513396660312192110e-02 -9.473816919782648838e-03 4.350159051097974849e-01
1.441140068867788684e-02 2.946322884229174086e-02 4.202632844339090901e-01
3.253665440311857837e-02 6.229071078066841793e-02 4.415365989685863246e-01
1.188212416203236407e-02 2.754546194644687251e-02 4.175505062148808233e-01
-1.809709300050542629e-03 4.557594725156985382e-02 4.179749807937240824e-01
-4.206492010159472439e-02 2.541718242596758756e-03 4.447450571436450395e-01
-1.804313531564616640e-03 1.921639309362823886e-02 4.148985795760208317e-01
5.628208632374946674e-02 -8.066281286861844840e-03 4.779693500019019936e-01
5.021154706803521856e-02 4.381116376220741543e-02 4.522621419851891589e-01
5.462327091331722895e-02 1.762542620929261408e-02 4.776133504758709458e-01
4.352179192212077968e-02 -1.761869930252919075e-02 4.508451505688622074e-01
3.751852219616900325e-02 6.344802197450159775e-02 4.448122724201897804e-01
4.735559821933633950e-02 2.414717243760635193e-02 5.008743273577718202e-01
4.794028284894715636e-02 -2.276120940073889098e-02 4.613482407167854293e-01
4.059087240130750812e-02 1.201518538915885906e-02 4.425133760119159265e-01
6.347352507033023755e-03 1.833366638080746736e-02 4.184504574956383061e-01
4.767604874502390580e-03 -1.593348721888269634e-02 4.355789524088068965e-01
4.111756272207290480e-02 6.456166085466104321e-02 4.675434277807600791e-01
4.589687417935336966e-02 -3.005848496855664451e-03 4.502123573492008979e-01
4.945391367586578907e-02 4.696606263747550580e-02 4.508004026384748175e-01
4.494195940875659462e-02 4.293491891517123293e-02 5.037928529671541478e-01
4.923633314950726786e-02 5.127355027795912901e-02 4.532832157174787602e-01
2.872647488939067406e-02 6.187315039051066723e-02 4.417005179041474383e-01
5.510372020206853738e-02 -5.514175722582288774e-03 4.709896158206864913e-01
3.234923923509477189e-02 -1.577677120084227053e-03 4.380094684452345288e-01
4.050432711041952044e-02 6.604410006993229054e-02 4.531968916564913519e-01
-1.339943173748098064e-02 2.389456570810951155e-02 4.111776456774149380e-01
4.206318879456507481e-02 4.658036515413770118e-02 4.427762868547215902e-01
4.491094380839558836e-02 6.206336126436724082e-02 4.685422575669502265e-01
-1.536744210192611017e-02 1.805606887899213753e-02 4.186110930524579166e-01
1.408527109487222109e-02 4.826617143364499152e-04 4.304501239994366624e-01
5.195389444743862134e-02 1.903963247515174512e-02 4.863809928218872924e-01
4.749363350263400424e-02 2.022109182875137315e-02 4.482029754860291648e-01
5.004455008168185587e-02 3.327004201330644589e-02 4.941420289096918328e-01
1.742003476498765052e-02 3.252549312757244820e-02 4.238536284032525803e-01
-3.771590560169574280e-02 -1.512148599294084027e-03 4.400181467437459526e-01
5.490709582599936217e-02 2.302794298086202271e-02 4.671492615340350207e-01
5.322544059466553443e-03 4.324841397321966402e-02 4.160786526650733230e-01
5.342978575365373017e-02 4.142366522784312471e-02 4.814138489216202577e-01
5.408922667561643499e-02 3.839156665694687387e-02 4.784580301494738008e-01
4.987555083859733507e-02 3.554153248494645867e-02 4.949688237449144657e-01
5.188233304914849353e-02 2.589142801078250095e-02 4.871135560322102376e-01
-8.233493074337313797e-03 1.081949571221763919e-02 4.230126787074343642e-01
-2.111694370381543215e-02 8.880717630024114254e-03 4.271633243218357912e-01
-8.167333305666581167e-03 -5.840219207449843554e-03 4.309681422661798544e-01
5.316856257792125506e-02 2.256553792395630392e-02 4.825319896257626584e-01
5.214747298515818447e-02 3.637118437506781793e-02 4.891031070309813100e-01
-1.857460097645280764e-02 8.646221696423683420e-03 4.255167086884421024e-01
3.325133945711105515e-02 6.731723933006474037e-02 4.455112609149561309e-01
4.812104061609616401e-02 3.569636067721583279e-03 5.112669075097948657e-01
2.242254594051705172e-02 -6.129504264157479773e-03 4.334729359028464124e-01
3.940178268954318969e-02 -9.195487930716205946e-04 4.432793333672318536e-01
5.006315640304169479e-02 2.755941544448237135e-02 4.512248186532031857e-01
5.371847808873693626e-03 5.273577449341317058e-02 4.264443403837770985e-01
4.846270136202150691e-02 2.431891180905524155e-02 4.971015152133368420e-01
5.381815286721033931e-02 1.699029051631147785e-02 4.806858562563997017e-01
4.886687438945788026e-02 5.543664548195873648e-02 4.701812755358602547e-01
