5.225726127298573748e-02 -9.587147417038010752e-03 4.651107621872833664e-01
-1.083526784362925759e-02 3.659676484850677564e-02 4.107267413292147729e-01
3.347369588787166977e-02 3.594960729318974479e-02 4.365475939313686049e-01
4.283008337907247970e-02 3.506971308647247043e-02 4.434726294281909342e-01
2.001620844723139055e-03 4.967390313783629635e-02 4.198364335008029080e-01
9.570973165984538594e-03 2.486999901357889523e-02 4.155622262029942116e-01
-1.108305642168864492e-02 2.620866459912110993e-02 4.084602753833456723e-01
4.331114689755975050e-02 1.008764847568606286e-02 4.446772043784690265e-01
5.549291596290290701e-02 -9.783223839667240865e-04 4.970322550424758345e-01
2.065209066393574808e-02 -2.361010571938725738e-02 4.368939202846536252e-01
4.859190325175167385e-02 1.659596229711126150e-02 4.966735245886181316e-01
2.918101666513660958e-02 8.322351716317594184e-03 4.346505060174960522e-01
5.425798349881613691e-02 2.398094172616280217e-02 4.630287678004830210e-01
2.839230907990572192e-02 1.256684044171549157e-02 4.340172035971008313e-01
2.144228706755542738e-02 2.316733357633435353e-02 4.291616666476385511e-01
-1.383645889948080347e-02 1.752636785614835116e-02 4.182635400213052246e-01
3.273053150960709978e-02 -2.364705339996572928e-03 4.381972036002531601e-01
-3.919356905929854973e-02 3.667065008778398749e-03 4.441637894031099654e-01
5.715549884617483756e-02 -2.319818432671927333e-03 4.870194529746448842e-01
5.079736082986562734e-02 2.104076804337800394e-02 4.527601798860054760e-01
4.118444905255815719e-02 -1.216342679083991067e-02 4.466131430883403808e-01
5.469406571093293756e-02 2.694160351471814804e-02 4.780767831841300497e-01
4.617092144692827582e-02 3.050352452659192692e-02 4.465824858950098730e-01
2.036874081081955709e-02 3.308003658357203808e-02 4.268659849106114512e-01
-6.021772412658253811e-03 8.665359030648554090e-03 4.243126728058867481e-01
4.459374570315435132e-02 1.009188481982591090e-02 4.458431024852652635e-01
-1.401841528309823517e-02 -2.449864566303847947e-03 4.307254808717809746e-01
3.296822355901120674e-03 3.524788959059560467e-02 4.099714245638287347e-01
3.334775682431174310e-02 1.465835365821314615e-02 4.367110839368644748e-01
4.876253833922518377e-02 5.591659464713127914e-02 4.612887138701768919e-01
-2.693449255405894888e-02 1.135069924918863382e-02 4.290121094622328934e-01
2.306747970435548550e-02 4.083566394133527483e-02 4.282573578436379425e-01
5.091542050812135345e-02 4.460710779837191026e-02 4.542474272032057669e-01
1.910001045029768169e-02 -4.788726811643499032e-03 4.321754185043328866e-01
1.374803904973879651e-02 5.443358348013333653e-02 4.338903427642643029e-01
1.205071696068166741e-02 -1.899813831142073070e-02 4.360387580545819763e-01
-2.948883795761199703e-02 3.735118708877675688e-03 4.335211660938237954e-01
1.303820896312712745e-02 3.305222522959150311e-02 4.179772581898656969e-01
1.505588171809631517e-02 5.540852529515576108e-02 4.354901800502223308e-01
1.081027904716133810e-02 1.245712529167999905e-02 4.257649917986250920e-01
1.690429087550427215e-02 -2.176148154169666588e-02 4.364227280686840960e-01
-1.966252020991510543e-03 1.512079527088921668e-02 4.188079070746819066e-01
4.468671079465058593e-02 2.084574762956134877e-02 4.452461142337843514e-01
2.911401078470044271e-02 5.707780446377181544e-02 4.362446890580131131e-01
4.790033800497629085e-02 -9.266920929553723596e-03 4.563603105727574438e-01
2.779563346030497137e-02 -2.221941679990893995e-02 4.393319604437184722e-01
5.115528258726444871e-02 1.672903836568162897e-02 4.541699358999316538e-01
4.552701196085420787e-02 6.235312429518229810e-02 4.635664433542450169e-01
4.121345794092829556e-02 5.749948639072747364e-02 4.435522262619015499e-01
2.746724059489238576e-02 1.608960594765182842e-02 4.335073660458139688e-01
1.103308440796354518e-02 2.303538881070467392e-02 4.188063981199216523e-01
4.084530102123908740e-02 -2.250041288365374134e-02 4.498874457427101126e-01
2.044629641951586571e-03 2.283377937079668352e-02 4.103269163942695474e-01
5.105011966869439990e-03 3.476686057670837909e-02 4.113409906732586330e-01
4.864231902433522985e-03 -9.097068298379425155e-03 4.308712788920607828e-01
4.607365872464123241e-02 5.115752782347907784e-02 4.962208771742031010e-01
-4.270459541390450586e-02 2.165051461828865383e-03 4.441471636327231076e-01
-2.576742084711033942e-02 1.899711480001262153e-03 4.322536770258139094e-01
2.830100838343038109e-03 5.195749528894479108e-02 4.237467732180464908e-01
-1.111999561579293805e-02 1.836986923584302961e-02 4.161721555948740270e-01
5.467793749448364785e-03 5.280964116684396664e-02 4.265571048552760369e-01
1.080910805032274033e-02 2.206983373269259807e-02 4.191415520758799418e-01
5.037713977116233671e-02 4.344323227746253735e-02 4.524219191670404427e-01
5.078666739453119999e-02 6.761728296946061326e-03 5.009215770321041594e-01
3.397961072574645636e-02 -3.224135776159687237e-03 4.390718128500281092e-01
4.196181251896273154e-03 3.582761305564989562e-02 4.111364595002003353e-01
3.390506489430258202e-03 4.226836669742403685e-02 4.138942905780749193e-01
3.583255376272296427e-02 4.810786543182765662e-02 4.379880094188595141e-01
4.366031412951065782e-02 3.367162749671008537e-02 4.442486862203687270e-01
5.298523666983209757e-02 1.238953018463793618e-02 4.858036800096824370e-01
3.701146149311215078e-02 6.544216264038688058e-02 4.647906988005744422e-01
1.590675021075706880e-03 3.955722237628177262e-02 4.124102283267715996e-01
1.218425088343816874e-02 2.752343759387228944e-02 4.175132910078274695e-01
-7.701966899016917528e-03 -1.562715812097635951e-02 4.340446737219323392e-01
5.159084566040920278e-02 5.898532766975949498e-03 4.574935422807070440e-01
2.752951435386281204e-02 5.988775783858376472e-02 4.390623726108577318e-01
5.046896015134685193e-02 1.536992316170471100e-02 4.911978590815030965e-01
2.308068863703070447e-02 5.579049480978911200e-03 4.326296224424895365e-01
2.307100571037912912e-02 4.638059009525898058e-02 4.281722444589969867e-01
3.491609554133050242e-02 -7.861357318487218609e-03 4.401999604151567991e-01
4.216371782615172675e-02 3.176292285637174334e-02 4.429173497418426586e-01
-4.318071029652954113e-02 1.890935727285122589e-03 4.435870959162329097e-01
4.797827150893729797e-02 3.437976486997026959e-02 4.488473715575371781e-01
4.789972396894891932e-02 5.777008335593888239e-02 4.635973267020302990e-01
4.034064846970853227e-03 -4.464721354834922350e-03 4.295966447721634718e-01
5.983921361762159843e-03 5.760680647130080219e-03 4.278666287973540983e-01
5.144773133311082020e-02 3.710967866364527773e-02 4.907245542276913453e-01
3.426373219829936118e-02 -2.550623344442351850e-02 4.450315419206745116e-01
3.655061814460397462e-02 4.615301915850736347e-02 4.383859909491119589e-01
3.468969772925342004e-02 -1.313549863035445332e-02 4.409237429719690127e-01
2.613316241746670154e-02 3.352048103514126270e-02 4.324978140323733067e-01
-1.186383108973061012e-02 1.982356067666355207e-02 4.149443472610538364e-01
5.290718775389515599e-02 2.711864540221717648e-02 4.566741400021295250e-01
5.162288574977642874e-02 -7.798291445767335101e-03 4.631658638066242228e-01
5.526748310586046542e-02 1.344185819163957671e-02 4.710536777128363495e-01
1.554846707362889427e-04 -1.548503282484260668e-02 4.342482178133974524e-01
2.849929127733483170e-02 3.651012815331772243e-02 4.332162820993458174e-01
5.226199361024409795e-02 5.599200859565993393e-03 4.980564070828780721e-01
2.058416963111521156e-02 4.481174670118000464e-04 4.326076263136801603e-01
4.568650473403848555e-02 -2.037039254560443075e-02 4.559881733796884995e-01
4.925140941551364726e-02 -1.132433064540041071e-02 4.601009145185163129e-01
-2.409049317465180445e-02 1.080707440097356670e-02 4.275825557488635020e-01
4.953490988152783880e-02 1.643782665671281867e-03 5.110350493565898322e-01
4.731743762242527490e-02 2.743876156750722339e-03 5.131827674977410547e-01
-3.145782767986002315e-02 2.303344743970412584e-02 4.225862498644921139e-01
-2.919410934416217726e-02 3.023802676298890241e-02 4.186802406483446370e-01
5.739734983861143752e-02 -6.929875776652188145e-03 4.861728640621809094e-01
-4.038073416659716808e-02 2.379501007031417561e-03 4.486872725067868051e-01
3.559254529379614340e-02 4.522912128268215259e-02 4.377784683291361945e-01
5.097897600420252251e-02 1.901978991507956643e-02 4.892668763974101775e-01
4.150589038418599219e-02 5.989305113593899194e-02 4.449758146433083206e-01
2.290974697352310407e-02 -1.812386213708302302e-02 4.367318931267745730e-01
8.645020541959390348e-03 3.317560408266818223e-02 4.129501397544206309e-01
3.853300988781251102e-02 6.549144059410878793e-02 4.483841792187078790e-01
1.698272807979609583e-02 -9.674892130834696416e-03 4.327273478055091993e-01
4.506517396117025454e-02 1.025049024556411691e-02 5.090458281778602601e-01
4.291810925282003863e-02 6.127111372152926894e-02 4.749100795572280265e-01
5.273848908743166558e-02 1.177535148561561357e-02 4.873696306607865902e-01
3.108595214640246310e-02 4.407467884311663114e-02 4.346396393984429118e-01
4.932388696652322685e-02 5.026414721076434555e-02 4.875099478467867509e-01
-3.625385343893011356e-03 1.342194401701669523e-02 4.204379947938004514e-01
3.249712546040893490e-02 -1.397823510255582699e-02 4.397714541272427224e-01
1.505663317118033362e-02 -1.474263719076650270e-02 4.340501059753949509e-01
2.125690483245421328e-02 3.531367968258371584e-03 4.323918400514327187e-01
4.542390355379487266e-02 4.449252480403781407e-02 4.458287779175517107e-01
5.548398120463501892e-02 -9.166602067697932586e-04 4.997978304298008601e-01
4.806837297366115674e-02 5.475488201831376495e-02 4.802211226477483552e-01
4.843572448663206742e-02 -1.127973703599005617e-02 4.585398650543794918e-01
1.504090783947931859e-02 5.306364983809993413e-02 4.297714490095047024e-01
1.988164271794009771e-02 -1.127422331578787490e-02 4.339151861333214732e-01
4.564686410750990603e-02 5.874351485291010033e-02 4.745440932596617367e-01
4.249256107019488277e-02 -1.095948137403805235e-02 4.482769787842404985e-01
4.891557978024431430e-02 -6.733957300787215064e-03 4.569298655824024502e-01
4.258586697651123992e-02 -3.599847074809734565e-03 4.466021058217211626e-01
5.232380762464142882e-02 4.478461195363950265e-02 4.843331629250904879e-01
-8.522941844624022656e-03 5.348410758700265430e-03 4.260705612038926948e-01
5.335705971625925859e-02 -7.948815434362540427e-03 4.662878224644042557e-01
6.889497455486446806e-03 -5.489172966617249412e-03 4.301080377411249933e-01
2.013706085267815207e-02 -1.057296884525180114e-02 4.337895296159474112e-01
4.279721834509517264e-02 4.504028544415628055e-02 4.432366379608464468e-01
4.496246831405812522e-02 4.676407804506422031e-03 4.470344593325427107e-01
5.239052005589313332e-02 1.665929193902266486e-02 4.852112623651847478e-01
1.061917885964675998e-02 2.379798619698167417e-02 4.180153646401637557e-01
5.196084330362966963e-02 1.878706842744421596e-02 4.861837367749456407e-01
5.406990956739358284e-02 3.480534251943406820e-02 4.627894719080477559e-01
5.269620750791355335e-02 4.413485666670288049e-02 4.824901712863348680e-01
8.545211880035421745e-03 4.620614159466729376e-02 4.198843274883637955e-01
-3.512591209120138891e-02 8.536349978850107240e-03 4.386762286753601581e-01
5.513715861640978294e-02 1.965347611031948664e-03 4.924501455636579039e-01
2.426252913087928453e-02 6.051357851775422680e-02 4.439787203549371841e-01
4.565566444800823326e-02 3.523174808637478950e-02 5.037778211475012480e-01
4.802723040424750067e-02 -2.154587464641426805e-03 4.526740995886756602e-01
-1.759970824604935313e-02 -2.377159167724851585e-03 4.317585518152122770e-01
4.653583490605020523e-02 8.349914578926326963e-03 5.086036201108851129e-01
1.936226512839870836e-02 5.333996550516402479e-02 4.298433786688929947e-01
2.473007377603629944e-02 -7.951121017502806726e-03 4.344414832867883325e-01
-1.934788453248939208e-02 1.590187902571168349e-02 4.209427904761369188e-01
3.706050239914022298e-02 5.391067057923352307e-02 4.396394285406000635e-01
-2.533111590049991722e-03 -1.351238498125215126e-02 4.326933521693472340e-01
3.151568408736720589e-02 -1.988725773750866371e-02 4.404368587980326821e-01
2.302728791762969837e-02 3.141988541517494460e-02 4.302772079445831843e-01
2.226313865585046597e-02 -1.185954661922503442e-02 4.347013550688630379e-01
3.256014543754907203e-02 -2.246494652831699732e-02 4.421952919134826132e-01
5.133070331900695116e-02 9.997812244087720540e-03 4.561071329106735628e-01
4.977176789635215370e-02 7.249061193786076815e-03 4.533811059626915996e-01
4.830496799394198848e-02 -1.311063931029247953e-03 4.527918993195990671e-01
5.338099704670797724e-02 3.413413772977217080e-03 4.981035788655098773e-01
3.330987347986172353e-02 3.174782656621887023e-02 4.364002677581024225e-01
4.711432111365515540e-02 2.188714132700744081e-03 4.493517763057179315e-01
8.796398486680609419e-03 4.147815534527874576e-02 4.182272097443616166e-01
5.114980813226616130e-02 4.841241498868982182e-03 5.034040788287519330e-01
-3.081504498469067252e-02 2.498100213231812736e-02 4.210827727607502347e-01
5.346544625221950203e-02 2.187590208024509791e-02 4.812677676817227468e-01
2.331484247225018222e-02 -8.663721406178562234e-03 4.342228563979119715e-01
-2.130160987337479436e-03 3.169134593919436388e-02 4.059007272936424049e-01
3.706726908243371255e-02 5.196931524724411611e-03 4.404802697127863098e-01
-1.454489684182404263e-02 2.225015823548402022e-02 4.128467155302981140e-01
5.463038495406213196e-02 8.623169482459948701e-03 4.662709560154640331e-01
-3.037510439404102550e-02 7.027275571810194174e-03 4.338645146644137807e-01
4.879862669245265544e-02 6.465286757864894748e-03 4.516411210045324642e-01
5.600886180248142165e-02 3.497364903821382955e-03 4.750689587947025116e-01
5.360198715376861961e-02 6.055645162354274247e-03 4.630998840961890739e-01
5.577671368057188911e-02 -1.439005529631200153e-02 4.769773173127919708e-01
5.524314366921181246e-02 1.485310535007988014e-02 4.706693915639391657e-01
-1.553516343028862184e-02 3.368577393313819390e-02 4.112916961095843815e-01
5.193956085601404704e-02 4.845370895348083407e-02 4.692261980569837343e-01
-2.718708010043284148e-04 1.925529739512552019e-02 4.146766152608604150e-01
4.938531694858327298e-02 5.358418690557784081e-02 4.572976621926706509e-01
3.895398608942052948e-02 7.367711835210825726e-03 4.415795070152312429e-01
-3.789507863964581419e-02 2.437733663894906585e-03 4.393454421339051952e-01
2.233017675247234851e-02 2.537516953095171959e-02 4.297724986921583334e-01
2.043126453906356568e-02 -7.290844372049981419e-03 4.330591211794855289e-01
-1.065714690064809532e-02 -1.240785783937296133e-02 4.340382071188259583e-01
-2.368755940144975577e-02 3.783886259094654952e-02 4.192539239830946896e-01
1.915625478489709280e-02 5.447685963880466442e-02 4.324062112969271898e-01
2.375368016723810802e-02 -4.705664599999581296e-03 4.335973281770328369e-01
5.484963356149744756e-02 1.948582750610326764e-02 4.753191473068856809e-01
5.153757701738433117e-02 6.970514776431071050e-04 4.588205479253890107e-01
5.165218255340528475e-02 4.957981882835327953e-02 4.723569125247770728e-01
5.237756011956549301e-02 7.351352453967360465e-03 4.590707401095472373e-01
5.402123701621504293e-02 2.614814231785336091e-02 4.809080930499850526e-01
-4.636027079359941738e-02 -1.026505430808416757e-03 4.460542153910858065e-01
5.126682273434117476e-02 2.596368937046239500e-02 4.533680377037311304e-01
5.771395965427902029e-03 -1.109934998323270847e-02 4.317793976274924006e-01
3.950201124217525561e-02 2.883502977038744988e-02 4.407041778846719771e-01
-1.017955877600028661e-02 -2.657577756675948838e-03 4.298857135902306448e-01
5.423540913694584187e-02 -3.226981919793550646e-03 4.664149035381859321e-01
2.024686801202089242e-02 1.237042911989863318e-02 4.299115918159659433e-01
4.391391114975465998e-02 -1.254627827014651725e-02 4.506582598000116735e-01
-2.119224611522506005e-02 3.179196091123981383e-02 4.133061381617052499e-01
1.689664331732111408e-03 1.416447373611830901e-02 4.211557573048889669e-01
5.565959697402815542e-02 2.661290903602556678e-03 4.728522834921449203e-01
5.487124165478566434e-02 2.568444421955216189e-02 4.771067093182402297e-01
5.501312668770423631e-02 2.987613240306313811e-02 4.750849084042301773e-01
4.579107264462614624e-02 6.020835413861894136e-02 4.703982775321873255e-01
3.035388535268792459e-02 -6.302458770280511616e-03 4.370430034863351798e-01
4.652565115549216895e-02 5.217252313906741573e-02 4.909662376601126588e-01
4.952736852011725005e-02 4.335546255711122954e-02 4.946276007029814514e-01
5.222032388506533257e-02 2.254033929912367326e-02 4.848523568356945534e-01
4.350014056089700903e-02 -1.334200774810911580e-02 4.501808733534212181e-01
3.755703449805958966e-02 6.735876940726430451e-02 4.509719350934210946e-01
5.255511828162876681e-02 2.193753884072387195e-02 4.837490663931267587e-01
1.699525690300831421e-02 2.864008872667854824e-02 4.244498623992984943e-01
3.673865308989295031e-02 2.710274152493659557e-03 4.406497750387143864e-01
3.698995161414272981e-02 -1.465485226077098413e-02 4.428121576881784427e-01
4.676515371226726975e-02 1.145425677671918149e-02 5.056257474214791436e-01
9.017591582830698782e-03 5.230187815282701796e-02 4.258051305374033757e-01
5.197205446772729109e-02 3.686504846639852839e-02 4.560008348176938231e-01
5.103252139568159595e-02 3.940112030812892990e-02 4.539443384911550083e-01
4.810972312226017428e-02 5.704264845195372580e-02 4.680839789028601872e-01
4.353007066212992437e-02 5.529844107892775695e-02 4.450913889081534736e-01
5.530735315551360554e-02 9.776672850387281566e-03 4.761599724945224654e-01
4.388736754108767818e-02 1.866966987243357662e-02 4.446909687581961368e-01
3.828550177794325798e-02 5.419410615672845544e-02 4.405333698249263574e-01
5.205272891014157272e-02 4.303491360088220613e-02 4.875572770030513481e-01
4.709443132887376759e-02 2.282513400450526114e-02 5.014910015315640068e-01
3.267573263631493030e-02 1.873647014544982045e-02 4.360473284655121962e-01
4.893792154674353467e-02 1.801563374255090583e-02 4.498354938623637667e-01
5.182363703437189995e-02 2.161268782485334036e-02 4.547750924803188322e-01
-8.655354682287452750e-03 2.099977163451027459e-02 4.105363544327103043e-01
4.634066968452382057e-02 -9.503768332614237480e-03 4.531482622720867104e-01
-1.920863177372053587e-02 2.378792011082209168e-03 4.297257174547260417e-01
-2.538004992478616953e-02 3.255988574284744697e-02 4.150865448538874070e-01
6.456856607528385639e-03 1.318337992756424444e-02 4.239395626796851890e-01
3.319654099510821032e-03 1.472126363900860824e-02 4.209239485082171828e-01
4.893028324691355013e-02 3.031643012079988236e-02 4.965721618887676825e-01
4.216569517165996706e-02 4.128171436808029948e-02 4.429743162091323017e-01
4.332038803778913427e-02 2.016809429796389413e-02 4.441386827710075980e-01
3.636533029793046629e-02 1.341022690044506001e-03 4.404453370886216579e-01
1.340034261068785357e-02 5.413201454536639007e-02 4.329520043588573897e-01
5.533643273242282862e-02 1.283611610439698222e-02 4.741426518802934198e-01
2.291283966679450931e-02 1.189465929289055396e-02 4.312856137984406590e-01
5.752139473198906311e-02 -8.521854164270538726e-03 4.862604280345486640e-01
4.198365840564621115e-02 -2.027651326160575737e-02 4.501159040508289078e-01
3.952819874570874699e-03 1.113716436408132907e-02 4.244743470037022348e-01
5.508489151606706796e-02 2.942915184480998994e-02 4.703110055716264171e-01
-3.060780460026937821e-02 2.886958656263166438e-03 4.344199101825920173e-01
5.501712137297140592e-02 3.064964345536119392e-02 4.726412939648108602e-01
-3.166736241738912078e-02 7.430958541702833292e-03 4.349191780292975262e-01
4.676242868825959687e-02 5.883617245889076475e-02 4.709985076656395542e-01
4.348702575452734892e-02 -5.544899978149708634e-04 4.466952369477743545e-01
1.640045836306071314e-02 3.871102573389821697e-03 4.310757061444817628e-01
2.469739163283162300e-02 4.793172913405032570e-02 4.296939708251105716e-01
5.204010952250764238e-02 2.282728287339518686e-02 4.550433332715899670e-01
5.479613203994956189e-02 1.068147031416706930e-02 4.782171407470023894e-01
-2.159059420618941738e-02 4.679934933983338763e-03 4.292787489769225862e-01
4.648311957153228313e-02 -1.647767708205613579e-02 4.555650589995602351e-01
-2.452516003331365810e-02 7.532584790683078194e-03 4.297802260858548662e-01
5.211992966413298012e-02 1.686351948887651955e-02 4.860994781230194572e-01
5.172578778764570090e-02 4.924591124279364268e-02 4.764787393505312552e-01
-1.630964706107660561e-02 2.847243979938722525e-02 4.111315879475295754e-01
-1.897198548448518138e-02 3.164700952228686331e-02 4.125131016939851958e-01
-1.340866118788377331e-02 3.966012858610366149e-02 4.140773323984700549e-01
-5.886802077519242768e-03 2.729474799641583987e-02 4.066217406710774251e-01
4.314541297663861824e-02 6.462582844246983482e-02 4.607428272430386662e-01
3.643884530215524276e-02 7.295421401178543361e-03 4.395509626137482639e-01
4.545557820981183106e-02 3.572456664261715320e-02 4.461498793457033818e-01
5.633062310145602741e-02 -7.397803165307783625e-03 4.777239967785790742e-01
5.221706566667067007e-02 2.491257774676358672e-02 4.856321973533270220e-01
4.844317748795556877e-02 2.221349406842432900e-02 4.969105862497358306e-01
-5.170163880492315532e-04 3.107768404410925916e-02 4.064942641800531331e-01
5.199127374173224958e-02 4.279549959591982117e-02 4.579585747053656064e-01
-2.555902327248907313e-03 2.974433042464878427e-02 4.059210603045198540e-01
4.909627231189205715e-02 -3.715144618773581504e-03 4.553747671941781872e-01
1.850489780297395401e-02 1.635019630749370845e-02 4.283913785405241148e-01
3.326188661648325079e-02 -1.995521562042797820e-02 4.417632230321851261e-01
1.936511987900425141e-02 -7.421358631060283317e-03 4.327821702880301213e-01
-3.074610015597636567e-02 2.531036577262824397e-02 4.208531029731726880e-01
3.650939594688898393e-02 4.799648725736629928e-02 4.384047941402921533e-01
-2.521086938164452534e-02 1.661167800468598549e-02 4.228552282113550165e-01
-9.501837337415532103e-03 3.246042863427493763e-02 4.077849573853287168e-01
3.287755563433693295e-02 1.014916562698385885e-02 4.365736571854800796e-01
5.043699427115019146e-02 -1.003667365493465455e-02 4.619836382142127884e-01
4.649331300277708551e-02 4.656797897377645129e-02 4.468683982495404439e-01
-2.711084749850902181e-03 2.020159266532033787e-02 4.121084139916268985e-01
4.972938172196235407e-02 4.852147261731099004e-02 4.891003232387601818e-01
3.415003869207255266e-02 -2.632939929113588956e-02 4.453765788770827627e-01
3.925627898478260824e-02 5.486477960701956896e-02 4.413212703744288090e-01
3.183907747755707757e-02 -1.639350314069090361e-02 4.397837572497761971e-01
4.921409935123079865e-02 1.100142099369181767e-02 4.514621533497720218e-01
5.025935771884070674e-02 7.403914219957717993e-03 5.013772481033602624e-01
-5.961958779779100506e-03 2.080273672948224767e-02 4.099934716167198401e-01
5.226489914614543264e-02 4.691978072087096829e-02 4.683364931188521707e-01
1.081284838051339327e-02 1.261305644671074228e-02 4.256808353848154369e-01
4.719658244041390061e-02 3.095864892174220520e-02 4.476368592501601129e-01
2.147224158323755849e-02 2.717364082422816032e-02 4.292309632624825011e-01
5.412605025275414594e-02 3.774892024837882970e-02 4.784262091647417670e-01
5.457519344651785842e-02 -1.105402462505441184e-02 4.720485507050564689e-01
3.575722068848090351e-02 4.606364817696466385e-02 4.378669725592467810e-01
4.078917629172987974e-02 -1.053856352637511963e-02 4.457751917607916670e-01
2.290490267672708885e-02 5.351607240693771750e-02 4.317970580288479909e-01
5.535038304803836795e-02 -1.131291557535032272e-02 4.754148784162369190e-01
2.074906555792228879e-02 1.283166657390908197e-02 4.301677955706388889e-01
-9.835067683283175988e-03 3.427552683263454525e-02 4.088550791789351546e-01
6.582347940378430184e-03 -2.088200547563488080e-02 4.374849995337641850e-01
-2.561649608734446748e-02 2.735455867708108668e-02 4.167397550909581749e-01
2.941955903421493781e-02 2.392635711444459842e-02 4.343751404476973166e-01
3.895177995385030317e-02 6.494424253175376527e-02 4.481782462221976515e-01
2.924569797483330888e-02 -9.694046908944948387e-03 4.367771920334418967e-01
5.149365558682791888e-02 2.620923843163246517e-02 4.880384233672926952e-01
3.425520946084820856e-02 1.949766403922814986e-02 4.370934493452457437e-01
5.327415825551751888e-02 3.748112179180096426e-02 4.600043283125546112e-01
-3.043400981883499432e-02 -1.912947366464638928e-03 4.364411387969863720e-01
4.772024403605129583e-02 -2.030833286075029234e-02 4.600093496741542443e-01
7.046662811320563227e-03 2.666157592913042176e-02 4.111903755022840445e-01
2.120712648984814444e-02 5.073536961230193376e-02 4.287840144709799128e-01
5.151771331160838463e-02 -1.595391237813153715e-02 4.663040680738710919e-01
3.472803859654632203e-02 2.326455768167796923e-02 4.373985015001337073e-01
7.066795160349878188e-03 3.353137708604950196e-02 4.119588505732770245e-01
-9.862752926628184577e-03 -1.068329593071229433e-02 4.334493862525664043e-01
4.835565378300796247e-02 5.637752913023229978e-02 4.697661254559369892e-01
5.366552338518137261e-02 4.004776301399423644e-02 4.695459442678616147e-01
-5.759579620415898257e-04 3.600289418230254862e-02 4.089501306300456496e-01
5.280474234310197912e-02 1.835038162457572342e-02 4.574628794495375628e-01
5.410375431228240523e-02 3.150306430686506537e-02 4.611488420833154689e-01
5.188157857613542173e-02 4.568884035488210427e-02 4.847518178927664456e-01
-9.206631334979934259e-03 2.481733798697744950e-02 4.081191224875128643e-01
5.338853539324822650e-02 1.674651532812309815e-02 4.593382106526274211e-01
4.816045799169804686e-03 2.195634636378341470e-02 4.131359565483737062e-01
4.913226264680545241e-02 5.487369572285371450e-02 4.710596851716153388e-01
5.455945825680220962e-02 7.108575866588169069e-03 4.843892019048534059e-01
2.073675140670499205e-03 5.094125633937235387e-02 4.215295913316535192e-01
-3.228799785552145807e-02 3.059540093257361384e-05 4.368360107922865665e-01
4.289935511451738182e-02 3.995700568540519471e-02 4.436057497132772642e-01
2.825871129501916074e-02 -6.118172001943778318e-03 4.357429653474159115e-01
4.831432150410259335e-02 4.688543870200537200e-02 4.486641840060121011e-01
5.426135867885374664e-02 3.507070609282254142e-02 4.648696272768180759e-01
5.704009695839983018e-02 -9.760535439229634305e-03 4.818851970820504094e-01
-4.589796924789423666e-02 -3.558572986739989494e-04 4.459663166884517693e-01
5.458098168355858537e-02 1.690206831500026818e-02 4.653798807946475380e-01
3.704951130664980302e-02 1.226804417815318717e-02 4.395991063600873106e-01
-2.262978057976596305e-02 2.543716505433403149e-02 4.158827170147448293e-01
5.439999653378650019e-02 2.868125590626344548e-02 4.632225204546626673e-01
5.413327579837349385e-02 3.440378671535309490e-02 4.630191692776498003e-01
-7.291490421408363364e-03 -1.027683195935574605e-02 4.327236338148742201e-01
1.685265623760399609e-02 5.563471845516142211e-02 4.352644522117360970e-01
4.298002771749023093e-02 6.475439816554666439e-02 4.619182152805194064e-01
5.136025253960543185e-02 5.070591269746113627e-02 4.718825530728784079e-01
5.310569840934643154e-02 4.120476390234889541e-02 4.836258574502420582e-01
-1.155359301450101586e-02 5.338411221317212324e-03 4.262189048880595799e-01
5.444523371844228743e-02 3.274841721387213023e-02 4.770965126592325856e-01
4.901722893267295572e-02 5.537294741689315763e-02 4.675632223607439353e-01
4.520178321641497160e-02 -2.217493056378366106e-02 4.562091830392090430e-01
-1.546205306722371262e-02 6.763349602838823228e-03 4.255683701561407406e-01
4.828445294821273603e-02 1.913965625495759465e-02 4.976089641873278624e-01
2.693148362460977968e-02 3.145513341463325452e-02 4.332422098614442385e-01
2.327758481048625497e-02 2.866267276868173647e-02 4.309524837699058031e-01
4.635436617630826067e-02 2.925816885607955553e-02 4.467407745091843685e-01
3.166308546062954893e-02 -1.691956981647491087e-02 4.397589108540099212e-01
5.293418431954882014e-02 2.416663305698114536e-02 4.834601286377576135e-01
-2.433568436376373507e-03 -2.391314723498301920e-03 4.290409310822493327e-01
1.588690929536538954e-02 2.771270983745696172e-03 4.309649429455150726e-01
4.370841561768068484e-02 4.291601778448976556e-02 4.442454360195711716e-01
3.159293073363615006e-02 3.199116364280869818e-02 4.355428429667919654e-01
5.571223907288339744e-02 4.108854243448717240e-03 4.833924898789063729e-01
5.251895212714688399e-02 -1.380087307018706792e-03 4.623272754597229084e-01
1.069984000321870868e-02 3.750726857562745875e-02 4.180192106027266208e-01
3.070606236888485637e-04 -3.788670519152906053e-03 4.292343279588183846e-01
1.513040205286947035e-02 2.030938279554145819e-03 4.307291405525686678e-01
5.905948718050098301e-02 -1.131494554479333357e-02 5.007017930787787119e-01
4.596856512784753407e-02 -1.659969086918692757e-02 4.545099507914439618e-01
5.381684316555394171e-02 3.958424682693754970e-02 4.714159038086315756e-01
5.428176970314667338e-02 2.901370566533499618e-02 4.796387233553126017e-01
4.935353115574776101e-02 5.062667261619661907e-02 4.528250120766253994e-01
-3.331055852718699944e-02 3.372002464508059433e-03 4.361311107994360614e-01
3.242725819278523269e-02 3.601827329688155749e-02 4.358078758517025530e-01
1.258930407571887643e-02 3.125906108376438203e-02 4.170633098266383065e-01
-1.610997425038025732e-02 1.032844341394355443e-02 4.240660296085779213e-01
4.667242929898535175e-02 3.627002169587772301e-02 4.474670387971610985e-01
4.536988142535264279e-02 -1.857493964215862353e-02 4.544005087678754107e-01
-1.751440900875289586e-02 1.501145204859587537e-02 4.209963108640440987e-01
4.401023939663066542e-02 3.790595771860752472e-02 4.446396512376222243e-01
4.600978775331537179e-02 5.501817347095151051e-02 4.849877470022559423e-01
5.690929944368607052e-02 -9.948640395198175747e-04 4.876477887555951130e-01
4.991899801012706500e-02 1.307234224388167769e-02 4.523843019589623982e-01
4.150240773458914456e-02 5.631340771425568520e-02 4.434748174359512962e-01
4.692143574733012579e-02 -2.226594840165569637e-03 4.507090323190395265e-01
5.108715957067996166e-02 2.604896577576206948e-02 4.891826111118280918e-01
4.448000179011614430e-02 4.273269493636630556e-02 4.449586337506708511e-01
4.939557530993213957e-02 3.417441494101733368e-02 4.957575432235669100e-01
1.213103402722680822e-02 6.688360104321214826e-03 4.292085661135696673e-01
5.103145013684625558e-02 8.511101242474809411e-03 4.968369226530749971e-01
5.540545706608487886e-02 5.562419476661776760e-03 4.716619775190051822e-01
3.629658231849835354e-03 4.896669086037121199e-02 4.190613333987897593e-01
5.204461344647375726e-02 2.032760968309034119e-02 4.554299089744076046e-01
3.892719902867766701e-02 6.457263127411555503e-02 4.466811885090345990e-01
5.205791402569351356e-02 1.659599155336340809e-02 4.560442055843850206e-01
-1.619022142268083074e-03 9.536560619937295424e-03 4.242819715097703726e-01
4.518199160722979196e-02 2.839797640237019458e-02 4.455973416241869600e-01
5.589681062118867505e-02 -8.795352768529803369e-03 4.766398201408200141e-01
5.397868819075291730e-02 -1.292588896553686917e-02 4.710611348881168503e-01
1.742525656847429549e-02 2.226306049992204245e-02 4.260875123035061662e-01
3.978093165425077710e-02 6.585446853618538710e-02 4.541624729697629759e-01
3.733331123837355797e-02 4.120716708172062620e-02 4.390954109794650284e-01
4.608365635599074445e-02 6.287824415522380410e-03 5.114441626802644913e-01
5.517934064011296991e-02 1.525630381977132778e-02 4.746867102218321754e-01
4.306886258977059290e-02 5.657375951703449285e-02 4.450457959542355457e-01
2.595285443259347236e-02 5.436622031277060091e-02 4.339217900328767308e-01
4.869011271920605649e-02 1.737228649729929617e-02 4.962981660041154153e-01
5.416882133509391684e-02 1.394297607439958821e-02 4.629430039118993534e-01
5.058599373731571119e-02 1.539528358471088133e-02 4.532094699164048168e-01
5.472294656735560148e-02 -6.316872472306641131e-03 4.699558417574298264e-01
1.044998564809136200e-04 2.831227155223031006e-02 4.073149076092193455e-01
-2.866604621369495381e-03 4.168307594383108966e-02 4.129927272226753820e-01
5.324864448082988061e-02 4.284138038138350646e-02 4.807567208243507806e-01
3.000457590836030225e-02 -7.087777374365196795e-03 4.369044621837215314e-01
3.569997231710493601e-02 6.520117065233781151e-02 4.445286465744465176e-01
-5.127646594170904779e-03 3.382704104790378724e-02 4.065287956537716463e-01
-4.820786825234777730e-03 2.687165713308831139e-02 4.064676372823708972e-01
1.494891790972348485e-02 4.530624638322241354e-02 4.237115777496994196e-01
5.857460846892767470e-02 -1.035032047185580929e-02 5.036136298480444751e-01
2.177700505640760981e-02 2.396339368608712411e-02 4.293946072739346920e-01
1.951805298779862516e-02 4.967946068852479441e-02 4.271150778334614206e-01
3.502077853011215103e-02 1.691547532514288757e-02 4.377486482262348266e-01
-5.625144250436942342e-03 3.000741440842262173e-02 4.057012458505188657e-01
1.001564655670883486e-02 2.717890044753003970e-02 4.150564178505967705e-01
5.688321374057180718e-02 -1.117369345505476140e-02 4.805193737457539860e-01
5.025309378182092612e-02 2.322780755448310835e-02 4.907860272361486143e-01
4.353321360656427219e-02 7.031063178456225214e-03 4.453291653786284887e-01
5.094619995643584476e-02 5.057478545814317328e-02 4.621515982947951295e-01
-8.795904141796123676e-03 -9.936903462901417253e-03 4.330165255432767979e-01
4.345288818613660120e-02 4.375098666792687913e-02 4.439416503223359012e-01
6.400702038134728315e-03 2.097225042742544357e-02 4.158220358262685878e-01
1.499648284196266473e-02 -1.721549145499202960e-02 4.350757330684912327e-01
-2.560645987823323422e-02 1.637050929985277292e-02 4.233044514544151982e-01
5.772361154811601197e-03 9.968362774656238171e-03 4.256417038867117975e-01
5.393189885589234900e-02 3.961334460427046872e-02 4.755877249857147770e-01
4.688794452757743397e-02 -3.247195661372264709e-03 4.510922209148253148e-01
1.490814949083837070e-02 5.403187558383978212e-02 4.324511865727548310e-01
5.444919552523398709e-02 1.336456869902274448e-02 4.783234524114468589e-01
3.996261967824412537e-02 -3.910997388712667347e-03 4.440652287124218778e-01
4.858779956760489460e-02 5.064030429788314580e-02 4.900900003061280930e-01
4.003703304615707087e-02 6.114127075285467894e-02 4.443998132685049174e-01
3.429284780916876108e-02 1.391415332217404294e-02 4.374753222955786724e-01
4.511433966224246556e-02 6.336942212026794308e-02 4.612393882688194946e-01
3.086035133629348032e-02 1.021801219075404131e-02 4.353416634533730512e-01
5.053355356449033137e-02 4.949421530561781690e-02 4.581267298490463435e-01
-3.089032988249749284e-02 2.175670735313466574e-03 4.349345631683885216e-01
-9.954681806702326413e-03 -5.304814294330252589e-03 4.310577631341350746e-01
-1.082451761916676698e-02 3.411705337408862948e-02 4.091485490320726504e-01
4.610785739870666006e-02 2.229657562131221599e-02 5.041178430544284161e-01
-2.783169804001810535e-02 3.221831233870137146e-02 4.177174829892436603e-01
5.820970223852778291e-02 -9.445615927222672861e-03 5.044000426558841177e-01
5.258629665945702136e-02 4.581617777444588202e-02 4.765495954652006483e-01
5.541881139518672894e-02 6.434899587381167144e-03 4.793558059062375531e-01
5.653821603327561368e-02 -5.290280554874200042e-03 5.064038504121326500e-01
1.902772500715914361e-02 4.242644275294537443e-02 4.250381004233200199e-01
3.244746206128678451e-02 1.266987095849790232e-02 4.362132252590938952e-01
1.832866649356838795e-02 2.562924840857884815e-02 4.262770068796941647e-01
7.942174273774867121e-03 -1.691868365135496682e-02 4.360746889486851741e-01
3.796322021870240232e-02 3.643568202917341764e-02 4.395288646273581845e-01
3.511654493327139720e-02 1.508859080452336354e-02 4.379833027155499159e-01
5.494146286814584335e-02 2.859271597769738604e-02 4.765844437337468653e-01
5.148720335811209775e-02 2.340359542141993814e-03 4.579468952511349111e-01
5.229428205722878864e-02 7.798927747921209110e-03 4.587023568489152492e-01
5.345553658676964470e-02 2.287221012640236820e-02 4.816234356330266753e-01
2.450462030073874420e-02 5.904857073355868069e-02 4.373191815972045093e-01
1.045222090155253393e-02 6.557901087147831147e-03 4.285723994877648213e-01
3.309658098976282076e-02 -1.727619060873474346e-02 4.408656006679713690e-01
3.683800934189612741e-02 -2.970581063314516393e-02 4.493288693465031236e-01
5.531516936254977229e-02 3.211142312020552787e-03 4.702982955361429407e-01
3.673321550569409039e-02 3.402391763753787046e-04 4.407620319444260359e-01
7.169514576834996530e-03 3.242022631788956527e-02 4.110760798064708177e-01
4.059831924227253613e-02 6.508146562802930024e-02 4.660841157225752984e-01
4.552808639981442002e-02 3.557830595226088577e-02 5.039921986181461477e-01
4.832875376909998022e-02 5.342965506446949349e-03 5.088404892214015707e-01
1.166094278013665719e-02 5.385519986095581996e-02 4.314010298110851904e-01
1.127446801107755137e-02 6.970556941199360784e-03 4.288611093071867941e-01
8.891517135930380924e-04 3.497378717685670213e-03 4.275738380029239227e-01
-3.979876342039262438e-02 -1.236162088834671241e-03 4.404619364489358868e-01
5.335998985399255379e-02 2.095920027414450732e-03 4.633729102299870561e-01
1.663118310690076332e-02 -6.513475502313363120e-03 4.317717629797301337e-01
-1.860940690399327108e-02 2.751554117546540015e-02 4.125414584442581023e-01
4.598900238527419554e-02 5.194670984257486468e-02 4.934276122013685484e-01
-4.783246158794661473e-02 -3.101545134318536151e-03 4.444958768043016928e-01
1.361612641561797503e-02 -2.044384984630635491e-02 4.362511746889732867e-01
-1.310648078616225704e-02 3.206248341394657420e-02 4.091332734751473299e-01
5.413340301421151052e-02 3.744736888261816776e-02 4.702286139220567818e-01
4.402055360490168129e-02 3.275711538807583867e-02 4.445674391669280356e-01
3.340402841637179349e-02 6.382074356938419180e-02 4.429297731401242166e-01
