-2.533153779613087075e-02 1.545921280346263492e-02 4.238570412225640682e-01
1.133296214708657754e-02 -9.034502831890330737e-03 4.314725633371785385e-01
5.120696179904117573e-02 2.934255141170330483e-02 4.528893809596047926e-01
5.272218749025716494e-02 4.404129480528283513e-02 4.646873796783906885e-01
-4.415945730611957332e-03 -5.134942123790014676e-03 4.295351598312735497e-01
2.240010340319016982e-02 8.978315823642443044e-03 4.318660445739953002e-01
4.745743316007147022e-02 2.799700709460326009e-02 5.004216658804515605e-01
1.091355166656591755e-02 -1.839748182320446058e-03 4.295392502486330422e-01
2.218267624663714313e-03 -1.540722204559953276e-02 4.345120948243195724e-01
4.814121659506909179e-02 1.289967716729204135e-02 5.008463249222866454e-01
4.351344193686958878e-02 8.243787376692238850e-03 4.449587042208498211e-01
1.463541724555070950e-02 6.058176851043911744e-03 4.300098320483246028e-01
5.643169480243523384e-02 -1.087337709729937867e-02 4.786690680724162705e-01
5.016662228308047672e-02 5.055716488074310511e-02 4.823563139369015929e-01
2.886366532305686614e-02 2.599567940533379848e-02 4.339365093697775677e-01
2.567545893482766576e-03 3.929589591411727922e-02 4.118631814824037507e-01
4.767450883888912222e-02 3.162601771696465364e-02 4.993494487759347344e-01
3.264690883925173981e-02 -1.632623036343347836e-02 4.402804950500047165e-01
5.378002733769287474e-02 3.836248212111931233e-02 4.652897192048524588e-01
7.332354135876628654e-03 4.199053417354828982e-02 4.165024836849962053e-01
5.242335769513753810e-03 1.166606237344876978e-02 4.241324057867326136e-01
2.011538649230466824e-02 3.164813628904562109e-02 4.266440851594341943e-01
2.332297823179512591e-02 4.988114577532395261e-02 4.291654018018218331e-01
-1.978167044935259453e-02 3.418063278312456245e-03 4.290356789843304264e-01
3.636362847661378517e-02 5.299903220165409073e-02 4.386556486670057931e-01
-2.211366715031430532e-03 -2.681699089471960718e-03 4.289596326878071797e-01
5.431742888373259498e-02 3.721105239476416721e-02 4.760263885185110899e-01
5.732358123731230021e-02 -2.960951910644975520e-03 4.879236499669533100e-01
-2.013748309322986596e-02 5.556197974374426328e-03 4.273849202474053199e-01
1.957243846634112300e-02 3.060975984057014154e-02 4.264648666060657511e-01
5.194955577083405079e-02 4.825932461129812945e-02 4.753378601803048276e-01
-3.006405478422868524e-02 2.751429318064353355e-02 4.188472841187870777e-01
4.711145804117036762e-02 1.823450844392867504e-02 5.013595385850930786e-01
2.646563142814702813e-02 4.147044814999002738e-02 4.309333230650289615e-01
5.096089764491480018e-02 5.115911078714086013e-02 4.656488852847794346e-01
4.173795629821577813e-02 3.607002618538535099e-02 4.422174343323417300e-01
-1.394658658448776761e-02 1.314570321249504403e-02 4.212970835707581241e-01
5.306223800667135559e-02 2.944197551538521584e-02 4.845089111912960766e-01
2.142187546265687803e-02 1.933479427137959131e-02 4.295912229621408618e-01
-2.892692648395293539e-02 1.015197310909942557e-02 4.311589938494508889e-01
-3.416923637260467495e-02 8.422010820413772247e-03 4.371012852962817830e-01
-8.745852579400151261e-03 1.470233294338837808e-02 4.187485459809689448e-01
-1.045264954621649700e-02 -1.161666974087425912e-02 4.337654325978170800e-01
4.844167868388760817e-02 1.287996061577409944e-02 4.996601336540072991e-01
3.612189565015899023e-02 3.180558832204321423e-02 4.379884011484252437e-01
2.343847080797877708e-02 4.176526778047113392e-02 4.281540006155955536e-01
5.339399021075720564e-02 6.880292417039515426e-03 4.908890969254186554e-01
5.105871227785206690e-02 -4.212911392442809759e-03 4.600378344810151510e-01
2.447100772187430981e-02 2.293602949888572454e-02 4.315215801479435065e-01
2.315574414188100935e-02 -1.090208251202460545e-02 4.346211849478549549e-01
-3.104027697575355987e-02 -1.452772486257345765e-03 4.365994211401182934e-01
3.503062107837746908e-02 -2.891838508939239757e-02 4.475251421116669959e-01
5.460370557220215609e-02 3.519928189729346762e-02 4.732287162795607016e-01
5.030689293969021342e-02 1.267141394674286235e-02 4.942373847216450233e-01
5.150204702094209747e-02 1.658186953730551860e-03 5.072450686443555901e-01
4.966888534720471926e-02 5.340013109669471125e-02 4.590548956362017208e-01
-3.033196898508021613e-02 1.667241940925187973e-02 4.252818205469819368e-01
1.463528826827762211e-02 5.370064451223328233e-02 4.315375068553066185e-01
5.588741556970309998e-02 -2.714086421068290147e-03 5.038930569653616853e-01
-4.066731816062359173e-02 2.192507578344806730e-03 4.492337528300827665e-01
4.682982361110563096e-02 -1.085294983205194880e-02 4.548942415018422114e-01
9.943045684716265639e-03 1.887635054178091187e-02 4.200401789954967269e-01
4.393032214523182044e-02 1.977834629322130014e-02 4.444487383578211159e-01
5.003866328389024870e-02 3.012931769464632231e-02 4.929654863592004554e-01
-9.559969044620206594e-03 1.239669065808962634e-02 4.209278747516587704e-01
4.911661873346186147e-02 5.350615637503212951e-02 4.553842124367046829e-01
5.256263180218505998e-02 1.497169776218843125e-03 4.613107668555388452e-01
4.907957755682331585e-02 1.367532981295814520e-02 4.504012326567917168e-01
2.859679276511457174e-02 3.880535421184806016e-02 4.327805014186180688e-01
4.992235395260646857e-02 1.180595223136610486e-02 4.525262418351765348e-01
2.729540820658786504e-02 -1.829293659856915527e-02 4.381763848320255894e-01
5.133788336270941888e-02 2.529914308443458049e-02 4.533241561792395458e-01
2.818216156189623425e-03 -1.828654722550955916e-02 4.358739515926371433e-01
4.845077827809445709e-02 4.582591469577382282e-02 4.485139268809157365e-01
-1.203227499257605339e-02 3.542482982219318649e-02 4.098115305210965897e-01
3.161123258195707580e-02 -1.316389795829736933e-02 4.388905517150823443e-01
1.420852353391512026e-03 4.132894065887474794e-02 4.128289690404977064e-01
5.020544275182537569e-02 3.091712454248245895e-02 4.511459575801027300e-01
5.281798061391414223e-02 4.501839359844061333e-02 4.776773482510838775e-01
5.244803830107298143e-02 -5.670248262955220227e-03 4.635645863970802028e-01
5.493923647634497281e-02 1.061963752911427791e-02 4.773173919573895918e-01
4.791931523565927387e-02 5.764274846273430980e-02 4.647203167947040470e-01
-2.411755135037383507e-02 1.643547092075000465e-02 4.221821233557641606e-01
9.248330238473241940e-04 1.772859463544582473e-02 4.159541704485422153e-01
5.382257709881156649e-02 1.845857078618657384e-03 4.994403998750973073e-01
3.580092229323796754e-02 6.118154181778481804e-02 4.414871812768961234e-01
5.372325934303243122e-02 2.272923671231063050e-02 4.806046996342723254e-01
5.308225127285302186e-02 1.976510000057882591e-02 4.576761860258376502e-01
2.500770617429123877e-02 2.819052730433121989e-02 4.318848005048423477e-01
4.876502258389331379e-02 2.698958712713689367e-02 4.488843147029803471e-01
3.256262216902949119e-02 -2.440772295662474792e-02 4.430059442642296785e-01
-1.841149638865697147e-03 3.698076329854135119e-03 4.274053109236618520e-01
-2.457564927416936926e-02 2.658557868887930983e-02 4.160773045654059810e-01
-2.460070531830787707e-02 3.767283304696300572e-02 4.199298556630489121e-01
-1.159802479738864661e-03 8.622944205081060215e-03 4.246909525052654510e-01
5.219112120387933706e-02 4.614436720993408264e-02 4.626568421913790363e-01
6.792044649514866056e-03 4.570545300327279875e-02 4.180505947969690439e-01
2.175968434870570803e-02 4.564758747721232163e-02 4.267612291820668258e-01
2.766306725513609927e-02 4.579102771010534756e-02 4.315714589769528153e-01
1.721082632825291642e-02 5.513831575866520035e-02 4.340946617563368748e-01
5.406982860202175396e-03 4.391052460356871523e-02 4.155638140748307841e-01
-1.431763875646716554e-03 4.884200529267894268e-03 4.264795849749614121e-01
1.427342011187485334e-02 2.926289400899219351e-02 4.191149531659237870e-01
5.066041537445017950e-02 -3.127888309159414758e-03 5.138065924464649825e-01
2.294052839763739346e-02 4.419600368833501852e-02 4.275953643827954398e-01
4.579824693658242352e-02 2.541425384837110030e-02 4.459368866311098634e-01
4.699791102834673800e-02 1.841590511635391239e-02 5.017362055483206573e-01
-3.137906081580313367e-02 1.023485826946531410e-02 4.325002682720454072e-01
5.868574983603359191e-02 -1.053292769417307415e-02 5.023748633531618379e-01
1.226597524061296372e-02 -3.680324775226754327e-03 4.304093971578323852e-01
-2.921376575137850026e-02 1.582834608845623547e-02 4.253914907104865972e-01
-1.426658979184541876e-02 3.773792854811556380e-02 4.119638785587381724e-01
5.119048628172210430e-02 1.629621458995594505e-02 4.888103553377478594e-01
-2.488451998544406046e-02 1.213268897348404943e-02 4.267494752188387142e-01
3.519793816817091969e-02 -1.138020410420194709e-02 4.408075617130199353e-01
4.658475779959640045e-02 5.862188381416998106e-02 4.722968421036978226e-01
4.919843635413251315e-02 5.147478025641157723e-02 4.529050451049083659e-01
5.140495602062747360e-02 2.097705354525539884e-02 4.871664545060994667e-01
3.844154487248637592e-02 3.750696245306519433e-02 4.395621789022552961e-01
5.386346731969492846e-02 3.714138541164440505e-02 4.637814085958494315e-01
7.564052813154049232e-04 3.775652103696542500e-02 4.104785314089541837e-01
4.863219687757198637e-03 4.794735480310563513e-03 4.276444995048048203e-01
2.070070168235403976e-02 3.949042497233441057e-02 4.257326831181649229e-01
5.024408577004400162e-02 4.615846251136480199e-02 4.910818936887247355e-01
5.379266692831612823e-02 2.857298839736885018e-02 4.819603518352080229e-01
-2.582753953801702335e-02 3.051060290596526933e-02 4.152625837350943927e-01
-7.652951217190728794e-03 -3.825214812725711341e-03 4.296493974998547571e-01
5.193372041154175472e-02 3.905207508761099344e-02 4.888715584188715324e-01
3.457901015486999213e-02 -5.749003835067390163e-03 4.395636170228238160e-01
4.330880874457856272e-02 2.185867362682464635e-02 4.438810511465145492e-01
-3.048285967847612007e-02 -1.290361941365549383e-03 4.362264053604095193e-01
5.538260193020073940e-02 7.800411293155356043e-03 4.718469113260582715e-01
4.759323016901188114e-02 5.803572680100603509e-02 4.568796863974665667e-01
4.387027637693800136e-02 -1.038097990231126588e-02 4.500005867163679452e-01
-4.702124354153165708e-02 -1.912329198125817340e-03 4.439615915195642137e-01
5.470460738084182567e-02 1.140539330122354242e-02 4.780211420703666114e-01
2.183288949275238172e-02 1.516945935253639216e-02 4.302167853736009739e-01
3.511275008757995530e-02 -1.403069938604720353e-02 4.413585712943314254e-01
4.632648733779563821e-02 -1.604624762562237295e-02 4.550061171140882821e-01
5.116078412267013875e-02 2.910663481446032486e-02 4.895555465472306578e-01
1.323493008650352895e-02 -7.282019163968759395e-03 4.312645904878685821e-01
3.690073896817430005e-02 4.475335041718282725e-02 4.383355990599341889e-01
-1.936596523683900214e-02 2.276805705694412776e-02 4.152410345653685941e-01
5.365584628830298575e-02 1.986487445047330908e-02 4.592716439825654251e-01
5.834997071357676812e-02 -9.479176602227749188e-03 5.012437235077629172e-01
4.881019009020900676e-03 3.170664371804202998e-03 4.279958341632544294e-01
7.106377024034687094e-03 2.196553727047045879e-02 4.153757960366451507e-01
5.234618252417419515e-02 2.618189050147837205e-03 5.036988265843131973e-01
4.312845182314337111e-02 4.395606263110404810e-02 4.433128036824019458e-01
4.295472654280643732e-02 6.422959839623303135e-02 4.664764116025203466e-01
-1.215881832168836177e-02 9.434243560828853986e-04 4.288355516200930695e-01
4.965551310593250417e-02 5.160265907935749491e-02 4.824705921961746080e-01
5.367261747531865135e-02 7.742846291477948825e-03 4.874562297702744740e-01
1.835678508330058911e-02 5.543355327747124389e-02 4.342148370241324939e-01
2.004056487790209160e-02 -1.217770009640180458e-02 4.341121244937912738e-01
4.655165417363419517e-02 5.142087943968279978e-02 4.941110168049691054e-01
-1.718875249393683746e-02 2.499146907747023215e-03 4.292073784359397570e-01
2.974533931351141733e-02 1.919937408933843070e-02 4.343293421975439328e-01
4.782112946668468090e-02 2.383728212726769768e-02 4.986323501089061638e-01
1.691397147053467012e-02 -1.369706245363187976e-02 4.337533665072360600e-01
3.273125416174439001e-02 5.921978089962889880e-02 4.382376536743407547e-01
-2.843384411531456931e-03 1.651849759466792952e-02 4.168549212846034968e-01
-6.252561588762907581e-03 -8.146577380108592503e-03 4.314576927710672138e-01
2.830938125104112690e-02 4.699191783868442163e-02 4.322315679719085924e-01
4.873068190840193492e-02 2.162709539319614821e-02 4.956243707916249686e-01
-1.414354176328623839e-03 2.310966649772442857e-02 4.081400500859884151e-01
5.616893870563464952e-02 -1.031519818288882673e-04 4.909598938833428794e-01
4.312241793485770830e-02 1.096412916800407894e-02 4.442064122474761456e-01
1.589741706983543307e-02 4.315452581773231849e-02 4.232823514683515254e-01
5.195365106176003805e-02 4.572777144435560825e-02 4.603253902233098716e-01
5.755100572440805667e-02 -7.874712462937199717e-03 5.059027788902445977e-01
4.529466211252552305e-02 3.723801743772686690e-02 4.456488071794778016e-01
5.683440426339284729e-02 -9.796511236331944400e-03 4.804765454301246352e-01
2.394143301561735965e-02 4.092349172355994047e-02 4.286609563568026804e-01
5.133679864886413202e-02 -9.708846847029901223e-03 4.635064449586478452e-01
-4.394550129898968510e-02 4.034198028225882693e-04 4.430794092609883772e-01
2.269156049649891788e-02 -2.342312199787621035e-02 4.375109225085274667e-01
4.875705098969942974e-02 5.590393039317852891e-02 4.664753288658828323e-01
4.934661754135829387e-02 4.297124368380715598e-02 4.495900812191032103e-01
-2.565751603569412301e-02 2.346648260406555830e-02 4.183348007803718294e-01
5.234940327284447886e-02 3.944134431613336572e-02 4.575108701352938456e-01
1.584428569623675190e-02 2.464173664997685795e-02 4.231227782867159060e-01
3.571177342830789136e-02 1.007184723826633731e-02 4.384576332204753180e-01
3.276443307137609506e-02 -1.481146278790714151e-02 4.400653013536806601e-01
4.437904676183621056e-02 2.697356742619635983e-02 4.446992782282475076e-01
2.082774417157622765e-02 5.694951972217388719e-02 4.350702238793603960e-01
5.094179826386913829e-02 -2.228202124516973776e-02 4.670790067709873483e-01
3.694238451222411294e-03 4.375729299625295832e-02 4.143672626122471003e-01
-2.827541836788207211e-02 2.302306318505521754e-02 4.201452318182496981e-01
-4.414561181044827226e-02 1.151641822665669000e-03 4.458402797766212733e-01
-9.200520581743754089e-03 1.442350123864850550e-02 4.190249906867249408e-01
2.641100884190224901e-02 -2.171563272660232899e-02 4.385650946664566008e-01
5.119849171658055059e-02 1.616010785895982162e-03 5.079802769984922417e-01
4.755190396402332598e-02 5.467000361795587918e-03 4.494298420463279653e-01
5.253116283464093900e-02 1.958804616374538315e-02 4.564605955034255480e-01
4.738912690025124524e-02 5.419490225909677147e-03 5.102156443998633328e-01
3.058126414334203652e-02 5.363149683271154627e-02 4.352901738977913992e-01
4.582040373987705112e-02 2.687547026925232729e-02 4.459418395585929562e-01
5.514585053848305995e-02 -2.922032044916289192e-04 4.974129776405088466e-01
-3.044166506531140529e-02 7.189493278480809518e-03 4.336990685989611793e-01
-2.097784325010771441e-03 -7.722235183513195128e-03 4.300984750294418180e-01
5.330775444458267509e-02 1.690977532720940382e-02 4.589298330975080109e-01
4.730038197149184775e-02 4.417912984934213583e-02 4.984364792287893642e-01
2.256615950311324087e-02 4.347248326588499384e-02 4.272659793457728172e-01
5.397742020440446375e-02 2.728671580580808997e-02 4.809653909502433211e-01
3.656727971641261787e-02 4.590627919622527336e-02 4.380660995871102359e-01
4.960682782529833579e-02 3.379899693807038308e-02 4.948061157247627961e-01
1.669130993177707183e-03 3.794070657500675514e-02 4.109508565971031757e-01
5.390413064395836035e-02 -1.466779676332329724e-02 4.714225136112582537e-01
2.728728027951057150e-02 1.062690043863594516e-02 4.332427952180465391e-01
2.419623446277185952e-02 -1.414532603221491103e-02 4.359237320563378315e-01
4.202821884885924592e-02 5.106318773347507528e-02 4.425475818298243436e-01
4.851864011164973289e-02 -1.191861767212028245e-02 4.588079362933797922e-01
3.856786852228346468e-02 3.422445125838877167e-02 4.396322895135980069e-01
-9.951514811392579707e-03 -3.809117352017084204e-03 4.302151489826682162e-01
4.651653805454103452e-02 -1.982125095929532926e-02 4.577142369482029016e-01
2.295312734520724152e-02 -2.411707989927150755e-02 4.377174700854847278e-01
4.772106623123002073e-02 8.258438600921288314e-03 4.492767798341088525e-01
5.082718082226571343e-02 -8.863565709014455118e-05 5.107981930832352635e-01
4.525277831125817940e-02 2.991433129103634320e-02 5.047505836637262711e-01
2.480040514551197853e-02 2.803700111731610364e-02 4.317201569236240877e-01
4.439121834920543158e-02 8.473816638812130264e-03 4.457119997507508757e-01
5.417631835873145535e-02 3.793558609375022317e-02 4.768551578746615949e-01
-1.004938484368905413e-02 3.290044545956783903e-03 4.277833663374674966e-01
1.508008298437770595e-02 -2.153252074763729179e-02 4.364642366457519018e-01
-3.128442272209171898e-02 1.499135107070375360e-02 4.277457781883496901e-01
3.336949278906278793e-04 6.848901728499270578e-03 4.259936642752100711e-01
1.488734260490716214e-02 3.773816840386021165e-02 4.214201588144371180e-01
5.598587326174544326e-03 -1.421175417193928578e-02 4.341844503207077932e-01
5.023244818200402889e-02 3.770932095134871959e-02 4.935791207877895936e-01
-1.628457970850828024e-02 3.189505547886651443e-02 4.104837519090575038e-01
3.792306643394043747e-02 4.762404230256413878e-02 4.389323067760860231e-01
5.429349258528280014e-02 3.481225524713971869e-02 4.647173993125253144e-01
4.841214319626621632e-02 5.304919193892791707e-02 4.840166480876790800e-01
3.839667197615347083e-02 -1.192663195760113558e-02 4.432043045212905041e-01
3.235138061525170278e-02 -6.544436267826568045e-03 4.382208317794180075e-01
1.018361004371637693e-02 1.079862110958485638e-02 4.261754416695004433e-01
5.147916519419999670e-02 1.880008551653224169e-02 4.543248800993063274e-01
5.451665936580667171e-02 2.083035245495447330e-02 4.646122584763843211e-01
5.054928807270034352e-02 6.315600441610981497e-04 4.564157636170254606e-01
-4.771021193854443204e-02 -2.981712591579095250e-03 4.461498046509180804e-01
4.491604092091948386e-02 -6.871515646876156722e-03 4.502663756299438713e-01
5.766692674763835430e-03 3.459646195619168335e-02 4.113212412871604107e-01
5.032327734605542696e-02 4.882822204333154420e-02 4.557816336772972932e-01
5.235080378396898132e-02 4.605569370449258404e-02 4.657912838941933864e-01
4.927082458399124204e-02 4.477275738085204071e-02 4.944418520817875362e-01
2.930644322649942485e-02 4.637460573492728499e-03 4.351471084023568747e-01
4.990050749322589435e-02 5.306326851045493898e-02 4.603473462520096260e-01
4.978809155023412175e-02 4.626367033438735094e-02 4.926570934444063909e-01
-3.068824230154244825e-02 2.045584747951981197e-02 4.231687606537548607e-01
4.665690964648844252e-02 5.534700438042107484e-02 4.499747611832515259e-01
3.419661201010282259e-02 1.604768286630186766e-02 4.369951377369313272e-01
3.228703740181521195e-04 -8.614921749770331968e-03 4.302494903122656145e-01
-1.610772953266912180e-02 5.055493960069185055e-03 4.270017825332407257e-01
5.530284106408919764e-02 1.920251954093510696e-02 4.712949769746300199e-01
3.888224733708807446e-02 5.601550818575112139e-02 4.409599951269835838e-01
4.616544904839054581e-02 5.541104517461237916e-02 4.836690808186363544e-01
5.215982135559200233e-02 4.097799175851733061e-02 4.875033719783568031e-01
5.371649785233542640e-02 6.983265412787154937e-03 4.630970030509757307e-01
5.492426918363676330e-02 -5.270616606976676922e-03 5.109704365156167993e-01
4.132261244143908829e-02 2.034440967367704550e-02 4.422462121003295499e-01
5.440523325665611032e-02 1.316648177829424400e-02 4.784476116016322944e-01
4.200528666098509584e-02 -2.225041061497184253e-02 4.516592114254320833e-01
1.512420856719502889e-02 2.352229141708166854e-02 4.225255702924438639e-01
-2.762082088952450692e-02 1.243989381168561850e-02 4.283258581047166280e-01
5.262404167715948461e-02 4.020590380276930359e-02 4.593590245326257815e-01
5.270698892504666055e-02 3.933681857857684178e-02 4.859628301355770619e-01
-3.494857825188338318e-02 1.809172844863846455e-02 4.296570874535856066e-01
2.229551918032154911e-02 5.470348097209866423e-02 4.318473096734816719e-01
4.915885696993881754e-02 8.803070121547334342e-03 5.020603858703589495e-01
7.232852251440869545e-03 1.804995505541422823e-02 4.185721669886172114e-01
4.923824392789404730e-02 4.792507618471300579e-02 4.919090339404117995e-01
4.924867470028457261e-02 1.967857984480768721e-02 4.496048947675984619e-01
3.345204058301459032e-02 8.025383137359093366e-03 4.368653981488819227e-01
4.751801921506847853e-02 5.228698406920643388e-02 4.489507872931306487e-01
5.484746019540318041e-02 1.782387132154433090e-02 4.674215813034212630e-01
3.784968912355553966e-02 -3.162883530123200559e-03 4.417781642658229480e-01
5.070153627181610279e-02 3.424930063435063093e-02 4.520912970031951694e-01
4.796035393620943707e-03 5.001137453808377278e-04 4.283283225268158523e-01
4.199613109392658777e-02 1.599652974535765299e-02 4.430405793996570751e-01
5.073742221843616229e-02 2.842717194929704830e-02 4.519717869125596810e-01
5.056484152230766166e-02 1.941345117907042339e-02 4.523411268710320066e-01
5.430021349635895389e-02 9.369152450249018139e-04 4.661074558677717472e-01
4.598564463151022519e-02 2.212804396269826834e-02 4.461365051610631793e-01
4.502349749211719682e-02 6.236520133177723968e-02 4.550652047606836836e-01
4.891519594529524645e-02 3.660115546985220902e-02 4.964362792296698745e-01
4.598713373802836707e-02 1.539406031456581891e-02 4.467951274802041128e-01
4.801674607971116032e-02 1.427668701293529751e-03 4.508240981347809706e-01
1.431405544464675432e-02 1.469835962810048247e-02 4.261321097244255007e-01
5.713098630725980259e-02 -1.135583833255324540e-02 4.821229091430868086e-01
6.728981120579604659e-03 -4.756653588088629453e-03 4.297735438002473485e-01
5.677329894809319405e-02 -4.028019602198252506e-04 4.801613585923595884e-01
3.464012396386692560e-02 7.564749789010314501e-05 4.390909337791728539e-01
3.691472917621099747e-02 4.753152460870064405e-02 4.382752946347899248e-01
3.969396708373823524e-02 -2.350166251590850991e-02 4.487070613547126663e-01
6.204353394008781889e-04 1.664221684665736448e-03 4.281001385793696823e-01
4.175735318643046534e-02 2.777425985011797160e-02 4.424271780588032166e-01
5.681892505428768475e-02 -7.847604799374017712e-03 4.811885436739518074e-01
5.162901632390774764e-02 3.327508402660792064e-02 4.538643447232298955e-01
5.044391506119293676e-03 4.960480457063976695e-02 4.194543696541438993e-01
5.223513800085333864e-02 4.691471512411182071e-02 4.677194903834403505e-01
4.593018535565810551e-02 3.602329606062672218e-02 4.463729710153748198e-01
5.489044486931406175e-02 2.545746971826732402e-02 4.765599858060541871e-01
5.503569091542847430e-02 2.878581213567263028e-02 4.755037499606444840e-01
-3.463473296902991327e-02 1.409801267427112162e-02 4.351066839130584007e-01
5.378188413306921045e-02 3.091335974910264933e-02 4.592895242383810972e-01
5.080619732359535623e-02 4.687945337185474987e-02 4.870674035179613504e-01
-2.543515723001056258e-02 9.315060656892724250e-03 4.295276107227845031e-01
5.474985834691509928e-02 5.177332722829939334e-04 4.982543899775266349e-01
4.601499152855760555e-02 5.769335616475203959e-02 4.758379409637027990e-01
4.523779852026317549e-02 4.655807672942071512e-02 5.015454913051592412e-01
2.265273062008793525e-02 5.917329935426515752e-02 4.401179585505495817e-01
5.476037584330424590e-02 3.441828531263292634e-02 4.739882403939362221e-01
4.499329676715441845e-02 1.500178090172052392e-02 4.456996733952304779e-01
3.855296215838814600e-02 6.538517519000026923e-02 4.624554053378232554e-01
3.049265944603116868e-02 2.488294140053132122e-03 4.360610563652473903e-01
5.390662970964076040e-02 2.400032643693632284e-02 4.805248113850181246e-01
-2.525679766409685834e-02 1.478273074593401161e-02 4.246197819455584388e-01
5.488116988032204491e-02 3.229983580877079236e-02 4.696291937991422527e-01
5.506980385252847193e-02 2.956513980036935135e-02 4.709567180015631904e-01
5.557112542724473164e-02 -5.539268477656282552e-03 4.729475012965174696e-01
-4.104100110605073126e-02 1.919980078269687123e-03 4.494027787480586178e-01
4.271867458205658163e-02 5.949890067534131105e-02 4.461633519729644171e-01
3.950932046698464595e-02 1.884699170502683249e-02 4.408227167115846279e-01
8.879801090314717177e-03 5.318782995945644382e-02 4.282378492269851011e-01
5.171211322135923355e-02 4.658531572949495964e-02 4.601942483270302087e-01
2.860756275884215188e-02 1.548816642137855124e-02 4.338552327776177830e-01
3.640940583489239019e-02 4.611237415579413218e-02 4.379528538367770119e-01
5.497547826749200894e-02 2.031207148106642033e-02 4.736050129532266562e-01
1.460162169990419923e-02 -8.790389547675692139e-03 4.318581756957654005e-01
-3.301322896642192983e-03 2.936118550975420384e-03 4.277795209116436737e-01
4.807354711723089286e-02 3.931641354007975320e-02 4.981464812940150089e-01
3.110736519065993369e-02 -5.508993283394058443e-03 4.373289460301689191e-01
4.920506428525617260e-02 -3.029938011857256745e-03 4.551556434781858229e-01
-2.496713746668301898e-02 1.303495485967585965e-02 4.260338791250354862e-01
-2.754812626914421303e-02 1.912029799043952344e-02 4.213067446807322036e-01
-7.543245572918179549e-04 -3.015001948992279517e-03 4.289873893968694785e-01
4.743194350454815050e-02 5.428684821864938892e-02 4.846840698982221585e-01
2.340905630694081752e-02 2.389572163166438223e-02 4.305098164495388402e-01
5.634241482759673285e-03 5.157672553680558297e-02 4.229654694266384296e-01
-3.367442377680493482e-02 1.639856231546508308e-02 4.300337718232256634e-01
5.366991424458592008e-02 4.144122115028368858e-02 4.781277706797821270e-01
5.630874924809830401e-02 -1.176596218412892612e-03 4.922463075261538368e-01
5.257659817665625429e-02 4.530764608377963604e-02 4.681107603739945722e-01
5.541731144361833339e-02 1.013498931442311565e-03 4.928691480184318463e-01
-2.456455760224570892e-02 2.657247644197163056e-02 4.160771672226534768e-01
2.649046154039748011e-02 1.372387262189330576e-02 4.328481758409418179e-01
5.529106654171567908e-02 2.436350074429911861e-02 4.695747929375446161e-01
3.662597986464406069e-02 2.986655345678705664e-03 4.403663226715933132e-01
3.930731033788267825e-02 6.531880571005277414e-02 4.495033345194428542e-01
4.687333525827561131e-02 2.421915470102610143e-02 5.018769158637566008e-01
3.727618322905761061e-02 -5.901018726982634743e-03 4.415525099592055303e-01
3.581357523957087730e-02 -1.646874043723306480e-02 4.425041071573787566e-01
3.226504583651502306e-02 5.844884257147409806e-02 4.377970639533439456e-01
2.677439871425378592e-02 -3.998635953864149509e-03 4.345806040176224405e-01
4.884586852212447622e-02 3.544848932156689780e-02 4.496639772549925196e-01
3.757324674587120272e-02 4.587265436046752964e-02 4.387336631262302999e-01
5.260320917881140812e-02 9.890973717822611200e-03 4.588729608746605071e-01
4.745133992885971347e-02 6.230005842508686345e-03 5.092542299733602285e-01
4.831608918064705244e-02 2.028317827707551077e-02 4.971358651939294382e-01
3.350390557842712613e-02 3.170421783142471361e-02 4.362227465046269459e-01
5.607432222109107189e-02 2.533970231863301968e-03 4.825239539298438740e-01
1.104219982053543207e-02 -2.338375935032190305e-03 4.297543742472376138e-01
5.489241918405767667e-02 -3.671959467746739158e-03 5.089804518663556543e-01
-1.655361296846286079e-02 1.629508559132395243e-02 4.194292194452897693e-01
-1.555100367701292216e-02 6.276110793443696705e-03 4.258037255276476696e-01
-3.491285206367613757e-03 1.282731388396194348e-02 4.205904351633615312e-01
4.873784713755035386e-02 2.587850257321914690e-02 4.486648698988001671e-01
-4.286076311191400201e-02 1.969949178471873050e-03 4.459029346604836963e-01
3.527495860641367831e-02 -3.581745622147635821e-03 4.398123131628477456e-01
3.201203076282591042e-02 1.458268178943312142e-02 4.355776241217660383e-01
7.324639370630388335e-03 3.213552122833256142e-02 4.104379077825482391e-01
1.467257269958733429e-02 5.061588653970622298e-02 4.253949926849067698e-01
5.100188553916610440e-02 1.260711520897943565e-03 5.090626872401470271e-01
1.087637451990155699e-02 -8.199880290744754330e-03 4.311838731089111532e-01
4.892452314048579415e-02 2.281242088765648990e-02 4.948783472740121980e-01
4.144326761012443600e-02 3.652497786728067884e-04 4.445829506171587453e-01
-3.083002309691892928e-02 6.849288658784141205e-03 4.343477664351481637e-01
6.881518541609232820e-03 1.273999440351133647e-03 4.282469985765952059e-01
-1.059061356114948151e-02 1.957604470271235436e-02 4.137613931599187778e-01
2.988183007885570827e-02 2.623908283829816043e-02 4.345612081859713260e-01
4.103096813308455826e-02 5.553004269743574972e-02 4.424892017905907582e-01
5.423354749146425818e-02 3.700761008262596491e-02 4.712747500736177431e-01
5.497641169758804569e-02 2.811900622500813213e-02 4.763645461183230734e-01
4.084199911046160897e-02 -1.209933761504932044e-02 4.459863004733869429e-01
-6.744524124566624382e-03 8.549134744723914381e-03 4.240766435598747330e-01
5.194109793100090688e-02 3.618975481287290547e-02 4.889623322448933829e-01
4.962952437862357818e-02 3.623299301136574408e-03 5.081230933495027857e-01
5.370187098749868576e-02 4.069975430035218528e-02 4.744948597277992564e-01
9.186972187750790456e-03 -1.012519269985616595e-02 4.314860017504473233e-01
3.151739149181133348e-02 3.121332088019565174e-02 4.352393645874486627e-01
5.138040219027828481e-02 -7.144784533786145003e-03 4.622870041674052022e-01
5.005498885228634731e-02 5.036770108845603500e-02 4.562610348910671187e-01
4.273521092191026605e-02 6.202392844245104009e-02 4.718186257665563654e-01
2.456960035970557482e-02 -3.551216898904943371e-03 4.336532332589338457e-01
5.384292226606759296e-02 -9.302057687515170523e-03 4.684675705061946971e-01
4.275602291152555412e-02 6.495551572407366747e-02 4.631604401398168869e-01
5.219213273820524912e-02 5.321228081471922854e-03 4.987531028947419509e-01
5.358659174787463314e-02 2.397673251652665538e-02 4.813769768814593064e-01
4.831737340471561198e-02 5.245330736458660159e-02 4.861748255490642712e-01
-1.406110914304043238e-02 1.920021251504707739e-03 4.289737309316666303e-01
-2.044708513527716820e-02 3.011651284494047329e-02 4.127359778037406612e-01
3.981379654901992526e-02 4.315356236127380896e-03 4.425604777048670613e-01
7.702675439099138099e-03 1.865722126793049190e-02 4.184526256675707989e-01
-1.519975641932754321e-02 2.964819799728413141e-02 4.099554876293837191e-01
2.945385826357983100e-02 -2.015201215353654152e-02 4.395903422606636246e-01
4.402348945376553108e-02 5.473902681603923237e-02 4.452839108725720751e-01
3.032265255167013174e-02 2.465356968872203097e-03 4.359884282178115855e-01
5.196936722190324820e-02 4.741806394883434084e-02 4.635759196628996825e-01
5.013610797824620546e-02 4.057053180282394617e-02 4.935919628021744887e-01
3.112274185465314924e-02 4.329606821094218391e-03 4.360205393374786409e-01
5.075121010993866727e-02 6.340138604774632654e-03 4.555013206988907659e-01
5.079497901893332418e-02 5.090887404102337199e-02 4.615142781247217330e-01
4.810025281032870303e-02 1.221244777105803120e-02 5.015390352673736452e-01
4.727665758524984829e-02 5.440545035487378417e-02 4.849982452829524893e-01
5.466036370247995269e-02 1.774200908621356015e-02 4.769997192552474230e-01
4.372125879502739704e-02 4.759332067779799974e-02 4.437892545018162216e-01
3.174917806775889167e-02 9.044497104707262258e-03 4.357579291478687056e-01
4.894242758229093437e-02 1.193958086840146531e-02 4.988020625202120861e-01
-3.257398809999533656e-02 1.576611903217494878e-02 4.287840218339238341e-01
5.199323269416243620e-02 1.494418528319861605e-02 4.867578854670184252e-01
-3.148058565734690450e-02 7.401154442902775285e-03 4.346323737143104049e-01
5.210894925907738617e-02 -1.441918681412439861e-02 4.667130048918219365e-01
2.411642921877524270e-02 5.938140498550797258e-02 4.380261824523318803e-01
-3.130125515483057896e-02 1.162429734205177104e-02 4.313604093790828764e-01
-2.116182124705305936e-02 2.401728019595871302e-02 4.156737715773656250e-01
5.106154142773889487e-02 -6.809041486823264044e-03 4.614904169441650383e-01
5.528877411747289833e-02 1.061753531866073755e-02 4.713869266080889520e-01
-4.038027254383929308e-03 4.579869802763505277e-02 4.189322030267821351e-01
2.432119600791320720e-03 7.397165164739327899e-03 4.262515649522738981e-01
-8.098794480057814119e-03 -5.374106157440406220e-03 4.305404575544373724e-01
5.302851632312246405e-02 2.214322283305067071e-02 4.822809280268477439e-01
5.496774366219453478e-02 5.410440100746646136e-03 4.848904510930253098e-01
2.883443750523674576e-02 5.396085527338515681e-02 4.345075416552253156e-01
4.859961117739075576e-02 4.929158446443347719e-02 4.918623797954776444e-01
-2.469794136773311236e-02 1.662972668730580217e-03 4.318488927615621309e-01
5.481447360446509154e-02 2.940243493223090865e-02 4.660799102039250852e-01
-2.823857789629817538e-02 3.378064846038827257e-02 4.178483783928887974e-01
5.448824272731385421e-02 1.316439720243321385e-02 4.780271307755757371e-01
5.385649544832445818e-02 2.196439209282053176e-02 4.603363554771256472e-01
5.682769135020590556e-02 -5.393759145310568839e-03 4.800666754202667086e-01
4.116178091353541596e-02 1.463985167742985934e-02 4.424135263400112983e-01
5.489569943329079826e-02 -3.539507395024394168e-03 4.686998584775506349e-01
2.092370910939645584e-02 4.729383351438970137e-03 4.319987116397006610e-01
2.217919813842943871e-02 4.504860443674254394e-02 4.268529761941470269e-01
2.096875405733470560e-02 4.120308174746883934e-02 4.259310873491164995e-01
5.427718323823797417e-03 3.692160694484999950e-02 4.122921346702347334e-01
5.356566178092521391e-02 9.951449206989187307e-03 4.857936283338963879e-01
3.742173296300164986e-02 4.889317053445003253e-02 4.387704881084911746e-01
5.284904073645509126e-02 3.590832634769580700e-02 4.862029547176384692e-01
5.310483995158645637e-02 2.351655285899433706e-02 4.825218365407877297e-01
3.020225648849990396e-02 -1.922598317056709374e-02 4.395715261834013399e-01
4.426935892465103106e-02 3.187169406646191139e-02 4.445100893720765889e-01
1.692016587867652133e-02 4.589903560629680218e-02 4.244576074776540420e-01
4.913659808728695205e-02 8.146906511391901681e-03 4.518397499814217344e-01
1.743124431809366104e-02 1.131754595872925921e-02 4.287677534574912963e-01
2.463033664580858983e-02 3.224943833988628411e-02 4.313509258776107025e-01
5.217197758127612578e-02 2.986181138458713843e-02 4.870245980284916287e-01
4.873849680381350802e-02 5.606557789846895040e-02 4.629848756049782521e-01
3.425755816616524174e-02 5.614114538655814307e-03 4.379917886503810753e-01
2.486516715788550727e-02 7.273891872385355138e-03 4.327008553299950822e-01
4.921091499214966247e-02 2.469921187956044401e-02 4.940835318115123775e-01
-1.017211829058527195e-02 2.237210658138947053e-02 4.091877134558989382e-01
4.477732994501557734e-02 5.658812383945474589e-02 4.816705627480286633e-01
-9.695608731093572491e-03 1.103359097655012139e-02 4.222238287826199366e-01
4.368725654014436049e-02 -1.656943111307716647e-03 4.471060185832595457e-01
3.359026747209108155e-02 4.083146414036140787e-02 4.364339230363683542e-01
-2.193343454293358863e-02 1.050334039994524522e-02 4.262061002640140650e-01
1.910698410654065524e-02 -1.083843471768391846e-03 4.318071348205116955e-01
4.283825519638562868e-02 -1.427212644870630952e-02 4.492903628935061011e-01
4.720672763302399821e-02 5.461577376594013017e-02 4.846709696419798652e-01
-1.274761293721763875e-02 -7.249139799254832386e-03 4.327301330607707941e-01
5.138123695553145631e-02 4.922632861428252044e-02 4.625720249265522499e-01
7.750757327630766746e-03 3.737206047280077631e-02 4.146083731679636730e-01
6.975056303239783421e-03 3.397848800344212966e-04 4.283842376661842200e-01
5.301456127246449018e-02 3.310046935265092277e-02 4.571741880444319395e-01
1.327606276848877428e-02 -1.491375645311197699e-02 4.342625805478404488e-01
5.289702746928964285e-03 3.190312529624196591e-02 4.090877397580160446e-01
5.456950667343522798e-02 2.840625556895915588e-02 4.641759049794272896e-01
4.808846094829138940e-02 3.843008998959200270e-03 4.506141168460097157e-01
5.294406306701310294e-02 1.247054569098586876e-02 4.856666532909116318e-01
3.182336510377328960e-03 1.425257331013686860e-02 4.211297597483844024e-01
3.167127844293615019e-02 1.232175312666103188e-02 4.355003799908490625e-01
4.483569393024407906e-02 3.337216609994227839e-02 4.451671486299917935e-01
5.605593250819982526e-02 4.648269535223646665e-03 4.757786858445481326e-01
-2.342095709618747384e-02 1.706639410490683791e-03 4.313105034812237948e-01
2.803805108031575885e-02 -1.941984178069613293e-02 4.387999932864585784e-01
5.332587633756449147e-02 9.037664401502774544e-03 4.877109901620667043e-01
5.287166435675741405e-02 2.374308997764407181e-02 4.566228407136323497e-01
4.244078734400808656e-02 5.180669421657167067e-02 4.977303235829371730e-01
4.379477162685552205e-02 6.350909278802362168e-02 4.536483793373334295e-01
4.685627161350086611e-02 -2.132084142841073754e-02 4.588520251193832222e-01
5.315510086728645472e-02 3.601888114117224315e-02 4.849908287226599723e-01
1.619489865251929478e-02 5.513763796544156326e-02 4.344322293617332575e-01
4.984309848414159722e-02 4.436653851859611447e-02 4.507394423940931927e-01
2.750841441367419399e-02 1.488056628883282877e-02 4.333410994371557079e-01
4.456575409926978593e-02 6.033703326760100905e-02 4.506634254733009604e-01
3.058198785678687553e-02 -8.802552806508441574e-03 4.374643310891953574e-01
3.427390735787032988e-02 6.600157616089952217e-02 4.439259455354159778e-01
4.422164307439935271e-02 3.131578582565801988e-02 4.444576656627640121e-01
