-1.908579837218798980e-02 1.996682704279002449e-02 4.164012452860167968e-01
4.177688565010006377e-02 -5.629942163445315201e-03 4.459172812314897150e-01
5.295414097764399725e-02 4.371636147262842470e-02 4.739888643488811559e-01
5.498727947378231548e-03 3.923464453494892451e-02 4.121349821060545371e-01
5.938729338073425387e-03 3.837602072465165493e-02 4.121757437596602069e-01
-8.644738441988054564e-03 2.059438559403486274e-02 4.092047779251379303e-01
1.423696093750723667e-02 9.821879441237208602e-03 4.277016135366816241e-01
-2.904520476581060485e-04 -3.974443390516701688e-03 4.288712797763459261e-01
-1.153894719084656850e-02 3.998533591128233117e-02 4.136224558258872475e-01
2.233197350979392731e-02 -4.855635752975619862e-03 4.327197089822274467e-01
5.336263620107357941e-02 3.396351941833580107e-02 4.832725042370559776e-01
3.745583625619852003e-02 -1.736371397612612721e-02 4.437987009459897214e-01
-1.597415671862644979e-02 1.817171329252104117e-03 4.291242700040497904e-01
-9.886382587657498167e-03 2.280490015390820510e-02 4.075462335152597593e-01
4.779565704872974080e-02 -4.497415882905182391e-03 4.529347667035671376e-01
1.408507512632412549e-02 -6.128862135672418290e-03 4.307814948160884061e-01
9.867736873322058982e-03 3.660399577129167664e-02 4.152344660946664101e-01
1.719330541351698702e-02 2.457050261340209055e-02 4.238993134413956421e-01
-8.895096523390218224e-03 2.297691345043363295e-02 4.068604130721594214e-01
5.690892199348120822e-02 -2.514294791671822533e-03 4.812719746279414679e-01
3.763797007566593161e-02 6.689367809133130172e-02 4.460544751624616056e-01
4.757556388851345158e-02 5.818919557042896012e-02 4.636387607922418108e-01
5.221383176385488434e-02 1.612348501543875434e-02 4.851348962813775145e-01
1.636371540644962486e-02 -2.238907431183892807e-02 4.365715479411854671e-01
4.760233137531520026e-02 4.279909938080788540e-02 4.470966207162109796e-01
4.828664679881895100e-02 5.353897426361658995e-02 4.511696914902693645e-01
2.751724239577324829e-02 5.271316724069322057e-02 4.326421738783741144e-01
5.213071979462408773e-02 1.990638201304641836e-02 4.550808399506054425e-01
1.828113290450342557e-02 -4.395004490168868266e-03 4.314323623133262675e-01
5.705961899312565061e-02 -4.208112777674029303e-03 4.923831809025796535e-01
5.125244965734211677e-02 3.797395172053819740e-02 4.535397988038422645e-01
5.508359845893148754e-02 -4.472678080129102035e-03 4.698551067344818311e-01
3.722080525280775654e-02 -2.907567499222250135e-02 4.492992203565435161e-01
3.608392088792664737e-02 2.681104758776899771e-02 4.375233124965608456e-01
5.303473504777880126e-02 2.059730958573145407e-02 4.570192360673678289e-01
1.840472514252013483e-02 -8.121616517530259871e-03 4.322858727792501243e-01
5.494062303614089676e-02 6.437249489368982759e-03 4.830042861457696235e-01
5.587984500030718921e-02 -2.383560198163606897e-03 4.721456983661334594e-01
3.466658454798036276e-02 2.801020903588957375e-02 4.365278109599460277e-01
4.760565123005592453e-02 5.821694784597527400e-02 4.575912120780848413e-01
4.966295138107965079e-02 -1.633041803217481075e-02 4.624496972855650645e-01
4.526162886931520829e-02 4.960195946976341669e-02 4.447633976206895601e-01
-2.168527902023423964e-02 2.481961572258717386e-02 4.143534310793545172e-01
5.307589959473413277e-02 9.833989659845998599e-03 4.598058586000277614e-01
5.241418958199125372e-02 1.960078596044091681e-02 4.835789671944495383e-01
5.406957347941597491e-02 1.100664379035234605e-02 4.820992241173238102e-01
1.607656434945600038e-02 5.307953858173557193e-02 4.292588286434718681e-01
4.715345846718564660e-02 2.832046420878767123e-02 4.467012944198546220e-01
4.992763012420120550e-02 5.344593536525249489e-02 4.655596050448016499e-01
1.458743111930011806e-02 4.292772287279610771e-02 4.215171437464299564e-01
1.381208260014842905e-02 5.005788100243414862e-02 4.236888010967134188e-01
-8.783804204310748098e-03 2.190840090608143706e-02 4.075975578054842341e-01
4.773921702455043853e-02 1.992087994948136404e-02 4.984276440802109520e-01
3.369880227902334602e-02 -2.582595544875804228e-02 4.446079466964604765e-01
-1.947600129501435469e-03 4.437712365578680082e-03 4.263022682134677277e-01
2.569560097745280866e-02 4.615428439366493080e-02 4.290260195340027671e-01
5.546485703843343287e-03 1.657451675997603444e-02 4.179132365915179115e-01
-2.995630423318839178e-02 1.597140751295379052e-02 4.250863381954247955e-01
5.539543618087208743e-02 1.682458190715103823e-03 4.702712587476723938e-01
4.461089204261278751e-02 -2.003701053093689954e-02 4.537750578998728246e-01
1.866583682280252218e-02 9.471059928546835330e-03 4.296127600954243175e-01
-1.982854532995571156e-02 3.373545980492424767e-02 4.116648903221039046e-01
2.893508255916220698e-02 6.215548411588986411e-02 4.412495745415980219e-01
4.796807423391396402e-02 -4.454264393577322956e-03 4.532302572793874829e-01
4.438295983739252992e-02 -1.338629869249625091e-02 4.511684179695592545e-01
5.343854822754096068e-02 -1.092758718742465988e-02 4.678151272083506673e-01
4.300133365671219426e-02 5.224661484681444867e-02 4.951673802678212000e-01
4.186758246943216716e-02 -2.044799402044979522e-02 4.497899668720550803e-01
4.370575063061332699e-02 6.407702882735541450e-02 4.591805425775249971e-01
-8.388242781265403680e-03 2.525419105259706868e-03 4.277763714926750560e-01
7.675315626089433164e-03 1.151934119090271789e-02 4.242448361850066352e-01
4.934964601794367134e-02 5.328816399749616156e-02 4.558926396546761906e-01
2.850394006202532429e-03 -6.260221390511112871e-03 4.295753738488428675e-01
-2.803214749602037613e-03 4.115936832217979846e-02 4.112026010840861834e-01
4.918948099504681648e-02 3.896587247015872307e-02 4.951620784343754855e-01
7.806833814097194173e-03 5.179999632834760698e-02 4.237634339666600525e-01
4.753691844160434082e-02 3.456424055001552833e-03 5.117913062762654564e-01
4.608649669940354660e-02 6.160935162363433137e-02 4.574233903188477668e-01
-1.024840173756241986e-02 -8.209929041585373524e-03 4.324078152616083748e-01
4.507649451677337750e-03 1.854682433697140993e-03 4.277235298106051298e-01
5.411323109400136000e-02 3.659332295380539335e-02 4.665310801267888996e-01
5.324199929078689969e-02 -1.201728101106747104e-02 4.677918299692085946e-01
-1.102048131774065361e-02 3.075043182227886474e-02 4.064777317192828088e-01
5.277405817534651378e-02 1.835718321654112792e-02 4.826593477785780517e-01
1.842730570717805369e-02 5.355569154716577351e-02 4.299080742530312360e-01
-2.573735277982937969e-02 2.038808619633664457e-02 4.189241729148003857e-01
4.873059089418495943e-02 -1.537531818298169470e-02 4.601114720902936828e-01
-4.649590857003289140e-02 -1.778526627057873616e-03 4.432683361371732578e-01
4.981932426516322288e-02 2.840440776238790238e-02 4.500540069288428979e-01
5.042615895833234968e-02 1.083964070442415377e-02 4.952969932104994699e-01
3.533169390948277117e-02 -9.701502531782070504e-03 4.404027724264507060e-01
5.115517443210356417e-04 4.452669619261029332e-02 4.142978541318799168e-01
2.732634992769540638e-02 3.118535619711691395e-02 4.324034768731295220e-01
-1.811485354768630623e-02 2.484613234377314878e-02 4.120215060733606327e-01
-3.281191517763712429e-02 1.008783137353303980e-02 4.341441858540854848e-01
5.402540604103540922e-02 -4.027890637835112100e-04 4.650729548419577086e-01
-1.727994948185185807e-03 -1.015145367601527192e-03 4.283091937968691032e-01
3.926397333386751065e-02 6.232005465110107556e-02 4.434752353494808563e-01
5.189074563989726913e-02 4.814776564770530815e-02 4.656955949708006526e-01
-1.595593464165949438e-02 -2.558632012792713857e-03 4.310598612806804675e-01
-1.971169220254228444e-02 5.335507746854036698e-03 4.269148619590700244e-01
-3.190697464999812678e-03 -1.658446431720239037e-03 4.284788782961704290e-01
3.783650368470099778e-02 3.696688967510736862e-02 4.384553690804271486e-01
1.458693984030771246e-02 1.878175980820744745e-02 4.233143207242426875e-01
2.328193205321571480e-02 5.604014285033175058e-02 4.324246912721620983e-01
4.609068433432019635e-02 5.713570950197791043e-02 4.500287052000443988e-01
5.268651344435097000e-02 -2.007041873415277289e-02 4.699247888920374261e-01
3.257329155090576966e-02 2.386862212612830131e-02 4.351017335296623045e-01
2.755007413330031948e-02 5.716011854977950252e-02 4.343704010462002274e-01
5.335200362031307375e-02 3.031052019737418956e-03 4.628779297917374191e-01
5.005253605271777623e-02 5.094776880313908046e-02 4.808552089716139344e-01
5.018723851784266665e-02 2.259024860101031124e-02 4.899869409489274186e-01
5.552555343443946884e-02 1.023989356880252062e-02 4.733332163355419842e-01
1.917782265223601235e-02 -3.124417265492846884e-03 4.315216110515983639e-01
-3.122028193962325671e-02 1.249673732687797776e-03 4.354054690065851663e-01
3.998556425836702344e-02 -1.546662437024427274e-02 4.452862599070017691e-01
3.249033865210609190e-02 5.953656297775376804e-02 4.382140674136515979e-01
1.025451386501122393e-02 5.027036354399848361e-02 4.218859473819044914e-01
1.014706643407527892e-02 4.100860894321556316e-02 4.178414781840338321e-01
-8.673954867145084249e-03 1.075653001856321719e-02 4.218148224679700853e-01
3.980367393112820701e-02 -2.419827069638982517e-02 4.494929692204952532e-01
1.079263345211473393e-02 4.113711984874436622e-02 4.185417598193779676e-01
4.909326143544064797e-02 -2.225737764428319457e-02 4.633569524032173925e-01
4.546746629055863076e-02 5.847470115428925197e-02 4.501441080365237712e-01
3.509881977350012144e-02 6.373805858549742853e-02 4.425926171966576006e-01
3.168609522873049728e-02 -1.352688897140654975e-02 4.388340543238710700e-01
4.633178586016203221e-02 -3.280204596794405666e-03 4.502069314106196263e-01
4.620524064655964769e-02 -1.141457625467254267e-02 4.534887447469457822e-01
1.997540257941086278e-02 4.893209420961265599e-02 4.257076286733340598e-01
4.182697171589208618e-02 5.928830008693560666e-02 4.439189142100147811e-01
5.580414859015878776e-02 -4.200508880934276414e-03 4.728221452362205146e-01
3.302206679851311770e-03 3.056822618931809635e-02 4.063103954810870500e-01
4.912352739222684839e-02 1.273426838720392515e-02 4.503050765515339560e-01
5.485972892456141697e-02 -6.586626533001595923e-03 4.705000179457299314e-01
1.682683820495997629e-02 -1.543631301851389886e-02 4.342926723017394020e-01
-5.098405775309938943e-03 2.472744779617308888e-02 4.051791134922476667e-01
-2.830248071158441084e-02 2.087079165637878431e-02 4.205581446603405271e-01
4.296314399912998239e-02 -1.266489855691303214e-02 4.490719947230551456e-01
1.890037154801784552e-02 2.810641895458922818e-02 4.254789278677076902e-01
5.384276002979022924e-02 3.934673911540514935e-02 4.722347304937583590e-01
5.320299985593748837e-02 -1.281946229895515599e-02 4.682108039417613998e-01
2.504061827786194933e-02 5.580284157614747581e-02 4.331009972862365220e-01
4.055755212227039885e-02 -6.732093751540125029e-03 4.447388896378497991e-01
5.240503479469674208e-02 2.017852245465191763e-02 4.556581789697478624e-01
3.553911080084338342e-02 6.534258905731590850e-02 4.596195690442881898e-01
9.562572374783178536e-03 1.915259699790701139e-02 4.183439746118011171e-01
5.566331010395437345e-02 6.552012846781106459e-03 4.758662287835752069e-01
5.503910363935334005e-02 1.638406091470524795e-02 4.744593612656374249e-01
3.630276137411923842e-02 6.774082096085175253e-02 4.453302198518995225e-01
5.614506251629004102e-02 1.371339222604407628e-03 4.852091724157953090e-01
5.305714167288100996e-02 1.644970895670686689e-02 4.580283724031374293e-01
2.367196936194259846e-02 3.950789326788056721e-02 4.275090182671801298e-01
4.952402180323038638e-02 1.217187774594548355e-02 4.511972454300354207e-01
-1.822928336197913307e-02 1.195211382143862924e-02 4.224873445557964513e-01
2.072822485993667044e-02 5.384794776165193614e-02 4.300761096798825234e-01
3.954394558355597833e-03 1.259648951351002508e-02 4.224888363624146881e-01
4.016663589215567487e-02 3.868287240687173084e-02 4.402762605931289652e-01
2.897043192534172473e-02 -1.707983964124298870e-02 4.384322561402815843e-01
5.470589234968834674e-02 1.254470152823302688e-02 4.768208556431883793e-01
5.311308562358879604e-02 4.206286242247400664e-02 4.656065454669791603e-01
4.778345476187690483e-02 2.245679097538377453e-02 4.981020404245903865e-01
-2.054216224996752334e-03 1.623820482002888421e-02 4.161485157703471716e-01
2.113750801616422897e-02 2.789719899211989124e-02 4.280132347665455139e-01
-3.723198274570948055e-03 3.527146071050932946e-02 4.062699578217411900e-01
-8.768354139637429129e-04 4.345501463347535565e-02 4.133417732951439882e-01
5.116036106580269111e-02 5.051092049007907536e-02 4.644680576848152498e-01
1.568034868368994861e-02 2.867830230337238464e-03 4.302914710516594909e-01
1.886460157877311791e-02 3.268698479704838789e-02 4.237708832713180662e-01
3.749850855835007435e-02 3.173583079523960987e-02 4.382727940122922439e-01
5.406560969324346322e-02 3.744473889220251150e-02 4.691600709719352946e-01
-7.481507066232215980e-03 1.867885607904436543e-02 4.112010918212213872e-01
4.954836817580474118e-02 1.158305955109235376e-02 4.970101602987902489e-01
5.248041529347220041e-02 4.528287416731616860e-02 4.655897881013332795e-01
4.563890497713839201e-02 6.165214068198567043e-02 4.551854210792342648e-01
1.586946933813495123e-02 2.232106849798150619e-02 4.228595207375288600e-01
5.037404935568108588e-02 3.736435126508244609e-02 4.511530406483568179e-01
4.565128281193431281e-02 -1.263963897767417591e-02 4.528645886548664512e-01
4.583040829396789473e-02 5.351474579564993728e-02 4.874693478404846236e-01
3.263347283262151705e-02 3.210653640391333830e-02 4.349940219179443401e-01
-1.426972449882768848e-02 -1.937459864208923924e-03 4.302866770850125033e-01
5.506825165393298971e-02 2.803213551104598994e-02 4.675784803240453091e-01
4.336953594585885030e-02 6.455565865336160281e-02 4.638279733153771178e-01
5.412576775856686034e-02 5.071693010348987674e-03 4.904644607945028434e-01
-1.796785164948880645e-02 3.034662764072170935e-02 4.105597407318282710e-01
-2.535810377788785819e-02 3.632368043809338504e-02 4.176239153570631690e-01
1.404703060765838743e-02 5.385058914338720221e-02 4.318776746310852843e-01
-2.360754111432614155e-02 1.933556579726723040e-02 4.181676881048521088e-01
5.509421472472252057e-02 2.845042235795722241e-02 4.688247650343888573e-01
3.547348074130476231e-02 -2.982486515055151471e-02 4.482605248091162675e-01
5.409775956504023903e-02 2.711406312651419570e-02 4.797167978184672110e-01
9.200638286697180451e-03 4.833631775327798183e-03 4.278242349434318581e-01
4.272495434389086272e-02 -1.453339190870764006e-02 4.489599978455799389e-01
5.730531661173124576e-03 1.666053813971352451e-02 4.179280735989543416e-01
5.560949532951553476e-02 -3.303000796960318432e-04 4.940812011903067957e-01
7.200223291974779810e-03 2.195142053793145906e-02 4.142395322436210892e-01
3.364658337631949714e-02 -2.674368551635770974e-02 4.450707401099146532e-01
-9.171919297335469345e-03 1.168631694032619232e-02 4.208737175813774267e-01
3.401704458724037067e-02 4.433792943561944144e-02 4.355772712842874705e-01
-3.212603996474719392e-02 -8.411831741178420110e-04 4.369458227664576033e-01
2.993690203140232653e-02 1.294934599005665744e-02 4.341162624526471725e-01
-2.125839827302795568e-02 3.180936744655598475e-02 4.118681238110663556e-01
4.413413152717394344e-02 -1.588230672927335926e-02 4.511564372026468650e-01
1.616652665382328422e-02 3.141369466765379231e-02 4.201743061985691585e-01
4.832889880008032352e-02 5.661868682965704586e-02 4.589464537237978314e-01
4.735754120725161470e-02 -1.841432687190379044e-02 4.585693190368110295e-01
5.410933260012714546e-02 2.034093844191112166e-02 4.617505855932611536e-01
4.466077926082423488e-02 5.158284360790800493e-02 4.444159591450023150e-01
5.358385441014575784e-02 1.002231660943274025e-02 4.851565127349055095e-01
5.447013364151098713e-02 3.574250346362659037e-02 4.727234495635587730e-01
1.419495533677548119e-02 -2.158343244754099867e-03 4.301542744371698590e-01
2.435223048118979883e-02 2.657093703776323285e-02 4.305888811240325964e-01
5.404481890906942532e-02 3.285240018574520776e-02 4.794742214944760494e-01
5.659814663877965613e-02 -5.225773882155599834e-03 5.048076984985359061e-01
-3.401366580903141673e-02 7.104894272539937286e-03 4.372871868498092174e-01
-2.335477908335645628e-02 1.723365134957927786e-02 4.201996545628448598e-01
5.090844127376489142e-02 1.583802534345546582e-04 4.571787698494413910e-01
5.475084508219316137e-02 9.998721159344687963e-04 4.672886640270493830e-01
5.262334293150955356e-02 1.667848237921895627e-02 4.835951683012483793e-01
5.477266286323815431e-02 3.128904213951923946e-02 4.658567863791734931e-01
2.653068297833664421e-02 -8.189622256746837033e-04 4.343491212751465769e-01
5.477471824254719762e-02 5.987299796001672308e-03 4.845012241767008843e-01
5.441092183606698746e-02 3.614470878085972172e-02 4.730430611098629945e-01
1.425977372590820844e-02 2.644890624768332643e-02 4.198799904228476820e-01
-1.288710015837857097e-02 2.586011280931103939e-02 4.077423417777810699e-01
4.244992656676609827e-02 9.775129647406509067e-03 4.434377389679362569e-01
4.449724352004283401e-02 5.381384454503557180e-02 4.448366228453323745e-01
-9.367413669202835289e-03 3.785361603029580805e-03 4.268980306661389057e-01
4.919685575345409539e-02 2.034822389888280361e-02 4.489383361703008224e-01
2.986650647295124861e-02 -5.208388167567292067e-03 4.362445416306551249e-01
3.364203676589218317e-02 -1.747923097084149932e-02 4.410678938119405035e-01
-2.794326697376775179e-02 2.104404926177002103e-04 4.337591608057764225e-01
1.060025989255034256e-03 2.091002895580140047e-02 4.102036487202237458e-01
5.038093259481869063e-02 4.524403793697778092e-02 4.910754765208438788e-01
5.535338925850079306e-02 -9.424148447304654067e-04 5.024244242836115593e-01
1.566621260858035852e-02 -1.285268404738065806e-02 4.330192473952092502e-01
-7.027491583025295870e-03 4.071779147872030963e-02 4.118444279801968810e-01
2.960090059045182923e-02 -9.348860705094287279e-03 4.366174248496696997e-01
5.307548178162580649e-02 1.826210626859716551e-02 4.817439833728183740e-01
-2.855875330862830963e-02 7.363123333148044805e-03 4.317697835576780885e-01
2.715913454639794049e-03 4.333237344679112708e-03 4.269348808470453394e-01
4.311330751713191023e-02 -4.094017905993401103e-03 4.469193356424667196e-01
-3.097936699033839239e-02 9.431928917470190979e-03 4.323174783457584547e-01
2.446027168377170116e-02 4.332896840025016877e-02 4.280331107270822222e-01
1.672719497170645220e-02 5.578797267558619280e-03 4.304185985031155903e-01
5.278091008807321571e-02 1.589785142168068793e-02 4.832516327042651882e-01
1.120610351774969232e-02 4.911555671660122746e-02 4.215461826421498248e-01
-1.095184154062515264e-03 8.613402631724945829e-03 4.240972676950363063e-01
2.367287833548602227e-02 5.591655325780170438e-02 4.325623073625327608e-01
2.588481259335672843e-02 3.862740272433180105e-02 4.297082461002048048e-01
5.517189326520030579e-02 2.139729775825933641e-02 4.691813307974084246e-01
5.687932172704093792e-02 -4.573272742958814016e-03 4.800284911318510872e-01
5.488516911044745428e-02 1.992915293059690021e-02 4.671798022054059474e-01
4.882631501487844777e-02 -1.165361295859658128e-02 4.591504361937738254e-01
5.443884338517722410e-02 5.336438700639357935e-03 4.871237796306647216e-01
-1.279260353502717149e-02 1.486445102672066983e-02 4.187504496689311018e-01
5.644013961121237266e-02 -1.337192482841587440e-02 4.787737334010978563e-01
4.587573140147500894e-02 2.535146727718648463e-02 5.034866303485916461e-01
2.058008335210609330e-02 -3.971792783065835296e-03 4.320469136390220344e-01
3.742925308194472445e-02 4.300459976677824259e-02 4.380306848899764294e-01
1.574242433485423601e-02 2.512370155689468143e-02 4.218929464724743839e-01
3.752300993006467411e-02 3.794559246980668855e-03 4.404913779443625499e-01
-2.674039967294670334e-02 1.661273730720943045e-02 4.224661567486195368e-01
9.189747513967679027e-03 4.034540670349606034e-02 4.164844821007330777e-01
4.934665686797419515e-02 3.012097342662434923e-02 4.494752047780345428e-01
8.637280819668651313e-03 4.426312544151918965e-02 4.180230286894410785e-01
5.384144806306043890e-02 1.990512924755613935e-02 4.599413762584007026e-01
-1.953454439152212466e-02 8.228807127969492083e-03 4.254222043835853562e-01
5.503684582323036673e-02 2.541394595463074974e-02 4.722750399537320454e-01
-7.138090193917348038e-03 1.423731608251956916e-02 4.183510981505825232e-01
5.275304421361446533e-02 1.054832739053487498e-02 4.587761307918313269e-01
3.398065451374895213e-02 2.709156807459508695e-02 4.361498753008354878e-01
2.829255727591360389e-02 6.321248119575514218e-03 4.339453785268618247e-01
4.817601080035689015e-02 2.302638587188794023e-02 4.476459522361531662e-01
3.426527933497483525e-02 -2.005888429528341135e-02 4.423372361996711910e-01
5.531416616090494009e-02 1.198571308956359466e-02 4.715214422942291539e-01
4.791967643385467573e-02 2.357799770106501838e-02 4.975599662997446937e-01
3.504228494059145882e-02 2.779887475606414304e-02 4.367843132367322245e-01
3.359050685992818336e-02 3.200137412288474315e-02 4.355585785285386868e-01
4.802033939725408596e-02 4.452178461267401050e-02 4.961646975761838108e-01
5.360239620408105421e-02 3.013619351085415274e-02 4.578895165368803699e-01
-1.714025920465797213e-03 4.330808054312270533e-02 4.134933764950552981e-01
5.356838879612303012e-02 4.165066018946681631e-02 4.773256699746725173e-01
-1.510286528496769358e-03 8.808689605544282875e-03 4.238766422910853482e-01
5.870441095555492539e-02 -1.055093105180776765e-02 5.014591263941750032e-01
2.051848427569857858e-02 -9.278908046645313254e-03 4.332081059560110581e-01
5.177734188990125441e-02 4.417739610734756905e-02 4.573257294800900929e-01
2.925203513131947181e-02 4.143175968487591843e-02 4.322634557388194687e-01
2.989601989752783268e-02 2.212600692167973268e-02 4.338286193273382940e-01
5.450923108855504351e-02 -9.405145829235029772e-03 4.711089099703921201e-01
5.337222703312984040e-02 3.983491746963558483e-02 4.629524265204902345e-01
-2.689725081153147498e-02 2.528946029560298972e-02 4.172803706801423984e-01
-2.369944366478770638e-03 1.896115806053873601e-02 4.128136355981362193e-01
5.218628481107561584e-02 4.687970513228071484e-02 4.775701663891399606e-01
1.288415714830494149e-02 2.942882333895367394e-02 4.155873719902168917e-01
5.397079683634267017e-02 1.260369754685023574e-04 5.041673102503814174e-01
5.496612202079316500e-02 9.378786863087216347e-03 4.673980692336225928e-01
-7.530025202345629054e-03 4.088485399633434714e-02 4.124163615190157839e-01
1.386744111589229347e-02 -7.794475629993415436e-03 4.312161933406553627e-01
3.659710630031996759e-02 6.772151058967415538e-02 4.453465580566131621e-01
3.635414298528071020e-02 -2.794186719774111732e-02 4.481054842709737973e-01
1.110303492216844698e-02 3.668289266860323694e-02 4.164859829259237589e-01
4.071526388876987868e-02 6.530363850474546483e-02 4.626130242931181247e-01
5.511605621236168734e-02 2.597166593058011091e-02 4.716637703462867592e-01
1.804282611331185261e-03 -9.260765930578628707e-03 4.303107199458235943e-01
5.089108612561093342e-02 3.941334949251718706e-02 4.909097922945108161e-01
2.237285358534204724e-02 2.095636913186889327e-02 4.292193161009413283e-01
5.412785174184682468e-02 1.880958455786195874e-02 4.786579775487282418e-01
4.732209513889738123e-02 -1.804922571795020136e-02 4.583768286120698532e-01
5.030886857343624952e-02 -1.885113610039470047e-02 4.646844308702962056e-01
4.387507924174628704e-02 3.558710395593793485e-02 4.436688465322446429e-01
5.276362508902344289e-02 1.379293909040863429e-02 4.579815897278574632e-01
3.888771729515544395e-03 2.237508082006931312e-02 4.098573874177361964e-01
4.937039672125066725e-02 5.305553375510933117e-02 4.556709557724429871e-01
-2.679624056097713522e-02 7.752775949627320300e-03 4.306370203249364481e-01
1.166299354927332124e-02 -9.990774549956202982e-03 4.315379073897117057e-01
5.324514889796406331e-02 1.895250738610212288e-02 4.811745589606117313e-01
4.844631169951015698e-02 5.060411026835136966e-02 4.492856010549835521e-01
3.742770215049723292e-02 2.005675647295172490e-02 4.385304260828470357e-01
-3.810594249623498134e-03 3.205593737230502671e-02 4.034542301683618493e-01
2.357511768407977854e-02 1.938350118340369937e-02 4.305313821788159245e-01
1.732972920640237641e-02 -1.788232622592321464e-02 4.354246104131510586e-01
4.208520468253930391e-02 -7.846209312271753417e-03 4.464682953887106343e-01
3.578628860544769835e-02 -2.275459589292861892e-02 4.447675042898902031e-01
4.783873962183761430e-02 5.775046887038473575e-02 4.598045731618967125e-01
5.254237045285449492e-02 3.064815924292057028e-02 4.854913184737078002e-01
3.865292130446867230e-02 -1.996946533424692749e-02 4.456037754743958912e-01
2.757308845216686205e-02 -9.408437728328509012e-03 4.352824279095803828e-01
5.250741693368621288e-02 4.062834059670549641e-02 4.854868550753936307e-01
2.158469824344505517e-02 -9.730975288698286846e-03 4.336385430113395278e-01
4.796811852093312706e-02 3.451285316931127639e-02 4.480314625003129492e-01
5.308099958754366327e-02 2.506081449520166857e-02 4.565039699020083108e-01
3.569403243621920019e-02 1.890654270857718491e-02 4.373220347663252516e-01
5.613230234076702074e-02 2.562201836207404163e-03 4.750120970070527693e-01
3.785353408557713684e-02 6.124553025213633900e-02 4.418959203001819880e-01
-1.479743179801540354e-02 3.942006558063227556e-02 4.133265463344471535e-01
4.281566694915193982e-02 1.241388393511918924e-02 4.433614422767309105e-01
4.986090557179983368e-02 7.016675480826971983e-03 4.531269345810459148e-01
-3.284203183097388762e-02 3.341771065532390603e-04 4.369447802253607072e-01
5.216414290852645214e-02 3.202950992822045650e-02 4.543172066832054656e-01
5.121528082821315969e-02 -2.200670187822541257e-02 4.674886949943257153e-01
4.496937129129646021e-02 5.830452608588899965e-02 4.761354252446979851e-01
1.771766589708602402e-02 -1.022037605127820020e-02 4.327162058694671853e-01
3.058376512376848738e-02 4.240079201433481770e-02 4.331867061888648451e-01
2.681252166265047851e-02 -4.712867134209951236e-03 4.343399285500220697e-01
5.472512164881798008e-02 3.146463888062425024e-02 4.655081759691899745e-01
-7.263642273397322852e-03 3.611970183198087020e-02 4.082204165092090942e-01
2.603044142305482866e-02 3.666402472435677240e-02 4.304556788976615644e-01
-3.079119764010410792e-02 8.252152147137682692e-03 4.329986116263321860e-01
4.932276139355568773e-02 1.839789337201954214e-02 4.494814185534349860e-01
6.515607960437643127e-03 3.278249150707715498e-02 4.092287627038967979e-01
4.589608647166158045e-02 1.879986063736073520e-02 4.459142186770055361e-01
4.655723147730564393e-02 5.254849241782467983e-02 4.886642557295903244e-01
5.012837893308208503e-02 -1.108553393546145641e-02 4.614637387573945482e-01
2.271491229904520903e-02 5.028132267763420205e-02 4.282509246916022527e-01
5.480639563750160786e-02 2.349199562274562753e-02 4.659902814635638046e-01
-2.813596249288061180e-02 2.823765313816194514e-02 4.164167152507622927e-01
4.359077912726323084e-02 1.146443519301049672e-03 4.459775991551745977e-01
4.150964967537527223e-02 -1.745602781391797365e-02 4.477510923464478876e-01
-1.983195733243683923e-02 3.424379745439278672e-02 4.117837160322344592e-01
-4.496619239788548356e-02 5.959381551670632927e-04 4.464102561584175621e-01
-1.148953396462496640e-02 1.111113075342807024e-04 4.287069883748218513e-01
4.991761184824566183e-02 4.816659326083292531e-02 4.876288369117023347e-01
3.455782923185566485e-02 4.434988070271124461e-02 4.359563284869741873e-01
1.175685129805277909e-02 -1.424535442387122632e-02 4.341328348687125138e-01
4.115174363408979907e-02 -1.302872788220140604e-02 4.463473514306209311e-01
5.513998560079545752e-02 1.152266608642837573e-02 4.694165109997978647e-01
3.007898939492788248e-02 3.479445677616662541e-02 4.331957967390132613e-01
5.205913968311143974e-02 3.648721109669186835e-02 4.879607621507766613e-01
-1.083543091734923483e-02 3.290202097583283525e-02 4.070585656207129088e-01
5.071501830994416815e-02 6.576298671811897298e-03 5.010333997683656948e-01
3.911254343703820385e-02 4.332008404830871989e-02 4.392241466167748354e-01
4.638736306321260272e-02 5.117381873042511214e-02 4.463527281668799862e-01
-1.725880774923520961e-02 7.924589577647656383e-03 4.246739029265295673e-01
5.477611069999769461e-02 3.369472010736614814e-02 4.716798494834200661e-01
4.528799234436418214e-02 6.207017172471256811e-02 4.549306484569248243e-01
5.518778031739888373e-02 1.572535642316667120e-02 4.735683403602862773e-01
5.622469335693584813e-02 -2.901413031161391865e-03 4.743662410080398129e-01
4.722601004498386268e-02 -1.468651802036344094e-02 4.567859694927852154e-01
-2.945953902729881585e-02 2.147333101308234599e-02 4.210256053474775162e-01
-3.750326427808888148e-04 -8.464572036778906378e-03 4.300062077018156348e-01
-1.907050829972748579e-02 1.898422798077032889e-02 4.170435121682475321e-01
2.160304563290687402e-02 2.507947947947945094e-02 4.280482654855493063e-01
4.309631850823116006e-02 1.080684943580716151e-02 4.437894132156307014e-01
3.065188608926299255e-02 -1.123238699385175135e-02 4.376820066382283714e-01
5.672808054405854838e-02 -1.551052410858357565e-03 4.905430265991910233e-01
3.930417329820445546e-03 9.920717141307952222e-03 4.242930530992565785e-01
3.538085161302999965e-02 3.804635542535494269e-02 4.368389152853509039e-01
-3.417639422612830935e-02 1.700451294225825086e-03 4.371855819543647437e-01
3.452048110173267653e-02 4.334443251978243455e-02 4.360138151096940029e-01
-2.120145923171638455e-02 3.253378604765379267e-02 4.118657366864258984e-01
-2.695038002379906289e-02 3.006628203635847846e-02 4.156165580571683504e-01
5.519893246022303940e-02 2.189715259675115849e-02 4.705997717725408092e-01
-1.104029243131783231e-02 1.984275529575244001e-02 4.126745043705190019e-01
2.459645898092842342e-02 2.444780046317669014e-02 4.308092313871943468e-01
-2.917617720390102559e-02 2.763724924680997092e-02 4.173450386292460457e-01
4.998407803830616503e-02 3.419238769079137319e-02 4.503270989706728011e-01
-3.324966555209598468e-02 4.966068053541872022e-03 4.372006725612789801e-01
3.341058742042462421e-02 4.439956394537534351e-02 4.351497411211692756e-01
-4.073115929757764250e-03 2.839787072732611120e-02 4.037405054210099209e-01
-3.532992256308955387e-02 1.909986022675932982e-02 4.281796017221108364e-01
4.528904773938311618e-02 1.347788008820908351e-03 4.474439566948769098e-01
5.010580773197424037e-02 5.321097090829797482e-02 4.688537315152329632e-01
5.282578478574521258e-02 -1.604804513490948586e-03 5.091772705798394139e-01
-2.465578761099923057e-03 -1.579299443073931691e-02 4.340794311532299443e-01
5.363815687548723760e-02 3.969615003655765917e-02 4.679507046281497495e-01
1.096908173128764968e-03 -3.787230264542204919e-03 4.287971204949692083e-01
-2.297397003111627256e-02 2.894105578263459627e-02 4.131224609425024341e-01
5.560152427604484610e-02 3.072230647005300911e-03 4.723779094484407692e-01
3.298787895175233058e-03 -1.699376250368031180e-02 4.354600391870269704e-01
4.234880345350271191e-02 2.961209760417990444e-02 4.422866257969283454e-01
6.918659481246048834e-03 1.448490110804478113e-02 4.220958542938335611e-01
2.595097969564701471e-02 5.778550643715049673e-02 4.341374071857956873e-01
3.523256111067758073e-02 1.517448968621536685e-02 4.373154126433790867e-01
-3.269198677220083032e-02 2.338517066791427970e-02 4.220769291523292499e-01
3.930458182054605981e-02 -9.273821935676275843e-03 4.436324239355973198e-01
2.441555568144923929e-02 2.143721455532428960e-02 4.309312036304866478e-01
5.473153180701095799e-02 -7.048774291727916835e-03 4.703131898728348803e-01
5.073709145689939831e-02 3.737473527008052659e-02 4.914408572235204886e-01
1.101955529027260315e-02 1.664502712458720488e-02 4.221578785141446577e-01
3.410903166720401919e-02 5.013813491721570703e-02 4.359836496592510158e-01
2.943084957271746918e-02 6.003368221565018314e-03 4.345227413585466825e-01
5.370539591733722307e-02 1.896957272252464133e-02 4.594132484250316728e-01
-1.933389598457225383e-02 2.400309646954323223e-02 4.134936286309956466e-01
-1.877929224268686057e-03 2.363814787889281441e-02 4.061215625566194642e-01
-3.908548931815846589e-02 -2.840581081532461347e-04 4.406571649133539936e-01
5.090538509342705520e-02 1.118119995514117032e-02 4.544017243123221750e-01
4.653858112450560969e-02 4.538641184808862167e-02 4.459310169948443314e-01
1.404558844490077715e-02 1.541531424576880402e-02 4.251512661747119948e-01
-1.883523191698816771e-03 -1.674319412097486411e-03 4.284463083394915994e-01
5.607826789758989933e-02 4.284475591410973408e-04 4.893932456829198085e-01
1.917728350648144689e-03 -1.269840793695562083e-02 4.322548854535719354e-01
3.791723659295059140e-02 4.091422445538132197e-02 4.384450138511579720e-01
4.957677245814395145e-02 5.396629242089451967e-02 4.623484246699637867e-01
-2.732000531520222680e-02 -3.508533113776627320e-04 4.338139679292443152e-01
4.376620101133370938e-02 -1.954665428026934951e-02 4.521126529788462300e-01
2.096539070437367785e-02 4.605015277756230319e-02 4.255323513877982133e-01
3.068065666654682874e-02 -9.905509415351865590e-03 4.374728880834289346e-01
7.564391365358680980e-03 1.705700494730532160e-02 4.187790553172797137e-01
-1.715107315182819517e-03 3.978206796972282716e-02 4.101279360679441210e-01
5.544396580841687988e-02 -1.189081226932565613e-02 4.757740737169124934e-01
3.072242360870554648e-02 6.405656391590436316e-03 4.350367497756149615e-01
-9.448505467798367155e-03 3.626990604935444173e-02 4.088014838579314136e-01
5.121787893073524896e-03 6.872974382072294386e-03 4.266449607447342363e-01
2.690464500996216438e-02 -1.301839897937247768e-02 4.363038952822980154e-01
-1.055058738398705759e-02 3.403678386812962475e-02 4.075604495015178741e-01
4.540077016873671212e-02 5.694814987299760822e-02 4.785529164028398674e-01
4.832813260516263115e-02 5.519800267192670473e-02 4.764529699795737039e-01
1.581399986273244324e-02 -1.403413335940080844e-02 4.335542283798292096e-01
-3.148008699061247140e-02 3.505531474967595734e-03 4.346679377594214744e-01
4.887455607994036638e-02 9.819780700868347909e-03 5.006637960758140160e-01
-2.900254932432081573e-02 3.173980900999725380e-02 4.180089538431699392e-01
3.573673084263478961e-02 3.205585337576399851e-02 4.370419483440194930e-01
4.999661855935969013e-02 3.298011956744786866e-02 4.503392103604550445e-01
4.477002879377806055e-02 -2.274587326841391588e-02 4.557651891578887726e-01
2.329410357570762136e-03 6.084542133516820071e-03 4.263408817312939192e-01
5.291425578221778392e-03 7.826591799053459614e-03 4.260367793260194658e-01
1.612622876267625488e-02 5.190996768778945170e-02 4.261988165185669475e-01
9.632912149325257439e-03 1.680914186215130487e-02 4.208708836780035156e-01
-2.382299796522367036e-02 1.792661172127228697e-02 4.196493035432705687e-01
4.360171735040990065e-02 -5.560872930169862699e-03 4.479140772859896424e-01
9.202873973178683775e-03 9.556679041952006320e-03 4.259077762549244861e-01
5.445874173829018394e-02 2.729597041198098158e-03 4.662966479281995813e-01
7.639147975250950955e-03 -1.283885257405836811e-02 4.331716555987329964e-01
4.559688584935647770e-02 6.091372525915329794e-02 4.667997507828994252e-01
-2.857414883240838241e-02 2.314530292169931364e-02 4.194521455811978106e-01
5.245962046311321292e-02 3.070982997148511903e-02 4.548542418971182055e-01
3.802790946212980527e-02 4.357375463604947104e-03 4.407499158289234775e-01
5.010877392587678725e-02 1.242757718792388000e-02 4.946247523149596148e-01
5.565500000788860951e-02 5.382212992879571029e-03 4.735417676398195885e-01
2.594013159832635196e-02 3.989522129665121208e-02 4.296978945889883827e-01
4.727535532124708256e-02 2.959431912226086897e-02 4.999044266027777295e-01
5.222304341093591401e-02 2.915362265476086762e-02 4.860029145106730120e-01
5.131423484645149941e-02 4.655952240015263921e-02 4.844995200321375317e-01
4.566226477515457349e-02 -1.484472371084138639e-02 4.533873257526050415e-01
-1.184815465849947897e-03 -9.958735495974162591e-03 4.306823995884834222e-01
7.180130065559639160e-03 -1.173742586545755730e-02 4.321755375224409224e-01
4.967528536631297953e-02 1.345963981779218360e-02 4.511959783700899007e-01
3.336193339883131159e-02 -1.487220537011478202e-02 4.403033442904685790e-01
4.593451207125864855e-02 -2.207708402980109938e-02 4.575251626813220396e-01
4.788057387510503971e-02 4.785859735867751402e-02 4.947779532296395777e-01
1.706248661847689641e-02 -2.335577505099397863e-02 4.368740996487117112e-01
5.288059209433203928e-02 -1.405775948296852235e-02 4.679847070009612309e-01
1.739246303710535041e-02 5.507910195709729562e-02 4.334714527128752382e-01
5.515715893911871115e-02 -5.052687781468633878e-03 5.102833263554009680e-01
-9.279065587259806291e-03 3.229012068010062020e-02 4.060796389292087860e-01
5.226577709950289141e-02 4.664057216099601333e-02 4.721364004958235050e-01
2.026452032775759998e-02 4.515201768158016299e-02 4.250095861356827376e-01
-2.497887677089668385e-02 2.621437785155235345e-02 4.155736564918626197e-01
5.484399629647159630e-02 -8.810321507262469307e-04 5.038489191252003563e-01
-3.168774830879411697e-02 2.125294146785382948e-02 4.226429893158071271e-01
4.812046260238463102e-02 5.662357128234409009e-02 4.688751852589849167e-01
3.720971682957522481e-02 5.569753969637154800e-02 4.389642325070576834e-01
4.430772665863784432e-02 3.320716106108105841e-04 4.468421551052801921e-01
2.448320837632621261e-02 6.024599449730307088e-02 4.426322845455004096e-01
5.204023213723662361e-02 -1.659424013177139209e-02 4.674235695656339118e-01
-2.231611762099807578e-02 3.214040043399862823e-02 4.122231807753713451e-01
-1.418333955162497280e-02 2.857766454177566168e-02 4.083340156905848062e-01
5.487396432324409545e-02 7.846989659183078308e-03 4.813764561842503453e-01
-1.150687490702849078e-02 5.635656382747414664e-04 4.285260788531487508e-01
5.496373953261474155e-02 2.673315558464654795e-02 4.759173755512292603e-01
