4.772984765177364780e-02 3.040216739923659942e-02 4.986858056045906373e-01
5.536761878463747344e-02 1.388645202965251360e-02 4.720558928002381305e-01
6.037011927345771467e-03 5.969714959262841132e-03 4.271087939667851940e-01
4.414742078057195401e-03 -1.691618686605959529e-02 4.356785117007340724e-01
4.987325060896030671e-02 3.389209126744623275e-03 4.537079957299435251e-01
4.662592393352043424e-02 5.810268713631146220e-02 4.523014674992592576e-01
4.290465669451452857e-02 4.790604872778462392e-02 4.422162824680728743e-01
-1.316687414600648930e-03 3.250189077181186992e-02 4.042651126474758327e-01
5.551869373139840802e-02 6.433907645234687722e-03 4.726188009447684912e-01
4.407187212864405179e-02 -1.270737541149232971e-02 4.506366289500228772e-01
5.476996487337242037e-02 1.903527676688110057e-02 4.664569253924071290e-01
-6.835915305105764138e-03 3.547016280802862964e-02 4.075699946574600219e-01
2.158889425567597428e-02 1.842583369929677584e-02 4.292354285732891683e-01
3.902884690788767375e-02 5.998731568462271901e-02 4.416207853467902789e-01
6.602102854934157640e-03 4.412310478395299607e-02 4.157676383113805274e-01
2.052681587308285115e-03 1.444186994779028503e-02 4.194842446599789665e-01
9.502746597915192467e-03 5.069944930665979538e-02 4.217603046525577049e-01
-8.152798142966639558e-03 4.042495166458487388e-02 4.121704878136641104e-01
5.428901204903377464e-02 3.606929163761436741e-02 4.769589016609703247e-01
1.567669972418665736e-02 4.403724187998624140e-02 4.223938629570782588e-01
1.162055767418201414e-02 -1.105275736606168603e-05 4.287886561549477671e-01
4.489903763648572105e-02 8.604068097020085848e-03 4.457702213961291515e-01
3.843451393817089168e-02 5.186263866217742657e-02 4.391202973180321489e-01
-2.730608630495503023e-02 5.078457756478547969e-03 4.316600447559116316e-01
4.559985375812891650e-02 5.294001659464712961e-02 4.890774928853063308e-01
1.465347843696244642e-02 1.981070282373074629e-02 4.226978152654479182e-01
4.412223256450189396e-02 1.228347368345784896e-02 4.446054569159525460e-01
2.473235214589747030e-02 2.336153409037898705e-03 4.329973028176403727e-01
1.048232861449372583e-02 2.421959863852410355e-02 4.158248458766342082e-01
1.095935182113281017e-02 4.636222034547420046e-02 4.198931037325230875e-01
5.170160984636121976e-02 -1.479491559049148086e-02 4.659377678505774445e-01
2.679820634217197975e-02 -1.944658276649668602e-02 4.381442386377943921e-01
-1.573608229579729137e-02 1.770137483870406689e-02 4.172972090196558348e-01
5.132071241158392416e-02 4.933994184000920630e-02 4.774355684074704786e-01
-1.016394684632312452e-02 1.773476202893649106e-03 4.279790505565371772e-01
5.214705450655849478e-02 1.967601736057192699e-02 4.551537373294121114e-01
4.617096317347837292e-02 5.961491259920597557e-02 4.530657453317288308e-01
-2.443929536326077193e-02 8.663266469185550850e-03 4.287916454285579104e-01
5.605101588048751193e-02 3.185515065006932003e-04 4.901994800247220230e-01
3.587023940588621868e-02 6.004210941489861175e-02 4.397777439064626259e-01
4.060198590891590104e-02 -2.269294597044576103e-02 4.493852887233457660e-01
-3.375520666290370009e-02 1.748117557736111535e-02 4.279793935476353117e-01
3.905022556534889534e-03 7.458295103021306965e-03 4.259546871427957737e-01
5.336817864803643924e-02 4.166801653194221466e-02 4.715914767091384796e-01
5.263569584838643373e-02 3.768556341067203636e-02 4.572807282851791277e-01
-9.799688562688696827e-03 -3.952690844349453225e-03 4.300105377258450767e-01
4.354024984644945528e-02 5.247393925887616772e-02 4.938932364825208698e-01
2.468709750787505958e-02 2.922765351900891498e-02 4.309549925927560476e-01
5.350901498080696400e-02 4.039050722761677176e-02 4.677470886730332733e-01
4.181185219442855316e-02 4.078972834662456665e-02 4.416469572509707509e-01
4.023682286918352918e-02 -5.168900072389018968e-03 4.440956331685728120e-01
-2.664545227672883085e-02 2.475912182696755892e-02 4.173955422714319408e-01
4.099823711112083463e-02 2.131550227048888829e-02 4.414248968746140034e-01
5.258933942309160919e-02 1.438182045652234772e-02 4.845483166189309965e-01
4.901404467657403952e-02 5.532724830902856217e-02 4.651270448668594071e-01
4.454742557177106266e-02 1.305878892516415535e-02 4.449688619866877248e-01
5.438484503026677630e-02 7.424150775220423465e-03 4.841435892900129434e-01
4.664461928303257482e-02 2.347740379982017969e-02 4.461975479511735565e-01
5.392355086941907211e-02 2.935138354132834151e-02 4.595521994143433875e-01
-7.021401047714696808e-03 3.470023082534053407e-05 4.282391879645465749e-01
9.060276818852827261e-04 2.514180318963510092e-03 4.273725433368972260e-01
1.013307494524246476e-02 -9.347460688248467042e-03 4.311514423353885461e-01
3.388093432186190489e-03 1.722326020361149290e-02 4.157557371672490620e-01
5.494719996653179422e-02 7.775996051664089102e-03 4.672440893295575215e-01
4.694207933273040340e-02 5.235070837859592124e-02 4.887053107587862044e-01
-1.028185151161143014e-02 -4.285592298295315926e-03 4.303112293890113960e-01
4.815358904776810556e-02 1.901135213715220151e-02 4.970660057509312946e-01
-1.428841785135285571e-02 -7.896182883403999112e-04 4.298288258592050659e-01
1.043769155309801772e-02 4.918217385609397613e-02 4.211280288639008829e-01
3.732203059654030930e-02 3.346361270707241299e-03 4.404247817904721751e-01
3.465212291286807328e-02 -1.712967413968826541e-02 4.417271050423084433e-01
-1.340543538392847955e-02 -8.646151880667807266e-03 4.335406480733759449e-01
5.256814402703020167e-02 -8.177108672573617232e-03 4.647710723610649075e-01
4.624467104591625105e-02 -2.024037944078433543e-02 4.571798213005224265e-01
1.070546954712902482e-02 3.927533237441407227e-02 4.174595635651495162e-01
4.352345922695374791e-02 4.861860885156356164e-03 4.451880044876474485e-01
-2.806087030017509476e-02 2.039535478054690237e-02 4.205347257529188365e-01
5.282435416281357210e-02 2.087730382946062502e-02 4.821467407322250764e-01
3.333580495311976727e-02 -8.390820990057916082e-03 4.389115508216333006e-01
4.729703290457742959e-02 1.477697904080939838e-02 4.479133927512710112e-01
4.722809609226136240e-02 5.894375293380643699e-02 4.601134055635502373e-01
-3.359079319653905660e-02 1.095986472291485443e-02 4.351062096367666610e-01
2.382650530292147045e-02 3.665812476663953684e-02 4.280644543794673851e-01
2.802846302552485999e-02 -9.789148055298093482e-03 4.356443360708122658e-01
5.393832504493172725e-02 8.613593676167163177e-03 4.630981536927938347e-01
1.537942066274542580e-02 4.294107874673121217e-02 4.219616765514877521e-01
7.860599563235816725e-03 3.390280567692906949e-02 4.113612080028914431e-01
5.074359900395409434e-02 4.718622892136272590e-02 4.555800389732474476e-01
-9.076941232005881349e-03 3.216923131040416804e-03 4.273526972920269618e-01
5.095974596071156659e-02 5.033859652309823768e-02 4.612981567825092943e-01
4.755123670962174698e-02 5.742942484326479108e-02 4.710772839552185842e-01
1.115493773966897036e-02 5.710830616460277863e-03 4.282070672969865988e-01
-8.691268136052983373e-03 8.766618092125318118e-03 4.233165807190688024e-01
1.095777071240485942e-02 2.666214959832362633e-02 4.145590315221431843e-01
4.743882266006307219e-02 3.089045027883086450e-02 4.992971264796084441e-01
5.409756245078411324e-02 2.350469244784854361e-02 4.615992409271924002e-01
4.964745922046352733e-02 3.019375495317899900e-03 5.085468992156573220e-01
3.661256620324605110e-02 4.821075601091893981e-02 4.373972491833989507e-01
1.516170942505957499e-02 8.017425525599780611e-03 4.290045392191312867e-01
4.077792505633260484e-02 4.967544194004452213e-02 4.404297993026259905e-01
5.562486222480602510e-02 2.806710698863690463e-03 4.724816243867269727e-01
5.419886100403108892e-02 3.738546590372310297e-02 4.730855748248793402e-01
4.003554626487113716e-02 -1.689309450353347272e-02 4.457763425195453988e-01
-3.211506537355020979e-02 1.357141864948162649e-02 4.299468285153821845e-01
5.500587873596485960e-02 8.199577621525665563e-03 4.679401635806596516e-01
5.319114767235248037e-02 7.571095119394272155e-03 4.899103892863714838e-01
5.406844678001902077e-02 2.701719387879461531e-02 4.798232619481220262e-01
-1.842017930236638200e-03 2.484952786395554225e-02 4.055717896901617214e-01
5.479906866240088353e-02 1.930640181484213902e-02 4.666264686921325344e-01
5.475882154718528932e-02 2.343348927107679128e-02 4.743698332559793118e-01
-1.308986556044168525e-02 4.020645399831401789e-02 4.145910853525028306e-01
4.684884282381186066e-02 5.827887470509982015e-02 4.712059059245473081e-01
1.923164382683726498e-02 -8.430159088277978247e-03 4.326058845271799069e-01
5.097846822437721720e-02 1.822193796183813053e-03 4.565453575074118198e-01
4.884613484299232811e-02 7.669180196124830186e-03 4.510416227767733988e-01
4.888624665374997208e-02 2.807900705033610639e-02 4.950623025124998855e-01
2.549006400518029347e-02 -8.752113933067764279e-03 4.344744844417571805e-01
5.446014540618009103e-02 2.016935333543510775e-02 4.639985329276681836e-01
7.637032059717193191e-03 -3.771170206243125780e-03 4.292277295036888152e-01
4.456343347245247943e-02 5.945961986891455664e-02 4.741711235488751397e-01
1.859029622153431788e-02 1.897563813269419891e-02 4.267937031912927281e-01
8.884515597008554519e-03 -1.324747174143297429e-02 4.335376971304509275e-01
4.620631917438035308e-02 5.457211093757033393e-02 4.478680607078904807e-01
5.505184551560108469e-02 2.637994946710395597e-02 4.735907948348624941e-01
5.041594915989562609e-02 1.330069292066186556e-02 4.528102793895243394e-01
5.452971500156617024e-02 1.558823231739437688e-02 4.770639993020916458e-01
5.769670934019355962e-02 -8.858014304256322385e-03 5.073178430871561062e-01
5.105250834392176251e-02 4.577677308815042423e-02 4.555238858242708910e-01
5.223150418850037308e-02 -1.012469506448294455e-02 4.650316211020366075e-01
5.522287034390059579e-02 9.673950936500617243e-03 4.705187513633863339e-01
5.620405268298061391e-02 -3.606258245554313201e-03 5.014036532370650390e-01
5.201615805843290419e-02 2.601742500263963531e-02 4.855699346227218549e-01
2.884536569900540692e-02 -2.132968425003435239e-02 4.396057773799539325e-01
-1.145471776141630642e-02 7.453758591073805784e-03 4.238130531730398554e-01
2.338905151363254720e-02 -1.951775304090712024e-02 4.370021415554682376e-01
-1.256723159914730631e-02 1.857310940841308891e-02 4.157914604559103666e-01
1.798466967360507623e-02 -5.757907202427064303e-03 4.315580632535223060e-01
4.629878400176323794e-02 5.015727389341888276e-02 4.460213002481686062e-01
3.449089558616975221e-02 3.256611021888204671e-02 4.361567585784975609e-01
5.106984677186779398e-02 1.661000831194267210e-02 4.534243639954661509e-01
-4.291883884213781863e-02 1.731995630314624342e-03 4.425728906074272717e-01
3.658687064260158356e-02 -1.754350990296048296e-03 4.403078541114022193e-01
5.555256385171519068e-02 -6.571996148117795894e-03 4.735516050569851809e-01
4.758326505193774536e-02 2.403616759764164515e-02 4.986569559183433031e-01
3.634417392516638839e-02 1.716396783331813544e-02 4.379393922220755075e-01
3.504800867615297244e-02 -7.123463085426950253e-03 4.397845695088635765e-01
-2.908691290649508508e-03 1.081117705452728020e-02 4.215980426218585153e-01
5.503224701638847333e-02 2.395762612099691657e-02 4.673637355388138293e-01
3.887407165882628135e-02 3.294045268425700029e-02 4.391875460238729434e-01
2.356069051743078790e-02 -1.351588327855261090e-02 4.353224091058617851e-01
4.716048167814650832e-02 -1.583377565421441660e-02 4.568805510332977771e-01
-3.192945524636717214e-02 2.323434298344099341e-02 4.216466340853786132e-01
5.333522126701447513e-02 4.217856321723185281e-02 4.794307873415915577e-01
5.454700229391103855e-02 3.120559839427075252e-02 4.640101719160891203e-01
1.446837178466943777e-02 2.307869214930585375e-02 4.208399761747752543e-01
5.552957275543301575e-03 3.583652904153999258e-02 4.106793757581001514e-01
5.070243981222497670e-02 -1.454478770309495378e-04 5.108422150454124955e-01
1.389055537432062979e-03 3.654831456528463696e-02 4.086544943207893188e-01
-4.189913629674307805e-02 2.492071180276938126e-03 4.466494492813375405e-01
2.198529675734913619e-02 5.338897491362117748e-02 4.300200965112277451e-01
-1.313865379102744681e-02 1.477073281107412926e-03 4.285605788042231024e-01
-1.167814380206169331e-02 1.061651743645515046e-02 4.223214437100041851e-01
4.648498657753672575e-02 1.592995694848968122e-02 4.468678552726308983e-01
5.481934585009749783e-02 2.509757429889405977e-02 4.759792722276408039e-01
4.569172425422368677e-02 2.849369027562296056e-02 5.034876354007551402e-01
4.398676666609441233e-02 5.296313993319745617e-02 4.918755339680827565e-01
1.551966078234111833e-02 6.478457964421239015e-03 4.298464852551661108e-01
4.943756778834075549e-02 4.151014870698952614e-02 4.491507599466376677e-01
-1.749326849779439530e-02 5.207888644530186961e-03 4.266561790418693101e-01
4.509797059649094109e-02 1.560292168361803594e-02 4.453082394982168513e-01
1.122031935438472759e-02 6.981676356147853424e-03 4.281109084047061142e-01
1.188373862272454340e-02 5.129856139724822683e-02 4.235508625804696448e-01
-8.599757235342118597e-03 -1.134592898356275546e-02 4.331277328021156947e-01
-6.150189887470904407e-03 1.788978516457706211e-02 4.129470521407334060e-01
5.396095009465955161e-02 -3.304437726850235728e-03 4.652008669833008203e-01
3.524753686443191092e-02 -1.557466100149853400e-02 4.417038624647376954e-01
-1.414468782074982701e-02 2.016483551429659044e-02 4.148627390357115807e-01
4.757225087570994548e-02 5.411761688172903734e-02 4.501013623106228656e-01
4.922871846248776107e-02 5.441132302577190993e-02 4.737299453946356431e-01
-2.646805824685035877e-02 2.343492001579974490e-02 4.179910987829113522e-01
3.078597536548177693e-02 -2.027770450653714612e-02 4.400098989257779092e-01
4.164460914870141139e-02 5.846832404276380152e-02 4.431460915186972715e-01
-1.877672328619216929e-02 9.924843223788998650e-03 4.240957450665125972e-01
5.011168919294111540e-02 2.086704785406943898e-03 5.092778341570816103e-01
5.541826303115101465e-02 -7.936082781437626965e-04 5.006269718423751458e-01
4.745255860704483686e-02 4.485061319758625736e-02 4.971450594253924438e-01
4.556378673028824849e-02 4.206037149703688999e-02 4.450114054735543334e-01
3.706036220694006178e-02 5.722172530277034284e-03 4.397602320306442936e-01
3.264980392012407917e-02 -1.244756642757539888e-02 4.391823394802511493e-01
5.518211581614990840e-02 -6.689364381983570369e-03 4.719940738038110872e-01
2.519329868800837882e-02 4.851031605269183478e-02 4.289207937793007019e-01
1.208945877111484470e-02 1.321249343713216777e-03 4.289639084433910510e-01
5.294799335252871331e-02 4.410541249283114751e-02 4.782387256209139625e-01
5.089063521130455375e-02 4.785069055483973793e-02 4.837897077202551466e-01
2.396759947444788985e-02 4.548436627348572542e-02 4.274428041224832553e-01
2.018420007092804752e-02 2.508734845319818968e-02 4.267589564255423462e-01
5.048623270842255567e-02 3.825506544590938363e-02 4.922172691188003713e-01
2.750125170356844048e-02 -1.770100650767329406e-02 4.379202887268335287e-01
4.650842444950274018e-02 5.092890494975461230e-02 4.949758547186252633e-01
5.353434267446901401e-02 -9.388509057322028811e-03 4.670959475170867736e-01
2.170720123138924693e-02 8.959968446520909235e-03 4.312054867905374400e-01
-3.995935084268564114e-02 2.451171719069261418e-03 4.487282501999835249e-01
5.182469298637684685e-02 4.435145789470485572e-02 4.865799092936448078e-01
4.618119974460931781e-02 -1.910897470519641941e-02 4.561351080623774479e-01
4.596354475493093922e-02 3.489225800241826936e-02 5.021443822211014707e-01
2.360675214934128407e-02 5.932160837476647269e-02 4.393629070124304703e-01
4.406502224420516534e-02 -1.483114543976960052e-03 4.471662815106104416e-01
2.818454016328531160e-03 1.767293672930089071e-02 4.151524275130166752e-01
4.731880525661970316e-02 9.276711578132874891e-03 5.058916709148856272e-01
9.896310805761102114e-03 3.585255113620238604e-02 4.148534428708436916e-01
2.699380223151788896e-02 -8.999639919500016308e-03 4.349522497213253458e-01
4.681929823040537064e-02 5.992081992858178802e-02 4.585790936831087294e-01
4.974337300729637923e-02 4.015003940252700326e-02 4.937651874851362033e-01
5.463710878663274872e-02 2.594477819318228434e-02 4.772309670574279572e-01
5.389353012038697321e-02 1.069145824083116147e-02 4.831626184551808256e-01
5.328628737981474378e-02 -1.147659136196977833e-03 4.633454590397877992e-01
1.894429698006233967e-02 4.772423545945897461e-02 4.248436045405571959e-01
1.387028422673461728e-02 2.088613026291940081e-02 4.212645768401387936e-01
4.610512486787233383e-02 -1.830138445133538960e-02 4.553068871991540756e-01
1.019958477313226333e-03 1.584523893971630584e-02 4.169978732457264581e-01
4.461740598105574246e-02 5.928729128495394823e-02 4.744805786502037104e-01
5.456346845965053677e-02 -6.222575271102701207e-04 4.667658575083054595e-01
5.241462734894196396e-02 3.157372566990340745e-02 4.860194234793905887e-01
5.009372151520902205e-02 8.989160383263073567e-03 4.983963836689482840e-01
8.691493368377120263e-03 2.623908086861007419e-02 4.116791886477078055e-01
1.164745221561830531e-03 3.338618736589953062e-02 4.058408506203243782e-01
-2.607813499298248724e-02 1.682314865957235811e-02 4.218888217730689671e-01
5.316134380258847464e-02 4.177965169415534530e-02 4.810889909008387311e-01
4.906262243600343492e-02 5.444596056278828283e-02 4.747701382998537056e-01
5.471341425353093424e-02 4.078041146874995804e-03 4.670381798594218092e-01
5.526565901012149562e-02 1.767023610222016872e-02 4.705555257558496907e-01
4.297190152082520226e-02 5.476342775733705759e-02 4.433674377865871596e-01
4.352311736163082256e-02 -3.155986109172029003e-03 4.470790134663032434e-01
4.381033579395591376e-02 4.274521229750376933e-02 4.433216668144070449e-01
7.061441059503530474e-03 2.004871676313044540e-02 4.152949285589211392e-01
-1.132049832227850598e-02 -2.223249328540606237e-03 4.296183705901016614e-01
5.446987722947817245e-02 2.017896480209942223e-02 4.771766536836926087e-01
5.656392872691529128e-02 -1.121724466613668869e-03 4.905616541451950363e-01
5.423671132735762013e-02 2.838842198971975109e-02 4.617022131464185719e-01
5.023960794636775362e-02 -1.665044072510892328e-02 4.637836962466173607e-01
1.119621746209222175e-02 5.167658751541977236e-02 4.242147606308001029e-01
-4.140476745633826089e-03 1.596474156149044546e-02 4.164315978595989343e-01
-1.836325112480682170e-02 3.081307041999000254e-02 4.107641765086124663e-01
-3.278900992272288512e-02 1.739295608282177830e-02 4.264013927972786222e-01
5.444627549468968736e-02 2.597781212497347544e-02 4.780577662683337392e-01
2.518118495465662340e-02 4.679669011905060461e-02 4.286387380921474755e-01
-3.633638020534632473e-02 3.456796172203869047e-03 4.391546797786687328e-01
3.899705863153381941e-02 2.831095799249665201e-02 4.393991387629206935e-01
3.135639797238044812e-02 4.150014178419820371e-02 4.338585359307103317e-01
5.163752588142365291e-02 3.655593749494171624e-02 4.890254019917746331e-01
3.540640694692702428e-02 -1.272370833460489611e-02 4.409507943112043193e-01
4.915793628261570791e-02 2.305447724224276435e-02 4.933106006639448871e-01
-1.963399484873804956e-03 -3.102097573093429324e-03 4.287363744194654935e-01
5.707365369181863213e-02 -9.090924384240743616e-03 4.826192141608309227e-01
2.443869624681401648e-02 5.001220481859836031e-02 4.293494480163966842e-01
4.476030390748045665e-03 -9.674836910731636833e-03 4.306571580537924548e-01
5.714200872180283386e-02 -3.387489514067943634e-03 4.907378088462072130e-01
5.392365613484430970e-02 3.852550728530714647e-02 4.780910870532779633e-01
3.848472644436227302e-02 -1.629518640962757461e-02 4.443031402709468058e-01
5.733066127522553485e-02 -5.249562870492240074e-03 4.867723896634686409e-01
4.992044516051571956e-02 3.587030664472944108e-02 4.933647191541074561e-01
4.761079255650432773e-02 3.428455573241053628e-02 4.984732041994147655e-01
7.572282258182383083e-03 4.101014432658428577e-02 4.150938129195085868e-01
5.107343676856275494e-02 -1.100613634821127375e-02 4.633172991116460970e-01
5.208903786983017092e-02 1.078017258665535383e-02 4.899772352658488539e-01
5.187092254781894979e-02 2.112148742856187825e-02 4.850197209483591565e-01
4.261501417047463408e-02 4.312453429642899155e-02 4.421850965421628699e-01
1.903591451626215902e-02 3.609747395545015447e-02 4.228212066142619241e-01
2.816079637008344141e-02 6.905015788028570807e-03 4.337727295510191428e-01
1.757686104356471699e-02 5.661898053012710125e-02 4.360052924860640666e-01
-1.493440574957790798e-02 2.100332169367654170e-02 4.138339578028163435e-01
5.106058924213840305e-02 1.749505711165443358e-02 4.532486520533673402e-01
-4.056982309982995645e-03 -7.750164424859122200e-03 4.304045311688710629e-01
3.378643740222598418e-02 -5.429301269014060252e-03 4.387483492523902018e-01
1.167224571428504901e-02 1.042764348926645927e-02 4.262404902097278181e-01
-1.790003113814575900e-02 -2.429181580917559591e-03 4.316097535987285516e-01
-1.089216320241394136e-02 1.011079910586373115e-02 4.226089964213060046e-01
-1.065758289639238965e-02 3.542950114522269017e-02 4.084800571282312665e-01
3.250600233167382641e-02 3.981378690673293558e-02 4.348784890415527959e-01
5.106102083273272169e-02 3.858001793454689243e-02 4.530922585734361574e-01
-2.715042726508966331e-02 7.197130122339243270e-03 4.310701260559766657e-01
1.216620690066559998e-02 2.324473925732956081e-02 4.181348447459640738e-01
1.651604864144951435e-03 4.471958983636436374e-02 4.140746002908330392e-01
5.138308081338752858e-02 9.081368281454478900e-03 4.559496625534454339e-01
2.349855180756907705e-02 -1.643668930923677246e-02 4.362026581673266179e-01
2.338517181136586659e-02 5.087908374772963892e-03 4.321409539083792550e-01
4.908901269242426507e-02 3.410976023968667614e-02 4.953368919667715531e-01
1.638685497443349501e-02 4.291560367757966954e-02 4.225006479003478588e-01
-1.080906364947764424e-02 3.947778564381563063e-03 4.268533845899872281e-01
3.682039881467273623e-02 -2.613111328414956247e-02 4.474793799592554078e-01
3.021550778003790141e-02 4.029815144770522439e-02 4.331032575318982669e-01
4.472671765157927581e-02 -8.912263898289338876e-03 4.505837683491714096e-01
1.352285696982621216e-02 1.933082005899991462e-02 4.218560589937567773e-01
-1.686635578689105880e-02 3.621477642991237193e-03 4.280068916476345575e-01
5.528162892014795021e-02 1.814551681128540733e-02 4.714704678933100412e-01
4.507172770264140232e-02 5.987573237136638998e-02 4.721695503648366543e-01
3.187289704799162876e-03 4.055593348526503189e-02 4.114540070461362165e-01
-6.926215565226382515e-03 -1.091818803210028305e-02 4.325939833412119073e-01
3.694625745429999664e-02 3.721264629404791996e-02 4.378336062783617089e-01
-3.146125818802394947e-02 2.061341051785482714e-02 4.228552545018213205e-01
5.572622230853042230e-02 -1.525629506848677312e-03 4.964188272781320244e-01
5.416417853385286502e-02 3.767247267155020285e-02 4.736992441675044740e-01
3.650329354450380231e-02 6.563882176296573223e-02 4.555787547318963515e-01
5.511094189740154553e-02 1.528812537506264203e-02 4.744425567919458020e-01
-1.241762475579997159e-02 3.872214047277238586e-02 4.112703210844448343e-01
2.529442172052382212e-02 4.925162224321578269e-02 4.294284205862732851e-01
5.226486395158157910e-02 7.926842620575691445e-03 4.927869168804168698e-01
5.563267506553668668e-02 2.805449379902485996e-03 4.725444173618912336e-01
4.852129957429447693e-02 1.765608769419096946e-02 4.959017115547312282e-01
4.679502849667009634e-02 4.944500397174917544e-02 4.464720391469662042e-01
9.426598483424971503e-03 1.197309170031208604e-02 4.245584984498047554e-01
1.558036076601011788e-02 4.659966444266846336e-02 4.229051879311893636e-01
5.210364674875141849e-02 1.647970263957368106e-02 4.854168007881411451e-01
4.788627394972237369e-03 1.666187853037237598e-02 4.171663707896953732e-01
2.000112046000736277e-02 2.974225100533451835e-02 4.263044924352393239e-01
2.083733628349074968e-02 4.514572234758448821e-02 4.252836325639856585e-01
1.542821578020585858e-02 5.295531381240695806e-02 4.290968698069465570e-01
1.336567168886907374e-02 -1.298431034212884326e-02 4.333189010654346918e-01
5.215605400422868715e-02 7.346478947643585167e-03 4.943929425659672194e-01
-1.491819318390773079e-03 1.424916811693632823e-02 4.185390326909967373e-01
1.745855659059051407e-02 2.234205057441667266e-02 4.248749442618668937e-01
9.809566922237132613e-03 -1.231521235827926636e-02 4.327742595793994118e-01
5.696406910823594710e-02 -3.811561834537458872e-03 4.924071853273014332e-01
1.980664693942556925e-02 1.991410477515313110e-02 4.274965288192222324e-01
4.337985425494033515e-02 6.452849113319024388e-02 4.634240587008792711e-01
3.672279096717215308e-02 1.267111501177314685e-02 4.386823993120306242e-01
4.528370889601787685e-02 3.655220829673617305e-02 5.032706591238520488e-01
-2.706445743179554386e-02 1.152561332389732442e-02 4.282193618669818957e-01
4.111731869890236646e-02 6.519190265185406674e-02 4.591840609217071045e-01
5.180541210676381514e-02 -1.710107652053642277e-02 4.671098306543723377e-01
5.084319585836682281e-02 4.908501743674077017e-02 4.585392195290253770e-01
5.202381026137691683e-02 4.294722220790095357e-02 4.576117635466128708e-01
3.941545843388445658e-02 5.219136907528408413e-03 4.417202497456679255e-01
7.328249565973438476e-04 1.637772689482829697e-02 4.163405935797908630e-01
5.302221407804444397e-02 1.614873595014864379e-03 4.624821252830335072e-01
1.340180931727857384e-02 -1.176098248884544298e-02 4.323819544480120292e-01
-2.666484410786493578e-03 3.400660834110096759e-02 4.046528370717491496e-01
-1.067263179418449608e-02 3.120745147135843209e-02 4.061633376888757474e-01
3.561426202868017699e-02 4.490282228356779620e-03 4.389456624540873375e-01
-7.640870845501780695e-03 1.029171264024018873e-02 4.222190580162814566e-01
4.949082401763375133e-02 5.396582380025962550e-03 5.060276603051415689e-01
3.603108734405446878e-02 1.988907989263753728e-02 4.375019408011240341e-01
5.436172671632068243e-02 3.339342303764494813e-02 4.636232493225923568e-01
4.966361268176203853e-02 4.261413831516670803e-02 4.933845913029636931e-01
6.974517682224552415e-03 -8.342577633290101241e-03 4.305017585724551510e-01
4.886458386943175886e-02 5.148264850462969111e-02 4.857139099306680419e-01
4.482299586893139648e-02 6.036164144911655705e-02 4.717109113725969083e-01
1.859847777786957299e-02 3.574769551304178561e-02 4.223234884958501079e-01
5.048856076680592608e-02 5.694652334651782548e-03 5.033547192941895121e-01
1.980047111862011724e-02 4.298393775721677523e-02 4.242300777709551718e-01
5.613651048268471916e-02 -3.875590880525765954e-03 4.744333499274994148e-01
-1.488366639421792939e-02 4.026538943334019571e-02 4.152694740381646099e-01
4.802907477435493233e-02 -1.038422593947023638e-02 4.571604198710664813e-01
3.782423602764362763e-02 2.527167521888912249e-02 4.386660582586727197e-01
5.025433669140345894e-02 5.292776321413274893e-02 4.706216467687311389e-01
-1.922231702571295178e-02 2.202922093872814249e-02 4.153510686127125373e-01
5.471186810703065201e-02 3.434471945620949651e-02 4.729422661818631912e-01
4.943934596359442907e-02 2.726010861223311307e-02 4.931195935704636990e-01
2.794243554431949730e-02 -1.697189357992177905e-02 4.379002648079675653e-01
3.429471104712961127e-02 2.522620993063946770e-02 4.363263003948570917e-01
5.210411240599675115e-02 3.915691354501039945e-02 4.874579549722369842e-01
1.657145562453000640e-02 3.254291459182425544e-02 4.205656309426377137e-01
3.172869129352634543e-02 1.907380657894083148e-02 4.346676807035347867e-01
5.727990288036904215e-02 -2.508109366921294249e-03 4.879985372387556919e-01
4.334782268718427589e-02 4.691409382475771744e-02 4.426749649029206313e-01
5.653947197571332350e-02 -2.543884247532373884e-04 4.755798012935218977e-01
5.404313224508859592e-02 3.718577678383005319e-02 4.673649667767024729e-01
6.116549765376464234e-03 1.938749911009222948e-02 4.151667705123538443e-01
-1.016322105897961812e-02 3.759692060271825620e-02 4.099026638048844373e-01
5.385519782238057385e-02 1.408351791932544068e-02 4.800688966418155679e-01
5.746504794188745519e-02 -8.345172759128679715e-03 4.860860061982801850e-01
2.257966761270886052e-02 -1.794938489330142467e-02 4.363566156245063943e-01
5.009400234011373437e-02 4.498793338048959548e-03 4.540286303144145386e-01
1.131035656736611300e-02 3.034386941701265258e-02 4.135943164328471089e-01
-1.500154441254009097e-02 1.482207950810206579e-02 4.193455061014948471e-01
-1.194095444183406428e-02 2.446243806566923695e-02 4.078278977724155152e-01
2.871621867738939626e-02 5.291119580802911698e-02 4.332417667103284908e-01
7.451378973160643253e-04 -1.363475773439223188e-02 4.328128262030555007e-01
2.839551331112597637e-02 5.885679086642040675e-02 4.361811584958582011e-01
5.530743781456774061e-02 1.013557185201198474e-02 4.753102831605505729e-01
4.375624190751685461e-02 3.832039914193140911e-02 4.434042910938854609e-01
3.616424094950557167e-02 4.621366008007408988e-02 4.369866261861412027e-01
1.452102616393759725e-02 -2.031174602147838015e-02 4.359550576423047996e-01
3.550397165953204232e-02 7.913624943653723917e-03 4.380478074091290197e-01
8.630262989320182723e-03 -1.370247858475885996e-02 4.339142982895326517e-01
4.818974820097646217e-02 -1.667349713514151149e-02 4.594837851996275702e-01
1.532313423336790527e-03 1.231759787640709057e-02 4.218398720988829620e-01
1.982535184819936291e-02 -1.436815028707375333e-02 4.344993274777744774e-01
5.053243357577522077e-02 4.147370059050152491e-02 4.518065035932894435e-01
5.243765933358177783e-02 4.586297263840116711e-02 4.720510271645763645e-01
2.353750181159688752e-03 4.283884267344746644e-02 4.126454727246192111e-01
-1.066075033220365356e-02 1.873659024899831244e-02 4.138985011782037038e-01
-1.351611477911189227e-02 2.001473596007166678e-02 4.146046022563207312e-01
4.982022830508687355e-02 -8.888267176411272785e-03 4.599331156256277753e-01
4.413869377946496447e-02 4.317494119886674392e-02 4.435797303767695654e-01
4.723692669124796017e-02 5.829822156500509556e-02 4.548198259678064570e-01
3.760266954543525081e-02 3.720181774667098012e-02 4.382866444605051925e-01
5.238440164231195073e-02 2.021357079203589535e-02 4.835211908480347986e-01
-1.256724869483527574e-02 1.986307864725269171e-02 4.140297032511512931e-01
5.436028678058022617e-02 1.261979404538343674e-02 4.784901048662333900e-01
5.092629549465108041e-02 7.115293569598106493e-03 4.993377946391678868e-01
1.989622439668118151e-02 1.261125824815371825e-02 4.288752854269675674e-01
5.313018463299250954e-02 4.217212016206229458e-02 4.665535974878856629e-01
1.195315840319825275e-02 3.177402433388256536e-02 4.144901440183196839e-01
5.486018030941713225e-02 2.114731635672483998e-02 4.735960570964355965e-01
4.209726504227204874e-02 -1.268367222880193920e-02 4.477750360952260644e-01
5.300762585834103285e-02 -6.713508324575138443e-03 4.648638537104565760e-01
5.230116147051700609e-02 2.453409228273775722e-02 4.843590533252691288e-01
7.776935621244774818e-03 2.429684770866874510e-02 4.113534981449855632e-01
5.306307603333638295e-02 1.716444880242436188e-02 4.578561850772142616e-01
1.364553249472367016e-02 -6.408065136417825935e-03 4.307954870812563675e-01
5.096087515583207911e-02 -1.369536241712868141e-02 4.641406231029474583e-01
4.928234146868290186e-03 4.473170202289336594e-03 4.272648237389230497e-01
7.311983836488023143e-03 1.164340437026233945e-02 4.240430818427899373e-01
6.876600247611809602e-03 -1.155717409975226713e-02 4.319526621484174322e-01
-2.651391628910955076e-02 2.432194871158573080e-02 4.175460217194437718e-01
3.378037932738006677e-02 6.318402774512520137e-02 4.415744856077838398e-01
5.393310319581281348e-02 7.008858948546741775e-03 4.869068854399835056e-01
-2.712425170662620399e-02 1.472955103500414760e-02 4.249011611485974949e-01
-6.166460956999072346e-03 -6.135333309271092002e-03 4.302057177417197287e-01
4.784772470597684763e-02 2.430958439180000430e-02 4.472604197860404196e-01
1.395246623693717145e-02 5.426271071851294925e-02 4.330088779840368107e-01
3.871842848136448131e-03 2.951726095868920097e-02 4.064684538804209657e-01
4.222346577322057259e-02 1.614946825066745223e-02 4.427518516395639869e-01
5.388485148529793822e-02 -1.324828046449333038e-02 4.707702779403286630e-01
-3.140041111565268495e-02 2.228704649389688999e-02 4.218429110193347986e-01
-2.416215396950948530e-02 4.282604471447945538e-03 4.301329308958055653e-01
5.097837370334888651e-02 5.108152783671521258e-02 4.734425961792658177e-01
-8.882886658875229977e-03 2.701843336637980725e-03 4.277516416849428960e-01
4.322563561672917998e-02 5.183137213963923129e-02 4.965975169152667124e-01
3.353717024007693559e-02 2.359884315557129932e-03 4.378263284486882956e-01
5.694487050322070282e-02 -9.906755494893448866e-03 4.812033334192196699e-01
5.526678321638376495e-02 2.263849920531410716e-03 4.694134075677646178e-01
5.697563639544006575e-02 -4.443356541205413686e-03 4.934129453809426025e-01
6.520404405382287244e-03 5.195194748924244002e-03 4.274199021722454028e-01
9.311580320320663948e-03 -8.680404257577550506e-03 4.308530682526983679e-01
3.225369448564750080e-02 -1.118639037512410631e-02 4.387220784557753772e-01
5.875034831824161100e-03 5.074333391976927621e-02 4.204536970408525032e-01
1.967473987447482947e-02 -1.625387442282470382e-02 4.350276787195089256e-01
3.505134661450414607e-02 5.113146725346852384e-02 4.367331039851998775e-01
-8.517970247623832605e-03 1.910603801620553918e-02 4.115191992015998501e-01
4.531114688403052593e-02 3.368555350557923822e-02 5.034993406674457272e-01
4.402548496708487413e-02 7.908310340698887497e-03 4.450731030246244946e-01
-1.386358107986259769e-03 2.071282355979478865e-02 4.093652472954932842e-01
3.686252550851746440e-02 4.594252735854981173e-02 4.374695124379605615e-01
2.604847378193037716e-02 -3.546325167403029284e-03 4.339787171631747653e-01
1.931564514556071560e-02 5.345752402491196070e-02 4.294040930459847583e-01
5.450909148124067488e-02 3.229173897204369592e-02 4.640864283911811938e-01
8.339568891823714164e-03 3.089543393640373226e-02 4.098944979303870695e-01
-3.349059310991704674e-02 5.257414995685381551e-03 4.378662922000827185e-01
5.477538329119319843e-02 1.999264769893195973e-02 4.747167460971791209e-01
5.304854859682855278e-02 4.314543045521375408e-02 4.706865747523920063e-01
5.273647744477256982e-02 -6.261862797574614843e-04 5.082729994050152467e-01
5.063974364153037838e-02 3.576675016909053317e-02 4.516711456622933274e-01
5.567185911791355107e-02 5.744915886897424603e-04 4.718723354726546138e-01
6.981425936400931925e-03 2.061294828698016779e-02 4.148457534000400959e-01
1.896880361329214906e-02 -6.204915025058448455e-03 4.319416212469964766e-01
2.281673271393367883e-02 2.236880291781043889e-02 4.293929802597887813e-01
-3.327444761942167928e-02 2.299761877049270528e-02 4.226832717046321575e-01
-1.080775066979440188e-02 2.003913406205843836e-02 4.120609013826750933e-01
4.397076776937430820e-03 -1.060029226731368755e-02 4.309860940175516131e-01
3.545315195327236601e-02 2.636294712249898781e-02 4.371176693139485758e-01
1.716378163006357024e-02 2.625038157858722646e-02 4.235628168830590234e-01
5.209714000262598288e-02 3.195586502137891943e-02 4.869536796961149716e-01
4.509582708155311648e-02 5.667706779169271597e-02 4.475260936388027466e-01
2.329504525265652624e-03 1.388594735396517753e-02 4.204242306701120313e-01
4.422700688177716444e-02 -8.223255110010624369e-03 4.496440742000066271e-01
5.203874798948324859e-02 1.597162653104652191e-02 4.555519694109614881e-01
5.031331910478096386e-02 -2.262196291397648024e-02 4.658966605985497278e-01
2.259749085399588228e-02 5.882322710960321416e-02 4.384945646338082037e-01
-1.499774588291250682e-02 2.140585229789427127e-02 4.130761851334877055e-01
4.743602356757487676e-02 2.781175152649936755e-02 4.997038478272620710e-01
5.388034148766844555e-02 3.027582655671024608e-02 4.798860188869125687e-01
6.980456306815378126e-03 2.380770003135115886e-02 4.108659989746839547e-01
4.851677263229149661e-02 -6.658073367093392605e-03 4.555657513243466239e-01
9.238299889255721306e-03 1.504774643192868105e-02 4.224719089168133546e-01
4.900997404735623481e-02 5.285298884431855609e-02 4.813262378248332474e-01
-7.468537642446732884e-03 -6.834891082244991256e-03 4.309175435898395801e-01
-6.310145217831199770e-03 2.139556249768053905e-02 4.069761155115947382e-01
-2.078672969385196578e-02 2.597022773791740277e-02 4.130439139373096591e-01
3.818560848863473273e-02 -2.127670728119422650e-02 4.457549151548257926e-01
-1.969245012204964493e-02 1.042560870874734667e-02 4.242556714879087143e-01
-3.454097279203968262e-03 3.266704966138769123e-02 4.035316066976196714e-01
4.711910435914549306e-02 4.079214770608442786e-02 4.990752746451239119e-01
-1.908376484108950319e-02 1.053738530377219644e-02 4.237873845740695034e-01
3.876725358402258181e-02 6.475066922851387130e-02 4.658399565507845841e-01
7.288012713370264732e-03 4.168848252567203261e-02 4.151402924387926907e-01
4.123981989496084549e-02 1.071477307338244631e-03 4.439493105320592714e-01
5.196122671629942874e-02 7.791581789511871359e-03 4.942432395376310517e-01
1.786383852203912020e-02 3.347868359453130827e-02 4.220699204830900553e-01
5.036074214266331173e-02 3.258350018729852526e-02 4.916904085706515493e-01
1.698335125935044460e-02 2.101031371313849885e-02 4.246537189811205870e-01
4.972110704700177103e-02 3.222414078550710215e-02 4.934657394862345114e-01
6.987473844568620022e-03 3.582055265352927786e-02 4.120388267292712792e-01
4.596876170416418911e-02 2.936601922107106438e-02 5.028635478741922960e-01
1.804612601522777044e-03 1.939502947730389198e-02 4.133393597271421416e-01
6.401255673897097639e-03 3.442653782091371906e-02 4.106128914931361784e-01
-7.193079927793769555e-03 1.098301335653854849e-02 4.215734241904603996e-01
4.613582272775988008e-02 2.577983861398353699e-02 5.030187820315811242e-01
7.795015931465412370e-03 2.954132990796888222e-02 4.091202080935584795e-01
