3.972813444004261174e-02 1.715293514735174649e-02 4.404950204701102989e-01
3.695480893299120384e-02 6.529297971176031834e-02 4.602880799020788727e-01
-2.593067211571772196e-02 6.828303968156954756e-03 4.303452890780293805e-01
1.750797356774655075e-02 -1.144711450676181609e-02 4.329720073978204908e-01
1.822346769410337561e-02 -2.016794873568053884e-02 4.358794691696171175e-01
5.469012321892041673e-02 3.097511977914687784e-02 4.754159929257155692e-01
2.236989723209939409e-03 1.363758311712907553e-02 4.205770828761521973e-01
1.968225208462759737e-02 4.290973487634287820e-02 4.239626823442412262e-01
5.166543282429893191e-02 4.001843399101378401e-04 4.587863291255997455e-01
3.610318413382115205e-02 -2.929435741658417691e-02 4.485091865821472235e-01
4.928589178074219840e-02 4.454314147808957625e-02 4.486321035607603314e-01
1.084934180318420510e-02 1.183321279031513892e-02 4.249729586496829858e-01
5.414155925073180220e-02 3.630624923096746615e-02 4.783267893041226460e-01
3.551081516263635690e-02 -2.738152714434612806e-02 4.470024058028527203e-01
4.950952910756772907e-02 4.821404188303579641e-02 4.505642108046682970e-01
5.325555099262260783e-02 1.003774770112580116e-02 4.601587851700069676e-01
-3.489611695558855059e-02 -1.649315629189571693e-03 4.388403101265038742e-01
-1.465986980455106364e-02 3.897247629178463013e-02 4.121731643418168889e-01
4.972295614715373929e-02 -1.336859734741517591e-02 4.613756079253488740e-01
-1.300556303569902310e-02 -7.600240599711473484e-03 4.328277522043676995e-01
2.284473340347607274e-03 2.309034948621526556e-03 4.274383184945454994e-01
1.523402449037518369e-02 3.680850781054559318e-02 4.201976795490747207e-01
5.462048955743387807e-02 -1.340262019090471962e-02 4.731192794895766607e-01
4.961505261995850791e-02 -1.854242918701605979e-03 5.138937595066414010e-01
4.570902187953884005e-02 6.125880698716358597e-02 4.542840888371180719e-01
6.223267719858113431e-03 2.956342089917231297e-02 4.075437332295542281e-01
5.493688291222679349e-02 1.505651664897596394e-02 4.672807236741993164e-01
2.136600671602107218e-02 5.243516129404540010e-02 4.288139401984973342e-01
-1.235595749182202482e-02 1.888162618226297065e-02 4.149938078158516563e-01
-3.179064983862167626e-02 4.333320640890903595e-03 4.347955013650615652e-01
5.376808873748711859e-02 2.687787080495563849e-02 4.809527557248312601e-01
-1.554044715137943566e-02 8.070596439708444328e-03 4.241794791985617485e-01
5.600202485656105567e-02 -5.274423747000942311e-03 4.745188897548045515e-01
5.449125208620993893e-02 1.159046615822077742e-02 4.783692827574793083e-01
5.735723727202037686e-02 -4.962931935384834979e-03 4.899511304486270924e-01
4.750308203170395399e-02 8.953538760525011492e-03 5.054934474623713481e-01
5.219402851288766632e-02 4.466019958990765509e-02 4.600694015098473200e-01
4.498253340140311723e-02 3.074705476130383183e-02 5.043121890296710097e-01
3.664487202222040801e-02 4.996030018323183858e-02 4.374656926349456132e-01
7.807442912596983600e-03 -2.175345734023323777e-02 4.375075506870515496e-01
-2.402484536461290537e-02 1.736135052886318697e-02 4.201548757745561247e-01
5.101803832808034928e-02 5.153947054036691483e-02 4.680903059053980186e-01
2.111987149576075376e-02 3.224297328406624391e-02 4.263367923434424611e-01
-2.747551046593314436e-02 2.909536914875910166e-02 4.158671071452381129e-01
-7.853090898499408626e-03 -1.009902809120016495e-02 4.326127176632442173e-01
-4.222634619647475801e-02 1.832299677810218883e-03 4.477560621441183386e-01
4.047220387558451288e-02 5.334036132560688453e-02 4.406468662798372904e-01
3.390631978090920956e-02 1.185709433102678789e-02 4.365086063499543090e-01
5.512260731108364897e-02 2.523785523441670134e-02 4.700811030777902189e-01
5.303001831991068643e-02 6.768697717371980130e-03 4.920990360241194739e-01
5.204354233457119533e-02 4.771539852894648992e-02 4.679892023516198374e-01
-2.690121307103286036e-02 5.951834161723186523e-03 4.312749854832374496e-01
5.363215864410273565e-02 3.976893810362267662e-02 4.682378433511010796e-01
4.774704862603088018e-02 5.140454500782321023e-02 4.479510219500327795e-01
5.549560141396722018e-02 9.331060104709031772e-03 4.729032999280668448e-01
4.741671126836616984e-03 3.553954584345027368e-02 4.094634315946756309e-01
3.641440626629514898e-03 5.110950522387347483e-02 4.209897480412638227e-01
4.283571436588988479e-02 -1.238248837517438861e-02 4.488131280652966071e-01
4.924264866594255108e-02 5.299281483699712358e-02 4.789239628313649577e-01
3.239928197730676529e-02 -1.871668372438148667e-02 4.403876739057037137e-01
-5.946221247198318037e-03 1.713377585019407179e-02 4.142766159717450880e-01
3.390677072472642745e-02 2.561102922948255492e-02 4.359506989402569532e-01
-1.253264476011552034e-03 2.093175548057767815e-02 4.085842417549678252e-01
1.825202481494843376e-02 -1.932236970155165601e-02 4.357686381206398174e-01
4.138490770075822778e-02 5.166502134484943221e-02 4.982208978435220814e-01
4.950384616669429444e-02 4.486864903454163694e-02 4.930346952895737211e-01
4.837672607538217456e-02 4.233030238916023896e-02 4.477998132423675615e-01
5.161815266330761764e-02 4.934858869794783720e-02 4.709895633206203081e-01
4.894570759741728033e-02 -7.175338418283340111e-03 4.569140613042662613e-01
3.853980988601943963e-02 5.370928645235387849e-02 4.393505296895630075e-01
6.270940565733860821e-03 2.079590316604703476e-02 4.138196922391059185e-01
4.603540628076133873e-02 6.139119105740335758e-02 4.618947451978260843e-01
3.504454948265094127e-02 2.752996420207290407e-02 4.366648096639359489e-01
5.460192362968747243e-02 2.984859298666094410e-02 4.641142040676446978e-01
4.709460732463457977e-02 -9.633102975719051719e-03 4.543483707988451581e-01
5.481021369967525869e-02 -3.970398559543624958e-03 5.093278277248436403e-01
5.372547432309690563e-02 1.227170529743835080e-02 4.822808907954478919e-01
5.013433344893401811e-02 4.537662728321512073e-02 4.509403886775776304e-01
-1.882566520657879237e-03 4.352258597160495873e-02 4.137435690008368083e-01
3.467757746331911334e-02 -9.912394478911224632e-03 4.399813981230394910e-01
1.334190861095779605e-02 -1.415869062564209177e-02 4.337430957640087681e-01
4.944729609919267660e-02 3.749921911970627991e-02 4.944871587422779435e-01
5.041853072564544958e-02 5.044366436853738034e-02 4.798088770417008320e-01
5.253047922344485782e-02 6.710424172513837840e-03 4.592159560202026536e-01
5.337451026281789246e-02 -9.815000587858179609e-03 4.668631985233553383e-01
-2.342473872655516029e-02 3.109028108077939098e-02 4.125309895733538235e-01
5.288682677298541662e-02 4.379084216241474481e-02 4.716990583956940930e-01
5.090196021795652392e-02 4.836050359861214509e-02 4.822172822232549949e-01
5.022478406628581166e-02 2.684355621548572407e-02 4.504954970812616866e-01
2.800306253630119660e-02 -6.780985679680540806e-03 4.351743980942244239e-01
5.887689675533291402e-03 -1.268906502808865924e-02 4.327023212932269436e-01
4.716351501416281289e-02 5.669082068590761830e-02 4.742746372217081507e-01
2.221719333155926929e-02 3.483184260336228549e-02 4.266449636364855191e-01
5.314935935146865992e-02 -1.883829719361747659e-02 4.707384972208552565e-01
4.697084545631465685e-02 -2.050668253461237003e-02 4.586500892531357731e-01
6.635852122099885134e-03 1.205262576342774720e-02 4.234263150263083419e-01
1.348311940479523727e-02 -6.298675980059729659e-03 4.306815209230990260e-01
3.971044602922758904e-02 6.525383852047099420e-02 4.593890310840764712e-01
3.336846507502857530e-03 8.544466490576711759e-03 4.249574044147466090e-01
5.520823503647113301e-02 9.730443963312919095e-03 4.703140780800170728e-01
4.288497423640093981e-02 -1.925881527825401909e-02 4.506317587994158602e-01
2.949477634549450139e-02 6.027132140147527933e-02 4.390197027067735958e-01
4.564165409839013310e-02 6.145704523769382477e-02 4.545673089293739699e-01
3.832900143738563609e-02 3.231499968152390812e-03 4.410859480468803384e-01
1.959846108482622695e-02 4.667152821352960057e-02 4.247708159491183078e-01
-2.992164057072935202e-02 9.730397166615256319e-03 4.313905425708246533e-01
-1.486148333274155478e-02 1.039827313828980623e-02 4.228279953420079340e-01
5.404158736973062316e-02 3.754479105492209562e-02 4.690922639073954459e-01
4.317676624707669081e-02 5.464400635196108719e-02 4.433796331654237810e-01
5.426023882546674587e-02 3.402447090100819277e-02 4.631628639170910500e-01
5.507530435338420238e-02 -1.103978230119974195e-02 4.740223941168736910e-01
2.612843754004568267e-02 2.135632479724729541e-02 4.318513819826902966e-01
5.465098478333620113e-02 1.360544884842589293e-02 4.649407608120598168e-01
4.259894073966675326e-02 6.486982088248820222e-02 4.574656394068117304e-01
2.886795629336997085e-02 3.203566269837789839e-03 4.347113353381891199e-01
-1.375270580456939076e-02 3.396165804795198834e-02 4.089191264686005134e-01
4.456367159688837815e-02 6.146435325977272351e-02 4.513430512698898278e-01
4.544866173237761819e-02 4.860580036998598391e-02 4.990602616946079872e-01
4.380287899532709500e-02 -8.743039307301102292e-03 4.491348292196501446e-01
5.575902683979817864e-02 6.807067659373527979e-03 4.746715521453823139e-01
3.361873707190650429e-02 2.694769632498090345e-02 4.357843902755871857e-01
5.143339160002614180e-02 1.001882218181096226e-02 4.928972629203455247e-01
4.160777718844969192e-02 4.181515663554779931e-03 4.436022178160396456e-01
5.884691238892552495e-03 -9.316629009968494662e-03 4.306331614869136626e-01
1.353220681378869590e-02 -1.916258895947329718e-02 4.356315654499416379e-01
5.545073859093271190e-02 -9.202536574530694596e-03 4.748174416146078158e-01
-2.623636232590840188e-03 1.887466994842468618e-02 4.125576892768400561e-01
2.993914713676873104e-02 3.983702351869757019e-02 4.327660879094926138e-01
5.351767286229631992e-02 2.147525423497734579e-02 4.800681391005696685e-01
5.495028734941594106e-02 -1.008960919609343601e-02 4.730738319346299847e-01
3.112691020583005161e-02 -2.340101537304808618e-02 4.412893638217921244e-01
-1.645141012040561915e-02 2.303815394990343934e-02 4.116614610833019827e-01
5.028190806918362427e-02 3.225263273370185257e-02 4.917128055718114621e-01
2.638486987584024585e-02 4.616032004593737664e-02 4.294302851304921398e-01
4.977998428677175152e-02 3.577008508600828390e-02 4.500113541156010033e-01
5.143958285931198721e-02 1.456728808100886917e-02 4.545565431168502868e-01
-1.363045028660637807e-02 6.515475827188725241e-03 4.246321825992140364e-01
-3.845305188445236749e-02 3.557954857860705106e-03 4.425449780363147068e-01
4.227625165329514448e-03 3.101779714743369346e-02 4.065991501556517340e-01
4.504337364035079783e-02 1.418131345693459007e-02 4.452925331355917504e-01
5.474229551249074066e-02 1.695576228497407134e-02 4.760039226143027991e-01
-1.165649234461299186e-02 -2.850678955163129732e-03 4.299082771686505988e-01
-4.310702090178473306e-02 1.552495720848159465e-03 4.470598851103488869e-01
4.651730805631976856e-02 5.635786628396636383e-02 4.773289882638334647e-01
4.834392159343255807e-02 5.540864016691012667e-02 4.750481832295199158e-01
5.555706949431508251e-02 -1.298377834184021723e-02 4.761535705619102110e-01
-2.860506069940559407e-02 2.033190065323251319e-02 4.208884048801054267e-01
3.870389114980175849e-02 -1.546732022379232116e-02 4.441666672654790426e-01
5.386625567215437560e-02 3.362992855551355520e-02 4.811202692852229457e-01
-2.503526865155636730e-02 3.248891374113254543e-02 4.133418323786369197e-01
5.709119208841683529e-02 -6.417644301645586240e-03 5.033321836318818132e-01
-1.272308159735477048e-02 3.976936767353967533e-02 4.133918707921648839e-01
-1.616543082008362053e-02 9.943973128982755080e-03 4.233829298615947589e-01
5.209051567553393824e-02 3.809363394686635096e-02 4.876883502781988455e-01
5.414149750879724415e-02 2.661552464141074201e-02 4.613464710226667931e-01
-2.792192020045827783e-02 -1.572689077238607815e-03 4.347127163731950295e-01
9.922330901728968443e-04 4.359093137818390029e-02 4.129460851303755620e-01
-9.802520054005975370e-03 -1.068351492273668379e-03 4.287146918218762148e-01
-3.284688110475194461e-02 9.031480373111529236e-03 4.345426953881294518e-01
3.085425436381672090e-02 4.717259998173226748e-02 4.332576096427393497e-01
5.833568164304703957e-02 -9.499816775359781057e-03 5.008204603971073698e-01
1.783284451191726946e-02 2.208145078389507285e-02 4.252549649520203645e-01
-4.219120532441389404e-03 4.462465068720583572e-02 4.160956369659703502e-01
4.962290034855288551e-02 -1.014905729539413055e-02 4.601679372367261101e-01
2.165598287464301497e-02 1.377615307426878141e-02 4.295783916746913067e-01
-3.447543102945817284e-02 4.602344388154707561e-03 4.382305031399147399e-01
4.819814074299952344e-02 2.330671242036298427e-02 4.964586687983720270e-01
5.061142992186421635e-02 5.170073758023596006e-03 4.550108750752309694e-01
3.691232841464177350e-02 4.430522967513572663e-02 4.374310929849034579e-01
-3.819764981237668000e-02 1.280991832958102219e-03 4.398917173902887057e-01
1.588072715497480542e-03 2.769650715501469074e-03 4.271745393214392283e-01
5.383999666480755730e-02 5.826197509464800181e-03 4.902502289316668649e-01
2.577517891235417413e-02 -8.073763327803490375e-03 4.343204087877358122e-01
5.413666810057127243e-02 1.062873403906046919e-02 4.630563546325924262e-01
2.703076743556794264e-03 4.425489389302317972e-02 4.135144378467202064e-01
5.236132718138373360e-02 4.415688737253088691e-02 4.836943201637949330e-01
8.970296798315093717e-03 1.118615787951582341e-02 4.247247380145534601e-01
4.210263290490909305e-02 -8.610364393382776566e-03 4.466477053722535118e-01
-1.353447039337195984e-02 1.595356327494702048e-02 4.179246673310809679e-01
1.602797226071269246e-02 -1.241024447504207942e-02 4.328732383865754874e-01
1.970402758643366795e-02 -1.212032500034639602e-02 4.337467747948017815e-01
-2.434692649511232578e-03 -1.459153809406624897e-02 4.332077877945393340e-01
5.132035924329432508e-02 4.622194233060449714e-02 4.572976524631505169e-01
5.621500457320278282e-02 1.933318860608964143e-03 4.783191738599857357e-01
4.755766359045346392e-02 5.825302680887029655e-02 4.606004491195713202e-01
-1.573636999432198591e-02 3.832958162623407300e-02 4.116339581106647216e-01
3.617184556941997753e-02 8.290861799805003540e-03 4.384808596109924794e-01
5.339854337879115093e-02 2.530295092187830747e-02 4.570898202681736300e-01
5.385951313771544791e-02 3.916090255096785211e-02 4.718890905461739504e-01
4.100945240036188433e-02 6.510171602194710083e-02 4.580182491451952331e-01
-2.297695686704156331e-02 -1.758040218098479591e-03 4.328937998101917706e-01
3.860469240004364699e-02 6.522440949662440535e-02 4.646695697841300432e-01
1.345262009838457153e-02 5.337592603478886338e-02 4.301643034010029232e-01
4.737331864693140188e-02 -2.168355106928764736e-02 4.597241288734375542e-01
3.529799633039010232e-02 6.530520222852516377e-02 4.602720330904359058e-01
3.065309168082835933e-02 2.865889626255910955e-02 4.341560721553389124e-01
3.461658683776066420e-02 1.049251034099849163e-02 4.370821101151829424e-01
2.932397304952439818e-04 1.491488022818901818e-02 4.179383814571838163e-01
9.295182114892835620e-03 3.647878363291584547e-02 4.143680106602524171e-01
5.360255589395727938e-02 3.673398091424270179e-02 4.599974192589894595e-01
2.433098471496646445e-02 2.189094668972028750e-03 4.327646469866802681e-01
4.593506821817858882e-02 -1.774805621442889642e-02 4.546112724044240050e-01
-1.341169593662566370e-02 1.805952080484397176e-02 4.162649082384072274e-01
4.591469005606810261e-02 -2.081731595268079479e-02 4.567149453063196751e-01
5.578315528326504430e-02 -3.798980265756158811e-04 4.931082897801846165e-01
5.429754828795819305e-02 3.612922223925205817e-02 4.696319698762147499e-01
4.626004224013424010e-02 4.564845996488913621e-02 4.454957806543247134e-01
4.486427104988489900e-02 4.550750893034304773e-02 4.440871320999638105e-01
1.645761336767830388e-02 -1.597075770045644104e-03 4.304744050697008051e-01
-2.061311039603503335e-03 -5.850581653041955245e-04 4.281592645378518025e-01
3.921620247945940829e-02 -2.433716644588782355e-02 4.485383819464997535e-01
4.727215161186794357e-02 9.401448035000446735e-03 4.480237837921141608e-01
1.620560570277601673e-03 2.307808728777784729e-02 4.074183111926384937e-01
3.323505892437044612e-02 -1.686866502589183872e-02 4.406103421700365286e-01
1.647408302403089927e-02 -2.138382374777923842e-03 4.305734229509256550e-01
8.898501894064346496e-03 -9.620059194550167891e-03 4.310188600299398320e-01
5.429474380816918383e-02 2.609816162922838634e-02 4.624216100253720763e-01
5.214122811854687845e-02 3.554270949326636397e-03 5.021771004789514770e-01
5.636736821853801510e-02 7.797491168705947360e-05 4.748953763555858187e-01
5.449469687820218677e-02 7.729185009051136972e-03 4.655639009097121694e-01
5.570789511348864242e-02 1.085246548655429029e-04 4.925595512161627387e-01
4.738184633525676509e-02 5.511513505285383502e-02 4.504860547213283550e-01
3.844594591291293495e-02 2.412390944043225210e-02 4.390667526042673630e-01
5.175987107391460257e-03 2.294500514023133791e-02 4.095815130419253047e-01
4.508981124279285574e-02 5.037771840700709658e-02 4.982623465811061303e-01
1.131602869240939599e-02 1.574544398305163101e-02 4.226948810884793017e-01
2.157972928248084662e-02 -1.495737931589024954e-02 4.350970388365678065e-01
4.215773800369430890e-02 7.969156407886023377e-03 4.434232399412735837e-01
5.523789545495304265e-02 9.089831209003820800e-03 4.707114005910285059e-01
-3.506667777210135950e-02 -1.403135575114993622e-03 4.388517915407536552e-01
3.914948749461624050e-02 -2.435827718700321262e-02 4.484386034009208988e-01
5.075637138937862808e-02 8.851131508720990609e-03 4.545959191000235045e-01
-1.245243063649513135e-02 2.370840504987765593e-02 4.083250792464802048e-01
4.985273108458732755e-02 5.348630327953226432e-02 4.717115720996467587e-01
-3.135045946201184264e-02 1.987556071831959176e-02 4.230614764183593390e-01
1.880449256248985929e-02 -2.255085089574315055e-02 4.363620000843471125e-01
7.000297235481280252e-03 3.754947217370733364e-02 4.125598539618566818e-01
5.350102647480804025e-02 4.066247421524309819e-02 4.689231582694782241e-01
-4.353191636706202697e-03 3.497830419846252592e-02 4.059513044477086052e-01
3.233941910139611492e-02 1.846674615960434973e-02 4.348910322149782126e-01
3.408908223543619803e-02 4.862057479840162233e-02 4.356132027469221124e-01
1.558392822114084905e-02 5.057568203728834283e-02 4.247857414643981255e-01
2.381857580659812665e-02 5.703846307480622130e-02 4.330383213029794232e-01
2.185238314388148612e-02 4.299291439896929523e-02 4.253982358388996299e-01
3.191927309649322808e-02 5.809827232837596472e-02 4.365613923540727637e-01
5.294050103157657561e-02 4.359203257052818997e-02 4.704754522704987507e-01
1.162991786261576357e-02 5.326806097731033238e-03 4.283291362077660258e-01
-3.701797783938470723e-03 -1.011408217199250524e-02 4.314708630412624202e-01
-3.166070133258139935e-02 1.733717455825005763e-02 4.247559602083901820e-01
1.504756004852374207e-02 2.394800616742369381e-02 4.211243543816304835e-01
4.852497260642369553e-02 5.536809044361567372e-02 4.555297364402445259e-01
5.217616311246167649e-02 2.147408485399024403e-02 4.548161170655206087e-01
4.016579469989774859e-02 1.295242926481497345e-02 4.411860803332798842e-01
4.370857817173950943e-02 2.170436640258609912e-02 4.435923380161810314e-01
5.534945600707152913e-02 1.632276881633423424e-02 4.716505833131674486e-01
4.000080120455208610e-02 5.124435240180093970e-02 4.399591603586898159e-01
-1.013030540383051334e-02 4.211922643122984616e-02 4.157508509971155619e-01
4.411807076300630626e-02 5.616653313416822974e-02 4.822731122822290217e-01
4.981100911491264001e-04 2.663002984790194261e-02 4.052798635072745737e-01
-1.013320133559255862e-02 4.030968673185206935e-02 4.131844901201564002e-01
4.306933996577438223e-02 5.631761237600885206e-02 4.437249694134796085e-01
5.514516537059725027e-02 6.854877099699150517e-03 4.803216331528457617e-01
5.378323163849694361e-02 -1.380932483013537016e-03 4.643001342285245636e-01
5.519834647103270819e-02 1.717722209656337429e-02 4.697342105650846866e-01
5.092701381977108449e-02 4.857617758964283272e-02 4.582340341051002741e-01
5.330453656490657943e-02 1.158314528692532507e-02 4.598957432832391778e-01
9.605003648055866761e-03 -1.108766609150253594e-02 4.316887732381058940e-01
-1.393343021334375901e-03 4.468722379756140395e-02 4.152298823768286740e-01
4.283130847401485364e-02 6.262032018226337815e-02 4.685753646646959036e-01
-1.174734542997472354e-02 3.603750094677769713e-03 4.271597118204064625e-01
1.169149106417694851e-02 5.342503841440430362e-02 4.297190945399235740e-01
4.970148601790543019e-02 3.691821178079868204e-02 4.939494249693593964e-01
5.193066979117363230e-02 1.501485678625348597e-02 4.554761085354463446e-01
2.435948901785093060e-02 4.755287966962538915e-02 4.279019894728225970e-01
1.795012536078823343e-02 4.372465455046039423e-02 4.232934873477748328e-01
-5.973538050152135508e-03 -6.663202164627818336e-03 4.303755357186161978e-01
4.647785833760424701e-02 5.278686227186982910e-02 4.881516392404489091e-01
4.701950450344678095e-02 3.572413006327197771e-02 4.995628241936698188e-01
4.158360011028123387e-02 6.255378917492833424e-02 4.706270969300183626e-01
2.315896233906292179e-02 2.988767778946637560e-02 4.295561374097845442e-01
4.920483238002273246e-02 -1.198726948350352199e-02 4.599359975756528440e-01
6.730675716741708718e-03 3.555116832718344805e-02 4.113984472740261911e-01
-2.312590062021184847e-02 1.912227246440579426e-02 4.178615300691728152e-01
4.560139310443240418e-02 2.800879939957282710e-02 5.035598916118003698e-01
5.159329325615534534e-02 3.451774458818838293e-02 4.886273014342411014e-01
4.962773123219326593e-02 -1.186000637372520983e-02 4.607046169365001109e-01
2.244492244820060073e-02 -1.441604365059622264e-02 4.351831293271971046e-01
1.526779466191630942e-02 2.198694454129766426e-02 4.219858406874704149e-01
5.450301052553256642e-02 9.397925583217484405e-03 4.816467896242792035e-01
4.688622490965659029e-02 1.230076389421665833e-02 5.042089223336505555e-01
5.706007609532856573e-02 -7.536305564306724700e-03 5.077867960148291226e-01
5.087389888070997790e-02 -8.014797632131046012e-03 4.615071476748273671e-01
-3.927995554873262886e-03 1.515273534764149770e-02 4.171678711561355168e-01
2.824541408271059525e-02 3.222734509237298178e-02 4.325397726956356492e-01
4.216473879470457320e-02 -1.722074650072737481e-02 4.485062006648686816e-01
-2.757723690527950910e-02 2.671111719200592455e-02 4.167168608766680382e-01
5.142747813551451497e-02 2.168210683853550105e-02 4.861505865177114805e-01
4.817642414660942840e-02 5.699148034009200725e-02 4.627787383013842182e-01
4.790244577320987296e-02 5.739370987161687698e-02 4.653852981799262989e-01
5.367324884509507704e-02 3.928467935291548793e-03 4.953950687661901608e-01
4.377872190000005326e-02 5.350694899933473858e-02 4.436630513904550321e-01
3.446498101856594609e-02 6.717129378406207219e-02 4.435864563184354070e-01
5.486924726364134086e-02 1.746499430948338094e-02 4.672265397927835018e-01
3.921948109368574714e-02 -2.447089182102916635e-02 4.486856072373158755e-01
3.681624040612336418e-02 4.772074037061167784e-03 4.397286240124795298e-01
-2.108446648564035047e-02 -3.237834941985872315e-04 4.313029793663286648e-01
1.503479958255912914e-02 1.285078278275758080e-02 4.260208956190900120e-01
-4.017908170057882863e-04 1.520720444421373024e-02 4.173186157860775958e-01
-2.599619667451738211e-02 2.195243793380036862e-02 4.184491044693152140e-01
1.258739974997169844e-02 5.387127947205942041e-02 4.315497625910451052e-01
1.869053617799104963e-02 2.059821302544873403e-02 4.263083198803119811e-01
-2.011566762140451839e-02 1.926299997896473853e-02 4.168479900459617360e-01
3.185981542227370178e-02 4.907026506909338559e-02 4.341058215075177529e-01
-1.320155661911140595e-02 3.937309895235854146e-02 4.126391147786563351e-01
2.587085914916882959e-02 5.104471185304701453e-02 4.306580449020832591e-01
4.917257487229474699e-02 5.088742925760499081e-02 4.853934473690884044e-01
-1.520845893754020975e-02 2.093962255453821891e-02 4.139578201467527530e-01
4.406563172470980699e-02 5.532699175076531695e-02 4.844215406108381416e-01
3.964901350767541244e-02 1.774891036539763198e-04 4.426741740336328501e-01
5.413162276261539174e-02 6.265270415333541731e-03 4.646763919436334711e-01
1.233647428353766909e-02 1.413323762955151150e-02 4.241600638482966312e-01
4.921227379717155875e-02 3.784080041306343151e-02 4.949510856384806146e-01
1.816404448723615839e-02 3.427692691822990106e-02 4.219749573904810758e-01
3.218692658462386086e-02 4.218319872674506504e-02 4.342581140336946310e-01
1.220090991558578884e-02 9.467985456296646243e-03 4.269228217100456413e-01
4.903253416587017438e-02 1.480379739384135931e-02 4.952013246059452922e-01
4.585559022102479731e-02 3.476159398077847528e-03 4.475017932183843472e-01
1.966753179844642554e-02 4.454060862837393164e-02 4.243625782749618214e-01
-1.346632850970871237e-02 1.667554579279934002e-02 4.173488831832431467e-01
-2.038991985765885306e-02 4.276097411164320010e-03 4.281392860110768694e-01
4.056821153464953283e-02 5.766253119177525838e-02 4.417917782840212748e-01
-9.618313562948239970e-03 3.300413717137243991e-02 4.063855663220327097e-01
-3.405904362597543533e-02 4.171987742927287662e-03 4.371724201125448683e-01
4.614454827572240375e-02 4.267913207769069572e-02 4.454436826644524450e-01
5.454341561777872188e-02 3.292948524622177353e-02 4.646418702591462724e-01
2.655701654303690290e-02 1.119570350688540647e-02 4.322755870727670868e-01
4.830132588413629108e-02 -1.043551277003237389e-03 5.148121867810546703e-01
3.038109612701527310e-02 1.534015277135012192e-02 4.340836271010090619e-01
3.425827851377517830e-02 3.483716698366134956e-02 4.358545077604206175e-01
5.025540487105609883e-02 1.773813526885605063e-02 4.904840371543199851e-01
5.022797684514120758e-02 5.231342478027241338e-02 4.614769685234121899e-01
-1.904849979780953717e-02 1.192568199001042828e-02 4.227008273647246961e-01
5.864810115406540736e-02 -1.039478796621981158e-02 5.012772590501695102e-01
1.233863435503126070e-02 -1.114243017017476842e-02 4.319066602295710267e-01
3.917998757759241085e-02 6.538135153372011399e-02 4.639486534096597392e-01
5.333626217242460471e-02 2.849869470423527576e-02 4.827239899825140901e-01
-2.762740164964930592e-02 2.434562453656120840e-02 4.180388964658987572e-01
5.031059151404308066e-02 3.911963203642251224e-02 4.924018601843119236e-01
-4.234109346082712971e-02 1.328842856298590195e-03 4.417427866910769718e-01
4.847806891520969191e-02 5.619019676339641334e-02 4.583904145047212886e-01
4.236214896958347131e-02 -1.501865386838577808e-02 4.484107311984564803e-01
4.738944992753361951e-02 2.654332478853159948e-03 4.491269383494740364e-01
5.631254238267306700e-02 -4.745464226305350780e-03 5.058864207512218103e-01
1.602379613493092742e-02 -1.853653617392043984e-03 4.304390729213009581e-01
2.229847390361691661e-02 -2.210788088031988285e-02 4.370252510224656994e-01
-3.163807318753440734e-02 1.683139896635870922e-02 4.251933142258766396e-01
4.864340011267423436e-02 4.827396693176998731e-03 4.510448525616587712e-01
5.054466651388823950e-02 5.187018777883172643e-02 4.641464985888582029e-01
5.510164647889671113e-02 9.448643686738946584e-03 4.690203893271577829e-01
-8.685848432268165192e-03 2.725117994637943179e-03 4.276569478723578621e-01
-1.442917548547081180e-03 3.716690332815199282e-02 4.078801271878334522e-01
1.596651543540385243e-02 4.183613517468315682e-03 4.301703328193521858e-01
2.765877093624239877e-02 8.794930358546818386e-03 4.330995074276186019e-01
5.215316563676056227e-02 -1.966569749708445974e-02 4.685948562041933885e-01
-1.832698436139504686e-02 1.671754248680355770e-02 4.184579806207166519e-01
3.161284329496754416e-03 2.819878517698186718e-02 4.060217018313032611e-01
1.356821911358430284e-02 -1.426556201301215805e-02 4.337394770144467615e-01
4.906674529858601197e-02 -1.035387772563965518e-02 4.591814575644980190e-01
5.066782106644893841e-02 3.101736909781612622e-02 4.512503921838602605e-01
5.726311357886034598e-02 -4.569227814225040180e-03 4.909717135398050658e-01
2.872764089726222853e-02 -7.900514574607664375e-03 4.357056713970248185e-01
4.863945169002717450e-02 1.366882887776035664e-02 4.494228360795631261e-01
5.501989296848945610e-02 2.962062638938917081e-02 4.710925757926920920e-01
5.606728022842192433e-02 -6.610815493261043042e-03 5.105453824695991294e-01
4.695264742595720714e-02 2.274384131769929124e-02 5.007070188373873298e-01
1.210459158566197686e-02 3.967857535618449227e-02 4.188395519655455090e-01
4.313345255993316502e-02 6.230522181452557984e-02 4.489401675378185685e-01
2.175434697523883840e-02 4.438113549193565405e-02 4.253741795762885358e-01
4.941303299744161798e-02 -8.814186554505847385e-03 4.590533410212243592e-01
-3.033813152483831772e-03 2.694125832646683538e-02 4.045233831840948091e-01
5.191535430926895456e-02 4.500208625634508769e-02 4.846448795881995730e-01
4.107393251965019143e-04 1.926085101684353248e-02 4.128934873451666765e-01
2.263870302315932823e-02 1.780132270131481662e-02 4.300135172577063125e-01
-1.369916653383699418e-02 2.326451959742123834e-02 4.094288939901574720e-01
5.390077385052090275e-02 -9.739985237955605356e-04 4.646544975425535018e-01
1.989493285462445166e-02 3.352898296366824821e-02 4.246051791570922274e-01
5.370517701632787633e-02 -1.165624860861212524e-02 4.694150052166315423e-01
4.982406121968334378e-02 9.385422453378929053e-04 5.109781057404714222e-01
1.279396849781277642e-02 3.460972682535492367e-02 4.164403990232668495e-01
1.592654502514188886e-02 5.117637902838056974e-02 4.253817016969969611e-01
1.098114313305001595e-03 3.097331033445152593e-02 4.047590453567579960e-01
3.219077675137912986e-02 3.523251295891412227e-02 4.344102629785052128e-01
4.423374425102722524e-02 4.104316719639672373e-02 4.437079374266886256e-01
1.325596346300302042e-02 5.139614123878684382e-02 4.241525039401285446e-01
4.982663041850540764e-02 4.092808138332142479e-03 5.068397553390698862e-01
3.578044417359573653e-02 6.781872972537049404e-02 4.469930003085110237e-01
-3.767424820317835654e-02 3.570621382592442921e-03 4.413634762001703016e-01
4.957740643010948717e-02 2.866556262824292850e-02 4.929436568118985007e-01
2.518222607459723317e-02 5.341517890428216370e-02 4.316737016710718855e-01
4.695694824748793822e-02 5.805626258131710293e-02 4.713334402781809707e-01
-8.058222017886312524e-04 -8.539437841519627835e-04 4.281835693008995691e-01
3.234173013923603152e-02 -1.347288091959481784e-03 4.373268055920684905e-01
4.299497033156474135e-02 6.269766330316887959e-02 4.683102687188680502e-01
4.546227625652369403e-02 4.035954442831642813e-02 5.020377306201904144e-01
-1.517002923686766938e-02 2.346889271603042407e-02 4.103923025285026727e-01
3.574548991091041489e-02 6.415601316021028733e-02 4.428567066643174233e-01
4.465818908192280973e-02 2.427048412262416965e-02 4.443423337586819288e-01
1.751548089500424427e-02 2.969690072344743220e-02 4.228621121965741581e-01
1.315573529444407155e-02 4.084605742356860886e-02 4.199829140207888001e-01
5.089528344984037278e-02 1.410710913750191225e-02 4.535277339496480153e-01
4.442708190443297317e-02 5.000525083240670715e-02 4.438327048258113861e-01
-2.038748542895311988e-02 1.744785188990716565e-02 4.184191439797089185e-01
1.928530336806140097e-02 5.332650108315363513e-02 4.290323017427677410e-01
-1.022064695261020589e-02 2.230379795264266288e-02 4.077618180783150748e-01
4.832295418059449899e-02 3.889865352320188291e-02 4.481174098326063948e-01
4.888247382575292704e-02 4.067643822038748830e-03 5.087567170978091191e-01
2.618949680650611844e-02 2.262686822750515150e-02 4.317679971130381489e-01
-1.984700541329852738e-03 7.028234468325083098e-03 4.246022439601747078e-01
-3.452730083838158846e-03 -9.644737248676352528e-03 4.311653980481743864e-01
1.804997342144899763e-02 3.486646636239323915e-02 4.216042242304695042e-01
-9.896056632697138034e-03 -7.580207859822600536e-03 4.319289957077055431e-01
5.342814522698659252e-02 3.126404520208437426e-02 4.572939295748277289e-01
3.796560254775031840e-02 6.597568741766129952e-02 4.530451875107430193e-01
6.531515901027762708e-03 4.455489030951177709e-02 4.157129708826879377e-01
1.003490421065418928e-02 2.701376646675435547e-02 4.128586101680098430e-01
-1.323898717745446846e-02 6.405153489454911732e-03 4.246660591687732578e-01
3.420036509806269331e-02 1.996948483973833358e-02 4.361161269393232787e-01
1.654652916994135692e-02 2.022715037148855449e-02 4.241553303673226138e-01
1.352888948730050084e-02 -3.240394155134960173e-03 4.301977534297576899e-01
5.489335023876614622e-02 2.155309920222517328e-02 4.730451808099782052e-01
5.108986638062176788e-02 5.018011272199198597e-02 4.760320908364017445e-01
5.435537897077817593e-02 -6.613914616740437184e-04 4.660750381686351584e-01
1.085405998831264797e-02 1.381577643246391027e-02 4.237553591807492470e-01
4.309359677749488582e-02 4.864317246728850838e-03 4.447404207149586175e-01
3.835584412963639889e-02 -1.980286533892007886e-02 4.452755993576751337e-01
4.194494905226938547e-02 6.503122695205151849e-02 4.575857075332737112e-01
2.217048809576149110e-02 2.943291197215226751e-02 4.286214769610599551e-01
-2.531821468565751895e-02 3.673952466037368192e-02 4.185185361380147628e-01
4.327800742386445076e-02 5.213894907751736793e-03 4.448314210173994199e-01
2.303354712696461040e-02 7.906774507127525831e-03 4.315786293237550142e-01
5.430549380542024074e-02 3.253789991899121159e-02 4.626521630004429286e-01
4.862605794238034768e-02 3.294956847184667831e-02 4.961022135558660895e-01
-1.990946535627105551e-03 -8.388748231234009062e-03 4.300640085315131089e-01
5.045753546276867535e-02 4.946031225673109405e-02 4.568512434283780732e-01
5.757900783327263988e-03 -6.308193263515445709e-03 4.297716385906724113e-01
-4.022344790117281244e-02 2.550701639036226116e-03 4.408097283509200826e-01
4.902529495238254487e-02 3.750237030327382981e-02 4.490297127184692538e-01
4.912958106880858239e-02 4.156705691993939356e-02 4.945683729637945225e-01
9.244345091484969940e-03 2.775803179954374617e-02 4.113300185534631837e-01
-2.168263282958391228e-03 2.457278273759868834e-02 4.053227838982330633e-01
4.548381026961766105e-02 6.251877899453757437e-02 4.607073687357562952e-01
1.237935814149969740e-02 1.417699753137194492e-02 4.241760587394014514e-01
2.505577933764223386e-02 3.387912492106757122e-03 4.328867286505553857e-01
7.666982432468410179e-03 -3.965266526876421241e-03 4.292303900057369281e-01
-9.020659174664099472e-03 3.464607154119384025e-02 4.071956416833310555e-01
3.728133941758783598e-02 2.596559536988477315e-02 4.381981232208632671e-01
4.486081317151500297e-02 5.732818810435165446e-02 4.788151258622863060e-01
5.299315115744832744e-02 4.218920328759747859e-03 4.613174979783347118e-01
4.574311652481723167e-02 3.830856863797531958e-02 5.020052468370770349e-01
4.853611650114122988e-02 4.506748260466385964e-02 4.948317303294830216e-01
3.687312410083593700e-02 4.648951056544476518e-02 4.372840806195721908e-01
-8.171822330742546658e-03 1.958047408651397963e-03 4.278103225206447147e-01
6.028214627773822130e-03 -1.280743242646122798e-03 4.282380749970122191e-01
1.053779035034917502e-02 3.715706197302778152e-02 4.159566731151887464e-01
-1.409304503042923228e-02 1.155973081271048988e-02 4.217830264116654293e-01
5.409569307279481903e-02 -4.076220142158777995e-03 5.103964661046708207e-01
4.952828566610593258e-02 -3.029653027620737502e-03 4.555403400916326895e-01
-8.936715886327401687e-03 -8.303665113462501551e-03 4.320540716578203932e-01
8.337507998835010439e-03 2.371680670344240849e-02 4.128692026453686381e-01
2.192955208537247791e-02 -2.222922023816439538e-02 4.369072957020559977e-01
4.143705519811031329e-02 6.428230137818904955e-02 4.660514825459844968e-01
5.204707598119896056e-02 1.296741989288967799e-02 4.878958697312439918e-01
4.602538959578453964e-02 5.981380578293081507e-02 4.688765097924484926e-01
-8.959301644286916597e-03 1.062829352831668947e-02 4.217878394911782070e-01
3.112352490796173321e-03 2.988301364704884847e-02 4.058400573930899258e-01
-3.034017295126956865e-02 2.278760219874157843e-03 4.342614233606192919e-01
4.223089245694159471e-02 4.591197220297623532e-02 4.414122475467346374e-01
4.143776341593308210e-02 6.400351609584212231e-02 4.668041826735077615e-01
4.405313103023020954e-02 -9.313064219677284414e-03 4.496758439873638769e-01
5.527187189904055747e-02 -1.324410625214347478e-02 4.753341701233126382e-01
3.212786215688204911e-02 -1.185158164028350496e-02 4.387184984645435826e-01
5.448486718897411346e-02 2.783892007709799429e-02 4.779952712078034960e-01
4.991163306256131416e-02 4.734884859706428410e-03 5.059097414146273008e-01
-2.414431107653750713e-02 1.562431880826073601e-02 4.221492722843933065e-01
1.797179937159672919e-02 1.458307478603338390e-02 4.272679118535683274e-01
4.202079316825392541e-02 -7.233807059695646080e-03 4.463006651120600132e-01
1.099622508147203755e-02 5.169520565320483499e-03 4.280950708624652878e-01
5.305896262163026234e-02 4.080193118710058464e-02 4.619372229836546939e-01
5.405560292037629028e-02 5.252377239929574386e-03 4.903535203743172310e-01
1.861538868479231321e-02 4.557711813111728349e-02 4.240674627555814369e-01
-1.733272418414186222e-02 3.215603358720284938e-02 4.099535279169160829e-01
5.584171492666707703e-02 4.042852209255207337e-03 4.783457406899306874e-01
4.376798164089524407e-03 3.155492879772089920e-02 4.066826872509938795e-01
4.157698363001605807e-02 3.909419261575389909e-02 4.412802110068397288e-01
4.475188423214730704e-02 2.632878363662446985e-02 4.443733623013633172e-01
5.576980373610171404e-02 9.040894299972944545e-04 4.724616968975756670e-01
5.705233687509023155e-02 -1.395310119111040602e-02 4.811323775963752825e-01
-5.676547008139637938e-03 2.065497684837133002e-02 4.078116969898158972e-01
4.142211197076614559e-02 1.991901963633929684e-02 4.417148645865880963e-01
-1.534501157273337330e-03 2.568403841364636647e-02 4.051654247032306921e-01
