2.818242142105029796e-02 5.924588083957629120e-02 4.369263699660169697e-01
4.895118407265868637e-02 -5.615009509316097776e-03 4.555797042099967165e-01
4.304216506240234746e-02 1.954753025360236873e-02 4.427586157257645261e-01
5.376997364260202583e-02 3.415615714596098584e-02 4.594411365168752925e-01
4.900124780638343697e-02 5.508271823925310617e-02 4.660368970815407241e-01
-4.394217394413259606e-03 -1.588891076872011449e-02 4.339020205655075291e-01
3.989438324629038940e-02 3.981925756317809817e-02 4.393705940045594671e-01
5.085864225878412859e-02 1.671841907469681296e-02 4.886124890446313929e-01
4.537077102176581556e-02 3.104197868613000830e-02 5.031081004388854305e-01
4.996937283888149006e-02 7.895790146774474272e-03 4.528882246864976979e-01
4.896886711143755982e-02 3.506341468911909620e-02 4.949323061305467286e-01
5.573751857165413354e-02 -1.246689450528881866e-02 4.766016203733630663e-01
3.702566226567141627e-02 5.754917202979082519e-02 4.385307987475498548e-01
-3.288851231258512094e-03 3.710553770762633347e-02 4.071189817126656951e-01
4.901209779476403683e-02 -1.754752157513254571e-02 4.614353432152364376e-01
4.257955978464850189e-02 6.481038535798012978e-02 4.611502934836542722e-01
4.484205170437284560e-02 2.599566038276496932e-02 4.440893015295520052e-01
-3.001798245087889186e-02 1.358614707296548589e-02 4.272348020338989638e-01
9.591835745474640296e-03 -2.264343080938241090e-02 4.375042945143182149e-01
4.749956486023784730e-02 5.824227217462898260e-02 4.613843903159532966e-01
5.450469685605469419e-03 -1.534489639950711339e-02 4.348669225356462387e-01
5.408694335777697315e-02 2.150069969440072254e-02 4.613209424100239153e-01
5.435392194400504029e-02 2.887165435271001404e-02 4.620293591623443885e-01
5.498274370156520929e-02 7.845135324252884568e-03 4.797140527416124955e-01
-5.441510664026334015e-03 1.895069172659477955e-02 4.099103387189332870e-01
5.118648255594847318e-02 3.972124851913899288e-03 4.562677547315460713e-01
-2.564730194604700891e-02 2.560583360344705073e-02 4.154851908715631037e-01
6.358240907072650744e-03 1.881703854042271473e-02 4.148696766291702365e-01
-1.077613817282103807e-03 -1.113298653795240407e-02 4.308527956720284990e-01
3.776226525513612375e-02 1.380303832104023271e-02 4.389352142901702947e-01
-1.331220030498036361e-02 -9.425182558713249975e-03 4.337951852582766499e-01
1.289518085982261156e-04 6.227783010526627937e-03 4.251928247536391758e-01
7.331528662886340787e-03 2.696305162862118118e-02 4.079175126584778655e-01
4.970821762367909347e-02 9.338689395064030813e-03 4.519748333479137736e-01
4.872184426182823991e-02 1.608431609940307039e-02 4.948881260380389446e-01
-5.314366856322597088e-03 1.046833795314052774e-02 4.213603702117826866e-01
4.826270757248880133e-02 4.100806029570713829e-02 4.959615747508920314e-01
7.094536917961137036e-03 2.466138731651697225e-02 4.085089244313143686e-01
5.093472736771496173e-02 -4.225397516030026529e-03 4.592782722582248178e-01
1.605778153300586875e-02 3.953804700588604837e-02 4.206361306989468418e-01
5.386563614356306567e-02 2.999028228524342962e-02 4.588082484816101703e-01
-6.515125216853358270e-03 1.394752848547068345e-02 4.178569444432544966e-01
3.505782020330550780e-02 -1.390780917268232691e-02 4.409028329155589843e-01
1.856711404668857923e-02 1.173376049365494264e-02 4.277337059315307610e-01
1.841484047320517820e-02 -1.000701651849192526e-02 4.326097811938457993e-01
1.498191018755310952e-03 -1.244712186226132680e-02 4.318716874049634002e-01
4.493025412683277625e-02 4.774731811578321328e-02 4.435995430553890118e-01
5.070833488594473498e-02 4.116640561708236057e-02 4.517519295068762042e-01
-1.718702993022988394e-03 -6.760478952760204385e-03 4.293856626457395742e-01
3.302156346733424452e-02 -3.430575073013955503e-03 4.377748612560213859e-01
-2.715566820009063936e-02 1.038575543758346945e-02 4.288729185530533727e-01
3.533349580050049871e-02 -1.671670482943348954e-02 4.419469739400864738e-01
4.683746209674863326e-04 -3.892130648680766809e-03 4.285684667205174603e-01
5.417014598009064347e-02 2.905591692212868352e-02 4.608106867680833996e-01
4.938883097577728698e-02 5.067893427421512470e-02 4.518276074234520157e-01
3.775110245187542762e-02 -2.127348628496796706e-02 4.453488271524571607e-01
4.977280827796494445e-02 5.040611749323254537e-02 4.829712578617176288e-01
5.301427378745022373e-02 4.349910237075037961e-02 4.748733778797157856e-01
4.040676943862500647e-02 6.342575783621778873e-02 4.463190611324295287e-01
4.143111440638757442e-02 9.708770348739795969e-03 4.422303044515542014e-01
2.292418236493672101e-02 4.925475366434826918e-02 4.269535343669810246e-01
4.846957867982616686e-02 5.605992894918825076e-02 4.573972751419742577e-01
-1.912506598314959658e-02 2.910004758982052010e-03 4.286497920586956334e-01
5.177789119112403970e-02 1.665820885979637676e-03 4.582378861134033254e-01
5.042435173379294228e-02 4.990301204680724217e-02 4.804496312918759005e-01
2.872015442491175977e-02 7.884020680133359618e-05 4.349606433077653489e-01
4.785109688206936468e-02 4.998807021407390694e-02 4.915616486709358801e-01
5.762501530926516895e-03 -2.603839479291172009e-03 4.283613369285687589e-01
2.522081748745792773e-02 -9.217464340438102921e-03 4.342953898910660304e-01
2.655166572399412193e-04 3.287368958814677888e-02 4.039122986935968496e-01
6.425733130236360204e-03 1.233783969196493996e-02 4.226767782683570340e-01
-2.077749187194577463e-02 2.468742881300675304e-02 4.130385938928792244e-01
3.120865477842757474e-02 5.848786101859469039e-02 4.357847825266428221e-01
6.788763396512322718e-03 7.319237442342963612e-03 4.262052890859334142e-01
3.353112906979830582e-02 3.545304395830885247e-02 4.349084772195490056e-01
2.238552798324017559e-02 5.704260084795079178e-02 4.324294809710329535e-01
3.542976303940612720e-02 2.654316274756068211e-02 4.365484075503804906e-01
-1.283366321664387855e-02 -3.474866060955287324e-03 4.303578005215835667e-01
5.289218955386018606e-02 4.038099264645920311e-02 4.598801643925428118e-01
-4.337684523042739833e-03 4.299237391021629856e-02 4.129295648546332798e-01
5.552180580902146140e-02 -1.233039508018214832e-02 4.759580371670391608e-01
-1.999649834084013273e-03 -4.895840032250397926e-03 4.288930626805023683e-01
5.282676573039378487e-02 8.697985957139562144e-03 4.592476584216210744e-01
-2.299289086765561943e-02 2.334090719075780640e-02 4.152292684714426474e-01
1.642643700193836820e-02 -1.888211724492332329e-03 4.303021091179676239e-01
4.831806239740653319e-02 8.894667654912178506e-03 5.034335367550241136e-01
4.854596912260488589e-02 5.618325979165916806e-02 4.615263100711937683e-01
1.499520689626429072e-02 -1.800130592311035074e-02 4.349663344022127176e-01
5.507499568291832764e-02 -7.340745447062666483e-03 4.719311159490489072e-01
4.063920416258057222e-02 6.367300820920293591e-02 4.673541722100350571e-01
5.328133318153940173e-02 5.611275650979671847e-03 4.932500404359924651e-01
5.624902995278646678e-02 -7.497090522309355146e-03 4.773346455546980671e-01
2.570749733900589210e-02 2.832257319318762928e-02 4.311123227183419337e-01
2.170029407461278662e-02 3.306325445581336647e-02 4.260043851156379291e-01
-6.840918814424432927e-03 1.107993403967003770e-02 4.208307254571507228e-01
-8.541834123547533200e-03 2.147254020419398640e-02 4.067795002773453850e-01
1.491674594204856798e-02 1.188227892123664559e-02 4.260919739074379153e-01
-5.644254335030743190e-03 -6.355259914124847254e-03 4.299554022202447534e-01
-2.936090513241546365e-02 1.762848817526652817e-02 4.222770706130560825e-01
4.748221844867248770e-02 2.663592851563568661e-02 4.985986859293326523e-01
1.136489845329887761e-02 -1.207147979553628049e-02 4.323872912420970160e-01
-8.301530372090942800e-03 1.521559712226017679e-02 4.160742706184817341e-01
2.553964919924450738e-02 3.187886251723685144e-02 4.306153513937083233e-01
4.516505427315019305e-02 -1.217279855556261184e-03 4.479933328980110208e-01
5.613238132139371922e-02 -1.259383229474939601e-02 4.777717327774698153e-01
1.518036163373029726e-02 2.549464867873772744e-02 4.202635122178285942e-01
2.287499847200986577e-02 -1.693662886646699062e-02 4.360003448666648351e-01
4.735508290730659070e-02 2.870858462239887429e-03 4.487999502304676480e-01
5.133561050893069300e-02 4.089619350218364618e-02 4.886440521428364603e-01
5.689039909041299775e-02 -3.204130551387690626e-03 4.832756941964500008e-01
5.216523143558158236e-03 1.402606179761038512e-02 4.206640714633634870e-01
3.596781911770101370e-02 -2.579654015966969388e-02 4.464264913391498002e-01
4.286691940418278779e-02 5.961469632181894823e-02 4.452400321487239299e-01
3.777847044541428334e-02 1.944482685909734720e-02 4.383288548203659318e-01
4.124459452673482490e-02 -8.568605078819598823e-04 4.440078665512048883e-01
1.114753889546213697e-02 -1.113599252564586271e-02 4.315941043544188616e-01
6.679561316935870435e-03 1.528673081388838301e-03 4.274488010004950378e-01
5.323345297558135236e-02 2.189702923952889166e-02 4.805540458481084576e-01
5.545371598568049620e-02 6.129869021754020056e-03 4.719556673319234008e-01
-2.326628647938691966e-02 1.092114492567313605e-02 4.257085845436244242e-01
3.465306761820755033e-02 2.483629105823754318e-02 4.360172321236093773e-01
1.872734355681498000e-02 5.572754604623849500e-02 4.337274261218547200e-01
8.165596254065378770e-04 3.239297727029516460e-02 4.038017890656037112e-01
1.734676619672376879e-02 1.959753675903298104e-02 4.248099363548242802e-01
2.480822248618521492e-02 6.041297438616369253e-02 4.428772838069040541e-01
4.936593943473476659e-02 -1.258006163920188936e-02 4.603125931387669900e-01
1.530607845856869764e-02 -1.506908778566753808e-02 4.337690514411282616e-01
5.273885769240518190e-02 3.502950299587113264e-02 4.850160739403415189e-01
4.767768169726378791e-02 5.787889075078362505e-02 4.620495614707395005e-01
-5.808779808469098985e-03 1.307380161615319045e-02 4.187829785982630781e-01
5.348304700007851242e-02 8.389510211484841121e-04 5.038291845969755656e-01
5.031659281943576950e-02 3.067142675751018815e-02 4.502621532283505035e-01
1.796632469115723441e-02 -4.414235863148721628e-03 4.310630791844207166e-01
-1.077297185040030497e-02 2.440700207042563116e-02 4.060481294272245689e-01
-2.134855048800279528e-02 3.551017683345491366e-02 4.120995302342486677e-01
-9.120962184552518920e-03 2.788966018543164241e-02 4.049553621962905248e-01
-2.223814852904684725e-02 2.014065137762143486e-03 4.301797510718812223e-01
-1.190136758727437447e-02 -7.571808844944277923e-03 4.323993622767911549e-01
5.751515759820903517e-02 -6.789430580667337942e-03 4.873464678991030197e-01
4.963570484451978321e-02 1.911238164518967372e-02 4.495778627922046300e-01
1.881595301534479125e-02 3.368151167862629830e-02 4.223361528136416188e-01
1.022516594064983714e-02 1.716387911008489253e-02 4.201059121111836991e-01
7.974477407021611508e-03 4.079927563763245842e-03 4.273624751209195716e-01
4.030555005140672165e-02 6.403323313934869421e-02 4.475245942398672350e-01
9.963459939755088882e-03 5.215156757946916993e-02 4.250515791765515083e-01
-5.006898891816203429e-03 -9.268361851416934485e-03 4.313222178677980634e-01
3.845389967926396424e-02 5.351311567909054073e-02 4.387247405655574362e-01
5.162350622685069057e-02 -1.564232530910373078e-02 4.660891916529714685e-01
2.296572839725568443e-02 5.652029964626341385e-02 4.318331681952573553e-01
4.873045915226572461e-02 1.264558663009794290e-02 4.493038418571094206e-01
4.294830097102377703e-02 1.372930603314970362e-02 4.430712500195759795e-01
5.367325144897466122e-02 1.094854397096045422e-02 4.834331341938432058e-01
4.766265826994115634e-02 -9.334171013445195092e-03 4.553116688807558043e-01
4.934868786112333455e-02 2.283685292723755533e-02 4.920189486331931206e-01
3.098496091422392115e-02 -5.743407991138995382e-03 4.367405847745287617e-01
5.073828607184991540e-02 5.182342926320703674e-02 4.709476171352449669e-01
5.185332897826387677e-02 4.615927503108896435e-02 4.813977764116794678e-01
4.668572497528213766e-02 2.907458049935219765e-02 4.457717554703405360e-01
5.579368207198988350e-02 -2.556770217568320874e-03 4.716251696476890243e-01
5.027671955113226232e-02 4.794442671565078695e-02 4.533548525560833209e-01
5.531470822159447603e-02 1.664451237032774783e-02 4.715179995305540106e-01
5.435625728880381924e-02 1.020356908971968395e-02 4.811877399745776995e-01
1.495503695445027717e-02 2.501262363036563935e-02 4.200259335223599511e-01
4.672776022010303315e-02 2.728374734695578063e-02 5.009619556088968917e-01
5.371638557453670137e-02 2.317054374102860484e-02 4.587401775289684513e-01
5.700798096427162759e-02 -4.561373551006803195e-03 4.826908146096229313e-01
4.905665419741725777e-03 4.299639362278852295e-02 4.122173158604824916e-01
4.632784739821071973e-02 5.491380762060094761e-02 4.477582420759962378e-01
4.706257686807103352e-02 2.487064450774818455e-02 4.460831613843329602e-01
2.502017636964729355e-02 -2.352036941276813148e-02 4.382086192853374418e-01
4.457720530717602242e-02 4.323870823594184315e-02 5.022305922666664424e-01
1.385765205208111354e-02 -6.606771631971866329e-03 4.306182725743753492e-01
4.788446564966646751e-02 4.867875943844725273e-02 4.932825142198348778e-01
5.433470026606423975e-02 3.520739167720287471e-02 4.765916940234098953e-01
5.712700072108661820e-02 -6.944687688595130304e-03 5.059746212071618565e-01
-1.188251008606504983e-02 4.044500115614511199e-02 4.140801298158368060e-01
2.575533634797916652e-02 2.840261163181789089e-02 4.311460252005309690e-01
4.668181638814331708e-03 -1.768887037286322877e-02 4.359125466579965025e-01
-2.061988352192837062e-02 4.222032651912123805e-03 4.281266749300750574e-01
5.100991857306670652e-02 2.520175215977296310e-02 4.517823072496686687e-01
4.731436048418821011e-02 -1.554643955017886645e-02 4.570619638920915273e-01
6.311406275341798280e-03 -9.562725275521608351e-03 4.305770219358797668e-01
-2.095017615173850462e-02 1.849401463190591260e-02 4.169888254819266726e-01
3.076584011809623681e-02 6.071773047250894617e-02 4.387503689651049421e-01
5.119098247218575176e-02 3.860990540633364720e-02 4.529185916943341828e-01
3.724449778755543894e-02 4.030015789852451485e-02 4.373799903143745227e-01
3.574947597579492681e-02 5.664276057228571915e-02 4.375398132812346463e-01
5.426404047743602771e-02 3.631144233465663507e-02 4.700474055586227884e-01
3.803206574484838814e-02 5.705268820847123057e-02 4.391004764798269178e-01
3.694794090682912424e-02 5.071132372596415250e-02 4.372135159178519581e-01
5.520835373029757409e-02 4.106023670336167962e-03 4.850363682738928484e-01
4.256140681628455685e-02 8.154997497633837550e-03 4.434478848389891148e-01
4.156688142556137083e-02 5.195878357892416005e-02 4.969348109321308216e-01
1.970066016329516737e-02 3.828749187652073088e-02 4.230458031311668532e-01
-1.118264868518187988e-02 3.335581414000426265e-02 4.066108803224894319e-01
7.315345356847257480e-03 2.351218958446847293e-02 4.104078570621869648e-01
5.462511868923612679e-02 2.412852435439012330e-02 4.645723335740767346e-01
5.241810223794345774e-02 4.095779335384415465e-03 4.591959268047966503e-01
2.964575074851676095e-02 2.143592831024453138e-02 4.331704382918414864e-01
2.756170716871752038e-02 5.279839062900328756e-02 4.319947061857799531e-01
3.275016768088173658e-02 -1.104018260441602672e-02 4.388184437205361887e-01
1.796487317882829518e-02 -1.705496637972730295e-02 4.349896521949419559e-01
1.843475920356609996e-02 3.157643991224264729e-02 4.224570161944792845e-01
5.493742581076518916e-02 3.041955471670269168e-02 4.685904684868830716e-01
3.734067852546549965e-02 5.803219689872014808e-02 4.388523446224448232e-01
4.873519419763647914e-02 -1.003240567572339682e-02 4.582297797236721260e-01
2.601365582189813647e-02 -2.094562270404365031e-02 4.380622554857809270e-01
1.827647499098071504e-02 2.241507861973118104e-02 4.249578708580422637e-01
4.561319725411595166e-02 5.246251875725080338e-02 4.907938995152476003e-01
-1.426521855564713386e-02 2.451350863659150503e-02 4.083859328180983184e-01
-3.459123790804653764e-02 3.979673539480892662e-03 4.375492722567819737e-01
5.372378149166689293e-02 2.925800071405287514e-02 4.805193024887683961e-01
9.496837504366934662e-03 1.263976503488374765e-02 4.235344680954959418e-01
5.284575419404580199e-02 2.186847662784055860e-02 4.815601802246531338e-01
-1.471391847206818780e-02 3.141593413430387310e-02 4.075293476223457723e-01
4.290536582852346598e-02 3.201626834742115485e-02 4.421007069398230627e-01
4.535358512992280350e-02 -2.121920310015237149e-02 4.556571881715441030e-01
-7.234296604952571846e-03 3.839234974129171474e-02 4.089356687230388809e-01
3.415347287408695282e-02 5.192930877969700182e-02 4.354979312756849241e-01
1.185915017659788101e-02 7.769391398920057201e-03 4.274207579443298211e-01
4.779025444367958342e-02 3.318999893599308693e-02 4.974852460066463422e-01
7.660435519529359798e-03 2.493933436476839655e-02 4.092984776816521730e-01
-1.266210930559017248e-02 2.420631253710036138e-02 4.074088516552943351e-01
-2.455691334396292724e-02 1.564067360942664534e-02 4.218014853113655205e-01
1.359026882261028107e-02 3.589108520969926108e-02 4.176021772690637901e-01
4.959879657305896195e-02 3.584529612273657916e-03 4.527775586189694557e-01
-3.728183632905989267e-03 4.470849440549813647e-02 4.156823844231627429e-01
5.675686653363890000e-02 -1.077999626830136205e-02 4.797735676609982125e-01
4.556073604980050845e-02 2.178810692583299513e-02 4.448062114935233402e-01
5.147311641902595214e-02 8.510495784704797534e-03 4.943362276888915163e-01
5.377250781966814996e-02 3.416306542334129892e-02 4.594547691488887753e-01
4.884561979633634393e-02 4.158930427526005835e-02 4.946228945264214971e-01
2.767793675507429496e-02 7.227421933011665689e-03 4.330756075235415170e-01
-1.363907085166655812e-02 2.526955518480731092e-02 4.075249063587392806e-01
4.643352581540369228e-02 9.100729156046614976e-03 5.072622956720507226e-01
5.112001253906588855e-02 3.896109830902061422e-02 4.896520089072948223e-01
4.884529275931151493e-02 4.793292199018640148e-02 4.478900553681376961e-01
5.395267743329013044e-02 1.474261804840152137e-02 4.610675969751851788e-01
4.995009474147437539e-02 1.501539808717746761e-02 4.919744732392229980e-01
1.916965667968710367e-03 2.133599913263296149e-02 4.085959501675445749e-01
1.281960041187249835e-02 2.568083552994561772e-02 4.170187377209632063e-01
1.881615580366113871e-02 3.974644610353943869e-02 4.222893891460914872e-01
5.117064083658395129e-02 4.457797913413889812e-02 4.879234897635992274e-01
4.708113709803860014e-02 4.383092383850603624e-02 4.458890831918017605e-01
3.686698325535275877e-02 3.385972450637895342e-02 4.371710825161256309e-01
5.129780814052033872e-02 2.615702294291948407e-02 4.869519086736360247e-01
-3.631128390805302836e-02 1.728177137647360752e-03 4.384277832762006888e-01
2.708544682248709146e-02 4.934579042864470355e-02 4.300056898870711630e-01
2.590923273964763213e-02 3.617459263602365582e-02 4.296530789646566539e-01
-4.120208167522421139e-02 2.315440101366153525e-03 4.481783409385945438e-01
4.706629897096147042e-02 3.348271074400629987e-02 4.464144598379917173e-01
4.200380650693665008e-02 2.651521227082957385e-02 4.415732451317074814e-01
-3.815718670966646714e-02 2.694139690470566048e-03 4.409180374772704303e-01
4.403781515598266527e-02 -1.242648953315942523e-03 4.467805722131878432e-01
1.990952491213984071e-02 -9.022337559102696497e-03 4.327279644603861386e-01
4.596981202780069803e-02 -1.915566792660131079e-02 4.554602103245524725e-01
4.269145802151230740e-02 6.370647597673081974e-02 4.658731243980854808e-01
5.267699486688371541e-02 9.868200776611289748e-03 4.884197273559583441e-01
1.483689147104004166e-02 3.404090056028333255e-02 4.177445764819391338e-01
-2.235641938364731421e-02 1.789595304948915500e-02 4.182406383496745650e-01
2.442179212477339073e-02 3.313560956805405161e-02 4.291159434616043655e-01
-2.177039160691059821e-02 3.666658493487283399e-02 4.138952755930722649e-01
4.727500083280330306e-02 1.731979730907170362e-02 4.995822504732677083e-01
8.809391198739680712e-03 3.729418069265482555e-02 4.134965717460092338e-01
5.447240373729864138e-02 1.404537950172713226e-02 4.637964027804505340e-01
4.517976212721950408e-02 5.282665303882229033e-03 4.462987615486194715e-01
3.233488264704988818e-02 -2.323845681610998276e-02 4.420659293129040601e-01
4.797867631210412515e-02 2.658090788076284024e-03 5.117284413476175242e-01
-1.547378956130829536e-03 1.262053711940800890e-02 4.194238154968717991e-01
5.307393333917951456e-02 4.221367981059599706e-02 4.803393086953671176e-01
-1.063194530297652610e-02 1.919006345518603149e-02 4.123298161704734288e-01
4.931495604206212469e-02 4.107855185902486300e-02 4.484828726940080501e-01
-3.863799051819278435e-02 -1.406497763776147839e-03 4.402091299545828340e-01
5.136736660904830248e-02 2.102763955047566927e-02 4.528646894189099492e-01
5.477693717839745430e-02 2.298046021162838959e-02 4.655757431335828533e-01
2.768936060893369133e-02 3.756398887946362647e-02 4.306298012161071109e-01
5.007537816816207132e-02 8.977405333547738842e-03 4.981635953782177495e-01
4.691112451192110122e-02 9.542392430179380200e-03 5.061958807686496309e-01
-2.951375295856408995e-02 2.007301960644010917e-03 4.337164133941219246e-01
-3.701692482212660951e-02 -4.292011925477587017e-04 4.396931101190061364e-01
-9.010898851623456475e-04 -1.286338228779096600e-02 4.319836137360262285e-01
2.658004186657029339e-02 6.090253814147852940e-02 4.409521564352865686e-01
4.501403494453048298e-02 -1.123248646175977611e-02 4.515328831708014801e-01
1.413834117668321712e-02 2.797587841271168690e-02 4.174204531832650944e-01
5.394591834500508248e-02 3.828448565007787352e-02 4.704733818467682349e-01
2.059344023690728651e-02 2.506883657613709696e-02 4.264079816898545539e-01
-4.676637042989832682e-02 -1.614565812893942577e-03 4.459223844767543632e-01
5.636060700387172245e-02 -7.642643715242837359e-03 4.779525276418429280e-01
-2.482809583599110328e-03 -7.307936402285504507e-03 4.295579913707224251e-01
4.846249288591060467e-02 5.615721913332236831e-02 4.582208722323265482e-01
1.158275101259640880e-02 5.194829766681346994e-02 4.248917668316464780e-01
-1.325698233974886495e-02 2.803786557041191424e-02 4.068050750695226814e-01
5.303049401071955465e-02 3.676230296302177014e-02 4.838367189688942971e-01
5.259570152185449182e-02 4.488456264498416615e-02 4.727300692833235618e-01
1.091061985888345512e-03 -5.140949468263183129e-03 4.288578922879125455e-01
4.228012060392857818e-02 -1.428647146124354360e-02 4.480694301419321790e-01
5.388786425576527067e-02 4.880051253359031505e-03 4.919171128186521358e-01
5.451478479045215875e-02 2.895382224451036393e-02 4.630485572324218313e-01
4.264051344151725820e-02 2.760006120881897118e-02 4.420841944071302043e-01
-1.551011502689593653e-02 1.071602305131043320e-02 4.222275086465730465e-01
1.257199505352591014e-02 2.759001578153197701e-02 4.149561933440144013e-01
4.810011156349820044e-02 1.956211255506010854e-02 4.965899780267966634e-01
-4.378676507214518399e-03 1.140460986952188116e-02 4.204308618114121487e-01
4.157337300410926528e-02 -1.107311128456455948e-02 4.464751260252062259e-01
5.113696807188910370e-02 3.848597119613703099e-03 4.561765327423203953e-01
4.578463663379316040e-02 5.978797889368404200e-02 4.694235392852973976e-01
1.662122259651415898e-02 3.023383309040810624e-02 4.201575597653427474e-01
5.027070897635246838e-02 4.901367291278214966e-02 4.547836361207012734e-01
5.114646975869575896e-02 4.952254951418894047e-02 4.607256445135806677e-01
4.413821714162087517e-02 5.366148128573595272e-02 4.435483986990867988e-01
-1.633432472508288338e-02 2.276879867440077809e-02 4.110325096530189626e-01
4.587960803007989224e-02 5.941496339981144903e-02 4.704919213779048537e-01
4.453748191386740218e-02 4.774944443419455731e-02 4.431984389470715602e-01
4.566048169933211234e-03 3.485623177956304747e-02 4.080152063017593034e-01
4.009543050553421306e-02 -4.004524643339599232e-03 4.435365894027583633e-01
2.550897770364457182e-02 2.401188440161262233e-02 4.308241468213298564e-01
4.265527847222107954e-02 -1.093488596312570602e-03 4.452732532544836364e-01
4.665060445074124124e-02 5.500938778057513912e-02 4.484973955534917733e-01
2.578599972328016188e-02 5.663049231676951095e-02 4.329152642814220742e-01
-1.514572251495346217e-02 2.038722276519336699e-02 4.142888700758171616e-01
4.759024185875868757e-02 3.389590747437593726e-02 4.978812662832076685e-01
-2.083968686084867149e-03 1.077995581775310734e-02 4.211765338189827901e-01
4.266279497794129433e-02 2.709626150685814916e-02 4.421257704965065871e-01
5.485933606303709104e-02 1.384895828087007522e-02 4.663048054159018574e-01
1.204476387499640345e-02 4.095415553999844083e-02 4.186600563791519347e-01
4.999006380095847440e-02 2.271187839865817376e-02 4.899729322846883561e-01
5.558087151398442144e-02 3.569014297361810216e-03 4.722912782046454483e-01
5.077498327226038360e-02 2.283471693505979144e-02 4.875566649671438935e-01
5.322172857828284809e-02 1.028793092754255907e-02 4.597845046845921990e-01
3.394782176900706244e-02 5.391091184417265425e-02 4.357482269368519456e-01
-2.495444594897869295e-02 1.416362226901631688e-02 4.238553792501974504e-01
4.741980963364424151e-02 5.848777756797988309e-02 4.569725581358972111e-01
4.833760073356152542e-02 1.549737226767614745e-02 4.968743211875681354e-01
5.130700222555823614e-02 8.660383425355635059e-03 4.946747905002015777e-01
-4.252570861070641660e-03 4.123202608048892603e-02 4.105314107376246135e-01
9.005926961061684263e-03 1.968447161630158121e-02 4.163156358808559609e-01
3.658686356622263547e-02 6.707894424965110680e-02 4.437812643161341275e-01
-1.424383647156529653e-02 2.198623670008632500e-02 4.101085037962462487e-01
5.494617567204238689e-02 2.598623610509669807e-02 4.738585634751102393e-01
4.718221324830555036e-02 5.728995280580188865e-02 4.720749192892934598e-01
5.440377992710428851e-02 3.605388034990610058e-02 4.733632560559846714e-01
1.087859047816412163e-02 2.856572195447500476e-02 4.118047376861287412e-01
5.506310003180473617e-02 2.775710096533361843e-02 4.718093590628466005e-01
1.543755742271947159e-02 1.041283948443194910e-03 4.300182181771130541e-01
4.795182140440340524e-02 5.114293660281473558e-02 4.895385455843010436e-01
3.708257428505645770e-02 4.447506570305132662e-02 4.370051345530850950e-01
1.116319839008917889e-02 3.639275519563813714e-04 4.282899960953946428e-01
-3.440146453498074686e-02 1.105901626550798676e-02 4.361898343231538355e-01
3.892156939708524971e-02 6.362260832223284868e-03 4.407706712970796969e-01
4.063236879211575697e-02 4.058656506293619598e-02 4.399417857063945836e-01
4.752303463286271235e-02 4.678978822271936955e-02 4.956843912780956041e-01
5.530454475087070304e-02 -2.350221354935891002e-03 5.048762684896808128e-01
5.421562346673915872e-02 2.861494364838059606e-02 4.611894515545135742e-01
5.393588403052810426e-02 3.227867027481457624e-02 4.792339617460375512e-01
4.627136228973267179e-02 6.023875837386225007e-02 4.649766725555733449e-01
2.120048992105848240e-03 1.661449037585950930e-02 4.152893729128142586e-01
8.747962063080516257e-03 3.992668997893768917e-02 4.147921051786730429e-01
5.366444968447436209e-02 3.635096496693889651e-02 4.598586664562551163e-01
4.771400169911663158e-02 7.765295330921795358e-03 4.486503459913286362e-01
-3.937775467995890261e-02 3.412253721309699110e-03 4.448635531210726746e-01
3.644078667575492703e-02 6.767879970570817028e-02 4.466993813815351433e-01
5.324420175124253835e-02 3.764218465883216458e-02 4.589546181677777725e-01
3.846725945778232958e-02 2.394816471128777616e-02 4.386907945127181407e-01
5.311412670870351710e-02 2.759832250624034630e-02 4.825870161861554597e-01
5.265389626137431667e-02 4.474317919853866912e-03 4.980317173872953473e-01
-6.946703881384612249e-03 1.718774496907916199e-02 4.127348476953797141e-01
3.413812558709225509e-02 2.726008310253189709e-02 4.356516716625973840e-01
8.228879971594622172e-03 1.024428785081910737e-02 4.245719955972244164e-01
5.459651380018586825e-02 -1.220422836459408508e-02 4.724371649929591799e-01
3.566388359097508176e-02 6.242272435083459636e-02 4.412338248237869243e-01
5.486723445184357034e-02 3.082752173409656488e-02 4.738616453002615914e-01
4.703109368398537826e-04 4.741142212413071433e-02 4.167602239014148169e-01
-5.093132760376043594e-03 2.502170920331868442e-02 4.038019755843711978e-01
-3.652216571713702564e-02 2.306041250744606062e-03 4.383615713595953589e-01
4.560675883760750837e-02 6.171497166704429521e-02 4.549002944926755498e-01
4.159627268555297214e-02 5.593699079727793705e-02 4.417037436797732197e-01
5.561534999882046526e-02 6.912074875986441193e-03 4.734516695501700956e-01
4.836421757864141358e-02 -2.169545436233758645e-02 4.616607122144951725e-01
3.173071445689801262e-02 3.452302902932107703e-02 4.335495365126187939e-01
5.000099365030718362e-02 2.520964460548637612e-02 4.498959962683395930e-01
2.090585974971941041e-02 5.736232116519557334e-02 4.345242835502698409e-01
4.966430985153177241e-02 3.937590891723340841e-02 4.490652991353666912e-01
4.740684523242742060e-02 3.221112510048178973e-03 5.119988559553978469e-01
2.855034897257807333e-02 3.811802575274313154e-02 4.311982290433957199e-01
-2.331015239789573784e-02 3.751066137318938287e-02 4.172872469489169456e-01
4.708007016530591643e-02 5.089242472868466677e-02 4.925743561337999066e-01
4.859636675218099305e-02 2.839557167491003203e-02 4.953484831676662759e-01
5.377669190481573769e-02 3.223150910768129290e-02 4.806513279093659885e-01
4.538952737228000439e-02 -1.245545796589355055e-03 4.482103844113851099e-01
2.731494976941645225e-02 5.921978041667559645e-02 4.367899366415745610e-01
-3.047150928149231636e-02 1.103903180307472254e-02 4.305652608663591008e-01
5.572712544358755793e-02 1.252260931579683668e-03 4.891212702323696204e-01
-7.535804797100940922e-03 1.221515882134968645e-02 4.196602080679188718e-01
3.599663777209210352e-02 6.523139572973643552e-02 4.589182359152056412e-01
5.566014923723740238e-02 2.261720266527295076e-03 4.859403184677834608e-01
4.139212010555395893e-02 4.633604419551108633e-02 4.400385599798843361e-01
2.801536714656083921e-02 -1.097156476898322394e-02 4.358298448846007478e-01
4.834899709596362366e-02 3.916090994935933489e-02 4.961245508926678816e-01
3.925039837331625869e-03 1.657096566737801396e-02 4.158821082932644964e-01
5.622580493695419901e-02 1.687972684589283956e-03 4.814598034963482598e-01
3.143062073769153225e-02 -1.591827693563530391e-02 4.389799034909525610e-01
4.227171697974033832e-02 -1.913827795003605198e-02 4.492530607538807175e-01
1.948420138963772794e-02 -5.863708381338964340e-03 4.317623747388821265e-01
3.372498135551253197e-03 -1.255489126161296945e-02 4.321014428389445827e-01
2.280431836407960378e-02 4.046304936372151911e-02 4.257317885061159823e-01
-1.572849423274894163e-03 4.399530916385714641e-02 4.138678471308217532e-01
5.179181715253031865e-02 2.694831253141889704e-02 4.532749141156466322e-01
4.983918405465555257e-02 8.248899408109986418e-04 4.540415331218986550e-01
4.152238609040252715e-02 6.000390629469058018e-03 4.429784421550924112e-01
5.395787039369210475e-02 2.937246891664327744e-02 4.793265286358427413e-01
4.768170402142163367e-02 2.235589587919293089e-02 4.467644760293181250e-01
1.785359182540043749e-02 1.794840164297376722e-02 4.258145070881380612e-01
1.528155725336459783e-02 3.522179276780160878e-02 4.187916752986680091e-01
4.315941228736336344e-02 5.205583104128137795e-02 4.952833491867897342e-01
4.133502091821221469e-02 5.280052042808516810e-02 4.408032537929517103e-01
5.524134315335499368e-02 1.506614472460685548e-02 4.703165034588140392e-01
-5.062960710532455819e-03 4.154254224421583680e-02 4.111675053732797291e-01
4.775900387666427022e-02 5.745207267271618123e-02 4.659263283620837526e-01
-2.700715758338948641e-02 8.008647086595620246e-03 4.303002746645503973e-01
4.791674132712785139e-02 5.743112070232730959e-02 4.578920730886520407e-01
5.370177232319026106e-02 1.104762516014718560e-02 4.608722551557296598e-01
3.011590516470812051e-02 -2.389687026372099357e-02 4.408739918601021213e-01
-3.145927428000259291e-02 1.905902837037679390e-02 4.231308356446136787e-01
4.875416051939412271e-02 5.518859024799167845e-02 4.700788446644635910e-01
-1.657499319490721851e-02 3.205844593366386636e-02 4.088777091922974338e-01
1.886717970260420527e-02 2.963968594879433718e-02 4.242505200772826446e-01
5.433680810603472994e-02 3.620582350783674297e-02 4.717497489258586918e-01
-2.339747170443998853e-02 3.473241302372556683e-02 4.129841674209821512e-01
-1.181247774057291380e-02 1.978050559944976444e-02 4.125007170704029225e-01
5.383901025791548722e-02 4.650469222745464391e-03 4.927453857877805987e-01
5.540533814124667250e-02 -2.756727754481264406e-03 4.697565727204600639e-01
5.120631930056398357e-02 4.060141908355729967e-02 4.531344258870693142e-01
1.128427791146740383e-02 3.459637359442023496e-02 4.142066453485810928e-01
5.394996695582679469e-02 1.449497507466738881e-02 4.791359756604557929e-01
5.734612704398789340e-02 -1.020734306916889871e-02 4.843302373116676884e-01
1.462698222956687784e-02 3.506319299450273014e-02 4.182232095639289438e-01
3.466430234525966908e-02 -2.369246989850652338e-02 4.441806124274736423e-01
2.336365247164818443e-02 5.107619468953850800e-02 4.286537750907319921e-01
3.889599683178430328e-02 6.520126701359278687e-02 4.597712409692494284e-01
4.727229140765259324e-02 2.067962307184557230e-02 4.465193821276893793e-01
2.209202625524396557e-02 -2.347033021813015909e-03 4.321100204518619758e-01
5.029384385137544711e-02 3.024999042501669289e-02 4.908513062302723440e-01
5.524328625469553111e-02 1.125691494216141640e-02 4.705850090301467725e-01
5.452138235627589785e-02 2.435308957674769265e-02 4.639145233525631684e-01
5.138247987177502196e-02 2.032525707085074823e-02 4.862201862337995339e-01
-1.156508595982021562e-02 1.671524579054021326e-02 4.162063409217539589e-01
1.995417226194619309e-02 4.263096662943206133e-02 4.233995893841568381e-01
5.382631951213469323e-02 3.448045707683206063e-02 4.599415725503214758e-01
-3.324614583474486129e-02 2.006235933865402332e-02 4.241552071218127606e-01
1.271501219785908625e-02 2.771452334849032473e-02 4.151053859283803660e-01
5.482258357135103705e-02 -5.843618735846198287e-03 4.696523248521494720e-01
5.133058391980609841e-02 1.374562295749964629e-02 4.542823762351295702e-01
1.616886131197254814e-02 2.169790701695972768e-02 4.226116482539464259e-01
-1.472327397205915912e-02 1.807197186967602828e-02 4.159492884724285133e-01
4.075132532947246117e-02 1.712458031486603985e-02 4.409957033481146649e-01
1.771830490979602393e-02 5.379464995334302252e-02 4.305785711920447900e-01
1.107911228652733691e-02 3.389157035414043506e-02 4.133421425383092540e-01
3.010017898617435572e-02 4.249634642139979435e-02 4.320360664726101141e-01
-1.293157989229705776e-02 2.335229592095796475e-02 4.080686965479070616e-01
5.564959851945724262e-02 2.183975620830962486e-03 4.863400981243351517e-01
2.861101861928791804e-02 -1.442696919843534584e-02 4.373074482115510975e-01
5.198942759048905127e-02 -8.763657017556648193e-03 4.638785964807178863e-01
1.388120495632531176e-02 1.363603531330798840e-02 4.247660115321507668e-01
4.322963118144867306e-02 2.056317573604858270e-02 4.428612760174923113e-01
3.141867598149136742e-02 6.482750020325033988e-03 4.349961130768035811e-01
5.689296958770101442e-02 -2.720239331669515800e-03 4.814669512800158757e-01
-8.835961660926382882e-03 2.925913819861003171e-02 4.046020411309904086e-01
4.624211051025629154e-02 4.822497393822029049e-02 4.974606237683412702e-01
2.348884532152991159e-02 3.008983606647172831e-03 4.321245955183696807e-01
4.696106332333092187e-02 4.953105467613235641e-02 4.945714133768349674e-01
1.105185549684650943e-03 1.494275680764493505e-02 4.174612598739302349e-01
3.666479373169687778e-02 1.913739169459212743e-03 4.398846829133304936e-01
1.373369897058060105e-02 -9.630748004593859754e-03 4.314824479184420358e-01
4.849935951078269969e-02 2.266371608469515755e-02 4.949615256928975859e-01
5.591442220605890440e-02 -3.582625258147183189e-03 4.729114986025145240e-01
3.378546186605279472e-02 6.151324495837626888e-02 4.394181738401179982e-01
3.659939189066032522e-02 6.130997842496596628e-02 4.407559208821902330e-01
3.184359798691872856e-02 3.524390867891030732e-02 4.336432130773572591e-01
5.497868635399905807e-02 5.382684055230011096e-03 4.676441183866904550e-01
2.924840169100895865e-02 2.174070316649493601e-02 4.329823459425813925e-01
2.903864764742016338e-02 6.209289619964087487e-02 4.410452942871175286e-01
4.611458709988337096e-02 -1.561751468633577888e-02 4.541581011055963457e-01
5.414312359749367393e-02 2.066109957260426309e-03 4.651163595303107190e-01
5.368650027137008424e-02 3.563810334987309314e-02 4.595513933736229961e-01
-4.047088256487670760e-02 2.610968297229456728e-03 4.426781215439313244e-01
4.830171289407687862e-02 3.675851928700968330e-02 4.962325783991611283e-01
4.499012069576363571e-02 1.650969132524097993e-02 4.447130034783947083e-01
4.774600089908887998e-03 -1.505494281657976385e-02 4.344665057236447026e-01
4.652029604020304493e-02 5.347909729222968811e-02 4.863779290826411028e-01
3.137586602896425686e-02 3.710328605146841208e-02 4.333134367566183198e-01
5.458759527822556329e-02 2.474276462999901172e-02 4.643079152643089791e-01
5.276807506741842263e-02 4.438078930165893082e-02 4.742170803079417407e-01
4.663758831072768729e-02 5.991661666619114979e-02 4.623491685085527325e-01
1.385349352875984465e-02 2.501233969180341292e-03 4.292212828967004179e-01
3.814976058644763135e-02 4.666134082325005400e-02 4.375925588702311297e-01
1.502428026432324829e-02 1.635939037810340418e-02 4.247640156688212709e-01
1.763000477909655583e-02 4.803900295069434001e-02 4.233712869680703594e-01
2.399036078172889913e-02 4.070458206093224840e-02 4.268987588163944413e-01
-1.037200253441288370e-02 3.980486144252683156e-02 4.121831816524318404e-01
7.641173510924097537e-03 2.712645317242743520e-02 4.083447605979290684e-01
