-2.661870523638512967e-03 1.844359646858204430e-02 4.120291297012278475e-01
3.982128631415482456e-02 -1.817674152975422286e-02 4.458119568371364250e-01
4.078544222040148687e-02 6.488801758442763745e-02 4.559642506777590309e-01
3.449228884604913989e-03 2.007620959804402860e-02 4.115234697589379431e-01
-3.953730441178078363e-03 -3.657483351108296952e-03 4.285568629354592485e-01
3.684195311498593417e-02 -1.435527666557089715e-02 4.421003364812421954e-01
2.693346065003845990e-02 5.280044270153495117e-02 4.315104869177239788e-01
-1.331241297829086762e-02 4.067123874269264194e-02 4.150985022699999472e-01
4.954633075074817844e-02 1.741974592137627773e-02 4.918754957660451677e-01
4.517064363187579812e-02 5.446945996129966966e-02 4.854178270695755359e-01
1.191545291893350653e-03 -1.213695200829363954e-02 4.315589934215378065e-01
-5.957909339260745313e-03 -5.622049468848211613e-03 4.295781345965541398e-01
5.445334737497184441e-02 1.738167031860739231e-02 4.638468529693247078e-01
4.166162326784562248e-02 6.249795022380245230e-02 4.696086631904348718e-01
2.133591535566960185e-02 2.584747378330861517e-02 4.269152824916091493e-01
3.729677671956393992e-02 5.185891093137259822e-03 4.395894963566581159e-01
3.405246177483609027e-02 4.830610561266254765e-03 4.370985623107779827e-01
-9.419758759452516797e-03 1.237645969251896690e-02 4.192279184403289172e-01
-1.117774588914054526e-02 -1.187781390813839009e-02 4.338046361714469334e-01
2.172366807735512731e-02 1.161484517704896441e-02 4.291863773863837661e-01
2.071734363274246871e-02 -1.347322162762833002e-02 4.342162639532775592e-01
4.578432625001403050e-02 4.921751913148057073e-02 4.443628977047675566e-01
3.776448087438809276e-02 2.414417624113865748e-02 4.379412806662277835e-01
4.842025129995011778e-02 5.640299555487425509e-02 4.602739281634332102e-01
5.151314820102151359e-02 4.789233290510102464e-02 4.599010323286945590e-01
5.534777034253125783e-02 -7.937881676026497732e-04 4.987984053672524509e-01
-2.877307879685747638e-02 5.344877603945357748e-03 4.323458319914952885e-01
-4.583736206983505569e-03 -1.302147211289134132e-02 4.322735875648949788e-01
4.957405323269748615e-02 5.401766437048226288e-02 4.638487974785545087e-01
3.387847707663415447e-02 1.866190512691758702e-02 4.353743936709092432e-01
1.820473296055590169e-03 4.518630660647117436e-02 4.139245077053541055e-01
5.193181168621725796e-02 4.479360515186184451e-03 5.007423859456320292e-01
5.394968735185761560e-02 1.998253103533582931e-04 5.038389080488478999e-01
2.338496933971170519e-02 5.817925201013419978e-02 4.347293320504222458e-01
4.949328159156044654e-02 3.490942403112072545e-02 4.490676557145989456e-01
1.441100495370840374e-02 3.339382515995351162e-03 4.292003041496887383e-01
5.421089623774589389e-02 2.793748639612487344e-02 4.784712789766868424e-01
5.261554208697878654e-02 4.279799177733179666e-02 4.611536253237198402e-01
5.538782291621911769e-02 1.897990764062550866e-03 4.898494117580783902e-01
-1.809987695983310968e-02 3.389040469557325769e-02 4.098506079120554091e-01
4.765338482863588909e-02 5.301371977394657431e-02 4.854123437387119488e-01
7.826013878683802522e-03 2.998923722048189508e-02 4.073833446794610236e-01
4.762952785748783557e-02 1.641479755130140217e-02 4.987573781693547259e-01
5.411567147106909753e-02 -1.180482847560390680e-02 4.707539394092731255e-01
1.918677854732086380e-02 -2.115089795255301747e-02 4.360534399883798651e-01
4.783220177749122892e-02 3.551501386053810411e-02 4.969224744418517803e-01
3.905962425801775412e-02 1.315460292415459968e-03 4.416290397061344297e-01
4.670673179595882796e-02 5.407704291142820946e-02 4.475798659847866623e-01
5.321164270894857690e-02 3.844590636611298212e-02 4.592886904518747593e-01
3.144867631308479600e-02 4.600986573503222654e-02 4.328107392632480344e-01
1.550624185241758490e-02 5.482097471020652008e-02 4.330175390463991136e-01
5.290944324541361349e-02 -6.150783505553638827e-03 4.641921584195170536e-01
-1.288703325779777878e-02 2.252599765474360208e-02 4.081183980297375391e-01
4.768893639326064054e-02 1.372029540840121256e-02 5.005170476390226053e-01
-1.755848802016770835e-02 2.195772316345149383e-02 4.126352239012336387e-01
3.310728895725842391e-02 -2.915120466476084967e-03 4.376666493436180416e-01
5.105782055533159003e-02 4.651168754743929823e-02 4.558894287117744026e-01
-3.125945691150557038e-02 2.388799917104446335e-02 4.198005019358066470e-01
7.503613064406397005e-03 1.864008110723397449e-02 4.157397226769803944e-01
5.397047315281288532e-02 2.683935944023626077e-02 4.793669059891348394e-01
4.931038970952415779e-02 -1.444657960274217841e-02 4.607844105269108259e-01
4.412680658711875398e-02 -5.829423530848013360e-03 4.482941975258419309e-01
4.772369321669654024e-02 -4.975563004714109866e-03 4.526945225298774633e-01
4.331543957050951188e-02 5.831342111098421904e-02 4.447464552718641273e-01
3.334311252980529713e-03 5.047107164236271093e-02 4.191682035131337747e-01
4.289727286138017570e-02 4.893567619491096671e-02 4.414366199127081059e-01
5.356456269405792531e-02 3.680802165199477394e-02 4.594955409202370333e-01
-2.422813731849219818e-02 -3.491169442262848435e-04 4.323518534039914041e-01
3.804783076927452379e-02 6.446005872288480820e-02 4.649653006636810804e-01
-1.728063592821801539e-02 4.084072252009254833e-03 4.271639153723157944e-01
4.380271853074900468e-02 6.395235901644569232e-02 4.549935259710176649e-01
3.987592605797983525e-02 3.091142044122523538e-02 4.392214196250530112e-01
2.608512955645188314e-03 -1.657996397917100781e-02 4.350362091268738518e-01
-4.511629261084962317e-03 1.884171537966773669e-02 4.101582838111202944e-01
-5.588861515431816675e-03 1.164673461076940961e-02 4.199909654480463161e-01
-1.982673722302445013e-02 2.388682961062463944e-02 4.127532228498292377e-01
2.814283950840423473e-02 3.865301754128392352e-03 4.338217671019716781e-01
4.860359719500149944e-02 7.294033211420554788e-03 5.050395260604093606e-01
-6.537105431273211240e-03 1.389261905613712635e-02 4.176206052977463057e-01
-7.608437158829214550e-03 3.882838568729462397e-02 4.090386739697913776e-01
5.342260843073115550e-02 8.525698349899296993e-03 4.608198469228992344e-01
4.787776195022129533e-02 1.880156774279801227e-02 4.971828791205468723e-01
3.201006529802875866e-02 -2.098282392318778430e-02 4.408370549571605790e-01
5.718174400276471170e-02 -1.014953470527982585e-02 4.830021341812557600e-01
1.892561053784675221e-02 -1.833175941315401750e-02 4.356050667137266741e-01
9.797406720928132987e-03 5.007360716401230982e-02 4.202671883122227614e-01
5.194370402849610852e-02 4.177150604604965706e-02 4.860852375287428306e-01
4.713046794417547619e-02 1.016335455215308312e-02 5.050408696794166374e-01
5.372437681687194933e-02 1.460257432960327881e-02 4.797205329216414627e-01
3.163211444734236738e-02 4.488879573782533772e-02 4.328346141622215204e-01
-3.216704253285478099e-02 1.159109665016712018e-02 4.321277087844769826e-01
2.021346556667486319e-02 -5.649302857302091873e-04 4.314981218821771214e-01
9.932914877479081302e-04 -4.809491930403998576e-03 4.286769017249087987e-01
1.819404749953781181e-02 -2.027760561905369435e-02 4.357665425356222477e-01
1.972247543614209092e-02 -2.227435923396830011e-02 4.363021804512877688e-01
-9.820822573109906639e-03 1.373284171440777510e-02 4.179832335109227581e-01
-1.910553324816074289e-02 3.331418624951508478e-02 4.101153160703551737e-01
3.899910121257452178e-02 -4.396368283888339376e-03 4.424624239725398200e-01
5.047834836330788999e-02 5.097199037023901480e-03 5.039115064648086451e-01
5.582483752603338567e-02 -5.864160256252456092e-03 4.740915090827048095e-01
4.467966398244738180e-02 3.331976019229792446e-02 5.038269179765196837e-01
4.962698870910772775e-02 3.281446484250848117e-02 4.491584306754345390e-01
5.520028712838294382e-02 2.952833017102929943e-03 4.689142170493453277e-01
2.216277430521793393e-02 5.740269455444980268e-02 4.330236367012565424e-01
-2.559473156586788978e-02 3.055241889046525841e-02 4.131432723840726684e-01
5.720076977403952545e-02 -7.830914223079587372e-03 4.845309867685718697e-01
4.375640728361973597e-02 4.328172319546109287e-02 4.423278520698942784e-01
3.737659106188780805e-02 6.609549899333340417e-02 4.434902015211690807e-01
4.940314686590547427e-02 4.712716892965148480e-02 4.487849627690078114e-01
3.608102613451259072e-02 -7.012379012672880114e-03 4.401032477712491509e-01
3.680894406260966367e-02 5.843272313102787019e-04 4.399471111608491136e-01
4.746696406868704254e-02 1.903652629844660923e-02 4.985583091544243950e-01
5.464712248632284941e-02 3.095320596413733347e-02 4.644195549855361094e-01
4.773097284417004982e-02 1.922927534671206584e-02 4.976456269589704662e-01
3.407717714539167803e-02 1.811814303645059923e-02 4.355569062613957043e-01
5.100770686822590078e-02 3.968867611906623516e-02 4.523339813011064137e-01
4.383646654043456964e-02 -1.887968554490453837e-02 4.515440301793440803e-01
4.791676235969865444e-02 2.737579753775285993e-02 4.970776534683832848e-01
2.921013155854636223e-02 6.161882739640118373e-02 4.393544239866579160e-01
3.390694201117303019e-02 2.645175524015803449e-03 4.375816580956372048e-01
4.665682623391922967e-02 3.910477076254239431e-02 4.992836332036263980e-01
-1.946989148336720349e-02 2.622204235516321230e-02 4.108112663330089620e-01
-2.633617371324114068e-02 1.143972536242403998e-02 4.271556515834733503e-01
1.436231798692296988e-02 9.673261016459240927e-03 4.270599436223278533e-01
4.543385122251602376e-02 -4.530560597347795676e-03 4.493420991888360527e-01
4.570807011484223636e-02 2.664057549873267289e-02 4.446342021119010779e-01
5.491744574251002098e-02 3.073479894183817063e-02 4.704403783894623436e-01
-1.459999314340619872e-02 3.656140326912524913e-02 4.092027266552328846e-01
4.791722069929395256e-02 4.031009619022775381e-02 4.965806419580554576e-01
-2.821649098057905924e-02 2.634087082621893242e-02 4.163495470713208246e-01
5.156579992614231112e-02 4.828393819088333885e-03 5.013062245757901048e-01
5.505748624549947762e-02 3.091654027374993868e-03 4.885544368031692897e-01
-1.459622005894386544e-02 1.281345908071025198e-02 4.200935357572366802e-01
2.875442531688826575e-02 -4.842419942831284116e-03 4.351662908240003791e-01
3.229831473994650148e-02 6.033287382495088752e-02 4.380851175514415274e-01
5.190269815347670068e-02 9.431368617374834284e-03 4.913809160204340443e-01
-3.433234794070828821e-02 2.270255146357805318e-03 4.368998763984187073e-01
1.616593725053768263e-02 6.521623405507625572e-03 4.295053553549811332e-01
4.655222937344420664e-02 4.324306402361755702e-02 4.984373945563879693e-01
1.514923693004779047e-02 4.276612509473195350e-02 4.205805542029560917e-01
1.371984880679931115e-02 4.339355139367624681e-02 4.198855562530515173e-01
-2.774223352772593396e-03 1.511371916003641496e-03 4.273806242349040829e-01
1.490110129881185366e-02 1.955686516947259881e-02 4.219623908792533573e-01
-2.440994746275659127e-02 2.896811181123335951e-02 4.127437135023458992e-01
-4.711781468736270240e-03 1.198160035233552731e-02 4.196317463247214996e-01
5.109115073419073783e-02 -1.544968803834957660e-04 5.100168998674597942e-01
-1.001292796215984791e-02 1.356653407170442180e-02 4.181969081430179092e-01
4.917520271484032007e-02 2.825022121016378812e-02 4.485119362463752535e-01
4.812497953686777075e-02 2.186891038529034312e-02 4.960782782689329706e-01
4.764122067297796997e-02 5.486262218861948092e-02 4.788004303754294089e-01
1.696566876063138746e-03 9.592541518049917419e-04 4.273703545523109271e-01
1.025762095665366108e-02 2.059989561403674854e-02 4.165666092686819977e-01
4.713625828500349335e-02 2.687932535061245132e-02 4.994882223218505279e-01
-2.485622983150598264e-02 3.058919963444965348e-02 4.125034790685915831e-01
5.395191207969760733e-02 3.703031071767205057e-02 4.784201265665409264e-01
2.937703579274460186e-02 -2.195229774568868003e-02 4.398985067352785827e-01
1.982529612414882236e-02 -2.270633571366501013e-02 4.363810783783511060e-01
8.670962643245851489e-04 4.805608848706149905e-02 4.167489680214451209e-01
6.430779344140968076e-05 -1.169425519201889967e-02 4.311480675293655196e-01
-9.101056496464672921e-04 3.991048784545152966e-02 4.092328044026546929e-01
5.422672203785863787e-02 -9.710977497665317787e-03 4.700410991733915411e-01
5.366192271095398397e-02 -8.355855463799688465e-03 4.667024248289198263e-01
2.224570082512453487e-02 3.524071509456887935e-02 4.255874199813621250e-01
3.183225264938365634e-02 5.905459995067709883e-02 4.366790441713948034e-01
5.519218384815975653e-02 1.524070260372246965e-03 4.683796046399513191e-01
4.321600713255839554e-02 6.218406656844481517e-02 4.484135892321397532e-01
5.526610063433304298e-02 -3.924053298453168692e-03 5.081912056873091332e-01
5.299951782387551241e-02 4.252481011079076861e-02 4.802104019407969493e-01
7.675013958854057412e-03 5.140915645871235728e-02 4.223009309421886792e-01
1.798333361516726500e-02 5.068143168016805977e-02 4.250737495204132133e-01
4.322879418994172995e-02 6.442103983515218291e-02 4.527397861993446293e-01
-1.888309199056772275e-02 2.899651406409415114e-02 4.099805491518943579e-01
4.639274205568978682e-02 1.688629523056317874e-02 4.461041665189385830e-01
3.620920608153008202e-02 -1.623810982627404975e-02 4.422919651771231031e-01
5.446181898607005412e-02 2.053937147016065071e-02 4.761530635989287275e-01
4.145362088621237784e-02 6.504823895852970828e-02 4.613269188405271226e-01
5.375461688264668997e-02 -1.401723235564920900e-02 4.705643760330299186e-01
4.570215091174870820e-02 3.025129318725115063e-02 4.446026354007803216e-01
3.626447491561486658e-02 6.519796294481892962e-02 4.578023131377174648e-01
2.798257673976146942e-02 5.279176121070652816e-02 4.318662224944896932e-01
1.079842391829424417e-02 3.434162937935989618e-02 4.131917584227545182e-01
4.557102632985522705e-02 6.208786887062760218e-02 4.606968327042238465e-01
4.719528747902602961e-02 2.527313417392538369e-02 4.989983033062201923e-01
1.150213189909842990e-02 -2.274596917873928509e-02 4.372344405678804113e-01
2.272046502729976880e-02 2.683653562607592191e-02 4.283533734877299493e-01
4.232786072452459497e-02 4.128880244352774176e-02 4.412233695146072776e-01
3.210484975079443831e-03 3.631511581702075164e-02 4.078314557405400831e-01
4.174185151450745396e-02 4.131396603347655544e-02 4.406747079463552708e-01
6.652225800250972584e-03 -1.922686733233426939e-02 4.367902613211100959e-01
2.400864808448448934e-02 2.326269254199467285e-02 4.295182821641183035e-01
4.652903892862920998e-02 -1.780285632485604369e-02 4.558453532809211839e-01
3.228643921313825021e-02 5.930021248187236638e-02 4.373229195260095459e-01
1.393380850450718147e-03 -8.933869823880375913e-03 4.299007432108583049e-01
4.986222579663604493e-02 8.204612454457782186e-03 5.001969675460673503e-01
7.473399808677966966e-03 1.992855574716948658e-02 4.142976776730607491e-01
2.951255549121149010e-03 -1.060733536611253511e-02 4.305894069509621502e-01
5.392925686685742098e-02 2.865938744571690927e-02 4.796030899423755489e-01
5.053525021027441971e-02 5.059624034893484695e-02 4.582945060367021872e-01
4.842684643758151525e-02 1.317597287979079511e-02 4.488017761599599753e-01
4.723135755380397649e-02 -3.400912328375274747e-03 4.509915904568749245e-01
4.363974448568646441e-02 5.378396932402062375e-02 4.889120052936159477e-01
4.840072491315317721e-02 2.799016365543040979e-02 4.474019591043912336e-01
2.042984908046993273e-02 3.643544728911370795e-02 4.232969320542859237e-01
1.633280687865720435e-02 3.165788696674463193e-02 4.190186356373368781e-01
2.803628472919694747e-02 2.527393798536211288e-03 4.340514034538036081e-01
5.043463536018086973e-02 4.894267742938983312e-02 4.824763803107249838e-01
7.172548133150605069e-03 -2.202287386964201649e-02 4.376499830340887520e-01
5.647778220427243645e-02 -1.948140989745422019e-03 4.921690872540780970e-01
4.467952588085631616e-02 3.382920753830288146e-02 5.037757793290168484e-01
1.931309358772261009e-02 1.521171356148223394e-02 4.273048739384283645e-01
4.744512646957948360e-02 5.813988393768598079e-02 4.644728095548204538e-01
5.530467522432862965e-02 -1.102528322974192371e-02 4.749279612570031506e-01
4.995314575725249423e-02 5.208102210822804917e-02 4.570215157610526546e-01
4.739219905913206674e-03 2.213833022328522485e-02 4.088256172465944416e-01
4.847374364441907335e-02 5.451188034579160929e-02 4.772982858102955972e-01
4.100434338879024171e-02 3.918817152046136752e-03 4.427847690059741326e-01
1.063942971001207837e-03 1.578706730920405657e-02 4.157846807461360594e-01
5.112061674300346498e-02 5.106043234054227081e-02 4.677987529115636423e-01
-7.857173949569270718e-03 5.921758976226993397e-03 4.240806523579871423e-01
4.846760627400607119e-02 7.927949866669180973e-03 5.044137824930300384e-01
2.659386126326547441e-03 1.423318583316579566e-02 4.188088322602438462e-01
-4.104263880916387067e-03 3.612668475011357374e-03 4.261571699169756644e-01
-2.476599269503905118e-02 2.520605576731953928e-02 4.148271177675315058e-01
4.754749495429097875e-03 -8.124766716285595353e-03 4.299449650684483704e-01
5.363138334094558896e-02 4.989730601169304822e-03 4.629951171698136192e-01
3.172407256856529106e-02 1.008858493834223664e-02 4.346008359419266109e-01
-1.814442063859656937e-02 2.675212070233740774e-02 4.096986628748099935e-01
4.993696075447778132e-02 4.781075551904710036e-02 4.512649896253267956e-01
-2.759227570111640743e-02 2.814854637720859420e-02 4.149455529001961906e-01
2.332656995101635867e-03 4.972274529571850399e-02 4.176477612167494025e-01
-3.672834586708836283e-03 2.068388244429087905e-02 4.066188016922541726e-01
5.529036226384385216e-02 1.758308890930852840e-03 4.910713024417889816e-01
2.795851740690386347e-02 4.836628522612618220e-02 4.301715946931494727e-01
4.930470890301248688e-02 5.000497833881517584e-02 4.506008285392220092e-01
2.242729289308648469e-02 -3.156324748262987444e-03 4.321137934695438165e-01
3.001579663147487757e-03 2.152552305562699386e-02 4.085424979625343900e-01
-2.270603989359187835e-02 7.520901375705522224e-03 4.275448675195550607e-01
4.885892755826060779e-02 2.228091634305439522e-02 4.935165123060251124e-01
5.074869313318854103e-02 5.182488810895111847e-02 4.703171380269085544e-01
3.990360820913832485e-02 2.281653611503573625e-02 4.397224116475303424e-01
1.503262649778269386e-02 3.458236544628270903e-02 4.179163996114644841e-01
5.296860192197338363e-02 -5.522238472361650288e-04 4.624049966373638965e-01
4.778634977881193041e-02 2.799798324418413878e-02 4.466251840284750085e-01
5.103316025503804032e-02 1.375891546065290127e-02 4.898824506140785906e-01
3.709013468561057209e-02 6.341767341313804540e-02 4.423631699298875009e-01
3.124568279175610197e-02 2.075438766592113682e-02 4.337271354090224129e-01
5.631696855644410110e-02 -3.389538031464233228e-03 4.750429064822341840e-01
4.931212557840638361e-02 1.256379010114327260e-02 4.961464827831985058e-01
9.731581206264054013e-03 3.260791936111869654e-02 4.104984114674830598e-01
3.653112315406979033e-02 1.538790800259201910e-02 4.376348726802379296e-01
4.881678892693170485e-02 -1.633701970145240174e-03 4.530650625787276398e-01
5.449532124707416603e-02 1.979402863520212524e-02 4.638848621512867143e-01
3.512118973338626549e-02 -1.986934737658933858e-02 4.427164078260901747e-01
5.504969068785804664e-02 2.853345250282114665e-02 4.700054709703788136e-01
5.988871748561796528e-03 -5.117080250077008126e-03 4.291513993970921814e-01
-2.178923541308903228e-04 2.449719495497268765e-02 4.040974944306766070e-01
-1.977731153297579078e-02 8.706746698425048281e-03 4.250018978377457235e-01
5.430687101762397134e-02 -3.535088908331804336e-03 4.662306534325061924e-01
5.595124626342488916e-02 -9.251732785936108002e-04 4.722652081786722911e-01
1.075303282652993048e-02 5.148717641331800737e-02 4.233003682398144840e-01
-1.776897124028106040e-02 1.039065567916127274e-02 4.226564498489505106e-01
5.002496145123286331e-02 5.318881396903085701e-02 4.683489369538111347e-01
5.734485962550632532e-02 -1.227044848905454316e-02 4.835075078674082594e-01
5.311234112766276272e-02 -6.500779209262334823e-03 4.647098021889715658e-01
7.329907506171158028e-03 3.150994760394696531e-02 4.072362192347288579e-01
5.595405905175368511e-02 -8.017218204944604257e-03 4.763778579831246529e-01
-8.732257476786284278e-03 4.202441954454950307e-02 4.140221906933174156e-01
1.246700787324638102e-03 2.991508441498974200e-02 4.032647573980417399e-01
5.107318227759207602e-02 3.881161797047102957e-02 4.524326255578613454e-01
2.244461318632433311e-02 -1.289282486854883940e-02 4.344988798789716777e-01
-2.588478667356992110e-03 2.754601951894626935e-02 4.027501910035971577e-01
5.110325419103783212e-02 2.882211346402281660e-02 4.879922077381436130e-01
5.347221109591003552e-02 -1.431552138599327759e-03 5.077887615019545109e-01
4.491792391327940198e-02 2.364932496073099411e-02 4.440376837650732988e-01
-1.161982108552461410e-02 2.338153213832041069e-02 4.067735303043571449e-01
4.909079998703119729e-02 5.302734945194788330e-02 4.787170117564886751e-01
3.437822466903786567e-02 5.923365401633696320e-02 4.373541309859139137e-01
1.247854097848952529e-02 2.976068185743508190e-02 4.135067891793700046e-01
5.590291517700097385e-02 4.431250511909779399e-04 4.905537696158798200e-01
5.247255214922548483e-02 3.860241234022183943e-02 4.852490462061002652e-01
4.250451439795621678e-02 5.050354533336492979e-04 4.447637913462154091e-01
4.598424038203595063e-03 4.103867462962917934e-02 4.105199177897262963e-01
-2.582541683604292621e-02 4.647640040074790466e-03 4.303791508434084978e-01
-3.508672491132232979e-02 1.715575184652138457e-02 4.302721758103903449e-01
4.147054582722475152e-02 4.134160187403019410e-02 4.404188798550505712e-01
4.897551158169570484e-02 1.896217977064999088e-02 4.934191650892061909e-01
-6.180480816809774680e-03 3.643269902055100429e-02 4.069689372572353192e-01
2.518018028121370502e-02 5.967339649492097581e-02 4.382423758558862126e-01
4.494802797061958621e-02 3.881094711880196668e-02 5.025761799249400807e-01
4.460717133887328462e-02 -2.236423692352876823e-03 4.476506302955261529e-01
4.529512229933442546e-02 5.406205876258630277e-02 4.453841874721972682e-01
-9.451586996414053365e-03 1.295981883639547687e-03 4.276450119695135998e-01
2.661531595947608936e-02 -1.030479706945943916e-02 4.349573294461979711e-01
2.627856951268468799e-02 4.627561479703784508e-02 4.284268940364661105e-01
-1.525627496930950094e-02 3.265133579882534970e-02 4.081994236317963987e-01
1.465138280203024876e-02 5.136096686974955111e-02 4.239728743680196144e-01
5.482724654289778538e-02 2.756531109602106816e-02 4.652249850366125261e-01
5.265943976972577156e-02 2.466023776956377880e-02 4.550747470241409132e-01
2.244273084160952267e-03 2.160807349328725674e-02 4.078993994934445588e-01
4.983311130287110258e-02 4.793446957020737476e-02 4.509592378482709663e-01
1.564899089522314365e-02 -2.057533539882240581e-02 4.358013713727533767e-01
5.081203542525076361e-02 4.866905792861217495e-02 4.809162439182632642e-01
-2.002388330668129768e-02 8.143597028293588641e-03 4.253800096801348407e-01
1.726654506613451573e-02 -2.225859214667131464e-02 4.363045296461705025e-01
4.665123837478964836e-02 5.978854288024170946e-03 4.474042998763332335e-01
3.500323645750830215e-02 1.430447209942763316e-02 4.365931475759096125e-01
5.010868850922649970e-02 4.622809670981610497e-02 4.895743974386811970e-01
9.521600761972613333e-03 -7.333802254369252600e-04 4.278539991672536957e-01
1.892109233211723002e-02 2.065457452628756754e-02 4.256716842197342809e-01
5.041637000116497985e-02 -2.109296363557790210e-02 4.655376843584653201e-01
5.463353935632780933e-02 -5.799288507942765639e-03 4.687639555324647489e-01
3.129278942014262349e-02 -1.091693445772566259e-02 4.377779770396727499e-01
2.741640398454035440e-02 -1.281221293775799963e-02 4.361540330711508595e-01
-1.255844831070761745e-02 8.650706318726936531e-03 4.229301104136710121e-01
1.150142592289807482e-02 -1.197945343346549542e-02 4.322291106471118360e-01
5.355085572982958703e-02 4.097107977679190910e-02 4.737041584747204714e-01
1.609777324453869063e-02 5.524416282997933123e-03 4.296036682034902743e-01
4.301614983085924604e-02 -4.368303789204820882e-03 4.465455063797221791e-01
5.257055300796632108e-02 4.492878049597458928e-02 4.722238421487006677e-01
-2.657392825462680588e-02 2.967315797496609606e-02 4.142510665269922288e-01
5.127883010300257616e-02 4.974705166395061023e-02 4.623838999732134969e-01
2.477529675552893676e-02 -2.198725159880007135e-02 4.378122411757304766e-01
5.728429950153756528e-02 -9.155762560153865581e-03 5.090574315872403721e-01
4.646217223764242260e-02 6.022652449856567836e-02 4.614025735516114612e-01
-1.820691964602376423e-02 7.960284354718441882e-04 4.297985231480290214e-01
5.805009039853570307e-02 -1.000458224667116411e-02 5.075361855429497693e-01
4.796185224765926042e-02 1.902813279056718779e-02 4.968772913437570216e-01
9.224538985566384588e-03 -3.814561188078767571e-03 4.290678253815038978e-01
4.799478415484041000e-02 9.336672954516213319e-03 4.486226106576294836e-01
5.486681397459325371e-02 1.572419361779860830e-02 4.666374005642093259e-01
4.993127538230400508e-02 1.692730352292354246e-02 4.909113529771098605e-01
-1.117172041171086982e-02 -8.396607306208399291e-03 4.326089582168843317e-01
5.027092996703343489e-03 2.495566541389904192e-02 4.061136535904351086e-01
5.038864811887506373e-02 2.656302241179794160e-02 4.894414189263406878e-01
2.934208183189482635e-02 2.969450972090289988e-03 4.345608109860430446e-01
1.169078205025755705e-02 3.659160187042145157e-02 4.157559264559254619e-01
-2.762144283524495605e-02 3.232048109358246629e-02 4.153712009579141884e-01
5.377419427368033272e-02 3.514260011923613092e-02 4.807533311207346505e-01
8.280986747192775263e-03 3.382176423059533865e-02 4.103680146026736919e-01
-2.266735040599221832e-02 2.917479813600257904e-02 4.116435045806688953e-01
5.256030605247825199e-02 2.682054787317960948e-03 5.019968261602493209e-01
4.887909318499152750e-02 5.090419102079161984e-02 4.857118260760504569e-01
4.618042182940757662e-02 4.076666408976838823e-02 4.448971062152885514e-01
3.959500079820525015e-02 5.855918364742038890e-02 4.404168776419239428e-01
-9.623585194998993120e-03 3.256567483744546299e-02 4.050873558061008350e-01
2.584100918306054054e-02 -2.092211588850354659e-02 4.379593587428191603e-01
-2.204540518997524443e-02 2.473454764315179480e-02 4.133258730170377704e-01
5.460247240325297874e-02 5.283493266354431783e-03 4.859204444082643737e-01
4.734093811760641674e-02 2.293570933500803551e-03 5.129622083739234784e-01
4.794665757691537328e-02 -2.214550507252846523e-02 4.609429531637058153e-01
1.556773827856695186e-02 2.345855738065111967e-02 4.209540491695847875e-01
-4.755780201592613513e-03 1.714003890070289055e-02 4.136103380015861419e-01
3.033016567569350730e-02 6.126862389177921073e-03 4.343618228317102647e-01
5.573435651621663593e-03 -5.227788349550147214e-03 4.291507439178624539e-01
3.962052954324576243e-02 6.491685687351730905e-02 4.556923398127217251e-01
4.258004220755209207e-02 6.040439974910242690e-03 4.437190695138021890e-01
5.425078819173664857e-02 1.851154675821113649e-02 4.775541565342836248e-01
5.470862089427416808e-02 4.013039938466810702e-03 4.884783897445082457e-01
4.086742757414361937e-02 2.569054928401037080e-02 4.404207194007684900e-01
3.138052288067161300e-02 5.274589407638045901e-02 4.336628342482843346e-01
1.145754396093720540e-02 4.764671665202811768e-02 4.194286807313841181e-01
3.567430070067079129e-02 5.540001463088458332e-03 4.381624229543972793e-01
3.391963883246502942e-02 5.982495413606574164e-02 4.376549971981620879e-01
4.987542068035879378e-02 -2.885301592634795242e-04 5.119649325418125230e-01
-2.848710874837506735e-02 2.186286175978718969e-03 4.328454148636265431e-01
3.767053713587259489e-02 -1.524615975404148074e-02 4.430107328413767087e-01
4.712058470973026075e-02 -1.583379959514885291e-02 4.565835471581319305e-01
3.814571689125014625e-02 -2.243066418109462487e-02 4.460981984474089446e-01
4.887223095209797252e-02 5.367228623191784564e-02 4.530915359284851118e-01
5.009340340162257016e-02 3.865453328696451252e-02 4.922727502715578685e-01
-1.136056543160895126e-02 2.972158323735708298e-03 4.273053256389736654e-01
5.472870909990651400e-02 -5.263052525854478719e-03 4.687533103428318526e-01
1.241169814235746141e-02 -3.837701279281685671e-03 4.297576744323605147e-01
4.955015395662604183e-02 1.939003067880920930e-02 4.491868463263948286e-01
2.863030575186106819e-02 9.944176448977598039e-04 4.346252908746653931e-01
-1.878328832354316663e-02 8.502042795424586893e-03 4.242702568079529390e-01
-2.623019404137319488e-02 3.480751975901440198e-02 4.151676364226832838e-01
-4.471867806889953320e-03 -8.726764824102707652e-03 4.307998601158078977e-01
-7.162561940847884424e-03 3.906575864683518168e-02 4.091258802036582543e-01
4.944635936768627255e-02 2.502311125957525431e-02 4.487054943357102199e-01
-2.752486977026180181e-03 3.718045098369927859e-02 4.067284098969559669e-01
1.065375028402498758e-02 1.981209186134801070e-02 4.174659771642456052e-01
2.302278395511851705e-02 -1.666332717964804158e-02 4.359083633292887283e-01
1.597667488719130974e-02 4.218619809806102572e-02 4.209313702586804373e-01
-3.276081677501201800e-02 4.374330625490112021e-03 4.357627975054145786e-01
3.683020871373338806e-02 1.846282428812491203e-02 4.374912543939692977e-01
4.850750631598091389e-02 -1.863508914971592073e-02 4.607556126302563837e-01
-1.920435741379962133e-02 3.615798411173466037e-02 4.107975219635424668e-01
4.621833789021974337e-02 -2.471681056607419585e-03 4.494014385942892709e-01
5.142195495992470805e-02 8.611112742138365278e-03 4.942026135180249136e-01
5.388848932253973573e-02 -8.351000838850260871e-03 4.675746562326684175e-01
5.671703336043999039e-02 -5.167269651441029100e-03 4.789544773159785662e-01
4.859240871427396302e-02 5.694264339913034448e-03 4.504663867930721044e-01
4.265536135595169448e-02 6.152316188957797360e-02 4.717500111157085785e-01
3.103145219943991354e-02 -1.865951959545910852e-02 4.393993633446701130e-01
5.251893950114742277e-02 1.472360908737007333e-02 4.838287890416980708e-01
5.269083271665438162e-02 4.442633762834664185e-02 4.713375487851125256e-01
1.726511621184183276e-02 1.058916784402506688e-02 4.276561460406310688e-01
-1.979419567118886891e-02 3.689811845863694845e-02 4.122166769768448868e-01
-2.721632613776971132e-02 2.950116343265571373e-02 4.150083081002916563e-01
4.757817374286955892e-02 4.516251527487258333e-02 4.958476643218766022e-01
5.596296275405260312e-02 -3.141252031201339015e-03 5.022372478405278118e-01
5.235982120664558342e-02 4.593183455639714141e-02 4.708969055946854443e-01
4.776341546193484111e-02 1.148170295672615998e-02 5.017634758107496484e-01
5.437255200545166450e-02 -5.638383723981873867e-03 4.676302714505048419e-01
5.146768530101223510e-02 4.563087052027199608e-02 4.568305987477362939e-01
5.125906135135366304e-02 5.051908949059435994e-02 4.687995782610552276e-01
4.997860758208355625e-02 1.841325796852165061e-02 4.502770599099017446e-01
5.378392710504642515e-02 2.810419641972267644e-03 4.969387222614297661e-01
2.029982038717047244e-02 4.011165277521996225e-02 4.231616161200689175e-01
-2.100970208896853902e-02 -1.966467890133593958e-03 4.321118499246882627e-01
4.068552615027049707e-02 2.685189355059037879e-03 4.427349638446715363e-01
3.670924172817402464e-02 6.714823689290856656e-02 4.476750487935074463e-01
4.735004870824236628e-02 -9.098575467620663784e-03 4.543080230225102212e-01
-1.022246999753104527e-02 3.844037839740353010e-03 4.263860623860549204e-01
-2.135672366847017958e-03 3.333212094880241144e-02 4.027667156580003738e-01
5.459573609450260601e-02 3.205103667015608837e-02 4.642353366127811576e-01
4.494243760752290179e-02 -1.661956645394128962e-02 4.524127335608097988e-01
2.573510260513793557e-02 3.868833969913861026e-02 4.284449845904504950e-01
3.046213047446953703e-02 -2.096096032228395370e-02 4.399606573736788429e-01
5.464543344922728058e-02 2.369409011412063754e-02 4.646245279887657453e-01
-8.511362747802182771e-04 8.546704357938883631e-04 4.274681375353979185e-01
5.161294245456467950e-02 2.983231889868303427e-02 4.869432278494443822e-01
5.481243398885622675e-02 1.547421634621825789e-02 4.752148610535665285e-01
4.877749995367802044e-02 3.295263526964808953e-02 4.481060643318836578e-01
-2.914197217445453278e-02 2.553636680810376230e-02 4.173577053900889844e-01
2.799065974839050341e-02 5.302447179790990145e-02 4.319568537642141104e-01
2.105702450442863138e-02 3.756905654937604810e-02 4.237931030865516591e-01
-3.995338209037834973e-03 -7.586158132530652215e-03 4.300276404495204652e-01
4.262062816500653689e-02 1.959787066221114343e-02 4.422263712190249718e-01
5.025887137438854457e-02 1.563103073302292423e-02 4.902373087392601358e-01
2.409898665008577967e-02 -2.004283679162586346e-02 4.371898312334033254e-01
7.953887531160087898e-03 -4.721483039935768511e-03 4.291925990180294193e-01
5.106385197399068709e-02 4.507601686856518158e-02 4.875255720860549591e-01
5.482421706471321023e-03 3.843270407811726075e-02 4.102420074665521499e-01
4.380333862631666936e-02 6.107730571953833010e-02 4.482385476225492771e-01
-1.443452003392451180e-02 2.435863011125309271e-02 4.082202117558643706e-01
1.804712428646837799e-02 -1.696643479829388484e-02 4.349035380031751052e-01
2.569542838208244140e-02 -2.417420482579471161e-02 4.385410694225136408e-01
3.999030687173191212e-02 3.986958654991702711e-02 4.392088444398867253e-01
4.572313734505827759e-02 6.028385319051304814e-02 4.520134986712701641e-01
1.583471254797501337e-02 3.048535308149987605e-02 4.183431239401324553e-01
4.465908722812331894e-02 -1.044728440834376618e-02 4.506942572736716834e-01
5.038799781149801149e-02 9.346932695065528207e-03 4.963580622242299012e-01
2.311412678189999834e-02 5.768398771662464758e-02 4.331973903933850067e-01
1.856722901327570105e-02 -6.789151022525330773e-03 4.316176449264946813e-01
5.504167495887077322e-02 2.724587639042293577e-02 4.731429448710772201e-01
4.858277118430976566e-02 6.435555267074805769e-03 4.503303406602747194e-01
4.348158782465570693e-02 3.655722766725610917e-02 4.424162850475603648e-01
-2.350237198174095002e-02 1.791088028527367329e-02 4.184083131220208140e-01
5.185725590779511479e-02 2.170942406673602443e-02 4.536198562991510808e-01
5.086134028167044185e-02 -1.589837481376655962e-03 5.118896148780311961e-01
4.054555411744115156e-02 -1.919349823146292763e-03 4.434779129277808263e-01
5.472788368610556620e-02 1.657762005847299852e-02 4.657561950563112174e-01
4.712526260013020357e-02 1.078650626838247029e-02 4.474126664421260724e-01
4.676277146348629954e-02 5.947505397679720557e-02 4.546936448155862731e-01
2.776753271353884535e-03 3.231640605833246277e-02 4.042454103438709589e-01
-2.245295975645626024e-02 9.314241003701186072e-04 4.308484052325966540e-01
3.409909418877119652e-02 -2.413285465669864904e-02 4.438888845242414116e-01
-2.632785795934577608e-02 1.786196912157287861e-02 4.197427578462154529e-01
5.077130336742369243e-02 4.674762823093911446e-02 4.545753635657739378e-01
3.588891570206555193e-02 1.810581916947494319e-02 4.368347497853067307e-01
3.940994784967766923e-02 -1.115597660784585846e-02 4.436361770912335412e-01
-6.303813012200789115e-03 2.541180896301642456e-02 4.037938011888005385e-01
-3.517671647733885271e-02 4.660235644432202465e-03 4.391119207511614553e-01
5.353340376616753937e-02 2.526372753838984110e-03 4.630640796332465281e-01
1.748337806498832803e-02 3.159122235969395731e-02 4.207099884482294883e-01
3.071128277994665881e-02 4.093044091347034646e-02 4.323960692087614466e-01
5.423618343649735940e-02 3.346873221394518205e-02 4.623317784275532971e-01
2.606277127257152632e-02 4.375324170630883608e-02 4.282325221172665897e-01
4.876169375490321811e-02 -1.320981032940725733e-02 4.592978552430797556e-01
4.773905435998346269e-02 2.156908509204728472e-02 4.974172038045188149e-01
1.170328838593286992e-02 3.496248602608407335e-02 4.146495779048011698e-01
3.364610242167736381e-02 1.940621647594526281e-02 4.351671169513086079e-01
-1.011711946608049618e-02 3.544456110389143655e-02 4.071821292166282191e-01
4.651405925670414748e-02 5.168163705834041832e-02 4.918674842690833326e-01
5.329272499622181303e-02 2.464566526646475367e-02 4.564791696186714098e-01
1.791912936755462454e-02 2.331872278817073013e-02 4.241075419294688675e-01
-1.129935485609639099e-02 2.069295580290120284e-02 4.096885149587897179e-01
4.713555325638871252e-02 5.490700564224439834e-02 4.491894376240179731e-01
4.846667876719946977e-02 5.228303999122798501e-02 4.499395357016665042e-01
-2.209283505322761146e-02 2.056259387532335947e-02 4.158746523409361795e-01
-1.060749007344613526e-02 1.677453660581884956e-02 4.154305407490355706e-01
7.377079646078960225e-03 1.014576161324369681e-02 4.241189028017502971e-01
-4.331797083358328998e-03 3.785293560352533809e-02 4.075849211243084413e-01
5.172403052115926575e-02 -1.494038765922175299e-02 4.659004588708535177e-01
5.501480673429379187e-02 1.363911811513652227e-02 4.675261614737314386e-01
3.716741217196866537e-02 1.022841107179619721e-02 4.386109481722567094e-01
2.422279978441235423e-02 -6.195332336286456590e-03 4.331976322700791804e-01
4.524388717223002537e-02 6.099079342128703451e-02 4.667977446994555080e-01
-1.830520813596905536e-02 9.026272518647534757e-05 4.302859869459893516e-01
5.210340654178959030e-02 2.128049715639417777e-02 4.834360932193141336e-01
4.176574278211478419e-02 4.759526979300936211e-02 4.401451393901680831e-01
5.342062544117999467e-02 7.887900035782442754e-03 4.610488469512719623e-01
4.795162255290472131e-02 4.061947778381538171e-02 4.964382614623381040e-01
3.160131322138476362e-02 -5.678061471441411823e-03 4.370339571167651260e-01
1.087299405488259540e-02 6.286637373550466902e-03 4.274380230253221891e-01
5.191172198736009047e-02 4.803162901216036229e-02 4.668518655492008840e-01
3.835072678617955366e-02 5.225638327768088176e-02 4.381875167736355436e-01
4.538933422706219190e-02 6.280348402812264974e-02 4.582214447798169665e-01
