2.474164585394883140e-02 -1.932732021630991642e-02 4.370842261147315222e-01
-1.717034422821787660e-03 2.727782556488787466e-02 4.010287462149964011e-01
-1.553959983806097074e-03 3.826429590262252906e-02 4.061557472163538351e-01
3.486031695002986958e-02 5.892442152188925863e-02 4.364838573292947888e-01
4.176345232346586993e-03 1.233219682411678016e-02 4.207554891170616762e-01
4.590009482173690661e-03 4.773638578522557824e-02 4.144154323198087631e-01
2.051912265017874146e-02 3.810994004178467481e-02 4.220338271662138485e-01
5.162285670462659487e-02 4.885110935571727181e-02 4.667170550382179206e-01
4.384886389044134747e-02 3.617813428927120489e-02 4.419151207003388926e-01
4.098793621115894709e-03 1.894642502095385001e-04 4.270166927659004297e-01
4.632213756189097059e-02 5.307653462839606595e-02 4.862260243041683361e-01
-1.108487378216378369e-02 1.968015260820695639e-02 4.100291567454465436e-01
5.087210748397825305e-02 1.911098846596433198e-02 4.871283609875630138e-01
1.171971144065287601e-02 -1.776016942913386659e-02 4.351656626701749797e-01
5.281172547450189991e-02 3.575800098317950208e-03 4.601966343489868327e-01
2.959303590840811973e-02 -1.196696653159570918e-02 4.366037444444139104e-01
2.372317315806739962e-02 4.430931541972784465e-02 4.246443489924582870e-01
2.133385154344652132e-02 3.793990327632004722e-02 4.227348984745754601e-01
2.919712421240715228e-02 1.904996541794960058e-02 4.320011006050720748e-01
1.444743466450886492e-02 2.264748529173925967e-02 4.183741962092070721e-01
5.390557380581265101e-02 2.637677008783850807e-02 4.786515204330290540e-01
5.433847301181474188e-02 3.468121105886754624e-02 4.751104089089285276e-01
5.145932697360064423e-02 4.597286053916242038e-02 4.825220989215439626e-01
5.220869392284967908e-02 4.580518943753786321e-02 4.772972348341393278e-01
-3.132224931979168958e-02 5.639757574843886484e-03 4.349631135126402204e-01
-2.243449007921729382e-02 6.015317775033781136e-03 4.273849253494992895e-01
-2.317159234805372600e-02 3.149485900575846320e-02 4.099898614719309498e-01
1.797518960736706889e-02 -2.253749250771061238e-02 4.361971747012890477e-01
4.206326284361592421e-02 3.794640195712451619e-02 4.401065060396746609e-01
4.387518931001249678e-02 3.979319174402021209e-02 4.417708503434572553e-01
1.008915914196343265e-02 4.891840697411847100e-02 4.182729821285633975e-01
-1.437528964258572538e-02 3.888354343257316437e-02 4.107946661425683210e-01
-3.588179612297355114e-03 -7.457052011339672729e-03 4.295108618779958642e-01
-1.867063109708297711e-02 2.313301813869945989e-02 4.109847429318183032e-01
4.399847906022029236e-03 -1.862667641603183225e-02 4.360422540195512675e-01
4.095187613703133583e-02 -6.947669612479726725e-03 4.445316020415477909e-01
6.697856791763924685e-03 -5.517243776667637989e-03 4.289276834251196657e-01
4.194842312603803969e-02 2.795586864708580858e-03 4.433245368807144926e-01
6.847487434950716260e-03 -2.249942210389258013e-02 4.378192332770611817e-01
-3.081593177966359190e-02 4.717155214447455239e-03 4.336655942842932432e-01
5.493556990038090532e-02 1.383193854455946371e-02 4.740952607677115238e-01
5.827245188326007561e-03 5.018310885814942363e-02 4.180730906197221430e-01
-2.426732382871343158e-02 3.363034204391909116e-02 4.116109362011917128e-01
1.862424792363384651e-02 -1.645903863408439138e-02 4.344996007787413905e-01
-7.678813814442219873e-03 -1.095887481297362284e-02 4.324806798225071525e-01
2.941888072474003676e-02 -2.270252663499284368e-02 4.399793141619703918e-01
4.576165785457123741e-02 4.140843774435985086e-02 4.994247039018251955e-01
5.517803411473809483e-02 1.738835545517243911e-02 4.691688655761938609e-01
2.816221770499072533e-02 5.769109780089902439e-02 4.327257468659534423e-01
3.913100309795270598e-02 -9.592080251455019357e-03 4.428620807344357257e-01
4.639445151346387880e-02 3.357905981733091960e-02 4.993935511927670157e-01
5.019676526968892133e-02 9.498998726530032133e-03 4.961888186320788097e-01
-3.961566815204420160e-04 8.149571873755801638e-04 4.269634965174306518e-01
3.994314222229137373e-02 6.424159074162003047e-02 4.645941104274391442e-01
-9.968589659445890178e-03 1.260496889642638389e-02 4.180859907294638411e-01
3.936492949962062948e-02 -1.045520670246514322e-02 4.431989570258134670e-01
-1.334045438288416867e-02 2.590765754813739719e-02 4.051547484110383790e-01
5.404179781766136476e-02 1.565946089972913152e-04 5.034188758274761311e-01
4.477774158576260100e-02 -2.219614314966205162e-02 4.551406736610691950e-01
3.767446171604930949e-02 -5.966850267636787837e-03 4.409571974264607230e-01
4.273511283034710923e-02 1.513818379864073638e-02 4.420797962215998744e-01
4.996745446258477746e-02 5.258806485891192456e-02 4.731926144123023148e-01
5.181057105643187277e-02 -1.529678463381572637e-02 4.660910675903672251e-01
-6.134397621171674628e-03 3.343060452768489149e-02 4.025904782480638766e-01
3.945034049717167229e-02 8.028669144527735696e-03 4.402294966303021417e-01
2.392262209689642247e-02 2.432088119872411955e-02 4.283208717510741947e-01
5.208893451346530840e-02 4.366196874996860697e-03 4.999008613331706874e-01
4.280437701825465235e-02 -1.604847694248008605e-02 4.487894048164996486e-01
5.463360772910888508e-02 3.294387285723376912e-02 4.729290896712462500e-01
4.827155819132027820e-02 4.295464635983237828e-02 4.460455514002685251e-01
4.603460900303333464e-02 2.751047445503444072e-02 5.013624974838039039e-01
5.379994768400940541e-02 2.702766181158373568e-02 4.581946465497631071e-01
1.502240464685988125e-02 -1.137934188601937621e-04 4.291727485119092855e-01
1.291328085414679590e-02 4.669833071438266037e-02 4.184667115394371528e-01
1.155771406743111469e-02 1.725668861831561665e-02 4.193642596024556024e-01
1.410533529646867262e-02 -1.619962709693624145e-02 4.339916777274492876e-01
2.710572855604963249e-02 1.749734890534864959e-02 4.310478594018872234e-01
5.321834365832978780e-02 2.808532503612053838e-02 4.813700827296595874e-01
3.974951719906814201e-02 6.481073824706845565e-02 4.556436512321745402e-01
5.207122217796171515e-02 3.737802330461494245e-03 5.012751822995751283e-01
-2.194485250379651226e-02 3.624648809552864087e-02 4.126144902387168800e-01
4.763757135738853898e-02 1.652536705785701172e-03 5.128798525275687359e-01
-6.992837445339879568e-03 1.889253651343893170e-02 4.073944365143137292e-01
7.053381392443010441e-03 3.023835012217936102e-02 4.049130460325153780e-01
4.772181872730823365e-02 5.340441009951411855e-02 4.482439340234427583e-01
-2.534985420481362245e-02 2.196176372024769008e-02 4.159754257224315133e-01
4.833965490644364510e-02 5.557204642256673849e-02 4.712053066707353466e-01
-3.011218562801116008e-02 5.703055663360222932e-03 4.335524380179349158e-01
2.256653036136451948e-02 1.998289974388140627e-02 4.277533176785252023e-01
8.901672650469587278e-03 2.610720939995282534e-03 4.268362003702939611e-01
-3.114229073391689903e-02 7.688494688902897112e-03 4.330562151292720596e-01
4.942802701040284463e-02 5.047910260535164867e-02 4.827583373987772708e-01
4.931135908127101675e-02 -1.523603802248784528e-02 4.609144595137921741e-01
5.017005623859004809e-02 5.143162997886609883e-03 4.532602595748296270e-01
2.900345527838742513e-02 2.508019843919549047e-02 4.316440623550064082e-01
2.351922833377702998e-02 5.394357792331070517e-02 4.292334660060430074e-01
1.843055625380419366e-02 1.813583933392474631e-02 4.249494356224601810e-01
4.679973845251217575e-03 3.384532966078335897e-02 4.053609589691866133e-01
5.429253699333872613e-02 2.544089467891859704e-02 4.617579385415890303e-01
4.914081274980274666e-02 -1.109725303726468576e-02 4.591432408778994279e-01
3.906156955550257187e-02 6.399210568606314431e-02 4.650151979079184539e-01
3.726488023485814705e-02 5.888970670146394248e-02 4.378771683638312817e-01
4.703603738089941200e-02 5.866229942268292447e-02 4.639724966260432293e-01
4.772036060886906961e-02 -2.052636407389283463e-02 4.597028685576319829e-01
2.004857429217517251e-02 -2.606013390401928573e-03 4.308672853777847367e-01
3.758416713669020248e-02 1.181073784195046245e-02 4.381670320947815833e-01
2.474989216476817383e-02 5.798391596028807521e-02 4.337361160291067219e-01
5.046191233439548812e-02 -1.440234064027569490e-02 4.630082790892680045e-01
4.952909946447624917e-02 2.767402534575151563e-02 4.910795127250507375e-01
5.673257212974353036e-02 -2.173595217470288259e-03 4.837555829798158569e-01
5.179250800101918573e-02 2.066836791446279020e-02 4.530715595895584702e-01
3.075279105680737979e-02 2.941075275189941260e-02 4.325272030683754987e-01
3.081686241643562599e-02 5.397943276853562483e-02 4.327782188417982345e-01
3.295786590067893707e-02 5.079819886598985375e-03 4.355913911146817030e-01
8.823428193123702273e-03 -1.601796213181762296e-02 4.350729020935764080e-01
4.580290829023685173e-02 6.184390005963146669e-02 4.554781860684789518e-01
5.493811988754481596e-02 8.598080786821156105e-03 4.777409644773263908e-01
1.186046446701885526e-02 4.308682534763615644e-03 4.274136307088064468e-01
4.791394605430628062e-02 -1.217703582070835643e-02 4.571103288325221170e-01
5.502662379012643323e-02 2.447434144706654713e-02 4.692606908215327666e-01
1.958164916485325563e-02 4.192707357923634165e-02 4.214760255354862428e-01
1.906089540362883999e-02 4.605017483091740360e-02 4.221373053918686113e-01
4.952067758201240955e-02 5.064156969020469634e-02 4.820042438407672880e-01
4.666582526870727277e-02 2.016167289732365489e-02 4.451633917667319751e-01
5.114571560303745462e-02 4.279282612501490723e-02 4.871726248375908286e-01
4.661666025019448739e-02 5.210175940604266920e-02 4.887499644696993717e-01
-3.402944743627864255e-02 1.126628243601839399e-02 4.350998663350750251e-01
4.961486786789608833e-02 5.368163191614097607e-02 4.658783063658066270e-01
3.915262258436900955e-02 6.478828581406261000e-02 4.550798090560057574e-01
1.127875609245776109e-02 1.318814385655526708e-02 4.225277353501262212e-01
4.372373518089806010e-02 6.726794787001834711e-04 4.453592771850673482e-01
5.471019294739738054e-02 3.296357429198057409e-02 4.677976207640542339e-01
4.534590775182915923e-02 5.866509532343218425e-02 4.717055845535609304e-01
5.655187864160639288e-02 -9.081206243712757961e-03 5.107226604505064049e-01
3.785348871438721369e-02 -2.896995235577027802e-03 4.406738575936254843e-01
4.732244541521476305e-02 -1.656539413331364896e-02 4.570588979116224082e-01
4.505003346964509686e-02 4.119936337520119923e-02 5.007438031797770694e-01
-2.347064666160770044e-02 1.171415466048543463e-02 4.241271986517892167e-01
3.663569927805607196e-02 3.370144436391902393e-02 4.358451632180594393e-01
5.202161990986695767e-03 2.198357443699167080e-02 4.072138886047111939e-01
4.673791633749329461e-02 -1.022120490604163691e-02 4.533736231587408572e-01
5.327307060234156427e-02 3.239744745779476326e-02 4.560718886351098900e-01
4.837566103344231178e-02 -1.701508703202788981e-03 5.146600045935111334e-01
4.764435427250783561e-02 2.779729050708014057e-02 4.457614819142043938e-01
2.107280328557781940e-02 2.657246614205086357e-02 4.258199718677865286e-01
5.530865305674819571e-02 1.012101777015763510e-02 4.711250720001728398e-01
4.298249861015912554e-02 6.347347170345400691e-02 4.496246508067308079e-01
5.141804328938633095e-02 3.596285271318929583e-02 4.875110939683376388e-01
2.048869654717084057e-02 5.295786597249182992e-02 4.274288009701385782e-01
7.490825078554273764e-03 1.466546920539217244e-02 4.198114644837193654e-01
4.579175922487696559e-02 4.854024579720123828e-02 4.433352195085122904e-01
1.220223169404303920e-02 -1.120286755021750267e-03 4.281776573731947422e-01
-1.493686009519991538e-02 2.081831784427478488e-02 4.111911718037445929e-01
3.789590382486931336e-02 1.574619471726610917e-02 4.379362903910266613e-01
2.761515185186911442e-02 -1.287649699159175085e-02 4.359548449973034145e-01
5.536358247934404508e-02 1.999750738841662556e-03 4.697629944256807022e-01
4.740471764445346875e-02 4.314002639624398006e-02 4.450928440392659668e-01
-3.451853762086007360e-02 1.749673118886013734e-02 4.279366136485152627e-01
4.322038894344898408e-02 5.394487410818436107e-02 4.415051011263846359e-01
-1.498335464726311631e-03 -7.808085229216082945e-03 4.292611001435323037e-01
4.633624826087803794e-02 5.405600252390045657e-02 4.843128574730724556e-01
5.084300701087816898e-02 3.249707097749494900e-02 4.503247285205149719e-01
5.085135921762144046e-02 2.567938279561805814e-02 4.505662166565494453e-01
4.034519907432999181e-02 4.448844073106012625e-02 4.380217309791123448e-01
-3.869373852457166224e-03 1.953405540880405467e-02 4.066447301785040547e-01
1.011727653454085399e-02 3.755006207943017288e-02 4.132211656893995388e-01
-3.285844294222742962e-02 7.130466952525127584e-03 4.354465599356339700e-01
3.424549329691735366e-02 4.568926423555991559e-03 4.367321081983426834e-01
4.102992071565324250e-02 5.084200453916033063e-02 4.389221331146381244e-01
-1.002832310213477331e-02 1.315460722562943052e-02 4.175183167494588843e-01
-4.116279677579628982e-02 5.788457864816332153e-04 4.412947199136189047e-01
2.570107089838691294e-02 1.087909303540897724e-02 4.306479793940137246e-01
5.025537404536983138e-02 3.561829938667793877e-02 4.903231885520277777e-01
-1.720776476449929412e-02 2.166894772477642381e-02 4.112874354407768940e-01
4.073051984111057677e-02 5.151471141659119679e-03 4.418283850603704765e-01
-1.418167024462311729e-02 3.962380444558595560e-02 4.123543228756275658e-01
1.564230857218056048e-02 -4.782555315543770766e-03 4.299914119377918897e-01
1.097672393624074885e-02 1.445476796543923234e-02 4.213665751979837060e-01
-1.831408488064826395e-02 1.314548750976582935e-02 4.199238000800931681e-01
1.642532966850062184e-03 -7.484533550968514547e-03 4.291488917385135604e-01
4.755183069765067660e-02 2.306946877075747443e-02 4.457191811469971565e-01
5.635480371204159428e-02 -2.459008788817310456e-03 4.931198344890996843e-01
-5.329845046865873751e-03 2.317062859504762443e-02 4.019364693541131461e-01
5.636491372684733492e-02 -5.641943561758914517e-03 4.765787978207975950e-01
3.217849590637725243e-02 9.595346379300418588e-03 4.342749358106708368e-01
5.065625531375379104e-02 4.462047194030770159e-02 4.510058780628918851e-01
4.852562242001179360e-02 -1.586724895946947655e-02 4.595102576361538294e-01
5.476756009685374016e-02 4.455445504410684814e-03 4.666087374734396720e-01
4.704908555329508774e-03 3.886602339805279860e-02 4.079435026295260558e-01
5.218214663442778678e-02 4.519522921510292501e-02 4.595840899600172613e-01
5.414229891725680366e-02 3.593524765834924840e-03 4.928031468932876358e-01
4.913235550053094564e-02 4.904261632102759755e-02 4.485535537843670650e-01
5.153951358142079553e-02 4.511784852629369472e-03 5.015924545984103977e-01
2.715681298619074084e-03 2.603558948945191090e-02 4.027350540031278681e-01
-6.154353453905799659e-04 2.888731141302637237e-02 4.005111178524951576e-01
5.300650057710747098e-02 3.868547305235382761e-02 4.580690576871669917e-01
-1.486398173325274505e-02 3.405476795505952420e-02 4.070219992409934151e-01
4.650233002510462121e-02 -5.598081025247047052e-03 4.506012200045927951e-01
5.402909583506385754e-02 3.694692812425529743e-02 4.758384732755385760e-01
5.378707344577775273e-02 -3.171043822858653737e-03 4.640043219444519584e-01
3.416392063017971437e-02 -3.362082072314571176e-03 4.379891769922078515e-01
-1.542152572182536180e-02 8.839269791485688046e-03 4.226288439424386589e-01
5.260677533179034665e-02 4.442250798683855528e-02 4.716442768136763219e-01
5.305346374391872732e-02 3.647929084922278686e-02 4.824488753946030717e-01
5.285208706106953730e-02 4.948589510951966267e-03 4.600275647437364057e-01
1.481237541450975380e-02 -2.249486777230681397e-02 4.365691962434903872e-01
4.870730153514997440e-02 5.277198609348340147e-02 4.803080489395144537e-01
3.656132915741557715e-02 2.905233777108021109e-02 4.360057985297698391e-01
5.040724051111383081e-02 -1.261673534717694389e-02 4.621501888537513647e-01
4.267191095009512103e-02 3.676334595995741500e-02 4.406896606507174075e-01
5.099885217990671876e-02 2.817296585844268966e-02 4.505979858102004409e-01
4.917282523751539264e-02 1.388187515230925560e-03 4.517808607153749878e-01
-3.278548537619531411e-02 1.596074824564145192e-02 4.273580858971211538e-01
3.463528596213870381e-02 5.393938426085562871e-02 4.348102151376934121e-01
5.307255208034625249e-02 3.397865370014885311e-02 4.823579613961715418e-01
4.745259609341410945e-02 1.030495443090700784e-02 5.031618429815726268e-01
1.877337769257345513e-03 1.074716850183220045e-02 4.214747883778704463e-01
-1.157043464599352006e-02 -5.252822290703464646e-03 4.306665688784149792e-01
2.398717990418383281e-02 2.596563157198577415e-02 4.284056157177326130e-01
2.658667804086467523e-02 -1.846762363316441571e-02 4.374709593355265991e-01
4.781500442666224843e-02 -1.121984283360180114e-02 4.565739463032845724e-01
4.687587449586060051e-02 5.868559717786547836e-02 4.662804713830967507e-01
-6.983404542315856632e-03 3.831183298774239882e-02 4.072302297339190913e-01
3.884023950362470307e-02 5.014271985011978239e-02 4.371596501417289726e-01
-2.095924870338089496e-02 1.188100108222015817e-02 4.222369172264112680e-01
-3.064901847470036939e-02 2.657640614766559536e-02 4.164551211950511256e-01
2.367525008844118678e-02 1.631798586811402177e-02 4.292134424155625849e-01
4.506114177999581694e-02 1.605816035946730329e-03 4.463696156287550454e-01
4.568004350270556124e-02 6.216245218091715624e-02 4.575327027145841274e-01
-2.203957223173059685e-02 6.575872715644774311e-03 4.268722520939634002e-01
4.277796523628371594e-02 -2.328080555870631896e-02 4.531282138879851873e-01
4.224202219031757133e-02 -1.549144012304386718e-02 4.478333963160742726e-01
5.051154558682317830e-02 5.136400338930612736e-02 4.602673648263011508e-01
-1.025501300061865996e-02 3.012131741738038881e-02 4.030232389599983645e-01
4.659466524135305598e-02 9.143620335575291386e-03 5.064262640363557111e-01
-1.391566802468792094e-02 -2.622610305818893258e-03 4.298878209239168635e-01
5.429477287028084548e-02 -1.235099848964711297e-02 4.713160992232243163e-01
4.925831440968771180e-02 4.081574322511128533e-02 4.926640334174928193e-01
4.028009550514982662e-02 -8.430663281019675978e-03 4.439370997966356480e-01
5.509677369741355912e-02 -3.021589597954946714e-04 4.992733653362810275e-01
3.669657469312041093e-02 8.358864494852033186e-03 4.378598450676821074e-01
4.711696297719000087e-03 1.319718730467551483e-02 4.199701850434471306e-01
4.790929247349654668e-02 3.924213125994830548e-02 4.956827756108395655e-01
4.753980131109437901e-02 3.330511170337793758e-02 4.968025670267127714e-01
-1.705677195894079318e-02 2.291453823488674713e-02 4.097783992541402798e-01
5.491732298640749493e-02 2.048219903576583775e-02 4.717007582073277638e-01
5.394440232943611274e-02 3.044020299076063626e-02 4.584607779179502018e-01
-1.702310868082726816e-02 3.491036434505200708e-02 4.082406931278571571e-01
5.635400473815201788e-02 2.246750962388516584e-04 4.863515266979984153e-01
5.200340475009367081e-02 2.968698449950251533e-02 4.526045804792889204e-01
-1.036078901958376562e-02 4.091242604851368786e-02 4.126185881651226461e-01
-2.927393169492968628e-04 1.039659303144967357e-02 4.211017204746445586e-01
5.106538667269948373e-02 2.703615335496224042e-02 4.866567451603883154e-01
-1.701035581740018010e-02 5.992000071944930846e-04 4.293605622704063096e-01
5.039697167812414585e-02 3.964244401142640387e-03 5.051990110673950651e-01
4.665587411026819731e-02 5.866844566441238584e-02 4.515276247247643204e-01
2.370919295229202001e-02 2.417087906095587851e-02 4.281361339115528630e-01
4.425657258877941508e-02 3.473402208164856619e-02 4.424121480510539994e-01
4.495713474354359057e-02 3.829806540120863495e-02 5.016997639964775324e-01
2.063188662541430921e-02 -6.650206157101148582e-03 4.317792525524151159e-01
7.403945686463085478e-03 1.335921580221530658e-03 4.267965401372403322e-01
-2.474035482531656768e-02 1.926909304188882677e-02 4.166595421345264394e-01
4.171889322443601833e-02 -8.411793462924340228e-03 4.455037958764392347e-01
5.590210863802481250e-02 -8.593786887246688405e-03 4.763296235399062106e-01
4.573565326509269890e-02 3.101843654312142970e-02 5.013189195994304237e-01
5.534166509763851355e-02 1.349728689632301824e-02 4.721652838275364750e-01
-2.422065308358382560e-02 3.382265374146976172e-02 4.116909455299366249e-01
4.297040033432959066e-02 6.017075684209921560e-02 4.447661407328153405e-01
-4.682608736247205125e-03 1.142771979721345435e-02 4.191273186914959981e-01
3.383464336631070157e-02 2.879273215615283169e-02 4.341870354170592194e-01
5.355256818584282902e-02 2.139566571472846512e-02 4.570086309043588368e-01
2.301265800545519019e-02 -5.381604190663157906e-03 4.322439027403430778e-01
1.102173223323451093e-02 4.451496081097989360e-02 4.167946669384473002e-01
5.119236605264622375e-02 1.112006282968868408e-03 5.082165801081567347e-01
-1.278675007772137918e-03 4.270043253952292978e-02 4.107712171778257204e-01
4.727847982062646087e-02 5.816766224462208146e-02 4.642951033371869318e-01
2.622917092931746977e-02 5.728049955954984257e-02 4.319315909004963205e-01
9.550142291485437529e-03 2.519380853541956788e-02 4.099211969366746700e-01
-1.947423468349680775e-02 1.862487130416277947e-02 4.149079536567239490e-01
4.282222749603088047e-02 6.774897173461344457e-03 4.432659004403567415e-01
5.663346066190885070e-02 -3.126991955277516784e-03 4.924435905388395707e-01
-7.172531285183900152e-03 7.014092966688629301e-04 4.272403019312010497e-01
-1.165177220018381518e-02 2.577314667758700759e-02 4.040147550624176298e-01
2.507422357525078416e-02 -4.849810125386324992e-03 4.328548349868111544e-01
5.240584942822414799e-02 4.538838284774592696e-02 4.702478389051359953e-01
5.340227704411663195e-02 4.143595381191796101e-02 4.731390342125646464e-01
1.321459971714827701e-02 -5.577054821132972073e-03 4.297075120694245354e-01
4.153863537568141390e-02 -2.233014386720529043e-02 4.505125902582496344e-01
1.775406306541712012e-02 3.317253688854316512e-02 4.189225620808992301e-01
3.783299779485119890e-02 -2.635606021778496427e-02 4.483510513955911159e-01
4.644273914732401087e-02 -1.726282607757822357e-02 4.549655386463803408e-01
5.713149060468039608e-02 -3.744325402605237513e-03 4.892486384830793678e-01
-5.766264352082507358e-03 -6.038337347165629969e-03 4.294180186675681243e-01
2.114664081671654636e-02 2.604234697544623514e-02 4.257839223059856071e-01
5.507962186780320651e-02 2.477362166649872341e-02 4.687337732985059624e-01
4.895217680292555246e-02 -1.475543932595042851e-02 4.599528890245230817e-01
-9.342781405320854660e-03 3.489159164835411997e-02 4.052794741297075509e-01
2.564430172226355234e-02 2.017152073478039546e-04 4.328184283725057813e-01
4.681403057972210319e-02 2.429016896065525413e-02 4.992698837904699927e-01
8.548433787687782434e-03 2.630008324191142680e-02 4.076444847314658615e-01
-4.209150157953919780e-02 2.484073646139336317e-03 4.420838141439880631e-01
1.509445570336374019e-02 5.187096700737837268e-02 4.254350753312943212e-01
3.033671433481226198e-02 -1.681422228384778228e-03 4.353141575679775332e-01
3.930064590067139374e-02 -1.582176973967437325e-02 4.443418052479763958e-01
4.317683317842694463e-02 -7.814723941096694479e-03 4.473316354649509163e-01
3.600418112964193229e-02 4.484647423851193665e-02 4.349116264283344746e-01
9.296258560906484406e-03 -4.090247470561519418e-03 4.287478534746254621e-01
3.292584082703076814e-02 -1.044116799666433733e-02 4.384250979805752180e-01
3.486897284664699365e-02 -1.621528490543242646e-03 4.382422126686261188e-01
4.956760032343919542e-02 4.674814406032943431e-02 4.483083560339452545e-01
3.530504526025266682e-02 9.158700197010235036e-03 4.365690549213727123e-01
3.922325082645426730e-02 2.747822606816212321e-02 4.380065352181266025e-01
9.920912701015520418e-03 1.146788293515537197e-02 4.231964162804875973e-01
4.897154138961522241e-02 1.842044407315119800e-02 4.925814583212453912e-01
3.189683407177653501e-02 2.957020064315708796e-02 4.330301024811137323e-01
5.482192455232386824e-02 5.427385007830862543e-03 4.665623503545098250e-01
4.638077016838234451e-02 5.187140194324085796e-02 4.447322421541455850e-01
-6.123677548949189170e-03 -1.599682764470442345e-02 4.336821564894785541e-01
4.607817729142319602e-02 -7.853804826640711431e-03 4.511854688340611319e-01
3.565157120443817468e-02 1.118284065427152356e-02 4.367203634521926725e-01
3.862052891631490015e-02 5.360139643918761937e-02 4.375473622763753623e-01
4.506053745595117038e-02 4.717778518776434560e-02 4.987888550451782255e-01
1.278173352177782232e-02 3.498944741132092862e-02 4.145389446491118957e-01
3.288107201984161870e-02 -1.095361367540660311e-02 4.385065063411030528e-01
1.760345173331089030e-02 5.163794758442193794e-03 4.295738055804798061e-01
3.813547669762702014e-02 6.518765295853611030e-02 4.523518263738490197e-01
2.313382937292942504e-02 2.555038516243418253e-02 4.275315358152496081e-01
4.487511829044535383e-02 6.296064204934539998e-02 4.558972511542222494e-01
5.486461933797136259e-02 3.069472090487847943e-02 4.686985660074226012e-01
5.856464399360565044e-03 3.662714835923266965e-02 4.081302733940319616e-01
5.484531851824502383e-03 4.967431623379438971e-02 4.166336970190779310e-01
5.411702929007317781e-02 3.385518731637644080e-02 4.766548691018882011e-01
3.022213595859482918e-02 -7.160701909912927342e-03 4.359604317739497747e-01
1.474707930923347191e-02 1.594505703785977294e-02 4.233776039390099166e-01
2.037461518687559703e-02 -1.532330403990373943e-02 4.344574693749552741e-01
5.688157840291573758e-02 -3.894344458947709368e-03 4.833373835129471940e-01
-2.890933518923981954e-02 2.282675274447276345e-02 4.177201513076320705e-01
4.954403173868700966e-02 4.198105757049156589e-03 4.520031434858066133e-01
5.422875400247770955e-02 2.544929783410886798e-02 4.772104035333462613e-01
-2.893436777088028919e-02 3.259126159260141570e-02 4.158649328122679401e-01
4.501998718740377048e-02 6.087087828080915697e-02 4.667899358419898559e-01
5.274201985121472480e-02 3.746389025309889570e-02 4.563262526286609444e-01
1.041105746257239145e-02 3.408934864806747317e-02 4.112885207241485652e-01
1.589056582504987450e-02 1.484122467094391856e-02 4.244314513021988367e-01
4.606529273660427831e-02 2.580763609986275534e-02 5.015525437008339082e-01
5.102263079830809955e-02 4.089382343781863827e-02 4.516466090689824631e-01
2.681134305640136758e-02 4.211093475930169361e-02 4.278523814326274377e-01
-2.604884119143500293e-02 3.492185344756393306e-02 4.149214291844314784e-01
3.411441402876053131e-02 1.437369797422506819e-02 4.351760767979086508e-01
4.660369508406587979e-02 6.342964380673566868e-03 5.094572632531803036e-01
5.605926000526029185e-02 -3.856755039771992896e-03 5.030143184030548831e-01
-4.184412840494946412e-03 2.568572458216009796e-02 4.010127924576443736e-01
5.115265929271144152e-02 -3.394218688199011728e-03 4.588433865797332256e-01
5.034111364947919942e-02 2.082330232338711756e-02 4.882927201863506705e-01
2.297545119190548893e-02 -1.462533026195759339e-02 4.349781680175168197e-01
1.803759057229614715e-02 2.361353730276405383e-02 4.229567319273155324e-01
5.277816528322723522e-02 2.439130165408293777e-02 4.814546389440535479e-01
5.095266900469926086e-02 4.074343420720753783e-02 4.883856542979312931e-01
4.857301070515330360e-02 5.580553524856752406e-02 4.588177779932884337e-01
-1.306327770947294034e-02 2.750036280611635464e-02 4.048479856800099586e-01
-3.632138080597760443e-02 -2.888705741237395340e-04 4.391394235515932998e-01
5.496351663787526348e-02 1.405967600161960387e-02 4.667243545576894026e-01
3.172130149439292973e-02 5.224863753380632608e-02 4.326432816202027132e-01
4.962656153182950017e-03 1.249234015993335584e-02 4.208089051919010060e-01
1.083874230591624736e-02 2.751818549173939976e-02 4.100258591070691239e-01
5.205090009013786656e-02 4.680648149498537608e-02 4.640746090482768538e-01
-2.461802488880432405e-02 3.028997952114255085e-02 4.111093430149938555e-01
-9.965151163666769590e-03 1.126487293187380598e-02 4.195070394839804928e-01
8.546771151342277134e-03 1.896111161228600933e-02 4.146646858255063628e-01
3.137419441999036301e-02 5.274831103638315255e-02 4.326234520405980444e-01
5.044214089902003539e-02 2.205261445466927955e-02 4.876194277434561797e-01
5.450960091977220118e-02 3.380036277929687749e-02 4.657008462197864129e-01
5.736626918034648526e-02 -1.191566579821127896e-02 4.838342720089125470e-01
5.213933087871631261e-02 3.669205900529681676e-03 5.011522613909394908e-01
4.802745708942780106e-02 3.389086630678287554e-02 4.956228565747988202e-01
8.667818637392993297e-03 -1.019658017850947826e-02 4.305962976081305627e-01
3.814730116490617357e-02 -2.671196179298772344e-02 4.488053876019548749e-01
4.918203651769494089e-02 2.519863576731424734e-02 4.474580755828756473e-01
3.251258799615858175e-02 -2.560959858617950502e-02 4.432546634167785493e-01
5.445578663550826315e-02 3.449497580307663708e-02 4.677379923767934766e-01
5.181589016497274713e-02 3.335736857401873368e-02 4.525242632443032265e-01
4.690165293192550405e-02 -1.489664406017729772e-02 4.555779294399081580e-01
2.274613760942524598e-02 7.444863506396560450e-03 4.304335275759134660e-01
4.801230415989713590e-02 -2.542750979422640951e-03 4.516190723633281001e-01
4.194664710515062095e-02 6.395697057464473645e-02 4.641942649738518556e-01
-2.063116750641689340e-02 1.580138836239597042e-02 4.183240559480723153e-01
5.271563014151298826e-02 4.372150046802961848e-02 4.649523893237832994e-01
1.433306532957871748e-02 2.385538195477706486e-03 4.287226185377557841e-01
5.369643301322987033e-02 1.141150904478751074e-03 5.019114049583549564e-01
4.404904710454535244e-02 5.450472138685592827e-02 4.853852188751623387e-01
3.554354895645838591e-02 1.854633610303216620e-02 4.357965778668205781e-01
4.479937410024335126e-02 4.202747291243355554e-02 5.009209953897614254e-01
3.961867846518698361e-02 -2.455298403159808865e-02 4.492216809049036641e-01
3.196613840405847923e-02 6.226648938121958493e-02 4.386229894960210762e-01
5.237534681870929798e-02 2.144311586119762580e-02 4.818333245221623762e-01
-8.212271682109624146e-03 3.824957431903223265e-02 4.074938867370780371e-01
-3.992836472167021235e-03 -1.280305924416160618e-02 4.318547692780143610e-01
-1.960580061264968060e-02 1.705933134954820338e-02 4.163180697147579323e-01
4.151491411938678690e-03 -1.320469700612836653e-02 4.323432397558814588e-01
5.242548845760194864e-02 2.964614545108834945e-02 4.534461170821594833e-01
-2.427571636661243065e-02 3.421777014999768940e-02 4.119712937500037975e-01
2.234727959085630947e-02 2.866201625211095214e-02 4.271031531314663510e-01
4.569180092786674641e-02 3.888796581558880139e-02 5.001972666397463962e-01
5.356374893005013543e-02 3.073945282495832432e-02 4.800363161363281339e-01
5.415723233357738059e-02 3.346864456371224927e-02 4.761309772932981743e-01
4.909948070817918980e-02 1.470742023938001811e-02 4.939664641646641097e-01
5.323292466204753576e-02 1.745194736731011309e-03 5.017117522912950545e-01
5.518367196986653268e-03 -1.489680531766603838e-02 4.342266119720379902e-01
4.561305546045705400e-02 3.420345885226067084e-02 5.010295714232851916e-01
1.442543923932952318e-02 9.272069952592412040e-03 4.264838159978179277e-01
4.122841354685559401e-02 4.396279323205799262e-03 4.423875586537469040e-01
3.577346604547283065e-02 3.934294825431450260e-02 4.352691990183941151e-01
5.285866197961404389e-02 -7.084300054345208861e-03 4.642821938986642638e-01
-3.705498684144795107e-02 4.409918984452226853e-03 4.420838310339211819e-01
-2.076493786271160075e-02 3.862494421638357645e-03 4.279862490601827330e-01
5.260559765074437205e-02 1.194923299789614219e-03 4.606674241154880001e-01
3.710920214038493023e-03 1.811541811488118561e-02 4.117908440117246660e-01
4.605648572241180516e-02 7.785043593104899566e-03 5.087372813507752278e-01
4.078244791317762324e-02 4.505954224079166542e-02 4.382955269525700137e-01
5.133393333999596020e-02 -4.821362868018390715e-03 4.601978240815656762e-01
3.701139943085876571e-02 4.829109090646584168e-02 4.356839348689867664e-01
-4.357277399109901750e-02 8.929540922965103350e-04 4.429061434356117433e-01
5.228403938937636886e-02 7.101901812230694902e-03 4.575595589911259919e-01
-3.182936619177956922e-02 8.820455112708004003e-03 4.328852822384959276e-01
4.751041846589516143e-02 6.397878943367166574e-03 4.478979748341647138e-01
5.451172380326315542e-02 2.874485021829159548e-02 4.624713667075953105e-01
5.641841460592816188e-02 -2.260981251309088138e-03 4.925022287401086829e-01
1.313871986164476431e-02 4.106841323322271697e-02 4.176011850859132069e-01
-2.083492301947154068e-02 3.484259412960039048e-02 4.099901025597480486e-01
2.951106327242299099e-02 4.857503831897412583e-02 4.305642029525053593e-01
4.118851984068132993e-02 -1.660771611918515980e-02 4.465412457087228892e-01
5.181779843347428249e-02 4.013637617469600211e-03 5.016807793397913828e-01
4.843273536071947272e-02 -5.555981310691557318e-03 4.539581695003045980e-01
-3.342152954098127210e-02 6.744568790872551740e-03 4.363996271009348282e-01
4.948362708343509442e-02 1.657778260052508029e-02 4.914154334256107259e-01
4.704424517725232929e-02 3.141803408100597023e-02 4.982797793099859596e-01
3.471151040186809533e-02 -2.116699210159274716e-02 4.427940823569204709e-01
5.051319786017898633e-02 4.965220197068493518e-02 4.787730426621201185e-01
4.891018956436445769e-02 1.183279336919732146e-02 4.973643857063768658e-01
5.280510820666368954e-02 4.370160625135184607e-02 4.682248818765891718e-01
5.510060235046182475e-02 4.868938716594929834e-03 4.685541134513198092e-01
5.395472756541024734e-02 -1.118072196856517535e-03 5.064725720997349523e-01
-3.805655906926320303e-02 2.659782223308430633e-03 4.398961986471286445e-01
-4.955928488469733481e-03 6.578860334188699893e-04 4.271667219213001743e-01
-3.446809215649387914e-02 2.345697598480957387e-03 4.368397921048458032e-01
4.439191622024994677e-02 3.929579776650393708e-02 4.422591640303101812e-01
2.721734174018734451e-02 4.783201159426184179e-02 4.281968622451198248e-01
3.261582640539097133e-02 5.856714701797882672e-02 4.352450248229083885e-01
5.264636439455772088e-02 4.315135315669395288e-02 4.614488360325036953e-01
2.686867585666541380e-02 6.044898415057142066e-02 4.388604599167202913e-01
5.404411227224516917e-02 1.984510852710592854e-02 4.774174577348994641e-01
2.344265204453450935e-02 5.767392271496250139e-02 4.331947317448649470e-01
2.458070405339520328e-02 3.041052685891889804e-02 4.288957777528187854e-01
8.105504009473206428e-03 3.602699828987782071e-02 4.101725903958524100e-01
5.196121704476663883e-02 2.161630495733013121e-03 5.046630838602680358e-01
4.878632742999917948e-02 1.337990601220810649e-02 4.961556384704933764e-01
3.210660970874598674e-02 -6.948723815991555107e-03 4.371433803694494413e-01
4.518672362617033589e-02 5.570662253520183155e-02 4.811375015294266366e-01
2.767268737460995900e-02 3.409498013065635769e-02 4.299337030313158392e-01
-1.687758707001331751e-02 1.876497057831897838e-02 4.142031279156899171e-01
-4.187770860921678773e-02 2.562403086902247974e-03 4.448179876144335299e-01
2.154617814124175010e-02 4.911112679398716568e-02 4.247262207455167471e-01
5.497262174958059133e-02 2.821372013349869937e-02 4.711106857731136577e-01
4.180863437655969739e-02 2.239779418475094583e-02 4.406803290167763398e-01
4.823614730295148340e-02 5.486729959414891195e-02 4.756454356661073413e-01
5.138927153789789315e-02 1.336315806871669204e-02 4.538695046635043417e-01
-2.564792456108855312e-03 9.251401618893081991e-03 4.214051477101612986e-01
5.503594384018591079e-02 8.900803922787657585e-03 4.679277609187625919e-01
1.875564597224951835e-02 -6.417029670885436923e-03 4.311543510200556706e-01
4.921086978256610650e-02 4.697387465012829028e-02 4.472270310969554408e-01
3.209524128224733319e-02 4.200652772874535062e-02 4.322288001021667991e-01
-2.423061743713371408e-02 5.165270692579801252e-04 4.315290661837486441e-01
5.411209310801740058e-02 9.244980484722923122e-03 4.628498639447266028e-01
4.603091852565688313e-02 8.244836733211994770e-03 4.458811237805403449e-01
3.168144388738975553e-02 -2.037250176312666028e-02 4.401284352083547624e-01
5.207467292667329606e-02 -1.031987690101366165e-02 4.644203195798187744e-01
4.891354533822127315e-02 3.812491972118987188e-02 4.937536189862832270e-01
-2.680946499877634101e-02 2.760613734902576596e-02 4.134549573344118434e-01
5.084281923655401686e-02 3.742720233594350188e-02 4.891443700524909510e-01
4.798818853150343955e-02 9.697285720679172522e-03 5.024376121561687780e-01
4.891290761519047348e-02 4.674276387457981276e-03 5.072993161157095532e-01
4.936078025157729365e-02 7.351191891776021926e-04 5.113604010142314138e-01
6.474201742016782828e-03 3.777111668726401000e-02 4.092732332587097344e-01
-2.497796801503477521e-02 -5.532267654875374849e-04 4.325395229905997785e-01
-2.095663673846618127e-02 9.486598551045831093e-03 4.246228597697034868e-01
3.118939753358414974e-02 3.240231911917614699e-02 4.322616004180844795e-01
4.511228774495391891e-02 5.512668526006498509e-02 4.827065524056493029e-01
4.342358029609798276e-02 6.416613828528555663e-02 4.609285226005892522e-01
-7.037528076627245707e-03 -5.272570194729649801e-03 4.293566644046050151e-01
5.133915952217740081e-02 4.827170531665039149e-02 4.589445967752363575e-01
-1.945824934920809338e-02 1.884036984847822782e-02 4.147143250712521101e-01
5.677366509793024818e-02 -6.648934969777179141e-03 5.066918617857227858e-01
3.677489922758603834e-03 3.123049467447492136e-02 4.025923928102934091e-01
-1.440130402586499610e-02 3.841013846913621937e-02 4.097681975903908480e-01
9.543235608068089543e-03 1.136558718805535419e-02 4.231328578557544406e-01
2.399134882804915617e-02 2.192463938718057850e-02 4.287080453646093803e-01
5.010922389778534221e-03 4.123666262663287091e-02 4.093118785025691153e-01
2.237041532346253914e-02 -9.435163825972727597e-03 4.331341845615233610e-01
4.938786445656971613e-02 5.352711463053740071e-02 4.738057924361780970e-01
1.401796707543303579e-02 2.015285395180451897e-02 4.193088346924764287e-01
