3.437967338101930587e-02 1.364112801647872006e-02 4.402125367473152528e-01
4.676467851225197397e-02 5.148420641697347422e-02 5.025923880466857119e-01
4.818448927213937055e-02 -8.677046452183274222e-03 4.559634895720838799e-01
2.153894359608039821e-02 -3.872631150521480339e-03 4.347917185593834777e-01
-1.522664489537683269e-02 -3.718611551821937242e-05 4.310746552761545169e-01
4.026046829634394308e-02 4.476317395713307751e-02 4.449575474324964364e-01
5.622865576377591990e-02 1.976106102738547921e-02 4.815306352313230009e-01
2.337820210841625584e-02 1.520928653172229014e-02 4.340934596230316966e-01
1.252943219980652730e-02 6.920962163449673188e-03 4.318289149476465250e-01
-8.257248505421149395e-03 3.666436209321376899e-02 4.095123794824648833e-01
1.490820080157797926e-02 5.259189475744804193e-02 4.259621648220054402e-01
4.646401551211452874e-02 9.218262910967046225e-03 5.125885228214343003e-01
-4.381676397736689738e-02 1.072954246628124702e-03 4.471228563845581760e-01
2.771756505209230226e-02 4.751251830665921549e-02 4.354944131958269904e-01
3.112306218314068659e-02 1.508023098693707029e-02 4.384008715707687354e-01
-2.508202658757239731e-02 1.502605960721937681e-02 4.271466787411024035e-01
4.168643434214051174e-02 6.709130938878699046e-02 4.535641563525184550e-01
-4.013135106270843827e-02 2.469585605574026090e-04 4.410101909594858482e-01
5.339001976533373078e-02 4.893725323871405547e-02 4.844937809563165110e-01
1.511012638318108559e-02 4.462194806491089072e-02 4.248247598118526369e-01
4.971307115740632165e-02 4.158464608974767746e-02 4.539429517417172266e-01
3.904405749415790911e-02 4.039662074492998689e-02 4.440108225829978994e-01
4.475107392979155857e-02 6.762933763502622375e-02 4.671181075410721362e-01
2.287369757855010899e-02 4.297322245050651246e-02 4.317002140174505675e-01
-7.291156663572359413e-03 3.667692149986753226e-03 4.285192537466871454e-01
6.646352159323059422e-03 5.402908509733996001e-02 4.192432304570999357e-01
2.497623777301576781e-02 -1.840419187231666712e-02 4.380592060940624033e-01
1.253523391272259521e-02 3.724259992309782857e-02 4.228340835362844885e-01
2.428020458883723559e-02 2.637465608625113450e-02 4.339664199534107314e-01
-2.232516864753514296e-02 1.469105502662485484e-02 4.256980877348038872e-01
5.638332086353226025e-02 3.238869178745707594e-02 4.657794183243926245e-01
5.033211131042938935e-02 5.261325118342678742e-02 4.913602100164858877e-01
1.042425325632979557e-02 3.933580369025364148e-02 4.192520519010338731e-01
3.107786355938574677e-02 4.534604693695450106e-02 4.383217025099384045e-01
5.534856790190828546e-02 3.737520136876136545e-03 4.936524864603464291e-01
-1.099487475426425345e-02 5.137951162956194695e-02 4.168802454524759837e-01
4.721351105381324520e-02 2.624572486855337658e-02 5.082781739629301798e-01
5.352541138518915331e-02 3.654646636141981042e-02 4.586851818477514775e-01
-2.231976695580981454e-02 3.001746484703285769e-02 4.184398967533333735e-01
3.924059778739438092e-02 3.878164633127070826e-02 4.441422278784376010e-01
3.583934465724810531e-02 5.867294073473248994e-02 4.437355409448726640e-01
-3.397048058895862314e-03 4.242719580094322235e-02 4.104368616765324274e-01
3.027807404867752586e-02 5.040876839635459461e-02 4.375599327986622877e-01
4.043017321773646755e-02 3.950237645668065734e-02 4.450248373828171178e-01
5.223683959101096258e-02 5.565253381131593513e-02 4.683173559474755332e-01
-2.824403006022552926e-02 1.857007815430269590e-02 4.264710979466414531e-01
-7.086587110276716672e-03 3.313209054682172278e-02 4.095665827212688348e-01
4.668341302055956793e-02 2.222330604098904719e-02 5.092286758280991643e-01
1.824275653470441589e-03 5.424644690817176373e-02 4.183349877100852043e-01
5.685395293158568980e-02 2.116045279605524923e-02 4.723978926692701252e-01
-1.196100368122911609e-02 -4.894840199678156950e-03 4.319498663751490386e-01
5.175303601509128465e-02 1.299952305908176880e-03 5.109527294504713213e-01
-5.702454281022974018e-03 5.472769506684940083e-02 4.196747784573696127e-01
4.842991894600931491e-02 5.410986203967298874e-02 4.535866394451671946e-01
5.176068988523205294e-02 4.129453318828801150e-02 4.994919132009171259e-01
-2.956781518198614567e-02 7.363061660021602214e-03 4.334471728345818953e-01
5.773631257440221820e-02 -2.367174920446794839e-03 4.865887482339893433e-01
3.438667046253710002e-02 6.686960841082284154e-03 4.401265432956475987e-01
1.262917274452450556e-02 3.142379641327541773e-02 4.227501702579359311e-01
5.426532692687698750e-02 3.403172881562657737e-02 4.930933414837615492e-01
5.552531728523699139e-02 3.120645306350301393e-02 4.871142297654262876e-01
-2.945362636958558794e-02 2.325028467646999761e-02 4.250031560365387651e-01
4.644995347412969600e-02 6.330926487001900353e-03 5.151842346983536158e-01
5.762972386301985078e-02 -1.205878772489691990e-02 4.836854055456610846e-01
1.668398392605597094e-02 6.175844701617334148e-02 4.409927367466536796e-01
4.558640893118857951e-02 -1.859157157968957530e-02 4.549892395685197766e-01
5.141704011794866191e-02 3.799677834408142496e-02 4.559997374838039574e-01
4.357225629988504406e-02 4.551392782471785220e-02 4.477734020147831062e-01
4.767592610237825212e-02 2.792911037446712055e-02 5.074863014822573737e-01
-2.997523336352605344e-02 1.229676197696468604e-02 4.319775802719911240e-01
-7.042099224592410223e-03 5.247145368555557882e-02 4.167560299766166487e-01
8.270519353372194835e-03 -1.233171801444467655e-02 4.340860478267894451e-01
7.528865019295183543e-03 5.548063270406868031e-02 4.207900545236170076e-01
5.645821526282342878e-02 3.496567444568785682e-02 4.791360079245794990e-01
2.727017801640585840e-02 -2.113953407471545407e-02 4.392584505558226327e-01
-5.171393423410823587e-03 2.297281408832621899e-02 4.129500922568735133e-01
2.044343283872002148e-02 2.925613762239716656e-02 4.305879206550538019e-01
-1.076964036876902273e-03 1.868406291737716510e-02 4.187414618636224883e-01
4.834957683718743571e-02 6.230329746267712632e-02 4.749404612441429085e-01
1.821092362898973221e-02 -1.501416441937462876e-02 4.357222578213061914e-01
4.782406202548385860e-02 6.532617696768959481e-02 4.683307994367608695e-01
5.663425378044923547e-02 2.788527892665042945e-02 4.660529831901852327e-01
5.252679025363200804e-02 5.492034697878944022e-02 4.686787949458526281e-01
-1.689812773919237981e-02 4.450904503735230583e-02 4.134678025330719153e-01
4.719654173440508693e-02 5.696866720603054046e-02 4.528651428770260057e-01
5.379708595788077613e-02 1.571448514563282203e-02 4.902622406076825867e-01
5.419846435965741671e-02 3.222106593315360312e-02 4.597476676621300995e-01
-2.325030689800078321e-02 3.764105023134840106e-02 4.162991610200305614e-01
5.417481428128703702e-02 4.870546081517376780e-02 4.686387418547921513e-01
5.538466086510053510e-02 4.045829212001642722e-02 4.818258509876063855e-01
2.625727959506635178e-03 1.698451432747768303e-02 4.215142334887220787e-01
5.659139872309765229e-02 1.151450598154262796e-02 4.729764614427893199e-01
-8.321963122200194338e-03 4.858592770209976819e-02 4.122510830735482412e-01
5.618640778040628891e-02 1.782496915001140778e-03 4.925435058742003713e-01
-1.460995157989530141e-02 3.944022278500533552e-02 4.122253822108529198e-01
3.008748059822739795e-02 4.348760465258439539e-03 4.382308098183649303e-01
3.769760326392051358e-02 3.983301393505608856e-02 4.430386185694564216e-01
2.734460795332788186e-02 5.816310562888305641e-02 4.379073498193469249e-01
5.199328097145713978e-02 3.620883559487854571e-03 4.582919694704359892e-01
2.174737938217355393e-02 -1.593733604762010390e-03 4.348326115626534039e-01
5.659844424349547154e-02 9.724285151954142892e-03 4.758616023927227379e-01
4.365400025756888819e-02 6.819088150653163094e-02 4.611446547145484631e-01
9.109292134111839426e-03 5.429994455367564976e-02 4.215655860692759105e-01
5.136933434236812951e-02 -1.434604582840862640e-02 4.656171089616666370e-01
5.121735213800915343e-02 -1.858784449952676290e-02 4.667257139591900472e-01
4.752242044456705256e-02 6.564457839086414170e-02 4.682758883038355968e-01
2.097584979695425039e-02 1.611053798283037380e-02 4.326804307376247438e-01
-3.617286278672500466e-02 1.357646085899355884e-02 4.395986648901998306e-01
5.621542220218887775e-02 2.932921415541028115e-02 4.643492758915839791e-01
5.445396132074298984e-02 -2.387507235020246837e-03 4.670212985320167931e-01
5.749868107840691578e-02 -3.374901448306340430e-03 4.801524964995517730e-01
-3.475042871827330182e-03 3.776735261707535318e-02 4.076780236601543206e-01
3.159774350305807195e-02 6.877910731016161766e-03 4.387276064105330442e-01
3.518838570560500756e-02 -2.710711052814121155e-02 4.467156426494505173e-01
2.902634340397330578e-02 2.114272216716556185e-02 4.370143724143650821e-01
4.158433933089757117e-02 6.812077860708712351e-02 4.658460593668852789e-01
3.872809490607039690e-02 6.896185518584808938e-02 4.529978537068440891e-01
5.698876553130687722e-02 2.995779505164406636e-02 4.779808480168764029e-01
5.304504688562412112e-02 5.198997246086863727e-02 4.800093792300330620e-01
4.875633490887622962e-02 -5.732088201940701774e-03 4.555525237097363123e-01
4.456080325021807842e-02 4.100334611043222888e-02 5.126620921796929409e-01
4.588178311077556470e-02 2.901954454520022306e-02 5.110096869241345097e-01
5.262105172034761691e-02 -6.288574749692132058e-03 4.645790955606080574e-01
3.917702168882661318e-02 6.942760129200498120e-02 4.644150554414844256e-01
-2.324088423473791992e-02 -9.286853646720792665e-04 4.330970253362862454e-01
3.419554530104093604e-02 -1.028889509991210913e-02 4.410479207868734930e-01
-5.079706446786461799e-03 2.365605876483908160e-02 4.125452116673753444e-01
4.655699220655003939e-02 6.037083133761161208e-02 4.537188726043064890e-01
-3.958991707257389359e-02 2.937588322165455429e-03 4.428700637689338415e-01
-2.202875468185559737e-02 1.051422041556180145e-03 4.318448085015667015e-01
-2.233484194399787057e-03 -4.515423204502900037e-03 4.311338992978409612e-01
7.360418482651230263e-03 -1.827098560065472041e-02 4.371587122540810944e-01
5.349154929640101419e-02 -1.651824042874376272e-02 4.712828785660891362e-01
4.169750729764418878e-02 -1.031266422575351747e-02 4.474585803385650595e-01
-1.806454439482203756e-03 3.410217529524059432e-02 4.059868812328224497e-01
3.973824624010235951e-02 1.563823783416912194e-02 4.439512587788103093e-01
4.784930177817170449e-02 2.978353664863483269e-02 5.071082405791673686e-01
5.342384374161234656e-02 3.671068775824415376e-02 4.960107997512194222e-01
4.910261366751284690e-03 -1.102999507904111470e-02 4.329260100986901949e-01
4.625520001133216069e-02 5.100645704664267394e-02 5.051200883888274928e-01
4.977240217267645678e-03 2.125713266109336905e-02 4.186705448676171781e-01
1.853677154441775443e-02 1.069243931283287916e-02 4.329813666203626843e-01
-1.847971220448198226e-02 4.464902571543068709e-03 4.291488515129689985e-01
3.915920122470516185e-02 -1.213503149521521704e-02 4.451043223554381201e-01
1.703281343606171533e-02 -1.367255459947757344e-02 4.351737086548498334e-01
2.392291695873387247e-02 5.932445845617974334e-02 4.361565460106743841e-01
2.050905862788180573e-02 -1.602870300801501752e-02 4.363381275709827811e-01
4.830566555302932136e-02 6.335411856269790309e-02 4.725229891135089844e-01
2.974580141362451538e-02 -4.429438562765892432e-04 4.382846306148915350e-01
9.188524474629214400e-03 -2.266526508774984253e-02 4.379231131661511789e-01
2.557450251791716297e-02 1.513771580781300349e-02 4.353377318916653582e-01
2.040413999689525554e-02 1.189377555954972306e-02 4.333212460004260969e-01
5.351156498548573226e-02 4.603928590889352912e-02 4.894682215077726384e-01
5.803126015203532301e-02 -6.026769730451722942e-03 4.900505433699736124e-01
-1.011430366445323879e-02 3.764121479845096430e-02 4.102277971060738770e-01
3.950565212064346271e-02 -8.912451247505078986e-03 4.451774348773985812e-01
-3.434202356111059479e-02 1.716442479212782618e-02 4.331378603344890887e-01
7.000413435351382149e-03 2.596458500515214096e-02 4.168943220814849693e-01
2.663876159480843900e-02 6.073278665694200468e-02 4.392277579734709114e-01
5.280659164199336814e-02 9.995822804611856002e-03 4.960321480277861128e-01
-2.810366774881798563e-02 3.863670906439927583e-02 4.203059926058976270e-01
-2.762724204251482130e-02 4.432385773253894046e-02 4.207834769660033780e-01
2.616475296753420499e-02 -1.689905201023164660e-02 4.381160812752808442e-01
3.380971251060951172e-02 2.084616478636236447e-02 4.398464380765227943e-01
4.050221574557241050e-02 6.776271267992646508e-02 4.730544449039810750e-01
5.021156940737177277e-02 1.513119080110628904e-03 4.551159391629681639e-01
2.822104702005559518e-02 7.154293506972024628e-04 4.374940014399350541e-01
5.605014333885662697e-02 3.786442754416520506e-02 4.779446597653021489e-01
1.969512028935069270e-02 4.432884995558787622e-02 4.290304719377997511e-01
5.632972568960249726e-02 -1.216869889221362973e-03 4.976088552158755562e-01
5.177282669230146711e-02 3.925464892595206812e-02 4.565396980466003285e-01
3.407825619331947969e-02 5.245934787177581465e-02 4.407644960445767368e-01
2.327537078464741310e-02 5.347440683251391408e-03 4.355522315717735848e-01
5.109008274635739449e-02 2.124882358702288171e-02 4.975076137149361255e-01
4.975727661935310658e-02 4.046192676706463626e-02 5.039991867584420193e-01
-1.103653148866732582e-02 3.975502303578620777e-02 4.110015205464269128e-01
1.761847707140394180e-03 6.036788626081300568e-02 4.234855298264070811e-01
8.815356021191766978e-03 3.177386605961227822e-02 4.156293325985904730e-01
5.500318377655552537e-02 2.781239203351748568e-02 4.898720577685302668e-01
5.029750080670619683e-02 3.264223052537614661e-02 5.022605174701851860e-01
5.046459316222605407e-02 5.446937326507663574e-02 4.869959890482540854e-01
-2.525481796916346708e-02 1.552968771747056075e-02 4.269152646506478299e-01
-1.789773765117942238e-03 -9.585327650087528337e-03 4.322867467598540681e-01
3.842799097259685243e-02 6.832250814364626557e-02 4.691441674399465800e-01
-7.029791736980314960e-03 -4.348903764061945974e-03 4.311883436986795881e-01
2.097072313200592369e-02 7.489691377539821164e-03 4.345721869160776296e-01
2.148146980592186006e-02 -3.343487654462941328e-03 4.347558646271942329e-01
-2.766736191912287299e-02 8.860784325387794855e-03 4.320260873076823827e-01
5.642478341240774603e-02 1.769050118211363404e-02 4.681253306662682689e-01
5.529482101110322345e-02 -1.233704875823529376e-02 4.746547416964373989e-01
5.225039783067626092e-02 5.496641376108079430e-02 4.632640259610442124e-01
-2.772127295894206978e-02 4.379185011727274729e-02 4.208624334489530772e-01
2.383049855783549165e-02 6.472309860658996550e-02 4.473375074110323979e-01
5.320340123581283887e-02 -1.464755997656065623e-02 4.696519889824278815e-01
5.683766693974599132e-02 2.000144211863361457e-02 4.743627562248068918e-01
5.709851984660400948e-02 2.547524723259359750e-03 4.830144209072173012e-01
-1.873384143230958504e-02 2.768542146233022097e-02 4.176703254137130172e-01
-3.174937174311801696e-02 1.608924409352208845e-02 4.303697988640489136e-01
-4.960791117159760177e-03 4.143564952407617630e-02 4.098139869823522741e-01
4.323124799884262015e-02 6.778863692109504679e-02 4.680030926001160774e-01
4.568566577459259176e-02 2.894202168319857590e-02 4.491857800690261526e-01
-3.165429836268139618e-02 2.554850911489045875e-02 4.258665746201856228e-01
4.813769746313173448e-03 4.942322013211774417e-02 4.160835578179045702e-01
1.238153133337491565e-02 2.769725869106073532e-02 4.231120858433549126e-01
4.205415298833262150e-02 -1.908152347000276194e-02 4.498480276967495861e-01
5.072289679813472146e-02 5.568934401098610265e-02 4.811668807968499384e-01
8.144584536695181204e-03 1.136793194992961366e-02 4.279192874281301795e-01
4.968687900543541230e-02 2.237499551341363274e-02 5.012090965731262893e-01
4.505463249665903058e-02 1.722114903554253923e-02 4.482160504454055783e-01
-4.011743953709631660e-02 3.074535942467899931e-03 4.459583445429596837e-01
4.682729848010445950e-02 2.014265336015199845e-02 5.087562455307570453e-01
4.794986962591368806e-02 -1.806603953221033732e-02 4.594947666390371555e-01
-3.085072605603422433e-02 1.287200663982538719e-02 4.321611134034053503e-01
4.789928965762196497e-03 3.510429555471730051e-02 4.090030060994364058e-01
4.801059287582095519e-02 4.011876764961249536e-02 5.071729382509780892e-01
-3.175175078830356351e-02 1.741433245396044674e-02 4.294378890741962773e-01
4.561023681442177846e-02 5.201911231611829750e-02 5.031228165554861853e-01
2.724520177368319751e-02 1.833888875614150468e-02 4.361043515895965395e-01
4.239386732433703120e-02 6.496171466140086836e-02 4.802668978350594919e-01
3.509922504209055105e-02 5.622651537168734531e-02 4.423790439224652982e-01
5.077590406540934825e-02 1.636934860061109442e-02 4.980708890588416704e-01
-1.974552267160418345e-02 1.305053940061157852e-02 4.254850219936606726e-01
5.036612357550880603e-02 1.038157624418610363e-02 4.535603150382473969e-01
5.129910628660797750e-02 4.867082824153987769e-02 4.946731974942814025e-01
5.703488268716379317e-02 -4.832161745178939136e-04 4.773270418082228295e-01
4.333646020305384136e-03 1.834909612135602816e-02 4.213734936180957291e-01
9.428906337865609541e-03 -1.017257296413744821e-02 4.333133935318035923e-01
4.517107388166576726e-02 5.547724996879364878e-02 4.955992254359600779e-01
9.541239487978905517e-03 -4.207354468156825761e-03 4.320940559509918732e-01
4.412936423203313308e-02 5.065721727864075374e-02 5.090204873097146088e-01
-1.612915520421887711e-02 5.332792079357449692e-03 4.281224410778971534e-01
5.584207831970096347e-02 -8.342125147534408883e-03 4.747735833069278155e-01
2.394800463670389984e-02 -2.304708708484199883e-02 4.384272626738346945e-01
-1.864786955662946916e-02 -3.572758671130491989e-03 4.328756500131827889e-01
4.934493754685930628e-02 6.106720101721406502e-02 4.725783688260949966e-01
5.006677763952886717e-02 4.457647471314499926e-02 4.545091153075653811e-01
-4.025475257240075655e-02 2.889575995209294444e-03 4.466245332611997743e-01
7.187845072619456453e-04 2.311477265029024744e-02 4.129992317952989600e-01
4.404561070035249021e-02 6.338122821381454719e-02 4.822328319280325126e-01
4.810843110504443854e-02 2.500749571388753700e-02 5.058205291590891495e-01
4.492140842461446459e-02 -2.332656925332641379e-02 4.563821384434722517e-01
4.014233367919861628e-02 5.156287402037299655e-02 5.086980094799986585e-01
2.988433033089545054e-02 6.253643802818152631e-02 4.421129051591717318e-01
4.261335794245781766e-02 6.136610145728214893e-02 4.496877017030854184e-01
5.662943017140475294e-02 -6.170985399318009573e-03 4.768486518316902290e-01
5.585066125030546669e-02 -1.368610729886567123e-02 4.776615651701178744e-01
3.208083767171393541e-02 2.363316431493341432e-02 4.389595424976972526e-01
1.745368679163252987e-02 -6.674475971217333145e-03 4.338625325503315810e-01
-7.650333446084226462e-03 5.067703882722262437e-02 4.150269898353071141e-01
-2.115324493144547791e-02 4.736171894453646697e-02 4.180642378861655351e-01
-1.577180527568055116e-02 4.304902473216334381e-03 4.287743947419897506e-01
4.779737879692665115e-02 -2.248853160428697373e-02 4.607381046270866976e-01
5.784141805618429888e-02 -1.050042562688408357e-02 5.129793542695633146e-01
3.717499914018122797e-02 -1.828660836393972838e-02 4.446499012202605461e-01
1.744882139241980129e-02 5.503246695689090889e-02 4.287383017562524934e-01
-5.655331297155476861e-03 2.021054460196418379e-02 4.157064357823171408e-01
5.206295589684763886e-02 -1.750010597834068468e-02 4.683036843050425446e-01
5.955186410887985428e-03 2.357682242273007739e-02 4.176374078028316505e-01
-2.263830040011057324e-02 2.150415863311987141e-02 4.222438937173027540e-01
4.745145363018322959e-02 2.072505824821325657e-02 4.505811180902487001e-01
2.005582338642514229e-02 -6.428659721544781151e-03 4.345148881779925532e-01
5.348331704312148105e-02 5.989591836442826299e-03 4.980752308574868392e-01
4.676117982105748583e-02 4.907358424695135862e-02 5.061596963773408175e-01
3.663313008272220395e-02 6.274380598757128835e-02 4.460525612438360765e-01
4.891057571193972719e-02 2.593481878892288719e-03 5.149079112001598846e-01
4.709038058870863158e-02 -7.742142861147140176e-03 4.540332422641235599e-01
4.515855134122290226e-02 6.761738986787206585e-02 4.652065101268274550e-01
5.698714925411563909e-02 2.640053025992254374e-02 4.796951489825682646e-01
-4.047776251337530107e-03 3.487744610526769679e-02 4.070450655881626134e-01
4.446523008397355869e-02 -1.750421937640107145e-02 4.527741638603394736e-01
-2.962331453038076490e-02 2.748500087421005059e-02 4.236810876542394522e-01
4.280431592632596982e-02 3.527920411926448868e-02 4.469206931726873444e-01
2.303579745659095276e-02 4.382203781465802972e-02 4.317663590459241418e-01
-3.593715500942394614e-02 1.656239913348247703e-02 4.369785228482431227e-01
3.925873889364112079e-02 7.135353509707417774e-02 4.588664528153227340e-01
-1.158471396471452350e-02 3.557233799279060915e-02 4.116641584253299957e-01
2.300113794034585463e-02 4.426777801338332291e-02 4.317206385020935788e-01
3.785308052869908874e-02 -8.741280429935499238e-03 4.436707441310770994e-01
5.696464614922440439e-02 6.193127962114131080e-03 4.786977690787797002e-01
5.434226474881987540e-02 4.760209297544840124e-02 4.675233957961923981e-01
4.952983382658582290e-02 4.888891552733068413e-02 4.997582135501499878e-01
2.190552913074301014e-02 -1.757412040040613049e-02 4.369692512374352966e-01
5.635393137231391181e-02 2.873137205392461285e-02 4.845458590867879889e-01
2.468513509571876319e-02 1.586622744711197949e-02 4.347193451201146197e-01
-2.418391181553276176e-02 2.719058718088480930e-02 4.205407985435768436e-01
2.103386089141484616e-02 -9.628185647907634703e-03 4.352169701565495319e-01
5.211437377613849231e-02 2.442986017154213235e-02 4.552653730358250939e-01
4.136049960340097698e-02 6.802365971195305228e-02 4.669728502110602752e-01
3.885848085435614913e-02 -2.254639179921576891e-02 4.475089610169452614e-01
4.985975755949197813e-02 1.404650634806296197e-03 4.544190089041632574e-01
-2.236596526694047821e-02 3.143444576239297350e-02 4.179578194402970848e-01
7.276473064985962240e-03 -5.611177725377166498e-03 4.319386327623663813e-01
3.134986500774086110e-02 -2.007674923416081017e-02 4.408995236203942514e-01
5.476046074356417936e-02 3.846186859474848285e-02 4.625247227101429437e-01
4.302197856722124458e-02 5.143757363757664458e-02 4.476814806898616883e-01
4.191368063398372146e-02 5.606563445225697107e-02 4.477943611065610674e-01
2.369525110664986306e-02 5.155068224477173805e-02 4.324568452123697671e-01
-3.236402119125113275e-02 1.475776202325321945e-02 4.317344545630278363e-01
2.082198254663481657e-02 -2.290734974592793793e-02 4.374680168292315319e-01
-1.166751794074222942e-02 2.126545175231620705e-02 4.181475106689504506e-01
-1.371528239059681235e-02 1.744855346501043153e-02 4.211835820844959111e-01
3.933495624019730380e-02 3.216926129727118097e-03 4.442329588951375308e-01
-3.666518505969768721e-02 2.182024104779846374e-02 4.338903615579859929e-01
4.752866317866676071e-02 5.232925865077013572e-02 4.994072915895736986e-01
5.349178368710125198e-02 4.806901800824156523e-02 4.851584283851722579e-01
4.237939031281524188e-02 6.174385390185546663e-02 4.496080897267206722e-01
4.975894415977278468e-02 5.465562530425679966e-02 4.554928482707708004e-01
1.554804061406792060e-02 -1.238015156570489855e-02 4.346825062898421743e-01
-5.614087987627058504e-03 -8.640210432609122734e-03 4.324696098310758519e-01
-1.396492873469692975e-02 3.515059552376838259e-02 4.128556069947897367e-01
4.918457512290356354e-02 5.318801161659693355e-02 4.542146184745414761e-01
4.355743385251316380e-02 -2.099460368510368963e-02 4.532387944510984368e-01
4.332090460528726511e-02 -1.242873875249520497e-02 4.498792947820953736e-01
3.976033473277928998e-02 -5.510417087231890207e-04 4.447786770060506711e-01
2.314233550021023780e-02 1.302524226890200768e-02 4.343186812965942334e-01
4.212598574167659982e-02 7.693626845286448759e-03 4.460285582999111709e-01
5.592186119813590678e-02 -4.400284300986320035e-03 4.723656708152230710e-01
-4.097876235587236127e-02 2.605067650223293584e-03 4.426817716383435464e-01
1.897392309779321468e-02 3.824651352629899331e-02 4.288773684671695063e-01
4.711014960487852621e-02 5.358871320617089595e-02 4.977831424966044915e-01
5.134943703015823480e-02 2.023841722262659237e-02 4.968594472566971176e-01
2.923685639092373639e-02 6.297616356424073913e-02 4.420709059289004705e-01
2.512545451974906429e-03 2.145585178751275787e-02 4.158383154231454215e-01
4.753898745524759439e-02 6.436692751873340779e-02 4.618468287319442700e-01
1.063133067441273533e-02 4.085219914851265927e-02 4.192865478770801957e-01
1.350025550751862355e-02 5.777404803875259287e-02 4.278593934862792159e-01
5.662142899823970760e-02 1.436483124450330280e-02 4.727597602638884400e-01
3.845237800801344641e-02 5.498735337481964330e-02 4.447171946553133415e-01
2.067776606472128062e-02 6.272172347754728650e-02 4.425268008182869361e-01
6.707178718667798287e-03 -2.039010156441037336e-02 4.376572598504980816e-01
5.051165663553242730e-02 4.135869134553935011e-02 5.023918084142220408e-01
-2.433817733142298184e-02 3.705307359566249736e-02 4.170544438740557691e-01
1.589241222602086681e-02 4.400492297189486507e-02 4.254670345594466219e-01
5.303709710437225222e-02 3.396245423364128990e-02 4.965358656250782876e-01
4.545221896947376078e-02 -2.262667837653187242e-02 4.567338689708276278e-01
3.665520104780344013e-02 5.232956346648039159e-02 4.426629332706372710e-01
5.597513565464175278e-02 7.568738118912221417e-03 4.695454634086517753e-01
1.698859020412803525e-02 4.375239061310028099e-02 4.264662845899250820e-01
4.523605780515842917e-02 6.549495290538251413e-02 4.775902856298418486e-01
4.959092164621638904e-02 5.922313519364263285e-02 4.596398914673742175e-01
5.402992392357321150e-02 4.351522447236379904e-02 4.905407469658001895e-01
5.409544448285640711e-02 3.646176869032539958e-02 4.597187559739156493e-01
1.264176453317926267e-03 5.892691173680113942e-02 4.214717752952290564e-01
4.393805053485166229e-02 5.002533757959988503e-02 4.482484722853398718e-01
8.980048941472681956e-03 3.784567684751525413e-02 4.172402441550731034e-01
4.542844754268293705e-02 6.159555394389577138e-02 4.528008871739676033e-01
5.708869466100666840e-02 3.142812976568783168e-02 4.741326012576626558e-01
2.234922964654204383e-02 6.209726284569014321e-02 4.408788277678633571e-01
-2.172783238999577426e-02 9.203706614369807498e-03 4.283775866899193763e-01
5.189380686458641007e-02 8.485818647818966012e-03 4.996678943967449160e-01
5.371424382698709171e-02 2.422256304135997351e-02 4.918601509947039263e-01
1.068329414950271172e-02 5.960831286222392084e-02 4.275066676550511313e-01
-1.034875445710145385e-02 4.755016747918565378e-02 4.123479468880152377e-01
5.065314119744552396e-02 6.843929372056239448e-03 4.546291060779511506e-01
-6.330478183391931475e-04 5.067276062586614088e-02 4.136155394478343572e-01
-3.811191822874536537e-04 5.086265208163116142e-02 4.138302084301387351e-01
4.536444429561627828e-02 4.149377112947722629e-02 4.493215915771865965e-01
4.260276399071514369e-02 6.761980460368546830e-02 4.562405747848087278e-01
2.100742782400282643e-02 3.628163843991592807e-02 4.305486990727804275e-01
5.216366371441802374e-02 -1.545310419949843736e-02 4.677301433678278664e-01
5.462571819891874625e-02 2.456225105805596304e-03 5.000094655671317723e-01
-8.336471049381405027e-03 4.721113719960996769e-02 4.119201337174581701e-01
-1.781116758078612680e-02 3.013170168139274810e-02 4.161424187240572170e-01
1.986841093869649508e-02 6.200688640674831970e-02 4.410579415414159765e-01
1.724411882365747481e-02 5.229274862388708783e-02 4.277591302690046948e-01
-1.220183368472261241e-02 8.609384264069163545e-03 4.256443213164193273e-01
1.829318004094734884e-02 2.256918808102392759e-02 4.296608644194648829e-01
5.318128780733026584e-02 1.059046528974130243e-02 4.589553957613322632e-01
1.244808182308420122e-02 4.350807205362534208e-02 4.219121189728333166e-01
5.247880406231297812e-02 1.852296952942517061e-02 4.939393241429117509e-01
-1.031239795614577459e-02 5.171033377436414641e-02 4.172505417933334293e-01
5.165811608544828432e-02 -1.044040058597901430e-02 4.647392808070077153e-01
1.556300170739086455e-02 6.219353986361365189e-02 4.421342727047872234e-01
3.999694432690688306e-02 9.358141634475984280e-03 4.442470811228510508e-01
2.701532225031988248e-03 -3.060521549247452282e-03 4.311378453223743690e-01
-1.989861483276387025e-02 4.418447166330724540e-02 4.147301807502608573e-01
4.043633005152832971e-02 -6.753193300299635202e-03 4.458911035565321646e-01
5.658051760463445740e-02 -5.771625569290283163e-03 4.762749551796544578e-01
5.414291232040097102e-02 3.929417141006139036e-02 4.930245416721675267e-01
5.101794305170466448e-02 5.034862051586046910e-02 4.931077669470251279e-01
5.665047149863292747e-02 1.338131775757941087e-02 4.754162201294092061e-01
1.454739189746253811e-02 4.530738618264092132e-02 4.244019203779234028e-01
2.202847830902596518e-02 5.457940230668377295e-03 4.351629162291594244e-01
2.698644211662669032e-02 2.540714934546785264e-02 4.356591957492839118e-01
3.796606446209598029e-02 2.157743810978916994e-03 4.432076001056715620e-01
4.764942828869034308e-02 6.372955684953073019e-02 4.744102704691816053e-01
-2.475547919608557870e-02 3.820068690821877555e-02 4.171764162613604277e-01
2.981406192297935548e-02 5.667935139013868112e-02 4.384945256229183519e-01
5.789078614570671716e-02 -3.010396100059504337e-03 4.926711635120301080e-01
5.720929864426434891e-02 2.579083223376821971e-02 4.759337902557887467e-01
5.028956559449390684e-02 3.342979830289335985e-02 5.024326848035752802e-01
-2.034126871923558344e-02 -2.815972513394052884e-03 4.330239307472015797e-01
5.511655789103363928e-02 2.451025318519721788e-02 4.616626135119682450e-01
5.654478693055037947e-02 -1.477121827798714634e-03 4.969005324499852772e-01
5.655095273523897542e-02 3.558593367418966258e-02 4.686168741808878213e-01
5.420731079141295761e-02 3.787501143546787713e-02 4.930860369493136330e-01
4.762971091804023283e-02 1.298111903127461067e-03 5.179539264907868645e-01
2.353868647900189334e-02 3.933983077232047765e-02 4.325062176256240232e-01
4.668896345080256888e-02 5.245923334023731149e-02 4.998013059323819229e-01
-2.703217378124156411e-02 7.250869991160092433e-03 4.320457040764021928e-01
5.047665739239292487e-02 5.986439183609447434e-02 4.691086571795103355e-01
-6.245838147072062078e-03 4.539291723667077810e-02 4.111201031506883097e-01
5.251989194034399622e-02 7.126905341464734311e-03 4.583785966199825368e-01
2.792162853977363593e-02 1.089501547055696359e-04 4.373749641778274522e-01
1.971571204089587331e-02 -2.237494445024029374e-02 4.372939606456845429e-01
5.333844892562476098e-02 5.126802449166731335e-02 4.657061700085752265e-01
-5.561182198093762331e-03 5.064076021915558251e-02 4.140855957632945117e-01
-1.155464336809765985e-02 3.226769386541253337e-02 4.126974499858991896e-01
4.042916946542592094e-02 7.120126673816096208e-02 4.574035538128445877e-01
5.644407674488980536e-02 2.227557378241076802e-02 4.652933607721459475e-01
8.341610259550059567e-03 4.554015692223885997e-02 4.175245005672648113e-01
3.786976820466099458e-02 3.775503409745956107e-02 4.431270647676988084e-01
4.694080384795790151e-02 4.346960549647851946e-02 4.511171088447059052e-01
2.438413376842280683e-02 -7.058851380804731165e-03 4.358206940092146375e-01
5.609155565790761855e-02 1.633860973095034239e-02 4.824216026989477379e-01
5.478949735197497645e-02 1.673215544584979661e-02 4.873855205040446559e-01
3.280358792038238526e-03 4.211883098630716388e-02 4.116598612275238489e-01
5.275484956724559027e-02 2.634158971099991378e-02 4.948832512908559744e-01
2.903892795981516395e-02 5.798025143884922433e-02 4.388324717570015188e-01
5.259151203278200626e-02 2.326069767043663361e-02 4.941384892625173553e-01
5.333933710978373821e-02 4.298384850467707602e-02 4.949846868674218081e-01
5.661335223682750079e-02 1.339629040745888774e-02 4.728379233779611002e-01
4.490093251036798849e-02 3.566910670229864189e-02 5.127091203116941331e-01
4.424162808993738899e-02 3.900442083471472587e-02 5.134809579706554050e-01
3.574617933820350285e-02 6.909771167227600486e-02 4.515173414944945174e-01
5.335645034669225101e-02 1.753119490049911966e-02 4.579167133584475247e-01
5.693283687329479814e-02 2.803507641327033367e-02 4.696402040115575383e-01
5.695751566375892999e-02 8.909408837462790692e-04 4.774166517511974073e-01
5.628633740196092167e-02 1.381427190712362571e-02 4.811846652429040416e-01
5.565250470488852103e-02 3.830235908531460370e-02 4.835191459931819091e-01
2.564736503859272113e-02 5.919898455773212748e-02 4.374708506643660844e-01
-3.713677560836134428e-02 1.936404889789102718e-02 4.371336686242899838e-01
3.480593662166144714e-02 -2.551660475880436485e-02 4.455913392428420550e-01
5.284005059330609128e-02 2.403065207212575979e-02 4.938103014551623038e-01
5.440195121473741235e-02 2.682569395373291671e-02 4.600546801430441812e-01
-6.416388015603964601e-03 4.930075898487635763e-03 4.276185519406469071e-01
5.687965220759293172e-02 3.368963432073779352e-02 4.756830790782972662e-01
4.391569014410338229e-02 4.651387373192648889e-02 4.481177072908664738e-01
5.800684218341160825e-02 -4.594455464567928291e-03 4.922154820967741262e-01
2.390107500126796569e-02 2.353498170661278560e-02 4.338423606077652650e-01
4.703706808521786187e-02 -1.671562208801602792e-02 4.567194462654564080e-01
2.352714166399511031e-02 6.424233927489380117e-04 4.356591095641975109e-01
4.634294895957037641e-02 5.417314646647115872e-02 4.513867411574692956e-01
4.229710863751612315e-02 5.230987225477577718e-02 4.472820554904816670e-01
1.002967434594081997e-02 4.533089998778355029e-02 4.195436530819130483e-01
-2.345548583953855487e-02 4.144520981665365117e-02 4.160934565975873412e-01
3.961769555916896902e-04 3.605915874510438185e-02 4.061598654787521578e-01
5.656912144858292080e-02 1.236923584547165549e-02 4.796785666466311659e-01
5.687066150198352016e-02 4.488109712667210510e-03 4.833204349576812886e-01
5.056081281320434773e-02 4.979759071746215487e-02 4.954536359172095894e-01
6.577702393970198853e-03 -1.996395743813300649e-02 4.375187395271705748e-01
1.908614782790003447e-02 4.480018630622627229e-02 4.285795422654281039e-01
-1.779776186631671503e-02 3.784238649991419207e-02 4.136661380799815935e-01
-1.719279829024684264e-02 2.469362987807902435e-02 4.185376543934417048e-01
5.541841418767751160e-02 -1.248452236517894921e-02 4.753259009456399231e-01
-2.104166439158301760e-02 4.877318186654087950e-02 4.205708541467733652e-01
3.614954130489419354e-02 6.423733285238349133e-02 4.463921556821201508e-01
4.785415180908466487e-02 -1.476790445903572273e-02 4.579951178652670873e-01
2.810071625234288745e-02 6.196624017251511907e-02 4.410306891209943569e-01
5.785557875004489203e-03 2.472108546380327385e-02 4.163719418231731639e-01
-1.378185934429887113e-02 7.234647776980244333e-03 4.266385362762898925e-01
-3.474797778255937081e-02 8.903719388816736663e-03 4.374736907769810612e-01
5.566077241898976374e-02 1.345858076746936707e-02 4.651565620302394177e-01
4.352481712819441378e-02 2.540881878407311861e-02 4.471053342734804814e-01
-4.972723652333374891e-03 7.139671430234932961e-03 4.264681828116160811e-01
2.784230248396822247e-02 -1.455036569257957962e-02 4.381486231627508832e-01
-2.397145712390838859e-02 4.458672652566846029e-02 4.175883096257747562e-01
2.992989974404932849e-02 -1.398482332645166991e-02 4.388940052899137356e-01
2.242967728112296374e-02 3.797655702116512627e-02 4.316972832151745321e-01
1.073094390908862009e-02 2.698285747531076195e-02 4.217127270394722682e-01
-2.191260104372767456e-02 7.565162870724226503e-03 4.291403264158261122e-01
4.525103391021611382e-02 5.985352587339996117e-02 4.872777077860894201e-01
1.206017716122347733e-02 4.110930346448343764e-02 4.215142498527603143e-01
-2.236407134424365367e-02 2.613428411215679148e-02 4.200730426025735542e-01
2.819248178296678703e-02 2.617960953107880892e-02 4.364684123758456602e-01
4.441936539143506377e-03 5.103456219245997363e-03 4.299341441531152608e-01
-6.584240607222863022e-03 3.613023804109113946e-02 4.082550235901478142e-01
4.088471618276111330e-02 9.599922570529530186e-03 4.449583990262628852e-01
5.161582747925368142e-02 1.941283124061436716e-02 4.549449220557124640e-01
2.213545149324666964e-02 -3.531440690103476807e-04 4.350863887919627637e-01
2.844211044828485677e-02 4.791847634453312577e-02 4.360695704158216723e-01
1.727714015908092537e-02 1.586077597767642650e-02 4.308184619460565523e-01
5.101561824978324833e-02 -2.405707592128009369e-03 5.162652063570166705e-01
-3.416003995232922558e-02 2.146541026421744380e-02 4.295735406723561467e-01
4.947106713236912312e-02 5.948694769779226676e-02 4.597246167734106992e-01
-2.676110799786312819e-02 1.931835103008127524e-02 4.252601082118561138e-01
3.480335097088901875e-02 5.455231959777476214e-02 4.416708354230063915e-01
2.905925139740696272e-02 6.472059921187291176e-02 4.444424504440645518e-01
4.998650875373759211e-02 -8.226498881043077527e-03 4.597784425605266345e-01
4.863174140764918441e-02 -2.100705458611868900e-02 4.619771215202717607e-01
4.368594354373461774e-02 6.201480492765652774e-02 4.510624375315413492e-01
5.085872512174467036e-02 2.253103458037627321e-02 4.981536433188449298e-01
5.647113028760036152e-02 1.987578549798765110e-02 4.668837265960111838e-01
8.731858959624172120e-03 4.790974120726110980e-02 4.188236273706820167e-01
5.031430037249265408e-02 4.266303017529902986e-02 4.547967157832085161e-01
5.546870585525762176e-02 3.954209138208761298e-02 4.831116136853408904e-01
4.874347378780991003e-02 2.604991871737538309e-02 4.519175641044619884e-01
-4.941851518808094285e-03 -7.124468719633196036e-03 4.318654538900626449e-01
5.120469320836290583e-02 -3.623896366750008549e-03 4.598003334234394557e-01
5.506034156632237664e-02 4.355774711629854801e-02 4.656069192882761332e-01
