2.182433095606416823e-02 2.662930330655784855e-02 4.325420697432828532e-01
5.491361214977619892e-02 4.257438104546885926e-02 4.652979724791144744e-01
-9.219697492584057750e-04 5.011625936457481806e-02 4.142067771718120905e-01
5.359895347579256980e-02 -1.719219123341013400e-02 4.718680322232695068e-01
-3.299185880405135218e-02 2.232932607892352400e-02 4.281095745195144242e-01
-2.076771008239104363e-02 3.226053743860902295e-02 4.171839014985547212e-01
2.963923270247747002e-02 -4.232107714439097869e-03 4.380231668390303645e-01
1.401247736499339376e-02 2.962264307844893543e-02 4.252745551556119108e-01
1.567382366240739101e-03 2.160626478652980659e-02 4.162684465132791001e-01
4.621154305060833078e-02 5.129071251005361959e-02 5.043102021467270601e-01
2.539949633873267096e-02 6.341172369261070807e-02 4.411463922489907707e-01
8.852278460255652917e-03 -1.048833010607265470e-02 4.334237861277709380e-01
5.330908604642787402e-02 5.105884236736450005e-02 4.677909175973606337e-01
5.630752981713790795e-02 1.365516799661133443e-02 4.805594461605035561e-01
5.175372425209272959e-02 2.022007087420890289e-02 4.553488375610014738e-01
3.047267598449423381e-02 2.185706454471744026e-02 4.383193988829013898e-01
5.626177719543134365e-02 3.549687750538570163e-02 4.680265592791010842e-01
3.774839877287505113e-02 4.788775457057260765e-02 4.437534739683093310e-01
4.642341343762176192e-02 5.464572982260819389e-02 4.520881339350729111e-01
3.372476529890683361e-02 5.142077332329234030e-02 4.409904661703347717e-01
2.343361633338610778e-02 5.616317395183781369e-02 4.338088853045589111e-01
5.333539462515891894e-02 2.277080403862784611e-02 4.920170890455479729e-01
-3.847364163717034539e-03 3.837478617625727367e-02 4.086093432552488358e-01
1.136677521181702656e-02 4.760233885145610799e-02 4.226159701691571957e-01
-3.326034039051818658e-02 1.213583057232741486e-02 4.346495115661555553e-01
4.654560379586095836e-02 2.719233275293742730e-02 4.502978090860906280e-01
-1.169745487571012023e-03 5.197254092960077593e-02 4.160395372525601543e-01
-1.289175941633331941e-02 4.156653049587714921e-02 4.126258423835698630e-01
-2.175819546844796198e-02 4.611751969880362179e-02 4.170773964986115301e-01
-3.270586805560918991e-02 7.084530837371604689e-03 4.361106290294562982e-01
5.321855195563336693e-02 9.552940006482027804e-03 4.950223324813310954e-01
-1.644577240003471021e-03 4.211598973287573877e-02 4.107386961379582146e-01
-5.068328714970525908e-03 3.160451151177391671e-02 4.084400788113018987e-01
5.477849883678944515e-02 4.361132095573577033e-02 4.800785536747868565e-01
4.198331136556636423e-02 6.013739630918368134e-02 4.493302296756964687e-01
2.886016014861024145e-02 4.861769736293809069e-02 4.370853388055875866e-01
-3.141262506475463873e-02 3.553910539693361237e-02 4.225259914797412919e-01
4.445840954371060166e-02 4.413753474258563098e-02 5.122957308693976142e-01
4.755666656966057310e-02 6.079279783610730403e-02 4.807985468085290148e-01
1.178214560578132175e-02 9.535714044863618719e-03 4.307952840577730091e-01
-3.597718865212401473e-02 2.407002136508174656e-02 4.312425520441982019e-01
4.219842844517481678e-02 7.874301188729143641e-03 4.463396445765004938e-01
1.743848915949020376e-02 1.574972796436096764e-03 4.338729772372240112e-01
3.603465514483197157e-02 6.626638323874188552e-02 4.491397807574033507e-01
2.302475222556925327e-02 2.391495793371665318e-02 4.336939216429551158e-01
3.353183542924748073e-02 5.477769932376837236e-02 4.413805327457947514e-01
3.193350883784048383e-02 2.475386898115541998e-03 4.394169402594153562e-01
5.403342867813480666e-02 4.612124219403976322e-02 4.825642624026459937e-01
4.378729685871560889e-02 5.567616906397217930e-02 4.961011659269225493e-01
5.340339483428942907e-02 4.360977714986675330e-02 4.598424858748821897e-01
-2.260828741893782662e-02 1.824062331976120110e-02 4.243066076899441041e-01
3.058716971875164586e-02 2.979950328136637266e-02 4.385657665822087492e-01
5.363849491619666898e-02 -1.302241196663996188e-02 4.700197688283040409e-01
5.211961816508335621e-02 6.299353350816667974e-03 4.581682890000745578e-01
4.096671885847328470e-02 2.463130503260416854e-02 4.452110969618547354e-01
3.935404185717653047e-02 -2.207755446439510494e-02 4.477778190790607793e-01
-2.093035518327700586e-02 4.080682089816205921e-02 4.148088503811834249e-01
4.539706650826801082e-02 5.164213937178359359e-02 5.046436552127373520e-01
5.567515732469429518e-02 3.483462194312379745e-02 4.866770663937177721e-01
-4.200762838970357842e-03 1.060666406045274526e-02 4.248538419917854969e-01
4.167421349134162872e-02 6.745843389627564912e-02 4.541701615001901837e-01
5.267154966573293906e-02 2.252985211230894638e-02 4.935232477158719711e-01
4.304560986945222406e-02 5.603057653471995442e-02 4.491958119642580627e-01
-1.227757465351813834e-02 2.720083963818452702e-02 4.157883573785191578e-01
-1.627354386666882450e-03 -1.100080620948160059e-02 4.328208008578476873e-01
5.563631186281609714e-02 -1.637319882605374997e-04 4.994776503359861231e-01
5.461074018287111892e-02 4.659611856985637623e-02 4.742129784326473696e-01
-1.365421711530648632e-02 -2.224098706561514031e-03 4.314907105026498102e-01
2.785291582292861653e-02 3.310735578293080850e-02 4.367732491498502734e-01
4.702933057709370035e-02 2.976401305835810196e-02 5.087778571892130897e-01
3.127282855429831809e-02 2.212595119174571440e-02 4.388195244923938088e-01
5.724449784084014586e-02 1.781712961810706349e-03 4.797733094778615093e-01
5.037995791750624064e-02 2.177053020331287322e-02 4.992055121601992052e-01
4.964267510540033151e-02 1.998478159834438800e-02 4.531860490705239553e-01
4.232451138916590305e-02 -1.895870570961800602e-02 4.503278577731416044e-01
-7.707398017742977947e-03 -1.482642003981107445e-02 4.345019721522330736e-01
3.936782711798392231e-02 1.761887738333737033e-02 4.439459780596132776e-01
5.700970170466057585e-02 2.717507106319036816e-02 4.746906123016623735e-01
5.502268202943812886e-02 4.064195780994757368e-02 4.861768793375128017e-01
5.604978803994679903e-02 1.650663091281996675e-02 4.667435167886397895e-01
3.408615913957755870e-04 -1.619261487845419581e-02 4.352335418036143433e-01
8.990499957329776970e-03 1.432443404338632452e-02 4.274868251847571132e-01
5.610023028064058809e-02 7.172563521623999058e-03 4.859951638859367762e-01
4.007218884144951587e-02 -2.189849803271731732e-02 4.483466929292533876e-01
3.655600505211353130e-02 4.925016485069168282e-02 4.429635566378989919e-01
3.425278291143415282e-02 3.981900674909704535e-02 4.411560727295199547e-01
5.456190504103565486e-02 1.693455054718966124e-02 4.614247681902836073e-01
4.458655456679910811e-02 3.097640859218393425e-02 4.486287695096377592e-01
-1.887783763049629554e-02 -2.144189813064210914e-03 4.325956826687619161e-01
5.094673558473400421e-02 4.630694660759500370e-02 4.560819010890418967e-01
3.152378686389758350e-02 1.141640434223974328e-02 4.384860860169141339e-01
-2.032817382508682671e-02 2.602636878971488488e-02 4.194767182149446438e-01
5.693992192523289475e-02 3.247978635624553662e-02 4.754404511121313459e-01
5.784928369027040468e-02 -1.143797369370971352e-02 4.855597333377559832e-01
-1.334645302788953040e-02 1.240187541134970747e-02 4.243246244873494222e-01
5.657986422353315781e-02 1.629406533428524526e-02 4.756339148744334611e-01
1.562637912165195861e-02 3.583525264084554129e-02 4.264634761999841484e-01
5.639855598822506033e-02 7.042340684107299686e-05 4.731812698200016376e-01
-3.392928178808300027e-02 3.924836634883147046e-03 4.366629110472628472e-01
5.416514691230274285e-03 3.119759635355127958e-02 4.100564127723457242e-01
7.839123876772595423e-03 4.375133567664025828e-03 4.312430798928571507e-01
5.562084537451716937e-02 2.227550878336783530e-02 4.855416760147524546e-01
5.054662817910028638e-02 4.063781016614180334e-03 5.101565211983943859e-01
4.135523977600893963e-02 1.472844563122232761e-02 4.454912021878099648e-01
4.155542888736508261e-02 6.754354369486545440e-02 4.753600860758745994e-01
4.883715553360001155e-02 6.195504010257128075e-02 4.718971199858191246e-01
-1.331212849424810024e-02 2.556676135359695762e-02 4.170977024957261969e-01
4.201114999283261237e-02 -2.138091396776129610e-02 4.513361900379246894e-01
4.482275248352531050e-02 6.768024226117778930e-02 4.661222061355121404e-01
5.529398875919953188e-02 3.432566502424652666e-02 4.635210683321337455e-01
-4.243641335429822192e-03 1.349518347497341390e-02 4.231092838995135219e-01
4.096634123786228876e-02 1.697273778717470899e-02 4.451467386365162149e-01
1.490002160926998283e-02 -1.114777294130320576e-02 4.342996940677571471e-01
4.106565636331985236e-02 3.593988284553375351e-02 4.460415146014782839e-01
3.883191874375476610e-02 6.791481308642553782e-02 4.731499140007415227e-01
3.769672020139552826e-02 1.617869328801905399e-02 4.427437376651392476e-01
-1.991602993289043658e-04 3.338660804921782244e-02 4.060792014859066490e-01
5.646238484994661744e-02 -3.050296425584408510e-03 5.058513901892464082e-01
5.141052804126786113e-02 -1.640079054955079912e-02 4.667056946777180526e-01
-2.836261135368691247e-02 7.690899547101553470e-03 4.328455661579534430e-01
4.084392804313813352e-02 6.770419982681598337e-02 4.754685341990882441e-01
6.978732468163495462e-03 1.719031207723610566e-02 4.245607980240484469e-01
4.984225461944601088e-02 6.436441790214905007e-03 5.087335991291790371e-01
2.874735021285336825e-02 2.190498807731159833e-02 4.372297976251218188e-01
-2.585129639415233160e-02 3.123121067473382667e-02 4.202683396710497066e-01
3.308944883642675472e-02 -4.572480650206173919e-03 4.401328663059140278e-01
-3.675746524709713053e-02 2.273776619920038489e-02 4.330757908353979890e-01
4.658784052081164223e-02 5.171734406274884621e-02 4.517024170496060642e-01
-1.533385887909541334e-02 2.334452757722030314e-02 4.189117632268031799e-01
4.704071939469756797e-02 1.086748417687581451e-02 5.106471890062189711e-01
-2.199793968580118775e-02 2.658090670449065468e-02 4.200536792629971927e-01
-1.602735675239150281e-03 2.072598114737674718e-02 4.165155820108287776e-01
4.995697896900746365e-02 1.343033872423353078e-02 5.011273480314244466e-01
4.993564530193399936e-02 5.332415463948166068e-02 4.912481182112972689e-01
-1.089602135649181402e-03 5.248619003528115501e-02 4.166792051848618450e-01
5.035098900430778901e-02 4.470515676505867203e-02 5.022999388532177756e-01
5.489220001309542268e-02 1.777688068452674963e-02 4.621346820012255385e-01
5.880111624608874536e-03 2.342214224702600378e-02 4.186528323293243758e-01
4.709998942448883480e-02 5.503011294261031527e-02 4.528705147812648324e-01
3.527991869804882052e-02 -2.540996607760304463e-02 4.460180470196366542e-01
4.863024390010181608e-02 5.087587664416750102e-03 5.128707076800435027e-01
5.065572259048357895e-02 1.997904830150090336e-02 4.984339086264486518e-01
6.453986676418703265e-03 1.872320953862666865e-02 4.231663083627776878e-01
3.299927738096945784e-02 -3.474375397847428103e-04 4.400208442572583478e-01
2.900248313911845191e-02 -1.217949707704848138e-02 4.381577401095543278e-01
2.638823883095584716e-02 -2.275774010141340398e-02 4.392958545531240877e-01
4.711971570271423354e-02 4.309377548799922519e-02 4.517694091255312627e-01
-2.366422012978721193e-02 2.069380337694216518e-02 4.234290785087523878e-01
5.319052674576494472e-02 -1.149504550955638034e-02 4.684163140368803324e-01
2.825982040675638352e-02 -9.213661653791596975e-03 4.374221935619939661e-01
4.739693459980154344e-02 5.429831175770274271e-02 4.530422900587449120e-01
3.977411112155224832e-02 2.475392823498892558e-02 4.441784555165033122e-01
5.586367404178255863e-02 7.854793709392309323e-03 4.870240584168353259e-01
4.670012295277596592e-02 6.483710213097038447e-03 5.146644397131422410e-01
9.058886499183335661e-03 2.742454374462465275e-02 4.204817081401759915e-01
5.465988049546221389e-02 8.112283078235955555e-03 4.641497414654194298e-01
1.743499830901171568e-02 5.202559740511749492e-02 4.286689185999177365e-01
5.428627970936944491e-02 8.551709092545605947e-03 4.923352394798184983e-01
5.659796516722508802e-02 2.101686390305290003e-03 4.747875150872923333e-01
5.076878309573173292e-02 5.389129088730375272e-02 4.869793305491059154e-01
-7.626947060845064470e-03 1.622264450995337948e-02 4.203171294209792630e-01
-1.027591451831250981e-02 1.620212908043684383e-02 4.214566281550113924e-01
1.168774244120346188e-02 4.396301433482475290e-02 4.221990612485348460e-01
-1.947496489424217075e-02 2.135556902555511491e-02 4.214463041787057107e-01
5.677785097569285067e-02 2.321612665752884053e-02 4.724168677146800555e-01
9.745256675448640479e-03 2.839096924151488996e-02 4.206324545240937018e-01
6.169731852391437295e-03 3.081403703519591114e-02 4.120523086402343993e-01
1.677098252934720868e-02 9.880756528195588917e-03 4.328980747948567576e-01
-1.931015273079677479e-03 2.571630894790451552e-02 4.098847158876890440e-01
8.150199689879369241e-03 4.830071036202975704e-02 4.194164474325041136e-01
-3.163014007352935031e-02 1.540026403818136463e-02 4.309509208731850949e-01
-3.777614331026015598e-02 3.946596652430319103e-03 4.409046179457826731e-01
5.191047376169072997e-02 5.380014305791765150e-02 4.607316904532773316e-01
5.461360658718200645e-02 4.323188785866754341e-02 4.825085003955156271e-01
-2.095240506183858320e-02 3.090481215560198988e-02 4.177595566615078804e-01
3.198728660915067107e-02 3.747455010968234884e-02 4.397666567562939499e-01
4.539958373088578969e-02 4.103780974633610551e-02 4.498269615695378310e-01
5.355186127388902873e-02 6.174852222243937434e-03 4.617555099114753481e-01
2.535576987082627590e-02 -1.526073217024884014e-02 4.375965485462088855e-01
-1.774085280213459279e-02 1.152189061147696619e-02 4.257061322879496235e-01
4.073929467851677977e-02 4.018143035376508208e-03 4.454610159719399887e-01
-8.937772780069946216e-03 3.103596666210886590e-02 4.122527229384002068e-01
-8.979502746860185125e-03 1.734465322120467765e-02 4.200470613009095744e-01
3.123206654696043111e-02 5.428776743315025938e-02 4.392288889244689298e-01
4.380406573243651736e-02 -1.548246485432406422e-02 4.514362258862130717e-01
5.601583103604700076e-02 -1.301923627201312036e-02 4.782882611087305169e-01
1.307148399820963480e-02 5.171416329424078501e-02 4.250902849418494722e-01
5.096859373357032902e-02 2.091326303502434678e-03 4.569156996645608593e-01
1.678420879627859005e-02 6.228368033426116140e-02 4.425202679101470915e-01
1.567579045329928981e-03 4.167137846952357477e-02 4.110875004932039167e-01
4.734606944745511220e-02 -2.160258512075317015e-03 4.528083705994595531e-01
3.563529281777878116e-02 -8.699037784830120773e-03 4.421563420474990957e-01
3.440823263027009866e-03 2.803475220629131869e-03 4.306486935285999129e-01
5.795278083830778665e-02 -5.012735494659421864e-03 4.902055780258373630e-01
3.231863916429746075e-02 4.711006504692703822e-02 4.398940275220164509e-01
4.844447016709415438e-02 2.676036948782391928e-02 4.520070696043275160e-01
3.335732656602310303e-02 5.184560668205272227e-02 4.407483405842260171e-01
3.770208595081373654e-02 5.597524530337700394e-02 4.448897877226445363e-01
3.612974771494087411e-02 -3.033249708248917514e-02 4.489108715826528040e-01
-2.517685820834336327e-02 3.275753513952230078e-02 4.193704149814675985e-01
-2.560634150125510114e-02 2.139244091181940685e-04 4.335019881753103266e-01
4.927310645918574206e-02 3.149434635918280101e-02 5.043166590366477964e-01
4.272985356970870896e-02 -1.932733135241375758e-02 4.511037430981458818e-01
-2.844773159652809122e-02 3.714172685379503458e-02 4.202012090464365413e-01
3.045474993796900426e-02 6.726343935258038975e-02 4.517394362591058421e-01
1.419334051316323286e-02 1.477788108193215169e-02 4.299930350242327504e-01
5.072947772418903711e-02 -1.772096149826613704e-02 4.656605548144795992e-01
4.680850155363872750e-02 4.911213116670801182e-02 5.060794994904784794e-01
8.150935235488515618e-03 -7.702754208854998424e-03 4.326772637403440980e-01
3.376766096576169079e-02 3.689142706938573074e-02 4.408999550039183202e-01
5.479413102601798924e-02 1.834315171520035925e-02 4.871744717265639180e-01
-3.351104598382546179e-02 -3.034477676971238450e-04 4.373880842238350719e-01
4.969425595967458947e-02 2.483090637924627309e-02 5.016138095280203713e-01
5.634236827571887513e-02 1.583262944535544781e-02 4.699050254378647207e-01
3.862509567116420572e-02 -1.930341298476524227e-03 4.440928193191203133e-01
5.375487185214274100e-02 3.627894050657678136e-03 4.630441515987214207e-01
5.558226117919930209e-02 4.173000714701769615e-02 4.698143377971967238e-01
-2.186218437162548017e-02 3.650460164788098261e-02 4.163615792360655932e-01
5.793158703134535653e-02 -1.072532642419122585e-02 4.866172735833594887e-01
4.840679552930022417e-02 4.535926077374381055e-02 5.055079239720183804e-01
4.930434134817250624e-02 1.483901757802896619e-02 5.019923966591913755e-01
1.090174744792312030e-02 3.460479159167320629e-02 4.209772879016167590e-01
3.691644779292284351e-02 -1.458676721731978244e-02 4.438196336883103998e-01
-4.341286565601937264e-02 1.650444481643378435e-03 4.452837227551630916e-01
3.162418100168916391e-02 1.450928185038746071e-02 4.389704737808062252e-01
5.418628024284669747e-02 2.877045748014371573e-02 4.922761661875220129e-01
1.227661873075408874e-02 2.622579282950884827e-02 4.244922759943424162e-01
4.909548787083811011e-02 -6.526711143955418910e-03 4.570564304414216905e-01
7.877527180867649470e-03 3.249866860556698944e-03 4.313889551928609678e-01
3.594793175131368729e-02 1.872827057967735645e-02 4.414270260179012917e-01
2.349339858245725124e-02 -9.024322920250528110e-03 4.359514932690101152e-01
-3.022219525085450761e-02 7.595358098406033293e-03 4.338999846595644749e-01
-2.840782276321094160e-02 1.782420453528221760e-02 4.272548839302186541e-01
-8.671377423417219767e-04 2.551914808610522209e-02 4.100920511785582923e-01
1.844927417186657467e-02 1.019095473802311864e-03 4.341664486908359266e-01
-1.163784924464975057e-02 4.951127943512555196e-02 4.146216128725938033e-01
5.073170690448942921e-02 5.841694364200486489e-02 4.626339566576721518e-01
5.668475723323409404e-02 2.126799213815883105e-02 4.721781420963498954e-01
2.627967072867277640e-02 3.270888549068565881e-02 4.356632937602402111e-01
5.858513301578040407e-03 6.044262341330473853e-02 4.278567673354561895e-01
5.401154809579542665e-02 1.034274345276281308e-02 4.616384282171770992e-01
3.343200359468505994e-02 2.911532586212963597e-02 4.403302046251031943e-01
4.194415387092861186e-02 5.060751785444517203e-02 5.106998589547514511e-01
-4.076502965079877028e-02 2.592868625907592157e-03 4.443736838906315323e-01
5.688434680933258936e-02 2.213497487402133618e-02 4.774363559451302863e-01
-1.882181519720707921e-02 4.385197191352135059e-03 4.294606839103632945e-01
5.574814433388679963e-02 4.006790943597950128e-02 4.687892735755200269e-01
5.343775559061256231e-02 4.304852072708137412e-02 4.941505742233560095e-01
9.620763346644412017e-04 -1.178903771811844713e-02 4.328602718074666122e-01
-2.493496819277584223e-02 1.615678619238871544e-02 4.265140623555079280e-01
7.598267037608327171e-04 3.141464881867238323e-02 4.067616200131992099e-01
5.230347105453889145e-02 5.364146317010289738e-03 4.589242260538562435e-01
-2.362508701575293663e-02 2.584906978917683035e-02 4.211699489356123260e-01
-5.693019842327584970e-03 3.350066766410773889e-02 4.084159773432272655e-01
4.589438212515630638e-02 6.635330040076202474e-02 4.707063158707891493e-01
1.721791395685654327e-02 4.324473721995641257e-02 4.275771505008498785e-01
-8.817839989169736631e-03 -1.296785743084670137e-03 4.306536732965417502e-01
3.801498075523821601e-02 -1.774693151805224398e-02 4.453634502972632081e-01
4.025908376533164634e-02 8.073134356370805301e-03 4.447933246144826214e-01
-4.382129817058535970e-04 3.681330216318619980e-02 4.071718468268115121e-01
1.220485747389746765e-02 2.266375928286296516e-03 4.324050629172211391e-01
5.393823989570565441e-02 2.789345082502064227e-02 4.596164769133694317e-01
4.650218226283065609e-02 6.205057464529997041e-02 4.561256658377201845e-01
3.639207278473165219e-02 -2.509355922677189432e-02 4.468163087155087587e-01
4.859255854437162514e-02 3.547795140062831587e-02 5.059987286565095221e-01
5.267579018459005863e-02 -7.479935840481376393e-03 4.656050565718529155e-01
-4.718692726000311977e-03 2.257841149355157423e-02 4.134212280088309655e-01
5.867367517924562681e-03 1.133507357248057096e-02 4.276181861965823172e-01
1.265370358151773900e-02 3.300531450688852508e-02 4.234898638900835843e-01
5.311156120785084228e-02 2.288134781271919035e-02 4.576642868745017800e-01
1.644690131775233127e-02 -1.574850069260343849e-02 4.358653657574430018e-01
4.689165302925513840e-02 1.865052917538203431e-02 5.084784527276281496e-01
1.713317510713927710e-02 4.199746623981270160e-02 4.276150376296132261e-01
5.672793958279893911e-02 -7.388103579082671603e-03 4.787183666468111110e-01
5.461686265243501787e-02 6.268088280544096419e-03 4.929221508962326470e-01
5.049477192373743456e-02 5.743491984215498558e-02 4.765402248917725569e-01
5.208680179225208540e-02 5.279924862917968753e-02 4.602400130531470457e-01
3.716566451015743816e-02 4.298772300467248314e-02 4.432116458511911605e-01
5.619044022330129534e-02 2.250803931541003194e-02 4.817897000530603768e-01
5.399794717737259331e-02 1.662704898638140902e-02 4.894302113380036290e-01
-1.316907449645441860e-02 5.231495140699450597e-02 4.195649698954387885e-01
5.399642198438921875e-02 1.357321594662130523e-02 4.606771480950439535e-01
4.980019740404162398e-02 6.099148914222229240e-02 4.686679554675436954e-01
4.002616944376937574e-02 -8.176967135367634032e-03 4.457999117780819809e-01
2.969265754802994164e-02 2.680819365938906518e-02 4.379280554411359994e-01
1.588540271195502604e-02 2.710186695296633655e-02 4.277620556816146280e-01
-1.130901421390876661e-02 -4.414266664504428068e-03 4.318157051363384902e-01
2.145577627914285052e-02 4.468683207257408835e-02 4.311838929138619436e-01
4.919248670404555157e-02 4.328645803769802514e-02 5.046277468320712334e-01
5.304453004133713456e-02 7.793273856391122814e-03 4.967047299920663850e-01
4.210697685406468438e-02 6.937348058476880408e-02 4.626546691707794645e-01
5.606743458413551012e-02 1.701450745553430375e-03 4.933868542559017856e-01
-2.588312424567290951e-02 4.597596312733241014e-02 4.214116463812258018e-01
5.337250671304413080e-02 2.066168216346966902e-02 4.912439085618474643e-01
3.658505359970021242e-02 4.517479367267916018e-02 4.428695817435712723e-01
4.694920259106576815e-02 5.187719708711114458e-02 5.009851943818357523e-01
5.279935358884621510e-02 5.255471646023229110e-02 4.782482300701034750e-01
4.639896586010529289e-02 5.316182179057912793e-02 4.517797252358735083e-01
4.857250129513269316e-02 1.337090288760016052e-02 4.518619196623477885e-01
-2.781237215844513389e-02 2.924249194027114460e-02 4.220334832594023755e-01
1.702428242278056225e-02 1.151262220402630813e-02 4.324398557931645182e-01
4.936143797237778352e-02 6.212103323178196773e-02 4.679374108468547511e-01
4.492871949970021761e-02 6.315158091666525642e-02 4.540798749631275721e-01
5.551270044637232615e-02 3.429165529315506694e-02 4.876299791061252664e-01
4.480334302309568750e-02 -2.107067464698848813e-02 4.550619277208687308e-01
5.493794185439637018e-02 3.096569932300790445e-02 4.899559227671081429e-01
5.026575963400176095e-02 3.874242203007202678e-02 5.032849076550977019e-01
-4.043901716856290393e-03 6.028762015851379247e-03 4.276079480619872641e-01
1.530240643504332705e-02 3.550719088123589773e-02 4.261220260228109069e-01
-3.579704337122845137e-02 2.397792111254361258e-02 4.310201241322059729e-01
5.740015296179670767e-02 -1.633485224195923603e-03 4.793258458467215544e-01
3.904195107468221883e-03 3.139773192471446289e-02 4.071499081567326872e-01
1.872997586983501245e-02 -1.094560831061933658e-02 4.350403445427522553e-01
-6.314127898988537366e-03 2.418428723043844833e-02 4.135107168905325925e-01
-2.742332770905092643e-02 1.670117907596459922e-02 4.275155416173165857e-01
3.214642880901066868e-02 -9.092983535135280501e-03 4.396391464074119737e-01
5.116888541233752252e-02 2.040813677995163139e-02 4.547336304142761132e-01
-5.395450349069944376e-03 -1.174433628073361970e-02 4.334547321442462353e-01
4.425411643845385268e-02 2.001632928126375818e-02 4.479266490100847209e-01
3.953106533153157714e-02 2.328172376797294982e-02 4.439984424582517630e-01
-6.156803318135935753e-03 2.108590244017649606e-02 4.157482461300072152e-01
3.156217379685338775e-02 -1.844975659131080706e-02 4.406959071899461677e-01
5.329539408413765805e-02 -2.099890330636326047e-02 4.719639736765349203e-01
5.138402596801130984e-02 -1.694676495399323468e-02 4.668581352033823184e-01
4.841787001955433906e-02 3.502267539454836584e-03 5.148161494945721062e-01
4.261042313928756903e-02 6.000636617727229255e-02 4.497903892610890519e-01
5.648192334788102592e-02 1.256022244997334440e-02 4.733934540887111964e-01
4.052927451409554099e-02 -1.794953150573217956e-02 4.475901668369053898e-01
5.088309169266121840e-02 5.275885017411192923e-02 4.884954785725620918e-01
5.203346189839878379e-03 -3.179007007861371463e-03 4.316464555068696418e-01
5.400941656400760904e-02 -1.448241800280584794e-02 4.721148274471027029e-01
-2.242466246960064628e-03 3.079803456961565170e-02 4.065369892088213644e-01
5.518005463174172759e-02 4.385990337943435069e-02 4.718911403021289197e-01
-2.499296749446227803e-02 9.506479083221580639e-03 4.301137211350640199e-01
1.678153374929478719e-02 4.778663988614494096e-02 4.277316421035639582e-01
5.113064926798581433e-02 3.602704561713640508e-02 5.010689863346771133e-01
2.832750051486464596e-02 -1.243475955781770705e-02 4.379722901154319281e-01
4.712909667598155945e-03 2.690375046760149283e-02 4.125048193864961354e-01
5.020115087473143306e-02 1.520742686902345348e-02 4.992927134739424400e-01
3.269555953131908499e-02 3.342014280941472265e-02 4.401058043751919779e-01
1.180917530352396799e-02 6.050454973763336186e-02 4.335341137598351935e-01
-2.912651066442830533e-02 2.108458822855506162e-02 4.259124297694693029e-01
1.496064170776891834e-02 5.203594888361949555e-02 4.267142076465334499e-01
5.802445387728764198e-02 -3.888840772129351954e-03 4.917008781799174777e-01
5.453886868655699258e-03 4.210432763764419134e-02 4.143580193253563748e-01
5.502380595395608281e-02 7.476372801203580052e-04 5.011585431373365429e-01
5.664257590302759077e-02 2.575289516977182294e-02 4.685865228578341979e-01
4.442095618277290547e-02 3.759480095198771549e-02 5.134825093955235342e-01
3.660886292615498500e-02 -1.924727511374503194e-02 4.446056960120329249e-01
5.543102000544539165e-02 1.222478222721996161e-02 4.653752093205830720e-01
2.610141822362811032e-02 2.817849553990551051e-02 4.356064321302004494e-01
4.737015161439943334e-02 2.471462325346406724e-02 4.509568225304701472e-01
3.010127197432087287e-02 4.142051055342956672e-02 4.383011024126684529e-01
5.210601829293605436e-02 -2.143054225858857104e-02 4.692991909040329368e-01
4.519657050391738540e-02 4.959257683617756401e-02 5.086779272003109087e-01
1.640901466009245940e-02 4.484296545028459979e-02 4.269722926669488050e-01
1.870975444644786684e-03 -1.901349043575069862e-03 4.311133848671614976e-01
-7.320508842465921553e-03 1.632607877767561222e-02 4.201092882273328444e-01
5.076668267517943367e-02 4.515500235488483644e-02 5.008568404622533166e-01
1.499939500947946799e-02 4.212163838037868979e-02 4.256080785651634724e-01
4.012797900143025287e-02 9.023763880442420976e-03 4.446522447424177127e-01
-3.393708503405010179e-02 6.701670104431079952e-03 4.373747419050055818e-01
5.450232465782718638e-02 4.372011951205589247e-02 4.826497064505269052e-01
4.697984159289646938e-02 4.628294529932406448e-02 5.077091998301472842e-01
1.779322806936384227e-02 6.087058595112541243e-02 4.387734300691731315e-01
5.659917291947035023e-02 5.034002838440183696e-03 4.751525015456937728e-01
5.443922574937551905e-03 5.129274283437201820e-02 4.181522660821237469e-01
5.405200839477192210e-02 1.133031289225432808e-02 4.614584110467521705e-01
5.468922106631431135e-02 2.584011442794179048e-02 4.612740720841041475e-01
3.109218924629779737e-02 2.190729231218551537e-02 4.386978221427574320e-01
3.831841397795012101e-03 5.554077460867395954e-02 4.206002883313293417e-01
1.500104739955169207e-02 8.214185259076587590e-04 4.332204661426891090e-01
5.281287190757125161e-02 5.145710880903874018e-02 4.622527112508851843e-01
-2.945869535656482109e-03 5.536219419482695664e-02 4.205228791716623116e-01
-8.027389092558113309e-03 -5.805626814231893210e-03 4.318962413008843315e-01
-7.271966766285464269e-03 4.383398292660484544e-03 4.282461258482598843e-01
-2.221920400496232850e-02 4.914069186136089951e-02 4.228005985239903786e-01
5.481055906579736930e-02 9.633676919094336100e-03 4.896735211685169786e-01
5.162318131458830395e-02 -6.884247189811268722e-03 4.630222969457997717e-01
-3.277580745613473123e-02 4.969778696231276841e-03 4.368286446819566460e-01
-2.525894598097306806e-02 3.167943249169316577e-02 4.197934931801595160e-01
3.629811642921945865e-03 5.828803721918952851e-02 4.222692806394239273e-01
3.231956916224513338e-02 1.653210012949698701e-02 4.393905764755738907e-01
1.260254514037202492e-03 3.664203462165104702e-02 4.086145433912206637e-01
4.517372408415213508e-02 4.103930660326738505e-02 5.117870739042799100e-01
-1.143096160191351025e-02 1.105606946524256666e-02 4.246155184307870423e-01
8.188333846595207896e-03 5.121653459562512667e-02 4.202655023862745809e-01
4.879132643019381405e-02 4.851245124955682470e-02 4.537777640739450447e-01
-7.337875849682380658e-03 4.379650016311402438e-02 4.115944113875967258e-01
-1.825901137573592362e-02 2.234399938530407664e-02 4.204938915673906985e-01
5.213058139554090781e-02 4.787727861041542188e-02 4.924934661743289865e-01
5.729792714583961666e-02 -2.001555294467776466e-03 4.940737017884007654e-01
-2.613561900292061396e-02 4.524301937213041219e-02 4.202873243449468665e-01
4.990878957005606513e-03 6.935715049171734242e-04 4.312061227348632508e-01
5.899583932609023772e-04 -8.256534352849640834e-04 4.309142389841790211e-01
6.894392230573890765e-03 3.016626754677962166e-02 4.139964731116447250e-01
2.674461040308017540e-02 6.587184053226070868e-02 4.500009022821378490e-01
2.657021214386835750e-02 5.830971064343371674e-02 4.381191937420235716e-01
1.674019662050842822e-02 6.045711507396914902e-02 4.375558882225464297e-01
4.590531645996384635e-02 6.695038957778198796e-02 4.669492190623888428e-01
3.196435482758288454e-02 5.887257989422234328e-02 4.417429756617055059e-01
3.257986295164722740e-02 -1.637696568488972507e-02 4.408851206974548909e-01
5.177103806132774683e-02 4.697935040854168964e-02 4.953126680447454411e-01
4.501866603554029872e-02 1.424184795956678559e-02 4.483972040718046115e-01
4.672787588054003877e-02 6.260235512346376541e-02 4.790693065983547827e-01
5.522639624764863475e-02 2.961284096566975041e-02 4.882849461713662520e-01
1.209344549168924615e-02 3.156991363859480704e-02 4.231240812042748600e-01
5.432680208877300326e-02 -1.363744070383608731e-02 4.726623294437423128e-01
1.394888500069776938e-02 2.232721626012385170e-03 4.328883648967884468e-01
4.307241008392162507e-02 3.491973574558744631e-02 4.475157177530686425e-01
-2.938125294538353541e-02 3.968487742797881940e-02 4.220297281093094988e-01
1.330842143676941487e-02 7.867514066187877159e-04 4.327542365844583849e-01
1.584157246649455647e-02 5.593244419379521382e-02 4.287567926029617338e-01
4.906050797676893283e-02 3.653793960515247519e-02 4.533538980508693417e-01
5.738075267935066615e-02 -5.492087558417499404e-03 5.011748808516782727e-01
5.012382966873902418e-02 -2.402975386205296812e-04 4.561097298412552514e-01
6.258445357168097682e-03 5.785817745317395344e-02 4.232201945618083161e-01
-4.999843053090326749e-03 4.121104084760794303e-03 4.285959152031450503e-01
3.317409895642487588e-02 3.070365624924848227e-02 4.402303646378893376e-01
3.529249669219471780e-02 6.153531851308249867e-02 4.453321961090895842e-01
1.752658742016795917e-02 3.509489224521895878e-02 4.282546996332081690e-01
4.624423803073709864e-03 4.024004871778865539e-02 4.131108347960814609e-01
4.320680711772373339e-02 5.522369777407148267e-02 4.975303055077427428e-01
-5.149979080049757463e-03 1.561007934394197452e-02 4.212516069033614974e-01
4.621355476444542060e-02 -1.842368201197122635e-02 4.560655009794071790e-01
5.634510119334537603e-02 -1.575425822850115912e-02 4.790777449792111842e-01
3.872582039783811769e-02 3.932928016630301421e-02 4.442385758761170922e-01
5.359940249257622719e-02 1.491409274412183392e-02 4.906716252563033676e-01
9.037521152513376677e-03 3.019315094477012518e-02 4.184542127247571908e-01
2.579092947247379336e-02 6.387129204138233818e-02 4.415982960768011223e-01
1.538417403402692583e-03 5.312345415223311898e-03 4.292225197552751448e-01
4.830867103354286041e-02 -1.999224373932739079e-02 4.610239248151417057e-01
-1.293167245935043438e-02 5.149290269697659461e-02 4.181324093102730122e-01
8.347270813129149033e-04 -8.695107850288404452e-03 4.320626762560568213e-01
-1.452724787913656571e-02 9.377939357149573871e-03 4.260332071429671075e-01
5.734262022557906624e-02 1.114222990659494107e-03 4.816345979272923516e-01
-6.419636693621654303e-03 3.154400434972927381e-02 4.097271353027571172e-01
-1.186888774832232322e-03 2.464288452376405328e-02 4.112895435665034904e-01
4.584270591203222500e-02 6.010329329613017108e-02 4.531756668914756481e-01
-7.578844851663366078e-03 2.937543937948296907e-02 4.117324575752663307e-01
4.377635335548005907e-02 6.257098801035089475e-02 4.849416053242146529e-01
4.680363047590218456e-02 -1.344725570468179900e-02 4.556076113036329756e-01
-3.322394985432235853e-02 1.064983609679320820e-02 4.352129305965782291e-01
5.671883648987370574e-02 5.187546999275542865e-03 4.764469669667835694e-01
2.462866713062518767e-02 4.901317676609969615e-02 4.336417429453361394e-01
5.085706054767357570e-02 4.311490441441044597e-02 5.013278998532084696e-01
-2.943556891768404904e-02 1.859678829417023976e-02 4.273342844342662428e-01
-1.332012933177069598e-02 3.341620774501406765e-02 4.135676305695214494e-01
5.062934865645507543e-02 3.254038769280004351e-02 5.014501694389148501e-01
5.290483240548099486e-02 5.230294660479938018e-02 4.788172542417012956e-01
2.615433550385357422e-02 1.286630868265179438e-02 4.361723958694377346e-01
-8.135199520814120205e-03 3.476782429052052009e-03 4.289245013496446601e-01
5.673486001422927555e-02 2.637099806288791676e-02 4.699823787107881845e-01
3.944817663620218441e-03 6.065681616351002031e-02 4.273177840777021008e-01
3.422580209129055112e-02 1.056900288560551696e-02 4.401371410434062326e-01
6.751509266574425017e-03 6.145897806971677146e-02 4.333056075525981155e-01
4.972335087981261115e-02 1.789483235046127746e-02 4.532729403581990946e-01
5.205413314963260041e-02 3.631424750188000546e-03 5.071709088140408106e-01
5.650037452058624676e-02 2.329869340243469547e-02 4.675802591332843261e-01
4.141190472476680498e-03 3.497644806778186372e-02 4.088888043614155587e-01
2.600318385311173666e-02 5.378862862248561492e-03 4.366219377925518175e-01
5.537243365915046206e-02 8.375029598794957175e-03 4.884937982580332960e-01
2.807515454839105973e-02 5.134671636015514934e-02 4.364137219812513346e-01
-1.263382372944018076e-02 2.007416463410869809e-02 4.195445087074172186e-01
-2.620131495304830679e-02 3.616122094081106186e-02 4.187564430163771001e-01
-3.924011044555539632e-03 3.171063816139113589e-02 4.073409026901804175e-01
5.185894677408217635e-02 4.099260856977657991e-02 4.992325178145191611e-01
5.574077114976699887e-02 3.962702943635269814e-02 4.759599740991381500e-01
5.776786525497763086e-02 -4.450986187350619919e-03 4.844229858142346523e-01
3.216653985494814794e-02 2.633601807485057983e-02 4.394660959954586055e-01
2.566573009616023027e-02 -1.212273626449605034e-02 4.370423240564722533e-01
4.564076589948424384e-02 4.654341059164191635e-02 4.503907702495248411e-01
4.270399430686865061e-02 5.132731811042293840e-02 5.082001491092524859e-01
4.038606321195266358e-02 1.759080555481308192e-02 4.447012329862072288e-01
1.362489056123602355e-02 4.487508036271883188e-02 4.243868609532818748e-01
1.114773047988227607e-02 6.037330334098149620e-02 4.321728475535948077e-01
1.093180807362914911e-02 4.628281703306482558e-02 4.219630744963472346e-01
3.103098653134994320e-03 1.432604309510852533e-02 4.246040391057798735e-01
-5.089682701765254301e-03 -1.023312263360620991e-02 4.330131989376976853e-01
5.220643160864723437e-02 9.584357172249691886e-03 4.573537982759887099e-01
-8.797354675176186078e-03 5.300151721277991668e-02 4.187674767198268366e-01
6.634595575000623580e-03 -6.533260754657770238e-03 4.322272681806581529e-01
9.918366911163102942e-03 4.498126716071376707e-02 4.204072125075937194e-01
5.634980482399107142e-04 2.527312488842446345e-02 4.107998834703228686e-01
3.754969823751187069e-02 7.085033757169563462e-02 4.537917153173283702e-01
1.458746082257386147e-02 -1.531157660394364024e-02 4.357449540899999141e-01
9.047004690842587113e-03 -1.649435099891587153e-02 4.366053207613375120e-01
2.786977097420854921e-02 5.044310944595993551e-02 4.362459944720512572e-01
5.673947289912224801e-02 2.489857593189767973e-02 4.794847897585411967e-01
5.347723007125528005e-02 4.288174909244835825e-02 4.599650423125978271e-01
5.474891263182395107e-02 5.342636082696652911e-03 4.654513680251020635e-01
5.430926592158839827e-02 4.108553739387694331e-02 4.908873776559531943e-01
-3.096636587544712022e-02 3.314927303366445310e-02 4.230043673333719334e-01
4.424055157947200112e-02 3.773297710010814487e-02 4.486088780596745318e-01
5.795033120495299978e-02 -5.388072544270214662e-03 4.934430749784662895e-01
5.551348193794179015e-02 4.191987106538486163e-02 4.731537533484901359e-01
-4.292571273566688633e-03 2.726570678587104599e-02 4.098668793258115062e-01
3.248089797227558806e-02 -1.253473657990877886e-04 4.397903971024367253e-01
-3.851529849616748546e-02 2.635601717928092846e-03 4.392065188969547229e-01
4.183062406908206327e-02 1.715621247967063362e-02 4.458045061503859152e-01
