5.794776054728282416e-02 -4.354882714969803004e-03 4.889039050066204539e-01
5.756420284147251241e-04 -1.078614487145695966e-02 4.324334422013891843e-01
-2.337332621928002452e-02 8.983980775877246916e-03 4.295895064278880682e-01
-6.729615006349923614e-04 -1.177725425411661059e-02 4.328525866287047386e-01
5.698361484977911701e-02 1.606352108611141388e-02 4.777644452163986588e-01
2.684076171302595543e-02 8.150649713396131493e-03 4.366892879125469640e-01
4.331824744835822277e-02 4.096874438414622316e-02 4.470994299043263287e-01
9.271759486873898046e-03 2.856999032827159390e-02 4.169092191484168874e-01
4.569014888705432570e-02 -2.229581003232295952e-02 4.568808952236627641e-01
1.135853426493764820e-02 1.970395960705677296e-02 4.249591122748038186e-01
-2.888854794453474956e-02 -1.327290489066344781e-03 4.352901689803985175e-01
5.522207495559382229e-02 4.382687804388805952e-02 4.802441243242425162e-01
4.627478142803644057e-02 6.675810582317534547e-02 4.685689512066474882e-01
5.783692251453288052e-02 -9.573616593990520035e-03 5.124416370802151732e-01
3.718055636362233018e-02 4.951458986333056450e-02 4.427891640484141189e-01
8.498288414049464529e-03 2.511787826723354405e-02 4.194830932181733973e-01
5.391351408600706524e-02 2.739310508370540811e-02 4.935191866229123869e-01
3.809801687423034627e-02 6.437889871591027935e-02 4.477886237494205779e-01
2.439349738022202063e-02 6.114626528697768987e-02 4.387492407177935316e-01
-3.452208629518853378e-02 1.767706158409593914e-02 4.339554382126227239e-01
-8.125820449504213977e-03 1.405586621409554357e-03 4.300206464870374723e-01
1.664847404300240970e-03 4.187472287031682172e-02 4.099184781682906342e-01
5.803022875377053524e-02 -4.260586176785262878e-03 4.931757483612411730e-01
4.072358908619827522e-02 -1.467669470931826960e-02 4.468230236285076762e-01
4.621097177336166983e-02 3.334566503049508218e-02 5.110637103793649327e-01
4.457831924413795804e-02 6.564582711631075651e-02 4.552801963999141832e-01
4.772781626304018442e-03 -1.213010155223947194e-02 4.334962819385324018e-01
5.657087353140523994e-02 7.568536624763370219e-03 4.836443398584012732e-01
-2.133718123483440560e-02 2.230637436762472961e-02 4.216506996119553374e-01
-3.969754340371526441e-02 3.819200497113151450e-04 4.409816014675920215e-01
4.636035896586054861e-02 5.897781399404598834e-02 4.524728405253656827e-01
5.471690490530322498e-02 1.501230448063163754e-02 4.883575902727692597e-01
3.428645020753873923e-02 -8.487726042415053365e-03 4.409598912504554269e-01
5.566767557057006321e-02 1.297927376498568715e-02 4.645252278894098086e-01
1.592938938784259004e-02 4.226929016734600614e-02 4.252974369112443864e-01
5.016699892122714749e-02 7.934173142799337552e-03 5.057807110290047925e-01
1.804985265982711386e-04 -1.441390346076339840e-02 4.341807509347121452e-01
4.333353140676433901e-02 5.199836215298644926e-02 5.054523292552312030e-01
5.481400417687326554e-02 1.897209383475343542e-02 4.882321016174785422e-01
1.784236276286704434e-02 3.117876399455623768e-02 4.277069463696798191e-01
-2.836931410982240082e-02 7.014850954754917912e-03 4.330145683275499757e-01
2.928382419120950306e-02 3.622350518179846823e-02 4.370928324086575945e-01
4.227679952401019320e-02 -1.660335527457738186e-02 4.492325822617405651e-01
-2.719679153088931656e-02 1.892047045774926384e-02 4.260425406921500291e-01
7.159335657826232033e-03 3.096489663242487159e-02 4.110419246975909324e-01
5.570108385979317955e-02 2.844972150224521143e-02 4.883971413995613631e-01
-2.526266089216693683e-02 3.932203923997631967e-02 4.183772560622773806e-01
4.566002862350666130e-02 4.426272186258424501e-02 5.109432551769592656e-01
5.374762130829103396e-02 3.791672232134902371e-02 4.959383552417545582e-01
1.191560813916069973e-02 -1.274287186213100961e-03 4.323075900969335916e-01
-2.813043032588402603e-02 3.568755457588860397e-02 4.203102820193594380e-01
9.799317370879637862e-03 4.444378829634157424e-02 4.184892511333464515e-01
-2.540924280387275164e-02 3.682870441955829466e-02 4.181296285284840097e-01
5.393997834192298946e-02 5.153966853793845448e-02 4.694965749025450941e-01
-7.892537948774288117e-03 -7.758680625434822425e-03 4.324851641968345817e-01
5.747959603682421120e-02 -4.200487367049985168e-03 4.796428907966850397e-01
4.120155866921224042e-02 -1.629191694770481050e-03 4.460447260114790979e-01
4.725166900280316357e-02 6.367939129587021907e-02 4.772051808702955089e-01
4.898339235114632789e-02 6.177002069766623915e-02 4.753844389330858511e-01
-1.513157730983018256e-03 4.500778005171104240e-02 4.113643949723375659e-01
4.614858380486586836e-02 5.739060806769055723e-02 4.908408573093355209e-01
3.530322634405688026e-02 5.199889615793563957e-02 4.415482467783333198e-01
4.068484097926820114e-02 6.606557023462909795e-02 4.517912831258054651e-01
3.890539050993145620e-02 6.904121675859069274e-02 4.531633412721133292e-01
4.342507538931723171e-02 5.056192151925634898e-02 5.099607429862307306e-01
1.071407718993725063e-02 4.889859387971655369e-02 4.208023141003548462e-01
2.758627764900315610e-02 5.698472471401246076e-02 4.370243682931161944e-01
5.675342773734731727e-02 -3.029457100356258183e-03 4.741237328543189133e-01
5.025066101116172634e-02 -2.063762951246181712e-02 4.651278332758782552e-01
5.631041199462821084e-03 2.949137435651728173e-02 4.085678378085979556e-01
3.037322341606185638e-02 7.671147505006974295e-03 4.380381999550126970e-01
-2.588624160700974883e-02 -1.811545880078801411e-03 4.344886423872654224e-01
4.958036064070851789e-02 1.391300501009974482e-02 5.023790246446381280e-01
5.687223030291897047e-02 4.452711112172337213e-03 4.747360261120792679e-01
3.735896205960647504e-02 5.931077377034957299e-02 4.450842166039572501e-01
-2.496916140326322676e-03 1.891891594772471610e-02 4.180216065313595575e-01
-8.851779392337368046e-03 3.896750306039538370e-02 4.100991460184004733e-01
1.082896553886146876e-02 4.179220489986058829e-02 4.191102018113583294e-01
4.006013291919331004e-02 5.862957444044811922e-02 4.467091095305624204e-01
2.916890039199380308e-02 6.076803459346126436e-04 4.379574818845148876e-01
5.524074045854601711e-02 4.144243439846238830e-02 4.637868508548377844e-01
5.442786027039450691e-02 4.334124978771009690e-02 4.904772366241876846e-01
-1.763208662478176619e-02 3.150806061328801505e-02 4.158455594383340670e-01
5.488787060143912599e-02 3.009214213256382678e-03 4.982907328571829497e-01
4.539007628334900540e-02 -8.254739900318084495e-03 4.517362358286987623e-01
4.822419144129353602e-02 2.935618070051699419e-02 5.070608318492317856e-01
1.144561785201751378e-02 2.611705288493913410e-02 4.224104935053255017e-01
3.690649771003962076e-02 3.986383610084108520e-02 4.423967047637734074e-01
-2.515150214250746336e-02 2.643447636582341165e-02 4.217128743455365592e-01
4.602957937719204251e-02 2.946172379594176605e-02 4.493558598303679097e-01
-1.278420322055248866e-02 1.296216273372704716e-02 4.238013482030138501e-01
-1.787614767565926313e-02 2.906337761676968875e-02 4.170540823037017231e-01
3.307449013147904099e-02 -2.485388405522497707e-02 4.437509158410377075e-01
5.558355858498528063e-02 4.707651893302525897e-03 4.673261098277518566e-01
5.407587988254979050e-02 3.504983326234246965e-02 4.590196206382775035e-01
-3.496941253379939364e-03 7.593825878143547689e-03 4.264451201843502681e-01
6.247470657179962986e-03 1.340376501753128002e-02 4.259689153750109702e-01
4.712574621360404031e-02 4.157706801977548855e-02 4.509601167192410776e-01
1.051587853164542320e-02 2.554083111664570346e-02 4.216340268005576708e-01
4.525296411600361612e-02 2.360472255600477506e-02 5.123379244068495542e-01
4.927751172698521115e-02 6.286436540935744222e-02 4.709026717300217046e-01
2.001189019482050441e-02 6.643995958413240893e-03 4.344359280095423381e-01
3.718696128265022022e-02 6.182667110922204085e-02 4.459955732494568226e-01
-3.550718737138976178e-02 2.590342727049484498e-02 4.304906865578844166e-01
-1.135129262019456825e-02 3.688070518774063528e-02 4.115872621020641997e-01
4.416483391874075765e-02 2.931184994636567426e-02 4.476491133085250262e-01
1.123748245649308988e-02 -8.328935396780831699e-04 4.321469900543438158e-01
4.340374287546732573e-02 6.451827463010233188e-02 4.805080888377034620e-01
5.781451057187226433e-02 -1.880272835857748140e-03 4.908430627124499290e-01
5.908120842509446274e-02 -1.079480222799338203e-02 5.059196375308835369e-01
5.679710944689494306e-02 -2.669257278350963339e-04 4.743419506624517168e-01
5.731154881832903336e-02 3.178952566321437828e-02 4.710453365411215731e-01
-1.567240774935242664e-02 3.799064421513365097e-02 4.131143447050864004e-01
3.453118788509562664e-02 3.764258992163364848e-02 4.408218291535099254e-01
5.451294714538518216e-02 4.771203834371030850e-02 4.654208296068426121e-01
4.509269804395742848e-02 1.109165563241317973e-02 4.481305884115840965e-01
5.407427711588947555e-02 4.701462972603496354e-02 4.851649422325325367e-01
-4.753990059953055319e-02 -2.610557966927397854e-03 4.458146313836375829e-01
-2.584116575830798512e-02 1.617777987172818593e-02 4.270939761088424769e-01
4.274859038201841294e-02 6.928294097638344751e-02 4.625823029457678537e-01
9.514155914380879875e-03 5.106345892865267466e-02 4.201099699359442941e-01
5.460752269144342891e-02 6.666512218330714057e-03 4.633315190975600961e-01
5.348917705303263964e-02 -2.812099454701422543e-03 5.130205123428849268e-01
3.257337208494345826e-02 6.084646197698614922e-02 4.426736461346280627e-01
1.845392138753986291e-02 1.743407158383231126e-02 4.308500217679814281e-01
5.260081404438330527e-02 4.630001461202393892e-02 4.572903304035801919e-01
4.444944735026426508e-02 4.428052113409095686e-02 4.483472242915843009e-01
5.262647598107975805e-02 1.134180565053443356e-02 4.962345614402746130e-01
-2.688880482165396935e-02 2.434189279200591957e-02 4.233204852302306920e-01
5.076259016228598653e-02 5.072995800584151338e-02 4.552536268348301163e-01
5.247342022313853521e-02 5.179315219994702450e-03 4.584753643662431988e-01
5.336229362559455347e-02 -1.427044676978427365e-02 4.696110902180393176e-01
5.735777880227022063e-02 -2.203823761694430339e-03 4.946863691546502517e-01
1.705854182648882528e-02 2.806278964534528880e-02 4.274048734471419531e-01
4.447937936312422458e-02 6.761717780099185671e-02 4.659948367718192985e-01
-2.859949290875999153e-02 1.857595849103472682e-02 4.269604048914578676e-01
4.335916607451155425e-02 6.005513698325004590e-02 4.497853523014567201e-01
3.307199404840198420e-02 5.171955818312476416e-02 4.397689104771006496e-01
-1.132502422942578343e-02 2.366049561280539337e-02 4.172431302472615067e-01
4.073409811355478694e-02 -1.547602700316781134e-02 4.470153591742752619e-01
5.030877111555114023e-02 4.459201687433254901e-02 4.545150634162204994e-01
5.062104082896491664e-02 8.068655150581818813e-03 5.041812314933278305e-01
5.651337476077145788e-02 7.858628431229966113e-03 4.713361305842050930e-01
-8.144408718750042672e-03 4.502760394799985161e-02 4.115537403154887475e-01
2.832988130546235106e-02 2.728067213909363131e-02 4.364665966080137349e-01
4.953954511397629101e-02 4.727497422976346259e-02 4.537904052467949256e-01
1.730541530437319439e-02 2.644453430990753584e-02 4.281020221253987734e-01
5.797133207055252258e-02 -5.151148654892570219e-03 4.850894364365606615e-01
5.228751684991984200e-02 1.934462964359196088e-03 4.591791152915469243e-01
5.629506920584156915e-02 -2.107625870577667371e-03 5.053882757243084445e-01
-1.812214531009247176e-02 1.782409464725885628e-02 4.227749820301260897e-01
2.489149041493323583e-02 2.955969623890178713e-02 4.340878018197469324e-01
-1.700226791827762207e-02 4.034930351641662083e-02 4.132317376215142724e-01
-1.195977189163500293e-02 3.129373155528610007e-02 4.135356681331555095e-01
4.855418843280043251e-02 4.517422784119406662e-03 5.137622310278927573e-01
1.793972611937785441e-02 3.910135145533164686e-02 4.275242144505183028e-01
5.249215201272296877e-02 9.040874675743534872e-03 4.571795244024974836e-01
2.946256071066084142e-02 4.520972172409504219e-02 4.368455907187644982e-01
5.798602935777705941e-02 -6.225621211451207865e-03 4.859016019799029529e-01
4.986739181075959537e-02 1.888833948807100427e-02 5.011917682540015795e-01
4.430629829913400319e-02 -1.844705760467680797e-02 4.527567065928834733e-01
7.697343616867896761e-03 3.881364879622015845e-02 4.146776709892168178e-01
3.824365977502575814e-02 1.846177013296667821e-02 4.426713527732428211e-01
5.244193766623663627e-02 -2.128719874973983642e-02 4.698002777873692137e-01
5.623928704607570467e-02 1.088267823699521145e-02 4.830746848268311910e-01
-3.552316569960378007e-02 2.487903558829128014e-03 4.372758090119051588e-01
-2.921409254501970004e-02 -1.970083592632781034e-03 4.357465611910544823e-01
4.004096569880530310e-02 6.874906670624315874e-02 4.658085533233175535e-01
1.604053517217355479e-02 -1.121126122174428280e-02 4.344181444449601859e-01
7.308537074478208689e-03 1.009435160855664745e-02 4.282952422724311536e-01
5.257478020911054983e-02 -1.352413020701832662e-02 4.676183872841378486e-01
6.703527620770571155e-03 3.641976768208999432e-02 4.124592808703607116e-01
4.541737044985867666e-02 5.133401206374664516e-02 4.496197551931290781e-01
5.690963960191267740e-02 1.627926823460557060e-02 4.731821788114905503e-01
1.805740367403138244e-02 3.891341654443317231e-03 4.339533824360420899e-01
3.549845522761400224e-02 -1.002185503842965147e-02 4.419606299122610382e-01
4.916617252557144851e-02 5.340658763829499861e-02 4.540009284143795565e-01
-1.119911085880665076e-02 4.120248483457959396e-04 4.302813588841160053e-01
1.446623910618272807e-04 -1.629166781942775408e-02 4.352317892163505841e-01
-1.393426895507378013e-02 2.831411530206162305e-02 4.159500027197541305e-01
2.789811592062920245e-02 4.111483710055265084e-02 4.357590054569486782e-01
5.234286145949828065e-04 -4.424902347335239218e-03 4.312150199561145536e-01
5.566052909673797899e-02 4.105268249325457613e-02 4.811329988424822290e-01
5.654091626431737710e-02 2.026218297177003608e-02 4.651574405155731728e-01
3.570080882699053909e-02 -1.012336039115672688e-03 4.416756295327881610e-01
3.258595354474595751e-02 1.091540954630086657e-02 4.386661231662331573e-01
5.259976421083325387e-02 6.512067377372370187e-03 5.004784041299886743e-01
3.357305869925405334e-02 4.820048057753249099e-02 4.400951360743433072e-01
4.353799245724110367e-02 6.733213124977505126e-02 4.570758747943217126e-01
-2.498269583569138683e-02 2.881832425324523661e-02 4.206850621218721220e-01
1.422338501665840194e-02 -1.888041445023390386e-02 4.366509320564612717e-01
5.182713043202584469e-02 2.350662567752057064e-02 4.969887947637428027e-01
2.372856261433911942e-02 1.874451505515520658e-02 4.339186566955682278e-01
5.661206403043182039e-02 3.488734179799031498e-02 4.667518670134382375e-01
5.591217687168241468e-03 5.176398402498565837e-02 4.174309094280861387e-01
2.425217463436706716e-02 5.279868621190139666e-02 4.328786912902587436e-01
-5.230200639855799374e-03 4.590584135865746762e-02 4.112964706197601017e-01
5.715394106679442393e-02 -5.731280233520218842e-03 4.786213230686048870e-01
-2.109258398972773188e-02 4.450379520458531274e-02 4.157572985929638421e-01
5.625715273128498867e-02 4.078818429624862275e-03 4.708251720742349655e-01
5.553512727252130077e-02 2.274823682501555047e-02 4.875062512541006865e-01
-1.417587722410522562e-03 3.930158829384818725e-02 4.083725177729759515e-01
4.942358128824898833e-02 -1.183765558037453910e-02 4.603049717868229473e-01
4.672511242388079772e-02 -1.857948814743077409e-02 4.567214545338768583e-01
2.802622682701328902e-02 6.132810384763252853e-02 4.405619141833237440e-01
1.782930460994709698e-04 2.112650985663460518e-02 4.156968823062408558e-01
3.067226649069928340e-02 6.129738654428677769e-02 4.418276876951252596e-01
-2.222686450570876202e-02 4.908109448876970399e-02 4.224672525763594755e-01
1.169576946009562475e-02 4.699559143129405231e-02 4.215145369692362975e-01
-2.436578835893686221e-02 4.340788501637470737e-02 4.178152509504079459e-01
4.790739958738080700e-02 4.813704913324391710e-02 5.053828556653310322e-01
3.203264671960519283e-02 4.453186190403755212e-02 4.389724616879689401e-01
4.659252454668612320e-02 6.439164753294414345e-02 4.574897626294204822e-01
3.005615604534225827e-02 3.044018891924069395e-02 4.376720657217905708e-01
7.684239304648294265e-03 2.976878937688779564e-02 4.130227328668354403e-01
5.107909530476512083e-02 5.957701496886748382e-02 4.650597160688641485e-01
-4.346611866175621036e-02 1.667654974936406964e-03 4.443384688784146053e-01
4.610160458932049954e-02 5.614976354988542723e-02 4.513550454010278323e-01
2.497685706858676288e-02 -1.169012110388994996e-02 4.366521658962935204e-01
4.854221711228198788e-02 2.983652179544750427e-03 4.522599296739222008e-01
5.794008773283463448e-02 -4.422432856511802901e-03 4.860056068899493154e-01
5.532661151795816717e-02 4.483893620413841041e-02 4.765679108891170412e-01
-2.874919657043146365e-02 3.005452640003833387e-03 4.335871956467935995e-01
5.259445659664711836e-02 2.189643912274566104e-02 4.556332498850851898e-01
5.110284781690559164e-02 -2.261465095303727760e-02 4.671395534376680536e-01
1.803634840098566373e-03 2.250526804622021704e-02 4.143021424285879273e-01
5.628104511303144014e-02 2.222721487915442495e-02 4.844624000302756306e-01
4.795293167304156418e-02 1.975230503496891096e-02 4.508850533137441774e-01
-2.079606712137023472e-02 1.668783749964084656e-02 4.244045236757190143e-01
5.356759154967688508e-02 4.125564361104152623e-03 4.615388067261794736e-01
5.151275011169428181e-02 -1.254095184566291279e-02 4.649828220482861707e-01
-3.362572587184372176e-03 1.962560546371011627e-02 4.167437117544828817e-01
5.405402355127521957e-02 4.987640822940248020e-02 4.792848110157109098e-01
-8.390813647076795362e-03 1.818290180445258225e-02 4.191122855108536660e-01
5.503404864710783467e-02 3.269614563499686263e-03 4.970603948512109516e-01
3.761005649076961527e-02 3.472051472616147216e-02 4.428047584677645143e-01
-3.652261969013666926e-02 2.088689482549263218e-02 4.353282934231768042e-01
3.098149326324240241e-02 3.728729474967784358e-03 4.386847422802537810e-01
-2.227973602061430677e-02 8.568883285934587868e-03 4.292473085217675677e-01
1.131707528116759377e-02 2.535630139572921105e-02 4.225984457399079020e-01
-1.118968354763306972e-03 -6.573549693009832391e-03 4.315820051389282486e-01
5.104643005455418436e-02 2.698796844916705184e-02 4.999855401949893641e-01
1.599872850226242982e-02 -1.032159736810624867e-02 4.342540681404148395e-01
5.226664158183307735e-02 3.090521665830982950e-02 4.984316569132369312e-01
5.732669341729061674e-02 -5.918642924661297183e-03 5.073926565133934918e-01
-3.911294980762545018e-03 3.727706641103884291e-03 4.287375203433257398e-01
3.232137532576128541e-02 2.875766746737473158e-03 4.393669561594255035e-01
-8.770579860030000910e-03 1.526469983713269959e-02 4.214705604529557226e-01
5.568103631718158975e-02 -6.363440023672084847e-04 5.005627110669834678e-01
5.292513468248678105e-02 4.691464473787134749e-03 5.024739491410146197e-01
3.006999533153515911e-03 5.227746023154798000e-02 4.163241305711449791e-01
4.943638742326108421e-02 7.056098430853876245e-03 4.524068909435827734e-01
2.948696069911586892e-02 5.125779190286935266e-02 4.367259887380607886e-01
-3.411053391535626145e-02 2.347969824708457179e-02 4.293963120005318546e-01
9.189304813430651531e-03 1.228650403013860706e-02 4.279684509708854279e-01
-2.560910387713471667e-02 2.284449020438005309e-02 4.232247782454029439e-01
3.549716805498615707e-02 1.292710766069964101e-02 4.407746678237560167e-01
5.674997644441975159e-02 1.736661938638087849e-02 4.690216265520265604e-01
4.480166971728599679e-02 6.738495669092053886e-02 4.608631985855416446e-01
-4.595738732772553653e-02 -1.100555089740159771e-03 4.440459708360156021e-01
2.675823416167061319e-02 1.796495361764521154e-02 4.357830963980306449e-01
5.148542217496993728e-02 3.916231610648267247e-02 5.013493775715747169e-01
5.509399702250049324e-02 1.542471281949198830e-02 4.618006528095904839e-01
3.269555970800563927e-02 -2.426028222030995191e-02 4.431835646985040622e-01
4.408791013250534796e-02 6.824734750514925563e-02 4.617029818462751178e-01
1.549536674234518879e-02 4.794690419744782051e-02 4.254682057884237034e-01
8.586309330348904784e-03 -4.925029990335807323e-03 4.320739998316090458e-01
-7.022832903400175533e-03 4.384077962218435598e-02 4.110899245073805774e-01
5.696684013546305519e-02 2.220776635077784111e-02 4.679655215778900090e-01
4.797147162532705914e-03 2.887355853674639788e-02 4.070704281598497287e-01
1.402165050986729604e-02 -4.851033833837831502e-03 4.330668267547606032e-01
5.706529004207437639e-02 2.371112831209650634e-02 4.795515587654460288e-01
5.156513350678233049e-02 1.846950082276434604e-02 4.970195890513912640e-01
3.840198192772639393e-03 -1.625802985867012829e-02 4.358013870460298311e-01
3.899044146662847959e-02 3.235920745019934402e-02 4.437301371002988493e-01
5.741001589166681157e-02 3.100023647652559375e-02 4.735287634890563702e-01
5.496714004513164609e-02 2.811036622436484129e-03 4.982423713520888753e-01
-1.616243152109521006e-02 2.961358627966007018e-02 4.161574045962924129e-01
8.573832558283903463e-03 3.273338621626262213e-02 4.130112959776066073e-01
2.015803622404288911e-02 8.031662386564298109e-04 4.344976564871048108e-01
4.504575878065363720e-02 5.721840568941095190e-02 4.505168893065990554e-01
7.942197726418053980e-03 1.611940751518700990e-02 4.250592528936638081e-01
1.030197678017278490e-02 -2.222489982105532724e-02 4.377063343094335646e-01
5.362535791408284264e-02 4.700009282707835051e-02 4.589758697622353112e-01
5.423954759885380589e-02 4.300959250809995027e-02 4.920883088926847893e-01
1.291136093707136168e-02 2.940300450285800865e-02 4.229286248947644600e-01
5.410162495941801819e-02 1.775076097027967342e-02 4.591871435975479199e-01
7.169345519675104743e-03 -1.426670773234572226e-02 4.351310163617338467e-01
5.090425766249734307e-02 5.575967700676914135e-02 4.819946322280063700e-01
5.742753600839616002e-02 2.896740620541934930e-02 4.733813206923507266e-01
4.960714920808920181e-02 -1.711647651997457234e-02 4.625700619546808667e-01
-2.319377109668266032e-02 4.705024645705987302e-02 4.197813671791449930e-01
1.897300488314215133e-02 4.337080490908459818e-02 4.280973306338017870e-01
5.071611340993754935e-02 6.046042655517437636e-02 4.662576261325365734e-01
5.727210656100077679e-02 -5.804302791400303696e-03 4.794363316026410415e-01
1.720639632599459470e-02 2.478527308662875628e-02 4.282940031680192994e-01
4.333177700152244377e-02 4.764816062923972473e-02 4.474371022593193192e-01
5.173762942742451271e-02 -1.788886085774488502e-02 4.675236350565689092e-01
5.560323307570261275e-02 7.446210832194885901e-03 4.891967365952765712e-01
4.941472256033402344e-02 3.703582553606535321e-02 4.531381597561467967e-01
-1.203195732582413961e-02 9.948671861522200011e-03 4.251143871264908558e-01
5.569162362452737686e-02 -2.303386251121309659e-03 4.701883716238142163e-01
4.768073827980902346e-02 4.585540059172720645e-02 5.073096341929042019e-01
-3.994111346777428663e-03 9.223857072017151160e-03 4.253844419537100019e-01
-1.503781292460206788e-02 3.092256183080759405e-02 4.150487551418243770e-01
-2.392999255521766760e-02 2.005000489624509177e-03 4.320762988339914012e-01
5.888207035993972896e-03 2.759364869293155081e-02 4.108446518908415168e-01
5.023597776803285370e-02 4.884560145265378489e-02 4.987063060638295964e-01
1.252486724061258917e-02 5.991964519148237217e-02 4.299195028200883395e-01
1.487653366987398001e-02 -5.985332005587277494e-03 4.332758129441736106e-01
2.604518520482018012e-02 2.525667727638723076e-02 4.349913031758365078e-01
-6.111453966988139933e-04 4.325936579307727847e-02 4.110332673413841231e-01
3.072284831751613543e-02 2.947860704939332319e-02 4.380914455138618657e-01
5.171341803937651305e-02 -3.837168544650617318e-03 4.607414304041442255e-01
4.671178420521955588e-02 6.019270133393862104e-02 4.846672223230740761e-01
-1.412999408978083370e-02 3.978908157384553057e-03 4.287725175328370164e-01
4.330985928091682369e-02 -1.544006466957606981e-02 4.504229673468861939e-01
2.692695117845952946e-02 5.294532808006562064e-02 4.348121719902943161e-01
5.735055922118688365e-02 4.882141129187097216e-03 4.800191255100025312e-01
3.639311426674318034e-02 3.447955083930998380e-03 4.419079179780562305e-01
3.213390202656195987e-02 2.567511587456985239e-02 4.389444954666266163e-01
-3.064435215672470930e-02 1.428918046541635505e-02 4.312500249631385785e-01
1.983298964125732727e-02 6.110799322719599747e-02 4.392583093063781030e-01
-9.148536174089689360e-03 1.154228433124219154e-02 4.238061705260698364e-01
4.650727166626379694e-02 5.314962443852591645e-02 4.990457110415927877e-01
4.889025650534076228e-02 5.240534414733304808e-02 4.535200725995705007e-01
6.047117757791393294e-03 6.103765571124859790e-02 4.292540722037191947e-01
8.250539111922217464e-03 6.063051233649732058e-02 4.293082989823970297e-01
5.645255828235119094e-02 -5.594012334393999239e-03 5.115325927333149725e-01
5.675299916091513380e-02 7.349254132337390555e-03 4.824594487799831466e-01
5.528974633639468367e-02 2.429603069457731464e-03 4.972704442088515808e-01
5.551341203458447227e-02 4.413967384926922866e-02 4.758328203635963649e-01
4.151348576303780236e-02 -1.914134337354523457e-02 4.490351745000663031e-01
2.218974564227438676e-02 -1.286617814339276883e-02 4.361082366744928884e-01
5.528291955247717493e-02 4.429353262859238305e-02 4.783915149498220720e-01
5.006749201420019474e-02 6.193521038954537955e-02 4.676142261954792656e-01
3.984293546046966533e-02 -1.301158848547162572e-02 4.457908355409669343e-01
4.774559825533385149e-02 3.130281182083438640e-02 5.079960549370795553e-01
4.228751485296052687e-02 5.411844040014666957e-02 4.475484497827764696e-01
5.701142176577538717e-02 -1.156578254862014252e-02 4.808237857246653313e-01
4.988598064211394872e-02 5.426797033321285879e-02 4.911456663162124259e-01
1.345895723978021361e-02 4.658204517350043178e-02 4.232702677178357686e-01
1.824482171282332602e-02 2.740933782037933281e-02 4.287272821902075592e-01
2.221812461650150838e-02 2.667765762404755020e-02 4.320493917219792035e-01
4.669717431860042484e-02 1.095835971421236718e-02 4.494783603196484956e-01
-1.806239644521219490e-02 3.871472453482655701e-02 4.138957315041836837e-01
8.738695136577821418e-03 2.229155369485232713e-02 4.209959487717895854e-01
4.847891561379565756e-02 -1.657408591757760646e-02 4.598461639011131030e-01
3.859431005760451550e-03 3.098136919878188150e-02 4.066627632302818873e-01
5.557804984076734900e-02 3.774728684217230901e-02 4.883355685373028110e-01
5.559553776162317468e-02 4.028084793587641266e-02 4.647027854571632588e-01
-5.849453933641000566e-03 -1.599293148072593318e-02 4.344316115356762764e-01
5.031185756128789266e-02 -1.529787586076854482e-03 4.564127088419959732e-01
-1.157949791379624463e-02 2.468831151602690274e-02 4.168399332926964740e-01
2.780356059966621052e-02 1.031513972683562128e-03 4.372694604258010043e-01
5.777389573885621799e-02 -2.168632644630828082e-03 4.801076490422526155e-01
4.794153975266726014e-02 2.727436459461242413e-02 5.075291421286126647e-01
5.677914809594258178e-02 1.903826840345940880e-02 4.798882796569183262e-01
5.488225865311138069e-02 3.244589724154439692e-02 4.606920556394148991e-01
3.787144840970995546e-02 -4.910740148220353769e-03 4.433911882938960658e-01
2.771428567360852135e-02 1.829795333218187450e-02 4.363240678463395361e-01
5.073997258362052815e-02 5.670140328229952842e-02 4.799705936301174591e-01
-8.236205437753042063e-03 5.175329561050325683e-02 4.166754761529671280e-01
1.195543601121689010e-02 1.567685856566657446e-02 4.277814985436634299e-01
4.523425076688998570e-02 2.469314483566475635e-02 4.484997804462293458e-01
1.088869634092524963e-02 -4.931427343201223029e-03 4.323958098882792478e-01
2.417606350313632885e-02 3.157119861040586645e-02 4.333574200169959534e-01
3.149143276474721670e-02 -8.946581388447789884e-03 4.390198668079991484e-01
5.319524660347505624e-02 5.322079264269743287e-02 4.645186007563663622e-01
2.517765363762199810e-02 3.594413345667488852e-02 4.337982544697819298e-01
4.580287805267164308e-02 -1.110256741819638706e-03 4.503813012358761636e-01
2.726429130483423030e-02 -2.049997157623600214e-02 4.391605763934470774e-01
4.148390392379796426e-02 6.753393854391465112e-02 4.753728248516542187e-01
3.786897284851332285e-02 2.026616186736630507e-02 4.423498272441198642e-01
2.327903770855403037e-02 6.088131447378383049e-02 4.382698882934322193e-01
5.445529951704245614e-02 3.984090271305888720e-02 4.930589763950678495e-01
2.254077018864712473e-03 4.134722721757803920e-02 4.100666454093251923e-01
3.742958713403890525e-02 -2.243622032705488295e-03 4.429475839524143477e-01
4.069572983246869807e-02 -2.006150631624857572e-02 4.482722894115718781e-01
5.451839905920645435e-02 -1.161345208163383144e-02 4.714658235818877663e-01
1.335770944468737259e-02 2.675560386553396328e-02 4.241221226257858024e-01
-2.809720297165831798e-02 1.750000336726993330e-02 4.273922180245259272e-01
5.500618311581638442e-02 4.496681962136506172e-02 4.802085419219006002e-01
-1.534972151841327605e-02 7.817734859581641771e-03 4.268306605982144508e-01
4.953709725369707939e-02 2.018757975476304783e-02 5.022058486123672782e-01
1.104400868343265694e-02 -3.709605380392228934e-03 4.323221212409977809e-01
5.494404536224713892e-02 3.300599089937918812e-02 4.920132250480523939e-01
5.592556120202838571e-02 4.222595342346971946e-03 4.693729906642236105e-01
3.192553419085529531e-02 5.017973239998119867e-02 4.387849106249761544e-01
4.793701895407372765e-02 6.206311833825058077e-02 4.782286503535483346e-01
1.770694517554042072e-02 5.236747691450548831e-02 4.279793146595786135e-01
1.587502248095900431e-02 2.955282962739440994e-02 4.259474744590831530e-01
1.476343434533914332e-02 7.399198398978845681e-03 4.326003591992939601e-01
3.409563795157536520e-02 6.398233318415855186e-02 4.451605950269477141e-01
7.103804883216984379e-04 1.270398537195225122e-02 4.238863564347143953e-01
-2.384710293477688287e-02 7.048353042328999937e-03 4.305282132952841234e-01
6.311931401614965034e-03 4.142497618126372155e-02 4.135171584088338514e-01
5.673632713314456094e-02 6.691895448667448468e-03 4.834499597513326474e-01
3.846967078752937079e-03 1.990260057930801768e-02 4.193700363556210897e-01
5.435702518826997232e-02 3.260695244294430778e-02 4.938510570503668595e-01
5.351324409599707288e-02 3.837050424282894417e-02 4.966562833568898827e-01
5.051704706655666538e-02 2.523945437423053689e-02 5.005861706118250876e-01
5.005091109225758700e-02 5.784886320595547526e-02 4.581436746810622074e-01
3.858465511517835539e-02 1.815949505816057130e-02 4.429300679110290684e-01
5.534412530967786070e-02 -1.488637184330650169e-02 4.758178348703047678e-01
-3.463785227086433466e-02 1.034581053014897375e-02 4.376271201437444414e-01
-9.763406778084099402e-03 1.367672096974764315e-02 4.228142572021189038e-01
5.461376173559231995e-02 2.142885645040800910e-02 4.600134383308920327e-01
1.993626140213500611e-02 -1.782837429270151333e-02 4.368234215502272977e-01
5.320335663262959480e-02 -1.761886016558033077e-02 4.706583354093025751e-01
-9.559276835518968479e-03 4.838666885967772557e-02 4.125842842874566374e-01
4.453751816404481062e-02 3.668656792850830822e-02 4.482146894909895818e-01
-2.401076611448950751e-03 5.325356245455112325e-02 4.162204892989994076e-01
3.784742197166128530e-02 2.498153739233629350e-02 4.425266628146881098e-01
5.748165011958634302e-02 2.310429119290307795e-03 4.800561013847374769e-01
5.170533164316271080e-02 5.809788339127292672e-02 4.649896023496582487e-01
2.437290362923109216e-02 -1.156222823986457343e-02 4.364473788493643536e-01
4.216791251700439253e-02 2.139133024194471780e-02 4.456391653743996262e-01
5.354925180453973255e-02 4.338074829724711950e-02 4.954942573978489695e-01
4.739196069165378666e-02 2.827252764244727809e-02 5.087131813818599468e-01
4.743556055239112057e-02 5.563751661844124237e-03 5.144881971404947629e-01
-2.544676796560402937e-02 -2.272964976744402520e-03 4.345159082668129114e-01
5.460891502043940110e-02 3.437858820926424641e-02 4.932618133113563230e-01
3.085119695233959000e-02 6.697928718148601912e-02 4.509975764190938263e-01
-3.439930038930404110e-02 1.738953130225578264e-03 4.369838604847693930e-01
4.928692130806641009e-02 3.899715228295735220e-02 5.057726030266328499e-01
2.441336850924076887e-02 4.207432135540550844e-02 4.328878324206322237e-01
1.169000435178527142e-02 -1.643708899968397003e-02 4.363149224507698598e-01
-1.835169929544646847e-02 8.248694161569073216e-03 4.272738419124174625e-01
6.081335064937199927e-03 2.709953053493570699e-02 4.120677396368576106e-01
-6.126698864292854166e-03 -2.214295410909974688e-03 4.307499763486947741e-01
5.289340056932291534e-02 1.897496699507524032e-02 4.561426987873172800e-01
4.313939483164703353e-02 3.899266339129554143e-02 4.470155279821928507e-01
-2.893638838901797447e-02 3.636708519301037890e-02 4.206316712606238961e-01
-2.720240529015545763e-02 3.139766864411406427e-02 4.210586986080691041e-01
4.577078793458760897e-02 3.554012856142364785e-02 5.118834117254605909e-01
1.426128706952429701e-02 1.024213011211846415e-02 4.313220346505889369e-01
3.125584950487416552e-02 2.548154959568338027e-02 4.383862187198269700e-01
3.740541165110619626e-02 7.299041355213333609e-03 4.421903673004177748e-01
5.720950271633300221e-02 1.722206562384508751e-03 4.861359533569320490e-01
5.286550487201122084e-02 5.505643746636918606e-02 4.693865118067941933e-01
-2.063764617573569243e-02 2.314215962386445558e-02 4.209689891966871267e-01
2.986594345248557575e-02 3.707275162834287180e-02 4.375254337847767072e-01
-3.157039415222428341e-02 2.260381921373561670e-02 4.271165713395690400e-01
-6.348317033415293124e-03 7.698733687241421896e-03 4.260407887869585575e-01
1.378023721115716541e-02 -2.037669084432442226e-02 4.369813648507955284e-01
3.714388891058463017e-03 -8.058831426667250816e-03 4.321508908587014530e-01
5.750088468667918784e-02 -5.731286572339980463e-03 5.015613972454415759e-01
1.875047361534099011e-02 4.201241183910874033e-02 4.280147598536879761e-01
-2.212800451203693688e-02 1.741113365006892845e-03 4.316569948459104689e-01
5.656250528300246078e-02 -4.445089637752416140e-03 4.743187740400883756e-01
3.044958472032620322e-02 -4.375657537193538052e-04 4.386252685381801797e-01
-3.370738866454742189e-02 1.681595808629933811e-02 4.328763819551011971e-01
-1.118222243302126502e-02 -1.794287881579216624e-03 4.309493945706514562e-01
5.578185476240089119e-02 4.029936518191055972e-02 4.653364960063569589e-01
5.260367873229968017e-02 4.446453392133076221e-02 4.971498693629467502e-01
1.285743013041699967e-02 5.901804370524964261e-02 4.284144522434429891e-01
1.425328739874994616e-03 8.666404942106954029e-03 4.270488105025680436e-01
5.620183811844296773e-02 -1.026185186087530139e-03 4.985003758509595762e-01
1.897983510699081597e-02 2.214949024144237388e-02 4.300841099233082554e-01
4.561884996713273105e-02 4.598645056333329484e-02 5.106528759409669771e-01
-7.587533250572892768e-03 6.189465731081291756e-03 4.268477839238111748e-01
-9.218784421777712415e-03 1.661063678818040443e-02 4.206520745191046906e-01
5.747657903637033716e-02 2.840632813423508984e-02 4.751039689413728007e-01
5.145228853798527319e-02 3.443939256033420881e-02 4.552948343309522472e-01
-1.823168934604299865e-02 1.016037884723610535e-02 4.264082958113052935e-01
3.665157992273423287e-02 -1.381154857619151279e-02 4.432912400765099958e-01
4.745899367776088701e-02 3.765796235970116090e-02 5.088869509407315528e-01
2.446876870646646010e-02 5.944305555609078612e-02 4.365253066916670588e-01
4.498033894044016490e-02 4.722285885005530343e-02 4.489405798173728424e-01
1.047886757942902668e-02 3.112499051911607473e-02 4.184833164182475973e-01
5.094169663983946772e-02 4.052440812258615438e-02 4.551822237005945793e-01
1.100945072194196676e-02 -6.993169661135425520e-03 4.327457372882742570e-01
3.831306828218665472e-02 5.802897234246192498e-02 4.451552613292579785e-01
5.417102956321476898e-02 -1.726759089403190166e-04 5.080554983940196445e-01
1.913008982329690230e-02 1.642543213586676251e-02 4.316631149937260048e-01
-1.212912168998085335e-02 -5.291334113693236217e-03 4.321701941572122507e-01
4.814135155605839961e-02 -5.519967010672388943e-03 4.542997109495336416e-01
4.912383427461084612e-02 4.924685161274104661e-02 4.534228589623290340e-01
5.625257900636268515e-04 -6.970035082207606467e-03 4.316809611327881435e-01
3.534874773250939323e-02 5.319438096639991093e-02 4.416602167558970060e-01
-1.967502166440167691e-02 3.499160595060891998e-02 4.157068237779243947e-01
3.693799492487609415e-02 6.176308616613543356e-03 4.419819846138217656e-01
4.382161537086497194e-02 5.429423382049748670e-02 4.488308559535695297e-01
3.555392979035664619e-02 -7.375734557539379357e-03 4.418139950355136625e-01
1.728061319141252494e-02 2.152547966054326606e-02 4.288957477938104002e-01
5.229969295177195471e-02 4.710156874070935140e-02 4.946212112156613827e-01
-3.575137125297075252e-02 1.441422810838572863e-02 4.389615829957463911e-01
5.181230223839345533e-02 5.554631269252442022e-02 4.775695136272055663e-01
5.098987046822191921e-02 4.857453639379227112e-02 4.554465604425689262e-01
3.117715017722634194e-02 -2.941156976244106713e-03 4.387391230370584205e-01
4.915971140939043305e-02 4.287655059245288475e-02 5.054790398291258979e-01
2.227654787501071043e-02 4.983378166328402553e-02 4.312189943527139913e-01
5.681296592219863689e-02 7.935299085994908935e-03 4.817782805784149303e-01
5.773584790671799222e-02 -9.451594200556368616e-04 4.819339621613181190e-01
-7.393724755121101888e-03 -4.227950158968673579e-03 4.312532057650975137e-01
4.459763446079745286e-02 2.629987893509775493e-02 5.134348896293924325e-01
5.209802487308883706e-02 5.273049797480142825e-02 4.578434759042593338e-01
4.211048143297232982e-02 4.373050752989315892e-02 4.462032484783148845e-01
3.170628662260960295e-02 3.235495248541074564e-02 4.388449184294654914e-01
