3.033067778986889285e-02 -7.901726774041687926e-04 4.385030318133520399e-01
4.921481477770063562e-02 1.510849204793555077e-02 5.029003703352368237e-01
4.681752001861065604e-02 5.884848608849448104e-02 4.868714317426181548e-01
4.863359602517342700e-02 3.102931634400085681e-02 4.516923779007968043e-01
3.756540568736897040e-02 -4.947130628659371192e-03 4.431463667902542647e-01
5.714122593681703749e-02 8.064996350699957413e-04 4.774189105707711267e-01
4.098347751036791192e-02 6.521023499596045880e-02 4.510066940920903766e-01
5.309924218805633228e-02 5.311613288304649350e-02 4.782608491074476498e-01
1.132451867198637149e-02 3.524986906379741491e-02 4.186955868366236677e-01
4.537260583149781146e-02 5.911867729825450585e-02 4.513082269401806901e-01
-3.529745114979554454e-02 7.816515064253451960e-04 4.379281951764040781e-01
2.305115005091209340e-02 3.625658213071023678e-02 4.318974691823005974e-01
-5.003400946875628547e-04 2.596060250469384156e-02 4.089214372988038693e-01
5.207972967945601050e-02 3.775446005039208297e-02 5.002851814125426344e-01
8.675571324535349960e-03 4.735451016241885858e-02 4.178981693298807198e-01
5.586527110802664425e-02 2.588000878895373169e-02 4.627257617772772558e-01
2.075869179494959412e-03 1.108442650569339306e-02 4.255417777979565996e-01
3.058333988351569915e-02 1.166376686731552051e-02 4.378718079443797984e-01
4.847854043987264577e-02 1.473707356143363380e-02 5.054107528638071001e-01
4.267115076562987691e-02 -1.049043187053903814e-02 4.485658772377611458e-01
3.283545847583969196e-02 6.167434202841673430e-02 4.432612438884621087e-01
7.167139548601880392e-03 5.634898613742195944e-02 4.210509662787918495e-01
5.119587715879761469e-02 1.762157393312930448e-02 4.979508206287703298e-01
-3.440461996079616919e-02 1.297867759786668768e-02 4.371919668131420966e-01
-2.793921039271961282e-02 9.322657636649203661e-03 4.322493627372839264e-01
7.968307567640480621e-03 1.968061580409054614e-02 4.226778376407803739e-01
5.220508451631135360e-02 2.240081804676484142e-02 4.958026398350684483e-01
1.771463886507985974e-02 5.015737391092607578e-02 4.275395080636011369e-01
5.540157453370406215e-02 2.974079080360643793e-02 4.616655059770319314e-01
5.877561351979444793e-02 -1.146048745323171268e-02 5.112792156514378572e-01
2.473812522489619858e-02 5.858305586254979047e-02 4.359152277846664036e-01
9.272816785617822230e-03 -7.703976209000797104e-03 4.327082611895203268e-01
4.705476958705801654e-02 5.188621974948712245e-02 5.009805530058809575e-01
4.306005425531433256e-02 -1.826262641629451677e-02 4.507911740162550696e-01
5.293993935575635329e-02 3.934126412521640748e-02 4.980627681317750799e-01
4.911945451230964599e-02 5.680012597960458487e-02 4.863329735096342810e-01
-1.824346199811038502e-03 2.212818432828688592e-02 4.136659935629111717e-01
3.948316026483870977e-02 -2.524136454322408862e-03 4.445269461886938722e-01
1.623928258425737150e-03 1.396709295648713295e-02 4.232273117272732366e-01
5.346279591590281932e-02 6.524683537114938335e-03 4.977400385485333811e-01
5.596588771547653107e-02 1.586785701322313696e-02 4.844773269082858769e-01
4.108831755206748815e-02 -2.216159151146947226e-02 4.500155082389725725e-01
-2.757407402831225582e-02 7.178793620272042649e-04 4.338257269607180833e-01
3.447162187776465353e-02 6.619079755847152857e-02 4.490305330602422651e-01
-5.160172691911471023e-03 2.048739055000568451e-02 4.156802126576493173e-01
1.691200150899976190e-02 4.892523396284981230e-02 4.267401156209799096e-01
4.813289567934395802e-02 5.453787406890826805e-02 4.955805465051498770e-01
5.190636046748346721e-02 2.450725213985979062e-02 4.973147397269292447e-01
5.756042646430499683e-03 5.779345284157037105e-02 4.216888917179357210e-01
4.687943299924466484e-02 6.112539139246862818e-02 4.830775400108386353e-01
7.153897578852518209e-04 2.514563761604065098e-02 4.098989872256538214e-01
-6.171075190438751398e-03 -5.298961663732105337e-03 4.314410827897503520e-01
3.735366276089512744e-02 6.459464156863679862e-02 4.475821414610524074e-01
-8.404317320327781352e-03 2.826013385266649275e-02 4.133427395919063163e-01
2.277916543783708656e-02 2.462918735210932117e-02 4.325745121786940262e-01
4.381976186296966669e-03 5.263933631511048122e-02 4.170286096363718387e-01
1.128145954521826005e-02 4.095272199628121473e-02 4.193668664241421151e-01
5.256834925349928439e-02 1.449913939204006998e-02 4.559867269683045010e-01
9.172623027771529408e-03 3.730805786206423807e-02 4.166402679481210902e-01
5.666221135975134382e-02 -3.113120188555864969e-03 5.001060313147125402e-01
5.611988952123902336e-02 1.542577777369808466e-02 4.837044830488262948e-01
5.711834530824530520e-02 1.935745727566944366e-02 4.724021348522858821e-01
4.532995973421054259e-02 6.725925435247179229e-02 4.698180097250025944e-01
3.988555246173500213e-02 3.848308360650819215e-02 4.444313853569409334e-01
9.669636186012903548e-04 2.518403670707651185e-02 4.099016556591971727e-01
4.288890990711954898e-02 2.531706658490064099e-02 4.463195070017572097e-01
2.245039734286001683e-03 4.577360536271206370e-02 4.124048313196480020e-01
5.045480632814584865e-02 4.162545492334520508e-02 4.544798261682427287e-01
3.694433802065402728e-02 9.928691557484818631e-03 4.417320702022750623e-01
2.451129772087439623e-02 5.844096128758329012e-02 4.356191466127846135e-01
-2.094996406540654971e-02 4.996968486040766905e-02 4.226820741200243980e-01
5.204148302036858825e-02 2.712351933835148790e-02 4.550216585365662314e-01
5.443896133674643728e-02 4.334079451807065775e-02 4.609583488462367651e-01
5.350652202026088405e-02 4.936310045671325059e-02 4.863681324730779187e-01
5.403196093007305717e-02 1.464811644059550721e-02 4.905420236633916131e-01
5.275473583138790695e-02 4.469141941222916706e-03 5.036421167104112584e-01
5.667437489688526703e-03 2.419368945252062253e-02 4.154978831557839536e-01
-3.333011074881842700e-02 5.027596173775546531e-03 4.374849171517638524e-01
3.386708396119991749e-02 -1.425438842518413768e-02 4.412202873707345430e-01
5.041914691393512699e-02 5.770985079301420295e-02 4.792168529372479169e-01
2.756511478838539683e-03 5.326787112724667289e-02 4.173549799487835110e-01
4.838929298668720458e-02 3.451482937648715776e-02 4.515913300218055149e-01
3.994673007515264773e-02 -7.344627222264287977e-04 4.448335703226680149e-01
2.597099893978170940e-02 3.044031810182421666e-02 4.347542366841963268e-01
5.300458615941977536e-02 1.280574343384132535e-02 4.943260979102235275e-01
4.801481305822091067e-02 3.255535802968184678e-02 4.511368248177338725e-01
-2.209972186510538589e-02 4.794498056613016868e-02 4.201687605923279945e-01
4.428167573893694066e-03 -8.623153220998007809e-03 4.323593839847233999e-01
2.890041281719499255e-02 4.096485963751862747e-02 4.364738100168860102e-01
1.827913580347230796e-02 6.009970843265272783e-02 4.362013749884516289e-01
5.076658342995808704e-02 -1.264061196488840133e-02 4.633365448054962976e-01
4.218752236189787785e-02 6.696546664019209505e-02 4.537366252460734439e-01
5.119464479215455515e-04 1.126122645420166504e-02 4.247112962887346632e-01
4.397993473461155045e-02 6.762949034374922397e-02 4.671835717631611651e-01
3.390434192694411972e-03 3.846510173100662483e-02 4.096941397148356478e-01
3.789961485985202799e-02 6.627408070841678267e-02 4.500252437478581835e-01
1.104457973125724454e-02 3.808677143940455284e-02 4.195193732648181406e-01
4.647369143579883205e-02 3.606613982899524451e-02 5.107719340395663332e-01
2.348762955408752531e-02 -2.033472954171857555e-02 4.379052400237495313e-01
5.655832715546066369e-03 5.373572367087544460e-02 4.183067159315052574e-01
3.843566505834210278e-02 5.505384750925056830e-02 4.444919685114828711e-01
-8.202110231969726717e-03 8.018750542228322842e-03 4.255658011606329727e-01
3.122273364201831256e-02 2.378162903144793311e-02 4.382803820564771247e-01
3.389021772328011661e-02 3.576548033383086106e-02 4.403793342193830229e-01
1.329983255748984697e-02 4.150931715580816889e-03 4.324352787593821468e-01
5.620658840574616760e-02 -1.589977346683015338e-02 4.783192632865869709e-01
3.469118871909826485e-02 2.856678545698802807e-02 4.405568567122649659e-01
4.304769825144610235e-02 -2.241505494784837293e-02 4.532924088502604532e-01
5.113739822342347474e-02 -1.744091020362093652e-02 4.661011969779549902e-01
3.120112129629456013e-02 5.654176671505251744e-02 4.391376773375369469e-01
5.622764187527282825e-02 3.689239800528498064e-02 4.842223128031010737e-01
5.672844877043340533e-02 1.450629124298238176e-02 4.693754948993210108e-01
2.285780422225108105e-02 -1.426479198815982716e-02 4.365291820397440015e-01
4.014669211000480853e-02 -6.073222312628352541e-03 4.454364650450625129e-01
6.613711427906425119e-03 4.552884811124798675e-02 4.154821520019422731e-01
5.391822397154895363e-02 4.563001935017038657e-02 4.901380346809348643e-01
1.480127984906782351e-02 5.782302272707870450e-02 4.287160846631500877e-01
8.935842791650508432e-03 4.757362040328976666e-02 4.182987971258316229e-01
5.478471860673474192e-02 3.253791159680816114e-02 4.602908233627287515e-01
4.350139762179150438e-02 1.394410580282705488e-02 4.467232640262527310e-01
-2.674440703511400761e-03 -5.167454105932257902e-03 4.312829868413883827e-01
4.928104480748611571e-02 2.962493321934006954e-02 5.049056151284943006e-01
-3.281148686626803035e-02 1.039760776293508285e-02 4.351082489204891046e-01
5.693561036417237042e-02 2.359957685390240770e-02 4.660118616410077741e-01
-1.002094095351259082e-02 5.262115815182738521e-02 4.183028295913385208e-01
6.527058523701396997e-03 4.700548917172264751e-02 4.159589340851199135e-01
-2.025591042103448355e-02 1.649030981738203519e-02 4.242839968011316021e-01
4.681838249267404150e-04 1.022481306483683655e-02 4.254236183037400365e-01
6.655845325013453294e-03 3.229771189748127658e-02 4.082429868335353818e-01
1.052284477756680083e-02 5.988265696037443908e-02 4.279380811173050803e-01
-1.649122128059495561e-03 1.189726502458303241e-02 4.239656684450363588e-01
3.219870312240074445e-02 4.489800291819974476e-02 4.389978595625448898e-01
1.231127397352335846e-02 4.599357825671346323e-02 4.218163890365601021e-01
3.267817815452062069e-02 -2.462548092835557811e-02 4.432997049898810271e-01
5.213116584013600258e-02 2.071455417573499474e-03 5.093234164894324678e-01
5.649603602094147720e-02 1.270212038529189812e-02 4.815235723303173954e-01
4.809070937297310611e-02 9.237202454373531768e-03 5.098936954648325415e-01
5.477588120714744352e-02 4.668351136026850645e-03 4.644866723606777548e-01
-3.068607255787069582e-02 9.572446404685613225e-03 4.338358113055519882e-01
4.760942112504050992e-03 5.791215163426218643e-02 4.213859102221555464e-01
2.618427732949206443e-02 4.988036220752680577e-02 4.338671722754540716e-01
5.591629967295039944e-02 1.734646401933240267e-02 4.636928832725611405e-01
5.500665165138667045e-02 4.729874720332637172e-02 4.692195335193875549e-01
5.201112557099622086e-02 2.844102406256843532e-03 5.086836822288692828e-01
2.745388177627497775e-02 -7.140151897652375138e-03 4.368309865160882599e-01
-1.642851781000354006e-02 4.331377232903098340e-02 4.133582141794992504e-01
4.877248697678888967e-02 2.442847699543890250e-02 4.517028098801396663e-01
5.523360063611182369e-02 2.628643479373424241e-02 4.612329304353379733e-01
1.894244593330595382e-04 5.177387207443061995e-02 4.151021899700709228e-01
4.818239916991259170e-02 2.742713486553405300e-02 4.512286342144465889e-01
5.071419947769918030e-02 1.014338757773303526e-02 5.021389056189928812e-01
2.060745305056479321e-02 -1.005730222840741858e-02 4.352115194638653262e-01
8.616297423083374082e-03 3.363164221382999169e-02 4.118852965636957686e-01
-4.949188160920502816e-03 8.629677543223928174e-05 4.303571670066270172e-01
5.534388038031641532e-02 4.447531638499552242e-02 4.780442026797390720e-01
5.414626113649451122e-02 4.679115922951761208e-02 4.855474986130656756e-01
2.196748019583647307e-02 3.368729350906424919e-02 4.310152478797503184e-01
-2.956498837461763590e-02 2.960811117535301629e-02 4.233678477762011783e-01
5.078109261345807590e-02 5.323495648173578315e-02 4.898432065556707626e-01
1.041666737078104747e-02 6.049913965803171284e-02 4.306393292012086760e-01
-2.435326120189967511e-02 2.664206966604519208e-02 4.212232494883308420e-01
-1.717770839693250409e-02 4.724650151150537603e-02 4.153775880464202208e-01
-9.585494622642607571e-03 5.096359601684268686e-02 4.159804660033800672e-01
2.061382420635047424e-02 6.165516639817083394e-02 4.405013223530573341e-01
9.516075493513471983e-03 4.859446222981811392e-02 4.193251721810680732e-01
4.246507522620014685e-02 2.736430416194938348e-02 4.460561978732099364e-01
5.498824361875331856e-02 2.109672782194601040e-02 4.607646034772571175e-01
4.679423960989703701e-02 5.211113743173272778e-02 5.007737742922486746e-01
4.989021269059226021e-02 2.563155830525047293e-02 5.023634764105072703e-01
1.955946321060476889e-02 6.090313014517882012e-02 4.386860199578311859e-01
4.622294606734191069e-02 3.170827424919410442e-02 5.110992551938182693e-01
3.910289498341289194e-02 5.788134068548063393e-02 4.456808707063264485e-01
3.038945860432629847e-02 2.880916631445223572e-02 4.377798626446789410e-01
5.709325723292859450e-02 2.415631972881215200e-02 4.803295776601112510e-01
5.486302754789875585e-02 1.052694441767200147e-03 4.665061010542952968e-01
-2.930835243011096006e-02 1.937094530306921608e-02 4.269779173879685308e-01
9.289470925609395746e-03 -1.762191104218682747e-02 4.368469603670118717e-01
4.757135444469601238e-02 2.639523667860322123e-02 5.083573922716991822e-01
2.555313033931993702e-02 -2.321858390132625419e-02 4.390246561041958873e-01
1.770390951127377016e-02 6.095345079107361563e-02 4.389809635771622642e-01
4.959713581846213887e-02 6.078910828416408951e-02 4.751233406467197384e-01
4.156347451193941750e-02 6.374326236742268448e-02 4.497121461216738170e-01
3.511901969511422444e-02 -2.481654461523406102e-02 4.454727589463162163e-01
5.752434109730329009e-02 3.060595744383363265e-02 4.752045967431651197e-01
1.861194111881731700e-02 -3.015696559917948379e-03 4.339649719527605698e-01
3.024754645663181585e-02 -5.190162833203945843e-03 4.381645422071940854e-01
4.652094427696443907e-02 5.713714877615503479e-02 4.907582310402252013e-01
5.466679474254598770e-02 4.879770716765653021e-02 4.694477647478868532e-01
3.096898424853413920e-02 1.718139189860212052e-02 4.382008049371819980e-01
4.825670433581161212e-02 6.435319112679153963e-02 4.632029705059869107e-01
3.059506533698717196e-02 1.674910433434219706e-02 4.379970808026362183e-01
5.196813309164711320e-02 4.085012276210167603e-02 5.001792858952532894e-01
5.498063578794693679e-02 -9.741379712183920875e-05 4.672404597553715955e-01
-8.047418251057284963e-03 -1.181948548717677138e-03 4.305460350628792510e-01
4.937306317832918651e-02 3.753142936486391495e-02 5.057345208943132553e-01
4.704277818526258342e-02 4.110448901610689459e-02 5.094530186421761808e-01
5.562455526002913972e-03 2.605577719852397375e-02 4.121451592206092918e-01
4.673931792012329944e-02 -4.655203801644068953e-03 4.523519478808278871e-01
1.364201482349300561e-02 2.739673126875562248e-02 4.239439840235373347e-01
1.901012054199738288e-02 -3.370625528629914939e-03 4.340815154876020432e-01
1.400109123398276395e-02 2.530175011496987869e-02 4.252161767743370402e-01
5.684235745502055903e-02 -3.681211992343706111e-03 5.020166770124079303e-01
4.771550591734773777e-02 6.356147999319254616e-02 4.762221434071093884e-01
5.716446636053721525e-02 2.950143571837729461e-02 4.806952130093771758e-01
4.356981546601881861e-02 6.615784029114170350e-02 4.539884904348518990e-01
5.711187950010954140e-02 4.477190573086057375e-05 4.911761766561426046e-01
5.280689329454998221e-02 3.004848724606182589e-02 4.566315650642197022e-01
5.149914696160753230e-02 5.519229566476988730e-02 4.807927477239120617e-01
4.661115603049993672e-02 7.817450836331283834e-03 5.137806362634237400e-01
1.276472591427159700e-02 5.173235012698131768e-02 4.235029826562486388e-01
-2.209694405179343096e-02 5.690159234216420753e-03 4.299455622062470783e-01
-2.502255217442946392e-02 -1.731318913707053080e-03 4.341418236925157492e-01
5.136385565607989173e-02 4.343998848162347604e-02 4.556756006050492469e-01
2.169858270396779823e-02 5.528138986735043475e-02 4.312789628854026835e-01
5.827298986491492860e-02 -5.935372739814584117e-03 4.911511753254156898e-01
3.675072324257902534e-02 1.516929145953574941e-04 4.423164451281151321e-01
5.324495639592085466e-02 5.341784017495315035e-02 4.738210261127532297e-01
4.990791084191775057e-02 -1.526999507635491346e-02 4.624158555224495704e-01
4.488286943364999670e-02 6.393089809395033352e-02 4.804992353985578224e-01
5.445653433067644544e-02 -5.600964146947875685e-03 4.679389692163386516e-01
5.534280919242530461e-02 -1.577095785663946634e-02 4.758654475384428428e-01
3.398160146029302608e-02 6.796219708381198710e-02 4.517486473146470893e-01
5.362699554727499290e-02 3.367630844579183602e-02 4.581050680467227409e-01
2.054796737015804342e-02 6.176899920813568035e-02 4.407662561364442677e-01
-2.549240780042825658e-02 2.107022672699044447e-02 4.239532690333714382e-01
3.826636600367102400e-03 1.684910608487369399e-02 4.220909920165218931e-01
5.392509448675962547e-02 1.306637260325391701e-02 4.912356746355345249e-01
5.736929287248491993e-02 3.147990452529481759e-02 4.700966662689174957e-01
-4.387891762964471476e-02 -2.117052192805580872e-04 4.420114376560153047e-01
2.622329072984067380e-02 6.523878456887123589e-02 4.487442867134253111e-01
4.079878772985214702e-02 -1.174977551118267308e-02 4.465702369059206811e-01
4.864943791059808675e-02 5.935342313620482063e-02 4.823884287213360822e-01
-2.956418970660066800e-02 -1.261669623092432236e-03 4.356310292105980420e-01
5.522331933227956485e-02 -1.183832586224575073e-02 4.738870863793437915e-01
1.125129412714519737e-02 2.919334716180843961e-02 4.205246264282006541e-01
2.776658048584753832e-02 3.329838421719691355e-02 4.358970098519793224e-01
5.394529116400878510e-02 5.207762837467923289e-02 4.708877664382060679e-01
5.763856450002598220e-02 2.208521817263974559e-03 4.807026228760404307e-01
2.800385106401237847e-02 7.099741492884160910e-04 4.373526747968094486e-01
4.939267472194140696e-02 3.926772159667273054e-02 5.056464707790595536e-01
-1.159574475930905818e-02 1.766876685796050714e-02 4.208300691615766698e-01
3.993596332416120276e-02 8.857166488306301294e-03 4.440785384360776411e-01
-2.794713363917094434e-02 1.796356468963582545e-02 4.269776127757956008e-01
5.342625872976764639e-02 4.240504460742577919e-02 4.963301553812295985e-01
5.605567451305943499e-02 2.669394932892565214e-02 4.631980589703236229e-01
1.747152176504253307e-02 5.963643021299979557e-02 4.340566831922860191e-01
-6.455153767151501978e-03 -8.484250708700059179e-03 4.325531821487770268e-01
1.531928939790716190e-02 2.302528151714273823e-03 4.330902836844839898e-01
2.866168406335473789e-02 -1.541537994331689324e-02 4.385889808337638529e-01
5.074468384168658031e-02 3.896770227253425894e-02 5.031954917221853618e-01
2.974954628964041406e-02 -1.125699808728103726e-02 4.382243992063954430e-01
2.769167640984904373e-03 2.940945244788527313e-02 4.063392647337303876e-01
5.290804515605262992e-02 3.902218809495686114e-02 4.576125641906029773e-01
-7.501370867295065019e-04 4.546598940336153694e-02 4.114375010777590047e-01
4.723718818782413065e-02 1.813594484351831182e-02 5.082734196695037898e-01
-2.521256164816775350e-02 9.704329781860043108e-03 4.301479794735545981e-01
3.119967554503708454e-02 8.798969486641385410e-03 4.382185677907429744e-01
4.516469256732258408e-02 6.602008420142643774e-02 4.770958227676216357e-01
3.206402407033773216e-02 4.132133740941989347e-02 4.390169389509100961e-01
5.076194507270156975e-02 4.451212966766436574e-02 5.025094811407977424e-01
4.570231638714262329e-02 6.208135022928077534e-02 4.836442809633783035e-01
5.334530478107647050e-02 5.403306146131674204e-02 4.685888891521435284e-01
5.724060498073450104e-02 -6.236560649959272534e-03 4.793115462069508781e-01
-1.911421987119267529e-02 4.879145221137260596e-02 4.193944586528738361e-01
5.695418934656299587e-02 2.086457964805787935e-02 4.797668759938663596e-01
4.761866926958415597e-02 6.477731311611080456e-02 4.615204232494239944e-01
4.777403171068100862e-02 1.856475284243383136e-02 4.506264535588702658e-01
4.489800245750225072e-02 6.185188734154572349e-02 4.519674666045713218e-01
3.259496016312236465e-03 2.227104429736242661e-02 4.147466763446339688e-01
5.112530703011566174e-02 6.462667758196258229e-04 4.569124308914835897e-01
1.487064023726638630e-02 3.226054948150607060e-02 4.243578450630962617e-01
4.580861294492778041e-02 1.215116968905138872e-02 4.485988052896133782e-01
1.183872937732653209e-02 -1.233455046687372512e-02 4.344057041562837118e-01
-2.759703902885478691e-02 1.656228204744227689e-02 4.278031363024046296e-01
3.007762814683869607e-02 1.773122045253443593e-02 4.376548714529581163e-01
5.696842401027610303e-02 1.774383064509486158e-02 4.707989129941436146e-01
5.774758380350075021e-02 -6.187114603585327187e-03 4.831481157794010883e-01
2.754813747745309127e-02 6.041782526294671440e-02 4.394245446736493865e-01
2.968561791288547302e-02 5.841672187686084566e-02 4.393761419421087222e-01
5.488322738256908723e-02 2.754212573551946888e-02 4.604294416902199316e-01
5.696819300345648540e-02 1.395608667522617655e-02 4.751242292316967264e-01
1.368848872674000711e-02 5.999114694092633204e-02 4.315710578645555739e-01
4.313517691723959407e-02 1.402584276680474140e-02 4.464253753283122239e-01
-2.135591105651343802e-02 3.137241063236965825e-03 4.308585734880577278e-01
4.580818493922034912e-02 3.940431006947862219e-02 5.117383307405279913e-01
5.683637143678943460e-02 -3.456221612317934410e-03 4.996932297100964426e-01
5.657557241259896647e-02 1.614832299500892215e-02 4.814540716633370909e-01
5.830414702556370454e-02 -6.767897627826400392e-03 4.910226054879227586e-01
5.077416233324232031e-02 2.861759554507641024e-02 5.012208788540181148e-01
5.724704913064381645e-02 -1.455100109480510565e-03 4.940168904256198590e-01
1.667832978652749806e-02 3.949220080516197690e-02 4.261175928105353505e-01
2.679135316193850119e-02 -1.100416466689359447e-02 4.371135116259050601e-01
-9.403202691144779690e-03 4.582297848882010277e-02 4.119011709525517984e-01
5.072883063649014090e-02 -3.032188348131687004e-03 4.579609288309776094e-01
5.042869762258151561e-02 6.011337098327037415e-02 4.719513613639028105e-01
6.842549533667709703e-03 -5.693097961518931577e-03 4.319417077630582913e-01
-2.554279364721040446e-02 4.364178083470888342e-02 4.190682663661642882e-01
5.540361370959490106e-02 1.543055467773028202e-03 4.984099986837543517e-01
5.627581744095998262e-02 -6.225185776974197054e-03 5.131746557098146866e-01
4.575914983851323004e-02 6.745544099475657418e-02 4.654249704312138913e-01
-2.492351283378489019e-02 1.445101754351997819e-03 4.326510908161059765e-01
3.398389464902990161e-03 3.463882064026468227e-02 4.074285394758938028e-01
-1.611294239540696834e-03 4.058162315220037453e-02 4.091573051470985822e-01
4.815058586507209998e-02 5.717405833581436225e-02 4.873498770797058399e-01
9.198029252024383928e-03 4.752257544041538911e-02 4.186081822678597297e-01
2.745979481156867949e-02 2.938256691335329896e-03 4.369809131100504951e-01
5.715173211869954695e-02 -6.648780648109422001e-03 5.108377701590544051e-01
4.642969816417978624e-02 3.306240066712613779e-02 4.497160790730747593e-01
1.073539064118304853e-02 6.037534728285762903e-02 4.303387013210388523e-01
-2.418595320740131102e-02 3.584892749202157197e-02 4.177530960464436727e-01
-6.777202351642201000e-03 -1.148054453134679347e-02 4.335719747532389423e-01
-4.258030489491987196e-03 2.822920789460155871e-02 4.098582042288505534e-01
-7.356386508133081967e-03 4.122468832457216320e-02 4.107268841027296169e-01
5.690799911322182852e-02 1.209605079783176128e-02 4.745433608066977893e-01
5.662869266070266056e-02 2.905988863712801601e-02 4.645386641125596183e-01
9.880530242578502639e-03 3.664523573989629524e-02 4.174198022513569972e-01
5.513198069120878869e-02 1.030285985162548122e-02 4.634456341655299738e-01
5.447836976227204281e-02 4.832268816174076914e-02 4.658166333768593570e-01
-1.026194632878945495e-02 5.009854869674298244e-02 4.145403625037026307e-01
-3.241511748684759026e-02 2.712803180004310158e-02 4.263809216469870433e-01
5.703533884325263231e-02 1.783316906426383325e-02 4.786623472861336603e-01
1.782590005069705982e-02 -1.029691422861673741e-03 4.337592171280967857e-01
3.529671060004490463e-02 4.994265318904893280e-02 4.412524846561695635e-01
5.578036044800271931e-02 -1.101934481010142901e-03 5.030428696368960395e-01
5.444132568571934810e-02 2.110414958663828569e-02 4.594820478074515546e-01
-2.110050742159267842e-02 2.992014099830667129e-02 4.182264757114920739e-01
5.009881461413834974e-02 5.153684036841541666e-02 4.956044445186482683e-01
5.693242469648109733e-02 1.500684266659139260e-02 4.724410026913736793e-01
-1.616432722154981586e-02 2.988129367500408015e-02 4.159963042386394250e-01
3.124086835670426485e-02 5.608537909220652484e-02 4.389524370694445343e-01
-1.937823888238747114e-02 3.922443513731168480e-02 4.142688231576269198e-01
5.562665431853337089e-02 4.455794903664373613e-02 4.742565355646081171e-01
1.297639678867239937e-02 5.209321098124998495e-02 4.238505626297632278e-01
-4.243007108476004683e-04 3.470231594595712954e-02 4.060128715910312769e-01
5.687133682608795648e-02 1.192464784317834054e-03 4.743961857968204687e-01
5.634251673826485424e-02 3.877505436720529025e-02 4.775627440459874751e-01
1.985289132509146862e-02 -2.079107649798496438e-02 4.371962561488630383e-01
5.389136268824140652e-02 3.663903234956475408e-02 4.958753106010007627e-01
5.284909182660296051e-02 1.520665920263749790e-02 4.939314696565969554e-01
4.135844398648130804e-02 5.170809144655426348e-02 4.461448617532092764e-01
5.364567900901812125e-02 4.170429002156533088e-02 4.958163296039848067e-01
2.704571040238813034e-02 5.517115878994659911e-02 4.351086525334801336e-01
1.722283551691745559e-02 8.352278152422586144e-03 4.331322739897633389e-01
5.321719724474877067e-02 3.439264163986642531e-02 4.973626838832642671e-01
-2.694940018980886143e-02 3.478636125469363599e-02 4.198211282505647790e-01
5.246552464572423052e-02 -2.341021238913334850e-03 5.141531467178999115e-01
-8.770215835653304842e-03 1.708899233261966435e-03 4.298662664773331699e-01
-2.419545968810997427e-02 9.844484624293161571e-04 4.326585616481180563e-01
-3.800537624810959580e-02 4.099541977347173627e-03 4.435576406131880867e-01
-9.062990180928633122e-03 1.266231316438133463e-02 4.232170781898730860e-01
5.006030320980683207e-02 9.475714990328102175e-03 5.043028676318780379e-01
5.443754830077813384e-02 1.337887654225236936e-02 4.605667106709966929e-01
5.159976208908008399e-02 1.987304063945740176e-02 4.546577621918402312e-01
-3.245791110762701048e-02 2.217625704526241318e-02 4.279462855787335429e-01
3.060391511898718359e-02 5.628453183121000236e-02 4.386075701240869096e-01
4.951454109126638553e-02 6.670929252242534073e-03 5.094039868220068268e-01
-2.510606924130973430e-03 5.741023753523843628e-03 4.276081380684338407e-01
-2.520791852873802055e-03 1.242293585325805923e-02 4.235500840861435301e-01
5.766269493169327159e-02 -2.481243525626071044e-04 4.822935548543176298e-01
6.866721883388524766e-03 5.507055899771409746e-02 4.198408294648303674e-01
4.459333887993072523e-03 -1.183493986087214532e-02 4.332745782723946282e-01
5.684818306748289085e-02 3.243011870816023268e-02 4.830832118650930096e-01
5.539069936928542326e-02 1.869438713696666005e-02 4.867906044664327969e-01
2.229978148159785650e-02 5.171669566159177445e-02 4.313011479708532270e-01
-9.393829138836160692e-03 4.611603184698618435e-02 4.119544090331434538e-01
-1.253411515968099257e-02 3.510928886629707119e-03 4.287209424645192501e-01
-2.529556137979795810e-02 3.179504709111369287e-02 4.197875000861797101e-01
-2.711432476243480147e-02 3.840624331110141509e-02 4.198064043859424110e-01
-2.836753485019872373e-03 2.014293353576210310e-03 4.296682006378401697e-01
5.113954002428320461e-02 5.812696976282451591e-03 5.064899647100776781e-01
5.665319707448632225e-02 1.385151625528241448e-02 4.687771787848719063e-01
-1.112492340817570514e-02 4.629995442485079771e-02 4.123487184568315200e-01
4.157093703280115987e-02 7.006277541794610209e-02 4.610033613176094947e-01
1.280566299069147915e-02 4.970910794949348621e-02 4.229127468730647932e-01
-3.780746301852623385e-03 2.431045175017209486e-02 4.118855983420453004e-01
5.699519880005513017e-02 3.155868474623530189e-03 4.754538559741392501e-01
-2.904560409693212122e-03 4.477148918197135230e-02 4.111018818655982621e-01
4.989745002125745704e-02 1.383068634896578858e-02 5.016312268758811310e-01
4.646606151983848076e-02 -1.966914392133883860e-02 4.567823231843344267e-01
5.087016000131684701e-02 -2.232655144372720779e-02 4.666063871237960958e-01
1.249384841395639184e-02 1.437357723473881889e-02 4.286583038333122708e-01
3.278010068653353093e-02 5.118872162494046696e-02 4.393844975671753472e-01
-1.026545882002652746e-02 5.829752600063478401e-04 4.302277680981467789e-01
2.661200169187605269e-02 1.636419190844473973e-02 4.356963221580713586e-01
5.616966799016599038e-02 -6.555144182589325332e-04 4.982397297995365126e-01
1.168920939759121765e-02 1.038864492738053244e-02 4.298960589581936609e-01
5.044953615094277533e-02 5.301168109625242070e-02 4.916869518357777635e-01
7.675279617578452049e-03 5.489420518669486937e-02 4.201558789438706865e-01
-2.963610329429443996e-02 2.766635023765964818e-03 4.340584470396376404e-01
-2.905470909604933663e-02 1.819749684327654979e-02 4.274134651052038936e-01
2.170562793113696085e-02 6.314091695831741680e-02 4.436723165346027620e-01
-5.818519551368743492e-03 3.474920436516483468e-02 4.088000447007051341e-01
5.471669322403351077e-02 2.168436106174602244e-03 4.653563487023051892e-01
5.817371189172406559e-02 -1.327915265281143578e-02 4.861809751883133801e-01
5.229304522642148206e-02 3.403474114388230221e-02 4.992320552640936437e-01
-1.643436888739011406e-02 1.973248598043903998e-02 4.210779458327643665e-01
5.476599614391831211e-02 4.256163757171652767e-02 4.620832919899113267e-01
-8.321806679861914330e-03 2.078218400436918425e-02 4.174847814226707587e-01
4.632953426019047194e-02 6.626725382076484316e-02 4.719067950188858829e-01
-3.348241197370031407e-03 3.695272209657862045e-02 4.076744043151206975e-01
-2.460661210431511203e-02 2.741107784102521372e-02 4.210222552326772227e-01
1.025438628961201047e-02 4.582001526724335805e-02 4.193359024108599398e-01
3.530360073640569953e-03 1.031790034569864643e-03 4.307808191722990454e-01
2.436327640980741685e-02 2.169949753307961332e-02 4.340441010398073951e-01
5.693123383515243802e-02 -3.988679904281225604e-03 5.024417008375257065e-01
5.591417015269711799e-02 3.132977229066712110e-02 4.873567133021989850e-01
1.517699183239003789e-02 -7.354847321840435673e-03 4.335588144653815257e-01
7.973570029753331012e-03 5.895579193723613637e-02 4.243670306447953067e-01
4.506585348645854305e-02 5.408204312432925154e-02 4.986671664454496167e-01
5.063064585172393633e-02 6.013426643736133337e-02 4.632270526784111331e-01
4.536268853941073653e-02 4.965783861654134157e-02 5.089968961404476300e-01
-5.880406348115246179e-03 5.405337520729111556e-02 4.184769176694670967e-01
2.338895724977118479e-02 -2.016184843013457684e-02 4.378471512212107619e-01
2.117554998966707930e-02 6.088238791227001262e-02 4.385031778368651545e-01
6.945144356479742744e-03 -7.934517018745885358e-03 4.325088182727186981e-01
4.262142662421707778e-02 2.203607108634526510e-02 4.459913808115626987e-01
-1.898017144872747586e-02 2.817275113772486211e-02 4.179134304843239445e-01
2.966514582690211142e-03 2.029958826882876863e-02 4.175161935441044636e-01
3.086538371902617511e-02 -7.326872240053577609e-03 4.385092255777690573e-01
5.215786561703512209e-02 5.122786608286569038e-02 4.882408684561154177e-01
5.668634983240393443e-02 3.617409674785079104e-02 4.674858913836626439e-01
6.730880106826860575e-03 6.068089713731663476e-02 4.281475319538841640e-01
-7.489447191164426074e-03 -1.015126970500302567e-02 4.332908908574805151e-01
5.220619540941052322e-02 -9.970764913046206365e-03 4.653381438273592186e-01
-1.598177074597526698e-02 1.547282880482967610e-02 4.231848504852800397e-01
4.470823720600405893e-02 5.659765626569938229e-02 4.499662434488505003e-01
2.544657064527399565e-02 6.505971816639960492e-02 4.460555701437707854e-01
-3.408113616261325418e-02 2.947866105762113331e-02 4.272740978517376442e-01
5.547446420018468938e-02 3.150552158247456325e-02 4.899541258094633478e-01
5.617013985536132431e-02 2.653292136465807555e-02 4.869274619612873334e-01
4.705911667760345751e-02 5.556713889289542629e-03 5.150964543560260234e-01
5.186140063492100660e-02 5.773570627857665949e-02 4.691324947197757500e-01
-2.087989138129240155e-02 4.798091217814460033e-03 4.298289848736709939e-01
5.456378360034651320e-02 2.296434987072388037e-02 4.902682341384100861e-01
-3.606313160076588670e-02 1.500048796749958203e-02 4.392300365325335076e-01
2.332631743358128118e-02 3.246534260712684999e-02 4.323850039443327131e-01
9.376144310812798560e-03 3.278246539366550666e-02 4.143919603437484778e-01
1.069770800121366480e-02 -6.394090483213240098e-03 4.325447198391053072e-01
-3.478935887498103147e-02 2.725519644910014312e-03 4.368014794818151358e-01
4.672444861834131741e-02 -1.438187791498474200e-02 4.553665050038946949e-01
5.790122604988933580e-02 -1.554317913289607941e-03 4.859640192801411018e-01
4.451400720196764527e-02 -3.174316827743421058e-03 4.493766599201364231e-01
4.919536931030390331e-02 1.016036806453190187e-02 5.060519110020599287e-01
6.786963804025812966e-03 3.250958621673408905e-02 4.083882846870091066e-01
4.012376562455324813e-02 5.711831887318699619e-02 4.463483049936369795e-01
3.057052772202858287e-02 1.090538603728813914e-02 4.378816819528801862e-01
5.401217575630191253e-02 2.390667328329810354e-02 4.585282660408448452e-01
3.881456331431861612e-02 6.810730625113643744e-02 4.704555463352471656e-01
-2.344002056349360139e-02 2.052147380223043847e-03 4.318936711125702099e-01
4.631311728837368691e-02 6.715598832762591230e-02 4.635795061848285159e-01
-3.934263957227399772e-02 3.264716919498146866e-03 4.429462792529082482e-01
4.277263243596159115e-02 3.189603029880728330e-02 4.465416576204224164e-01
4.507540050006452609e-02 3.895720531089479077e-02 4.486741345638186607e-01
-2.615318253966640236e-02 1.680188177909785335e-02 4.267974745261860492e-01
5.106671723305755001e-02 3.658668817178126198e-02 5.024099723038950582e-01
8.091640712454009621e-03 6.030776671158771113e-02 4.276964424263966502e-01
3.891781112241091134e-02 3.115585796350346659e-02 4.435692313351056737e-01
5.458143132760705923e-02 -2.996384662425932732e-04 5.071205468160542296e-01
2.772652935473255559e-02 -1.154505024852027668e-02 4.375130022532360274e-01
5.648742989175843665e-02 -4.869072351748919385e-03 4.741100977643275538e-01
4.337993417279658454e-02 2.551868475640811651e-02 4.467609594576023024e-01
3.967709985849576099e-02 -1.234875070037150767e-02 4.455362881448210466e-01
4.732214545017094515e-02 5.678525365299599142e-02 4.900261227500553596e-01
1.179081602492484428e-02 9.689867028842131386e-03 4.302246527817594202e-01
4.502973067505338517e-02 3.460841366630869331e-02 4.485166332461707484e-01
5.532539455704337666e-02 4.198225430311823547e-02 4.847978770841044893e-01
5.426997406133615698e-02 8.246348749392472255e-03 4.935155653829723099e-01
-3.117779121237962154e-03 -1.169734167720153269e-02 4.331336277320954609e-01
4.507416821179665439e-02 7.103467550598078009e-04 4.493123434404379668e-01
5.251977379813852626e-02 -1.880458353758913959e-02 4.693855167271996365e-01
2.272536009679414909e-02 2.943009456889919551e-02 4.321578305221885907e-01
-2.474146578944406722e-03 4.130428952622039462e-02 4.097147465975611857e-01
6.953689947328338915e-04 4.219909911670135204e-03 4.291698120976643049e-01
3.474084226066928571e-02 -3.580883528580747297e-03 4.410494555598748478e-01
1.308199610904685339e-02 5.840807289832002092e-02 4.277930226430116112e-01
5.398775912531728061e-02 -1.328158646309841699e-02 4.705526108751766912e-01
4.420957649264050521e-02 5.160768465221272222e-02 5.056612550462262767e-01
3.025844261023076173e-02 -1.545053325784810291e-02 4.393835563921445475e-01
5.623940923640037559e-02 4.145169475048976482e-02 4.710964653802294788e-01
1.499237829397322488e-02 3.696744321087720025e-02 4.247080137665735222e-01
1.739166634786381421e-02 -1.033688162142505293e-02 4.345280596674666040e-01
4.213531949524756265e-02 6.800605876984734677e-02 4.542947487429517817e-01
-8.657949252289113065e-03 2.212004898289633703e-03 4.296186137615224387e-01
-1.252365235458058855e-02 5.633224557563210055e-03 4.272702857560272682e-01
4.389954302229532451e-02 2.928213062251986548e-02 4.473371517555250199e-01
6.653506097294013127e-03 2.677371915873620264e-02 4.132427542730471859e-01
5.699608201905784904e-02 -4.438564320886987866e-03 5.045928386125470011e-01
3.741071651305997309e-02 -2.048839459582692257e-02 4.455666523427750381e-01
2.326840952186964157e-02 4.712433916036476433e-02 4.315347196004100105e-01
2.203379854747467351e-02 5.568576338626964051e-02 4.315466379452424506e-01
4.538335556833014012e-02 -1.051771494812659725e-02 4.522750978928592458e-01
5.755369996923950099e-02 1.210839962908221053e-03 4.798740640332848639e-01
2.029162598854935412e-02 2.958608347594413740e-02 4.300784982674133450e-01
7.513379214169526449e-04 -1.391898350964805055e-02 4.339591855200489179e-01
5.447672983093546084e-02 -5.653175803251916237e-03 4.680077702628194780e-01
4.748618642095318171e-02 6.187780591888970838e-02 4.564334204106301196e-01
5.693860608017643071e-02 1.555561054440759983e-02 4.792622373785073719e-01
4.387649422284001927e-02 5.059479008593122801e-02 5.092649517357903388e-01
1.421724729983113097e-02 2.154265432646528672e-02 4.262046834312478438e-01
5.748745281710786886e-02 3.199738527114453362e-02 4.743494821630478975e-01
