-2.280858079498526703e-02 4.135413567342634267e-02 4.168817890153284633e-01
-1.533027335704497882e-02 4.060037104909648004e-02 4.127419135100906522e-01
1.585232986307809691e-02 5.669921914382790480e-03 4.330880967813413585e-01
-2.265523875893632119e-02 -1.000037823578042630e-03 4.331058231742035969e-01
-1.160251142524574772e-02 4.164813858304416971e-02 4.119107849219987849e-01
4.068006668526184810e-02 1.925788880236494610e-02 4.440569860544564817e-01
-2.324166991206300797e-02 4.236940712136516574e-02 4.173787362924041844e-01
-1.045076360090751826e-02 9.318169033079849034e-03 4.252810485720282530e-01
5.760548493630798100e-02 2.192801825718046493e-02 4.797841793217157980e-01
-2.949900988085372294e-03 2.835161771228114982e-02 4.102821583724488019e-01
5.323027214392482553e-02 4.820720577213173652e-02 4.571734555676455480e-01
5.443350010208310857e-02 -1.351952412747956835e-02 4.716542055677100942e-01
7.071818498774672286e-03 -2.247544404465531484e-02 4.381439847725872583e-01
5.298257626176956780e-02 5.512380915986155039e-02 4.602719831083478819e-01
2.426367530881772677e-02 -1.887850259074371276e-02 4.379243159262675156e-01
4.501938281188569424e-02 5.000864781979805218e-02 4.483685316408400623e-01
1.314271638423098604e-02 2.434017095279635001e-02 4.237746771765902865e-01
5.717615038207130712e-02 -7.882555498842069505e-03 4.789447572156406707e-01
4.150354787128387839e-03 2.155023975407291403e-02 4.163388854319184373e-01
5.673723508099216134e-02 -6.052357088648853412e-03 4.750324239939070492e-01
5.316539458935960055e-02 -1.756808498140284905e-02 4.702396579752446404e-01
5.264626750546183565e-02 2.646405152774223939e-03 4.587708610902157536e-01
-2.152398552967544829e-03 1.660273294937578137e-02 4.204964518819024888e-01
4.836200947282186940e-02 4.132787414970481854e-02 5.083727405564569812e-01
-2.191147985920563132e-02 4.092144055703641169e-03 4.308532490441490115e-01
5.722250170752198051e-02 -8.395776169303013209e-04 4.937007682784849694e-01
-3.238592589463616667e-02 1.201515831693069497e-02 4.348018591149001577e-01
5.667067145259912370e-02 4.326260800846028903e-02 4.725413955261590915e-01
1.150478136013042239e-02 2.236472741932432270e-02 4.229338222785555823e-01
5.717724855627508845e-02 3.249467510969462902e-02 4.845817730736821094e-01
3.695853836572562251e-02 7.167761567907234184e-03 4.415557907171140384e-01
5.796939063483724092e-02 3.267966809856414495e-02 4.702583716752654075e-01
4.879843305916525126e-02 6.097558640583253253e-02 4.807151925932882652e-01
2.666688655570341460e-02 -1.123253440114106456e-03 4.366533553067421525e-01
5.471328118783347350e-02 4.643218220708031363e-02 4.883407533709872017e-01
4.401484846794909839e-02 4.789886158336282423e-02 4.473427760674345000e-01
5.232914608066446122e-02 -1.686348418405512334e-03 5.138919612810531889e-01
5.138506020516820511e-02 2.781972501655638474e-02 5.010749499233522197e-01
2.041412572119901542e-02 4.690348606512097229e-02 4.287469677973900772e-01
5.728642554843622892e-02 1.879587232048946302e-03 4.753300638336208639e-01
4.595444084450083649e-02 6.722999148569812344e-02 4.697930240933439472e-01
4.249965414488491439e-02 6.825580775127126909e-02 4.544364514166610025e-01
-3.267587397939501065e-02 2.432258783754457504e-02 4.283150242383961248e-01
-3.886498715949467109e-02 2.721935440389633160e-03 4.415690796019384745e-01
-3.548567976006623825e-02 7.047762244606340341e-03 4.394435098483273072e-01
-9.057415199643696624e-03 1.944325595188309969e-02 4.191113689080813720e-01
4.876203006217445096e-02 -2.158004843556937322e-02 4.621099229530548635e-01
5.848057325399778211e-02 -8.851993541535058824e-03 5.052722112323444481e-01
3.633194985163182983e-02 4.129612295908970110e-02 4.414894342376714520e-01
3.249449248608007879e-02 6.141102168298256253e-02 4.424096337207252816e-01
5.804113343328782398e-02 1.933708409263745417e-04 4.808396594779527078e-01
7.273107415242854867e-03 2.817438268970087756e-02 4.101040831146549603e-01
-3.050897244045463683e-02 2.735917706591570187e-02 4.254505212234689360e-01
1.265731125857741737e-03 4.590485635581339346e-02 4.114878890667971190e-01
5.723828810088122526e-02 -9.536878079772914338e-03 4.807241409529364184e-01
5.070335865841178735e-02 3.734045228627988489e-02 5.047571984779596344e-01
2.752074563496555160e-02 9.191433843533040882e-03 4.367769083596302893e-01
4.617666245883948750e-02 5.977950751417246411e-02 4.879239395860192063e-01
5.593449772809115650e-02 4.186153290115293690e-02 4.860329866488214967e-01
5.670614079134405489e-02 1.428124432814990331e-02 4.658338955687943428e-01
5.765616233672418711e-02 1.928145680153425454e-02 4.721689944904416403e-01
5.614368791073158504e-02 2.393659334287210477e-02 4.620484764696886071e-01
5.754478267381998857e-02 1.761289173808149033e-02 4.738773157927928525e-01
2.766724449838164901e-02 4.965848854705738613e-03 4.369142039152216772e-01
5.105607227912042911e-02 5.861753225391433397e-02 4.778736807367408024e-01
-8.568117577797879948e-04 1.893835232292298901e-02 4.185602706136635209e-01
-3.831651360620485017e-03 4.529800950439630269e-02 4.108273478157389857e-01
9.097577630285808709e-03 1.942352248853218208e-02 4.230827518848294666e-01
3.890034029908040480e-02 4.032621680283961924e-02 4.432842295677124067e-01
5.489262613226390114e-02 3.203714248052100255e-02 4.944157662265084574e-01
-2.416077660763044435e-02 3.671692312628190014e-02 4.179542419145800825e-01
5.238618156373743562e-02 5.848776103883372712e-02 4.700712512724574133e-01
5.138116457094527023e-02 2.799846602137025589e-02 5.011434437246794493e-01
4.690367545249481129e-02 -5.232749965749692971e-03 4.524053818648930414e-01
5.712918265189817491e-02 1.464556324401327173e-02 4.682407068488395607e-01
5.390661473458646658e-02 5.443192224221390929e-02 4.650758685832502293e-01
5.612904708573846629e-02 4.197734016020927481e-03 4.680907236917467573e-01
5.599872254133581723e-02 8.471041354321254963e-03 4.884859708389360788e-01
4.358743029969216337e-02 4.614725083322843147e-02 4.468975679672346213e-01
5.835694706119157887e-02 -8.515779027746358393e-03 5.054674401671818140e-01
1.080034210898520551e-02 5.148954519482012819e-03 4.316564996891534833e-01
4.626079126581502526e-02 4.182342713049421595e-02 4.492786782772474341e-01
5.506754915726393140e-02 4.194723427085101514e-02 4.600449758882363405e-01
4.245027134902130267e-02 -2.316950117795407368e-02 4.528428909217330767e-01
4.817604366750505296e-02 3.697905585809195539e-02 4.509830247254395519e-01
3.989424475175970541e-02 4.004705050633250440e-02 4.439814727639532221e-01
-2.925979932678744386e-02 5.024892741151915435e-04 4.348434594068094627e-01
5.456395270487146565e-02 3.643014700901288372e-02 4.958916316321644313e-01
5.451557129473794810e-02 9.212338441398642067e-03 4.610035559362524737e-01
4.830548188089812955e-02 5.013303053589459463e-03 4.512861489577332796e-01
5.291047979640765148e-02 -1.916337285660703327e-02 4.700651897266436285e-01
5.490824527429966767e-02 9.063215295278485156e-03 4.919133471659876689e-01
2.973597313939704487e-02 -1.220864463939122686e-02 4.383301307862583207e-01
4.482976830459097645e-02 -6.251071125906159168e-03 4.502233038631974771e-01
5.177151330085972419e-02 -1.986313416176843996e-02 4.677191013363758421e-01
-5.370375287617903601e-03 4.015686707444261760e-02 4.096175230630895725e-01
7.838056171903941965e-03 8.451598560026966911e-03 4.291541784326515785e-01
4.380582405353331682e-02 5.065882290759655959e-02 5.086751594640613883e-01
4.671567268922835470e-02 3.732800948808592117e-03 4.499877749384472159e-01
3.556521073945272116e-02 -3.658044505875343837e-03 4.415045497656635565e-01
3.788202826934284478e-02 6.972881325652816042e-02 4.527588864824604875e-01
3.437349752232751049e-02 4.221433279026161681e-03 4.400975843556284017e-01
5.006220706701110246e-02 -8.335090316064627455e-03 4.590122182145729979e-01
5.304574896375007648e-02 5.715483101991035431e-02 4.632283159768072478e-01
-1.558541254525401716e-02 3.248778134717783539e-02 4.150403107149363557e-01
4.010089276959400567e-02 4.018233991813820183e-02 4.441364872592363788e-01
-1.961859711702860706e-02 1.463379697828437465e-02 4.252767424442939759e-01
5.738082785947330039e-02 1.241449597627136518e-02 4.744628197655229029e-01
-3.202731899236213597e-02 8.163438525666821561e-04 4.362174268900564367e-01
1.220726565224633173e-02 1.952848521264300904e-02 4.250000773950384780e-01
5.812998389195921795e-02 3.041201130028185068e-02 4.769467802391501587e-01
4.366083006604570826e-02 1.141503931511567843e-03 4.476571061878192870e-01
5.315510524852903873e-02 1.625256822855902436e-02 4.561227208156192758e-01
5.810652180263555650e-02 -6.240980295198456963e-03 4.844010105083201845e-01
-1.342284609924887084e-03 1.260551409640037201e-02 4.236200232071349880e-01
2.626869664730249396e-02 3.609871356973368139e-02 4.338946910667360046e-01
4.004412826075140486e-02 2.440646676317682895e-02 4.435735130214103483e-01
5.673031321674788796e-02 1.731595948670455049e-02 4.835471425543164115e-01
3.945663260931302208e-02 1.553529267693399673e-03 4.441287030558964677e-01
5.771620484462142847e-02 2.539998397847299805e-02 4.670410109755570027e-01
6.372959220945848512e-03 6.081719998660978233e-02 4.264746494214566308e-01
-9.724320801195332140e-03 4.031129735670178210e-02 4.111624378336948271e-01
2.764738156360710408e-02 2.680756349232934002e-02 4.354610558567573730e-01
3.355174241036376626e-02 6.670761160649944788e-02 4.498277853921129332e-01
4.412775574115216509e-02 6.417195735248598654e-02 4.814276129512653490e-01
5.671836461834159349e-02 3.013160161196834497e-02 4.867681137417588788e-01
5.285022289906024517e-02 5.438220850769364539e-02 4.588936120092680926e-01
4.914581157636844361e-02 3.541269159677109396e-02 4.518882119563332189e-01
4.806486506382986329e-02 1.680106292171348534e-02 5.070037893253930283e-01
5.609399939891893117e-02 3.349952347509704831e-02 4.618564076978770028e-01
5.745057696373898765e-02 2.921360901709322763e-02 4.650954867821951999e-01
4.536772752916182899e-02 6.736851587577900868e-02 4.676137522381082490e-01
4.772135173107214245e-02 6.325931250233683689e-02 4.565243405993034131e-01
-1.630116946337318434e-02 1.028766574630614328e-02 4.260010790222244492e-01
1.254449787469990446e-02 9.360381734345613047e-03 4.305189102660225142e-01
5.601949065685303542e-02 -4.990638075715730926e-04 4.696127135137024289e-01
8.272304260115112898e-03 4.621074498304485190e-02 4.159356635539052105e-01
4.661338401763122363e-02 6.754819647116834525e-02 4.646360364596380799e-01
4.010545720811989345e-02 2.785961853144939063e-02 4.438688122411103554e-01
5.296829125455066595e-02 4.530256505782494919e-02 4.969636621262191190e-01
1.626151023732027440e-02 5.537315124973698349e-02 4.265702630094228565e-01
5.160917310744572717e-02 3.655962656819784773e-02 5.028338944446868464e-01
2.657851310382138010e-02 1.507660489938039694e-02 4.355253159336808233e-01
1.483368922307469820e-02 2.317515981946745643e-02 4.257179706581849521e-01
-1.464557108911721320e-02 3.578865619987448704e-02 4.136931500940392858e-01
1.904283871309158174e-02 -7.320140545425610212e-03 4.343432250941665629e-01
4.724439175066072472e-02 -1.051010082559053135e-02 4.548615427370357178e-01
1.140864262990922556e-02 6.129154786300228946e-02 4.332397540414740233e-01
-2.483112287688760481e-02 3.687723378863790036e-02 4.183391089194076207e-01
2.580289126359895657e-02 -1.242716064380470706e-02 4.370160804713710267e-01
4.033975705764340780e-02 6.638239427622207034e-02 4.515461232912745260e-01
5.446577936437495271e-02 2.798560049232409058e-02 4.942868944669214226e-01
-1.049682339711613573e-02 -1.243613821076145452e-02 4.345892824500682261e-01
2.543139204980114990e-02 -2.087949246115678587e-02 4.386185943306592505e-01
5.433480835358637379e-02 -8.834244617989372994e-03 4.686654469678833701e-01
-2.955845583144812300e-03 -7.885303774794329146e-03 4.319542478457938373e-01
5.694770903816107066e-02 -1.585578790981459138e-02 4.800933396904928374e-01
5.475343707873091964e-02 -1.715991854790688796e-03 4.664969012652654401e-01
-2.913609474438887820e-02 3.390955813877277042e-02 4.222165763536900318e-01
1.055410112641319738e-02 6.084556834316259821e-02 4.301307155251241077e-01
5.184819431659973277e-02 6.728775055857195812e-03 5.032318604730920963e-01
-6.808261228773559472e-03 1.898438461124681009e-02 4.185071297953422143e-01
5.310479721790292013e-02 4.493602387496927614e-02 4.569909987501133419e-01
2.230286764494968793e-02 -1.022454605201223929e-02 4.356534290478656368e-01
2.437139449741097114e-02 6.454103513231890243e-02 4.450903125434754748e-01
1.797780433487908280e-02 1.679672600046416137e-02 4.302748916068060980e-01
1.686113151654769146e-02 2.767818862494486956e-02 4.261865358341563326e-01
1.655168943159807116e-02 -1.791281021060964554e-02 4.365296139621940852e-01
1.271953196833769915e-02 3.919734820340420312e-02 4.201296778525958620e-01
-3.031475227100383259e-03 2.756097099097903902e-02 4.108379182986631739e-01
-2.614324610215141426e-02 6.602967378794055535e-03 4.321129888490977677e-01
5.037259730147929625e-03 1.992980519274367354e-02 4.197998411428547350e-01
5.737415936398253258e-02 -6.522993623357798906e-03 4.787879357862254714e-01
-3.086662974655161179e-02 3.245606047118509974e-02 4.240796080332909779e-01
-2.254512438330921048e-02 8.979888371749270362e-03 4.295024450584863929e-01
-7.569899148933814659e-03 -6.380891005646937208e-04 4.304956534483171393e-01
-2.710951149231773279e-03 5.555613913443544633e-02 4.199533243734491217e-01
3.868502640040277080e-02 -2.595920359453900497e-02 4.490411696959819010e-01
4.925890379352979020e-02 2.402847060580154057e-02 5.049985987235063867e-01
-6.733290233851235533e-03 5.155618819309897710e-02 4.156024399704127403e-01
-1.387297573560279315e-02 2.741506760323026218e-02 4.169004627452335132e-01
5.620340302229576146e-02 4.085539481443785370e-02 4.851819573864930568e-01
5.110080797610907360e-02 4.628650170674973585e-02 5.012793344885165814e-01
1.082977759141280638e-02 3.481139848010050136e-02 4.138421258851694984e-01
-1.865737747751880157e-02 2.948926333247907719e-02 4.177845714315241987e-01
5.767102436212444977e-02 -1.076212252841098754e-02 4.825190595607832811e-01
2.451528218432342393e-02 4.473358259560818867e-02 4.319483775936689973e-01
-1.873800404248356782e-02 9.828344069907901659e-06 4.317027922226053249e-01
5.763862988812669397e-02 1.855631258053675944e-02 4.758374767668570038e-01
-8.059626103442765060e-03 4.352352664168823715e-02 4.112572470387243495e-01
5.524958801725141089e-02 2.427142493531029427e-02 4.600325153429556946e-01
-2.564433367567552080e-02 4.590740274552201558e-03 4.320813685633128065e-01
-1.971930848020216412e-02 2.085968268158353706e-03 4.309074382644535461e-01
3.395288440299167997e-03 4.217990156064144180e-02 4.099327320118698048e-01
5.565236625164286105e-02 3.033856868932877093e-02 4.608198183822544425e-01
5.743996217112050384e-02 1.396717049916669333e-02 4.773160463342916437e-01
-1.801959769858695742e-02 9.262964153813172535e-03 4.270298721085855065e-01
6.688443656091475065e-03 -6.131418561314657539e-03 4.320542694434295061e-01
3.319555905603326779e-02 5.927755965054767873e-02 4.415928856801574209e-01
4.060780979294739690e-02 1.747011341568571741e-02 4.440755013255888173e-01
4.894400995010786404e-02 -9.144325610229753903e-03 4.569851556116993341e-01
-4.749454810389783926e-02 -2.557670422208078997e-03 4.443563887284071035e-01
5.738360730667797088e-02 1.757056022201356968e-03 4.766200985306740523e-01
5.785145479976917804e-02 2.240882495773351135e-02 4.785839499057989999e-01
1.237684032624031261e-03 4.716606247442380051e-02 4.119335576021549428e-01
-1.439696832193508406e-02 9.872182156387722396e-03 4.258153189306123632e-01
-4.233723440335614846e-02 2.467922902776289486e-03 4.422612816256101254e-01
-4.395727763698144969e-03 5.501990024842804555e-02 4.193477573887774978e-01
3.204640588304755178e-02 3.942074741163256041e-03 4.390216577917342988e-01
5.439998611960979169e-02 1.853749775166563946e-02 4.909883909068746277e-01
-1.409425235651593986e-02 4.925039664521918374e-03 4.282537962470630566e-01
2.233593638722239372e-02 3.661813219011619130e-02 4.305633020482969586e-01
5.374292545144448291e-02 5.271509887666948890e-02 4.604032543916234954e-01
5.403599486162873750e-02 3.667719664416503600e-02 4.975239491555512594e-01
5.158795373458799349e-02 5.270333049595089109e-02 4.903945693865595645e-01
1.053237365038542719e-02 -2.306425615795284698e-02 4.378729288741202152e-01
5.554651581705684349e-02 -7.656884297278918582e-03 4.714847618203260038e-01
-1.966851661324616959e-02 3.869189165742416281e-02 4.149801215218392736e-01
1.277821601621596109e-02 5.076647159292059681e-03 4.321928449295047714e-01
5.186208947181296380e-02 1.769607167058505348e-02 4.975716051965897724e-01
-4.397618844157510226e-02 1.283653783054650686e-03 4.454040490532222840e-01
-1.588598875502395934e-03 3.426616569769497939e-02 4.072114117131497291e-01
5.158586849364165533e-02 5.814917666497024240e-02 4.764575926340642864e-01
5.570926278354223354e-02 -1.326885759353330432e-02 4.756082947216166978e-01
3.398085483521155054e-02 2.190082841879908981e-02 4.396397052760043778e-01
-3.145059223992024283e-02 2.073973152423873659e-02 4.281988813888196188e-01
4.862110801150953260e-02 2.534777582525144304e-02 4.511313977144508214e-01
4.175501597144821997e-02 -1.553090571474322057e-02 4.479289709920507012e-01
5.050208104586730723e-02 1.385797296863658552e-02 5.008830944761895054e-01
1.241167276033048640e-02 2.763623460561487376e-04 4.322864649542133564e-01
-2.082650272001169631e-02 1.815837552809293834e-02 4.240027301747503752e-01
5.560580952367881469e-02 4.297075251321876010e-02 4.875896794441612059e-01
5.233071871890872251e-02 -2.314569777427014086e-02 4.697220136925583378e-01
-2.369351070991082553e-02 4.685090128614500388e-02 4.197699558834979139e-01
4.281995541937253652e-02 6.623372573930376428e-02 4.530709883580505970e-01
-1.687771106254612463e-02 4.914973272381457231e-02 4.179233310500876653e-01
2.726063407163799648e-02 -2.103045257947206217e-02 4.392243029580831792e-01
5.632679076585287575e-02 8.849292953414964955e-03 4.869243790896949919e-01
2.139312822558653987e-02 1.887791510912249782e-02 4.319839782441883824e-01
1.360248076006989083e-02 5.112454230227098800e-02 4.228456082636962710e-01
-6.100230767825277206e-03 5.013079613118518602e-02 4.134424895774954090e-01
-3.941050970986516300e-02 3.010549140152441686e-03 4.428819371988326203e-01
4.924492584337206158e-03 1.794569869554483652e-02 4.215453403538551580e-01
5.020871637713806429e-02 -2.131761635630784538e-02 4.649652030077472964e-01
5.257646559535231884e-02 1.517003881924250570e-02 4.957034270784476671e-01
-8.834174852491952223e-03 2.365334883254994330e-02 4.169254002997241360e-01
2.734660011807954136e-02 -2.374920848049634145e-02 4.396907318187660008e-01
1.599649432127593293e-02 6.196867594275581870e-02 4.419105824613761002e-01
8.419410118635667697e-03 2.215041939380852504e-02 4.196907727620967643e-01
1.106866839020605002e-02 -1.996664235383006913e-02 4.371628628578105857e-01
5.190620879005598126e-02 -2.172950860569829515e-02 4.684483912328452071e-01
2.859413334330386178e-02 8.762064696834935204e-03 4.371336497018431522e-01
4.775981993068430242e-02 -2.194187065596020503e-02 4.602606080743452122e-01
5.476445361535971917e-02 4.441397819048156087e-02 4.909529470949970387e-01
1.763886746255290128e-02 5.461994574040431732e-02 4.276217121853287395e-01
-3.204097769853650468e-02 3.025602158864407198e-02 4.257067716162653004e-01
5.694215313578979143e-02 -7.418054041012147335e-04 4.954264004549308598e-01
1.138378448433344584e-02 1.670225808368160786e-02 4.261621649282399393e-01
4.463085073477619097e-02 6.846526389365338583e-02 4.617508904890127996e-01
3.814749639616984989e-02 -2.758341114939723976e-02 4.493123496779010684e-01
-5.876040724854786346e-03 -1.610472349408498954e-02 4.344779054953990527e-01
4.448662276909615132e-02 3.889612691977371861e-02 4.475363538172476008e-01
2.941031932587550787e-02 4.003699724272145183e-02 4.363113543334748434e-01
5.745124439407267580e-02 3.061935589658178192e-03 4.770011235051032084e-01
5.026254994895485578e-02 5.580417960834264945e-02 4.876851632084591714e-01
5.266041706808271411e-02 1.609323100056759930e-03 4.592103427008454863e-01
5.815014587453389006e-02 -3.770798993817454231e-03 4.885064802493367941e-01
5.728420459293413064e-02 9.978099580443239303e-03 4.728295032005868648e-01
5.698061627489126035e-02 3.841599333324962479e-02 4.790967394198650808e-01
-3.776550140330260652e-02 -1.441037592848801781e-03 4.400501242935412338e-01
3.841603322766861534e-02 -1.978591016946724609e-02 4.460004381536063489e-01
1.184375657643050792e-02 1.694046054417280150e-02 4.262973362740645200e-01
8.325414964547445118e-03 3.676044441799621726e-02 4.121894334892102219e-01
5.332745177121665792e-02 1.691203943880740732e-02 4.562515349421153443e-01
6.638728940643491908e-03 4.311829018928865082e-02 4.132713587183787785e-01
2.716849223228759089e-02 1.237795706952223712e-02 4.361036019698467658e-01
-1.294311771907418265e-02 4.428675659982187623e-02 4.124770951415933085e-01
5.205894023074688487e-02 1.351758535888897619e-02 4.971704290651317026e-01
4.922354784324756150e-02 4.861284659386139184e-02 5.034758213223166079e-01
5.249929618874517312e-02 1.129922301715990604e-02 4.555612226156828815e-01
4.999468513759998400e-02 -2.184241367387324689e-02 4.646619438800065338e-01
5.558132603441980762e-02 4.602525538044460046e-02 4.806786673624859896e-01
5.591050918609358211e-02 4.659971983321933853e-02 4.758998814914188746e-01
5.203754951633819681e-02 2.810689258659235593e-02 4.997820532613877487e-01
5.675790932104754494e-02 3.617855533055428646e-02 4.862513184786273479e-01
5.231539883290334952e-02 2.799695257798362480e-02 4.991532898187765466e-01
1.704173983387011898e-02 1.188874890550043785e-02 4.316703671154744071e-01
5.557936445467187569e-02 3.627200105156649923e-02 4.925436348948029064e-01
4.932149677024955103e-02 4.954285145374153626e-02 5.023159305523569040e-01
3.545893356845266492e-02 1.275925222632402246e-02 4.404552233957019780e-01
3.455120495607120340e-02 5.981728629382035423e-02 4.428668204464669134e-01
5.539079490729807015e-02 8.566972619995907867e-03 4.905631634142490483e-01
4.666056159275298182e-02 5.214025932626805554e-02 5.013576248779542111e-01
4.369385915476861615e-02 -2.326232137535040254e-02 4.545434278122903460e-01
4.574350224290629763e-02 9.843983711565749625e-03 5.136789967759609610e-01
4.515298171138578537e-02 -1.795216897834305339e-02 4.536009310243434012e-01
1.500526364548651539e-03 5.086081237952586737e-02 4.136799001104793372e-01
1.418461055188138982e-02 1.856553151768674734e-02 4.268582693246510407e-01
4.848549196400146061e-02 2.922175533174893244e-02 4.510691805206377136e-01
-1.515973248286179437e-02 4.036945137247775761e-02 4.126738023715854631e-01
5.433252426071293745e-02 4.753673565778267912e-02 4.888488696209905560e-01
4.868363122642503649e-02 6.533309992730321203e-02 4.644500491479262583e-01
5.017355380158494693e-02 4.453411066455788964e-02 5.048105761883366904e-01
-2.175680364293466201e-03 3.875299129497430158e-03 4.286988240444047915e-01
2.724981362478005181e-02 3.188112105418051262e-02 4.350624283087997091e-01
2.779928039615781055e-02 5.189427030283185610e-02 4.346168186339561257e-01
4.968719654224352383e-02 1.207203749306873415e-02 5.041979681354831211e-01
-1.567478899006000820e-02 1.349074630707093082e-02 4.244087066371179384e-01
-3.451595271745133697e-02 -2.144283521411378783e-04 4.380306124840375182e-01
-1.261577922851582489e-02 1.361004968247734627e-02 4.236628887514894415e-01
5.301402266990002526e-02 -2.036538020399273827e-02 4.705785995191548721e-01
5.177961789098181611e-02 -7.113330668476285784e-03 4.621950767982860864e-01
5.567807572511535019e-02 4.460457370255064419e-02 4.820375024459985780e-01
5.593142380559031762e-02 2.896241495451732859e-02 4.614862039565405527e-01
1.269626923448523986e-02 8.361440364885947343e-03 4.310053351529019583e-01
1.052572627765758356e-02 3.671293822412734220e-02 4.154292742437384889e-01
2.734479186853713481e-02 6.111671044408768794e-02 4.392410148713554729e-01
4.798921276664257912e-02 1.700971882693479501e-02 5.072344029295271506e-01
5.001263443244792495e-02 6.394377237684849280e-02 4.705342346519904573e-01
5.645794962732445660e-02 2.358229259313815093e-02 4.628073350497354244e-01
4.526330415144207142e-02 2.023489843151116477e-02 4.478863085393735011e-01
4.547235482365111214e-02 -2.224243511718228261e-02 4.563297219090613477e-01
4.614274383655785766e-02 3.822032972400876694e-02 4.490973961914805912e-01
5.510340903285163017e-02 -1.187905465865638985e-03 4.671326273533961682e-01
3.889443166889642450e-02 -1.454728039386831741e-02 4.450823605366810432e-01
-5.951232422443955778e-04 2.895711872306773460e-02 4.077287372074474558e-01
4.956903635302060962e-02 2.063558511366334058e-02 5.035870953525855009e-01
1.556792963248553562e-02 -1.000453312857017829e-02 4.341097976415278503e-01
-1.284636831645128568e-02 1.900891042815948742e-02 4.206625566046920950e-01
-2.659250676200729940e-02 1.294547487767276975e-02 4.300261392652177106e-01
4.282924916081636696e-02 5.082808114448898740e-02 4.466164457283390288e-01
5.060447625520758663e-02 2.293350397012593363e-03 5.123030021010255286e-01
4.952651759418637278e-02 5.862658595139326467e-02 4.836844206623138187e-01
5.245641963971568039e-03 -2.386842238958157211e-03 4.314495775787325904e-01
-7.116781366505043303e-03 5.172368596044595729e-02 4.159241720895637817e-01
5.262252717241188565e-02 -1.702480635859912259e-02 4.689228717264048996e-01
2.894112554213615698e-02 2.195729357339457413e-02 4.364513752769393906e-01
-1.982875432711439512e-02 4.381786987472943706e-02 4.148043856768451332e-01
5.268891056916419346e-02 5.790072775235871605e-02 4.693583536487260233e-01
5.145116827027501616e-02 5.263871611466966471e-02 4.556871354796844242e-01
-1.780365466770908456e-02 2.703518821992268242e-02 4.184695172177201883e-01
4.367508382601830190e-04 -1.188516065856761415e-02 4.328111007112005471e-01
-2.509714779101468105e-02 3.120837237923704960e-02 4.203477885905437250e-01
5.770785629055458915e-02 2.935714064996894010e-02 4.664374802887069071e-01
-3.367513806858671993e-02 -4.255015968670922133e-04 4.376510296966251712e-01
3.418047534829028039e-02 2.735342484477746097e-02 4.398224907193775124e-01
3.022995954933869675e-02 5.302213058543183560e-02 4.366802081911211886e-01
-1.168469235207020632e-02 -5.012900220845611585e-03 4.320404940784499104e-01
2.849678997842617495e-02 4.757736538330427367e-02 4.352233696728805556e-01
1.713165059856512629e-02 1.426452209891911592e-02 4.308373351433955056e-01
-1.229797689013544665e-02 -1.103715125062381362e-03 4.309226029372653644e-01
1.532668823283266611e-02 6.132770373326235785e-02 4.387093130493531778e-01
2.624378814479192551e-02 5.035678380153687378e-02 4.333599018731528751e-01
3.309612840930920355e-03 6.113511134368476707e-02 4.248945883028747983e-01
3.330772274447544451e-02 -1.449302981111320627e-03 4.398439679769817201e-01
1.090740773086380788e-02 6.140889754361920916e-02 4.332924619510797881e-01
5.704580954945653176e-02 4.133598689763380574e-02 4.701205928748553586e-01
-3.026944094543350741e-02 1.125808644758454283e-02 4.333583401881759278e-01
-7.696227439914303699e-03 7.393263827917561509e-03 4.260530106870746847e-01
4.968107755572261086e-02 -6.389118635296938374e-03 4.569169601928600444e-01
4.925423142441619911e-02 5.937660283967042402e-02 4.828474590540212108e-01
-1.293827802759394373e-02 5.727657356263679729e-03 4.274633954519657109e-01
5.683955937496816546e-02 3.826182525717144317e-02 4.813142552801091822e-01
1.602989564384561805e-02 7.484995492941442369e-03 4.328458250326345791e-01
-3.869839826511799197e-02 1.603444654535897580e-03 4.399605716400770694e-01
3.315459721510361640e-02 -2.439750453083899817e-02 4.435587882049603081e-01
2.787178754134918973e-02 -6.786332215536565113e-03 4.369383535760255621e-01
5.574914310401369449e-02 4.611404522941977419e-02 4.651864781289271611e-01
5.268647131631733899e-02 2.509816025140598761e-02 4.551373089816082573e-01
2.662209773673079177e-02 -2.256700009317964828e-02 4.392695476958319856e-01
1.141735752985104276e-02 6.105624402880761858e-02 4.320171057177702445e-01
3.129975029625273880e-02 4.398321871429997781e-03 4.386373170791333376e-01
5.107618193818436875e-02 -1.344325294062298157e-02 4.638761723221437872e-01
4.274574728066570656e-02 3.849668282008258946e-02 4.461691381070566620e-01
-1.646888903067150051e-02 3.823142706368795607e-02 4.137233694331023948e-01
5.542665845860364482e-02 3.115984597008255447e-02 4.926018161582790267e-01
3.880856261238092852e-02 -1.347163845792383532e-02 4.447527074538633607e-01
3.204849820717688147e-02 1.869119738289621788e-02 4.384960613474861990e-01
-3.327720811633732428e-02 3.219489521985715794e-05 4.372268768774120185e-01
5.778444225928947020e-02 2.545481192511402438e-02 4.679164776067741283e-01
-2.205984690623882458e-02 2.120945066602311288e-02 4.229078137825535433e-01
1.083867503336521931e-02 3.459148652051385886e-02 4.138583993273685646e-01
5.836307056801121051e-02 -6.221942560498312964e-03 4.935167609055615134e-01
4.712226604425624743e-02 4.322277136206276182e-02 4.502530141512428030e-01
5.732323531485932627e-02 2.471676813201279660e-03 4.860955884733176857e-01
4.675094743226256705e-02 6.705353201589726864e-02 4.626889349920494943e-01
1.823899133534680195e-02 4.520188190082329027e-02 4.264869353303982202e-01
5.710451079719014444e-02 5.784707954945354606e-03 4.844840810193152270e-01
-2.364956079997035041e-02 2.389098619364566148e-02 4.223352640689541637e-01
5.769032864858620463e-02 -1.093203706537905842e-02 4.826123158706482896e-01
8.702380829455140868e-03 7.955391240326362134e-03 4.297326664221927106e-01
3.158296745295610664e-02 4.770608518933607683e-02 4.377834266528968232e-01
-1.842886605748052589e-04 -1.303430087397362824e-02 4.333812543537274298e-01
1.819470287884696058e-02 2.963085906936091876e-02 4.271322746356675526e-01
-3.288238605515919621e-02 2.799359290468695152e-02 4.273319471662673230e-01
2.642276600362735567e-02 5.950891727382141838e-02 4.372595592063924785e-01
5.260628785805879226e-02 5.028335061147643642e-02 4.566188458666852190e-01
1.886336202747509322e-02 5.010700343745205093e-02 4.277070326578975568e-01
5.431411318498118035e-02 2.630499976219595297e-03 4.629018129671521598e-01
3.870261462720143292e-02 2.802551644801723127e-02 4.428570511289349754e-01
1.929777513276469472e-02 -1.638331094664463930e-02 4.363069964514474375e-01
5.045526073810381595e-02 -8.234083672988824071e-03 4.598620899293917597e-01
5.765633085983559725e-02 3.635350532893912717e-02 4.735607059119105178e-01
-1.377970952127392443e-02 4.770209566176102089e-02 4.135303560013340318e-01
4.251127233382787649e-04 2.684387037193249059e-02 4.087067047161920263e-01
4.736815864731921261e-02 2.856535696616707698e-02 4.500287865634903794e-01
4.939576685604745582e-02 6.184174969613782241e-02 4.772045992089771205e-01
5.389203848239646627e-02 -1.586830931292423225e-02 4.714104681572476863e-01
4.541251825194946024e-02 1.783730824107790380e-02 4.479851266279062383e-01
-1.112946653478865018e-02 -1.191918118081248049e-02 4.346142490592779795e-01
-5.402704194101629878e-04 2.614319185701000081e-02 4.094692211341511845e-01
3.211192029973809065e-02 5.645697350139408655e-02 4.391810970326675556e-01
5.535919441620573700e-02 4.013959515509491621e-02 4.609328924159014629e-01
4.717895493888149550e-02 4.644198261117037790e-02 4.504108778984329264e-01
3.353032739287938047e-02 7.046250722388547848e-03 4.394193710892109195e-01
3.234091617486193476e-02 4.911430710981878889e-02 4.383981034019489020e-01
3.724520076118589124e-03 1.797256490963621651e-03 4.306492174512950299e-01
-4.337760294034648939e-02 -4.086287089241852702e-06 4.414758859467232122e-01
8.705237195796593566e-03 6.045485498732443980e-02 4.268867603065961691e-01
5.213788775401194397e-02 5.946834608636513558e-02 4.677119829606200541e-01
5.790606399478002292e-02 2.250759161751421378e-02 4.734651732400899649e-01
4.987018878719057247e-02 3.632817917820613945e-02 4.528160673489041721e-01
5.098277817110943161e-02 -1.987679237644805405e-02 4.661556591429273921e-01
-2.197847354626605507e-02 2.873621667260745603e-04 4.323540012371008823e-01
5.824480827505176816e-02 -8.649355461931346536e-03 4.879811570202364779e-01
-2.236423163706197093e-02 4.042329164570476058e-02 4.163793067122272262e-01
5.241591250274431346e-02 2.494560359891718343e-02 4.977822120033173481e-01
-1.140066858316344210e-02 1.708099317092531735e-03 4.300187123077618967e-01
4.014650942729297567e-02 8.468972222648240081e-03 4.439826378548238917e-01
2.726192570151700009e-02 4.792477855135245102e-02 4.341731666524960565e-01
-9.142618634387981308e-03 7.068880904663057616e-03 4.260941402468353401e-01
-2.136023304828518765e-02 1.829450285313116015e-02 4.241299194859947108e-01
-4.808054719553806269e-03 5.002589750611228375e-02 4.132266585800385417e-01
3.152931880216313515e-02 3.481492297820051179e-02 4.382699593022729156e-01
5.742153366769104511e-02 3.315275631065919132e-02 4.662133642183959870e-01
3.097672625210648456e-02 4.860582282260528242e-02 4.372508041430104297e-01
-1.214366152378676400e-02 1.220925173960108086e-02 4.242318834650862791e-01
5.085842270167728607e-02 6.171192470864898805e-02 4.705847311181444725e-01
1.595834551450640761e-03 1.932237578701434186e-02 4.187482587064130235e-01
4.503005088118775543e-04 2.625005399135978829e-02 4.093295411862909461e-01
4.958205494761759591e-02 -1.440886242084287935e-02 4.610582137740399378e-01
5.342987225323554516e-03 -6.073358902342083053e-03 4.318935017401968057e-01
2.186830620908442047e-02 -1.585578277635694977e-02 4.366292596227764333e-01
1.911315748292110109e-02 4.037720149294756963e-03 4.341713968383400513e-01
4.916327204362093417e-02 3.238427197897126436e-02 4.517043910705731413e-01
4.990894718718447143e-02 3.605497117900798021e-02 4.528284348033810303e-01
2.960296735351736555e-02 2.991190810280978593e-02 4.368185867343803985e-01
4.380219758522302387e-02 1.400411641400598275e-02 4.466509248880948246e-01
2.934093412922773869e-02 -8.500424588750193911e-03 4.375442456751106324e-01
4.827746620400362454e-02 4.857021297255810499e-02 4.516498627930503607e-01
5.114058128956574384e-02 -3.800916650484846213e-03 4.585843694055534714e-01
3.522969453935146517e-02 1.271624117308253234e-03 4.410014274614968977e-01
2.596593679231399415e-02 6.481159240784400977e-02 4.507950534839695322e-01
5.206388050473080564e-02 5.869988593327831600e-02 4.718502469407577227e-01
5.720566738319352029e-02 -4.639272954498402032e-03 5.029238809127970500e-01
5.210461690151121927e-02 5.366220819687847650e-03 4.566321404410719764e-01
3.998693076077120684e-02 2.061423076256639966e-02 4.434927576930646764e-01
5.736480063923220934e-02 1.740492396766410432e-02 4.798348287113441968e-01
-1.895457095974563064e-03 5.391100459626687463e-02 4.163463025361710534e-01
5.390994279915959503e-02 2.071523750031946387e-02 4.569898207198468398e-01
2.638774541297597351e-02 6.497904401968011834e-02 4.493558669594466815e-01
5.739593713157148391e-02 9.217276594481342566e-03 4.793071681135067652e-01
-1.365832689910594089e-02 7.265827656117295787e-03 4.268984769253089673e-01
3.274774014732216576e-02 -1.864688865482193661e-02 4.412504511499276139e-01
-1.301538165249960244e-02 4.182759230269274264e-02 4.122597652256422829e-01
1.322935878776618224e-02 -1.879107179639646907e-02 4.367465440113035835e-01
4.085540553233869832e-02 2.684565162088093510e-02 4.443414151429438408e-01
5.218203810331056153e-02 3.857556945696296279e-03 5.069582258107107053e-01
1.387881067971765553e-02 -2.153471276919844205e-02 4.372144746987081665e-01
5.650977458017925753e-02 -1.147392754221992182e-02 4.783857351384214196e-01
-3.011197527617862774e-02 1.833543032610824436e-02 4.286778791204454708e-01
2.675971043049387918e-02 2.521273087394278883e-02 4.349515991301506346e-01
5.536466630236988595e-02 2.018260626647852898e-02 4.885838843990312763e-01
2.547993436393178324e-02 4.021516442932012575e-02 4.330652005021477513e-01
-1.121301611670264507e-02 3.196459933983295670e-02 4.135425840580213563e-01
1.371210033650539610e-02 2.441484054808278764e-02 4.243491875086188303e-01
-3.034354055943107309e-03 2.062306247550022356e-02 4.156791828195742222e-01
4.379241944713759688e-02 -4.041542992856512681e-03 4.484805405187577421e-01
5.797488489573746767e-02 -4.965662198571614908e-03 4.815114111917705997e-01
1.761280726161307958e-02 3.371253916386656585e-02 4.258562842181662367e-01
5.410084397181116195e-02 5.307120053111244462e-02 4.628741638729240715e-01
1.086090606748755030e-03 1.836224192883345249e-02 4.197400406020269648e-01
4.142017914771387033e-02 5.267072873870264765e-02 4.458468025298599202e-01
1.103772711461893999e-03 2.211005300306298840e-02 4.147884594962751859e-01
-8.668793004711008651e-03 2.523336372482704731e-02 4.157431937351807605e-01
5.756080835394011136e-02 1.242670850264235727e-03 4.784271192970663278e-01
2.675261150037138574e-02 4.674367596069654851e-02 4.337843023567740097e-01
2.911332327659758856e-02 6.184134343218862517e-02 4.410719893004967362e-01
-1.402762726323838506e-02 4.674768146789776840e-02 4.130421873705627522e-01
-2.049140281782331485e-02 4.215706337045627139e-02 4.146384461716167147e-01
2.756402876813966295e-03 6.082806421728102070e-02 4.231898628750629388e-01
5.720919483713762105e-02 3.335615736495842198e-02 4.847585244341360289e-01
5.093359035655192074e-02 4.336890880633616219e-02 4.543648457948943342e-01
3.815742499232736146e-02 -7.781825938425895612e-04 4.431909555109130872e-01
3.139811473393836622e-02 3.266708990808184915e-02 4.381424365720480441e-01
5.657265609171385767e-02 3.551109901263836341e-03 4.705978103521473166e-01
4.526153481994047573e-02 2.518034682471747415e-02 4.480068339238609254e-01
4.982364440117377849e-03 2.036035595709951435e-02 4.189867946209875904e-01
5.003153300079571375e-02 2.255909207666682154e-02 4.524339118069068966e-01
-2.930691892664089720e-02 3.123549668916787703e-02 4.232814931589826135e-01
