5.066068308431623257e-02 8.080393153465115566e-03 5.044962033621110953e-01
-6.793525948520345512e-03 4.451565939656938059e-02 4.100437717018395878e-01
4.804080944279478377e-02 6.566979365361244603e-02 4.606844195790419927e-01
1.990021424622606411e-03 4.875447612964979582e-02 4.113355616201981868e-01
-2.267633011406280236e-02 2.603946098618737520e-02 4.206087255798545699e-01
5.841418396613502761e-02 -3.785358867829382960e-03 4.912900559689130087e-01
2.192643777428008797e-02 5.014638816252472292e-02 4.291405755932832244e-01
-1.938740789032742523e-02 6.967984500461463920e-03 4.281849818863360801e-01
5.273765093124872100e-02 5.120569744896974473e-02 4.890099449630387340e-01
-8.418161550874738580e-03 1.474584990757277572e-02 4.215853973317856274e-01
5.555917313182695549e-02 8.086588095570427029e-03 4.904720516564504695e-01
4.973550532700590776e-02 2.436596693059029164e-02 5.038385678693363401e-01
5.800343266629403444e-02 2.223770788302320209e-02 4.699658351965773084e-01
1.065803672831932766e-02 1.249646285890044367e-02 4.275583627858025038e-01
-1.892678132261210039e-02 5.031219691624331386e-02 4.198657688945370281e-01
1.314450843861572973e-02 2.063756762830050440e-02 4.240052507052440300e-01
4.925497345764236895e-02 6.450211965450854124e-02 4.624930529267331503e-01
4.852501276893547710e-02 2.304906557959489344e-02 5.065143337508709598e-01
5.599999415668932556e-02 3.311947915790063989e-03 4.672076322745497556e-01
3.583221450662286978e-02 -1.824061986044130459e-02 4.433339419968198025e-01
5.000766030963520181e-02 5.079216067552952407e-02 4.989051011621787324e-01
-3.212291178408502312e-03 2.139862475818099519e-02 4.142112517682209338e-01
5.690203320199727077e-02 1.569002993532858659e-02 4.650184514990304274e-01
3.721711388443054574e-02 -4.126905717561172963e-03 4.424536496882157666e-01
4.081001059636902434e-02 3.624172105919543085e-02 4.439994903358199796e-01
5.252081965841703254e-02 2.463152509183628991e-02 4.974850411076477963e-01
5.362098064797382602e-02 3.102117894556597269e-02 4.972419451140666635e-01
3.903498608624891147e-02 5.937682599903587599e-02 4.449924431838916394e-01
-2.888473612852000827e-02 2.216158950822207443e-02 4.256288979452921284e-01
4.856643738404600730e-02 1.450362979791001289e-02 5.061475215526433091e-01
1.829879385322431135e-02 -1.278748147133759554e-02 4.350535534539700655e-01
5.311964347703040934e-02 5.626153799697888175e-02 4.740297271260804912e-01
9.041701309947454065e-03 5.942181031261398183e-02 4.230932484552000217e-01
-1.771771650030914969e-02 3.916051021907151694e-03 4.292810978521164333e-01
4.990959410681433672e-02 6.454826540992508743e-02 4.702942589796719752e-01
-2.985068379642776687e-02 3.545130524379429271e-02 4.218373838211665339e-01
5.158847543063517505e-02 4.021831849618269852e-03 5.083470510414477284e-01
1.593087645846864506e-02 4.307558733497290210e-02 4.226792719411409660e-01
-1.541000119839517138e-02 4.585922536241703734e-02 4.125099727614552347e-01
3.547459417443575569e-02 2.880140232331430614e-02 4.400526618938050416e-01
3.930139292962866321e-02 2.745647823374203211e-02 4.426489122337862181e-01
4.810465498642976789e-02 2.092799842264863111e-02 5.073594457733479057e-01
4.849806841406730656e-02 -8.806460397075034641e-03 4.554213623270497724e-01
5.451101766104850949e-02 5.208347858316800943e-02 4.614325939091665774e-01
4.824704677613441024e-03 -1.408665253656533195e-02 4.344977640676412900e-01
-1.215106722994582431e-02 5.843789176575494085e-03 4.268722576783842149e-01
5.444174121360619706e-02 3.645471661589540051e-03 4.996343623937909428e-01
-2.182243004156282466e-03 -1.081087770638211772e-02 4.327159499970355538e-01
8.440558683820322330e-03 2.070453075895594200e-02 4.206905599975587218e-01
5.477363753178379063e-02 5.236823596074356713e-02 4.657037328338496374e-01
4.736903272452211433e-02 5.100434511974516645e-03 4.499516239266475037e-01
3.986495316150440171e-02 2.182019803535223401e-02 4.428205480887492107e-01
4.643732380920153474e-02 4.683235504324156223e-02 5.100719694039314023e-01
4.233755014243613390e-02 6.783071392993014759e-02 4.534990419904390557e-01
5.522326900271685990e-02 4.992895388868905104e-02 4.641322454945852050e-01
5.052683509638829923e-02 6.348908795883889677e-02 4.699633928756355439e-01
1.880385773893473653e-03 -1.442631976169082321e-02 4.343063293953685067e-01
1.362718920666531469e-02 9.435339805910266525e-03 4.304357874740821766e-01
5.179507968786987993e-02 2.598957021110812754e-02 4.537131849042686516e-01
4.570867266415681862e-02 4.611363106333028067e-02 4.480965892757784452e-01
5.736520031970977068e-02 4.042017516258462201e-02 4.726362329953690544e-01
3.934227830516024565e-02 4.230827910230594568e-02 4.428662158392072667e-01
1.782478904816829418e-03 1.083137870314438214e-02 4.246426743658809344e-01
-3.797144974259512862e-02 2.689065063920431913e-03 4.392897310079288409e-01
5.232272646469647570e-02 4.692877859153018333e-02 4.969679453616193121e-01
3.178373403193403973e-02 -2.130806234513305669e-02 4.412575591317254853e-01
-2.700947469287572761e-02 6.580468909166176279e-04 4.336363548788236266e-01
5.479301737778911191e-02 4.129750762293230015e-02 4.584670369738432782e-01
9.358899640724607435e-03 3.014710578172818262e-02 4.108045348216589066e-01
-1.150161699920890929e-02 -4.244158525641431035e-03 4.316020816566486507e-01
5.478298589191016310e-02 3.266803376258529262e-02 4.950442522456290906e-01
5.588624457575971233e-02 4.688365032524838272e-02 4.646907251399403083e-01
2.524050708783502975e-02 1.817145894641114534e-02 4.338120972322541125e-01
5.188095960056555989e-02 1.608257207615364226e-02 4.974444310309684147e-01
-1.521055590508892108e-02 3.636836798290513095e-02 4.129954743920190574e-01
3.796871700861147864e-02 -2.061684975946842177e-02 4.458182728268260675e-01
5.360049544502085150e-02 3.480061897229751004e-03 4.601803857441909007e-01
2.452652788234701078e-02 3.450304383750101098e-03 4.355450125836011210e-01
-1.466298790518575160e-02 2.159174741107079687e-02 4.193619557983301882e-01
4.121064157834302549e-02 -1.319450479268216396e-02 4.467516209998059207e-01
2.225033788559612966e-02 -5.861812912683240714e-03 4.348807291324297553e-01
1.977572645413746763e-02 3.428724563654556717e-02 4.268582365234823151e-01
2.815165152097737558e-02 4.001929930195802232e-02 4.342828211491973622e-01
2.285187597875106350e-02 -1.120593131112266293e-02 4.357781502636294269e-01
1.783813922955666126e-02 -9.070782499798446877e-03 4.342094243588974778e-01
1.164871091543115758e-02 3.314714121172252642e-02 4.139631474589285931e-01
5.018880150336436224e-02 2.071126626691441666e-02 4.520831625912227203e-01
1.410861678131346969e-02 5.820193742813652843e-02 4.259484534443829240e-01
4.746366148386211431e-02 6.086254456613071628e-02 4.527436278403659808e-01
5.181144870616529591e-02 2.636047383483270182e-02 4.997065708222354075e-01
-9.450793910248091179e-03 6.756273881050776312e-04 4.300098493991483806e-01
3.967964407603701005e-02 9.997379095732689819e-03 4.430801916699676490e-01
1.082175411982395224e-02 -1.869122706143262064e-02 4.368890480980356372e-01
4.882805246515676406e-02 4.123947860681210359e-02 5.075123642881036456e-01
4.990389719573403576e-02 -2.002612035261069207e-02 4.638778991642781846e-01
-8.327054627966411909e-03 1.010037877202751497e-02 4.240167221253089425e-01
4.099567085023687885e-02 1.445530926764495953e-02 4.440238539341015422e-01
4.679634324197453482e-02 2.553569598052854092e-02 5.108477400754695141e-01
2.070965799067567281e-02 -1.598821945997229085e-02 4.362706053704333287e-01
-1.224254791714030413e-02 1.407399844568268076e-02 4.227905391067116048e-01
3.243153424502824567e-02 3.135681704373369239e-02 4.380146240031503324e-01
-1.958371366421328419e-02 4.902102839153825442e-02 4.179988911600415191e-01
5.198829698847445141e-02 6.000565893980708276e-02 4.697121148440140947e-01
5.816260622131407682e-02 3.436509792639785843e-02 4.717864432242078188e-01
5.756456035680825034e-02 3.706126446388434414e-02 4.766847516301250809e-01
4.211434373597271880e-02 6.315571640792057295e-02 4.485200935914313014e-01
1.988944246102519742e-02 6.078964582185331089e-02 4.373552985722218289e-01
3.065479795393008522e-02 5.886737507480828586e-03 4.378642089770639623e-01
5.112343098948155667e-02 -9.437458438412494807e-03 4.618361913239172334e-01
5.776378432588593487e-02 3.550026981705891455e-02 4.676643223226935597e-01
4.977785077211135945e-02 2.941157083262602862e-02 5.050583767474460251e-01
4.809378645205904940e-02 6.569290631167948313e-02 4.712468343259883508e-01
2.998604182747403174e-02 6.638667973954293089e-02 4.533846636147600417e-01
3.465409479799089892e-02 5.263642788121730698e-02 4.394323875468413299e-01
-2.870387698476837071e-02 2.071823439522653409e-02 4.261235321747449123e-01
4.994879097018660452e-02 6.192013946250497086e-02 4.595464894038676640e-01
-4.614036826805208245e-04 2.890166535201383127e-02 4.071517707368056405e-01
-4.925105656529711606e-03 -1.209755705821618718e-02 4.333823168899044731e-01
4.906690780461572809e-02 5.729760611790759434e-02 4.867314777823468774e-01
2.162421333929095968e-02 5.360780130542292660e-02 4.293731927464244369e-01
5.758629945603801342e-04 3.073458066173958420e-02 4.054308219645414435e-01
5.079935851949473474e-02 5.890142048667857538e-02 4.578602203147887351e-01
1.457379839926602715e-02 -2.267523906402317546e-02 4.373800302919906846e-01
3.680307381657087207e-02 4.612006670206459519e-02 4.410680266873165389e-01
2.761541439410056253e-02 4.494086813416373061e-02 4.335226028342060167e-01
1.642830731402527417e-02 2.563579371350555025e-02 4.254223257472803388e-01
2.787964433190251445e-02 3.455587848982676069e-02 4.344292907749202071e-01
4.736629093054897655e-02 -7.678023948939878898e-03 4.535801895975695164e-01
5.593244748292175439e-02 8.359346411550259287e-03 4.890211060696188494e-01
4.533907160834430711e-02 5.408074750836176087e-02 4.985590423295957474e-01
4.874163918656517630e-02 6.138057999279730725e-02 4.802611842836587708e-01
4.881827857264095516e-02 1.592929881171779947e-03 4.521117897925761575e-01
4.327823904087600010e-02 4.998600849582460204e-02 4.461174625313258923e-01
4.792774611033469127e-03 2.158266530912630529e-02 4.152485964310095867e-01
5.188862450300783802e-02 5.020308222317121372e-02 4.943136944948137712e-01
1.690270810642459723e-02 8.394422857838236551e-03 4.324152361965245550e-01
5.731689854417734709e-02 2.277780740901091429e-04 4.746525792886411299e-01
-8.925846681873454702e-03 8.023400558546549266e-03 4.251459166430261449e-01
5.594410828914292422e-02 3.679038385727598226e-02 4.913257178286647431e-01
3.362917195391570274e-02 -2.879429391136305999e-02 4.461078515026199454e-01
-1.718673384274477939e-02 6.205881307470711115e-03 4.277512684658235642e-01
5.315045321450301286e-02 5.993315546195609501e-03 5.001558577062806821e-01
3.555645081063035090e-02 5.047945284061752802e-02 4.400187011821262151e-01
3.096636490021812196e-02 6.629831172575030573e-02 4.491112470512121924e-01
1.483597541561116652e-02 6.090930742596865205e-02 4.337850774445728974e-01
3.994128585882182614e-02 -6.457886070416473355e-03 4.447932121982230425e-01
3.704895176303988485e-02 -1.877678456560778406e-02 4.443823582659729987e-01
5.087532183679931846e-02 1.110256361618601473e-02 5.017892951578659666e-01
5.778590674986135156e-02 -5.281237309478483896e-03 4.798829239567833360e-01
-1.811441127723951864e-03 2.582261725207534234e-02 4.102936557314081911e-01
5.131317761515540032e-02 3.112908334027149858e-03 5.100512405885404554e-01
5.701762322662393134e-02 9.268301630116205364e-03 4.827236941849931684e-01
3.441384859980332889e-02 -2.684655102511679034e-02 4.457635196621525520e-01
4.827164785653771661e-02 6.425740767637000417e-02 4.578372546629316253e-01
5.782315005028128979e-02 1.848546613286076307e-02 4.766345397903074543e-01
5.002904976368536226e-03 2.008808300569482619e-02 4.178671694400811765e-01
3.599181890488421104e-02 5.114699540797173344e-02 4.404320595047046538e-01
4.807073968613499032e-02 -9.185311349165788120e-03 4.550665538395161080e-01
-1.204245368191484214e-02 3.022079331988170720e-02 4.140938869223420582e-01
5.884306429386473164e-03 3.661291658788206477e-02 4.081586996733224670e-01
5.258985563537452862e-02 5.037284524274517755e-02 4.912659821245840552e-01
2.594403608448487067e-02 2.740007240128280314e-02 4.334585201622531692e-01
1.025526644041744803e-02 5.103562763326845164e-02 4.177422425140721041e-01
7.660401449750417306e-03 1.356764274646699540e-02 4.253852092561277165e-01
2.010482224931799469e-02 -1.086482136538338694e-02 4.350805007446229555e-01
5.635156285030353679e-02 -1.168037698485756108e-02 4.773564197558874955e-01
4.925436255824558462e-02 6.218032184816902480e-02 4.771774125608403971e-01
7.133372417902363559e-03 -1.708327862876123787e-02 4.368002900477940820e-01
8.745786566777278073e-04 -8.407064283609273769e-03 4.318328540462351151e-01
-2.593626395963970210e-02 2.927727036842540931e-02 4.210176528263135376e-01
-2.248665685790910904e-02 1.612799172641974504e-02 4.253618139562583278e-01
3.696817373093378573e-02 -2.527684587907150227e-02 4.471411608780433977e-01
4.782960354041857626e-02 -1.251162217350067565e-02 4.561021057664927381e-01
4.855271989033441149e-02 -1.322038979660141410e-02 4.580309343757936746e-01
1.906060369812936917e-02 -1.292759635793186423e-02 4.352559772411257466e-01
4.210530553985895180e-02 6.801057760571804778e-02 4.665299207647729540e-01
5.175268404230005254e-02 8.936958543456493403e-03 5.010343180451233280e-01
5.528688055248566491e-02 8.311221690950876956e-03 4.912778680821901500e-01
5.620692101344353098e-02 2.362875175214119300e-02 4.613907542343257950e-01
1.308030576940606357e-02 8.981994250379973788e-03 4.303496378257461452e-01
5.265143934899987888e-02 -4.612315301997410230e-03 5.159586831549296537e-01
5.644897416623261693e-02 1.096454446793277554e-02 4.846922358843645529e-01
5.782360000195599370e-02 -8.531374690817272732e-03 4.835278141747781921e-01
5.339348558090767360e-02 3.753875081974290123e-02 4.566558193105599850e-01
4.898088946806244959e-02 6.302229673330630999e-02 4.580990248754883698e-01
1.647121287395024447e-02 5.056121303196680489e-02 4.242320320128210587e-01
4.466965918528049972e-02 5.279755504051532322e-02 4.478525084407375401e-01
5.200746406306841485e-02 -3.322904021893152010e-03 5.157813846518030099e-01
5.573719071417834042e-02 2.559046346620271958e-02 4.904805267858014517e-01
2.925224234891360756e-02 -1.018619559450325597e-02 4.375758194839273751e-01
-2.334574295379205147e-02 2.236346384777788791e-03 4.316984926080068563e-01
3.201696293139698335e-02 -2.474977949404496766e-02 4.426140757257076008e-01
1.770483609104598829e-02 1.819920987179264940e-02 4.287449608979900240e-01
5.404218592946241628e-02 -6.118794821079990773e-03 4.662753014662320838e-01
5.361606673038169651e-02 5.299750361819087485e-02 4.581689432377045179e-01
4.538663486782064382e-02 6.726189172842450548e-02 4.701660559466005473e-01
5.026255398965078641e-02 1.620883147766693025e-03 5.136581039164743734e-01
3.336388607475970769e-02 4.141467913967394887e-02 4.385793408019801887e-01
1.059486021497225636e-02 2.094019126757403620e-02 4.221620411384723881e-01
2.098660755088581006e-02 2.229550148149453924e-03 4.343857840903815881e-01
1.646840477331279820e-02 3.871381410417698565e-02 4.236166206796266875e-01
5.815967830690269708e-02 -8.292401933079222853e-03 4.868677861997232070e-01
-7.481257572703559761e-03 -9.957457724066058266e-03 4.331244075322804310e-01
-2.379820552733745431e-02 1.250633888267840138e-02 4.279954361102653593e-01
-1.115170121134133677e-02 3.376000795868463328e-02 4.122404061876049353e-01
5.460947722786867187e-02 9.638970025939330721e-03 4.926472382449423870e-01
-2.740116746434570136e-02 3.234138191530678413e-02 4.209956743464583484e-01
4.754244131405628571e-02 2.869246863136282535e-02 5.094726687184086833e-01
-8.727297968226326551e-05 2.772770646322146332e-03 4.294072730466142462e-01
3.235531081352455152e-02 -1.610496722926943805e-02 4.403190862619364432e-01
3.327396845539378617e-02 -3.929254709030807237e-03 4.395769354151538577e-01
4.179737677259126594e-03 4.931087308583844558e-02 4.129044211412246090e-01
3.448005549709750456e-02 -2.924487521078848740e-02 4.470817859047653275e-01
5.124980803997483680e-02 -1.396794549323819752e-02 4.642321654071258075e-01
5.271825741237089885e-02 -6.599000022040239256e-03 4.636092088568842251e-01
5.281677847184827052e-02 -1.457672010169605223e-02 4.679079422715637926e-01
4.827399983328829747e-02 3.495006320341089573e-02 5.083612291477057621e-01
1.009287352139679253e-02 2.566771351156615574e-02 4.181663221140987097e-01
4.833775993340025390e-02 3.936341724655396772e-03 4.511648990108005353e-01
1.568747603871535785e-03 4.729886273669616642e-02 4.107111601880324425e-01
3.750139117613648237e-02 -2.266531818857703620e-02 4.463317823225154135e-01
2.804289216503904822e-03 3.424065715534225368e-02 4.044968847473171536e-01
5.766715995772310477e-02 5.239478218749721999e-03 4.815027464555641235e-01
5.091167052389735520e-02 -2.208962309813838204e-02 4.663617040150695447e-01
4.297004900659903703e-02 6.932592184856983808e-02 4.546078433819729647e-01
-3.500243982123785180e-02 9.973101576958728898e-03 4.387470611836953305e-01
-3.365004953548701716e-02 1.265113236354822521e-02 4.367724218572588968e-01
5.670313635141807640e-02 7.542188157622605957e-03 4.861505658934206497e-01
5.827068432563884542e-02 -1.338418051735169824e-03 4.812892364269211742e-01
4.845095942362706576e-02 6.560166289015935404e-02 4.621970574408505450e-01
5.284141376549528896e-02 -1.404178402885661661e-02 4.677332260662803720e-01
-7.976636871815802332e-03 5.042579438570383293e-02 4.124974171824933311e-01
8.734137193727195200e-03 5.176571268366012696e-02 4.169308045895560588e-01
2.042266897535235243e-02 5.982636850783409205e-02 4.341665380432566668e-01
1.821870539853365570e-02 3.901059831565906882e-02 4.253452941621270744e-01
4.709523592977715029e-02 -1.655164701912370182e-02 4.560544299771683852e-01
7.339890287403778683e-03 2.770792420001810460e-02 4.084566991094731869e-01
5.273028061071105554e-02 3.310908608195169828e-02 4.552470161228308609e-01
3.878797247179353175e-02 2.899705156798772568e-02 4.423539802083107375e-01
4.735826131932737576e-02 2.354925985427696374e-03 4.505203405345887258e-01
-3.015792266369963365e-02 2.876848249722518611e-02 4.243788151994080660e-01
5.599132807334482320e-02 4.385026707767032683e-02 4.818963752759762853e-01
8.166393517810670299e-03 3.484903173934491422e-02 4.068830415587721960e-01
4.348956978269345047e-02 4.375498744404411611e-02 4.459817580025177697e-01
-4.943280429291735389e-03 3.665604792620009295e-02 4.083756152940810624e-01
3.978402922717980822e-02 2.595937560622784551e-02 4.429210459685406498e-01
4.970521800226620351e-02 5.023106072583078535e-02 5.005653113292366507e-01
-1.302423906574401609e-02 1.221814679405778745e-02 4.238942754341656904e-01
5.798094669469364831e-02 2.620699886799509465e-02 4.663984386406048177e-01
4.703039246618995195e-02 1.065597958926394091e-02 5.113085870626531415e-01
4.156838085856874587e-02 -9.203263744371074917e-03 4.466624076375457220e-01
-2.055614105932441343e-02 1.944382608607519297e-02 4.227322559366464838e-01
2.493865344983768953e-02 6.212072577797898842e-02 4.405480095588838463e-01
4.511495909694696743e-02 6.252662412060061570e-02 4.843130552898156083e-01
4.731704592541317173e-02 6.657910967522399914e-02 4.616337048200764848e-01
5.157645363927414878e-02 5.500543715925709787e-02 4.557692437785070827e-01
5.839602939689361727e-02 2.854186424196250224e-02 4.755878592408886441e-01
5.861734734071408909e-02 -1.084434706130265810e-02 5.113629131456518540e-01
-3.415055720598178524e-03 4.542214937272125836e-04 4.300832580813396255e-01
-3.143992227812391314e-03 4.455809448314369814e-03 4.278166643712768558e-01
3.236804035623769976e-02 3.920801334084234036e-02 4.378690245368021539e-01
4.652360654097840303e-02 5.073226433317572226e-02 5.056438198525572414e-01
4.470061863770454641e-02 8.626492135353585472e-03 4.472574200798536403e-01
5.269618124328904335e-02 1.507110556699352982e-02 4.955107279014885902e-01
5.385639148871713272e-02 3.500602645137597391e-02 4.978348838106214647e-01
4.716280151958527136e-03 3.194622575748039955e-02 4.053483651914188690e-01
-4.721190940088491883e-02 -2.168684145201955210e-03 4.438460076250219100e-01
1.080381822922118172e-02 -2.031903051668219884e-02 4.372138688042676025e-01
1.147022631173726451e-02 -7.827675335573450188e-03 4.328198469440078799e-01
5.228397848963323852e-02 5.814801260758641066e-02 4.611368680960464261e-01
2.410402968730082293e-02 9.361653831973411333e-03 4.348350872080796181e-01
5.263913145842984143e-02 5.553495773230542748e-02 4.785664504775297701e-01
4.720621013554945899e-02 1.786992140262272030e-02 5.093535444904858656e-01
4.251541694807813021e-02 -1.159966981657123940e-02 4.480757777736311120e-01
-2.478861921710140415e-02 2.628559696006679824e-02 4.215187112598161590e-01
1.618235462578515929e-02 3.802566040519980012e-02 4.234012816443498139e-01
-2.240292429716245204e-02 4.228817682559164737e-03 4.307262834309831256e-01
2.766287088119184778e-02 6.536847086167030252e-02 4.513869366981584363e-01
4.665680134396797685e-02 5.382641433935629605e-02 4.497813794075298799e-01
-1.846162348596157646e-02 1.358478437588191579e-03 4.308346799993548193e-01
1.531153095978512665e-02 5.057485030631686529e-02 4.230083626714440381e-01
8.560514854132322132e-03 7.066605898525883146e-03 4.296018149555733689e-01
4.857039476168271107e-04 1.083880684525197202e-02 4.242473383581678581e-01
3.705820019171977842e-02 4.563745697040380578e-02 4.412593530543287290e-01
3.977262799089373996e-02 -8.216407299306161677e-03 4.448207132990227852e-01
-1.802279662063679955e-02 -2.992639950641609765e-03 4.325777151862275072e-01
3.412988446506123874e-02 6.044851534114255992e-02 4.420755643679204483e-01
-3.161952836123743671e-02 1.055454703411343176e-02 4.342322135289508056e-01
-2.299911994293529771e-02 2.434645822476961749e-02 4.213644922478318455e-01
4.446433189750019499e-02 6.813607398714774388e-02 4.645302239319424320e-01
5.342061195985670086e-02 5.167313652051119810e-02 4.574429073791138611e-01
5.827443830975196498e-02 -6.222407366112276891e-03 4.867889477592257652e-01
3.700867773139361605e-02 1.231687072196887764e-02 4.410713032984636128e-01
5.804963317016155477e-02 3.254995033641330804e-02 4.789102413190273189e-01
-9.344103553682011135e-03 5.121172657354636226e-02 4.137987729489234212e-01
-9.216533104558579520e-03 2.780387802238387315e-02 4.142101370776612446e-01
4.193426467314018136e-02 -1.488413664063562881e-02 4.477466854089390824e-01
4.521085846274534858e-02 -2.299385651568048791e-02 4.562736698640894595e-01
5.397576674538290958e-02 2.188255850415582807e-02 4.929861492617131358e-01
5.138978311772361696e-02 6.193049387520312837e-02 4.655077409378062248e-01
5.261900168828183982e-02 5.871949051762690580e-02 4.693359873337164534e-01
-2.668014753513874016e-02 1.304136489914677413e-02 4.297684466338705933e-01
5.372374538571299263e-02 4.767374744117990754e-02 4.912244495343962569e-01
2.596971871766220671e-02 5.548131811933504354e-02 4.326610040601410745e-01
5.396473394386498007e-02 -1.333502215790260742e-03 4.634235120293382915e-01
5.463229000494333049e-02 1.044411895618884908e-02 4.920466448241112567e-01
4.413562761948398860e-02 4.847805320443508009e-02 4.467164527260087392e-01
2.449831766187686097e-02 1.630637527692694808e-02 4.335319454473866019e-01
2.390844241272822510e-02 3.277717845099464844e-02 4.310106123884587803e-01
3.480809822386861374e-02 6.755386701040987096e-02 4.505664855489472931e-01
2.934267362608359436e-02 -2.143847417098150923e-02 4.401639116728288670e-01
3.684310821700866739e-02 2.332870955067691335e-02 4.409144564068129268e-01
1.479176320798604449e-02 1.251179503387154016e-02 4.296980828545176601e-01
-2.153189734097585295e-02 2.407760309627617057e-02 4.207672865225032810e-01
5.534625991366629721e-02 5.069377818739916053e-02 4.696945945388777410e-01
-2.864198087834857881e-02 2.021286338847832348e-03 4.337175003879377155e-01
1.064430430628055500e-02 3.135014713278816423e-02 4.130346429392246499e-01
4.968948920813080761e-02 4.166781816341302846e-02 4.522144439070135413e-01
1.385784879020107892e-02 -1.083658553400811825e-02 4.338881266740991505e-01
3.835023014233680805e-02 -1.244873970811839758e-02 4.440112690698410081e-01
5.745103065774328360e-02 1.407696854209908310e-02 4.697729191075973865e-01
5.824556870759226707e-02 -3.657218744762318931e-03 4.867217629957973912e-01
5.222137375550910815e-02 7.618307531153454062e-03 4.555288960194282533e-01
-3.414488679442697489e-02 1.742258619071817682e-03 4.368964954884024809e-01
3.114706644423108697e-02 1.325739984272126908e-02 4.375520046476542024e-01
9.991694762941094599e-03 6.132884492241129359e-02 4.303622202671607555e-01
5.759000403906833210e-02 5.161272621022912517e-03 4.821716153238631009e-01
4.258042301595107992e-02 -1.541351031406684204e-02 4.488323948011727071e-01
4.986747708863960293e-02 2.732976572257082501e-02 5.042888466074586518e-01
7.123643010635569497e-03 6.108198683468777507e-02 4.263549845097639457e-01
6.893658657754981982e-03 4.642833814360863322e-03 4.301579179938712638e-01
2.163454587556698505e-02 3.917614914178835922e-02 4.287552470676914695e-01
5.482752853222113559e-02 4.974656983691431306e-02 4.818336286405712765e-01
4.206979431207306247e-02 6.770522582333829420e-02 4.699239606760222121e-01
4.497509532524194414e-02 2.197836961181728714e-03 4.483122265623381009e-01
5.510824051502358906e-02 -1.686103106313077693e-03 5.084773768960366702e-01
4.765004276140665657e-02 3.041324778697580139e-02 4.496871092634296407e-01
-2.342234724846559840e-02 2.828755606858732868e-02 4.200231397509084919e-01
4.210346091619453918e-02 1.762970175330400707e-02 4.446970698450384285e-01
1.264270977507363225e-02 3.271584093825945228e-02 4.169236268623769948e-01
5.419098861558587638e-02 1.916752438450045407e-02 4.918072266877357435e-01
-2.659440968834233740e-02 3.996069844624766491e-03 4.324229902734330055e-01
5.628566964465520767e-02 7.278706002053174709e-03 4.663776817947224984e-01
2.850271170523732689e-02 2.186403510806148379e-02 4.355318059092156413e-01
-1.965667290488702992e-02 2.328973915023953636e-02 4.204001664809485783e-01
-1.939842189439477775e-03 -6.068952579863579749e-03 4.313165495925674886e-01
9.062200803272467062e-03 6.180348437964654218e-02 4.318083365582922051e-01
5.557188951407968092e-02 4.619015913214768315e-03 4.929552263741310281e-01
4.628426427904337725e-02 2.580623835952598061e-02 4.483951391930675046e-01
2.866660600835179915e-02 4.085551569427661733e-02 4.346647575207542857e-01
4.796154746067278485e-02 3.378503039451977163e-02 5.088739981247368815e-01
5.478627805830801889e-02 5.041912114941277112e-02 4.808070595311965123e-01
6.373337398035758619e-03 2.872911502012278143e-02 4.054428111404324575e-01
-7.057878850018873933e-03 3.793510784322320917e-02 4.091448538278327773e-01
-2.772202318275038962e-02 6.778130258141518844e-03 4.327252610483875439e-01
1.063064023429365242e-02 2.132648137994265156e-02 4.219732878118457875e-01
3.594612949597971591e-02 3.869101792788192523e-02 4.404987738954345700e-01
4.003490443218049588e-02 2.551147508081371210e-02 4.430735175818781291e-01
4.446165969689934439e-02 -1.972017810782072250e-02 4.532320258800496271e-01
5.218603529485012302e-04 3.032402996017606947e-02 4.055998256948342151e-01
4.824993179702970897e-02 5.383469716689778806e-02 4.969769383192031431e-01
-6.135335168455472235e-03 -2.082690674046895011e-03 4.305248011513654327e-01
5.797834517021295542e-02 3.423973346548669916e-02 4.766382420168839840e-01
-2.004969576700655481e-02 3.878488562495663577e-03 4.298789212908613044e-01
4.360831872187288447e-03 5.801751621843765500e-02 4.199524795954637790e-01
3.601695418632821361e-02 -2.721770487892762394e-02 4.473385980488861491e-01
1.791530981056958793e-02 3.708228497486468211e-02 4.251692095124631754e-01
1.695994284771579078e-03 2.674823229465171648e-02 4.076309537150832885e-01
3.324996218497054679e-02 6.726958178923145293e-02 4.525323442411915420e-01
4.647181657163600155e-02 3.151451359919597156e-02 4.486030853412496522e-01
6.329375495551391520e-03 1.506748572229971682e-02 4.237867867149691103e-01
5.380360559314154023e-02 3.245848735222228113e-03 4.607874831984842823e-01
3.071373494951362346e-02 2.159293197183272117e-02 4.369321168374449837e-01
5.559654391804459694e-02 4.138643749907665315e-02 4.907861713065104770e-01
4.629061918736761261e-02 5.040354266708121922e-02 5.066563587693984072e-01
5.131832216434179667e-02 -2.024983080669202559e-02 4.667469580660192907e-01
8.074460655761749039e-03 4.054675556474861275e-02 4.118517875609244427e-01
-1.175332297740177591e-02 3.436465802271163744e-02 4.122799840705343999e-01
5.133151015909213216e-02 4.059289520372111326e-02 5.032330415937517065e-01
5.359031454897483088e-02 4.232045109184079390e-02 4.978480830505458421e-01
5.341425605195198462e-02 -9.295829478116305472e-03 4.668018443913917181e-01
-1.620787327352608137e-02 4.747339511311672589e-02 4.135086653391388256e-01
2.408573598537649615e-02 5.432441646374869260e-02 4.311383080111414468e-01
-9.355070958129877573e-03 5.219285530133351003e-02 4.154490786870411734e-01
-6.346211939063789442e-04 6.429931170373793040e-03 4.269388817783971724e-01
5.060407802520826975e-02 5.868336590193641567e-02 4.572181588710185762e-01
1.148976293362300935e-02 8.767117903989488786e-03 4.297148828584410052e-01
4.857768099362429204e-02 -9.666751165696773479e-03 4.560961765951925817e-01
-1.902166923914839700e-02 3.726342684936866795e-02 4.144672458036010587e-01
4.810008280754778098e-02 4.124163524677874892e-02 5.086848422562474381e-01
3.456097311519755466e-02 -1.248118099145758761e-03 4.403717798423482099e-01
5.256522807227100719e-02 4.071295958787406188e-02 4.556187592381050200e-01
8.989024061911269486e-03 3.936827294286057710e-02 4.126687920340260662e-01
-3.134199094762026017e-02 2.138798476089490835e-02 4.275946527034504840e-01
5.872921865468234276e-02 -9.921991917264071786e-03 5.076336422544134308e-01
5.413774541678381680e-02 5.283974916615537254e-02 4.785224646413626659e-01
5.212805818614844877e-02 3.388030406984043202e-02 4.545386292118512306e-01
-2.152698004139672744e-02 2.830452818384042446e-02 4.190998932385457398e-01
3.240748602600822259e-02 -2.637754006268971246e-02 4.437790114405893438e-01
-1.579501782182405126e-02 4.565384786123207611e-02 4.126258915605823807e-01
4.524210069166274134e-02 6.698372383867547131e-02 4.737905486510301523e-01
5.432025815535344165e-02 4.167679846595133408e-02 4.961529816142528637e-01
5.784872539053360907e-02 -1.700174726488063977e-03 4.785912358928469668e-01
1.083282921776817717e-02 2.601189302493645862e-03 4.315068930020028448e-01
5.596041578974306901e-02 1.213581221272803240e-02 4.865426699466528504e-01
5.481403183303570209e-02 1.108344070711354823e-02 4.910495783246833779e-01
5.017448945496174456e-02 3.862103748313608365e-02 5.054996898203326650e-01
5.658432586448758350e-02 9.484782241742033271e-03 4.848473613746458466e-01
-3.404815982455214243e-03 4.010234677597705050e-02 4.081474941247653088e-01
4.912203951555840081e-02 3.968259631498564227e-02 5.072004182074648648e-01
4.842589859502040989e-02 3.388325777830853737e-03 5.151538400574027232e-01
5.517618406366705391e-02 4.731090250030423744e-02 4.598439833209756467e-01
4.656571445918043783e-02 6.725558315556078026e-02 4.618122762166098627e-01
5.493209523420031215e-02 4.840467198353491651e-02 4.836933745473668833e-01
4.880219112895559097e-02 2.157726825001715924e-04 4.523925647776911863e-01
5.778626521022434126e-02 -6.145783936146120841e-03 5.005421262136158234e-01
3.553355558028808286e-03 5.554852219754767562e-02 4.182194687737545435e-01
6.363007036136675634e-03 3.929976011147701814e-02 4.096467105594899238e-01
4.212227088969811017e-02 1.564801343856345520e-02 4.448177761957831100e-01
5.148558209613085523e-02 5.276632037321460356e-02 4.909205772625642172e-01
8.975642423935286870e-03 2.802084264517704093e-02 4.114246062060025744e-01
4.956321698217933808e-02 1.561565497846853327e-02 5.029092250695844646e-01
5.827464720682901805e-02 -5.244719859258914138e-03 4.841451753726316309e-01
5.343962987325708014e-02 1.502966438542512224e-02 4.937420909596323959e-01
5.405885628561147432e-02 4.260267357064839722e-02 4.967001977462218720e-01
5.098778073990516829e-02 2.859159873807723753e-02 5.021672813247868294e-01
5.760485237465513830e-02 3.851871397963881061e-02 4.737237310144813418e-01
3.427124936636403996e-02 1.933395045194631623e-02 4.392513274876090890e-01
5.196138709744527878e-02 3.868194411885434586e-02 5.020144371830590480e-01
4.806208088645350790e-02 6.242705503623902086e-02 4.801127316473375872e-01
4.277136421003430167e-02 -1.710489706637055227e-02 4.496086628124500995e-01
3.834123805667483120e-02 9.630801070999140193e-03 4.420704589471317059e-01
-1.596834278382774919e-02 2.945046600687631702e-02 4.159632490814177408e-01
1.957738001984789949e-02 3.989037416860935492e-02 4.266189805318471029e-01
1.908949957979820186e-02 1.019187526411698651e-02 4.326245922143572287e-01
1.390033407308762826e-02 2.127265169070044135e-02 4.242962987127365526e-01
-3.819043214618848131e-02 2.688168342897403074e-03 4.390694725644108121e-01
4.852502771378287144e-02 6.201313765041916067e-03 4.508680157873526939e-01
5.724049535283354251e-02 3.576373210740955988e-02 4.652476718984814852e-01
5.284938285017085069e-02 2.322893745951069497e-02 4.961571894336335165e-01
5.704478813283110628e-02 3.999488541451132889e-02 4.777628578841416340e-01
4.956398553246027516e-02 6.508310110064680076e-02 4.682286602535607467e-01
5.759572809209672489e-02 1.390798885847020945e-02 4.778152000423935841e-01
4.954481314131739533e-02 -7.567742312951205447e-03 4.568823247836800161e-01
-2.000849513488364966e-03 2.159380167181882207e-02 4.135047183536561533e-01
-1.756983807570019693e-02 9.686537100552517973e-03 4.262490319495375601e-01
3.348261793299197459e-02 4.085149889484239460e-03 4.393606534413980191e-01
3.416497702522072744e-02 6.728117192522672929e-02 4.499025453533069263e-01
2.873793094845573590e-03 5.418346883267905617e-02 4.165544937013542781e-01
-2.577515945940956482e-02 4.180838886539432753e-02 4.196458318754850425e-01
5.561984778594510764e-02 9.118634351528506418e-03 4.896472072351836236e-01
-5.298339179086948396e-03 -1.594107087354681290e-02 4.343192820802527776e-01
1.104818510284648683e-02 5.733922539091270559e-02 4.225529900877377787e-01
5.642950929201094590e-02 3.659807105723007076e-02 4.888855371529763350e-01
-2.038446564692061869e-02 7.377322725896065438e-04 4.314234454279852748e-01
4.922024154122112138e-02 6.062304193071110792e-02 4.558007574050603194e-01
5.762753053905946693e-02 3.811486806860587238e-03 4.829193533973729635e-01
5.459992279429381340e-02 4.707574279357603503e-02 4.886014103158707877e-01
5.623790735327890977e-02 1.424716332854200282e-02 4.856142191517873186e-01
5.522040025211837067e-02 -8.755392356474253623e-03 4.705624339263781430e-01
3.118819570230517771e-02 1.349848222394959066e-02 4.375629873418987459e-01
3.221555532800424865e-02 -1.080432357366977944e-02 4.392965498340138386e-01
5.432324033064133556e-02 4.222967211799748960e-03 4.991358675800484646e-01
4.715854480205819432e-02 6.066646623567918672e-02 4.847211662013309330e-01
1.637892649922682853e-02 4.542969344164107803e-02 4.233126971437337072e-01
2.968279584373792468e-02 2.907514053118263192e-02 4.360980227144588550e-01
5.753829026146282249e-02 3.949345877292723822e-02 4.711007934328131919e-01
2.967889673255694194e-02 -6.261886873310213569e-03 4.374813632599118818e-01
-4.179062098057542002e-02 2.002468420548835209e-03 4.480225592798843803e-01
2.631431166512554660e-03 2.448279033947870637e-02 4.105719239297025980e-01
2.554565059295127102e-02 -1.125495274454556098e-02 4.365752270539267066e-01
3.968002454295437020e-02 3.010117266006155992e-02 4.430473297166908631e-01
3.795727337268808149e-02 3.327891381833108370e-02 4.418701438892176370e-01
1.986584341081726671e-02 -3.704305490663027320e-03 4.340665844606719781e-01
4.397038137972126420e-02 8.052405604007521409e-03 4.467057356821872993e-01
2.527763920893985605e-02 -1.893465277830300858e-02 4.381495743681736998e-01
5.331941952760434200e-02 3.229581033935501055e-02 4.559310912158888174e-01
5.044312890882865497e-02 2.992957214951973144e-02 5.037489266353153416e-01
3.638603209142114714e-02 -1.934680553578122658e-02 4.440576482438530204e-01
-2.038574122574668326e-03 3.663338589971623649e-02 4.066282330512201448e-01
4.466354274469321733e-02 -7.047054864425432788e-03 4.498439323631189812e-01
4.893143263684681527e-02 5.227536239617371072e-02 4.988185932831303848e-01
5.301841321775324634e-02 4.613487026257492851e-02 4.959137759027339443e-01
-2.535013239614963484e-02 2.515005856705341755e-02 4.221885809407414092e-01
3.776854070470436753e-02 2.457392471968119010e-02 4.415506374096477282e-01
5.220824065260486896e-02 3.220880206006977720e-02 5.005007917222498159e-01
-1.727250396639185698e-02 1.863308852288090428e-02 4.219218014229421110e-01
3.981525912943326834e-02 -8.378138815597759720e-03 4.448790979575130700e-01
6.696738992615148753e-03 5.092296742761692058e-02 4.152464114497394498e-01
-8.645833064952763991e-03 8.141218915876092393e-03 4.250315551603584541e-01
-1.400045575442748769e-02 1.653598293986448253e-02 4.217965242349369648e-01
-2.042099300408653159e-02 4.509724557702992492e-02 4.149597892124161080e-01
5.827799852498076472e-02 -4.205945089054748814e-03 4.855733335945688900e-01
4.675647732870379103e-02 2.516330202737888933e-02 5.109179666689757093e-01
4.787540652035268685e-02 5.979650494387544341e-03 5.135963704744148650e-01
4.770568149365705946e-02 5.844894931625740225e-02 4.873309801040638378e-01
-1.972366264304249023e-02 3.994107777006471183e-02 4.138972336551674513e-01
5.650937846323943886e-02 1.093536935332322865e-03 4.943214287824251318e-01
-3.225903359182533819e-02 1.128877399274623439e-02 4.346126792728009502e-01
5.739951363537763862e-02 1.648024004572579138e-02 4.673768261251555201e-01
