4.671753015199736625e-02 2.023182813585090029e-02 4.486993921569665256e-01
5.733365335591462247e-02 6.817066706707925784e-04 4.761077200487280892e-01
1.809061867604330048e-02 4.662003688713080296e-02 4.250152923159883356e-01
4.719910763754540939e-02 6.664514192037829243e-02 4.617128765538939805e-01
1.885900367297522334e-02 4.302544146605872394e-02 4.254116963074566216e-01
-3.217411611201315136e-02 1.841426076741047718e-02 4.298568344196402324e-01
2.482115726653868343e-02 2.426727807603158704e-02 4.327321397479644838e-01
5.664918146296300111e-02 4.285022726482600602e-02 4.669423803311756882e-01
2.493048862680770014e-02 -1.148368033724351048e-02 4.363581619281660107e-01
2.409573580424186762e-02 5.069321385462343538e-02 4.305512179265885142e-01
5.442738470761442071e-02 2.671767363104900206e-02 4.574454693818618134e-01
3.734709139658161370e-02 2.226168587493707919e-03 4.420865542185139496e-01
5.084366151314229088e-02 -8.643038694192535509e-03 4.607674971464951197e-01
3.561844609642838416e-02 3.506721646604509662e-02 4.402614535340254043e-01
-1.103949474600193076e-02 4.058027371239645437e-02 4.102506649362120950e-01
5.495465189120738586e-02 1.854090624390869815e-02 4.890911402957589527e-01
3.950570479858078049e-02 4.413784981369764382e-02 4.428434697072577975e-01
4.669932883297344545e-02 4.504303505285435494e-02 4.490053435853935682e-01
4.459492423666875510e-02 5.043979148033869708e-02 4.471732257719540637e-01
-1.213279262142018949e-02 3.783596105023062650e-02 4.108457505360096906e-01
4.090714022479309542e-02 -4.696369275892522087e-03 4.454863725175132738e-01
3.770441164427268399e-02 2.820784262577728796e-02 4.414560702347818388e-01
6.363242490267776753e-03 7.021465989100967968e-03 4.286855879107561162e-01
4.078546374879632452e-02 -1.925774889309292068e-02 4.477315233410573692e-01
5.624340541524732590e-02 2.744149356530753078e-02 4.885882593142216734e-01
1.669395007046799509e-02 4.784397563718959662e-02 4.238083831044455740e-01
4.872654618229508433e-02 -1.636590542405637339e-02 4.597168539851936853e-01
1.258875007946819342e-02 3.548002864766440501e-02 4.162842984433856586e-01
5.698826364608426676e-02 2.508832925221009952e-02 4.635473646210350185e-01
5.746450454332351770e-02 3.796781287283692435e-02 4.686777278645340439e-01
1.107580956879498056e-02 6.146534364390288802e-02 4.319793964552784971e-01
4.791476258450384079e-02 5.407158795373270821e-02 4.966735185114378726e-01
2.260371207169484947e-02 1.258872844248504208e-02 4.330300296807366167e-01
-2.104769640196856029e-02 -2.319056783673405144e-03 4.328302462893202640e-01
2.908189093431225863e-02 -2.146905528645594655e-02 4.399892090317683024e-01
5.479278301524378308e-02 5.162013498975579623e-02 4.734994544955673512e-01
5.274444966487418923e-02 1.538727821200664217e-02 4.552798825878207056e-01
5.175088117864626476e-03 3.551306972375796456e-02 4.066747676147812185e-01
5.099447298929125211e-02 3.864169350754634302e-02 4.535112689519618656e-01
1.244840038870583497e-02 2.687889255629146920e-02 4.203172507386117029e-01
1.889885055840458475e-02 3.911991735420353861e-02 4.258668300303041776e-01
-2.541912373534398542e-02 -2.797033553080430397e-04 4.335189945612652473e-01
3.176259574102710537e-03 -7.481898722671653269e-03 4.316857601224354246e-01
5.760102469124890601e-02 -1.166348354369462111e-02 4.820557665544114023e-01
3.243336629686750534e-03 5.071542375227651445e-02 4.126191737042995689e-01
2.197715309476375861e-02 1.529477223570649413e-02 4.321664892327349294e-01
5.250696985454514354e-02 2.327135882493758939e-02 4.963186216292838626e-01
5.605114378332019115e-02 4.439721248045307850e-02 4.782256975338930460e-01
4.033435276048973755e-02 -1.580988722375247998e-02 4.464122326555063358e-01
1.081907131374341101e-02 5.912147326465144737e-02 4.239848153666939123e-01
5.628392253447116189e-02 3.984850284678980586e-02 4.634469671782416311e-01
2.002959372197277502e-02 3.336532803813092168e-02 4.270711584570625052e-01
5.486777678581968715e-02 1.494440413220664982e-02 4.891347837396759490e-01
3.069680181510841752e-02 2.976452324384141687e-02 4.366739315394989052e-01
-1.087548857701880860e-02 4.814610772685343903e-02 4.109453979717360705e-01
4.713506704445747514e-02 2.133483656766426567e-02 4.491095527378526353e-01
-1.956195017416077417e-02 2.052403305939582215e-03 4.305212073711000564e-01
-4.767086997395336007e-02 -2.803607583620452808e-03 4.433986010946653900e-01
3.664626975756557492e-02 4.654198075861534084e-02 4.407809906677712108e-01
5.642226125725979119e-02 1.327943540558439856e-03 4.703943999617487548e-01
5.179202656228334284e-02 6.331838718909877164e-03 5.037883078957904326e-01
1.843181853631994938e-02 5.706647855938066366e-02 4.283774298455717000e-01
2.950927252093705350e-02 -7.828161276607521757e-04 4.376943625164096963e-01
4.196520810674654600e-02 7.379689958688350100e-03 4.450884187794301727e-01
5.651106185447579699e-02 1.273637307650920224e-02 4.652096337097593737e-01
5.656017930141026689e-02 -3.221698564093324838e-03 5.068031234933646489e-01
4.855601663592519490e-02 2.952876108125440657e-02 4.505031231606857478e-01
1.067789635705181789e-02 2.677294365665877293e-02 4.176501236655563720e-01
5.220210157323749989e-02 -1.644227532392161101e-02 4.675742803895882593e-01
4.300304636197484209e-02 -8.117320729954937558e-03 4.480796899698312741e-01
5.227336584356386678e-02 1.919508246074854568e-02 4.544728321622197864e-01
2.669303066187191098e-02 -1.651664036347953030e-05 4.363431199668554306e-01
-1.855419797427378115e-02 2.496576115570023346e-02 4.187065791864715281e-01
3.947427858976810394e-02 7.444947326950591970e-03 4.430088064838390571e-01
8.512191731570799280e-03 -1.684406436888991401e-02 4.366696339122279613e-01
-1.084532454686198966e-02 2.158336839418864214e-02 4.175101809867933222e-01
4.682178341377946779e-02 -6.133446242151062086e-03 4.522879580289999590e-01
5.984597158726144561e-03 2.702509850220833829e-02 4.071578422347306159e-01
5.126836136522350956e-02 4.874796750302655413e-02 4.970509984646467316e-01
3.274236512166283503e-02 1.842723312197601382e-02 4.382576336647639459e-01
-5.809250939646680087e-03 3.772183726084964855e-02 4.079938805039545757e-01
5.907598298887498794e-02 -1.115512844315710503e-02 5.086810845747936627e-01
5.087200796278300990e-02 4.940687106561347103e-02 4.974025064546901964e-01
5.527779865631843315e-02 2.123908800920516413e-02 4.888886101236357695e-01
5.111518649212709597e-02 2.886772187396866030e-02 5.013272307100634650e-01
-3.877616096088121189e-02 3.861428651582616937e-03 4.436558921982260983e-01
5.391593700143534895e-02 6.072803379869483840e-03 4.601426098243658891e-01
2.268015275448795331e-02 -1.485939662291134444e-02 4.364267330106353371e-01
1.523335537854070103e-02 1.246776820790979068e-02 4.297940405097240291e-01
4.439435291243749859e-02 1.335529945354529090e-02 4.466432681892427148e-01
5.052907035009152059e-02 3.260279885285015389e-02 4.525037855396415454e-01
1.265498530532991120e-02 4.465893163746612049e-02 4.185453025251966164e-01
-3.407966371329652910e-02 1.216121256631780279e-02 4.371087767740777785e-01
-3.481369412081363607e-02 3.027845753115918949e-03 4.367749501099289500e-01
4.327797726220492663e-02 2.743790847095950100e-02 4.456630638308404779e-01
4.127241873888815027e-02 -1.106700453601664261e-02 4.465582001636205223e-01
4.581934774726013210e-02 3.274368713307877765e-02 4.479570156010846405e-01
-3.854094876479197129e-02 3.434013225199728740e-03 4.457679316416428006e-01
-1.018625777414530406e-02 5.021356366667536347e-02 4.117336103418408055e-01
-2.748316773465996066e-02 1.087280019689996005e-02 4.310817090555942310e-01
1.375090646809006348e-03 4.376092172450880141e-02 4.093369084422100457e-01
3.774865172859513673e-02 9.955928181694238821e-03 4.415506091093657215e-01
-1.391135083373023530e-02 4.149634373536972842e-02 4.110538547098501749e-01
2.908665725993137517e-04 5.043253887003321806e-02 4.111148688433357012e-01
2.886871733167052992e-02 1.242743656485796079e-02 4.363875305094591650e-01
5.378307396589442763e-02 2.628348809175528461e-02 4.945658600820429518e-01
5.641817049265932665e-02 6.924646290360702075e-03 4.673739085517548686e-01
5.462160781440231205e-02 -3.216469838440580865e-03 5.117298315622411664e-01
2.998613904911226827e-02 -2.509444026979373160e-02 4.413321134204364338e-01
-1.382679514024107940e-03 -4.140976209455955390e-03 4.308486714748702151e-01
5.195937402092402901e-02 3.769155835396446885e-02 4.547347277225003426e-01
9.633947666604112531e-03 4.688290169983097555e-02 4.153482302140615312e-01
4.636564892521356090e-02 -7.403859080645462144e-03 4.522743130388053867e-01
2.835982942634852205e-02 2.620460853950203409e-02 4.350699875800284611e-01
-6.984469364559110424e-03 4.620533683619038566e-03 4.271796845420463007e-01
5.231629231255811863e-02 -2.131051091886629334e-02 4.692053530016460638e-01
4.939717454094246646e-02 3.051390859852553400e-02 4.512913324883238708e-01
4.599017286107710129e-02 5.498520026581463910e-02 4.960071864487061721e-01
3.700277680191477875e-03 1.478455023134480316e-02 4.223038794610139979e-01
3.642613576233078021e-02 -2.207631198486237345e-02 4.452173779547245469e-01
-2.927723333204131778e-02 1.847962403092611935e-02 4.273069194204460741e-01
-7.515565227897309623e-03 4.156790500300741598e-02 4.094718012494718007e-01
1.122509329665473052e-02 -2.092911809231784263e-03 4.318579777792652119e-01
4.884594905948229371e-02 7.782447450837544009e-03 4.509698583500088565e-01
4.985080708507394487e-02 1.611634396288516135e-03 5.144809758335385785e-01
-3.413062687981622406e-02 5.026132418392537625e-03 4.381462819335553704e-01
3.618022940410309946e-02 -2.260984057730616378e-02 4.452386616798650887e-01
5.713973413409335206e-02 2.811018779352325234e-02 4.638281078181738515e-01
8.068313578982248130e-03 3.031079277975627650e-02 4.077845186138668865e-01
5.077497820240953544e-03 5.708742809404495841e-03 4.289977497341349033e-01
4.002187061779936134e-02 3.518858182347965602e-02 4.432890249686741724e-01
-3.314314098082993959e-02 1.952893650277662957e-02 4.311300021578330921e-01
5.728552892618750392e-02 6.607230656297251314e-03 4.762733714684100894e-01
5.699459854834010297e-02 6.492895349365349414e-03 4.715286280707432498e-01
3.809042292348893688e-02 1.780214708818582750e-02 4.415577496904090626e-01
2.962378378127899017e-02 -4.905046718239745168e-03 4.373771862101916152e-01
5.523725937019299814e-02 4.360446586544528685e-02 4.886906856721363046e-01
5.547928443137463417e-02 1.476688522965590236e-02 4.874362749048114507e-01
5.510372075061750058e-02 2.223678345993409730e-02 4.590647937019453617e-01
1.819760846056583600e-02 2.724406233247982784e-02 4.264927896518024286e-01
-2.127486987644559846e-02 4.613716171520913789e-02 4.154735972251533682e-01
5.750089621284716623e-02 -1.091132838615857872e-02 4.817803913572336061e-01
2.336905553348548117e-02 6.100342267188313405e-02 4.375997039315603909e-01
4.921205417358444356e-02 3.173893131405911699e-02 4.511036333070583271e-01
1.232304190965319984e-04 2.187459742954517630e-02 4.132586705155118501e-01
3.988220867718061946e-02 5.504559256233666764e-02 4.441106317623114141e-01
5.473686993132027834e-02 1.614590572731859977e-02 4.588955904474761316e-01
3.004404961994896692e-02 6.578624501033063232e-02 4.475222919678007449e-01
4.557466474357698555e-02 7.764030753838698819e-03 4.480251526385870542e-01
5.501380868062748231e-02 1.967399454176426213e-02 4.591590387086216807e-01
5.239870170298965152e-02 -4.025863370330606643e-03 4.612805819150301856e-01
5.828346650424796188e-02 -6.496591093562601588e-03 4.942646582865308225e-01
2.867983276513356300e-02 3.994828153491230410e-02 4.345753404376140883e-01
-9.263130130674240154e-03 7.667008862733598433e-03 4.251378122467350251e-01
9.795946011237316453e-03 3.108835023600345360e-02 4.114828043742654873e-01
4.871203363192068599e-03 -8.642525200600662677e-03 4.321911752549090213e-01
4.163537235528397273e-02 5.825731969286419148e-02 4.463028607653856672e-01
-7.200798969144086605e-03 6.164131463798172388e-03 4.261754502210362006e-01
4.179183861506338693e-02 -9.322825007318118196e-03 4.468739194176175045e-01
5.635424019223533171e-02 4.556661455178098730e-02 4.719225181387537993e-01
2.297869816868529369e-02 6.408190387131176835e-02 4.454435090832647437e-01
3.338720597298209906e-03 3.081839805537016710e-02 4.046952406231666410e-01
5.797105411855348750e-02 -1.041110419525707008e-02 4.849433188881652756e-01
1.419103567780231889e-02 5.183803422631803881e-02 4.220391401053751324e-01
1.983789677342645899e-02 -7.656986719894550396e-03 4.343226116260729408e-01
5.175383914891701354e-02 1.268471948617914090e-02 4.541244376247064451e-01
-1.974858467454791364e-02 2.865871993620714223e-02 4.176101489099917075e-01
3.383400940990947264e-02 5.840232619541834563e-02 4.404692070128544690e-01
1.442998409827297816e-02 -1.373349949222539557e-02 4.351875231152198542e-01
5.643495375604434122e-02 4.369285190018318277e-02 4.755042752626617575e-01
-8.174499581904989473e-03 4.186382637317048738e-02 4.096568317258452163e-01
-2.421159506232490460e-02 1.635873175279228559e-03 4.321338644465221868e-01
2.263748084634315504e-03 2.940535156688772397e-02 4.044970394592001806e-01
-3.684736339455579185e-02 2.208984359211842771e-03 4.381570147915822555e-01
2.783969734503490695e-02 2.987645582982971157e-02 4.346453426222897654e-01
5.755998175084796331e-02 1.742076945781239131e-02 4.742122912132071266e-01
3.172816667870293622e-02 6.554117828657538003e-02 4.476892366896401132e-01
5.588146743992646048e-02 -2.775185725312092396e-03 5.082972559389768996e-01
5.510310572525080330e-02 4.777243743268029530e-02 4.812807422240599764e-01
1.723016509956703385e-02 5.927930929330520182e-02 4.294677177061470008e-01
5.134450779812489013e-02 1.230890423208474277e-02 4.994119098644509980e-01
2.623180883307389341e-02 -1.066961284887503469e-02 4.366331789213678261e-01
3.545063090183463855e-02 1.547728817969227198e-02 4.399560562834551325e-01
5.182166370390559051e-02 4.011657592028112368e-02 5.014677790360334564e-01
5.589981215782128393e-02 2.943739944057336549e-02 4.607573835283234054e-01
5.375870021148300426e-02 1.510740162087866739e-02 4.564456329658427847e-01
-2.635690569538026370e-02 1.761787163127948724e-02 4.261203529800983159e-01
4.589028926894198057e-02 5.653557460386623990e-02 4.929071544669219596e-01
5.780439100106734424e-02 -1.553126079467316914e-02 4.825722563644361252e-01
-2.622137893468748718e-02 4.408748151089302708e-02 4.196475106980866454e-01
1.514983509614536636e-02 6.119393382237824086e-02 4.360176486081817071e-01
2.308674917758532508e-02 4.885028411800752812e-02 4.296500083626949018e-01
-1.304440946396132756e-02 8.007696602343669645e-03 4.257662042753063703e-01
3.058073663745930135e-02 6.519481147041458757e-02 4.456505316080150991e-01
3.057866143223512273e-02 1.597624488194618678e-02 4.370939581549939668e-01
4.049410478957467252e-02 4.851805132374806956e-02 4.436603363636276165e-01
2.183987059628344010e-02 -2.574314547056513226e-03 4.344748461519515881e-01
-6.134853495098136975e-03 -4.602220247566155692e-03 4.309742965729718711e-01
5.396585755016809066e-02 5.452593115619705499e-02 4.701121097403336835e-01
1.974412278531474663e-02 -7.423189852404931538e-03 4.342609517731189084e-01
3.145176976313573264e-02 -1.183093385084497268e-02 4.389066727477741736e-01
5.618709740310925960e-02 1.903568683239423992e-02 4.621346337042092078e-01
5.569620394224464310e-02 7.160104318031851323e-03 4.646958546752173458e-01
-3.486018809251838907e-02 1.650322674418405744e-02 4.367562834724124099e-01
3.402693543009147753e-02 -1.666757722155212326e-02 4.415660326114749790e-01
3.947907470016599751e-02 5.208676558337974570e-03 4.433191750457986524e-01
1.589448206289087104e-02 -1.928692736120201853e-02 4.365677448213101663e-01
5.312947310951432467e-02 5.113999505349577784e-02 4.568962435900045804e-01
7.117053627745730318e-03 2.571448713278982889e-02 4.118680741187893402e-01
4.108008515469858263e-02 -1.053907618299607801e-02 4.463150840214391568e-01
3.110600693232506812e-03 2.800795609133649444e-02 4.056596239865667419e-01
5.501139395948068112e-02 4.488117149328493122e-02 4.880984260965134380e-01
4.554128047284469738e-02 3.093564465017140802e-02 5.125146187039620882e-01
4.711049831809896449e-02 2.730894398107764492e-02 5.097191833744539879e-01
1.179191418341877552e-02 1.744832775575697395e-02 4.247401869284339604e-01
5.540784336657429698e-02 4.374920123606960976e-02 4.860852537716335298e-01
1.376506677447666104e-03 -1.158827584855534089e-02 4.325300206323808849e-01
4.018258287398224216e-02 -2.119946772410695804e-02 4.478109940702181824e-01
5.209153838135566900e-02 5.242671608034155106e-02 4.883925829971947352e-01
4.472922235364884536e-02 -2.049826002022599181e-02 4.540890314244987458e-01
1.664732795851807737e-02 6.171878440642740438e-02 4.400585281179542063e-01
3.649940862795534452e-02 6.523120028034574969e-02 4.476921684104322452e-01
2.889468258346584995e-02 5.479666031098470030e-02 4.345899405609391364e-01
1.371607001117895568e-02 3.528017881489194096e-02 4.193713590040675787e-01
5.117767769683947282e-02 5.315057096850499957e-02 4.546037734422160859e-01
5.518199606345535607e-02 4.498085279080276874e-03 4.948929960282749674e-01
1.021219474847293203e-02 5.296592731739592887e-04 4.313719160157027943e-01
-8.047874974985689406e-03 -1.236497008223146586e-02 4.339427492865496894e-01
5.015716448583040776e-02 3.553082644516527330e-03 5.116809007192408831e-01
5.458199367794135115e-02 -2.860249364941676309e-03 5.114729581352889243e-01
-1.811329297597847124e-02 3.881137844508477514e-02 4.129554035123602085e-01
4.404806267926553165e-02 4.544527258449290036e-02 4.464051582145920349e-01
4.964583620343394899e-02 4.384886117760023599e-02 5.051125793572249778e-01
4.985397855334632033e-02 6.116864138745572305e-02 4.584393091296163347e-01
5.259285627829270171e-02 5.523813514363323449e-03 5.025387670959009512e-01
3.049796550116587110e-02 5.544625264843942858e-02 4.361278732398999880e-01
2.721897874061379730e-02 -2.443162716392828157e-02 4.396579236150799375e-01
4.357526555584274874e-02 6.066440634278526950e-02 4.486046527235692527e-01
4.695776490913367018e-02 6.580525178903585959e-02 4.584941019873343682e-01
5.131454541968849536e-02 6.067101853107028514e-02 4.629327911008930818e-01
5.704514539587422772e-02 3.493298583754873843e-02 4.844380476451390360e-01
-1.326991205942930699e-02 7.655861013099749500e-03 4.259882262304943157e-01
4.442863599240883671e-02 4.775731453809198973e-02 5.118627087591213209e-01
5.818629540132503469e-02 2.883931538321639690e-02 4.738805600132808271e-01
1.064672587198136136e-02 1.066772654440533135e-03 4.314130118884340059e-01
5.373512648902502298e-02 2.055002337675571403e-02 4.559198693282378589e-01
5.764729027654188348e-02 4.069869386306167874e-03 4.790951290856437783e-01
2.609628693716741984e-02 4.849433765804761487e-02 4.318142847960986797e-01
-3.399647860381593140e-02 2.738223595674411925e-02 4.284542767022203602e-01
3.563541189461699298e-03 3.209869159358960666e-02 4.044494444662254939e-01
6.666142966964770308e-03 4.796759528387888744e-02 4.138136750432908073e-01
4.651132800874447498e-02 6.390870680124115244e-02 4.795896416241812177e-01
5.084575846569282936e-02 6.258055109600185739e-02 4.650809802239242452e-01
5.941538570029339383e-02 -1.203387557326198939e-02 5.078709765466384862e-01
5.778127308085151403e-02 1.995896351860098131e-02 4.738264992205848403e-01
1.284203892336289315e-02 6.009541991207806994e-02 4.270263555829962865e-01
5.537946993336420598e-02 4.413031562114547862e-02 4.850214127715309909e-01
1.611779486808993106e-02 -1.907461835934269948e-02 4.365159928286724278e-01
5.260911294414975792e-02 5.319301185322181102e-02 4.567828896572182495e-01
-5.764208809324626245e-03 5.183410295037457066e-02 4.138846978230135143e-01
5.123170434144726226e-02 4.812748113065796335e-02 4.540679081811075379e-01
3.691795463064677374e-02 -3.918548686183786003e-03 4.421785173916016887e-01
2.829779296414645234e-02 2.648673545248595926e-02 4.350210672023907543e-01
-2.837825635307086522e-02 2.117268761827241497e-02 4.253105902051472209e-01
3.070280085623769764e-02 2.244562692836459677e-02 4.367813109320392018e-01
3.865592808024869570e-02 6.826391443876402010e-02 4.680752446969098646e-01
-2.055377971525835373e-02 2.982556261699137456e-02 4.174878429780299327e-01
5.145110744503796074e-02 5.073950816149642301e-02 4.543915538050743441e-01
5.600447915233133789e-02 1.429472277682832665e-03 4.961093024805237617e-01
5.266527952255855433e-02 -9.879021370425681431e-03 4.655890068710194507e-01
1.685043728952448361e-02 6.192034612599996157e-02 4.405103827358266000e-01
9.070921925452876677e-03 -9.580531073216227989e-03 4.329337737171337630e-01
1.119961609331406038e-02 2.899162094577375365e-02 4.158470861883067915e-01
-3.295338852197426949e-02 1.577816047247250497e-02 4.332125229951035994e-01
1.134879248164883010e-02 5.897937199282198700e-02 4.242817973684659960e-01
2.083675499122607591e-02 -4.865569187428964854e-03 4.343172398251165522e-01
3.575377001143139472e-02 6.527910140142297035e-02 4.477044476932107719e-01
5.587446958456317864e-02 2.791597148128015932e-02 4.898179269479581710e-01
5.868420102047631343e-02 -1.059068400674171434e-02 5.104810332038682841e-01
5.567789593726733127e-02 -2.498475032889067339e-03 5.084314007900706534e-01
5.526948207613396891e-02 6.547143744539960127e-03 4.919165976951739294e-01
4.982144577705007599e-02 5.841968730344834076e-02 4.827322027601976817e-01
5.373013201947032108e-02 4.751325783344822855e-03 4.601734420751392163e-01
5.239747248508858785e-02 -2.017632775226769690e-02 4.691171626469060607e-01
5.567028257431208549e-02 1.301671344152498765e-02 4.621694256694202085e-01
4.185829456639909851e-02 6.037357314022310378e-02 4.470766675892874353e-01
3.398961932983531747e-02 -1.738498422793564174e-02 4.417068325598054179e-01
4.797970224382718668e-02 2.460119512554208299e-02 4.499326023160144516e-01
-1.647345816301576740e-02 7.242456482815830265e-04 4.307188492575055316e-01
9.567065230863695813e-03 -2.303907800301571024e-02 4.379445595790397161e-01
5.523754038720988385e-02 1.991585214204724674e-02 4.884338697098932203e-01
4.859818252406589156e-02 6.509025657049974378e-02 4.620526046632267847e-01
5.326863998560334157e-02 -6.779799256843524295e-03 4.650570072855652604e-01
4.124546802696531234e-02 9.026836078946836803e-03 4.443682211146868788e-01
5.030083425185392226e-02 5.921788671933646969e-02 4.572394960266141228e-01
7.763812563862472482e-03 1.545956747488571453e-02 4.239839029180891283e-01
5.281173807047188917e-02 2.303031564542301970e-02 4.955054856375688543e-01
5.346301080063566719e-02 8.159180138392379406e-03 4.965079803455147989e-01
-4.424888737189038024e-02 -5.375538673503101397e-04 4.424196802137792539e-01
5.801013274648991053e-02 1.840388539523663686e-04 4.814934722708746340e-01
4.468126575904302761e-02 5.564221307185256149e-02 4.483333852115740648e-01
5.031871055507526613e-02 6.140873522145620655e-02 4.606549536044985960e-01
2.046960981677223637e-02 -1.676265506818896966e-02 4.363745253986650585e-01
1.958291979090248658e-02 4.604756998229577597e-02 4.264209095695465912e-01
5.187249207492332370e-02 -2.124800981312128037e-02 4.681925473962836870e-01
2.130060133042381218e-02 3.888992399790111576e-02 4.283194798458488384e-01
2.091206777485393048e-02 5.949315451178716074e-02 4.326981752502913059e-01
4.694799649419271331e-02 6.228163469237889271e-02 4.819373439728056874e-01
4.497618894159799430e-02 6.653795413753094135e-02 4.545477864602411322e-01
9.344140736339061684e-03 -1.077126121120818708e-02 4.332822320867914523e-01
3.305959424900326536e-03 2.315842593461895499e-02 4.122489135746499889e-01
3.625695696451632088e-02 6.235918870241603101e-02 4.443576616246985300e-01
2.531793554955098086e-02 -1.287350000516391570e-02 4.367248023531781764e-01
-4.156982694167003084e-02 2.579623671708998825e-03 4.437602844062863983e-01
5.514725416000904046e-02 2.188595176840801848e-02 4.591479117848096814e-01
5.449205632878375422e-02 4.126691459495260283e-02 4.946279061296051660e-01
3.729322622015224242e-02 -4.696564357734880207e-03 4.424944674023348901e-01
3.379654663459030067e-02 5.417138212122175889e-02 4.386127301105729459e-01
3.375992860881814328e-02 -4.315674130319923502e-03 4.398635645623549251e-01
3.017071674429638514e-02 -1.691153775091448069e-02 4.394430835250778822e-01
4.263411591357926800e-02 -1.039348305021721430e-02 4.479652720123832310e-01
5.162648066623748422e-02 4.013240047787566822e-03 5.080977921203724268e-01
2.787313905260914437e-06 2.039097963660496324e-02 4.152006301633765495e-01
-2.999572489454428031e-02 2.355362449013545523e-02 4.254875789189686563e-01
5.809888241125359728e-04 -1.563613082468211929e-02 4.347902294412448465e-01
-4.374775718498365856e-03 -5.137235367450036089e-03 4.309956003805189284e-01
-2.220105539462217947e-02 3.317748533360047325e-02 4.171021132725100111e-01
3.292987207056755766e-02 3.050200507163686875e-02 4.382134351755089252e-01
-1.393489898662670159e-02 2.051935372459063114e-02 4.192071340763197651e-01
-1.992693392601136912e-02 2.943311014886022467e-02 4.173537891054195370e-01
2.057864640805808637e-02 4.970322289808520866e-02 4.276739761786684801e-01
-2.992056613826566715e-03 3.447324688450815328e-02 4.065198002289042711e-01
4.870148413784552294e-02 3.123499538197761077e-02 5.067182174146479534e-01
2.594865258939259810e-03 5.754660993170872783e-03 4.281444438933404428e-01
1.340513319874401046e-02 5.654771463581451107e-02 4.232824383434136140e-01
-2.697649592470270294e-02 3.967748670859584659e-02 4.190523795876904822e-01
-8.092321631386376751e-03 4.512808752642151391e-05 4.300017844614238971e-01
5.356645031774101562e-02 2.437257284429899043e-02 4.555613071089676391e-01
5.347151998686083124e-02 3.245622893052609384e-03 5.033090029524455167e-01
4.859883498001568020e-02 3.313177258936861585e-03 5.148407964735289832e-01
1.361666500322216908e-02 4.742684149022119433e-02 4.204780365859356328e-01
4.889749298981718728e-02 1.926098860943401686e-02 4.507911529612651513e-01
5.116988099265176726e-02 1.352508320701688478e-02 4.990247457787955199e-01
4.700612811789436907e-02 3.009490800177883757e-02 4.490272907426229865e-01
2.523591300398246584e-02 6.070188864234441622e-02 4.365800860212783463e-01
4.653025481688050774e-02 -1.200564780509776226e-02 4.539339576481056238e-01
4.968917525792321960e-02 6.101499912882357712e-02 4.776031678312587236e-01
5.533842619627912102e-02 4.117190929553937034e-02 4.908142537063718280e-01
1.776653230591082253e-02 4.617485753498548617e-02 4.246201311518999488e-01
1.971032391370916223e-02 2.456072601929972302e-02 4.284726686952211039e-01
4.117875892544964334e-02 6.848348779954531451e-02 4.529757226572461160e-01
2.715241543659927675e-02 5.939616942351998163e-02 4.365301312450859395e-01
5.059734806430255666e-02 6.299957762342822676e-02 4.687258851771634038e-01
3.410142595214847583e-02 -1.229993832122004520e-02 4.407226575403250246e-01
5.487954617262012780e-02 1.082109693955442091e-02 4.608312874868709663e-01
4.789559769150313756e-02 1.292951221762810021e-02 5.078643649110016201e-01
3.589826798477480790e-02 -2.697533422662275193e-02 4.471025084931546378e-01
5.195271458279788340e-02 5.839524250848065340e-02 4.730356306082360018e-01
4.456517113284949594e-02 1.083616641395468254e-02 4.469436519192064305e-01
1.084923667272651507e-02 3.649972494307824472e-02 4.138834597707753415e-01
5.089160706039153916e-03 5.107683717989086603e-02 4.139693559806973400e-01
4.261222854935335647e-02 3.382968116872647757e-02 4.453326916025335258e-01
5.053713709299988838e-02 6.264236314175102016e-02 4.699845377918351330e-01
1.690705827960007832e-02 1.962428278507746121e-02 4.273592994481441032e-01
-1.493993381423470296e-02 8.302022445935797884e-03 4.260199489301659259e-01
-2.820579019346813182e-02 1.342469889350910231e-02 4.303581874885218927e-01
2.748571481509694096e-03 3.517372786910507448e-02 4.039861311342404226e-01
8.693978747949493782e-03 3.991287295559332177e-02 4.122525407487334093e-01
-3.107280605778458410e-02 1.799504968982889794e-02 4.289265204958527256e-01
5.209982512081304251e-02 -1.572772610537603172e-02 4.670640984706867505e-01
5.066731114862067092e-02 9.317661402125322276e-03 5.031450454144286155e-01
-4.417261527025227036e-02 7.802892775951825004e-04 4.441815358916572087e-01
2.813258378957954678e-02 1.363380718163713715e-02 4.359302546797775846e-01
5.290359697696996738e-02 3.535073149281799804e-02 4.558642166363529591e-01
1.497483918277439825e-02 3.007756019761497965e-02 4.221927555732939985e-01
4.815133888152470058e-03 -1.232174317540080805e-02 4.334116292547673388e-01
-6.702559770241925223e-03 2.855098580271067318e-02 4.119721385899479671e-01
3.522734149368989681e-02 -1.120705735053469446e-02 4.414643019797345747e-01
-3.326397387167821275e-03 1.513613049661865703e-02 4.203922205686063673e-01
-4.032507976316926368e-02 1.743130741693458673e-03 4.410891509866766702e-01
5.396387060741265201e-02 4.990124492252838440e-02 4.856873462342599090e-01
4.487665003084381765e-02 6.033958082525069100e-02 4.496082801903215631e-01
-2.065997927949479382e-02 4.887745698217378643e-02 4.184456569123049530e-01
5.328777080742731764e-02 2.872406432682013400e-02 4.555960590356493145e-01
1.298673137608016143e-02 3.624142542782225751e-02 4.173806706113770137e-01
-3.866604566566191059e-02 2.291150630503296752e-03 4.395299411868705541e-01
2.241849051258272552e-02 6.625799549356435267e-03 4.346810425468127792e-01
1.244529105285352780e-02 3.019825703030696445e-02 4.181356556256496937e-01
-2.499999166333594439e-02 -1.564409162914599024e-03 4.339573581838739869e-01
3.376245295641446681e-02 -2.721569636993704383e-03 4.397924520851015373e-01
-5.006163335926122962e-03 3.708563311162259291e-02 4.074753679502324255e-01
1.198207804978757007e-02 -1.027684514624754505e-02 4.334490848386735595e-01
-6.223563230926267790e-04 2.852348659123738611e-02 4.066772512901026815e-01
4.360599483793965551e-03 -7.879478443433271528e-03 4.319399112904206972e-01
5.781421719151037114e-02 2.379922438041340640e-02 4.678447038143819237e-01
5.641747244243606324e-02 3.332557580829373367e-02 4.619746602455705453e-01
-5.137118889329039643e-03 3.528904351783285209e-02 4.082043887154445105e-01
5.257761944929514528e-03 1.292425522747385133e-02 4.245123916170934208e-01
-2.740228884097856490e-02 3.320632789830517406e-02 4.202449674375743904e-01
6.621871244012882476e-03 6.056369133742877525e-02 4.238354794301572026e-01
1.515546861342164688e-02 8.742372524933136879e-03 4.313911616460774923e-01
-7.292988604649168656e-03 -4.126323905576713760e-03 4.309615056883328577e-01
1.099307130376057408e-02 3.892295035223250488e-02 4.152294117271392859e-01
5.458195625275135549e-02 4.530825454670788649e-02 4.581348983567070099e-01
5.613824669091842939e-02 3.340547713808952879e-02 4.898572603224357058e-01
4.902246289816575286e-02 6.074646416216951395e-02 4.800049923037048583e-01
1.091457450159031770e-02 3.846178754184230442e-02 4.151868156671493226e-01
1.692942985145935025e-02 2.932482098336925552e-02 4.244585975818787604e-01
-1.156511016611437223e-02 -1.043518432465363917e-02 4.342938919600162762e-01
2.136342419207461901e-02 3.380003821674543857e-02 4.283330558537121191e-01
3.886569650946557208e-02 5.787246884230067695e-02 4.439464982688759442e-01
5.292005936532301336e-02 4.965605685937114766e-02 4.560931401529618734e-01
5.726950138687449815e-02 3.285470573859674420e-02 4.837202922688815243e-01
9.304599095144860943e-03 -2.296008051216116494e-02 4.379580910967755258e-01
1.083369812504772836e-02 2.631376415202298785e-02 4.186721071809716421e-01
1.279167312836063629e-02 2.544841926974042781e-02 4.214418449690061630e-01
5.693547180848758382e-02 4.287029445638444909e-03 4.873250475707031071e-01
2.798177547257043110e-02 4.000879687649029626e-02 4.339794629322522024e-01
1.655165516233592093e-02 3.556652800001836034e-02 4.234655168093462430e-01
2.814079016433325073e-02 1.504336256256885718e-02 4.357294407174773787e-01
3.433844034181841864e-02 -3.019448496383969616e-02 4.474501371376294889e-01
-3.151392913302568377e-02 3.521181852314968566e-03 4.349744431683307822e-01
4.082937119633572864e-02 6.414561726570193467e-02 4.482332075958798678e-01
5.742233536199248950e-02 3.548866224608628051e-03 4.836400338526400944e-01
4.833336227320363804e-02 -1.308813880503986032e-02 4.575628757727850382e-01
2.667327994524194053e-04 -1.023939854594149018e-02 4.321250062847691864e-01
-2.283563295265672588e-02 2.525415009749833531e-02 4.205445799514920813e-01
-4.151463055052172224e-03 1.329077374934263880e-02 4.218695039141641123e-01
3.019284698152878421e-02 9.777819395924203238e-03 4.371738741835403119e-01
1.216590180549715662e-02 4.540901768180354015e-02 4.181652228636379420e-01
2.035574183678201185e-03 2.015194124569842302e-02 4.161704590298494488e-01
4.564015381721051728e-02 6.402545374596904648e-02 4.528063471813036922e-01
-3.567059257021740204e-02 1.741400136491945763e-02 4.377730522186146778e-01
5.001251487714643805e-03 4.704845109903815076e-02 4.121162386417296930e-01
5.600234997888136473e-02 -1.955301222115444527e-04 4.690763671202339835e-01
-1.191944381954450176e-02 6.621919314144741886e-03 4.262161820238428156e-01
3.655582510443832617e-02 5.086410681473095552e-02 4.407124983575480548e-01
-3.622203040487381037e-02 3.336405340397444793e-03 4.380616968031056935e-01
4.433019767871220623e-02 4.189311878322314608e-02 4.465025890410372900e-01
4.889935757686967449e-02 1.563152238879721850e-02 5.040408186845792837e-01
1.558071727464551554e-02 -2.204140001736431057e-02 4.371885490767906113e-01
4.986121562247435718e-02 5.602842627542822806e-02 4.874984998402763781e-01
1.297981393733496983e-02 6.035217856271603981e-02 4.283519014942511749e-01
1.625005777233496512e-02 3.972266009891499416e-02 4.231319483099676426e-01
2.417210153849829943e-02 2.448116786621185037e-03 4.353514190181717591e-01
1.224230898084299052e-02 6.056709960777637014e-02 4.286711017473314178e-01
4.703280676435325769e-02 6.716990439643191757e-02 4.628807770741237837e-01
5.465834395407091068e-02 3.394659591995413585e-04 4.646585928116492847e-01
4.678523381657052893e-02 2.218139872110893793e-02 5.101294341610211891e-01
-8.590633011295515167e-03 4.043963771897695486e-02 4.094292233375501633e-01
4.929247639436901834e-02 5.876934998772709307e-02 4.833731848471785608e-01
-6.633256999575821121e-03 7.360807245156587332e-03 4.254167839367472004e-01
5.594484434704152104e-02 3.724862609517378548e-02 4.616706663076381445e-01
3.920556864476318348e-02 -1.850023996347973515e-02 4.461317971807036709e-01
-2.133100723536072996e-02 -3.251606935853077526e-03 4.333305668326647431e-01
1.136527194274046092e-03 3.959487348820761587e-02 4.064822098959256502e-01
4.832646663519155061e-02 5.753026525806902158e-02 4.871909245994233695e-01
1.762713301460046636e-02 -9.738329057639045008e-03 4.342167334841114390e-01
5.312732548077690742e-02 -1.710835417952767668e-02 4.699653621816794469e-01
5.024814646450061900e-02 6.279890864556372798e-02 4.628944865072776027e-01
2.673102634039204589e-02 1.120534862281414093e-02 4.354809695596303931e-01
-2.678469693353241129e-02 2.787562162079381192e-02 4.216181018783282664e-01
4.982706537334418567e-02 1.725695432024421105e-02 4.517358121585440256e-01
1.184597613111789544e-02 3.707188758444963234e-02 4.167880420839880085e-01
6.376631431319475588e-03 1.410542083982316633e-02 4.242439233264473364e-01
5.763981119714647883e-02 1.833868614077305975e-02 4.742109033090491366e-01
4.139093436426944002e-03 3.553887955162877282e-02 4.054075999452602663e-01
5.786526808747374795e-02 2.622241183957008462e-02 4.803320011210789886e-01
4.321663272027479602e-02 6.417945267992512803e-02 4.502215165611214154e-01
4.718642341711219018e-02 6.527886595543834491e-02 4.770741872350154344e-01
-2.545524354844402523e-02 1.903909328026093944e-02 4.247675329552941803e-01
3.872195042003513665e-02 3.716897467861105669e-02 4.422919774617892763e-01
5.761247749352656905e-02 3.457025197632701552e-02 4.672631226337091159e-01
5.174025891569304647e-02 3.768002399939920921e-02 4.544325891867839196e-01
5.807507248276136402e-02 2.837549738481878053e-02 4.694344285950844409e-01
3.349192242000753605e-02 4.356309904975538133e-02 4.384195486170608946e-01
5.751103286365748246e-02 -1.873933109020285356e-03 4.939691455646588736e-01
5.605159540582713845e-02 -4.718242451113806996e-03 4.710464480316803315e-01
4.673542385406415089e-02 1.010250088603045077e-02 5.118872131799967473e-01
4.643458913514148662e-02 5.673310063378852325e-02 4.922103331224582656e-01
4.568628108211218730e-02 6.180205432836041735e-02 4.849385857604078809e-01
-2.349024129520593807e-02 1.226874664232429496e-02 4.276078332768458168e-01
-2.514441914010375964e-02 3.662235526649087330e-02 4.176052235454069117e-01
-1.927500961907518658e-03 -1.033698177816781867e-02 4.324481009459579806e-01
2.023795658372197839e-02 -2.154141850606949155e-02 4.372094480337881950e-01
5.517382603196591823e-02 3.231808867732453676e-03 4.971209433141312584e-01
5.668731272369762625e-02 9.165020980214294566e-03 4.836600349815773359e-01
-1.953910038819356085e-02 1.821029632031692658e-02 4.226365475411489880e-01
4.911383384170180805e-02 5.460375421757058916e-03 5.117482255959857618e-01
5.493476291079537471e-02 4.589384716330725117e-02 4.857194612384856391e-01
-2.625613175724933468e-02 1.182082697305268659e-02 4.297509904197374109e-01
2.550118755803612927e-03 3.666605031551850406e-03 4.293093765813545404e-01
1.480612961526135869e-02 3.946064982687924605e-02 4.216760988103670504e-01
5.407828385341979793e-02 5.148169678217730943e-02 4.594142012061634417e-01
5.704434800972019159e-02 3.488406949354032338e-02 4.647304417529408149e-01
5.305337512253408688e-02 5.309594156680527699e-02 4.574238140978492684e-01
-2.646766435175573751e-02 3.938671828478425979e-02 4.186461120157459193e-01
1.343864264093076050e-02 6.136271691598650657e-02 4.345488390050643024e-01
-1.244529102536255649e-02 2.258005204834538215e-04 4.302146783006660646e-01
4.333631712654241464e-02 5.824891224066117840e-02 4.477372485993385554e-01
