4.976273390154464099e-02 -1.052332562671707064e-02 4.601149602388661664e-01
-9.232847786575203164e-04 5.308102269750387958e-02 4.139299471796887286e-01
2.993018433699146455e-02 6.449240214606670463e-02 4.429600710252785123e-01
-1.605127434027109334e-02 1.177060676597829411e-02 4.244541399839998341e-01
-1.461175143015128360e-02 3.583130863042626596e-02 4.122859667126774208e-01
5.245997342900803745e-02 3.565298330105919067e-02 4.989820673181410982e-01
4.187090348692554947e-02 7.026203932512442574e-02 4.554272184535755330e-01
1.671689656118869466e-02 6.024711394508099060e-02 4.335543871485895151e-01
2.576436471748965937e-03 2.017184275353122933e-02 4.169796684170259948e-01
-2.129501641063055728e-02 4.801168415078768681e-02 4.174658974571682779e-01
4.017284286259339976e-02 6.110302997253459073e-02 4.465691195698408555e-01
5.509182037150547884e-02 3.807883035707171349e-02 4.911674202405915679e-01
4.410019536704603421e-02 -1.209494411666638819e-02 4.504784927963164098e-01
-1.547167762482193343e-02 2.118711344986348374e-02 4.192857875678649426e-01
4.538768466462396456e-02 3.534600615886993730e-02 5.121480686721880948e-01
2.888642541584605580e-03 6.022659779704325755e-02 4.208622058134766641e-01
5.547292106149257634e-02 1.203886573039248190e-02 4.632776515767862424e-01
2.673224742557959305e-02 6.541181534315865242e-02 4.464698189542163909e-01
4.465135981114556896e-02 4.191536643297264636e-02 5.126044817135673171e-01
4.977449268814785471e-02 4.179663966978928308e-02 4.529000097866240915e-01
5.066771070110525493e-02 3.864090286893599041e-02 5.030582947133290794e-01
-2.064370765874792152e-02 1.807620471873080947e-02 4.230066797481810692e-01
4.821553897446639869e-02 5.524955402085490568e-03 5.131782406028927435e-01
-2.516066358758099752e-02 3.046820775823970082e-02 4.194554812869223381e-01
4.517471717992845026e-02 2.159226828159289263e-02 4.476645609941163895e-01
1.293413887458755296e-02 1.309071451387055704e-02 4.287230778172847478e-01
-2.424620916495534920e-02 1.725410493917769669e-02 4.250053397109015973e-01
5.713590541605578083e-02 1.997168529819193586e-02 4.687998874318199949e-01
-2.785724103615282513e-02 4.195279342279220613e-02 4.206569997069535827e-01
5.770116251481580832e-02 -9.611057646190990147e-04 4.797553128658133548e-01
5.524066881253524020e-02 9.010863781190552382e-03 4.894851873023665090e-01
1.207611965968076115e-02 2.833891619000105180e-02 4.205523758608033513e-01
5.589251852792353342e-02 1.752204868437607158e-02 4.851066381601268906e-01
4.807415728359584750e-02 4.232979650971341323e-02 4.510717508899236283e-01
5.057910477028366297e-02 5.717403318157234654e-02 4.804449210169891016e-01
4.637535381398726758e-02 2.816185704498121167e-02 5.103498121684930666e-01
5.114348553198189845e-02 -8.233681639674425914e-04 5.146355720634511188e-01
5.802703611796464905e-02 -7.801598403254072361e-03 4.881723091668439540e-01
5.743981125568525109e-02 2.302957250177464776e-02 4.720738507369493520e-01
-5.048557986875415980e-03 -1.680886753729147337e-02 4.348286241587882017e-01
2.653976552865344382e-02 3.706520307293647426e-02 4.336160616705091453e-01
5.336734575294677096e-02 2.386530098393154289e-02 4.562182102212334334e-01
1.625187393303269235e-03 2.667210463197539419e-02 4.074280166512837531e-01
4.626468871133934679e-02 6.485222670301038495e-02 4.559667032546461107e-01
5.233389657062612055e-02 1.199929995954259442e-02 4.553181860912556833e-01
5.516791448152757321e-02 3.094474071557856004e-02 4.602428699595403350e-01
1.190401318476202661e-02 3.124209540809171071e-02 4.189849364084519134e-01
1.138355523780131863e-02 6.058771344185556046e-02 4.288891640630394519e-01
5.414671033664295030e-02 3.015492075981455675e-02 4.581180544474504068e-01
1.968545132288428146e-02 6.263446700878046169e-02 4.416660309838029708e-01
-5.902198275301195028e-03 3.686625576754398725e-02 4.075217103616717296e-01
5.738941553203942558e-02 2.098495906791850857e-02 4.750393210402057420e-01
4.268678470583367468e-02 -8.131179325056971455e-03 4.479793794128968387e-01
2.374424841806337463e-02 2.800354693676129422e-02 4.320454283621271152e-01
5.231339218781653339e-02 2.995817871949012570e-02 4.979894405629961551e-01
-2.588186666591525686e-02 1.187302325812579148e-02 4.292279264512811610e-01
1.766766756406150038e-02 -8.140126788784070744e-04 4.333947142621402127e-01
1.544332142253462652e-02 -2.047694046341110713e-02 4.368440860085130995e-01
3.032019726965105508e-02 2.529683345559520513e-02 4.368999475035165725e-01
4.430577438794845030e-02 3.989470796370044731e-02 4.470548123818885444e-01
4.918966875469360511e-02 3.234629005772163973e-02 5.050472324492353282e-01
5.163659578522456634e-02 1.824954534503502382e-03 5.103683900023932019e-01
9.515993896408907540e-04 -2.511706760021910692e-03 4.306907775091254331e-01
3.172143795219274642e-02 2.590211996848790568e-02 4.378422173042392229e-01
2.202437787021495688e-02 2.532608719569550207e-02 4.308300849208451799e-01
5.500120645207938475e-02 2.965068821917261899e-02 4.914999057685936479e-01
5.057380767489305651e-02 1.130127763448639418e-02 5.013944993466015188e-01
3.614865006675348907e-02 -2.632357466250302702e-02 4.470441047388923339e-01
-4.415624367342897358e-04 2.195924205743363805e-02 4.136040990499668113e-01
2.476233080172925149e-02 2.533235517173982113e-02 4.332053719815454063e-01
5.296609279487832223e-02 -2.089785005954283847e-02 4.707808916325258997e-01
-5.499812273812721385e-03 3.235577105139451209e-02 4.086926373391635003e-01
5.696086964912262796e-02 1.937915713749005855e-02 4.666583249737069061e-01
5.264123941682037622e-02 2.943937988341667131e-02 4.971057936622665929e-01
5.824942991918475449e-02 -9.866233837843327997e-03 5.110368446263913178e-01
5.614464533396260754e-02 3.872747123482454812e-02 4.821800118444631300e-01
4.313278223421068008e-02 2.168397364582989179e-02 4.457993090348159049e-01
-2.526208770215957952e-02 1.964000488886049473e-02 4.241029288699646460e-01
5.534780146774016113e-02 3.235887158985012446e-02 4.907627481488383570e-01
4.595303172792213064e-02 1.932081176940593850e-02 4.483662050879064775e-01
7.375006325581434999e-03 2.669970430147310461e-02 4.134870941183459436e-01
-2.934089566576410235e-02 2.198367480852360216e-03 4.338109437128490065e-01
1.173601153609037627e-02 1.410863636262049518e-02 4.276209885722450088e-01
-2.561944645641850080e-02 -2.341733921039559213e-04 4.335271361489512754e-01
-1.215572933279332468e-02 -6.983389185347852954e-03 4.328042528450498083e-01
1.508096551747330205e-02 4.582339475288867148e-02 4.228557039260493755e-01
5.452988561546468632e-02 1.845461303545080367e-02 4.890300807975473951e-01
5.611208252473300767e-02 -1.849549110955457957e-03 5.053089449413236123e-01
5.685012151308625750e-02 -1.083809588783124847e-02 4.803131286257771304e-01
1.698484629842832508e-03 -1.429108609972550535e-02 4.341726359393483503e-01
4.017574433082440888e-02 1.646071754160008567e-03 4.445847554353732911e-01
-1.120134897024075045e-02 -8.121644637536437616e-03 4.331130420303028195e-01
1.404355782133093027e-02 -5.042303303312504169e-03 4.327968995061357571e-01
3.027512187069528876e-02 5.448528885890778495e-02 4.362713017709730634e-01
5.641070980884013708e-02 -1.252213234464234336e-03 4.976234206120650483e-01
5.200055479845747120e-02 5.077177654102754678e-02 4.899220989272737303e-01
4.702561017282774758e-02 6.111755032256735443e-02 4.530153537696373633e-01
5.545697930340030835e-02 2.628384143053663288e-02 4.609546363404134484e-01
3.629037714730340772e-03 5.648419099629623658e-02 4.189035512377529136e-01
6.216192435479054451e-03 -1.314980414818519433e-02 4.341120969392127105e-01
5.696609886357268532e-02 5.020624329506531008e-03 4.839249560150302165e-01
-2.428976432844300731e-02 8.732785125880141233e-03 4.298424243774078835e-01
-2.210676103788015989e-02 4.615597019674840679e-02 4.159186051815246254e-01
1.582477048400840816e-02 5.785074968704572579e-02 4.277952697740116661e-01
4.280873972396747468e-02 6.673812050181715527e-02 4.766139600008673094e-01
4.907485401180936707e-02 4.662704038807315154e-02 5.040647037612995263e-01
5.700262659343784816e-02 3.551087967302790638e-02 4.673448233898586102e-01
4.205266578935139450e-03 1.957960237197100412e-02 4.191277574348940549e-01
8.934007457817101823e-04 4.121000357207222492e-02 4.076489368844213312e-01
4.767989943547479986e-02 2.281557841184048488e-02 4.500611505501769805e-01
2.075511475702780662e-02 2.963910593044522673e-02 4.292975877703569254e-01
5.564552234168476663e-02 6.421774112065447952e-04 4.685034161631529970e-01
5.241133785576070070e-02 2.400562525541578146e-02 4.547925265787122751e-01
5.100099199261634575e-02 5.955516863960887142e-02 4.715604142385452779e-01
1.268785642813633624e-02 -2.892314522944859721e-03 4.323062184895973270e-01
5.137498782266501640e-02 1.989769164372025972e-02 4.973998268115769061e-01
2.768315207578781606e-02 1.097342682947355028e-02 4.362867416197024339e-01
-7.480867816288976936e-03 1.817447166663788485e-02 4.181577133075752295e-01
5.743855581241086306e-02 3.071812475363767166e-04 4.889606745740249782e-01
4.352412917509560636e-02 4.090935238723755751e-02 4.463588075651984122e-01
-3.473660786671679823e-02 1.941140803775714962e-02 4.334315398684075449e-01
4.046215415667677590e-02 5.280106455147901001e-02 4.446537045954623291e-01
1.550510811879088000e-03 2.852503177177449778e-02 4.054318449192197416e-01
5.177037162288696676e-02 9.931720291060829736e-03 4.548423618709996341e-01
4.992463426176219771e-02 -2.454502722405732789e-03 5.176614328326722969e-01
5.742699492575350367e-02 2.301654865703826880e-02 4.717260618906428116e-01
-7.351570409510815862e-03 2.737515731214465540e-03 4.289434490784157505e-01
-3.911923309190268316e-03 9.204716825459272923e-04 4.297772811467701071e-01
3.471549576846004459e-02 1.837007770681924404e-02 4.397408009188016886e-01
5.289866007657708508e-02 5.119186240079354883e-02 4.857306703963623074e-01
5.169416021382115117e-02 -1.005659462005462947e-02 4.640752643584065140e-01
-1.899565322375006832e-02 -2.085037753098517663e-03 4.324003374739595618e-01
1.924158154962627397e-03 5.463012845044677018e-02 4.169116846427349810e-01
5.665546688419530186e-02 -1.053995039592327959e-04 4.728224421054943449e-01
-1.540915460273511485e-02 3.226864118891530769e-02 4.136877361626034033e-01
-2.236856412435376737e-02 2.911078826968145281e-02 4.184755649729479110e-01
5.285758624033467384e-02 3.177784845847764130e-03 5.053727955703313235e-01
2.679755398428877375e-02 2.037027648876828592e-02 4.348218410509123166e-01
5.243983826671905213e-03 -6.489923011180949268e-03 4.317233228118773081e-01
5.333477529414034496e-02 -2.810715244460390387e-03 5.131540708948078011e-01
3.445055053488765839e-02 2.104135722483348181e-02 4.394997879500179838e-01
4.543211822500638208e-02 6.007769388881552958e-02 4.873142902015908384e-01
-1.154657147410914630e-02 7.109976799205752415e-04 4.299192123246749486e-01
-1.886837568585053582e-02 1.775255802444770242e-03 4.305509177299230994e-01
3.091693524635820423e-03 4.923579642343153123e-02 4.127304645632572933e-01
1.408713064805971679e-02 6.060419156650512229e-02 4.321487383324500442e-01
2.911747615836155281e-02 3.617591358019446590e-02 4.357995635291158076e-01
-2.384817652755808620e-02 4.303661352181965133e-02 4.164614411766530133e-01
3.293280898404448483e-03 8.362549857958644604e-04 4.304410083245122087e-01
6.936246719445342789e-03 3.683574204171904259e-02 4.106087697852260909e-01
3.859560289521057203e-02 2.295461202701250258e-02 4.421921451942135151e-01
-1.841054582131146714e-02 3.066771366867390020e-02 4.158176507748537198e-01
4.676825218455285538e-02 -2.152135198736495128e-02 4.585573539912177754e-01
-6.095481362814359101e-04 4.182449225268580068e-02 4.081765227479587921e-01
5.754454735930987497e-02 3.159421190424159531e-02 4.769367714050328777e-01
-9.990842582224060409e-03 2.406890574319910277e-03 4.290922744753057905e-01
-1.327583947827052843e-02 3.616727618575690806e-02 4.116729825472519866e-01
4.272092262007574220e-02 4.380982751683295401e-02 4.457349531977700119e-01
1.073921034283744497e-03 6.053306344232466801e-03 4.277254075532596622e-01
-4.643109449253490784e-02 -2.272855878420266054e-03 4.420276289446406492e-01
-3.364657066605523245e-02 1.624888583047983878e-02 4.334499276697376113e-01
5.262764187699232182e-02 5.367808817183463560e-02 4.581288166759059921e-01
5.765821520133893735e-02 2.974399792266719383e-02 4.735187941712861726e-01
5.521631706620537539e-02 3.115634210741534404e-02 4.603599189286720073e-01
5.056952179277416498e-02 2.261842536118897559e-02 4.528800079863505856e-01
-2.260307691313323195e-02 3.607582742502420114e-02 4.160012533365371468e-01
5.707364909852424839e-02 2.122049422243896949e-02 4.664496422388514363e-01
3.738965330579488433e-02 1.281381368903305659e-02 4.415880591334588878e-01
-7.735623866681889949e-03 9.303459159558442881e-03 4.242268584125551412e-01
3.552692603638286581e-04 4.329997182460983834e-02 4.092323293176898802e-01
2.812378988317234055e-02 5.213599963272597115e-02 4.342565206091824059e-01
3.080954432277437788e-02 4.415462981980670248e-02 4.367534481847485939e-01
5.611361717706894042e-02 -1.811389664339590555e-03 5.049065157999209630e-01
5.635046294297156588e-02 1.180968607849973429e-02 4.822942547704267002e-01
2.271754814679773776e-02 6.148140443709018688e-02 4.386851970397265266e-01
5.612449131376361783e-02 1.233580698974393215e-02 4.831616505452673849e-01
4.517466798306123132e-02 6.795581093284860930e-02 4.638327242930482819e-01
5.354989851438465842e-02 3.455005220198337917e-02 4.572922938408624516e-01
5.720599293329534096e-02 2.391038662702463236e-02 4.666039165296962943e-01
4.929966388053914905e-02 3.228285416402271873e-02 5.048573656517510999e-01
5.632012654909071547e-02 2.884132551422753307e-02 4.862222310622642540e-01
-2.198766254784917731e-02 4.915996112694155651e-02 4.204502748854013761e-01
2.569145254610171597e-03 2.695050603189945090e-02 4.071697144043961991e-01
4.847560951655911776e-02 3.285475570285139452e-02 4.508707612124661646e-01
4.974242999852349079e-02 5.972253567947333891e-02 4.780635876559514164e-01
5.632987718095151808e-02 1.477781783250177623e-02 4.827052245493169691e-01
-6.493351446306907734e-03 4.320344075066246542e-02 4.094160556909358650e-01
5.347313422919743042e-02 3.262092300055505906e-02 4.960540901057192698e-01
3.825021271767341247e-02 7.196038777416038923e-02 4.538118742459713584e-01
2.469825105243900198e-02 6.184136010571379682e-02 4.389897614803621173e-01
2.628451655746915500e-02 8.569801266605793152e-03 4.360213818158702459e-01
2.874488173360056215e-02 5.980659200515259233e-02 4.385087918003830465e-01
9.341614937391948606e-03 2.825703023177360967e-02 4.149562319308578440e-01
5.331679250346903209e-02 5.301897437414553743e-02 4.784451606917161093e-01
5.046303947767694781e-02 6.028069274116155257e-02 4.725940710636163389e-01
2.103291238376042011e-02 2.134123734840448483e-02 4.306816174933971175e-01
5.693400271707971944e-02 1.562142524072233571e-02 4.696790568186821058e-01
1.148269195190747792e-02 3.193469882414830957e-02 4.177275553092896776e-01
4.962599090242256206e-03 -9.835145582435058514e-03 4.325116147040575787e-01
5.007483510890877593e-02 5.727201848465215267e-02 4.826575853739317190e-01
-2.912747225103783782e-02 1.945117396191208686e-02 4.263557199739548831e-01
5.161870723020790114e-02 -1.873233142878861363e-02 4.673103486333468615e-01
3.625199165769038556e-02 4.279895413664223242e-02 4.409696231761819907e-01
-1.813529703566622419e-03 -5.008885256748337247e-03 4.310236158731153844e-01
3.096464941857401953e-02 3.568444851401857132e-02 4.373541210645681132e-01
5.266619187171907301e-02 2.445553044647161452e-03 5.073545959702404629e-01
3.907094851311401079e-02 7.208942361200407212e-02 4.560360474361081495e-01
4.068261853759323754e-02 1.174316282865484756e-02 4.440573290391286454e-01
-4.912951971638218271e-04 1.313830242196689299e-02 4.225915855822668932e-01
2.343721593707501910e-02 3.400616196552558312e-02 4.310946905856950506e-01
5.608100873718583484e-02 1.953009345526488666e-02 4.845119166120784304e-01
5.724373234809266436e-02 1.913224104041091889e-02 4.752474004851435785e-01
2.670315626892591845e-02 4.185196059759718756e-02 4.334471225172925601e-01
5.139336091108323568e-02 5.764660962649839626e-02 4.598693648572431125e-01
4.653521716774736833e-02 -8.384843187932493683e-03 4.531995298643282655e-01
5.196839420716083124e-02 3.476821681416179116e-02 4.551814316347886913e-01
-1.126837699189407738e-02 -1.120882458172644570e-02 4.343923246990770148e-01
4.685114479281658056e-02 6.311856858920862623e-02 4.797763634165344571e-01
1.051388217213741413e-02 3.900998839475197655e-02 4.162919672080669931e-01
4.711587925145478695e-02 9.224964781840670758e-03 4.494921526959994029e-01
-3.045588697172341153e-02 1.428054439075542026e-02 4.308071821964101766e-01
5.525940943220868096e-02 4.581172665135350291e-02 4.641226203595867905e-01
9.374231665559815824e-03 2.126695855745226738e-02 4.217164302168195933e-01
1.104629451858674116e-02 2.534905512509691428e-02 4.207326121270458241e-01
2.986106170542463488e-03 2.749562046819901268e-02 4.064829456966271848e-01
5.137047863867106462e-02 5.128249031285182086e-02 4.551925898625371336e-01
-3.261886976779775071e-02 1.508331190957577783e-02 4.320449502343728376e-01
2.904559453026796592e-02 -1.215701158880241883e-02 4.378677524120297426e-01
4.386025510877029215e-02 4.110440581822989714e-02 4.466202916474167894e-01
5.478210957667556391e-02 2.729113506259380623e-02 4.915107581329392628e-01
3.587709152595940781e-02 1.925101449793271448e-03 4.412455126992153587e-01
-9.213832509118155545e-03 3.218665480400552392e-02 4.112800567770540372e-01
3.877903224195577980e-02 6.849824187642578055e-02 4.519142831293330165e-01
4.756644378693656444e-02 5.793372713564155091e-02 4.870265724977991262e-01
5.723437908933824703e-02 3.011661336202388004e-02 4.659956442697875678e-01
2.201011885529957288e-02 5.781338858598081276e-02 4.320258190934015974e-01
4.837895724740574888e-02 1.000047816827814677e-02 4.506950982047873144e-01
2.575269591459968671e-02 -2.352801999159126467e-02 4.390508095492591800e-01
5.228836065974910158e-02 -1.233301403015280885e-03 4.601440471227830620e-01
5.100273415792294651e-02 3.785923439763914239e-02 4.541852219421132486e-01
3.578238793142060614e-02 3.355388819268735612e-02 4.406740848175512149e-01
5.793870211687519867e-02 -1.973078875337234625e-03 4.841901786156054266e-01
5.309857495755319207e-02 2.630127541774978511e-02 4.948969101995558950e-01
5.141974002515543180e-02 5.661297456171592024e-02 4.777652392343565424e-01
-2.518189683693069017e-02 2.265637179133329557e-02 4.224323149405427857e-01
-1.561149147319704222e-02 1.454438715355346745e-02 4.230074860484245303e-01
3.056754586373655429e-04 5.219593260060221424e-02 4.130240029191356577e-01
-8.170657185185463758e-03 -6.020278166554367955e-03 4.317278451538778539e-01
5.321987843160037174e-02 3.969200663044925026e-02 4.572383114805790849e-01
5.455971200972546675e-02 5.066118634462993958e-02 4.718633719979588026e-01
4.906753153292970487e-02 -1.422720000851694991e-02 4.601043195373731298e-01
4.267893837529167927e-02 -1.541084530041918893e-02 4.492444339954867472e-01
5.293667835397519034e-02 2.078973333858437703e-02 4.554834694718805643e-01
4.713271701982060802e-02 7.511650564766864276e-03 4.496358115510317721e-01
5.653501531236980460e-02 1.925946917149897603e-02 4.643977212279865041e-01
6.143142300116468876e-03 2.698172822871752752e-02 4.104393773174871418e-01
-1.923185805103228441e-03 3.448713425456163134e-02 4.054452693201328617e-01
5.713194262478797636e-02 2.016105164665493374e-02 4.685361872004471517e-01
-2.808436963851398960e-02 3.884075731256567132e-02 4.193276105907152163e-01
1.617468347580903326e-02 5.107015237783060074e-02 4.246928521912882171e-01
5.112551897597723133e-02 5.730729041060560192e-02 4.774399495634982227e-01
-2.477500670670003576e-03 2.031395419026089250e-02 4.152357076051080287e-01
1.084422112717263811e-02 3.486047483817465709e-02 4.146435885296942958e-01
3.190877769707955308e-02 6.536385126346096197e-02 4.471508996313710571e-01
5.341728185231808812e-02 9.586018607928081109e-03 4.585632567177110319e-01
5.126757636408862256e-02 3.890598689088576451e-02 4.545869744494958065e-01
4.654356506245851954e-02 2.391599817712793466e-02 5.098939975666108015e-01
5.216199952474779439e-02 -5.188873189170240333e-03 4.621410718819040087e-01
1.994741093879454780e-02 -1.464404191461493587e-02 4.357913825034107069e-01
3.614175029052758142e-02 5.065566543069076333e-02 4.409318876407301024e-01
-2.019796835376990243e-02 1.031242541771263191e-02 4.268118502727348273e-01
5.243447713044104008e-02 4.009814638045742369e-02 4.989063419883436046e-01
-3.896527647300405961e-02 2.656802546589359919e-03 4.409325818142167397e-01
-1.392974113845486979e-02 2.036557822617079613e-02 4.191373321846381117e-01
5.333504573905259449e-02 4.043494157024112717e-02 4.573655630568958519e-01
5.170566635146113532e-02 4.798857456404775207e-02 4.552998995983542629e-01
5.546692824109789727e-02 -1.232655929618076823e-02 4.746856595509932886e-01
-3.261124190169793768e-02 7.276373808252268975e-03 4.359034580259275038e-01
-1.160455171828062883e-02 5.051387310213158177e-02 4.129044397778666720e-01
4.261477291089683234e-02 1.533632697624775360e-02 4.454573758134969252e-01
1.214870875854795126e-02 4.399714696341879006e-02 4.189785156324813964e-01
3.380414329987910249e-02 3.098435567681757583e-02 4.392312606932132768e-01
3.230397041426782967e-02 5.683715253580694932e-02 4.390152201874750193e-01
1.224148728921961062e-02 -2.345644262201715055e-02 4.377147845294427353e-01
4.077245275893800341e-02 5.344970414548204374e-02 4.450645002183689081e-01
4.910820242124942780e-02 -2.342992025918239074e-02 4.633745918755770021e-01
5.507696097399157609e-02 -3.248313676445994773e-03 4.679715525476284554e-01
4.611342061634590705e-02 5.930564414942748191e-02 4.511826549321614199e-01
3.181082502023227510e-02 6.259221969601230784e-02 4.419921075452457604e-01
5.340719033344474426e-02 4.296614201106999792e-02 4.573979912104308987e-01
4.959095003365169424e-02 2.153679570906342350e-02 4.518785243560407561e-01
5.358233009212111375e-02 -1.158638168378048512e-02 4.686527727815763544e-01
2.712628175564774091e-02 6.056140948201012286e-02 4.379647936433332944e-01
3.940497923694524784e-02 1.381463866288297482e-02 4.430927256894626742e-01
4.607436331729020812e-02 -1.139202673492917608e-02 4.533622823572863170e-01
2.105091720928032109e-02 8.725119018011720518e-03 4.337501153084297179e-01
1.783586512850549727e-02 5.610537097493101949e-02 4.276976201825253843e-01
4.842725897894874926e-02 2.077120364725218785e-03 4.519324358011567733e-01
4.984507517745019600e-02 6.693409472707996868e-03 4.524388138818449256e-01
5.290419491188066980e-02 1.026058371693297326e-02 4.569875868539679531e-01
4.471467214670304946e-02 6.750616113083141023e-02 4.706617636606813537e-01
5.034371171183851107e-02 2.025923660207724908e-02 4.998487467359886693e-01
5.300893282103418674e-02 5.412369836904334236e-02 4.754493150116427813e-01
5.642563173195536824e-02 1.034932148732840666e-02 4.677643406052115482e-01
2.239030249238806169e-02 4.357309360994485181e-02 4.295939636423716790e-01
5.770820860096335936e-02 2.651761852314905160e-02 4.769290120741978556e-01
9.149654926857814577e-03 2.950478590786535099e-02 4.136686621466538205e-01
5.460136058594016600e-02 4.692743606493950115e-02 4.609066619859878977e-01
5.348841536656102208e-02 4.990106662477644672e-02 4.579245451307741854e-01
-2.760962364909440303e-02 3.618234628997821917e-02 4.190830078169239248e-01
1.216239869488539710e-02 3.447029534315598082e-02 4.181161127090028407e-01
2.582676420280335255e-02 2.439824365408233345e-02 4.339714906605331990e-01
1.387923724916809327e-02 2.520589359568479321e-02 4.238656157066010288e-01
1.723731628995783458e-04 5.013458948008072541e-02 4.115190853678665772e-01
-1.159032119760781618e-02 1.010570632659168328e-02 4.243783214883551369e-01
4.244844409143110064e-02 6.956996564030373809e-02 4.600669230511788554e-01
2.558857804200722480e-02 4.653673632946729588e-02 4.322130008259091327e-01
5.716349781744913677e-02 1.737419673144074278e-02 4.779934400562877439e-01
-1.099855166369654094e-02 -7.000796785564344579e-03 4.325256868142504652e-01
-3.491260958422555405e-02 1.592028637179709882e-02 4.363998961976104929e-01
-1.423844064118104553e-03 8.832084732679388109e-03 4.252721099759860235e-01
-2.944735639940727207e-02 2.711022364209328406e-02 4.235666742434708310e-01
5.982760636509470292e-03 6.155900034941703264e-02 4.283057336387472991e-01
2.964172504395240840e-02 -2.440406136771109541e-02 4.410330885401810286e-01
5.729893824275841124e-02 3.260698413118780226e-02 4.791352010336859535e-01
5.692866463471898258e-02 8.882442331980600070e-03 4.762529159895627084e-01
3.358068683350558248e-02 -1.136637476404054117e-02 4.403907684400761857e-01
7.521897587047846577e-03 -5.040107014231037623e-03 4.316895634824221006e-01
-2.615997746928084081e-02 3.880459787987523834e-02 4.182395882450397617e-01
4.503021949226516246e-02 3.164005821820661118e-02 5.126408664010528859e-01
-1.061797442351120426e-04 5.542759457498663139e-02 4.173964018181751667e-01
3.791795682243580268e-02 6.834768765602426688e-02 4.691369197088228749e-01
4.763393551532470183e-02 4.023928241821449897e-02 5.082423396253977765e-01
3.280106677639603452e-02 3.051536761234379877e-02 4.385574597159669907e-01
5.559638108263998540e-02 -1.896531417011891943e-03 4.692335011037588322e-01
1.495603005201351018e-02 5.824977280505653360e-02 4.274289878543436894e-01
2.433526807378597751e-02 2.074921758849789660e-02 4.332585039640524660e-01
8.156149488776560583e-03 4.836961651478246388e-02 4.155866929447497582e-01
5.018366616300453525e-02 6.012989436696961759e-02 4.601367507367994381e-01
5.718118497558014740e-02 2.123341458828959666e-02 4.682558136883415711e-01
-7.733104361177263637e-03 -6.482661952448778506e-03 4.318375099870779277e-01
4.911594646540790032e-02 3.449555074267580262e-02 4.516411302937061167e-01
-2.672516855684253789e-02 3.604555925004062494e-02 4.185312421633404223e-01
-8.419721572501892917e-03 2.175829149381113339e-02 4.163937016158124615e-01
3.329667277436851314e-02 4.687369653109081831e-03 4.392838861258987482e-01
4.540567230720006509e-02 5.951830173515983841e-02 4.504535515306668514e-01
-4.776589768340753356e-02 -2.937611965817516803e-03 4.425428569627265496e-01
5.346181750971670116e-02 8.405480133587099612e-03 4.591070575976669010e-01
2.367555585866562215e-02 -1.055022072905670467e-02 4.359000241889336436e-01
5.420223982429116238e-02 4.798780185226014100e-02 4.837325735726545894e-01
3.855631713917550413e-02 -1.038463350734198515e-02 4.440676626118350012e-01
5.356226398860294141e-02 4.574246295720189176e-02 4.919880888718130008e-01
2.334470881497338612e-03 4.280001526562013381e-02 4.087681820833002355e-01
-3.000961846711361694e-02 2.378906241259262644e-02 4.250728583152319495e-01
-8.405511101880999356e-03 5.018074030147682413e-02 4.122516401669668595e-01
-4.821560942452047735e-03 -4.054778943478641769e-03 4.308053485927663684e-01
5.788392369481464017e-02 -2.551526110658072690e-03 4.877436282201855211e-01
5.519710566494526183e-02 5.601799288491788806e-03 4.649623738950477425e-01
3.494027179469701844e-02 -1.317756565364145392e-02 4.416085272811421936e-01
-7.484529676354812616e-03 3.210760570901353972e-02 4.105525948209739484e-01
-3.008031175847149935e-02 2.181365312943293541e-02 4.258698908846650366e-01
5.175405382452050174e-02 3.165937671352994642e-02 4.995314564889784537e-01
-3.523841906601784396e-02 1.389418972021597490e-02 4.384656680964787445e-01
4.251437352954141186e-02 -1.503678714534206762e-02 4.489055921338684363e-01
2.632692553434974603e-02 6.527982150629092761e-02 4.465678456752401604e-01
1.996736235651502475e-02 4.198865113483311873e-02 4.275693643129814259e-01
-1.782234313993211151e-03 2.516758866994987104e-02 4.091928562662791036e-01
3.757355963050541120e-02 5.538818412342760150e-02 4.428061361935041185e-01
1.078406814742394193e-02 1.495704336033187865e-02 4.265458893634469506e-01
5.389294316578512739e-02 1.081761389997280831e-02 4.927450168803350627e-01
-2.029263150446163066e-02 3.282812530376827409e-02 4.159736595147440763e-01
3.597277617692180157e-02 2.105242361111208868e-03 4.412969642603526421e-01
2.438025680308384541e-02 -1.061434370996157915e-02 4.361100525746161027e-01
5.063556288488248874e-02 3.730902361711070647e-02 5.031262585289318912e-01
2.271566772043235108e-02 3.506241295838869246e-03 4.349463595159933638e-01
2.967911966704304613e-02 -7.782706932670059585e-03 4.375487633465414139e-01
1.322111618927235104e-02 1.362890269972287516e-02 4.286395500039627549e-01
3.032010121227756566e-02 -5.173469866855471069e-03 4.379266504758395628e-01
5.688813403942226399e-02 -5.957409952513249146e-03 5.105453258589657262e-01
5.523692863224229782e-02 1.815785353687704093e-02 4.610286927663074241e-01
5.461795946946273322e-02 4.520338788479261183e-02 4.854050763828487991e-01
-6.102045313384849706e-03 3.197674250439715843e-02 4.093894275313050835e-01
4.472505791859825164e-02 6.630976669429919368e-02 4.764957503779008174e-01
3.712215959160040935e-02 5.687005184240843947e-02 4.428228363129422251e-01
4.075567647137288280e-02 -2.174786638867596059e-02 4.489380300794318379e-01
4.737209592977566219e-02 2.726845989561743622e-02 4.498383893723538196e-01
1.875496948235993999e-02 -9.906386360399411367e-03 4.345543862638998056e-01
-1.820020833826244480e-02 2.874550485742599637e-02 4.165632109863864896e-01
1.442145294589655680e-02 2.672410167304259399e-02 4.237487486260723135e-01
-5.824471089184333865e-03 3.693321973469863850e-02 4.074255802547286920e-01
-3.476526512288122955e-02 1.144237864505507490e-02 4.377376111117027291e-01
5.725591628003181416e-02 -2.536072896172289048e-03 4.766431133569554723e-01
5.002327704754836596e-02 3.029760652865300802e-02 5.030031929569330762e-01
5.727549572391421595e-02 3.570196801304240108e-02 4.706984272285250070e-01
5.432431424786317992e-02 2.968006296183502146e-02 4.584136564822648974e-01
5.580222306314670117e-02 6.838461950438610298e-03 4.889136487705422751e-01
6.501359998612955306e-03 -7.712296084690043602e-03 4.321843154005612364e-01
5.223946146676571728e-02 2.531870612191892619e-02 4.965308379773692438e-01
3.541442798077078236e-02 2.365383438195693255e-03 4.408341393561435728e-01
5.273747321544151184e-02 -2.960453022242967927e-05 5.110137058837587176e-01
1.029940124859323076e-02 4.104587055763986997e-02 4.159688640368841561e-01
5.136262252219739310e-02 4.165950450415254608e-02 5.011574256839794739e-01
2.107890665301823032e-03 2.107403216567584753e-02 4.155108035624408558e-01
8.734403994305393187e-03 -4.162627217493564298e-03 4.317630750938876716e-01
3.072487890095209132e-02 4.325031752723452333e-02 4.367290680459714469e-01
-3.255469825299279422e-03 7.494825428586799829e-03 4.259123414680706099e-01
5.585201688639878509e-02 6.429628932042644185e-03 4.668804921606296565e-01
3.206786867621298082e-02 6.228928888985983681e-02 4.419565560407374138e-01
5.072221104619632770e-02 5.113521426178031792e-02 4.943821454498670831e-01
6.237624875968861456e-03 2.406808616184085217e-02 4.155658282082541621e-01
-2.279043298058733985e-02 8.578392142168293419e-03 4.291418998456556499e-01
5.228091850681864522e-02 -7.649707962511196994e-03 4.639755190204999935e-01
-2.816810264796520621e-02 -1.524158157443234515e-03 4.349996553350690687e-01
2.857369798099582830e-02 6.639109405437250422e-02 4.527691246712122197e-01
4.280347649948211541e-02 -1.920883538533464663e-02 4.506696603643239873e-01
5.639601991215664745e-02 2.695605725926981250e-02 4.863327985052765534e-01
3.733595498825921250e-03 -1.437476506648958279e-03 4.307843702192915014e-01
1.761806537728038274e-02 5.491207446103617967e-02 4.269415084478558886e-01
4.990841246968559519e-02 -7.633098362026684292e-03 4.584749574153547669e-01
1.571343549657951491e-02 -6.518957848078525946e-04 4.328809140710720427e-01
5.808853888170638358e-02 -8.344211377597981344e-03 5.081895432951464286e-01
4.050081614851267636e-02 6.806505993666091270e-02 4.691657863151343921e-01
3.336466778037038700e-02 5.494449518531285132e-02 4.392204434858499873e-01
-9.262325705677178873e-04 2.492340295218985202e-02 4.094207818194355308e-01
2.941921963879266105e-02 5.501968705869055010e-02 4.356726860214329977e-01
4.991812922668370511e-02 6.198775012119614458e-02 4.625180306322468904e-01
-2.592189610029751318e-02 1.799293157409370333e-02 4.254303861459561853e-01
5.174754029952861878e-02 3.699142631346794691e-02 5.007577214270162447e-01
2.117048472502988318e-02 3.104753069025993281e-02 4.294533927579464727e-01
4.024024540375700787e-02 -2.246680130305718850e-02 4.485890641538471391e-01
5.491674930906390723e-02 3.573385012639882646e-02 4.596625701159138266e-01
5.477728021907716377e-02 3.081342850782117088e-02 4.593054739587567603e-01
5.352315352569578244e-02 8.777523604993800032e-04 4.621752564842015465e-01
3.068776380944773178e-03 3.721591691154793602e-02 4.063558327432860162e-01
5.683123084560436772e-02 -3.876277016583795556e-03 5.034709742476214389e-01
-2.686608209903555353e-02 2.983399454350501440e-02 4.206896665277660152e-01
3.151276885612844941e-02 1.159992678109245633e-02 4.377413897915382046e-01
5.177189427802311381e-03 -1.470642388896506447e-02 4.349327346662651417e-01
5.449989042264356126e-02 2.264587366889727130e-02 4.587626134099316300e-01
2.596194035349435117e-02 3.187069795137497524e-02 4.336414727586931916e-01
5.599177479503240906e-02 2.039744781429721557e-02 4.853363499809074111e-01
5.425885047307670711e-02 -1.150293252622439782e-02 4.700965645240609003e-01
-3.244991354670166694e-02 9.436424982340629528e-03 4.349176056297405224e-01
1.648757851754190443e-02 3.480838297506201606e-02 4.243488717663428944e-01
-1.513980667588025672e-02 3.047297157761957170e-02 4.145215636821765748e-01
8.613440871768058768e-03 5.081105003632545997e-02 4.168062437272952447e-01
-1.680384162536103371e-02 2.059569506840939687e-02 4.201260666567303015e-01
4.419278696714559057e-02 3.136644031811942207e-02 4.469272097686080580e-01
5.253226501520789210e-02 -1.007207747324781466e-04 4.601486670449025373e-01
9.755446986602094375e-03 2.429604433670452118e-02 4.197142683151309228e-01
5.008983310941614309e-02 -1.778226923647916943e-02 4.637476126134519316e-01
5.180075513171237406e-02 -6.928984751053163249e-03 4.624813980932444002e-01
-1.895667385793770726e-02 1.000567738030858078e-02 4.263319274679692739e-01
1.202778855460053843e-02 5.908289806330907501e-02 4.258046762965501109e-01
-1.872212508661492622e-02 1.682223129483879920e-02 4.229547524415433468e-01
2.030712062154054268e-02 5.978301025635102128e-02 4.335379694985893595e-01
-2.873817340875409881e-02 2.105065129082765024e-02 4.253076868936840893e-01
4.418793878889489685e-02 5.987247686150613118e-02 4.493954232589511544e-01
5.100187496790878350e-02 6.110525081023944829e-03 5.061459518588876660e-01
-3.347384613016098076e-03 -9.555289217539963270e-03 4.323599957169049768e-01
4.450470784141948716e-02 4.197459113380742901e-02 5.128146802664255155e-01
3.892081779437395195e-02 2.205407575261324193e-02 4.423824993223815505e-01
5.340378373404251755e-02 2.771190971759085464e-02 4.947633890930079881e-01
5.518150863043783105e-02 2.902936855477237024e-02 4.602671410565834509e-01
4.000656538198768541e-02 2.327804389114801822e-02 4.431694852379653993e-01
5.126055415668615695e-02 -1.860476802090281143e-02 4.665775504261213680e-01
2.064194394424273549e-02 2.529996512409656353e-02 4.296781510270559212e-01
3.559825465941113265e-02 3.812271048066991769e-02 4.405563583321613352e-01
2.749110894772659880e-02 5.667559517228600713e-02 4.351082596250535617e-01
1.572438295470893199e-02 -2.215173343979924894e-02 4.372099724234712603e-01
5.029498783452955590e-02 4.564008515092936313e-02 4.536108997634730744e-01
5.720491621275338584e-02 5.957814885081827785e-03 4.783118749550974713e-01
3.623280977241555463e-03 3.144588042935882177e-02 4.049654618044692955e-01
4.425713809627832701e-02 2.016754276892482323e-02 4.467996481775173834e-01
1.302741186929641352e-02 2.016764968490952076e-02 4.247284230440536712e-01
7.731429246824366233e-04 2.550867413231731537e-02 4.088541460315711640e-01
9.843166284190855292e-03 5.651669890428025894e-02 4.212482612455957232e-01
3.721534253518762880e-02 -2.353982198781048168e-03 4.424670817861786065e-01
-7.999370174328298763e-03 4.140856135295565427e-02 4.096039142931535704e-01
3.291507180893940565e-02 6.468953243701965061e-02 4.450432814345737786e-01
3.858946546007158834e-02 6.272071583317596899e-02 4.461533607885928565e-01
2.769432307994633760e-02 4.755365696513502022e-02 4.339804743520952468e-01
1.739452587275107376e-02 -2.390329746691084029e-02 4.375590612674736812e-01
4.098086493588257856e-02 1.447100208018287093e-02 4.442581729161641513e-01
4.884003467246842561e-02 -3.213884660576152123e-03 4.539793961932663824e-01
-8.340720972862246743e-03 1.735673518776262997e-02 4.191462324037180665e-01
2.582760243092364211e-02 6.744233510439947774e-03 4.359430578536664380e-01
4.011200832875566613e-02 3.569443227796163798e-02 4.438383965286544219e-01
-1.250759381847548271e-02 -9.158174683222846182e-03 4.339335803694789884e-01
2.504459388886197402e-02 6.269409598116944086e-03 4.357072139827566359e-01
5.030915547445244385e-02 -4.050643283933020363e-04 4.552621610803823660e-01
2.712906365213026832e-02 -8.478450536389134720e-03 4.366312583108676870e-01
2.072382450943117266e-03 1.252861022646941346e-02 4.237504452416718248e-01
3.076046065395700649e-02 1.944271900958122884e-02 4.373195640588322664e-01
8.148050010944698704e-03 4.566101620736882222e-02 4.146012833830112210e-01
5.203549552109604931e-02 6.224368454145199833e-03 5.028638406020754514e-01
2.234254722213636912e-02 2.354522995447052430e-02 4.312905077960801914e-01
-4.421676833678184031e-03 -1.509207808544308586e-03 4.303367317447733820e-01
-1.169769209722970604e-02 4.952499220320653178e-03 4.271158346261452188e-01
4.638928274941419433e-02 1.876571140980749092e-02 4.487706172111787795e-01
