-1.400714457738127562e-02 3.503039676574001837e-02 4.125177421264226707e-01
2.361663536402745442e-02 5.724154453891142774e-02 4.327855615640378018e-01
-3.060010224519947933e-02 5.290953801431623471e-03 4.348703802759684156e-01
2.918218784806862406e-02 1.753733682839172386e-02 4.366211940698088712e-01
5.184553418039269598e-03 8.770369618104215462e-03 4.277040124799181831e-01
5.629756080992901618e-02 3.276166437919334103e-03 4.904231241733174040e-01
4.649075059769480767e-02 2.243582228759764818e-02 4.490442818927319335e-01
5.777057998853019072e-02 -8.336886271120224311e-04 4.821755774610758660e-01
2.773737005744280823e-02 2.992253132490086884e-02 4.353053869126026765e-01
1.332702793154011064e-02 5.595481526470282019e-02 4.238622802692798008e-01
4.185708450953591619e-02 4.929012566808350232e-02 4.454711640756745528e-01
3.214276036114350338e-02 6.438770749671508808e-02 4.437416575646472849e-01
5.569006438428433098e-02 4.589703371176270807e-02 4.714322560087766956e-01
-3.499456186938935259e-02 1.192856181164682686e-02 4.381362946276775028e-01
5.599278188453721272e-02 -8.598963349896857414e-03 4.746334725858966652e-01
-2.008397100279685037e-03 5.412193361958131388e-02 4.158192807158939686e-01
5.416164882095660105e-02 5.043507449439088575e-02 4.788946651570326063e-01
5.059579844583189656e-02 5.651775128863861103e-02 4.820122820706401190e-01
1.782465013719044394e-02 1.482588165367651652e-02 4.307366022278560358e-01
4.799636646457657724e-02 1.571833266452850320e-02 5.060572896635745499e-01
-2.935260258284139168e-03 1.940364016306525552e-02 4.162918326369179911e-01
4.783446314967477325e-02 -5.295055885185760963e-04 4.520799430190650114e-01
-2.803392944294190101e-02 4.479349414478946481e-03 4.330312669841268614e-01
-1.751964531355300683e-02 3.491564613572623044e-02 4.139698311483709925e-01
4.957578050258147628e-02 -1.068509918095874103e-02 4.597827003403547330e-01
4.900391698481034591e-02 2.041160068522544606e-03 4.525493902086834552e-01
1.474545663212510800e-02 -1.428606967550745052e-02 4.353297098562745049e-01
2.812947857587378558e-02 5.160400939165907253e-02 4.344768927697649219e-01
5.719049544151659503e-02 -2.794071245478766622e-03 4.761100452731685806e-01
2.902620669769870321e-02 6.500376528735633819e-02 4.449052291194888209e-01
-1.013528233282372758e-02 1.717276178036838616e-02 4.201406577878236126e-01
4.562021425635313931e-02 2.485803184551895612e-02 4.482789904925935098e-01
5.874497210364641037e-02 -1.032750372948669851e-02 5.094714858869058283e-01
5.740467296575730433e-02 2.512949854481473164e-02 4.796261446541508766e-01
5.297805043054581997e-02 5.389104520768654011e-02 4.765703777431267718e-01
-2.119555196142533515e-02 4.502841084756579321e-02 4.150999302276585645e-01
5.406315910287218252e-02 3.186065267695221276e-02 4.581395487905110531e-01
1.705156059758328874e-02 3.646597038263139912e-02 4.253996565014840359e-01
-1.107928336849545170e-02 2.446013787041461870e-03 4.290610148003365376e-01
3.234565499987142323e-02 6.068892670094682557e-02 4.414852091925376421e-01
5.799114183906402958e-02 -3.860113241777413280e-03 4.849921883627828501e-01
-2.102731050411077440e-02 1.301948525319815246e-03 4.312938987297442739e-01
2.157296695566243011e-02 3.263604693845172100e-02 4.298114406721715852e-01
1.581954244778317753e-02 4.338530960944327053e-02 4.236461876594048714e-01
2.718047649241531541e-02 5.092156014056597318e-02 4.336581509031916526e-01
5.729175091658934849e-02 3.545736360621299516e-02 4.707974622314784474e-01
5.783036790078280656e-03 2.800126491780149940e-02 4.078222247861212346e-01
8.873595765083262116e-03 2.146346128783937351e-02 4.211101946582597177e-01
5.738917588633448558e-02 -1.733584717026085027e-03 4.936466040868892069e-01
5.381758208079543554e-02 2.437582174814936775e-02 4.574295390503355097e-01
5.791549529648784556e-02 -1.607198138216566667e-03 4.863352216868275790e-01
5.795483325931136132e-02 -8.300252078247600390e-03 4.870845884027755202e-01
4.799899751797809255e-02 6.560603629276964832e-02 4.645648831235066889e-01
6.879019581320466696e-03 5.669244454213546308e-02 4.197873475636145768e-01
3.255096858300229878e-02 2.004233707395000272e-02 4.385057130095125211e-01
5.520590569240260009e-02 4.789220800290141383e-02 4.703969392910045677e-01
-4.287529695698973249e-03 -7.826202817372363355e-03 4.319170187647671244e-01
5.496928259459986366e-02 4.200249655861513359e-02 4.898239594145594178e-01
2.718395157219501146e-02 3.976875817797746737e-02 4.342254533781125803e-01
5.050831603019133309e-03 2.861550305473353761e-02 4.053021648271898925e-01
3.198180763939668936e-02 -2.427962949124282468e-02 4.424677873187091715e-01
5.723615872187182846e-02 3.068768674674472469e-03 4.834459073097989168e-01
6.370194098598069843e-03 2.542255722722547642e-02 4.134696546865505584e-01
5.527794221397551444e-02 4.563621588067531820e-02 4.646385110936021023e-01
5.977441125283521842e-04 5.324735217472687659e-02 4.155030030736865387e-01
-2.199719954876577094e-02 2.963423730736266040e-02 4.182550235119895654e-01
4.712787912626386494e-02 3.626001891180269561e-03 4.504064031555862213e-01
4.283739057302325681e-02 4.810721188925341091e-02 4.461910765837689974e-01
5.374295282660700862e-02 4.411225005437933305e-02 4.936286972923236149e-01
5.519393904823267222e-02 3.229132892100959606e-02 4.604611284302773111e-01
4.999811492926056061e-02 1.513564657136535693e-02 5.004240533729948925e-01
4.987634460181723101e-02 5.389561991166369470e-02 4.919751819263358805e-01
1.426541281361513522e-02 1.731420197842011705e-02 4.272998114148987558e-01
4.807529801201145675e-02 -2.185429751403139206e-02 4.608265612190279858e-01
2.865595300804429924e-02 -2.053533219420945743e-02 4.396207454557929384e-01
5.460783553886359998e-02 4.777830778954132718e-02 4.622788319014177749e-01
5.339881039552104441e-02 4.619617160247875554e-02 4.575072322402661262e-01
4.544205840865647716e-02 -6.604595445137632914e-03 4.510287396871563992e-01
-3.449908059005729610e-02 1.554963733664736780e-02 4.357229583919212668e-01
-9.399180322778675351e-03 1.427183935322635933e-02 4.218477459895941251e-01
1.978024066078622190e-02 8.782460869241247303e-03 4.334391545589723616e-01
1.147313218438950934e-02 6.101557797558149893e-02 4.321861768392054604e-01
1.488013706890435953e-02 3.903252019861943320e-04 4.327330866585993308e-01
5.002454876550344043e-02 6.119100742362366951e-02 4.618752548183345796e-01
4.106974666507469396e-02 3.353728905118538977e-03 4.451317210038715499e-01
4.206308965822148221e-02 1.397947804950091730e-02 4.452079377234288149e-01
5.699354984303891397e-02 1.321447940141971811e-02 4.793461322790717460e-01
-1.894793663738857104e-02 4.859140511011488667e-02 4.174038916494749452e-01
5.461202189638493520e-02 3.674275775208785122e-02 4.934185874579463116e-01
2.067262389151471730e-02 -1.363247121980981982e-02 4.357774493257001169e-01
-3.261711551570292689e-02 1.691404681179171920e-02 4.307195202050743132e-01
4.335073547362108815e-02 6.756503165035807057e-02 4.719844679069202797e-01
5.264151432916608364e-02 2.707000419378774100e-03 5.070791073205543897e-01
4.805699965466015550e-02 3.937824438416304487e-03 5.149839625101811924e-01
-2.851179532263659749e-02 3.094594485018301727e-02 4.216418473001812828e-01
6.897960727278062282e-03 -8.120787012376382008e-03 4.323832506144354437e-01
-2.394014801751322141e-02 4.134847170783528814e-02 4.166880150496802826e-01
5.694367356987339868e-02 -4.410666135752004842e-03 5.047623925226752961e-01
8.395455270063295963e-03 5.972229329295743877e-02 4.239674727725400438e-01
-5.347666905985601696e-03 4.098901922762395594e-02 4.088263128850495587e-01
5.556097943223971963e-02 1.142576938173173878e-04 5.000498576069704049e-01
3.036949776047687122e-02 -2.449544730304126922e-02 4.414955296352850445e-01
4.118016045332282410e-02 5.107521322255529489e-02 5.093577232288052370e-01
5.641404891178793124e-02 3.752125267275982501e-02 4.811238972708328232e-01
2.347081721263789833e-02 4.642821214921946660e-04 4.353698805702740926e-01
9.043707759360414614e-03 3.998560859652705579e-02 4.146224326979331409e-01
4.768698899024028520e-02 6.540115757826613085e-02 4.621203581363780843e-01
5.305835637424408807e-02 3.456397084706364260e-03 4.599481013886798086e-01
2.532633892729538577e-03 1.048667140332994532e-02 4.255674564296182960e-01
4.080753217179612646e-02 2.909540931565081714e-02 4.443535248337288079e-01
2.968773066650459702e-02 1.624406064616196535e-02 4.369838500163058526e-01
5.220649035966026807e-02 4.878830132186868368e-02 4.560941597147947779e-01
4.863566273466980033e-02 2.863582783519770525e-02 4.511644030891027168e-01
5.360397281780313050e-02 5.042337055059876311e-02 4.594417836486230922e-01
3.733529071654268644e-02 4.801427653742214308e-02 4.419938915076068731e-01
4.834260531390081189e-02 2.584984143974635579e-02 5.060918648414262089e-01
-3.066289736666837767e-02 6.462702478644653283e-03 4.344783397917193479e-01
9.261020143003907343e-03 5.677565518979640208e-02 4.215936165224250520e-01
-4.850250205338744666e-03 3.337902983894885239e-02 4.078919136486081065e-01
2.003043566597085753e-02 -1.287410329350060535e-02 4.354728691307768740e-01
-5.262680416008204062e-03 1.784715670593513617e-02 4.174985500160358631e-01
2.982848456724845193e-02 4.825484197996425528e-02 4.359913017160176318e-01
5.639144264014941954e-02 1.031236291312476704e-02 4.675020412858433283e-01
3.822490798906889864e-02 1.847925348996829267e-02 4.421093337782285304e-01
7.978703969923265152e-03 8.360409055297239947e-03 4.288863126285311078e-01
1.313263628325927329e-02 -8.997733965675748513e-03 4.333144280757902922e-01
-4.668192570371280416e-03 3.159314469069385289e-02 4.083235872368198294e-01
5.325673003606050393e-02 -1.401866817278647759e-02 4.690568240910040765e-01
3.576432264967908253e-02 -2.978436849034052716e-02 4.483731141408720533e-01
4.734568721953361092e-02 6.140496233351829675e-03 5.139939257967901520e-01
4.797470827584390807e-02 2.476496044240625999e-02 5.067364966270380133e-01
3.989505499665964988e-02 1.950388811539597797e-02 4.433188894807382763e-01
5.087686863429661394e-02 6.471249741300241776e-03 4.542183476106496087e-01
5.057451612109245542e-02 4.087982703764692777e-02 5.031679217540290239e-01
4.654898516084963328e-02 1.040938024880919480e-02 5.117524150915762071e-01
3.073301165447919758e-02 6.589498970287517576e-02 4.481343584473689301e-01
2.414392586702050238e-04 1.898746130229058207e-02 4.179261950972946171e-01
4.907886720948314262e-03 1.174672548470549228e-03 4.306581348608885529e-01
1.370317573628397623e-02 3.425466057958231891e-02 4.218409191658515911e-01
5.418725064273730713e-02 9.594541164832911043e-04 5.044435453383907531e-01
3.048705023949815733e-03 -1.267519644513644822e-02 4.334419740584254388e-01
-2.756680182338050802e-02 3.953886261690078147e-02 4.197153599497643328e-01
5.662110850927971201e-02 3.868655049663629469e-02 4.675818703931864939e-01
4.416092505322380402e-02 4.829570717724628037e-02 5.114585934610472728e-01
5.304451541961416328e-02 9.042732939345819385e-03 4.578549046825061142e-01
5.862186914821663347e-02 -9.544271278266085526e-03 5.059388715074838450e-01
5.144742866992689512e-02 5.306552394474835926e-02 4.560981652145426057e-01
1.083229750359205809e-02 5.144935807259443800e-02 4.198938202294159039e-01
4.955358845092418252e-02 6.214731384453065638e-02 4.618333864083853380e-01
-2.454071911090622074e-02 2.509211813296111787e-02 4.214003446936481212e-01
5.404518941907122953e-02 -4.784257340075332571e-03 5.142786080997434617e-01
4.739109155671587109e-02 1.120063710488894068e-02 4.497065192002913103e-01
-1.204604903770326724e-02 1.444002154731868943e-02 4.223081966681275778e-01
5.790289473248909358e-02 -2.314305599881371148e-03 4.878953236351746270e-01
4.750202012758039660e-02 2.203362459012489852e-02 4.500011694726908651e-01
3.346673816430380949e-02 6.490011248071383965e-02 4.467210095913639045e-01
-3.617095508593406311e-02 2.152128403032907422e-02 4.343944340557099881e-01
2.108478428809115388e-02 -1.460198632047304129e-02 4.360735043630070140e-01
-8.049252351685142609e-03 -2.695721266358317662e-03 4.306560314196621886e-01
-5.222386407476951355e-03 3.050732111630924392e-02 4.092067564370891475e-01
3.694469071400761917e-02 6.886007348035035058e-02 4.513087185467610785e-01
5.176162505588818158e-02 3.850974117061822105e-02 5.007760400007948975e-01
3.988159173127104468e-02 6.760760956076160288e-02 4.747728586332382594e-01
3.556555843044616888e-02 3.059537812314224933e-02 4.406061376804709662e-01
5.434139838675884973e-03 -1.083829819730127396e-02 4.328498246252576176e-01
7.395168888435121185e-03 3.250952612658558616e-02 4.076951597531891514e-01
8.564659682618533387e-03 4.923884801989873716e-02 4.166730413622352636e-01
-1.054101220099851015e-02 2.159233056983098781e-02 4.173795541698996359e-01
5.389166072136340746e-02 5.050313141159056690e-02 4.609925567087600484e-01
4.410899739987169527e-02 2.258781458420325294e-02 4.468258438480910977e-01
-1.167745263028238060e-03 4.182529400480096415e-02 4.087279010922230116e-01
6.266694623438845858e-04 5.350342555064921402e-02 4.158260061117206030e-01
-1.772163268547047657e-02 3.098298243842544791e-02 4.155128588250779353e-01
5.711566167642822406e-02 8.699674906382692113e-03 4.802849406605753657e-01
4.692406774478714154e-02 4.833278110763537805e-02 5.069833169435928877e-01
2.390430830362159920e-02 -1.225553130338155605e-02 4.362501602974586112e-01
5.767632900398537987e-02 -9.115743721386451379e-03 4.843389489724801433e-01
4.899665735876256034e-02 6.249561711093146177e-02 4.744829037380010606e-01
-1.852363364770462720e-02 -5.492729023039181688e-04 4.316545279151238756e-01
2.907604785549703155e-02 4.490445369479380971e-02 4.355081092979896651e-01
4.453756058121401129e-02 6.558166131442094704e-02 4.780160399701933738e-01
5.150819766516136905e-02 5.076696224493341958e-02 4.921445165448655179e-01
5.365754199101619576e-02 1.508613368783337169e-02 4.916125094423440256e-01
-3.037752214871790660e-02 3.225446630939114712e-02 4.226778609233497463e-01
-1.131100133008790948e-02 1.844542213041028625e-02 4.196846450769512460e-01
4.950839689430162893e-02 6.205809947729171855e-02 4.615093977407714876e-01
-5.909873236028173084e-03 -1.212994952681001153e-02 4.334900074659446823e-01
5.428410240553843691e-02 4.807650377335148661e-02 4.829363484836272091e-01
3.247254001796481826e-02 -8.945261857519148929e-03 4.394326463398195992e-01
5.076617167259232788e-02 -1.178820856219708196e-02 4.628696791333102301e-01
4.309889434007709713e-02 8.285019265874205702e-03 4.462980374152908380e-01
5.205417324337222387e-03 -1.830008446453641399e-02 4.367716395206026614e-01
4.988516104186831168e-02 -6.647488616959938874e-03 4.577906760035678757e-01
1.641456570915404006e-02 4.469836085451701913e-02 4.243596974329961191e-01
3.922558827670924453e-02 1.968093484231156140e-02 4.428112045113648532e-01
5.437918218396503925e-03 5.405670028855018294e-02 4.172246757678618190e-01
-2.550069292276864030e-03 3.253285067572832950e-02 4.060315266755167296e-01
1.876411423385086416e-02 1.511889672161811221e-02 4.311195254637514851e-01
9.228825016099366160e-03 3.115058884892192050e-03 4.311685044782256893e-01
3.471436909938216409e-02 3.024349950044998014e-02 4.400109276430174132e-01
5.392440011284543172e-02 4.033701638795125083e-02 4.950862295481099906e-01
3.071138796553133862e-02 6.700531931717054746e-02 4.527805291492784101e-01
5.142561846972523720e-02 3.528999713297031882e-02 5.011931272285673478e-01
-1.355445724017714099e-02 2.803140388101229424e-02 4.153221518090564057e-01
-6.559461847170159482e-03 -8.204426582224292122e-03 4.323417764258025153e-01
5.672975385258748060e-02 -3.331312133082894866e-03 5.000801868507059877e-01
7.893602602447650357e-03 4.215258582633429202e-02 4.134949468125061478e-01
5.938869509824249056e-03 -2.954439838329030003e-03 4.313788097844161729e-01
4.052858022593556347e-02 1.625815031536744643e-02 4.439397479607706809e-01
4.000106084166071829e-02 4.808009586888722237e-02 4.439626405080188687e-01
4.010872980334598270e-02 3.073542710465360789e-02 4.438578082437697470e-01
4.182469158726741243e-02 6.995451996598735234e-02 4.546752579310280873e-01
5.233775536815491597e-02 4.925552323394531001e-02 4.562622976251273221e-01
5.698848075149669928e-02 3.421049504168375676e-03 4.743602461350623356e-01
3.117982024718667783e-02 6.502603175307168637e-02 4.457262074400693552e-01
-2.589795859099316977e-02 4.540986350231258906e-02 4.190163833327397169e-01
7.042462863820290672e-03 3.740212087286058943e-04 4.310974918157163827e-01
5.598227989835077856e-02 4.058511157450532536e-02 4.803330147005294148e-01
5.613773785674715244e-02 1.567485272925195003e-02 4.838603726659870263e-01
5.552109280555527632e-02 2.516206302939465178e-03 4.959511914618589534e-01
4.618696004559724039e-02 5.351115027958135845e-02 4.500143611840526914e-01
2.568697310546794177e-02 -1.693571120360196428e-02 4.378609946403646536e-01
-1.677364949020424510e-03 1.143178498482907805e-02 4.236884114079230157e-01
4.638004494349284856e-02 3.480730096322587341e-02 4.491422533240279069e-01
4.207514068445937505e-02 6.883041279667440060e-02 4.639751101473584272e-01
-1.682210144385606898e-02 4.873582384310047588e-02 4.163604805236492679e-01
5.534764166406498653e-02 1.769506611070649493e-02 4.614372971040468507e-01
5.472408459638127692e-03 5.112689972962156104e-02 4.154668736035384002e-01
4.968743265879386334e-02 5.128758502737706254e-02 4.972004234338648909e-01
4.937733332514984697e-02 5.363286751487669063e-02 4.937646329553115332e-01
1.755047610560905164e-02 5.241327573244883298e-02 4.264978584315642918e-01
5.146826736366368060e-02 2.331982246044449897e-02 4.978179703204893003e-01
5.794389384651461167e-02 -2.973065185845772795e-03 4.891474227313718504e-01
4.424082477764600813e-02 -1.340232494130540186e-02 4.510506583877854081e-01
-3.076465843703273060e-03 2.480524439487227090e-02 4.106190109871701854e-01
-1.188231015799731411e-03 4.264975048177031824e-02 4.093292554287966123e-01
3.305646705199637159e-02 2.130204272373789620e-02 4.388196397814334015e-01
4.348245012487267358e-02 2.641712990125604996e-02 4.463281661078460916e-01
5.631026868403806590e-02 4.053720601225715980e-02 4.761201287442938246e-01
4.675396082232464307e-02 2.286359182190967482e-02 4.492989409114125920e-01
4.653873638963917925e-02 2.187136599269462814e-02 5.100835912119850990e-01
5.820321123632987703e-02 -1.167293196984247466e-02 4.871132201860738364e-01
7.868380533217873840e-03 5.110745915569599174e-02 4.168968688956714574e-01
5.026369982367513006e-02 -4.851722144158521210e-04 5.156917881647410384e-01
-2.590580325447774251e-02 7.883103890124913693e-03 4.312442604875569296e-01
-4.133459273459478070e-03 4.930321751652951695e-02 4.111324166333849561e-01
-3.268799958996419786e-02 3.168872012444569342e-02 4.247444315511745283e-01
5.690266458114255632e-02 -1.142909801211277471e-02 4.804036916943071334e-01
8.399577762462390185e-03 2.181464518792904789e-02 4.199408258491383328e-01
-1.236935298620861663e-02 -1.091810320732050817e-02 4.345917951978290339e-01
7.026102052839103100e-03 -2.233321757615166353e-02 4.380927551522371122e-01
-1.097811905104742122e-02 5.058251638781522536e-02 4.136618076272292055e-01
4.175257504656929020e-02 1.286028697430620198e-02 4.449701071946248199e-01
5.590398283635398397e-02 1.197653550099576567e-02 4.845807489282001335e-01
-2.839594137157941400e-02 4.226903365327219775e-02 4.214654870847279744e-01
-3.523175888983554049e-02 1.570119651646896194e-02 4.371687044308379400e-01
5.574123550877450872e-02 -5.142372018766687078e-03 5.125572111765683836e-01
9.315317834159803773e-03 3.130448402975097993e-02 4.134447300346513754e-01
5.333910659914380820e-02 2.276606247994839710e-02 4.562006910398856419e-01
1.559742974046492668e-02 -1.652257589517452246e-02 4.358748524115742540e-01
5.763829663964379485e-02 2.956649003302129486e-02 4.725637800653014753e-01
2.582073591211423401e-03 5.951595131716842790e-02 4.207944630796344176e-01
4.478550737942564586e-02 3.824544967291621661e-02 5.131461597938655750e-01
5.693334834158580993e-02 7.762793589671771952e-03 4.742350917029340973e-01
-4.849921674434549100e-03 2.423258504175965222e-02 4.122932798263364562e-01
2.632049462499733410e-03 2.697516599696488104e-02 4.070244814301624547e-01
5.462220128845256262e-02 2.217245160454662037e-02 4.897741753023630573e-01
5.404044934841184533e-02 3.613171106044624215e-02 4.583509548572941017e-01
3.447343219000165160e-02 2.550123876798898043e-02 4.397936934059716307e-01
3.861158402945873841e-02 1.524927337809120140e-02 4.425334406558937839e-01
4.084022316271371592e-04 5.632076274192113902e-02 4.188788151836432272e-01
-1.593201282577537056e-02 1.828109738218679919e-02 4.211910737873860722e-01
3.508978868562984826e-02 -5.311116879490750467e-03 4.411216270344061052e-01
5.121590449645204574e-02 4.805013532373928267e-03 5.078103062493484199e-01
-2.070513765944359888e-02 3.049771976794079034e-02 4.172458294423744829e-01
-1.465962301900277254e-03 4.132375095052055747e-02 4.083764168973963438e-01
5.663434873440038181e-02 8.302441963678117154e-03 4.828974851203536867e-01
5.191464470557154154e-02 5.666439303353205947e-02 4.603652669657322671e-01
4.946548331001746762e-02 -7.047552310458592324e-03 4.571175922671608105e-01
2.949336200662027244e-02 3.112648907078078772e-02 4.365197543680134906e-01
5.706193009957681583e-02 -6.177502729715530702e-03 4.778562245537072983e-01
4.702274043593056979e-02 4.674678931395453291e-02 4.502591801161193730e-01
-4.659525985930222658e-02 -2.011572222712779308e-03 4.428747339373046432e-01
-1.840197019939592005e-02 1.694078221684941488e-02 4.228884461326183897e-01
4.992753040742550774e-02 2.897261702083092638e-02 5.029680641369496108e-01
3.156875242153176636e-02 -7.628716704105466435e-03 4.387293089932183809e-01
-1.043623526071518065e-02 3.980382795621426051e-02 4.101014665734474818e-01
5.572289745213143686e-02 3.985010650826311535e-02 4.861952618956409955e-01
4.856397984148301539e-02 4.604518117215998518e-02 4.519099494205255918e-01
-3.322124869997773733e-02 2.073416582344655285e-02 4.290965991118012579e-01
5.013203287473728259e-02 -3.740018185789431484e-03 4.566955372232660570e-01
-2.458525426288266438e-02 2.923697354844537188e-02 4.197865098536234796e-01
2.974103490966239355e-02 3.537615994096408867e-02 4.365751275940937814e-01
5.174065277970904542e-02 4.776865246018228983e-02 4.555131806151340168e-01
5.387046433612086710e-02 1.964424523355536023e-02 4.576386196817571195e-01
3.574698110065942236e-02 -2.424501712669724363e-02 4.456754627485406961e-01
4.776183619274217834e-02 4.539646084658852110e-02 4.510261454214066212e-01
2.353549726993931640e-02 -2.466666924992044069e-02 4.384297560754821799e-01
5.271480739601488302e-02 4.669357829350315181e-02 4.938625324404834482e-01
1.762934009233815130e-02 1.016489407726050773e-02 4.322540122995864320e-01
3.533022422543595498e-02 5.517843458492156794e-02 4.412231389978865104e-01
5.285173930261770348e-02 1.353266204709464848e-02 4.559482408012153765e-01
5.711585594137059962e-02 6.924694765468095495e-03 4.778177202209518137e-01
-1.350814592626949605e-02 1.564283447310634706e-02 4.219009433466154313e-01
5.266243866139038582e-02 2.951318460073193081e-02 4.556385779122791857e-01
-1.663634322123678372e-02 1.989048401684165301e-02 4.205821498054160279e-01
1.129269534127651416e-02 1.513809822743679076e-02 4.268769962443270116e-01
5.535104772471807766e-02 1.726895923855922138e-02 4.868828704875141078e-01
3.464496367834076634e-02 9.563235316420863261e-03 4.395735475152643401e-01
3.804777233600990100e-02 1.660252511990466598e-03 4.428904679143275125e-01
5.472131322721224961e-02 -1.671865794723373377e-02 4.741833420709579139e-01
-2.973279562727076854e-03 2.732889770199980681e-02 4.088941567328738813e-01
3.759196355207470447e-02 6.780425438243332936e-02 4.736842543990869570e-01
5.052157576901734892e-02 4.400859341248326145e-02 5.028597532090700595e-01
1.280658339191349630e-02 -2.092229048474300232e-03 4.323201713228354559e-01
2.905772014185469335e-02 6.539067568586193202e-02 4.461912005010178484e-01
5.362975830160434526e-02 5.363807977297450208e-02 4.671145950002413838e-01
-1.916110230013334456e-02 1.676317406267270257e-02 4.232796491447453069e-01
-9.985564532744276370e-03 1.834986748082295584e-03 4.295733667865686556e-01
5.246385786818141828e-02 3.254766489922810563e-02 4.984137929560095714e-01
5.348896946805464098e-02 5.899666493881842999e-03 4.985407844661312593e-01
5.376620054636379459e-02 -1.627366753470994246e-03 4.640618640587725330e-01
5.028994121956942287e-02 3.244969819810267914e-02 4.529324149532192867e-01
2.529321956196728741e-02 2.942840943342505539e-02 4.334851797322100131e-01
-5.875246534168207697e-03 1.537567457242533520e-02 4.198448446023304581e-01
5.749326351687506637e-02 5.667261790353048459e-04 4.864816371538096540e-01
2.805832303841962819e-02 1.130007905609966765e-02 4.364919927195850535e-01
-2.523191210299230783e-02 1.886999780434886129e-02 4.246650273529340991e-01
-1.390342284219671376e-02 4.081197800145740240e-02 4.114081183196778846e-01
2.306670625478552186e-02 6.003099150022028763e-02 4.351327189278937357e-01
5.477222516271797181e-02 -4.388441528215006326e-03 4.677134242422779642e-01
5.696200515501837619e-02 1.047688325400663797e-02 4.766770132057591702e-01
-8.390801265237782941e-04 3.040933229005957431e-02 4.052075973497749617e-01
-1.176246640523263137e-02 2.827637721260539694e-02 4.144198947957226653e-01
1.241821589374764428e-03 2.283111501818664568e-02 4.127926896086571151e-01
-1.303171698659031513e-02 2.821398501028373612e-02 4.150165016128806172e-01
2.935872823989827199e-02 5.744873676686968605e-02 4.376732684536216444e-01
5.425001470097610273e-02 2.779016251534762241e-02 4.582749233281706580e-01
5.140448463220850805e-02 8.963485327312340628e-03 5.010563222127136784e-01
1.331215774497527052e-02 5.369113690985269360e-02 4.231700623107699233e-01
-2.665089685244604462e-02 2.852212305483271294e-03 4.323566611447638985e-01
2.108426712614604095e-03 4.751842225357373606e-02 4.116415278668582034e-01
4.582205873946464808e-02 -1.759423720511804970e-02 4.546283449046832903e-01
-2.278111177067587007e-02 4.131132889329484220e-02 4.154907956455122786e-01
-1.130964155908989639e-03 1.909124861171886470e-02 4.173328063285812184e-01
3.630200303656086480e-02 2.798857008908223892e-02 4.410151476641884782e-01
-1.111557902732831019e-02 5.055982921904732252e-02 4.136278946814404001e-01
2.703858528622634164e-02 -7.894454711844934962e-04 4.366785688206563654e-01
5.702116474402237067e-02 4.378155495117171982e-04 4.756004682437171005e-01
-3.122770916883164591e-02 1.492125083774146696e-02 4.309204868844985770e-01
5.662041495100265248e-02 3.551369576903567332e-02 4.828252611937011718e-01
1.241951331570576023e-02 3.256253060934444221e-02 4.198663367017813619e-01
1.036543754831492983e-02 4.682945552546326912e-02 4.181454159293574446e-01
1.841554146871251380e-02 -1.219425391131450341e-02 4.349650174972362615e-01
5.671308080877456720e-02 1.637215933080523114e-02 4.666636704456553209e-01
3.418217801386417426e-02 -1.991812260936385096e-02 4.426713172783056094e-01
-3.030287652634067880e-02 9.148112841646623833e-03 4.334592036359629086e-01
4.453702253644825984e-03 2.751266174560329167e-02 4.066257533397427681e-01
3.851063543091224478e-02 3.399798501528228378e-02 4.427143666409778522e-01
5.379076544537427645e-02 6.836904298257609133e-03 4.961108308071116579e-01
3.516222095453850477e-02 3.821622887760717929e-02 4.404542572320185867e-01
1.273329200675803533e-02 2.394630685153314315e-02 4.234251170120583718e-01
5.431755379573197096e-02 -1.704976124291878586e-02 4.732184277046159737e-01
2.520339621164878474e-02 6.423406916018287172e-02 4.415663124845846665e-01
3.917996926444680672e-02 5.933023664605656389e-02 4.453944124396658211e-01
-2.650468355352733618e-02 3.928078336997525150e-02 4.190031622824476054e-01
-1.594821059225891985e-02 1.525837283454519605e-02 4.228572638106822823e-01
-3.604082260450169883e-02 2.356695158548348032e-02 4.323074198513783273e-01
-1.748167922420268069e-02 2.700572636287909209e-02 4.172921114734245429e-01
2.996408276376281293e-02 6.652695221259673219e-02 4.500593546898480346e-01
5.594488327821663110e-02 -1.905580260756007966e-03 4.705718666401225714e-01
-1.703386816836532577e-02 1.772855586680521442e-02 4.219244493250153827e-01
-1.494292601667823218e-02 6.234763508267630178e-03 4.271372034813434859e-01
-5.204490952478471946e-03 -1.193210633000617304e-02 4.333553700425874511e-01
5.741567357644464242e-02 -8.003034764776146073e-03 5.117732305963785810e-01
-4.872677228573291108e-03 3.878848045353592427e-02 4.077395628045835663e-01
5.725282757377177928e-02 3.456036679678164275e-02 4.686271984458310058e-01
5.041463204236192042e-02 -6.668126737256821479e-03 4.590191252633368801e-01
-1.314321612164131084e-02 1.037278043479094095e-02 4.246759788637214372e-01
-3.848510330990229013e-03 7.176404158022075402e-03 4.261419391171607507e-01
1.106917992861865610e-02 5.496588962693536862e-02 4.215933440346565919e-01
5.147723192423165478e-02 -4.485079190358703081e-03 4.601025262113557224e-01
1.540285935080998314e-02 5.536080538434597770e-02 4.253756576024230185e-01
1.543032960680833406e-02 1.291478906033407051e-02 4.302113708694958460e-01
-1.820176903927147455e-02 2.910710962712362640e-02 4.165725831217393371e-01
7.821381298552651865e-03 2.727630304130808370e-02 4.133735283880898281e-01
1.943849344671438537e-02 3.973855878903856387e-02 4.275909445408719867e-01
1.844735311884855566e-02 3.963003833007278098e-02 4.266249170904472532e-01
2.202466560837731263e-02 5.607604315410793377e-02 4.307198662322536120e-01
1.148792672808297659e-02 -2.272095907459998222e-03 4.320264176672268253e-01
5.555563105498831367e-02 -3.477313842646003860e-03 5.103692600188382000e-01
5.640821191051102051e-02 -8.098823692201131269e-03 4.762844955475705744e-01
5.569924046090469344e-02 2.428211319987315375e-02 4.878242809691004656e-01
4.865870918579181387e-02 1.748936909283479307e-02 5.041477290794796895e-01
5.166382304029308592e-02 8.920670538453362094e-03 5.004271718993131834e-01
-2.656339108069307939e-02 4.221144203261904815e-02 4.196007239863601135e-01
1.744088534310317407e-02 6.018345702218787924e-02 4.352000750713154176e-01
4.979436338808515550e-02 5.336827338436795493e-02 4.538646672794180992e-01
5.593249112323937788e-02 4.393379214318874487e-02 4.738535035359191516e-01
-4.474066481035320064e-02 -1.314516596831296572e-03 4.417583992489179101e-01
9.654050376569207198e-03 4.822986138982122278e-02 4.177201404364837556e-01
5.592481287606240747e-02 2.765867344130842551e-02 4.881069156031665468e-01
-1.436499985891051025e-02 4.230659419312640668e-02 4.116757032971394836e-01
5.545620226335740144e-02 -2.147316782149506428e-03 4.686577589141685540e-01
4.166817045343607084e-03 3.845339386937783599e-02 4.087415279313625915e-01
4.974760953294550536e-02 5.168552148089924914e-02 4.962794431471186929e-01
5.728380822563902686e-02 1.583584933731349478e-03 4.781824829923316811e-01
1.367277938544682152e-02 5.674697947669524178e-02 4.249979084097267323e-01
-3.154870374281317641e-02 2.574949786216748637e-02 4.257715642124753064e-01
5.242030344089765315e-02 5.041648469725830417e-02 4.566513397421872456e-01
-3.307737532491199922e-02 2.642105522205803747e-02 4.268309761766553301e-01
4.925781462983815778e-02 -5.485440299036924844e-03 4.557431257669993796e-01
4.102441101609166640e-02 3.663347014313936278e-02 4.447044743000517220e-01
5.535480361565098262e-02 3.117669154992511876e-02 4.907005253011518797e-01
2.573540528051165843e-02 6.445462113718641861e-02 4.418107363438302237e-01
8.393439341891998154e-03 6.136203255758532898e-02 4.307352459909657982e-01
5.269103764613241453e-02 1.092175885177029335e-02 4.963332035644117401e-01
1.020611284312317527e-02 1.755930487553874694e-02 4.243955318437843682e-01
5.443235281096887868e-02 1.659150683356256165e-02 4.592975205413633022e-01
5.055003412562160403e-02 4.925561151461150394e-02 4.541697303865448454e-01
2.921810171878915299e-02 -7.726360583662526989e-03 4.373318365629318416e-01
4.748467775198595558e-02 2.750550974025274889e-02 5.083760302756124005e-01
5.930422449097723717e-03 3.715493812301449983e-02 4.103698339384414528e-01
4.395552869120897266e-02 1.495200524830594263e-02 4.467112079121877688e-01
4.869105532020089055e-02 4.941856877978779983e-02 4.521482436253538850e-01
2.251151266522634017e-02 2.786025967793429731e-03 4.349648421144741706e-01
4.664069071951586209e-02 -1.705721003829975720e-03 4.511748823837462008e-01
7.883595281096562879e-03 3.838504751644022245e-02 4.128584386838430320e-01
5.110214145462300267e-02 1.568982006927585604e-02 4.979237441356331728e-01
3.096959479294075085e-02 1.149125025786111934e-02 4.376455015158080553e-01
5.665673477327849705e-02 -9.037597978574573448e-03 4.783922972813614560e-01
5.608447583025587269e-02 1.563828658180541759e-02 4.641720959381146483e-01
5.651160643196909139e-02 3.431858100998606831e-02 4.646391910046370199e-01
3.656444733410691567e-03 2.720310094883939683e-02 4.068938712544998837e-01
-3.651579949245680390e-04 5.315202307117990188e-02 4.150558886873051412e-01
5.681937080674503981e-02 -7.536181101979818123e-03 5.136428890084498988e-01
5.750604516014362622e-02 2.564244656479394702e-02 4.793579429860169161e-01
5.952518820226163770e-02 -1.211501396733720599e-02 5.057066827164914402e-01
5.138850637830640750e-02 5.738603283952925516e-02 4.598170193056043131e-01
2.604068045179840779e-02 6.448968631685499109e-02 4.421285788049829635e-01
5.554358607735585679e-02 8.788390074465413093e-03 4.886963623872100371e-01
1.888655750518978410e-02 5.394487044230958372e-02 4.280796867625382696e-01
1.993021982099623529e-02 2.185055742587162578e-02 4.299521823975608337e-01
5.486990584489004341e-02 2.866472005423268896e-02 4.596611053431916005e-01
5.397884274444478270e-02 4.048850421566836666e-02 4.583168609087829304e-01
-2.632335701554076868e-02 1.657537628782282391e-02 4.267429051365136949e-01
4.937435614030567799e-02 2.928572306255622718e-02 5.043387134653587456e-01
-5.004201415663113092e-03 5.444148878090011856e-02 4.173705923334063428e-01
5.446572155034740126e-02 4.931971820972014947e-02 4.786790005659239955e-01
5.004438426312059207e-02 5.531041411971958366e-02 4.547461471495322649e-01
3.554714414588089344e-02 -5.868866127719588738e-03 4.414787846268186655e-01
3.518595631571286297e-02 5.730024114256960371e-02 4.417791004242790365e-01
4.946326225984335606e-02 5.294713657577918009e-02 4.534274988027667264e-01
5.743651568487054314e-04 2.654226880664766960e-02 4.075869068506545734e-01
2.917617328822014276e-03 2.662007755519483349e-02 4.075809706183993741e-01
5.230861290059301075e-03 2.042218180290415741e-02 4.187622510200385562e-01
4.254556102319755756e-02 -1.507449232167542251e-03 4.469736921112913430e-01
2.955708474277950193e-02 1.185192135851940824e-02 4.370946596388371463e-01
8.989701445818471665e-03 -1.965860719277319826e-03 4.316946113319689027e-01
5.033573681756225993e-02 6.211266910584026940e-02 4.665622504031438078e-01
3.462500936814513069e-02 -2.590979169004626465e-02 4.455254967356216955e-01
4.153070746335471575e-02 -2.227483459495913434e-02 4.507617323488189442e-01
-2.985039169801025419e-02 2.955299370358188682e-02 4.232209248585356853e-01
3.628003992457640853e-02 2.997152836925620276e-02 4.410764338303029275e-01
5.386352546581717193e-02 1.943975863096472027e-03 5.038680065275586983e-01
3.999758775482369078e-02 5.842596206807540438e-02 4.457335942106501192e-01
3.498726569163773670e-02 -3.906073617823877051e-03 4.409945244892907734e-01
4.740276160226060409e-02 1.786900533594079285e-02 5.074988929540403815e-01
4.877734146110312974e-02 6.340798875226331954e-02 4.611958594035786563e-01
-2.955868741044230530e-02 7.598929578033084865e-03 4.333472670219143952e-01
-8.765364006652105397e-03 -1.223109637095907629e-02 4.340896417057659717e-01
5.643287328176752049e-02 3.751802820311228581e-02 4.808605079502853985e-01
4.529452842104358945e-02 -2.137354653133651666e-02 4.556483349330750499e-01
-9.069072449852252308e-04 -1.595680770853864089e-02 4.348373469654147061e-01
4.416203170772343978e-02 5.209661951812447067e-02 5.044070374575365667e-01
4.533468443646550619e-03 6.053517154646043119e-02 4.237963816604224387e-01
4.192077305198559090e-02 6.969487069718059355e-03 4.454354844898542609e-01
-4.488921800371402718e-03 9.511892952576608828e-03 4.245723615312615995e-01
5.182505081122572993e-02 5.340993759986564782e-02 4.567708772535052919e-01
5.673115905356859029e-02 3.499164291803781579e-02 4.657033146160500792e-01
5.717344168761432505e-02 3.545996571434720940e-02 4.685254696613860292e-01
5.768543582014347415e-02 -6.030513308450839022e-03 4.995933142784600434e-01
5.680398509705588544e-02 3.838615504673941609e-03 4.880168998403267566e-01
5.333379870064412775e-02 4.840951053239904434e-02 4.888775324578493175e-01
5.537660577437843179e-02 -6.723369344991294086e-03 4.708922221067826097e-01
2.533514069825973727e-02 5.181010267429755900e-02 4.324307206968007189e-01
-3.869490822342318975e-03 1.753779152566189298e-02 4.182551507411844671e-01
1.368194785922427492e-02 3.211009517971445681e-02 4.219132219278130536e-01
3.971361807515166181e-02 2.505996484340914862e-02 4.431932596697343296e-01
5.799429935532273567e-02 -3.255640072504553326e-03 4.895770110410933573e-01
-1.766951021171771913e-02 4.458748756167930927e-02 4.130167066173344170e-01
5.487230914650766123e-02 4.133717187173274743e-02 4.609267802632454614e-01
2.274917884571162757e-02 3.362512249695438077e-02 4.307490234061509549e-01
4.898177627129441519e-02 1.916646667754508607e-02 5.034761791570987466e-01
-1.242268973114463680e-02 2.493651466001562886e-02 4.164414021139364874e-01
1.176608739104493748e-02 8.547096378707014219e-03 4.301616724771898936e-01
5.254479103945354501e-02 3.454467469255080581e-02 4.987011143450643669e-01
5.492636662553725124e-02 4.540664192007313332e-02 4.619311261034811933e-01
-2.167753604977202750e-02 4.888166637321621211e-02 4.201367557720868118e-01
4.753433074839943928e-02 3.980909721604034002e-02 4.505245109587459607e-01
