3.065239427608046352e-02 -2.254131706902420124e-02 4.411530080783728769e-01
3.695726242340870160e-02 6.414353710508262363e-02 4.461355462939639582e-01
5.569054461853024246e-02 3.132199875235069930e-02 4.893592230669107646e-01
5.232545247030354063e-02 1.099044041947540989e-02 4.974530477018977992e-01
5.651017649844339297e-02 3.993628287886784312e-02 4.678046005421474529e-01
4.384219509540633608e-02 5.577133617783365527e-02 4.956581985069632990e-01
5.302244530698474456e-02 -1.313250687952144911e-02 4.681172586926130585e-01
5.484458480139905306e-02 3.515702443940034450e-02 4.931325445585729716e-01
-9.303787900842284443e-04 -3.994176968318013769e-03 4.309511242646804074e-01
-2.635314708476698201e-02 1.429391079036884844e-02 4.285674568427135234e-01
5.591241647228367001e-02 4.411993430815393247e-02 4.745897723608923924e-01
1.507301130875162744e-02 -9.198680506429218751e-03 4.337270437249524102e-01
4.764554953522738556e-02 3.633406074301902267e-02 5.084740008947007395e-01
-2.674056407659340662e-02 2.897140599020283161e-02 4.212267126014583307e-01
5.324164757666707132e-02 4.065919168628591429e-02 4.972642949231296794e-01
1.424675182828405440e-02 1.107959283746698560e-02 4.304320370646999017e-01
5.024569259306364832e-02 5.527853662309924893e-03 4.531860371455758707e-01
4.833628008605284423e-03 -1.509269435473675758e-02 4.351584756998299053e-01
5.529886259431708584e-02 4.178518317741832661e-02 4.887808698345356695e-01
-2.595382011547356718e-02 4.363577359366038050e-02 4.191866630149491124e-01
-5.578299445155324165e-03 4.734118700525932061e-02 4.107386348384119978e-01
4.475467107392908095e-02 4.756542994733838764e-02 5.111818744338717524e-01
5.710532136943335252e-02 6.676338389228213439e-03 4.770953409083995012e-01
1.509606937468788504e-02 -1.030584185839523471e-02 4.339360263197420409e-01
5.073132071409016536e-02 2.832027617340820633e-02 5.012907853146613135e-01
5.424993973451940066e-02 4.651412543620417339e-02 4.593482284716366992e-01
2.985817972081014279e-02 1.395353429146486621e-02 4.372472005702457976e-01
5.005232123788042053e-02 -1.964215122184974349e-02 4.643642047165103537e-01
5.589415242185529625e-02 1.327437259584755055e-03 4.692015518317907419e-01
5.264888597862030228e-02 -8.152110115170951507e-03 4.650141241959782068e-01
5.804537430108813734e-02 -5.167187738974019298e-03 4.844530460829601370e-01
4.009214987283392373e-02 5.653569119371538304e-02 4.454915379924583863e-01
5.172090473724726134e-02 3.106175094153881128e-02 4.544636088459879097e-01
5.729622259881446411e-02 2.039777068155255307e-02 4.704991353503701901e-01
4.762845405733379806e-02 5.717337616853205434e-02 4.885386306135298118e-01
1.746817980693577028e-03 -1.170694032789865516e-02 4.327332229931936114e-01
4.559844581029705995e-02 4.600649525804117318e-02 4.487552465543197533e-01
4.645899691710888429e-02 1.052176648909624104e-03 4.502734306745092563e-01
-4.074009859922143872e-02 2.462998391193540332e-03 4.410490617979617167e-01
2.162619506846810355e-02 3.548120129197224193e-02 4.297697080449672247e-01
2.364079774325306832e-02 4.035755074190473801e-02 4.313623793760685832e-01
5.381159065432594008e-02 5.196308672359883918e-02 4.784342961259964166e-01
4.267232904360246382e-02 6.572608888584328957e-02 4.521562246290172782e-01
-4.381169994590814604e-02 3.003215422797277274e-04 4.426056485456593137e-01
2.420873480160923991e-02 5.303497781307568715e-02 4.318783627984530971e-01
1.263385804840306409e-02 8.512600364559395200e-03 4.306753622177419971e-01
1.626479659077835482e-02 3.846092538880232364e-02 4.247072180535059749e-01
2.352517675777892822e-02 5.046764185458674223e-02 4.311466663195535065e-01
5.088742194357753074e-02 -1.349428615621928174e-02 4.636792715568236467e-01
2.751340095754483545e-02 8.658583740327543271e-03 4.365824773913239976e-01
5.534319315710407861e-02 2.668316443377804353e-02 4.901565549582170833e-01
4.789687216095302874e-02 5.629766055402308372e-02 4.902091812173394736e-01
4.965599985447797377e-02 -1.735881018769327988e-04 5.163507817576058478e-01
4.504680185209970072e-02 4.857051283977992934e-02 4.482832248065771741e-01
5.208535931996825796e-02 4.416147508145622930e-02 4.994150301819846316e-01
-1.165061760826249012e-03 4.231242935883862410e-02 4.093679116960121656e-01
5.059092695620394375e-02 -2.125262222505894943e-02 4.657762260377117935e-01
5.048306809911828896e-02 2.430969449255148893e-02 5.005870503267801919e-01
5.582870168936136107e-02 7.132431621065557330e-04 4.691346895484285739e-01
-4.781978202695207937e-03 5.321120161948157679e-02 4.158327780117198613e-01
4.870157698956653625e-02 3.477314850769395310e-02 4.513938488917598746e-01
2.441145982725463626e-02 6.092109953692183971e-02 4.378028025733017303e-01
5.478959039260333785e-02 4.419198594638692329e-02 4.881318456717030352e-01
1.183790053773901146e-02 4.568751047559774930e-02 4.197891734796681540e-01
5.536673980337270679e-02 3.214174347699257778e-02 4.608234670201148964e-01
2.219543660948427449e-02 5.348817672633029291e-02 4.304954129225722070e-01
4.474933848350581139e-03 3.031341930272438839e-03 4.302922975948010320e-01
2.127927286607961960e-02 5.256929753078894152e-02 4.297522402942322017e-01
9.773626692251419917e-03 2.827864139151709671e-02 4.158445303454439412e-01
4.984317203136268831e-02 6.324732906884218686e-02 4.679961759438195923e-01
4.078321623978504312e-02 5.067803389013157689e-02 5.105279957591829509e-01
4.857300850879307103e-02 5.514521951344099338e-02 4.920635620017207446e-01
3.555192729537888507e-02 4.546010628134308784e-02 4.408006815361073527e-01
8.180484205016092664e-03 3.175419887959070320e-02 4.101596550119414597e-01
5.009955482658781656e-02 -2.138162945479103044e-02 4.648542357197205099e-01
4.520874231097932183e-02 3.625950638631576795e-02 4.481782558655514337e-01
3.568661980205765916e-02 2.232671911312037599e-02 4.405304354985639659e-01
8.820571369739144824e-03 4.669185535819518618e-02 4.162771900857193397e-01
2.257031322553387093e-02 3.589375644803447299e-03 4.350430674718266388e-01
5.700937156011214035e-02 3.514640460943651429e-02 4.671370347699964065e-01
2.965643748122856124e-02 -6.222937195602118270e-03 4.376168404442675186e-01
-1.802512870811928680e-02 2.953131805905937282e-02 4.164711077143256612e-01
4.671305461777855439e-02 -2.245341672978315439e-02 4.587526831589722187e-01
-2.580369931976434980e-02 2.979046238882721714e-02 4.203982850365051704e-01
-2.288306034164590275e-02 9.663035759066997132e-03 4.287585211262314178e-01
9.190227777447714311e-03 4.495493020606831924e-02 4.161457221942874707e-01
1.149796899694663886e-02 6.134667499143622166e-02 4.343898881582000104e-01
5.510851927745506751e-02 1.699620060733316590e-02 4.877437005469873466e-01
5.360067997428626108e-02 5.330287966285894574e-02 4.645159982088403194e-01
4.163476526892739837e-02 6.474669333162319518e-03 4.452658231000018452e-01
4.618124128182336113e-02 4.963599851277228359e-02 5.075711601728574163e-01
6.153570923040431115e-03 4.830613097936552192e-02 4.150056754335210152e-01
5.188415841313340909e-02 2.320302096810451103e-02 4.970166769670555373e-01
5.205751959939065171e-02 4.610592680193099924e-02 4.558842357684277924e-01
5.158526596103630429e-02 5.928948119373739223e-02 4.683589940929089868e-01
8.638528854665240841e-03 3.677209842391269273e-02 4.138540387875582760e-01
4.796969152893078986e-02 -1.894676491677638186e-02 4.596819095161182589e-01
5.019200948290718917e-02 6.169082060599904299e-02 4.703451593142821130e-01
3.826344820753400933e-02 6.799056115068127792e-02 4.715234527129765207e-01
2.684719108200268531e-02 5.629761232215139272e-02 4.347086058731861047e-01
5.044960068486382954e-02 3.714798488142604521e-02 4.536142868197137745e-01
4.363907158437606119e-03 2.729073297739947543e-02 4.069094509363790357e-01
5.249857287134415684e-02 2.136211396398653151e-02 4.948896003089195972e-01
3.937155022481868272e-04 1.935705214779243066e-02 4.174338465729026670e-01
-7.342400778763131901e-03 2.168892620341359920e-02 4.160654999547125366e-01
1.523139877321280644e-02 -1.299862651335320467e-03 4.328635985236207184e-01
5.287800444905655511e-02 -1.369977052169822976e-02 4.680588475948903038e-01
5.422023163721975680e-02 3.537634446587041570e-02 4.951191098967211435e-01
-2.260198725372522532e-02 2.495123688651242413e-02 4.206564624564956834e-01
4.622444806185164318e-02 2.955339871484723852e-02 5.110297942052122178e-01
4.919410037711390710e-02 2.297331493177392353e-02 4.516526511145815825e-01
5.759234935120802201e-02 3.264592964877349734e-02 4.763007821323065882e-01
2.736451119281871694e-02 6.188922982553735769e-02 4.396644521305515529e-01
5.790614613719075043e-03 2.720999457529781757e-02 4.089403673754161694e-01
3.292718791111676896e-02 5.764529493874947369e-02 4.403525502220015375e-01
5.161708700450543669e-02 -2.303512955499619277e-02 4.682089507672918538e-01
2.991117049947441403e-02 2.981003234809031371e-02 4.368697122718072645e-01
4.488869841876932248e-02 -2.288521715341695906e-02 4.559223323991100085e-01
3.862225539241814776e-02 6.641449821004018206e-02 4.501272802597907075e-01
4.950193618260966683e-02 -8.014040239473829708e-03 4.577393217300911865e-01
4.052227695092579934e-02 6.748762802119839810e-02 4.526502623827147742e-01
5.647828615155638804e-02 1.949452341943010841e-02 4.641866949790887098e-01
5.665163008212692475e-02 2.896725057878550905e-02 4.638719872391616206e-01
2.978698233964254330e-02 6.482030166789520820e-02 4.446649363498517693e-01
-2.547749987114412279e-02 2.556986528854461767e-03 4.321505992405186847e-01
1.974118135277939598e-02 8.182321665670564889e-03 4.336311799287357327e-01
5.004513367056160483e-02 1.117881270157389771e-02 5.031232574654080913e-01
2.956361401745409220e-02 3.684370641338870211e-02 4.364430880925653788e-01
1.387924536755429962e-02 4.978742948175080008e-02 4.227494026199134503e-01
4.850777491022562754e-02 1.653934242670980492e-02 4.509115035007900674e-01
3.351647017771744452e-02 6.065451767580310599e-02 4.424144912670768259e-01
-7.945607951637210370e-03 2.144072858155475839e-02 4.166348279494003215e-01
1.574680873843646578e-02 1.913283636870939663e-02 4.275603958131581894e-01
5.737274240788189927e-02 3.301544708412905427e-02 4.683447255520335473e-01
4.051655614922688303e-02 -2.111367061579897536e-02 4.482828914214386784e-01
5.452216028344344934e-02 1.168977931075788380e-02 4.904261370994101865e-01
1.289304960663525956e-02 -2.093399100190527704e-02 4.371347727350387569e-01
5.058933904173513324e-02 -2.331878910191695353e-02 4.661837634154378240e-01
-3.379398285194828294e-02 2.365515158269380913e-02 4.289947572076893700e-01
4.962078027670258767e-02 2.791296692777902114e-02 5.036507573566874063e-01
-3.118520190797210989e-02 1.308834569203993700e-02 4.323023728015706890e-01
5.742836599964472322e-02 -5.159226798753253906e-03 4.999474252652437167e-01
-9.938797483797206372e-04 2.401123265009954752e-02 4.105087028163035279e-01
1.483160700866501328e-02 3.606672377886206010e-02 4.232935319072506086e-01
1.760658842040725008e-02 1.471811229467240127e-02 4.307296894681167387e-01
2.932486536939290372e-02 3.722600260113002185e-02 4.362285034643165194e-01
5.710990474752641183e-02 -1.214117748080457450e-02 4.809121660921796271e-01
2.153309865731719772e-02 4.758203252326409505e-02 4.294698532956328640e-01
-4.364592844224036289e-02 1.500117953804004992e-03 4.453072260481524824e-01
-2.287261876496768723e-02 4.695558502531389095e-02 4.183592393206836402e-01
5.747324124278218455e-02 -5.321258659120678761e-03 5.000123487655745436e-01
5.587487493627608243e-02 3.920351317893847054e-02 4.865065501601433806e-01
4.494092490468281492e-02 6.740992527101397069e-02 4.712342823111038137e-01
4.968144086812977672e-02 4.088243986384761108e-02 4.529606228417525915e-01
3.156162769529161777e-02 3.019851255781826321e-03 4.387178993979519159e-01
5.593064815292561609e-02 6.086214803281595268e-03 4.671926278425506673e-01
4.593003735510723523e-02 -4.211492215687365377e-03 4.510116048954544987e-01
1.890758778370644003e-02 -1.322083118804912895e-02 4.353121636001763273e-01
3.800733951930952009e-02 8.645483538730201756e-03 4.421556146023664646e-01
-2.302919572031935334e-03 3.580879876549265123e-02 4.062701654289286868e-01
5.396530902079975378e-02 -5.349249491113684807e-03 5.150516902514939988e-01
5.082870255993333225e-02 6.114253771504304241e-02 4.675822132875072090e-01
5.720936999629330083e-02 7.249994123569920845e-03 4.808484809834860374e-01
-3.152249572663808931e-03 3.258339980061758165e-03 4.286860252016049810e-01
-2.664511498776732726e-02 2.046594875908360617e-02 4.245790020904742224e-01
5.047759896146269964e-02 4.691098814499962411e-02 5.007343839655802320e-01
-7.388133789364225747e-03 -8.651988988183232287e-04 4.303171996890167716e-01
5.041262591600150639e-02 5.247112587560657376e-02 4.932287661027041081e-01
3.911108523695475125e-02 4.554287925627228950e-02 4.433222401196084683e-01
5.208597413211921850e-02 -2.233096989516568029e-02 4.691028563713560695e-01
7.778986005707872430e-03 3.172827839427141972e-02 4.091926563400095085e-01
1.085986942012687846e-03 -1.526667760722098463e-02 4.346955127300278776e-01
4.036658277473969408e-02 5.428132782573689974e-02 4.452135939560151745e-01
5.799445770835730263e-02 -1.451706114349575645e-02 4.845773139925509398e-01
5.601166551391924958e-02 2.217738726923701442e-02 4.863232245362906769e-01
3.476103077094180177e-02 1.720355498141159720e-02 4.399694050746507656e-01
4.473249790820680444e-02 5.778050498518215450e-02 4.496058322663464835e-01
4.844027875936864069e-02 -2.224854099459217666e-02 4.617468230504109816e-01
9.070964016928570461e-03 4.279042517038855048e-02 4.152397154107457800e-01
-1.303133764685153462e-02 5.904497773453705250e-04 4.303325727212757301e-01
1.614473329170177524e-02 6.039124850528197058e-02 4.350209101496747555e-01
5.707436782119738178e-02 1.259349750551852498e-02 4.755455339601472597e-01
5.548481374751788875e-02 4.010617646440395312e-02 4.886880019074997805e-01
4.866683016489337099e-02 4.764440795605903028e-02 5.044042239082373591e-01
2.392391316887616109e-02 -4.081194503112206204e-03 4.353167695188741027e-01
4.526125535638322872e-02 4.011124566822993343e-02 5.123684238275183489e-01
5.571924635222721967e-02 4.593652781857940348e-02 4.705812949352298213e-01
1.576887499902084044e-02 -5.896729074072419932e-03 4.332798884471036338e-01
5.616713558623312452e-02 3.439073781843832861e-02 4.634045160784808215e-01
5.070224669028260828e-02 6.141709111613549710e-02 4.673833807489423120e-01
5.355954720499675123e-03 7.782018324533091294e-03 4.283602200334682975e-01
2.982811665176271498e-02 5.827939177453256986e-02 4.386263509580858311e-01
1.305853672620601279e-02 3.437352785983401743e-02 4.209431400699829018e-01
3.684086181472381177e-02 4.498707191369150787e-02 4.417046791117809623e-01
4.883482290393752895e-02 1.796874273102027492e-02 4.512434868292287127e-01
5.698712094000614459e-02 2.912736482186169262e-02 4.840978363097253045e-01
2.731337756507102796e-02 2.854811158913117194e-02 4.350815264044860520e-01
5.148521377531618121e-02 4.130258149947394625e-02 4.551711622805824087e-01
4.445726066206250743e-02 4.326480501963677477e-02 5.130098934781964770e-01
4.780755188234551978e-02 3.938286617862355940e-03 4.510308341789713293e-01
1.209893089970601535e-02 1.986378067927899518e-02 4.244701359717779066e-01
5.716563087864606069e-02 2.005984526065570858e-02 4.792019683086051196e-01
-2.140401009797725934e-02 2.869153321696082601e-02 4.185154056345168350e-01
-1.119482794942913174e-02 4.600388093377938588e-03 4.274011375103899946e-01
4.922261586638525255e-02 1.512176715490136034e-02 4.516536496094607500e-01
3.039085976969617756e-02 -6.336002958426041956e-03 4.380535628313788066e-01
-5.593946842214651133e-03 2.915977318964621534e-02 4.105033328525293790e-01
5.923138276096614335e-02 -1.176410232376810285e-02 5.099498934681454543e-01
-9.175560811060922556e-03 3.724193392855273954e-02 4.099084799301840332e-01
-1.812728185994273017e-02 3.645687984674422094e-02 4.139650919349982527e-01
1.317602957093959304e-02 3.049439334499014567e-02 4.217138585203404899e-01
4.421978716435943230e-02 5.197328740505750139e-02 5.046720634758508073e-01
-2.838328143095491043e-02 7.250619508744753604e-03 4.328330974289423261e-01
3.824261878366950335e-02 1.234167339269297801e-02 4.423745831801265127e-01
9.777555272422818952e-03 1.491123369232029601e-02 4.260704902637864611e-01
4.741538249014097539e-02 2.076855069003199356e-02 5.080224198140322889e-01
-2.354638408360067159e-04 3.086703629228551918e-02 4.052390176843462255e-01
2.342129973201993471e-03 5.046435938395459064e-02 4.134566598986003649e-01
1.385515155410366704e-02 -3.372497033472248752e-03 4.327449742563872492e-01
-2.051817328655840614e-02 3.827166612858472206e-02 4.145836264084503675e-01
5.512414997975336600e-02 2.517793225590997386e-02 4.901109402542754845e-01
5.722270593669032124e-02 1.768420582947549669e-02 4.762180578405535991e-01
1.720196131838919174e-02 5.555960764198750873e-02 4.272106733852192306e-01
4.537799994105129464e-02 -6.809172797014666559e-03 4.509879203995043606e-01
1.226213616028859824e-02 3.509511055672148022e-02 4.188767892195212617e-01
-4.273142332628069792e-03 5.404134222626447159e-02 4.166905815184888673e-01
4.073993757394533261e-02 6.698266027735426398e-02 4.766691506084348440e-01
5.236309016366905156e-02 4.808680445694073213e-02 4.562987430130586164e-01
-1.452188278520701210e-02 3.506822772220468537e-02 4.128962173912723022e-01
5.197671712265338612e-02 5.587587202296009914e-02 4.594584108951249579e-01
4.528969868608143101e-02 6.729195204105366257e-02 4.707035112122201492e-01
4.094987620290035935e-02 1.184675368938903871e-02 4.443950883358072090e-01
1.207813752247040295e-02 -1.375282898133958244e-02 4.351744952217649898e-01
3.879084964288617710e-02 -2.276661782606734935e-02 4.474180450899700734e-01
5.911021627669805351e-02 -1.124085022642820099e-02 5.086553729635275856e-01
2.290905032881845535e-02 4.518352381538685153e-02 4.303476837158126123e-01
4.844295700130978564e-03 -1.527943717981209391e-02 4.352790474349365613e-01
4.911016839239411985e-02 6.389134563488471641e-02 4.639661178424641097e-01
5.626465318637691518e-03 2.360537920378331586e-02 4.148113653934968337e-01
5.188351467944689321e-02 3.006290549483155855e-02 4.993140643150144609e-01
4.976459523756517067e-02 2.508148237367783043e-02 5.026006311978341579e-01
-1.410208885739450135e-03 3.709918125088709079e-02 4.064199817433747919e-01
5.177773149278749182e-02 1.842783970293063178e-02 4.967446695107292642e-01
5.506272880025914196e-02 -1.403175972912531350e-02 4.740803002917963749e-01
4.527267265554148906e-02 8.816785760144534717e-03 4.480730284729816937e-01
3.910260605379625026e-02 5.273081677843115961e-02 4.438064384419697639e-01
-2.276447665752327765e-02 4.216143685022770426e-02 4.157707885746847465e-01
2.449559321172343693e-02 3.335175389495686343e-02 4.324684567051318984e-01
5.584939603484387338e-02 3.313412616492556612e-02 4.891338988559297829e-01
-1.806030946045019542e-02 7.091730036696997953e-03 4.274395692701331573e-01
5.579699718495912536e-02 -1.270125042984311843e-02 4.763111402044143405e-01
-2.990762730775711753e-02 -2.431638517873838719e-03 4.362946514285728217e-01
5.234271007407421961e-02 1.111071230547389446e-02 4.973254713614942424e-01
5.797942008353394044e-02 -5.035766562348614403e-03 4.836152296826231045e-01
6.826171777807553409e-04 5.668786025065922912e-02 4.193159537983399132e-01
5.431430351067588480e-02 4.950658288841857518e-02 4.802689587246740666e-01
4.482437697938881221e-02 2.980295599387536992e-03 4.483754400963287368e-01
4.236471937281804240e-02 5.021174984668497210e-02 4.460616111691789731e-01
1.936980788414378180e-02 2.531500084409866579e-03 4.340293850769349482e-01
5.571156864837357309e-02 -2.635924480765152074e-03 5.085287324779056428e-01
5.022224620597116190e-02 5.926306525189321828e-02 4.590462901604679402e-01
5.397146621822929147e-02 5.253309559894357023e-02 4.674966734623452469e-01
5.539125007485502100e-02 3.818088337648548047e-02 4.902469894081671331e-01
5.307921437011478560e-02 5.437693924943828166e-02 4.739932914506217454e-01
3.459705474708241885e-02 5.616643845745279001e-02 4.411038097327481533e-01
5.606026764612916102e-02 2.233081042804447788e-02 4.862169330553638424e-01
-3.796609619326573454e-02 3.191673555006754436e-03 4.404570436488297047e-01
5.179922622677090444e-02 2.823554967584469486e-02 4.989864218064314905e-01
5.370311852858204726e-02 -5.607543702454058886e-03 4.659039471350022721e-01
5.051175343842703030e-02 4.409363761573801416e-02 5.030853579054946900e-01
4.634833381870454710e-02 -8.873725189905567676e-03 4.530798782384852230e-01
3.290776369926121103e-02 2.656964875387712172e-02 4.388473285471589103e-01
-3.033949024532671748e-02 7.968868210848150183e-03 4.337865984676731457e-01
5.453904744203393051e-02 4.905372519260373793e-02 4.640072765829691970e-01
5.684760372115994081e-02 -3.472070965138016226e-03 4.741433376915333842e-01
3.819516477430650453e-02 6.645275710082383658e-02 4.498237751273260199e-01
-2.595187909591892619e-02 4.465600787809661382e-02 4.192290892580927131e-01
1.231411494234240823e-02 2.524914338000464054e-02 4.224306469278948373e-01
5.494494431388261685e-02 1.930237133021240475e-02 4.602041330206365632e-01
5.303438997175986130e-02 1.743583937109605825e-02 4.935583442544999033e-01
1.500987636493033781e-02 4.032279508805370477e-02 4.232851594781671944e-01
1.205341556231183039e-02 3.784669184093024386e-02 4.195763923374867810e-01
8.248139861000546719e-03 5.911142067254517712e-02 4.234157587504678300e-01
-8.949184661107889571e-03 1.907355661954146520e-02 4.182932064395165628e-01
-3.038612009049645665e-02 3.142623142903320371e-02 4.231491125203117876e-01
2.471070899936191750e-02 5.768296084132808893e-02 4.341855127230020428e-01
-1.290135956931984153e-03 1.762608796806976533e-02 4.190399572085225510e-01
3.089468066994020476e-02 -1.505013603066503169e-02 4.394925389107420255e-01
-1.150451550422154981e-02 5.275937309879836362e-02 4.176297442076701283e-01
3.867867230410706320e-02 3.219910104996832195e-02 4.428727001540704311e-01
5.096564869727544106e-02 2.834360727668299579e-02 4.535080869859886010e-01
-8.059109165196887484e-03 4.984275623635493063e-02 4.126591624444977957e-01
1.472464856282555646e-03 4.063609737814095901e-02 4.080481409775058022e-01
1.171444418431075510e-02 -1.559084275080545659e-02 4.360226589707055789e-01
3.448100000450768365e-02 6.736700710677744064e-02 4.497847461814742376e-01
3.365395031714221719e-02 4.987250904972098664e-02 4.392874096571858789e-01
3.596311746873412374e-02 2.064044278593279991e-02 4.405897449546081202e-01
5.498694935853633281e-02 3.691187503358276528e-02 4.924529967685545850e-01
3.386814178841204143e-02 1.263733538556322498e-02 4.393048522518723797e-01
4.447641666551872125e-02 4.618235965717266966e-02 5.122558630130428226e-01
4.992954062493225320e-02 8.220089903078871968e-03 5.060166452334738940e-01
-3.309453469743210696e-02 2.022249577758944081e-02 4.294453750396806657e-01
5.121938487763112030e-02 3.241395134004357304e-02 5.012547899942743079e-01
5.124868647124986021e-02 9.674920182840105951e-03 5.011019712681324956e-01
4.838735317139412906e-02 5.860004544946149224e-02 4.844396259610393995e-01
2.327477305109001623e-02 3.391659075969544884e-02 4.312816297760917461e-01
5.657270652729050331e-02 -7.664614246312119288e-03 4.765518537741001426e-01
-7.681023384264125224e-03 -5.459576454840867933e-03 4.315504034520468712e-01
1.579771898191514434e-03 -1.352965901617674861e-02 4.337607704978831413e-01
-2.403629548093562385e-02 3.931052315852484602e-02 4.168733080154306547e-01
5.770155902462938136e-02 3.168641224256339012e-02 4.735790056778065304e-01
5.822099430711286799e-02 -5.930524520394538611e-03 4.904059163707876201e-01
4.666197465985256337e-02 6.704865312044329395e-02 4.663726357833837821e-01
5.561686084902313365e-02 1.447014452259362711e-02 4.862348623324752039e-01
4.688734486400497614e-02 4.615613323690116038e-02 5.086218013039884855e-01
3.952155677830089531e-02 3.908919176736430634e-02 4.435706556961983016e-01
5.920807383029422222e-02 -1.155491104581439325e-02 5.089133781434731496e-01
5.124276903838555219e-02 2.519878894451482200e-03 4.560877310091198678e-01
3.352835912031993520e-02 6.114123622518328333e-02 4.427072332510093577e-01
4.088432725464950096e-02 6.871882560508046911e-02 4.651787916459442229e-01
-3.555401687430492785e-02 1.913337083576325398e-02 4.353884597861401584e-01
4.775337109603899899e-02 1.139240419472463753e-02 5.089401801298963912e-01
-4.434159176549769266e-02 6.413032111400383643e-04 4.443825153448281440e-01
-9.821116263979917313e-03 5.300092265635278702e-03 4.267693685827587124e-01
-2.928227721072329190e-02 1.949951369125325906e-03 4.339844490918280395e-01
-3.484777561321293626e-02 2.002794739005595015e-02 4.331670826247378536e-01
5.763144868641893043e-02 2.989433682511737425e-02 4.697699608890389955e-01
5.059429633749136512e-02 4.148845599847580251e-02 4.539865081944609027e-01
5.700983434842177983e-02 -4.326228587994752385e-03 4.758320050131443213e-01
5.750903119885753673e-02 2.287967508512352838e-02 4.726157430998064735e-01
4.862530493742082266e-02 -8.677115498600358051e-03 4.562236602234172045e-01
1.483672037124741765e-03 1.092058634252680328e-02 4.248290927867486855e-01
-1.005721415376536771e-03 4.681474398861268371e-02 4.106975457887037106e-01
3.674899635509097651e-02 -2.296831842619186104e-02 4.459893547164643923e-01
2.277992743829732047e-02 -4.989180349687056398e-03 4.350456441537167152e-01
1.859189055950804387e-02 8.389164695101801808e-04 4.337946550619998787e-01
5.078803198395346469e-02 -3.064447192585818044e-03 4.577043473097489601e-01
5.702100843819501996e-02 1.632971299839754142e-02 4.698257295637937592e-01
2.386555174355686759e-02 2.547195513873741490e-02 4.326863549960371924e-01
-9.316009165372144893e-04 8.779625266595401240e-04 4.302346475182565744e-01
4.108346375670202805e-02 7.134117520513398591e-02 4.587308706981731432e-01
-2.244282777864969533e-02 1.200333761019654367e-02 4.272373764906186588e-01
3.115631750589513416e-02 -1.859991185270850711e-04 4.387167366022157178e-01
5.570363969128479253e-02 4.117680882660555708e-02 4.841167550384430918e-01
3.542454768720472696e-03 3.644160678642961726e-02 4.074263271793043262e-01
3.284904575749243716e-02 9.699337903665432997e-03 4.385258976712110845e-01
3.974892011905046402e-02 6.911916899218976951e-02 4.650400306686141016e-01
4.549896066194746708e-02 3.787479130877496880e-02 5.123191880028208356e-01
5.511041245979144548e-02 4.763365972513459307e-02 4.678641453312212262e-01
5.462661895668510792e-02 5.216121093560467312e-03 4.958547687374655899e-01
5.017427149179897600e-02 6.037679031285685116e-02 4.742937814320067891e-01
3.209740410185972503e-02 3.015774572854520302e-02 4.383446085997982911e-01
5.599982133988395255e-02 4.272649549197838487e-02 4.662522025726492658e-01
-2.912522869043512874e-02 8.227654324346113379e-03 4.330589039780471383e-01
5.451891616190142342e-02 1.573563397660321383e-02 4.893342022524163615e-01
5.327211389894744020e-02 3.268972253162393676e-02 4.969366064328666344e-01
3.183267986476550487e-02 -7.647541833052411663e-03 4.389259535487931019e-01
3.721535461592311023e-02 3.738553344326755318e-02 4.419123463841768684e-01
3.485691849531798864e-02 2.408036141815896383e-02 4.401124232347692899e-01
-2.844050390402142262e-02 -2.046888241781354666e-03 4.354101052797264004e-01
2.953160334360918626e-02 -2.292903942923431651e-02 4.406673556589245089e-01
7.912309354290087901e-03 -9.719638558986257951e-04 4.314584967840921492e-01
-3.069940450258367565e-02 3.412447277439053378e-02 4.224410481043859300e-01
4.291689465691440886e-02 6.828292861155063620e-02 4.647552822511180071e-01
2.534962733197439200e-02 4.672742625366809593e-02 4.323746290011176718e-01
9.845290514524276948e-03 1.776433054299616371e-02 4.240809273644902677e-01
5.654621817798245742e-02 5.429041021004580789e-03 4.876120304722607601e-01
5.439996727129630533e-02 5.127034103918311908e-02 4.697070812133947726e-01
9.983463040964864893e-03 3.128522875716102658e-02 4.150045535584258594e-01
4.990029984683455599e-02 8.075338582645547741e-03 5.063471202707789942e-01
1.423793522913583375e-02 2.054045044038734641e-02 4.257517475839894816e-01
5.346099394043533903e-02 -1.372265146736168472e-03 4.630949663265476746e-01
4.042423871083485054e-02 -6.339451974793162276e-03 4.455098015759755281e-01
5.759580251909798831e-02 2.921813034559557487e-02 4.693759928630810707e-01
-4.351801085524509977e-02 1.616452221881518794e-03 4.446706390847975365e-01
-6.245776524549776637e-03 4.646003356070141366e-02 4.106395832516941957e-01
-3.731952168738257494e-03 1.307333034763034224e-02 4.224914658250478738e-01
1.963540072901070327e-02 5.915960163369178570e-02 4.324512727110729760e-01
5.219494269542632181e-02 5.443426180567605133e-02 4.805202145269295011e-01
4.960202847317612268e-02 -5.703330025341790677e-03 4.565737123504267081e-01
5.620291473014501354e-02 1.892945484479090223e-02 4.634917146109372443e-01
3.287683895555903752e-03 3.704050648668865547e-02 4.073771542423379466e-01
5.224978716010119512e-02 4.540754993769436504e-02 4.973317111393856793e-01
5.406151162477731975e-02 -1.837406105316122251e-02 4.728543989093440536e-01
5.824178524887795028e-02 -8.072905906503679424e-03 5.030062254535919708e-01
4.824959551361963223e-02 2.496492119996603434e-02 5.063699496755048601e-01
5.723679150619841172e-02 6.686201106834336640e-03 4.810093343562621415e-01
1.225692088644755873e-02 -1.410408077834887641e-02 4.354002187580250371e-01
5.084879542753297649e-02 4.420348892414949216e-02 5.024348660759497820e-01
4.868282189211028260e-02 -9.334725533924080393e-04 4.530563252883079706e-01
4.633885802674845428e-02 -2.172523305512441896e-02 4.576834423994950996e-01
5.470034552388430837e-02 -1.167762542113051204e-03 5.085338516116733043e-01
2.375653436179507583e-02 -8.753386233039431655e-03 4.357362145394116371e-01
5.100550277331626636e-02 3.486603392366179055e-02 4.540715735600776570e-01
4.847187516271696944e-02 9.821791567128557512e-03 4.508897046904772887e-01
-2.803342467876907690e-02 1.458372383088839784e-02 4.293495747176437338e-01
-2.750183337506596423e-02 1.702336986321676543e-02 4.271972807326147592e-01
-2.640790856669182618e-02 8.670436960634426288e-03 4.313421927304847969e-01
5.762571038395911116e-02 2.988354557380957371e-02 4.696387141427174061e-01
5.738455185028067118e-02 2.864223213013954855e-02 4.804159218614004190e-01
3.584134477708528221e-02 7.726619696434589360e-03 4.406114338801940256e-01
5.417984882009665298e-02 3.826073273924571888e-02 4.949094740363862432e-01
3.286446718445153875e-02 4.044844951595174404e-02 4.389611491767641538e-01
3.950533420641287596e-02 2.317879806874227622e-02 4.430114230703899869e-01
-4.447035002941842306e-03 5.077119822401369303e-02 4.131247288957978214e-01
5.175558942468982265e-02 -1.694517238943375054e-02 4.671445523818806289e-01
-3.139456461681214977e-02 2.432060500432573630e-02 4.262533941794898196e-01
5.909464841856823525e-03 3.583185969278522565e-02 4.095471508108159409e-01
4.976346400841463041e-02 6.313216125618095753e-02 4.646194592957709757e-01
5.390122165603037502e-02 5.072954870956856294e-02 4.610923277854260260e-01
3.488281506780453733e-02 -9.826255623841581577e-03 4.412861841397976992e-01
4.573509400891044574e-02 5.077520818367476513e-02 5.063505383961215411e-01
3.162067367789334060e-02 5.534292746357380444e-02 4.380740846977283498e-01
5.232316813239012987e-02 1.612108368198398797e-02 4.953441627302695438e-01
4.404235406613391662e-02 6.879651878047274294e-02 4.620355180322386901e-01
2.150263442732998007e-02 1.860844569146168428e-02 4.319788549026607472e-01
3.020719031895597109e-02 5.184052535210231794e-02 4.363917556828035837e-01
2.948527501928911373e-02 -2.331038712626770301e-02 4.407231093811436184e-01
5.444042890435712989e-02 4.694187241135726329e-02 4.840863766991097550e-01
1.417941784703934463e-02 -7.358992215322494174e-03 4.332132541609122200e-01
5.442695284570227277e-02 4.725807293782977817e-04 5.047096257364245275e-01
2.352111460630355866e-02 6.434163034347432919e-02 4.477456795988346561e-01
4.756920950547766092e-02 1.011081998643622790e-02 4.499723076012605572e-01
1.947565377819703708e-02 3.833404426823432826e-02 4.278795285063972109e-01
-3.445510117789506166e-02 7.968305828014721204e-04 4.373936141299978875e-01
4.836781611814557763e-02 3.598247500139914457e-02 5.072234491270887213e-01
5.142657936780895694e-02 5.121473911039966381e-02 4.918438519425586963e-01
5.063970381429035161e-02 6.156328059831936428e-02 4.667004644204563180e-01
4.487112756833140648e-02 -1.668008622954229858e-02 4.528760641818616040e-01
-1.807234824118895099e-03 9.822191941386664016e-03 4.247714374014482375e-01
5.645009801107728903e-02 -2.310878651967039100e-03 4.723141932482919914e-01
4.821773394968272008e-02 -1.511319455456760531e-02 4.584514018476035790e-01
5.645058909816028786e-02 2.052643088872404403e-02 4.639527063494363612e-01
5.375368597001623644e-02 2.319001891302392357e-02 4.925840942436029990e-01
5.375302539613004138e-02 7.927809463416609845e-03 4.953805822542160509e-01
5.030706504274556207e-02 4.927770881517646445e-02 4.539522191683906804e-01
4.637438940423643102e-02 6.134504857778622783e-02 4.526545856493766062e-01
2.141660613448081313e-02 5.962965707878900568e-02 4.339437665587516646e-01
4.965944147865126307e-02 5.045995010218045501e-02 4.987061649189027390e-01
6.112762502942320486e-03 6.099182577833311969e-02 4.271157735874003269e-01
5.321936089422054511e-02 3.657296990273880416e-02 4.979589481827733088e-01
1.011132406213474666e-02 -1.933515644065229161e-02 4.370727323316737634e-01
4.410869619895554233e-02 3.928106707097264033e-02 4.471275578322503885e-01
-4.348650676981814095e-02 7.149786457262652210e-04 4.424361079090049498e-01
3.595559426577427803e-04 4.794614313993660060e-02 4.113785789116111702e-01
5.383579691852145854e-02 4.265893759453275036e-02 4.952705432809718644e-01
5.708941724636582699e-02 1.678184541970009422e-02 4.704366468638913057e-01
2.998112331975796852e-02 -2.676154566766446741e-03 4.379185176393493029e-01
5.063094411127749134e-02 4.698992682190522574e-02 5.001732900692911210e-01
5.388700268734212401e-02 5.180012444020942741e-02 4.782582434867518328e-01
-2.911482840855292992e-02 1.153626793396174931e-02 4.318721518495446943e-01
1.151589960370537173e-02 3.536356420379554999e-02 4.169378470697169270e-01
5.751946336372983082e-02 2.439941906658320975e-02 4.785589660684717583e-01
3.669646725925364283e-02 5.752504295332957346e-02 4.430515130013534808e-01
-6.630879176682208040e-03 3.064449667581792616e-02 4.107061845536678080e-01
4.785098231968118454e-02 6.291962434669800923e-03 5.131467327897875075e-01
1.541728239942888323e-02 3.869521802891729562e-02 4.238485683637928658e-01
5.181077596094788712e-02 1.935680477509636038e-02 4.966917357823243395e-01
2.559625679757634303e-02 3.224525363823435575e-02 4.336073768201699763e-01
4.807190775508722591e-02 2.612205428633726512e-02 4.506340085007419782e-01
4.455281598918885838e-02 -2.173906632606652581e-02 4.547880407720095164e-01
3.198365096450708767e-02 4.167620770727202550e-02 4.381899835327946469e-01
2.055410210916334274e-02 5.635976506071154607e-02 4.303003728019879626e-01
5.261013962290450596e-02 1.568244065352878899e-02 4.946570291762286686e-01
-1.339057602314227841e-03 8.618419700567323330e-03 4.255917331344233889e-01
4.989734846263323836e-02 4.989059924856813905e-02 4.535255972743392761e-01
-3.361430647004193251e-02 2.921343454634947948e-02 4.267532311446455284e-01
4.936606182018471456e-02 1.584651659040448024e-02 5.023542252591749468e-01
-1.840458515829383052e-02 4.984614078787631686e-02 4.196227384827186380e-01
4.015827465173421595e-02 -1.945300546953964912e-02 4.473911807907716698e-01
5.600880679196375278e-02 4.180240912015138754e-02 4.782680127364363210e-01
-1.031749016489588548e-03 -2.568648168499471952e-03 4.306907494307278816e-01
2.630699358022168394e-02 2.072374732742600714e-02 4.347232862902942196e-01
3.233311150582681565e-02 -1.619042344171783485e-02 4.404064528802107414e-01
-1.540813882822386280e-02 4.787676566910342019e-02 4.143104601238021822e-01
4.969099353547440368e-02 -1.460115429398559095e-02 4.615216327708950850e-01
5.229130619862498719e-02 5.411546772608880063e-02 4.811793641146603351e-01
-6.113096447070314084e-03 4.922573503337103473e-02 4.115770076632069285e-01
-3.207879774548813567e-02 3.276015131732097629e-02 4.240363606449738532e-01
2.359005951593506900e-02 -3.758343468655616845e-03 4.351995647651084598e-01
4.764212646341517421e-02 1.297224175135401440e-02 4.499610893867602712e-01
4.582786712300283838e-02 2.167816376154095212e-02 4.484414984246010705e-01
4.777442031065829570e-02 1.432277142812539428e-02 4.501473535194278619e-01
3.463902738630576100e-02 2.278656646647097411e-02 4.399306088004484860e-01
2.544284533347476382e-02 3.476659167783024973e-02 4.331818322642318475e-01
5.261644408733211903e-02 5.670873187872668697e-02 4.625524693387187969e-01
5.347989674563446288e-02 1.813692192737723129e-03 5.057314052219848977e-01
5.539806264853725654e-02 4.682222529278946138e-02 4.690486226133633307e-01
1.961511053419591477e-02 -1.625353435076182934e-02 4.361927407802376200e-01
-4.557491776306407498e-04 4.583792375404164426e-02 4.105401788439993482e-01
1.295421270082564198e-02 -1.914410369654088876e-03 4.323816243662383929e-01
-1.054842549582810443e-02 1.106808821731442884e-02 4.239049631135146101e-01
5.484245439685688644e-02 4.242217160124802516e-02 4.904945583354252125e-01
5.169896064467000701e-02 1.650151461835627558e-03 5.105705846165546902e-01
-2.886759490196552647e-02 1.469817305376762070e-02 4.297452188805366835e-01
5.658997743674049064e-02 4.252973803436305503e-03 4.714482847819043698e-01
1.135241034777545455e-02 1.143855017246351441e-02 4.287976540332170128e-01
4.347111514143724847e-02 6.852712773809138680e-02 4.598878109710564099e-01
2.911322811728345172e-03 6.101012714347169713e-02 4.243448326214888655e-01
2.530781846004018926e-02 -1.457687027510104483e-02 4.372241163035474054e-01
