5.698325981262099271e-02 1.161003369018346644e-02 4.737833483758857600e-01
3.010974406866330499e-02 6.363882146434758635e-02 4.426785644890151583e-01
5.665244686035737082e-02 1.065867303206839180e-02 4.697543647971268999e-01
1.466044543400399879e-03 6.032859778549468609e-03 4.284409071321829132e-01
-3.424872532673008119e-02 8.805922988799386869e-03 4.372219201525005539e-01
5.721598307907070635e-02 1.831336753695396447e-02 4.777260374839480406e-01
-5.762827106764015044e-03 4.629830152197354776e-02 4.113022576630512295e-01
1.513288065255167722e-02 3.155703476661510330e-03 4.330216208763522645e-01
4.668529904022108296e-02 4.187280348265617208e-02 5.101320279365977317e-01
3.018077212708737689e-02 5.751422333403924392e-02 4.389025359593111131e-01
-8.585606602264272275e-03 3.533409611133520468e-03 4.286594433269846904e-01
-1.885507836282086097e-02 3.812377960769948882e-03 4.297340755676871682e-01
5.775256015715968250e-02 -7.912374901545575837e-03 5.102025798643508026e-01
1.145646324656633686e-02 -2.167655738868145762e-02 4.374519870941767641e-01
3.114177975602214904e-02 2.488885649045374793e-02 4.381125091984232056e-01
5.642275252646179740e-02 8.903886627736352227e-03 4.691656768075659345e-01
5.294257328301091303e-03 2.712646606255337753e-02 4.099142202238677535e-01
3.465583057546085116e-02 3.585293561529558082e-02 4.407341970819613208e-01
5.678193157829688337e-02 6.634348918278141875e-03 4.839331506898955637e-01
-4.944182132922193308e-03 1.212366650938303224e-02 4.235375478211786393e-01
3.655001585864929223e-03 4.698636326298070293e-02 4.136687366913037178e-01
5.467907691989939284e-02 4.619332745283390163e-02 4.834777272022358074e-01
3.631939902166287509e-02 3.483824965770724452e-02 4.417798592120634193e-01
5.282438770911301179e-02 5.599030635321606414e-02 4.640173089481736124e-01
-4.474917746480573449e-04 5.463918167905234408e-02 4.179480502183738899e-01
-2.162877260633642301e-02 4.892449188606257104e-02 4.210116209247118380e-01
3.358284672951655780e-02 4.739156691300664727e-03 4.397654881948193650e-01
3.237029366536078867e-02 -3.055634726859002021e-05 4.394980505783122604e-01
4.203328009981291413e-02 6.874348276958669457e-02 4.647002377950566476e-01
5.995703326744725691e-03 2.514580613894440431e-02 4.146753271674271657e-01
5.041229358257826726e-02 5.707340700966542779e-02 4.574624593905900483e-01
4.137499020721475962e-02 -2.366088398611003452e-02 4.516955349381512885e-01
5.734058117445527125e-02 3.485696470145802778e-02 4.738530161281809261e-01
5.301083098983248865e-02 -1.266396693129492532e-03 4.621871808090517453e-01
5.371303053065849820e-02 2.680174636383406833e-02 4.575225677066577235e-01
5.554165643603129615e-02 3.423671294124402964e-02 4.617309242566347560e-01
-2.000460064339074431e-02 1.221310870996654765e-03 4.312631670541224316e-01
4.980248452367468798e-02 7.341060336107549725e-03 4.525843825857140401e-01
6.175219993603733165e-03 6.063076378779685277e-02 4.264332520551696870e-01
4.061615058859963795e-02 5.687919064962781296e-02 4.464970167103884946e-01
-1.832755562801893084e-02 3.622892197948905657e-02 4.147375417326642499e-01
5.592794482026103298e-02 -7.104778850528200781e-03 4.733404889656483983e-01
5.676055039658359225e-02 1.612845638562854927e-02 4.809488778348674498e-01
5.456919715675864757e-02 4.698091515594092493e-02 4.831394517047455373e-01
4.174312637319287089e-02 9.616460820636014289e-03 4.454362934993504330e-01
-3.420088163688884964e-02 5.375613361614945893e-03 4.383412506489127725e-01
3.659853001242297302e-03 4.153735759560205076e-02 4.105552911103830249e-01
5.710451481059484330e-02 5.203801511969093074e-03 4.766013020289895930e-01
3.585704056796548689e-02 5.897898261410523812e-02 4.435795543250274919e-01
7.089349237156977214e-04 -1.568481400403868437e-02 4.349605226757118359e-01
5.754277052129860848e-02 2.360534303104798101e-02 4.741249131495458569e-01
1.403181312158905195e-02 2.200207393284594332e-02 4.257764384012143188e-01
4.490152946450354232e-02 -1.202666784235706388e-02 4.518914458459665773e-01
3.787737828426301218e-02 2.499231762378699429e-02 4.423780770306047772e-01
4.205590492326257562e-02 -6.114633002920195730e-03 4.472767438274212193e-01
3.114550365793584963e-02 -2.507413439740535654e-02 4.421837078007189170e-01
3.470516354489027594e-02 -1.876734334214534214e-03 4.409403185412944515e-01
-1.771571312989274685e-02 2.376707018737430482e-02 4.196855284257265395e-01
-2.578387385550804517e-02 3.504313413842349845e-02 4.190885298900320910e-01
-4.259899522825372556e-03 -1.021553522624124577e-02 4.328637083630466065e-01
5.704048226754643292e-02 7.083475104739483247e-03 4.816542871061509357e-01
5.203363393564290618e-02 4.421283907173138156e-02 4.997781564291753909e-01
5.480052853861762385e-02 4.595501755556676005e-02 4.620176394701373535e-01
4.957645544158164469e-02 1.704899968421947840e-02 5.021126858452927832e-01
5.744484337961845016e-02 -8.042345416675080946e-03 4.817615047725854471e-01
7.741909479969420922e-03 -2.419386337595295401e-03 4.317988784383836043e-01
-2.164716582815823936e-02 4.433571767482447079e-02 4.159506177257762394e-01
-1.364849112261195055e-02 3.247388863092118966e-02 4.139462925670108762e-01
4.849748976722820237e-02 5.390017176013196104e-02 4.530374056009017214e-01
5.676840112317220466e-02 1.935806029725748237e-02 4.655826597344541740e-01
-1.854019593887584402e-02 3.557817412084941788e-02 4.150574924554695233e-01
2.616041523632351914e-02 -2.197403402582462709e-02 4.390371341628873658e-01
-1.830862736285676987e-02 3.361359055571307153e-02 4.155864436536108597e-01
-1.518120692198814820e-02 9.658868061626408111e-03 4.259455654944078740e-01
7.668212980677232768e-04 2.765284751335179633e-02 4.076496463089233080e-01
-3.024853939187040555e-02 2.502848097422971305e-02 4.255219324427808592e-01
5.513716981700556019e-02 -7.168233388064593897e-03 4.704286097219276264e-01
1.159313977428630404e-02 6.122443825067633988e-02 4.342028100601134089e-01
5.120515480834721134e-02 3.822358922857806152e-02 4.550488148117551868e-01
1.707490572538266846e-02 6.665575955767745302e-03 4.334278852891555456e-01
-3.338881938063287952e-02 1.725525949302428308e-02 4.325519928406401093e-01
-6.332571840190322210e-03 -1.044595816603139000e-02 4.332032234566650652e-01
5.632969522954466707e-02 1.927872188862812114e-02 4.835813099811104299e-01
5.166406773229822308e-02 2.038879964083533877e-02 4.972011488393712209e-01
3.256519570147627801e-02 -1.034099004559670826e-02 4.397789241148983286e-01
3.620919443385532677e-02 -2.449003391920460265e-02 4.462541464750617304e-01
4.924756574207802412e-02 5.256118916465882251e-02 4.965675117058086507e-01
-3.396391768060275096e-02 1.660504073091279356e-02 4.342174511723931318e-01
-2.299975645990825004e-02 4.747803033329769246e-02 4.199624778929022528e-01
5.699416410332460575e-02 3.437330917121186186e-02 4.671947705087061697e-01
1.221183184389357072e-02 2.376016875408068149e-02 4.238146126300314509e-01
5.612447352992520899e-02 2.890306369832452982e-02 4.874377441049754789e-01
4.522603373477395577e-02 3.261081024053166799e-02 5.130151267665734593e-01
4.741945592825274475e-02 4.855271625199249902e-02 5.063865397827229664e-01
4.347510028504106977e-02 5.095176184669489294e-02 4.475399262347095619e-01
5.474253458524628441e-02 6.035880734849778662e-03 4.635519150653549247e-01
8.556251135995089283e-03 -7.942245016560264131e-03 4.326927403132186933e-01
2.506079193599007084e-03 -6.337831090271279534e-03 4.315991060279022462e-01
9.329876287700954174e-03 -2.166749476914086453e-02 4.376972639664739040e-01
5.020037595135484060e-02 6.024645019351525937e-02 4.747743149967410536e-01
5.273225496596464779e-02 5.634683993615515613e-02 4.639576954184719826e-01
5.088701494287943550e-02 2.822229373348746073e-02 5.011526638923456956e-01
5.583348293253913991e-02 3.466537601264104568e-02 4.628550124718568415e-01
-1.013055126257959848e-02 1.690291531965609079e-02 4.210435154334382646e-01
5.513860478399990050e-02 9.465769722372525258e-03 4.898904434140539110e-01
1.222308817018937649e-02 3.741316756385511949e-02 4.210024734924953660e-01
2.570380107592313765e-02 6.129110533197485583e-02 4.385837681565004087e-01
5.284665789726986085e-02 -1.957791129691832666e-02 4.702418447931127621e-01
4.988283316766334297e-02 1.131479639714977337e-02 5.035565098187164690e-01
3.594472185984568489e-03 2.224219236486740109e-02 4.153887634214089020e-01
4.699020318640868138e-02 6.704315140391810257e-02 4.648485098775460012e-01
-2.404323147115881160e-02 1.909486890392661507e-02 4.245064020798334226e-01
5.100190812503711119e-02 4.947092943716585936e-03 4.552280372146059739e-01
-2.349658482706448726e-04 4.414380283061410809e-02 4.110525858840516356e-01
1.029760987755460461e-02 3.703042146363048209e-02 4.172810415867793665e-01
5.698492911357488921e-02 1.163154969373482450e-02 4.747881567333280262e-01
1.407860642254215970e-02 5.693110459772784265e-02 4.264589843680655634e-01
-2.258554356493281540e-02 1.202084323983276283e-02 4.276506231851112672e-01
5.639304458706774492e-02 1.003306029145593567e-02 4.680838440157558678e-01
5.542522316814336991e-02 4.456744457810999510e-02 4.793646673977830508e-01
-1.556325627976488241e-02 4.169157795206838990e-02 4.128306383535960133e-01
-1.017433584090864963e-02 -7.717414388150348366e-03 4.328227725295638040e-01
-2.998162336311784720e-02 6.042000901761020518e-03 4.342764615176987197e-01
-2.385727170422342544e-02 3.307199991918306076e-02 4.186762541470791521e-01
4.587139477025375250e-02 2.230825979260991909e-02 5.115808928525167332e-01
5.356680463893681576e-02 1.323117019573416368e-02 4.924993505239120828e-01
3.744070661137612749e-02 2.768802235952092308e-02 4.422257021471260874e-01
-1.142215726469404322e-02 6.695620640230695933e-03 4.266054019185086532e-01
-2.343191633527951651e-02 -2.826116589635802034e-03 4.340385553895189652e-01
5.360643944400717009e-02 2.710081496551736135e-02 4.946107249064815026e-01
1.353691677268569794e-02 -1.939013598267318519e-02 4.368135189621642489e-01
5.145027230414698366e-02 9.849932959775500874e-03 5.005523225176115032e-01
2.846889417491576049e-03 -1.250795135440768181e-02 4.334552707667495564e-01
5.772727865228872990e-02 -7.578183756557343304e-03 5.097420398441681044e-01
2.057503198586662155e-02 5.908114865339929300e-02 4.335321879494350994e-01
3.047531487765399102e-02 6.061917897193842830e-02 4.411894318233137158e-01
5.062065689898144483e-02 -4.201501734957964126e-03 4.582235720549768243e-01
-1.316459559665964993e-02 1.790626907739192863e-03 4.300802908752067721e-01
3.353020469066524123e-02 -6.952465723829820421e-03 4.402360320451370601e-01
7.317116778183870018e-03 3.670343202615739681e-02 4.120006029207539666e-01
5.301374948105568030e-02 3.104527118016164530e-02 4.567222415881569408e-01
5.439510598956505405e-02 4.500707689262487682e-02 4.893838136751024193e-01
3.346266795624968510e-02 6.624763240484277116e-02 4.490975449113632778e-01
5.682674476500937377e-02 1.821676483433722765e-02 4.805863630075303261e-01
4.584321995274406869e-02 -1.579277224474952279e-02 4.543137428425252922e-01
3.958606183052656297e-02 2.615785427050524095e-02 4.435603558521354350e-01
5.439383025611510547e-02 1.255494921833501254e-02 4.902651131536258089e-01
1.017789289402432421e-02 9.492650540025354342e-03 4.295669694896893653e-01
5.697075484146878199e-02 -6.679288053944960283e-05 4.926058204249406658e-01
5.228702199146782748e-02 5.677501825059361878e-02 4.619969096560804789e-01
-1.385434212703664722e-02 -3.305579083561406388e-03 4.318136162587857818e-01
5.715275375039578776e-02 1.703584730030619637e-02 4.759653279747931842e-01
4.172745373325476709e-03 9.273871584783960342e-03 4.276288014849939922e-01
-1.460068625015406574e-02 3.057354141541383449e-02 4.152443109312754510e-01
4.083012720186148664e-02 6.795951520025794723e-02 4.699792426030301451e-01
4.997413732487319959e-02 8.900122124058275699e-03 5.050153205842363713e-01
-2.624430043946676325e-02 2.317865424548162800e-02 4.234963126027060931e-01
5.241068093356097968e-02 1.732644635524795097e-03 5.091326084050299405e-01
5.499519655171792448e-02 2.320116828861388050e-02 4.603849335191205761e-01
2.695854755841192371e-02 3.569501590073631547e-02 4.349318327255721206e-01
-3.146334681697476876e-02 -2.190333856156396683e-03 4.371403094679768286e-01
4.792206560867064147e-02 2.125415544973995388e-02 5.069803696401075088e-01
1.896344047183348008e-02 6.048195361662370151e-02 4.369216645086845818e-01
5.255393568708418423e-02 -1.774015836073736252e-02 4.691918229684989838e-01
5.302836725695068282e-02 1.010583081953400283e-02 4.577760236923335557e-01
5.174490340567962365e-02 2.671329401811688847e-02 4.988161586053335150e-01
1.828038077621725165e-03 5.496034660243068193e-02 4.187876777724673372e-01
2.172355168207417558e-02 -2.323319129063183483e-02 4.376562008617135846e-01
1.205241972806064994e-03 3.254788655268901071e-02 4.056123110036038426e-01
2.835272953096054996e-02 4.227799099779120523e-02 4.357548034863590325e-01
-1.725666756690528991e-02 2.934954159384909472e-02 4.168178484743994550e-01
-3.263602155328974158e-02 1.837823171381623710e-02 4.301859476056656972e-01
4.937519007905955687e-02 1.460693171465038930e-02 5.028640551869785202e-01
3.877050500710460534e-02 5.791227857241783294e-02 4.452017341089156699e-01
4.290426205202974019e-02 -1.799615201004572604e-02 4.504702918759201924e-01
5.554753536012672910e-02 4.087780866705047894e-02 4.879343690844126225e-01
-2.015099667706467170e-03 2.009492075619907087e-02 4.167111880792389589e-01
3.175148957725538318e-02 -2.306832100312015965e-02 4.419708981082824395e-01
2.113255911913994485e-03 2.903899103306814902e-02 4.061399822100248413e-01
1.284910856128041508e-03 3.216177041638625111e-02 4.057208920075343062e-01
2.976871753474930049e-02 -1.112670548697122612e-02 4.382011699540663274e-01
1.811246603013467668e-02 6.280988961291392170e-02 4.432855051264702473e-01
4.379692624030058490e-02 5.179776542231224329e-02 4.480013128870578565e-01
1.589612250526805520e-02 1.710271348436522357e-02 4.291270828643369284e-01
2.831045870143011206e-02 4.210135448350594417e-02 4.357295186462250558e-01
-2.491116042434228170e-02 2.979420968269804945e-02 4.204045128737206594e-01
1.057321128090490253e-02 2.705158628057711609e-02 4.205602245737552480e-01
5.279423926244768139e-02 5.606228146459010103e-02 4.638306352024111900e-01
1.294519959711625673e-02 6.154558806448169606e-02 4.379361309595731222e-01
4.299859368154342054e-02 1.590653786502183378e-02 4.461932956036671061e-01
5.395743732535095150e-02 -1.410000509220018031e-02 4.709355091961406892e-01
2.119421042179139500e-02 1.145036189767252230e-02 4.336656713958906284e-01
1.888436505410502966e-02 -4.558400255090090322e-03 4.340769966817563663e-01
1.958398680389005983e-02 1.030990511333972418e-03 4.342678004397824143e-01
-3.594689692920708529e-03 8.984130961157212741e-03 4.255721582264096470e-01
5.261434395449655216e-02 -2.000976720319055935e-04 5.116416083447079544e-01
5.798336673540541858e-02 -2.668204653907172742e-03 4.848367330838364575e-01
-3.263364973547714515e-02 1.773588488524339285e-02 4.306203660967860003e-01
5.774795163663736658e-02 2.560414328500232664e-02 4.767465869462375050e-01
-2.944538318039722352e-02 3.215084184671793827e-02 4.225502237605384681e-01
5.703552209062864864e-02 8.366212335423766494e-03 4.779379460659800571e-01
1.294385529772914059e-02 3.646251988344315076e-02 4.218383246559757604e-01
-3.268209267365185938e-02 1.566140129810019224e-02 4.321424128875653303e-01
5.594792080415110676e-03 -5.596004073776186458e-03 4.317835585972222834e-01
5.134786737022860315e-02 5.197000827226144065e-02 4.560502892079222326e-01
4.343828419978486288e-02 6.561315917228159600e-02 4.789997235280312182e-01
3.028739509302338928e-02 -1.289030358558071986e-02 4.387932627422821974e-01
-5.128931938145274774e-03 1.034620485388094979e-02 4.245653258304245559e-01
4.875050622557742380e-02 3.290456865632489496e-03 5.146368532692134901e-01
4.925205094734006611e-02 2.866536241479369918e-02 5.050624247644501796e-01
3.507155066908919372e-02 4.120540109983077820e-02 4.409045806919255073e-01
4.830242604499020848e-02 1.784488917080286063e-02 4.510013066974081775e-01
5.253459111930078307e-02 5.434678533352430008e-02 4.789282559804534656e-01
5.659787206668675380e-02 8.258752382067344189e-03 4.710785336641101217e-01
-3.055169870798449955e-02 1.331422646604180776e-02 4.320660955903606881e-01
5.193412423617366214e-02 3.182323397677334909e-02 4.998088371801707730e-01
4.768100487888776023e-02 1.481000973983554771e-02 5.073362869272977083e-01
-8.209675377335082930e-03 1.781251269954817196e-02 4.195746207674749817e-01
5.544423145612627918e-02 -4.873827186514371503e-03 4.700033227857586260e-01
5.363212559190033701e-02 4.954391052430162645e-02 4.862963672985123886e-01
5.693703952488694126e-02 -1.665682941173344048e-04 4.748744967127254135e-01
4.131137869258640766e-03 4.885756450514021354e-02 4.149678401232324010e-01
4.690051296655655538e-02 3.193024273443841737e-02 5.099962508518683935e-01
3.109279321147654165e-02 6.440966002340764440e-02 4.437251690456716080e-01
4.563812186481781136e-02 3.138110753034899919e-02 5.122931411848059557e-01
2.483397525832302388e-02 6.320791443159399885e-03 4.360262272235472802e-01
2.680052480745945959e-02 5.281456610774165616e-02 4.343926551157427096e-01
5.560559989734416286e-02 -2.377340735408906870e-04 5.005614713638918412e-01
5.542367610724081850e-02 2.037476257141199523e-02 4.615696650582959415e-01
5.280375754827067863e-02 2.918095552172074447e-02 4.562085331659916920e-01
-2.500909885810666256e-02 1.057070286577561913e-02 4.297163375929221596e-01
8.371749524958598671e-03 3.043872669464749159e-02 4.131328619796921786e-01
-1.633304052896350500e-02 2.312069523214469943e-02 4.194860550722004366e-01
5.167095723900604759e-02 2.319495274407434166e-02 4.977041232419034955e-01
4.444271208589056776e-02 2.884654390474214458e-02 4.476587483503353670e-01
4.920597829941109752e-02 1.969773831083955484e-02 5.033907304275073713e-01
-2.553411085503638420e-02 2.604683109896116164e-02 4.221503159645701442e-01
-2.215292670729860757e-03 4.571028225448120486e-02 4.112028971835508528e-01
5.489545398868546366e-02 3.113242421037106227e-03 4.982920524476779356e-01
7.775375673982996318e-03 -2.083058650067562412e-02 4.376943616218403332e-01
5.150148209626258244e-02 -1.956293618704462237e-02 4.672740793849458063e-01
4.918956717231462439e-02 6.104900580245754133e-02 4.590323270462816629e-01
5.235105877069183566e-02 1.851629645282504635e-02 4.954234335125346500e-01
5.558735664193941578e-02 4.553763128588495662e-02 4.752997641201017753e-01
-3.515047989894294622e-02 1.730300571271791224e-02 4.361659818179977610e-01
5.607212470694758477e-02 4.063102845135058150e-03 4.906529948301068256e-01
3.407614062076801814e-02 -2.909692382460012799e-02 4.467353090934195192e-01
5.064446877722970919e-02 4.951217031934230378e-02 4.972905063784824886e-01
5.750362229308246531e-02 -8.607550244508344398e-03 4.829754342110311183e-01
4.240496233831828748e-02 6.906126813748990345e-02 4.636799032977640400e-01
1.909001370464909891e-02 4.949175770572646765e-02 4.283940234145885984e-01
3.876030046774783105e-02 6.900174208041555401e-02 4.664439760717918881e-01
-2.086559084833890590e-02 -2.341346612599812249e-03 4.329771794850229560e-01
8.157801796593665278e-03 4.705018587861944934e-02 4.165918919888993988e-01
9.840737931710374226e-03 3.068710202262930203e-02 4.162241362397208766e-01
-2.783812714650716301e-03 2.225125873929562764e-02 4.137536381052012713e-01
-1.280039740651652165e-02 -2.305692564121626827e-05 4.306393524241566850e-01
4.617133206875789764e-02 2.332883265289559249e-02 4.491114969811561553e-01
5.572411580968662792e-02 4.301326886861307763e-02 4.791142689581374681e-01
5.363113399636903339e-02 2.332313122029551142e-02 4.930359130020374736e-01
5.758970039609030700e-02 2.784145185395416403e-02 4.782353589343519840e-01
4.817841700106293562e-02 5.904178938514067360e-02 4.545391457548508263e-01
1.250339592016425083e-02 -1.333872842047528935e-02 4.350691561648963868e-01
7.256136639586977617e-04 3.519990849657902987e-02 4.056660116776538705e-01
4.661233301729359596e-02 3.074192691772967626e-02 5.105582598201674482e-01
3.156388924964750181e-02 -1.095423438800053814e-02 4.391715809897431821e-01
5.757452205597768380e-02 -2.587770254539219217e-05 4.793061034275655219e-01
3.761788166169598158e-02 5.811419813684760155e-02 4.444024969541341963e-01
5.658844592841032889e-02 3.105210323252455967e-02 4.851724479849463534e-01
-2.101512021303904645e-02 3.046258659764455520e-02 4.181313990976848194e-01
5.363994724570204237e-02 9.669728027037544776e-03 4.946526975356657641e-01
-2.931824362346153665e-02 2.650440323858649361e-02 4.243574272156339644e-01
5.124512890485792560e-02 1.216552874419904451e-02 4.994627790357553665e-01
3.555484006176201292e-03 6.085363588919447814e-02 4.251381173534964364e-01
4.590747335950249447e-02 4.668893514274963935e-02 4.495646779700498419e-01
9.075376302628461803e-03 2.005331942345762314e-02 4.231221616852294809e-01
4.309895393196785246e-02 -1.311606459600654292e-02 4.494863902067156580e-01
5.720527542375656443e-02 7.832785339676658423e-03 4.793886452904778106e-01
5.234132932222938794e-02 1.663793773941420889e-02 4.954343710522616240e-01
5.386253901015142231e-02 3.039385653155308835e-03 4.623458329333640093e-01
5.497250186081081846e-02 4.199190534441499950e-02 4.904941388062081797e-01
2.540066579372978958e-02 -1.550302362261007580e-04 4.362898988980249970e-01
1.146596817192815400e-02 1.485759327192171485e-02 4.278639935544535922e-01
-2.825567605546128180e-02 1.335980446910702696e-02 4.306680151581444571e-01
-7.310481372968290550e-03 -3.569689773089307003e-03 4.310435349747822609e-01
5.729632322881662854e-02 3.376865291763968269e-02 4.776529021474206216e-01
2.994028388022740989e-02 -1.607339458538428398e-02 4.393603869555163799e-01
3.001254023352769446e-03 3.998039631946656569e-02 4.090442938195217315e-01
5.363798476947543442e-02 -5.275712862492239197e-03 4.657625463727067538e-01
5.335785552110815927e-02 -1.653945344259312791e-02 4.706089965610888992e-01
5.110704879872039579e-03 4.329204778113491386e-02 4.128421118673271106e-01
2.561265886912577824e-02 6.508648090488108884e-02 4.468274467201309719e-01
1.909231724758077980e-02 1.165094680532252971e-02 4.327542596924651153e-01
3.682633574258434989e-02 7.207016738312607695e-02 4.555122084644421254e-01
5.220835768683759759e-02 -1.519224381103041407e-02 4.674448358253432967e-01
-3.060822316025514980e-02 4.774356263379223378e-03 4.349290661151293813e-01
4.565809675500488718e-02 4.121506228210575912e-02 5.118614801683434301e-01
-3.492588400405276239e-02 2.715058076055752723e-02 4.296195304888470456e-01
4.795201187801374776e-02 3.484148601108146698e-02 5.081129350587242355e-01
5.487591609949371563e-02 -9.105864161183191766e-04 4.670811740242450938e-01
1.975039118730621476e-02 4.304800611439726921e-02 4.284354994045376230e-01
4.641744349022449562e-02 -1.098958838831374900e-02 4.539684497328694834e-01
-9.720540791814415854e-03 2.059728842551611372e-02 4.183133224644843828e-01
2.410766853228377485e-02 -1.929752910178909962e-03 4.356004966007952506e-01
-7.801843183494508796e-03 2.243504302159043018e-04 4.303125265937601251e-01
2.189192033674142168e-02 6.164226922203743658e-02 4.400890696978909666e-01
4.190236517304101599e-02 1.716254299007228395e-02 4.452823617898331032e-01
-2.377804924001229378e-02 1.462138215697002600e-02 4.269297320294227482e-01
1.784490646007465264e-02 -1.772707477436892554e-02 4.365857373279007914e-01
5.306814626769885967e-02 1.024011397628548509e-02 4.578308295663272576e-01
5.812482841716022641e-02 -6.418984335742880520e-03 4.893319499586503141e-01
4.977625148359197949e-02 -1.760524368835104936e-02 4.630453759838317751e-01
-2.382419644049842480e-02 4.088377047407257270e-02 4.172084443335120074e-01
3.642640715366764897e-02 1.635387170844553040e-02 4.412272901868026231e-01
5.489952583344188952e-02 2.736264974486324678e-02 4.917630709515468102e-01
-1.550668638809506693e-02 3.746600474409495646e-02 4.132537204455896673e-01
1.826688985130937512e-02 9.192411921258230451e-03 4.332404850759655757e-01
-4.457772056000450928e-02 2.176090008475474111e-04 4.443246551473177264e-01
2.379866608487170299e-02 -1.437317624985724566e-02 4.368010327012052940e-01
4.703836970038684923e-02 5.770953421223177539e-03 4.501407201346855347e-01
3.662218401579817040e-02 6.688966699189012599e-02 4.497685072370515291e-01
-3.469054390510530744e-02 1.402476614071732249e-02 4.375249413204091997e-01
8.173071053443478010e-04 -1.643994273325591338e-02 4.354003732413369021e-01
-5.999894711095722644e-03 1.400906323728684510e-02 4.220089236142830491e-01
-3.917735129269257939e-03 5.380717740000688643e-02 4.168697293526728020e-01
2.013958545789709675e-02 -1.036403614209225558e-03 4.343658566569010837e-01
1.158830198831253995e-02 7.070145198259958699e-03 4.313584429270599929e-01
3.643459435527265228e-02 -2.323064084748405894e-02 4.459238778610414289e-01
5.625906860981959301e-02 2.141382209689955685e-02 4.636634178500890213e-01
4.163157502286216061e-02 2.296222625458237826e-02 4.449965912207556884e-01
4.366898733411724715e-02 2.749967454904050923e-03 4.475762239935450748e-01
4.882094839917925505e-02 1.740067506026796162e-02 4.514887153548527432e-01
1.129264357247214759e-02 3.242367463514717746e-02 4.186615452637652002e-01
5.322100151375577098e-02 -9.020024614650640898e-03 4.669419515187854808e-01
5.397152827586798596e-02 2.371072515413463755e-02 4.580960055901456829e-01
5.341360415808180107e-02 3.601697164798615264e-02 4.977044712827478623e-01
5.627473294264016129e-02 3.494846729215297237e-02 4.869490546638580719e-01
5.212696760651924777e-02 4.563268494742361153e-02 4.563509269009503599e-01
4.494861815299878993e-02 2.438713368781533775e-02 5.130160890804023044e-01
-3.027279432728231107e-02 -1.251199221583165593e-03 4.360462248476913438e-01
4.410502059738991704e-02 4.638742259559943543e-02 4.478117318160089178e-01
3.655030859894069922e-02 6.192932396187695449e-02 4.455003405597185440e-01
-2.447761732660885120e-02 3.389616125285634107e-03 4.317583885683067835e-01
5.651583176175452999e-02 1.950316976264256444e-02 4.825577525366372411e-01
4.456048021346718097e-02 5.902967215447116160e-03 4.479723737303101805e-01
1.640562951707878053e-02 2.907005488446880864e-02 4.260932862615966488e-01
-3.527795548780116724e-02 2.111000339159834274e-02 4.333429637283049973e-01
4.659522911459440531e-02 4.069951557369898276e-02 5.105066856554535404e-01
-1.521583379695832551e-02 4.724694316494692375e-02 4.136357120055390579e-01
-2.917172735240903397e-02 3.905458447692794488e-02 4.210439564256094891e-01
3.553388313022806666e-02 4.640089704720199576e-02 4.413027314299283188e-01
-2.251379041306051862e-02 6.390695712805448403e-03 4.299920786814889762e-01
3.861747172298992531e-02 -1.580780750496497966e-02 4.452406682246988767e-01
-2.769830365669209704e-02 6.307663349955161883e-03 4.328262976756372948e-01
3.581565636713721079e-02 -3.017002268109465583e-03 4.417863215448362135e-01
-3.157348252725458021e-02 2.059492116138305143e-02 4.279578362815432135e-01
4.778810749359046345e-02 4.621192790840547571e-02 5.074054589827727835e-01
3.740046015346365493e-02 -2.628679952689672028e-02 4.481673096998343153e-01
4.231312026888047612e-02 3.264808456736225783e-03 4.463978547585333856e-01
2.484872125262770418e-02 -1.769821910322986330e-02 4.378695971194391801e-01
6.092337967952387700e-04 3.938549699250972619e-02 4.078480991397778754e-01
2.992636492005442544e-02 1.584615305442492461e-02 4.375422725750031661e-01
4.210125657006415223e-02 6.894199194418212939e-02 4.546586101013579961e-01
5.492166183037043570e-02 4.720601705923302936e-03 4.646927422284956588e-01
4.821317568354856198e-02 4.489203139224831607e-02 5.070088921334069409e-01
-2.214105701585108651e-02 4.249159216867837846e-02 4.156389123626856863e-01
2.933771860329724944e-03 -9.798570816479558812e-03 4.324211695194891125e-01
2.007418618187790937e-02 -1.237782971751631364e-02 4.355203449685595696e-01
4.937085153921751818e-02 4.997603125881011632e-02 5.004828574877997482e-01
-1.104989736126309186e-02 3.339385455829597255e-02 4.127161158100184912e-01
4.896107036866273465e-02 1.949958645316959838e-02 5.040139794823116359e-01
5.492280526984889832e-02 4.526695424213436625e-02 4.828566208820507799e-01
8.788043756696107406e-03 5.175205582596890258e-02 4.191076937174472161e-01
4.747975990027463594e-02 1.869488270097150254e-02 5.078721347160276567e-01
6.005823786785334344e-03 -4.166701437961768499e-03 4.317172600994848009e-01
5.104753747241941308e-02 5.563691876990269070e-02 4.832711334808690862e-01
5.649999021561911972e-02 -3.786534142021945673e-03 4.732082784965103706e-01
4.963512307725027883e-02 6.311856254404993316e-02 4.705239028976593851e-01
3.043385834966853484e-04 4.563072360316268450e-02 4.114352001161586392e-01
5.232043400016907209e-02 4.735414584765488405e-02 4.949646742827102375e-01
8.426100946744185388e-03 3.998336229470745434e-02 4.149825204716197646e-01
-7.834000730633356585e-03 2.538980777248567994e-02 4.145315464276301820e-01
2.540178144777239383e-02 3.056094782480470520e-02 4.341330038943489456e-01
2.192056856468402662e-02 4.886030175813031035e-02 4.305643625929472806e-01
1.478894838308475110e-02 6.994209854028823718e-03 4.326266605850566105e-01
4.328018144295493752e-02 2.544682610464049470e-03 4.472673957965266345e-01
2.254894485136314797e-02 1.867074206212333831e-02 4.331004053418137101e-01
5.534941230547342494e-02 4.530806853606223622e-02 4.786775202196841827e-01
-5.499461547171837980e-03 5.108956324511474550e-02 4.145619573328830354e-01
-1.740792451347676802e-04 5.221214604088453282e-02 4.145879087460762613e-01
-8.127631603885174250e-03 1.802707879088621262e-02 4.193831743221723696e-01
5.056838494270441547e-02 -4.261751622132292985e-03 4.581434342951339889e-01
2.668204641721905190e-02 3.555829827271615035e-02 4.347384080363395631e-01
9.556153341600976195e-03 4.945202936724096832e-02 4.191269163672309839e-01
4.914455584225082413e-02 -2.326434867249714891e-02 4.634516892743271166e-01
1.372771006940978408e-02 3.292692344415344002e-02 4.227650754343826311e-01
5.278349111183584796e-02 1.925998504535092470e-02 4.942911860923353551e-01
-2.627047511193009860e-02 5.170428756259051392e-03 4.322763892357247006e-01
5.733934300089862240e-02 2.986507698779052727e-02 4.674413442029645149e-01
-3.506929177133638609e-02 2.402220945056164451e-03 4.371106763918397586e-01
3.794129296891742692e-02 -5.914441569136979181e-03 4.434262185447936933e-01
1.771606464107166462e-02 2.360468018167273876e-02 4.286012566515940425e-01
5.378542849801384168e-02 1.945543129205570820e-02 4.915765894000727609e-01
3.224491284400517882e-02 5.808421935461778596e-02 4.405460607455908839e-01
3.487011160368257839e-02 4.459593309498263713e-02 4.408162572790449985e-01
4.799785462883945919e-02 4.582228086285658475e-02 5.071764139698309304e-01
4.217640181748379125e-02 6.733433420645541789e-02 4.758122628289530587e-01
2.023206883346289134e-02 5.793449519559280142e-02 4.322346604219304278e-01
5.638326101420847170e-02 2.414338024636331764e-02 4.858317365858572101e-01
4.992460485247014745e-02 5.628259929811137846e-02 4.863651626226429547e-01
2.835974993096053789e-02 4.359747585811441645e-02 4.356910128933609294e-01
-4.784481061753743762e-03 5.419148281801832584e-02 4.178352418292028414e-01
5.088330718390841889e-02 2.078478425473263749e-03 4.557721308141464700e-01
3.338375631524375525e-02 1.085554706481341863e-02 4.389739793698651527e-01
5.409457099379101630e-02 3.696432125824892362e-02 4.956669755519719778e-01
4.765603009403349827e-02 2.563442693275093387e-02 5.082318614964848047e-01
4.632524006834885799e-02 4.892691845031508537e-03 4.496353080746831599e-01
4.799402799358704064e-02 6.263857411799236830e-02 4.778180401502225005e-01
3.907439931671845279e-02 3.894405204771565765e-02 4.436778879698987099e-01
1.566381559504136101e-03 2.157940736269317594e-02 4.157140070898718842e-01
1.153715916220889731e-02 6.001276462079110918e-02 4.280909830756483569e-01
4.780298481994028209e-02 5.272396004462483708e-03 5.142276338834430582e-01
-6.258032461446688330e-03 4.352003788985089883e-02 4.107111942280855521e-01
1.066991692462535175e-02 1.942588702594488792e-02 4.244356338748842550e-01
4.973968383467174820e-02 1.773476340784975458e-02 5.017589203046449731e-01
2.815277791069159194e-02 1.129370203483683055e-02 4.369234634263337025e-01
3.812112068661571707e-02 -1.200261487043855282e-02 4.440819675631355046e-01
4.404379786214000780e-02 4.257703775616593356e-03 4.477178801753577964e-01
1.345828462374952517e-02 2.777322079956005482e-02 4.233641950085986205e-01
1.023562365968044841e-02 3.832630103685201461e-02 4.176092126285718686e-01
5.382660211740317863e-02 8.803376432790891576e-03 4.602586798352236719e-01
2.544212813949810539e-02 3.828507493685585211e-02 4.335902601836164050e-01
3.013258349603816291e-02 3.411982723225766290e-02 4.375526483546710033e-01
3.355554361431473120e-02 1.157840423864596978e-02 4.392023870957852405e-01
4.564749184706102386e-02 2.709365870435665249e-02 5.121829340646166795e-01
5.428924588982173699e-02 4.098626036292404157e-02 4.943292705634524942e-01
1.164951283896946757e-02 4.402662188532175877e-03 4.319758945661628657e-01
5.645531094179610798e-02 9.129442185481326244e-03 4.692428209567132136e-01
2.647485198038580095e-02 6.541611000944831666e-02 4.515189273485903931e-01
-4.461265811037577224e-03 2.655085612586348398e-02 4.117741199168747923e-01
4.439119352360229587e-02 1.891340488939045883e-02 4.473668968480788433e-01
5.137449127493061429e-02 5.516347202014696555e-02 4.830931655454044904e-01
-8.351650818287930864e-03 -3.827144953208341891e-03 4.312411389820396956e-01
5.726632765975652600e-02 1.910886504712315179e-02 4.765192665045393516e-01
3.321077371375672632e-02 -1.819840384705547973e-02 4.415693157208451791e-01
-1.204565870028608335e-02 -7.730076292910524616e-04 4.307420736875684497e-01
2.581541210716162271e-02 4.168261722887509763e-02 4.337158497921436151e-01
4.888876569434805197e-02 7.095937569392203603e-03 5.102784086347291748e-01
9.013866453847224278e-03 2.906521386522443323e-02 4.150982900667172792e-01
-8.411753138044941042e-03 -3.167218843145159016e-03 4.310484289813290570e-01
4.359787582109408283e-02 3.478909556412149162e-02 4.471905343627422535e-01
2.453579535645979137e-02 3.718204281540375689e-02 4.329131623473939650e-01
1.542581743784728759e-02 3.728072688077194857e-02 4.247835280910849942e-01
5.705617121134915620e-02 9.988129128566058945e-03 4.792174793444694547e-01
5.572940650617839303e-02 -9.085618442677542358e-03 4.739528344237445290e-01
5.591029368635951763e-02 4.330840226462066844e-02 4.670231814522592395e-01
5.741607331204028747e-02 4.980670655786016178e-03 4.809629192124603159e-01
1.075976700317817988e-02 6.055705293236671172e-02 4.298750459132922863e-01
5.103477116133952468e-02 2.939996154069287118e-02 4.539579936095929913e-01
-6.196671393296771836e-03 3.010092353843530841e-02 4.111896150169720987e-01
3.663568272759280819e-02 2.369342822227517992e-02 4.415226751275214134e-01
5.844751596771775165e-02 -9.270758818931407533e-03 5.084750070830669211e-01
-2.912600688910190611e-02 3.274516228518061650e-02 4.220881474954205070e-01
-1.111492485310884310e-03 1.382492351237432637e-02 4.228526727310222832e-01
-2.561731175499755431e-02 1.056231604853606273e-02 4.301467297696259795e-01
1.298953693617801650e-02 5.778989219732330422e-03 4.322330479629567512e-01
7.115082696044533646e-03 3.727382281966019201e-02 4.128987073576631528e-01
5.410587465764163384e-02 1.839277069974461568e-02 4.586818831468156832e-01
5.356008857689716768e-02 1.827587733031351205e-03 4.620550522852782116e-01
8.124808234486908046e-03 5.113122673292426479e-02 4.181269744201534522e-01
9.577619856096925011e-03 -1.171164266136915343e-02 4.338856468000095723e-01
5.819460742875817716e-02 -8.175550870823604377e-03 5.053547758730611017e-01
5.053241725198167472e-02 3.002352530338046541e-02 5.024985162794656235e-01
4.591089120066666265e-03 5.949514042480522763e-02 4.224304267648774647e-01
4.720728247409741729e-02 5.999385930704084768e-02 4.534779366542662782e-01
2.004167111702612539e-02 1.479072920783514045e-02 4.322710332998448424e-01
3.336231718050632067e-02 -1.455792526915460940e-02 4.408903838115058593e-01
-2.886884615948972707e-02 3.172158379766280845e-02 4.222439197861612148e-01
4.402499102520576052e-02 5.102273182203789781e-02 5.073536911293884399e-01
1.717944854833865220e-02 -9.018533038816825206e-03 4.342414229841782269e-01
3.723028611058306486e-02 1.598037555370132590e-02 4.418326972880572412e-01
5.445742577063848733e-02 4.970118404411549839e-02 4.663906124471958736e-01
2.629732582608551236e-02 4.136022559262785697e-02 4.341232093675291281e-01
-1.002592055590402834e-02 -6.335701151489450331e-03 4.322564727974255727e-01
2.302594336192963220e-02 -1.011988058730307720e-02 4.358512883340700528e-01
5.086980818400940046e-02 5.538874949637159067e-02 4.852572425310886506e-01
5.104032898684832120e-02 1.264877424485419920e-02 4.540459368242569238e-01
4.071990801606665406e-02 3.818719660385230807e-02 4.449061299617240728e-01
-1.167991940623783545e-02 5.242421859407304235e-02 4.178887759728636686e-01
-2.147362514954197915e-02 4.565367825323898149e-02 4.163157424246288207e-01
5.641405984934138446e-02 4.057542765428627518e-02 4.752072138323869543e-01
5.800768434990766220e-02 -5.804179250988265350e-03 4.955412478746811789e-01
3.093492430798860243e-02 6.712265912529671863e-02 4.536032326098141110e-01
5.559935380191505239e-02 2.883710095507642165e-02 4.894302634646157113e-01
8.903427056247741056e-03 -1.451277215789077875e-02 4.355060402288722377e-01
-2.550595225977239991e-02 1.391586267446132813e-02 4.284761685813252008e-01
5.027660940446616877e-02 3.734119561175607699e-02 4.537958223120186485e-01
-1.808455669016910275e-03 3.509285305626168999e-02 4.067320595314080078e-01
5.064221784842859453e-02 4.774809314400414728e-02 4.546677107918759564e-01
4.757424632613033860e-02 1.797283631079560698e-02 5.075311070463195406e-01
