5.059043009072080460e-02 -1.905886737398436448e-04 5.150560107154281697e-01
5.691155731112895744e-02 3.698791142563821743e-02 4.774242689887525093e-01
4.308085481079417661e-02 6.934130577338219747e-02 4.624140767561176757e-01
5.451372850473398118e-02 4.640580573071313025e-02 4.853473318619814236e-01
3.120778847011541901e-02 -7.241126942972226851e-03 4.386215827717609428e-01
5.541353594001439953e-02 6.279620991956921632e-03 4.653129613196440029e-01
5.222963640378650713e-02 5.632740831487652311e-02 4.750372458693076783e-01
4.757505841521788431e-02 4.437467915538419183e-02 5.082388611938699619e-01
4.257315046712409345e-02 1.368137025042081081e-02 4.457710228145994602e-01
1.624505935093622372e-02 1.571501533600555209e-02 4.296932191634560416e-01
5.729572742527989926e-02 2.360036696105166296e-02 4.670258859523174766e-01
4.808554808034064959e-02 -8.938450789406970909e-03 4.553665956331873765e-01
5.273620756764185041e-02 -4.359445444708063763e-03 5.155660908598553860e-01
3.206494013812719035e-02 -1.323890380748928702e-02 4.397351104516417086e-01
1.569619710595145101e-02 -1.077550429848991333e-02 4.342220149230514581e-01
4.916520675976477489e-02 1.387536493888975875e-02 5.040763902292011434e-01
5.436616794972231465e-02 6.310626705229084935e-03 4.953562186595906747e-01
4.281566147072621981e-02 -9.382315398203066020e-04 4.472626554779811636e-01
4.224030909946880491e-02 -1.277727171362325401e-02 4.482121550830119316e-01
5.412349704600250000e-02 5.277527592227342773e-02 4.699549999376018139e-01
1.664619526112729765e-03 -1.603482265165053627e-02 4.352621418255055996e-01
9.085890971435434810e-03 2.926891147960112433e-02 4.143001544429264493e-01
2.282886588392941604e-02 -1.525528958252292790e-03 4.351029013587728866e-01
5.104270566029691508e-02 -2.285564597729705921e-03 5.162309345642985825e-01
1.179997241055456315e-02 5.959693583010935297e-02 4.272892464015735636e-01
5.547803941456180138e-02 4.436775364431108648e-02 4.802513252710934322e-01
4.570748284197255484e-02 6.742082686617345555e-02 4.659818378371521352e-01
5.620296094808544668e-02 1.163781070299090004e-02 4.838585768372855034e-01
5.308054271386282441e-02 3.266816764461513700e-02 4.566332573411844287e-01
4.246417657306567756e-02 3.388533018091498261e-02 4.460793174006140727e-01
-6.209696109225254501e-03 -9.535282069091523260e-03 4.328546858522640539e-01
4.433124414737545788e-02 6.625711827755619010e-02 4.771017565939587035e-01
9.911468217159598998e-03 2.395351802346950762e-02 4.206799666660990811e-01
2.048949585872932196e-03 4.455826039567139379e-02 4.110793097032647836e-01
-2.239285394659278061e-03 8.017163510794206305e-03 4.261441109748001499e-01
1.359389990282635317e-02 3.797527697906613597e-02 4.225398961577216950e-01
2.767238946650897938e-02 6.788882581617835046e-03 4.368418120310330055e-01
4.953510296004912800e-02 6.015777862062725995e-02 4.789105656140360545e-01
4.891647383242402058e-02 -1.242034938220119671e-02 4.591020475594575490e-01
5.024652120570743952e-02 5.708112692430437202e-02 4.832957162222006331e-01
4.879368818142220537e-02 2.701462025943467474e-02 5.059283889104225773e-01
-3.637901314499897287e-03 4.907261125980465211e-02 4.115350101820157147e-01
5.153941913804171299e-02 3.537462936190269303e-02 5.016301090001565877e-01
1.864282171868554550e-02 -1.331145679107676241e-02 4.353425613437351127e-01
1.673870453373604329e-03 4.911778232902450775e-02 4.129959309995384631e-01
-3.356526128962689787e-02 2.403286761645567760e-02 4.288658658547103708e-01
1.311362848711178364e-02 2.347768702862936679e-02 4.244034303272611330e-01
-3.149899370493391970e-02 4.330817340772400575e-03 4.352173210870227682e-01
3.938854528711554365e-02 1.734458589277002721e-02 4.432408765872856149e-01
1.123079605024631181e-02 3.010014049611720033e-02 4.186634033791343801e-01
5.651267377639973555e-02 1.314151821922424773e-02 4.664875051270811479e-01
5.244329442903433725e-02 1.153948362180608547e-02 4.969697710130583923e-01
5.728687342818398337e-02 1.834454797717118002e-02 4.735125333238118239e-01
-4.675616344653057282e-02 -1.532449331222550219e-03 4.455449535165285080e-01
4.238699871799691404e-02 1.838145222683357227e-03 4.464957792791091062e-01
9.032408659165474391e-03 -1.842838672076022727e-02 4.370203648983842504e-01
5.307747429484095669e-02 6.150803708590925345e-03 4.589708755625243053e-01
4.514265573625735051e-02 9.962800521673476073e-03 4.479903713665695508e-01
-2.125935250652367589e-02 8.293424422477125094e-03 4.288594281421231891e-01
2.549204340125913251e-02 -2.457545275801855875e-02 4.391586609170868849e-01
4.418628538968773223e-02 5.120429882123876675e-02 5.066299807603418248e-01
4.467947988251370212e-02 2.819248295908073632e-02 5.137296035344478540e-01
-4.395427427539091991e-02 -1.036326119343631939e-04 4.423520716868920566e-01
-1.307194195259724426e-02 4.673930006662303793e-02 4.124862456175320546e-01
5.439197447247597766e-02 5.071877613025674303e-02 4.669180837244679139e-01
5.237388431910387082e-02 4.974550160912541430e-02 4.913250561573065389e-01
5.303589908767868122e-02 5.365512081724465449e-02 4.789656831179881502e-01
3.938744979769363136e-02 7.150407528425047066e-02 4.544379569186868251e-01
4.992719695658499185e-02 4.712016706671519339e-02 4.536583956761920944e-01
2.363284666655866145e-02 -1.597546741127083350e-02 4.370633005104149760e-01
5.350910085469409022e-02 -1.780438467011650691e-02 4.712552889017105340e-01
5.710109620266217573e-02 3.349246268959255729e-02 4.826469241632016516e-01
5.332472423205263101e-02 4.664261788272647952e-03 4.601435126508106044e-01
5.713505904073001157e-02 6.210163222418957699e-03 4.821893425151693169e-01
5.509710570254296169e-02 4.705268953067068272e-02 4.652937732937455495e-01
6.427636437277213163e-03 5.503366498693504361e-02 4.192142283441099293e-01
4.348865774606281570e-02 6.776315319936748738e-02 4.569812600081359366e-01
-5.179126143648977304e-03 4.555848954683960894e-02 4.108049004134848303e-01
3.640652002985798191e-02 -3.504471572905132944e-03 4.421409062601728834e-01
5.775477157865824274e-02 2.424713410383279311e-02 4.757768326390892644e-01
5.806765384837026672e-02 -6.260239732777210346e-03 4.876495213393453043e-01
-2.002833061165094908e-02 4.789101606464812866e-02 4.176069074793952729e-01
5.749853503978327035e-02 5.024550367616510173e-03 4.799494634063210530e-01
5.319639604565559038e-02 4.248923034207182509e-02 4.574726831830402962e-01
4.257881262939734734e-02 6.969328189368352577e-02 4.613150712897454708e-01
4.530536085041023814e-02 -4.425473056490827721e-03 4.504277391296645505e-01
-2.036957834889911723e-02 2.886330053540456936e-02 4.183470084897263908e-01
5.783503349215064065e-02 2.680670533106485967e-02 4.761617647291439548e-01
-2.661384132506009609e-02 3.384064177972907761e-02 4.199490628997418762e-01
3.478313462962023817e-02 1.476469095868545092e-02 4.401730706633676937e-01
-1.398551417017590646e-03 3.508668045748482203e-03 4.289749295587363398e-01
5.384960962596106043e-02 -1.867121350130780937e-03 4.643465188257375753e-01
5.154962367935958523e-02 5.963204274958855411e-02 4.677012273718864077e-01
5.555212592303223479e-02 3.894202804595420231e-02 4.896850343459554500e-01
5.504739177096123343e-02 -5.053278538571002489e-03 5.133367662831475053e-01
5.586280727124384032e-02 4.184554500592792270e-02 4.645419385864255069e-01
2.720129865528330901e-02 6.922727444190543769e-03 4.366868360328913234e-01
4.526905310497672530e-02 2.617894965963563775e-02 4.481937160607273873e-01
-2.787635346892868363e-02 4.285399269708336373e-02 4.217673175061353308e-01
4.560196262412080648e-03 -1.879982822400864950e-02 4.368252488072304485e-01
5.222067448054339839e-02 5.775862249045662922e-02 4.693173319459619242e-01
4.805390009632136417e-02 4.858014012683547350e-02 5.052288321268257887e-01
2.698713889993486353e-02 -8.504695686115424508e-03 4.367523718167198865e-01
1.767255578953497164e-02 7.447806884951854375e-03 4.333253449073383723e-01
4.473219891495076178e-02 5.607615392432290652e-02 4.494858578418754469e-01
5.152814503559367126e-02 5.232779412617909881e-02 4.561712963727634351e-01
4.509953633575671667e-02 5.241742283272510239e-02 5.028212427100864357e-01
5.271273003029218474e-02 5.515337611825507635e-02 4.608356454989954720e-01
5.533446434249401219e-02 4.799705758135883182e-02 4.722898269406927141e-01
4.416100861031185820e-02 5.879644079127797213e-02 4.496016204356982904e-01
2.963707782059826767e-02 -1.474330588858516894e-02 4.388301118461476746e-01
5.079232538152054360e-02 1.501026037055208651e-02 4.990595423088043381e-01
3.851441599032475599e-02 5.323738177780806824e-02 4.437100138522086512e-01
4.724473793123065007e-02 1.952578826680116328e-02 5.087248188897327550e-01
3.918813681770300789e-02 -8.816518442290789681e-03 4.446346157828473533e-01
5.483826544101760847e-02 1.378169544311890794e-02 4.608665485062299338e-01
5.413449876030789615e-02 4.551293216626503546e-02 4.904936567047434859e-01
1.175600302289637848e-02 2.917691902278763197e-02 4.201977227178753660e-01
4.141710317300793809e-02 6.747932501677193773e-02 4.741334201907994039e-01
4.866805760379852921e-03 3.502107094149724265e-02 4.076019872423902735e-01
1.269063056965884749e-02 2.560292081137679684e-02 4.230438400185450032e-01
2.286841554039976271e-02 3.349286908665512902e-02 4.312799415225630484e-01
-8.682679074333971708e-03 5.246816089327889336e-03 4.271393266121181753e-01
5.215951931249244999e-02 5.151437394731021163e-02 4.886939269742710534e-01
1.856447919739626778e-02 4.283345622759512916e-02 4.269266259364198901e-01
-1.696925044553709849e-03 4.651322902308354518e-02 4.111199467013121334e-01
-1.718399142088508288e-03 2.346970671140748491e-02 4.117821777376255987e-01
-3.598846522023917138e-02 2.296848445554292711e-02 4.332074390831550104e-01
5.305060094452681424e-02 5.534887120374095554e-02 4.630291838147631012e-01
5.577189009272230658e-02 -1.291895946465547625e-02 4.762432036961421478e-01
5.701939675575184302e-02 -4.564149036619070607e-04 4.750524772108880023e-01
5.660030073288574437e-02 -1.467735003748724121e-02 4.793416282695891484e-01
5.500538313308960675e-02 -8.877080278961597612e-03 4.708467578261870123e-01
4.951515948829537245e-02 9.249477294316589202e-03 5.060417789860937043e-01
-8.686890195201930204e-03 2.778889318873369735e-02 4.139246942074095159e-01
5.732502033620036352e-02 2.991020331092330425e-02 4.815048643633739744e-01
-2.016665944445040354e-02 2.310097244956220430e-02 4.207976725823895370e-01
2.955425627145054704e-02 4.106374848603129568e-02 4.365269352664267188e-01
5.006412650839271727e-02 3.968956573842838398e-02 4.534891145731575479e-01
4.800522843241584320e-02 2.984169522349350290e-02 5.079197752760684637e-01
4.704671026155277797e-02 1.141853274692882772e-03 4.509136775092068561e-01
5.727188390945777557e-02 2.952180365467117762e-02 4.658866395033916530e-01
1.913098327871538135e-02 3.181375349584355389e-02 4.280903853491264677e-01
3.301883303739517467e-02 5.226577743858909497e-02 4.391608944968671824e-01
4.306581840041814185e-02 6.889204583035474228e-02 4.600306287542059169e-01
4.349612024639254448e-02 6.585032241256917607e-02 4.530987641359642826e-01
1.747143050969110836e-02 5.107590853524957702e-02 4.267671735915246622e-01
5.629521537340842485e-02 3.367140199060562195e-02 4.635754697116787337e-01
5.317237832868521030e-02 3.361662362092823070e-02 4.978008398287528946e-01
-3.504609111764279278e-02 1.835851014208295107e-02 4.352425665219307183e-01
3.591720054495949055e-02 4.696820353195322456e-02 4.413365165342973961e-01
4.060735004667741926e-02 1.072839963309342795e-02 4.443105502097851600e-01
5.739188455364194197e-02 2.229280844045337939e-02 4.692776442730474118e-01
3.934762968267342675e-02 6.538300367205754360e-02 4.496389800715893670e-01
5.720171615483097410e-02 1.727441599612134643e-02 4.730678046392015057e-01
4.375652658096617492e-02 3.084596080738129242e-02 4.469536728265602332e-01
5.106713188203186593e-02 5.701377812275165019e-02 4.584402504069690631e-01
-6.036451459733560218e-03 2.364301746503100210e-02 4.140444814231246107e-01
-1.363577247203530754e-02 -1.712947878382614295e-03 4.312680934667305621e-01
4.204626885136710651e-02 4.043608386125771559e-02 4.456995451157769184e-01
5.288900106555591285e-02 1.812838605391634689e-02 4.942159987602331994e-01
2.660594570387752808e-02 5.531598633947474447e-02 4.343085178149215242e-01
1.671497910690094776e-02 5.908519835617541405e-02 4.306014091937249710e-01
5.280378288892863953e-02 4.926469959264115350e-02 4.570190266180823024e-01
3.194252115538642744e-02 6.482442104114324866e-02 4.458653361083797506e-01
5.146526384338789145e-02 4.860631873213936555e-02 4.961425720952254981e-01
2.541393331795041913e-02 3.033353680099966018e-02 4.338822875311216798e-01
1.568085112667895117e-02 -7.198705251133242361e-03 4.335745805011530507e-01
5.536388368035736335e-02 3.811543853093463802e-02 4.619656119406411188e-01
-2.391814171507975276e-03 1.773595076049503186e-02 4.190379514545499173e-01
4.333752170618241500e-02 2.299689279088938665e-02 4.463485859251756782e-01
2.633543881167077494e-02 3.548850430049232257e-02 4.342263907457672989e-01
3.805639326928191707e-02 2.531802970307441003e-02 4.423648030818554400e-01
4.767354745282328249e-02 2.009556950735949185e-02 5.076413047081560492e-01
-6.932458219175010455e-03 4.815535986869625557e-02 4.116741095753176927e-01
3.351586057888226999e-02 -1.928072684453258079e-02 4.420088179752235114e-01
-5.310209277838187115e-03 6.755875703775508952e-03 4.265761724555233725e-01
3.636760979894310825e-02 -2.340372141502214051e-02 4.458932469875896976e-01
2.827732627243358804e-02 1.861154967197307941e-02 4.363130058101790110e-01
4.398509068148753753e-02 4.413639023545790768e-03 4.475388513183660710e-01
3.730056936787713023e-02 6.141446840214972308e-02 4.455310246525039930e-01
1.292813367996646645e-02 4.010563024309408281e-02 4.210489882749019475e-01
1.882741692258064689e-02 2.966998457743861770e-02 4.281234436494077422e-01
-1.713056909736479852e-02 1.049995121072575324e-02 4.258527661005732656e-01
2.900151916058222104e-02 -5.319498426066685166e-03 4.373274861824592019e-01
1.752767150683860048e-02 2.786301786845412146e-02 4.271466140722587901e-01
5.650068941384790711e-02 4.948178377020694845e-05 4.957400405622268136e-01
5.503690498532242542e-02 3.659436948101001119e-02 4.604737288629686121e-01
5.552349621052011380e-02 4.530298468429012904e-03 4.924330695105338385e-01
6.568033723093509579e-03 3.413676993052670861e-02 4.066678569454214576e-01
2.406332675268813698e-02 4.336994444723580276e-03 4.356686612740328091e-01
3.375751759735209218e-02 5.358839200425124377e-02 4.398639697447754848e-01
2.447884042726426734e-02 2.429653974146230716e-02 4.335940856617538919e-01
3.892457467068112520e-02 3.392528352016826315e-02 4.433182267917629149e-01
9.435165790095970118e-03 6.154455819669601285e-02 4.334000171243333477e-01
5.562341225849642967e-02 3.421936310818828042e-02 4.910178542024324910e-01
-5.697254909923078845e-05 1.099853079927928454e-02 4.245472566215875987e-01
-1.756491072881821366e-02 2.721833955606662789e-02 4.178057856458948227e-01
5.673273442521331589e-02 3.482966610620839842e-02 4.654666601143259141e-01
5.341320147078065794e-02 1.261665013889085897e-02 4.936149294988635972e-01
5.068238709345880555e-02 4.921674609566614039e-02 4.545431636094058869e-01
5.222759534154531452e-02 2.509562199873192206e-02 4.548420875692882337e-01
-1.639553624785473201e-02 1.581787072736125233e-02 4.231807850703560581e-01
2.415226598988100964e-02 1.274788330240383960e-02 4.345414828542392693e-01
2.662967616937142110e-02 5.140641596782763445e-02 4.338057586241856889e-01
3.729809313726304559e-02 4.004765265966410415e-02 4.422400029937592625e-01
5.478255734277128614e-02 4.723298210768496486e-02 4.623987842978933838e-01
-1.689713338930088835e-02 3.217479656126256971e-02 4.152380332997365198e-01
2.397783715323055856e-02 8.475062331600620447e-03 4.355089613864854825e-01
4.770664031318485460e-02 6.615473975469451928e-02 4.647189456691066534e-01
-2.601988672273381972e-02 3.060619935072115411e-02 4.205951667091337720e-01
5.309969660642913092e-02 -9.250885694560007089e-04 4.619953420688236445e-01
4.104852318003462258e-02 2.993950900757404859e-02 4.448144295834233208e-01
-2.024020803117237977e-02 1.464760554943342515e-02 4.251727436372249591e-01
-3.733246795542170295e-03 5.108705597717732444e-02 4.136274897230450276e-01
4.148986446121554622e-02 4.954483089277206265e-02 4.455189200755818035e-01
4.775697476899565946e-02 3.349433027704472321e-02 5.085133702221654728e-01
-2.127165735548088368e-02 7.307556314196108141e-03 4.290713285097352281e-01
4.815225407671285679e-02 1.252934924502928718e-02 5.075607532810185729e-01
5.405404208104284264e-02 -1.542411522270626745e-03 5.108178838199342042e-01
-5.973531955491174703e-03 7.267224981812524590e-03 4.261687002222463438e-01
1.042762353806304595e-02 -4.887528861744616778e-04 4.318965444742627890e-01
-5.342007755917194470e-03 2.637737478537114863e-02 4.124174079091192380e-01
4.661326085174278405e-02 -1.211413900638981349e-02 4.544660339547544892e-01
3.229715380256716062e-02 6.322388441975640427e-02 4.433624431348871520e-01
5.367448020802949998e-02 1.306871626521840905e-02 4.924581080237760422e-01
5.432697321353495423e-02 5.071903791738625877e-02 4.658038534224905880e-01
-4.049018875716668686e-02 2.630238623097701928e-03 4.412532819754673152e-01
4.917129745421092851e-02 3.564866214543753464e-02 5.062077893478871271e-01
1.865719521917712578e-02 4.309251069495664832e-02 4.269923273449194312e-01
4.714216005051426878e-02 4.962999081311017524e-02 5.061954258657037631e-01
4.630818194504798119e-02 5.106997962193846052e-02 5.050744058538394476e-01
5.764297725922378629e-02 2.345075852052314752e-02 4.740463757946108969e-01
5.685854264918159540e-02 1.662125555423409409e-02 4.673288880140751833e-01
5.364350225659050148e-02 1.979938663886125858e-03 4.619449903145949055e-01
5.025981275741420867e-02 5.480783481563292203e-02 4.893450586446420614e-01
3.913909012974185059e-02 4.149292257175672856e-03 4.437024854971093335e-01
2.326446217569474312e-02 -5.028302887972306914e-03 4.352877228010256783e-01
1.097548279188759711e-02 1.563847032623539787e-02 4.266797356017603682e-01
2.882548010735488941e-02 3.066707084025127941e-02 4.364058621143450667e-01
-2.781836686386178828e-02 3.781823718993707756e-02 4.196144406729911402e-01
5.740689538620549065e-02 3.528047665069865280e-02 4.726647661246199950e-01
6.442089432030419921e-03 2.235172125504534049e-02 4.173730104750808523e-01
5.809064042845728248e-02 -4.861779871552689494e-03 4.891822585245175214e-01
4.539133261031921829e-02 -2.126169013467016020e-02 4.557641233377058843e-01
5.563236915289720974e-02 -9.691387351105217041e-03 4.737671050828440866e-01
1.414177170465749644e-02 -1.181018926983584162e-02 4.342685412781666643e-01
3.276746158483105631e-03 4.774399327657991021e-02 4.133424766080913138e-01
-9.141915765692155971e-03 -3.204415025806632610e-04 4.303364132754143312e-01
3.953444612771185585e-02 -2.007805834293669225e-02 4.470810894058763751e-01
4.449829473484623321e-02 6.644701233120130224e-02 4.766100039551454670e-01
5.906179120894568257e-02 -1.098523694558396421e-02 5.081277411535621846e-01
5.725718216520453430e-02 2.038013140455278982e-02 4.690258037081102005e-01
-6.878015079199741727e-03 3.892373117570143565e-02 4.091390260183923600e-01
3.879696467853444020e-02 2.827736691288658226e-03 4.435899233484422721e-01
1.407640407433530944e-02 6.092916455623557936e-02 4.356875216578970367e-01
1.052471778863777255e-02 4.498955797939842988e-02 4.183533247271092881e-01
-3.101937923009250378e-02 1.293269801908148060e-02 4.325558969793416586e-01
7.651819424416873849e-03 3.491106616556241549e-02 4.086420018533181708e-01
2.384835027518399098e-02 -4.708862553147478633e-03 4.354363408525998569e-01
3.993269993391986017e-02 7.177692095109006187e-02 4.552168031718815122e-01
5.174295839275694364e-02 -5.185466317688818515e-03 4.611337545570609042e-01
5.535713741572081785e-03 -1.097836892332223861e-02 4.329973953057029146e-01
-2.021518038768580633e-02 1.341286902713767493e-02 4.256901605016878976e-01
2.659447379476605547e-02 6.524461731267811038e-02 4.481720685175192287e-01
-1.003572568674172133e-02 -6.027443988928527993e-03 4.321181697453413406e-01
5.416001540065933095e-02 2.023640711904937245e-02 4.907924249814665241e-01
5.678281883337773367e-02 -5.008319221490874044e-03 4.751125001091895950e-01
5.151719535729200328e-02 4.593493632933366710e-02 4.554052549319621002e-01
3.737411350854689257e-02 6.597807905546919371e-02 4.488737117384856701e-01
-2.772351534731911163e-02 1.881942227830558229e-02 4.264130211423249883e-01
-2.243860099229776604e-03 -1.504601950967181592e-02 4.342263974249541691e-01
4.986985520037935660e-02 -3.955443591450226795e-03 5.186502829815498039e-01
-1.430403558085733412e-02 8.978681702626705591e-03 4.259844386872256861e-01
3.239399821796014323e-02 2.896119039963340400e-02 4.387635655451298522e-01
1.758755149696425088e-02 4.513206145187051432e-02 4.261292763263656025e-01
4.863484408521311086e-02 1.304378042702565230e-02 5.061954504738751526e-01
3.554214917779885061e-03 1.371416852050121732e-02 4.241988649429196956e-01
2.407943302335863525e-02 3.728967759376521085e-02 4.322424712650932421e-01
3.915521354537172122e-02 7.183316355359545269e-02 4.548581017659416026e-01
1.352628779137501555e-02 6.010573177158428509e-02 4.304774582889718815e-01
5.523505424312432494e-02 4.460355693587846060e-03 4.941571106609315978e-01
5.056525280140188906e-03 -8.724411108976129828e-03 4.324281119302730847e-01
5.661499887294375866e-02 3.682495146856141349e-02 4.820483440561038058e-01
-1.483702117278582616e-02 3.947874352578416290e-02 4.122522540249853873e-01
1.376448518293743074e-02 4.145122678611694311e-02 4.221728117542652980e-01
5.029925885200487584e-02 -7.517799941283841592e-04 4.554986777818276211e-01
3.593360592357119215e-02 -1.993019746846732068e-02 4.440753682872098373e-01
4.614469640282464064e-02 4.909553173248219771e-02 5.083836131226906474e-01
4.786993813173655299e-02 4.003045194164246701e-02 4.511335928079850954e-01
4.084667228097440400e-02 6.279833289489933183e-03 4.447586756056403079e-01
3.568224004976666697e-03 -2.282487879386688612e-04 4.309025969637585995e-01
9.098347760829690600e-03 3.020921966539558134e-02 4.139386662651022841e-01
5.676122517729183248e-02 -1.547692363752977383e-02 4.797785399361346736e-01
-2.436570705860700847e-02 3.738565841717856990e-04 4.330106644055236598e-01
-5.734248566117535612e-03 -2.154951373243532437e-03 4.306791687090658072e-01
1.101383220825445826e-02 3.855165192545313008e-02 4.181924859371092262e-01
4.964860693784969858e-02 5.516097639828523164e-02 4.543256525124931278e-01
5.360577150481792008e-02 2.595881066865342313e-02 4.569964726251716791e-01
5.734024004846733497e-02 1.909844939861816276e-02 4.725180302619923500e-01
5.584297896504322734e-02 3.297363169474932989e-03 4.926879742155912401e-01
5.071235112450443727e-02 5.298268298221763678e-02 4.916531642844459427e-01
5.581235787595454495e-02 2.515759709009646530e-02 4.884466272366783657e-01
4.751988421580349842e-02 2.281257066737832698e-02 5.082595809742174175e-01
8.581379884121474039e-03 5.132763578454679204e-02 4.182473955594572246e-01
1.464441840405399445e-02 -3.102132752785335436e-03 4.330200854649869369e-01
4.729686412556233926e-02 1.317050614253000712e-02 4.497376493063039438e-01
-6.508215111612846923e-03 2.168916143259504853e-02 4.159852880725856683e-01
4.145196320502220894e-02 1.966009606277690364e-02 4.446993872829919092e-01
-2.119033418581303500e-03 4.230659860720914489e-02 4.099027381894514432e-01
5.120097356711263842e-02 5.440354556445201745e-02 4.867799027911455245e-01
2.304916530986390877e-03 5.723024341379304158e-02 4.203167163011823915e-01
5.005120836720104716e-02 6.297261256761786663e-02 4.684553625373639729e-01
4.300667752273900496e-02 -1.676378883144742996e-02 4.501397813638741141e-01
4.757215443564020985e-02 5.916202198424609648e-02 4.533167210011623260e-01
2.301271801188988983e-02 -1.205398316121312693e-02 4.360885922727325559e-01
2.652324290974143739e-02 4.504700701576104527e-02 4.338160560073360816e-01
4.820478225850319265e-02 6.207612980774152717e-02 4.573336737552238795e-01
3.903235729158818779e-02 1.332909550514317816e-02 4.431288850420742609e-01
1.186717448930330043e-02 -1.389982365426491173e-02 4.353175475366666269e-01
9.100607821218317448e-03 5.753221455613276303e-02 4.229588691520403398e-01
4.706918439340022908e-02 -2.343001047474759999e-02 4.596732600168157989e-01
-2.654627572293583732e-02 4.051486911211828884e-02 4.201438231891161390e-01
-2.987147842124593042e-03 1.843214917616906728e-02 4.181466872883560781e-01
2.449249982204040541e-02 2.917863898912089263e-02 4.331751718421405495e-01
5.747321821605137770e-02 3.257014580020976130e-02 4.790253366833016058e-01
5.733419675331017512e-02 1.869474154437986146e-02 4.761050647098097888e-01
1.485130406719585572e-02 -1.890415494430076199e-02 4.365878703539617933e-01
5.640632310961896795e-02 2.118018628513405974e-03 4.711711034639730622e-01
3.022935808302571262e-02 5.253354091753355964e-02 4.368038969301596963e-01
-1.320699084868418374e-02 1.275446335965461225e-02 4.238884997787132902e-01
2.232882285964004829e-02 -1.598485978900271789e-02 4.367245812431853613e-01
5.107140467529307920e-02 1.812900713153019899e-02 4.986393944626605346e-01
1.277992408023990653e-02 -8.115890679248002199e-03 4.331756075686444829e-01
-2.907958046617670211e-02 2.806385639197445624e-03 4.337721410503009301e-01
-1.985370913059484113e-02 2.162548804474017598e-03 4.307614785451851502e-01
5.022283217411099843e-02 3.038016898257046156e-02 4.529458734744828408e-01
-3.079608405480585911e-03 1.082325650543586835e-02 4.243059158310781842e-01
2.890421404184472659e-02 3.898228875565165619e-02 4.361054788021762052e-01
5.259299716629493859e-02 5.485333640842336017e-02 4.773648254544761160e-01
-2.124406640896504828e-02 2.767459418290572210e-02 4.192854533187891919e-01
1.370654362824323680e-02 9.220286683671098313e-03 4.311552902975558377e-01
5.463618556054976316e-02 -1.661674064109056048e-02 4.738636422461459663e-01
4.779392503082065952e-02 -1.340332842155624038e-02 4.569061329054981413e-01
5.176022200695584718e-02 5.888100771560750291e-02 4.693485081002903292e-01
5.253648732164825641e-02 5.278566547264322562e-02 4.851532110229277439e-01
5.654840203261009279e-02 -1.033440314901348626e-02 4.784631511688172134e-01
4.001597341868091962e-02 2.544285593072433821e-02 4.436609276282877379e-01
4.732947880771531945e-02 6.638026809680415592e-03 5.137278249946032327e-01
4.880955901977274136e-02 5.183987767158461379e-02 4.992958395316597908e-01
2.809919099582691357e-02 -2.444404035338329853e-02 4.401917537262655666e-01
-1.926228644628961983e-02 1.595353527708687214e-02 4.241982726942131188e-01
1.158025995836917468e-02 -1.872601592769724752e-02 4.368484554895056271e-01
4.859732491318340120e-02 5.132051111508735552e-02 4.524455838530612173e-01
2.501034260035116252e-02 -8.649835822700069343e-03 4.361640467985511971e-01
5.551288744160109978e-02 2.728925115771941613e-03 4.671605568857739588e-01
5.226868601088228983e-02 3.842678888989804059e-02 5.002966336957976878e-01
5.003827295316932294e-02 3.602129516181819952e-02 5.048077695309708401e-01
5.337170505373375201e-02 5.455156199909057257e-02 4.710463681408652570e-01
4.222470828864540457e-04 5.486453391064826518e-02 4.182158938394247572e-01
4.596218611325747494e-02 1.486565404900628933e-02 4.485339664640356494e-01
4.274633541502244338e-02 3.449195328756435308e-02 4.463298674694106682e-01
1.621873924468545877e-02 -1.625789984325415327e-02 4.359256438547643442e-01
4.931381523626825192e-02 6.148260925281066880e-02 4.765993593975138554e-01
-1.135072653260015343e-02 2.845860093341145633e-02 4.147944638105726112e-01
-1.092842644917256176e-02 3.523630941659781218e-02 4.119593180256209686e-01
1.878536403004007690e-02 -1.167721644964091025e-02 4.350531234983244233e-01
-1.722091479137347059e-02 3.050719261759118894e-02 4.161007357006564211e-01
2.390876266184483942e-02 2.532772865693725187e-02 4.330106311351048509e-01
3.779049513868509846e-02 -6.407506516316120379e-03 4.432510947174478910e-01
5.891796407801163510e-02 -1.129809509164213938e-02 5.106843918491599243e-01
-2.535433281502678243e-02 4.415728827360689002e-02 4.189938900890544105e-01
3.109731403833235208e-02 5.858022427647013863e-02 4.399409545651533082e-01
2.199335941450045271e-03 -3.965238448116248371e-03 4.311794683159128061e-01
-4.631035931099560660e-02 -9.175040265568170511e-04 4.454287644505988131e-01
5.744312973387570576e-02 -6.168279177674875283e-03 5.070096479376923204e-01
5.642835205520884551e-02 1.009689727988210065e-02 4.674702225864872940e-01
5.610877057110354171e-02 1.551369261494994420e-02 4.846137487072458838e-01
4.899686569942749564e-02 1.415201624125399411e-02 5.044299862609958884e-01
3.529354536537786940e-02 1.147890008086519843e-02 4.402951317232874362e-01
-3.072337372597708921e-02 1.480798333540579714e-02 4.310004425303788356e-01
5.358518928846510432e-02 4.595246118776109834e-02 4.924916920203163961e-01
5.169172454479048495e-02 2.412987796425930878e-02 4.981933184846505935e-01
5.512325043284820036e-02 4.421020861322399326e-02 4.836111773415938120e-01
3.548673198788662719e-02 8.395577017671072492e-03 4.404556729138364157e-01
5.553584984768127758e-02 4.286242867278683422e-02 4.822130193553320621e-01
4.430190520755431655e-02 6.420438490416209565e-02 4.805634199762068848e-01
4.858351322795172178e-02 4.736518223766299912e-02 4.522153788803877639e-01
4.496199707505912913e-02 5.466030745477409858e-02 4.975771216459770607e-01
-3.389864682378933552e-03 4.062616988071697521e-02 4.089647080778219257e-01
4.602193615627325762e-02 3.908726459160560829e-02 5.117336773352725299e-01
7.108398304634857418e-03 5.900144053491612750e-02 4.228877253817743820e-01
4.030639537847303250e-02 -1.253080019706270809e-02 4.460608225109387037e-01
5.286744711450620110e-02 4.766479412846241770e-02 4.926183630140998360e-01
-1.445388630912255307e-03 -1.340461841610625718e-02 4.333913104388489312e-01
4.972784189738643779e-02 4.744204887538447379e-02 5.025647391023337907e-01
4.451789867877840867e-02 3.815022415452132970e-02 4.477077709579399545e-01
2.218047214108453957e-02 5.740943065055621741e-02 4.326326173631795391e-01
2.751571044148387601e-03 4.985504715802491910e-02 4.140227567876436643e-01
3.520439532582245873e-02 5.734757966168882448e-02 4.422148487991832688e-01
1.474359128220834210e-02 3.372191487804056947e-02 4.233156634373945737e-01
2.989583014250144638e-02 5.870781633913418895e-02 4.392665740475691361e-01
-1.623979167660866835e-02 -2.437245045569786436e-03 4.320601360018512249e-01
5.584722851526457282e-02 1.097669055407687715e-02 4.864252509712029826e-01
-3.103129405404182056e-02 1.798214098466171737e-02 4.290684608696837543e-01
-9.726157008018817413e-03 -1.143338222082862510e-02 4.341795340761971378e-01
5.389223814255692663e-02 4.981970485573915253e-02 4.844932480290759513e-01
5.486974364366160872e-02 3.135878618162009357e-02 4.930069531350087519e-01
5.486337974484093577e-02 -1.437348603063954948e-02 4.736576635982593930e-01
-4.184666380424098553e-03 5.074967378631532050e-02 4.135049337259659175e-01
-9.950832632232236782e-03 -4.972357546601150792e-03 4.317487762653042793e-01
3.174059006594070684e-03 6.101583616804633070e-02 4.251399336485551794e-01
-2.412221082616202231e-02 4.137360338424356243e-02 4.175400627765103456e-01
3.878333607950711082e-02 -8.719873160515220420e-03 4.442341689219109768e-01
2.653672912869628475e-02 4.854312135102684111e-02 4.336818824751365042e-01
2.936847436201138126e-02 4.102888304817445264e-02 4.363758560167096401e-01
5.132981742297139383e-02 9.844815230042828352e-04 5.124370246629458281e-01
3.827468229338755468e-02 1.521657724289036950e-02 4.424893443195492826e-01
2.493755704868668918e-02 4.675735222946968139e-02 4.323937214197559054e-01
-1.051666773588868457e-03 -1.607649820237571150e-02 4.349482847388654871e-01
3.540474577589360072e-02 3.246091839631425752e-02 4.408564178865123639e-01
1.748068302517001571e-02 3.202772541357113562e-02 4.263495292034957806e-01
5.555956762856643916e-02 -5.902279811796275893e-04 5.014428059526239156e-01
4.492380448898609241e-02 4.430562615364725537e-02 4.482807332671160938e-01
5.689038877391721510e-02 -4.025941361016152631e-03 5.047118444185525465e-01
-2.950434556606940095e-02 1.248840061403133639e-02 4.319134137139220564e-01
4.496366246786848847e-02 4.051947445470645282e-02 5.130968180716516391e-01
3.910628648044820604e-02 3.475173970374646759e-02 4.434773155229402297e-01
2.761665049632784294e-02 4.655184232524440385e-02 4.346731556030600796e-01
-3.433219734459293238e-02 2.854152849331187403e-02 4.283403022938483407e-01
1.406960608618102945e-02 6.007915574829449795e-02 4.309683530653364292e-01
2.916226232472514737e-02 -1.630025120188823007e-02 4.389559940337993127e-01
5.091011062100689322e-02 5.898822895393600330e-02 4.748539670161791015e-01
5.667164337835392529e-02 4.066412051963147478e-02 4.720076492893160447e-01
4.670127796402126497e-02 5.614950056759116653e-02 4.933896076042934564e-01
5.386972089827141846e-02 4.325536507515333196e-02 4.953598850930324704e-01
3.312649348653790710e-02 4.215521747130331759e-02 4.393707357901457389e-01
5.467781960254957524e-02 4.068779121364169554e-02 4.929633828698489206e-01
-7.150653903016550295e-03 2.953589060417856002e-02 4.122366388273337456e-01
1.108846249116057087e-02 3.653590689186201473e-02 4.173541928898159004e-01
5.294497008396804177e-02 3.270850723045498967e-04 5.100884613877260110e-01
5.459505719311123079e-02 -1.061153268173207175e-02 4.705267138299698559e-01
2.262944881307413572e-02 -4.446607486069082543e-03 4.350699707932019766e-01
5.414663894444701753e-02 1.269279783518613251e-02 4.594118082915868984e-01
2.155768924850443718e-02 3.613303137881825056e-02 4.300963241155761896e-01
1.657706353325509932e-02 3.381807015319506643e-02 4.251897066237059208e-01
5.655469033622482350e-02 3.766497668487366057e-02 4.809746594213554216e-01
2.853714676028647548e-02 4.929535223112464781e-02 4.353236640695679616e-01
4.726325851569487813e-02 7.057419194705876093e-03 5.134602945261353968e-01
2.761547022756974390e-02 3.392040023257186787e-02 4.353101099916664718e-01
1.121687424723847790e-03 1.500345214203640566e-02 4.220518504252027681e-01
5.821427533652826641e-02 -6.123526045353711034e-03 4.899458844015473491e-01
9.048873364396171903e-03 -1.710785696656468360e-02 4.367485107185114512e-01
-4.295385543180042266e-03 1.482009583863502789e-02 4.213939470301059642e-01
3.365204884034678212e-02 6.663522558837538246e-02 4.494007288400963529e-01
5.293449624597096684e-03 1.996336111551092266e-02 4.201003615162487437e-01
2.784502182608253329e-02 2.452189059800669035e-02 4.357128308385196380e-01
3.790646066776838519e-02 -2.669547234301897221e-02 4.487716685022883900e-01
3.156242719315913332e-03 2.954423042626169379e-02 4.059978475811249488e-01
-8.282979351251378020e-03 -5.111968085991548671e-03 4.315967322936189454e-01
-1.379613352201823281e-02 2.734745932224415602e-02 4.163698060703264203e-01
4.190063735808027129e-02 2.453299415666569672e-02 4.450957406816076212e-01
5.335839190789868486e-02 5.420069681369431291e-02 4.634039218016530182e-01
5.594902436150514524e-02 4.122719782136315125e-02 4.812809388623930373e-01
-3.647946506648912235e-02 4.313915631257751564e-03 4.394163969216925425e-01
4.637865216638884652e-02 5.410736171235914528e-03 5.163403383106723865e-01
-3.815340336783866471e-02 2.867258872502036898e-03 4.404241525550007252e-01
3.813792174778315308e-02 6.855144669199790541e-02 4.521915689117055326e-01
5.150416232874162337e-02 5.790661174186691879e-02 4.745658407946342083e-01
5.297564280614905363e-02 2.856908027295897851e-02 4.561464938030760363e-01
4.605944571932214099e-02 2.595043211641177155e-02 5.115687775594968123e-01
5.169058093005610838e-02 5.006457456526973437e-02 4.557236817679152785e-01
-2.170130318136294367e-02 2.001917713038169067e-02 4.229651769359157876e-01
3.184330949926235388e-02 4.978119245051414871e-02 4.381142411767810496e-01
2.281410091738298156e-03 4.546312655723670770e-02 4.114618815788754769e-01
5.228926881916164116e-02 5.435730136402864426e-02 4.809030590107261638e-01
5.690705637831630637e-02 7.563068617947764187e-03 4.824527150135081155e-01
8.333965434857155529e-04 -1.209361152399848240e-02 4.329158130203101806e-01
-4.097749284597389241e-02 2.497407481514158940e-03 4.476082547044270554e-01
5.632430036992230882e-02 4.140683823760401422e-02 4.673714588411467252e-01
9.270015860546508557e-03 4.470212463680950724e-03 4.312425987345868128e-01
1.836664345733375267e-02 3.175318532924175513e-02 4.273099427392129113e-01
-8.482024402899832755e-03 1.841584704107484746e-02 4.190334088830638404e-01
-2.747525602634871486e-02 2.910206526121921627e-02 4.220434341855371918e-01
3.043762310757814477e-02 2.239162732736670047e-02 4.374560839330282613e-01
5.241156615062873142e-02 3.423579906617930241e-02 4.995373723498962582e-01
1.204945216823482580e-02 3.607599778204856333e-02 4.187233766664809065e-01
5.784426650146133608e-02 2.570157554651741547e-02 4.773218464220344015e-01
5.269919829331835837e-02 1.417153681683050274e-04 4.604606169512241998e-01
3.484639718689376553e-02 3.662067909110353070e-02 4.406394148208792050e-01
5.582262650728624098e-02 4.361077700780381650e-02 4.653222143946807998e-01
-1.783493057552993852e-02 -1.310015931063701275e-03 4.320624201707121137e-01
4.909715834707278903e-02 6.202198417549753540e-02 4.761189037045673866e-01
1.367981775551397466e-02 4.171306192380701966e-02 4.219849013872341015e-01
5.132654153678120612e-02 4.861442092019963024e-02 4.552531339264032084e-01
5.095519470415819235e-02 6.002009339135953164e-02 4.628093100843578278e-01
5.320704251895540249e-02 5.301210886692429847e-02 4.604023527618308909e-01
4.587580069703771357e-02 -6.689167932744055807e-03 4.517891201201467699e-01
2.177893990709961307e-03 1.978706874616205716e-02 4.179003772487363544e-01
4.520426702474812652e-02 -6.686282096455951722e-03 4.508136239879132479e-01
