3.481903694428131746e-02 1.269300051461141540e-02 4.399958493001556725e-01
5.552145216132209349e-02 1.346843071538936145e-03 4.677108088646141359e-01
5.626415038270504709e-02 4.309842517484502311e-02 4.716125187231520188e-01
2.166020024425185930e-02 3.355683889343204912e-03 4.348242578313068485e-01
-1.794806579601614105e-02 1.617818565532015002e-02 4.234201064171904672e-01
-2.767037340831213915e-03 3.756832711271432257e-02 4.073537658603231248e-01
2.455259824322554921e-02 1.210273278507717487e-02 4.346914717960017605e-01
5.723924594479930239e-02 1.801891541862519000e-02 4.710681873834129396e-01
2.701672056421722343e-03 4.216766486076672926e-02 4.095807801687261218e-01
3.715893871612096361e-02 -2.450125705165603039e-03 4.425532585374117867e-01
5.630588523828974207e-02 3.777117164160353341e-02 4.843951052086542530e-01
-2.929008837483409664e-02 2.877863621384769630e-02 4.234237139822992213e-01
4.828856877615424897e-02 6.405589050203029655e-02 4.604668946065220148e-01
3.652493478974144087e-02 4.656082012507900721e-04 4.419469692784904757e-01
5.483470445235776036e-02 4.235761752433783722e-02 4.607417832605743557e-01
4.545634004163983527e-02 5.989188748760339992e-02 4.880370249261164473e-01
-1.550791360423629806e-02 4.409204450659803126e-02 4.126849027421157223e-01
-2.346418573197181848e-02 -1.307630193400274692e-03 4.333686048220241616e-01
1.130842839476994821e-02 3.464250874223687160e-02 4.165070958431520420e-01
9.421110862159413207e-03 5.391035986619335113e-02 4.202357742865335255e-01
4.692927899983796725e-02 5.802227681911821533e-02 4.519920924388693972e-01
5.631058901374502018e-02 2.492329880942202591e-02 4.630441622265434876e-01
4.770964476068943055e-02 1.196825372863935880e-02 5.088694693349912201e-01
5.497662782636369982e-02 4.743389026501886735e-02 4.646862337255074360e-01
5.198102709564748208e-02 3.542454679053236993e-02 5.006066412610832295e-01
1.376700976336030745e-02 1.136661135819693955e-02 4.301706092622623601e-01
1.019744446988199091e-02 2.803795848763824400e-02 4.169168715356623145e-01
2.816335911413284099e-02 4.022728606893168773e-02 4.352626669812243998e-01
2.143119736895651717e-02 -2.660501917597549604e-03 4.345963249738980516e-01
4.390557026687411102e-02 6.780283526461763910e-02 4.585479091700742083e-01
5.279844776644156135e-02 5.035517778877046657e-02 4.572810364278795392e-01
5.543459187743906419e-02 3.578589088805960577e-02 4.915049458589574316e-01
4.137030380249346467e-02 6.008690459414525037e-02 4.475625300134164486e-01
-1.986035213108502950e-02 2.116753714995000396e-02 4.214753728717558490e-01
5.539303653824474011e-02 4.770595166122026942e-02 4.724818321105948016e-01
4.831362504142575065e-02 9.947791511471673273e-03 5.086908943041328346e-01
3.713204382703496481e-02 7.209257934103542598e-02 4.551050854489626096e-01
-2.268735918643750155e-02 -6.465479128372622966e-04 4.328154250814846282e-01
-4.996631833469033883e-03 3.592676528173712066e-04 4.301859589871470102e-01
-2.316171245647176760e-03 -1.532342374174316263e-02 4.343470511760781916e-01
1.519798269606169143e-02 5.251647854307770619e-02 4.248860830244299280e-01
5.414724170972923245e-02 4.464921571224032826e-02 4.915182465756161578e-01
1.648302602000554021e-02 1.437270027290056713e-02 4.302940839541388174e-01
5.732922494766306415e-02 2.765515065964873134e-02 4.820792624731949916e-01
5.442823618754166065e-02 4.621283286776728394e-02 4.875685361927263872e-01
-9.718422490057592594e-03 3.164987205109667801e-02 4.123131918133735585e-01
-2.273458159152500543e-03 1.922999499755297451e-02 4.168836847863990891e-01
2.780640797636875147e-02 5.278541153408598807e-02 4.346674968643286507e-01
-4.738980314145058853e-02 -2.413574106317687221e-03 4.438264390870102494e-01
1.638529829294353007e-02 4.626799401612784884e-02 4.249389629085515985e-01
5.232125154162347441e-02 4.913373597718587171e-02 4.922945565073354457e-01
8.170318785878866522e-04 -2.990645630571108025e-03 4.309148285757411490e-01
3.664947052742174166e-02 7.948886108942143994e-03 4.412225555597488746e-01
5.366999905737823012e-02 8.213333291730165811e-03 4.956160785684493586e-01
1.793647820985395241e-02 4.978754085188730194e-02 4.268290049739474346e-01
-3.123298349807590232e-02 2.452729046078657577e-02 4.262554555300933079e-01
4.703759451155868632e-02 6.699720895563773815e-02 4.643030308796144423e-01
4.048654876846429634e-02 4.642255752748090242e-02 4.444853179138644195e-01
4.645000026595663689e-02 6.119297686448421647e-02 4.840636723165913646e-01
4.786899481260972755e-02 5.353073703419993640e-02 4.975351234694876945e-01
2.965940033982761292e-02 6.641513228062456697e-02 4.512039605635440043e-01
3.514778699214791968e-02 4.721789816354660801e-02 4.406107977945266652e-01
-2.338827850968038143e-03 2.586790663186896294e-02 4.096911031735341879e-01
-3.278314357619811770e-02 1.720773394925302971e-02 4.311909837956479641e-01
5.759910847401526757e-02 3.201263784610791641e-02 4.692237168315165352e-01
5.510604813944065122e-02 4.885425937980587829e-02 4.717514197093140016e-01
4.814993995403003130e-02 -1.774497755303204236e-02 4.592574101921030882e-01
-1.544713766884805474e-02 3.508555985219031365e-02 4.135110613015082759e-01
3.505462775866338698e-02 -1.698930888211659662e-02 4.425999595082857341e-01
-2.919018248289590063e-03 -1.591450864974366594e-02 4.346134129474100716e-01
4.861577213514039347e-02 6.093872231194438077e-02 4.796715093441356603e-01
4.536578100519946671e-02 -9.468418156348596543e-03 4.517109457569341568e-01
8.829756258871142641e-03 -3.671823794358398344e-03 4.319122190146582052e-01
1.718649016920412512e-02 6.294973418985155313e-03 4.333451842606551585e-01
-7.558441888896785116e-03 2.968030718007885066e-02 4.121785269512563965e-01
5.322473250109893000e-02 2.701390783386501196e-02 4.955612931838144775e-01
4.087161718888898676e-02 2.941513719114927095e-02 4.445681808398134760e-01
-6.223030695941055707e-03 -1.459253226648074640e-03 4.304990396533651120e-01
-6.045906505794019711e-03 6.413438348683558193e-03 4.265707569078423522e-01
5.274059669510666043e-02 5.179940191506407499e-02 4.576810552575615865e-01
4.611023882069337915e-02 5.065503641439234039e-02 5.063244141351322947e-01
5.796502556764170089e-02 -2.023079744375942506e-03 4.887024854493041692e-01
-5.806952948380531866e-03 3.048404314477717175e-02 4.103113390056289944e-01
4.879700836925090351e-02 2.878530177351539335e-02 4.514277891499948736e-01
1.497318437789304721e-02 2.647807117022015627e-02 4.248248716919484913e-01
5.337854180986494751e-02 4.906506519219613893e-02 4.883651724951604267e-01
3.172194421940355974e-02 3.471724195337994728e-02 4.384444677528044343e-01
1.390325381393354119e-02 2.299520002248582606e-02 4.249729882839585193e-01
2.177018522155206928e-02 4.147272808239075431e-02 4.298303417779463231e-01
2.804916694045414896e-02 5.470268699203195001e-02 4.351233198650176770e-01
1.389026216430043308e-02 -1.332897960003700741e-02 4.350791937352154193e-01
3.962737978661899640e-02 -2.713813882699530906e-03 4.444608014612745905e-01
5.187736356865853271e-02 1.903334874143544977e-02 4.967781077829152570e-01
1.348678778326917876e-02 -5.263840690757580140e-03 4.328434926888231060e-01
2.760994419719761672e-02 4.296485603821260241e-02 4.346461494203782139e-01
5.870496256171880804e-03 1.423600741058904905e-02 4.247053564771423595e-01
4.284332432593601636e-02 2.884298422129354458e-02 4.460459215766612862e-01
4.941949422571318556e-02 1.264665398534376220e-02 4.519119764217566781e-01
5.463755069197308301e-02 2.845526388020064301e-02 4.590583018143064020e-01
1.141375406233206651e-02 -1.908422023778507184e-02 4.369205108297693485e-01
3.940311572644515647e-02 1.593394328633419843e-02 4.432227515044910304e-01
1.684414548706691939e-02 3.314388874784980621e-02 4.252937243886502627e-01
1.132743399587709046e-02 5.640970689725176290e-02 4.233175044291299094e-01
4.766399804427128711e-02 4.902579447465951756e-02 4.511663622776828642e-01
5.511975661825921358e-02 4.701345844459901141e-02 4.655789960501975910e-01
2.865661935598594334e-02 9.821198658937154574e-03 4.370042113260577121e-01
5.001184491643918817e-02 6.088728805697647684e-02 4.612218186875683967e-01
2.399437340007503500e-02 2.453848481481426050e-02 4.330102191358626840e-01
-3.007526010191308510e-02 6.800104561632762390e-03 4.339828703370965379e-01
5.472648338532597884e-02 2.279188266381155115e-04 4.659103390583070881e-01
5.763395861043654061e-02 2.969419317381546963e-02 4.781844800901824399e-01
2.762698025116036571e-02 -1.155603225550710586e-02 4.373913363684807654e-01
9.354314356466313790e-03 2.069828629700323774e-02 4.223734713980409894e-01
4.409170676232284508e-02 5.895438239319782114e-02 4.494746809307029189e-01
4.758731906776737103e-02 -9.899758696259859485e-04 4.520268663404313769e-01
5.577532440081837961e-02 -3.792562032410276909e-03 4.701225007481762974e-01
1.973074448082301480e-02 2.685747689304361641e-02 4.291514983303083564e-01
5.360081216663635517e-02 4.736552104044244871e-02 4.901197741050091206e-01
5.266739680834325865e-02 3.185405846324272650e-02 4.983428369082218423e-01
4.314604814222346152e-02 1.397153475383545833e-03 4.471523345657302806e-01
4.971834465186768248e-02 4.166159857092879143e-02 5.050420826693867715e-01
4.203086150837624657e-02 5.389761110280266547e-03 4.457525845845258239e-01
3.948055854732918091e-02 1.825069720477241059e-02 4.431880172142840801e-01
1.134993803472284304e-03 3.654195138594333592e-02 4.060637094566681426e-01
5.091425615051538983e-02 6.009447968137020257e-02 4.627831023422904755e-01
2.675151692809599191e-02 1.053643220346651629e-02 4.362069345804226450e-01
3.867244307708794099e-02 -1.910010229725549180e-02 4.460034091038425075e-01
5.723016279103153997e-02 2.190866931888559369e-02 4.798095286581928187e-01
1.618623527743382959e-02 9.809472517089527083e-03 4.319449198721755923e-01
-9.311557844154466634e-03 4.050977104025006020e-02 4.106521793077566040e-01
4.439912014649837618e-03 3.346224272284337165e-02 4.058059473061382816e-01
4.530567990835932674e-02 3.480307785243944019e-02 4.483137746119623124e-01
5.594245198397044400e-02 1.294740141921985228e-02 4.643994065265094062e-01
4.463961468759020113e-02 2.703483294292020889e-02 4.475413159522042550e-01
1.586499306264013004e-02 2.705233979425192975e-02 4.255137891269865080e-01
-2.596907299519311992e-03 4.494942314447705756e-02 4.104567901074210323e-01
5.772942860369421197e-02 -1.120183780189754064e-02 4.834002844414789224e-01
1.016048268130217633e-02 3.687781720180450390e-02 4.167930236269106747e-01
1.232627278154110190e-02 3.505772320500535194e-02 4.191539282053004523e-01
2.202311295305989930e-02 -2.264603877308771565e-02 4.376412460398389492e-01
2.151168785318685259e-02 6.208001720185369471e-02 4.410711209743103933e-01
2.127801480415866461e-02 2.577574203776195061e-02 4.305581346973297863e-01
5.522617045506303390e-02 1.864070296057124265e-02 4.877528994988103439e-01
3.964382815585217740e-02 4.080415472729033433e-03 4.440260189572542426e-01
2.982565776147177647e-02 3.103013349779942809e-02 4.369609976360186998e-01
-2.714692164692479592e-02 -1.095180268503150121e-03 4.345624686776476953e-01
3.078131063248993465e-02 -8.738247963001880697e-03 4.383651105564668748e-01
4.229110018325887149e-02 5.169367250413219733e-02 5.070602937917495501e-01
-1.688643688930866610e-02 2.377913384097080085e-02 4.190217111360095004e-01
-2.095199079841435219e-02 3.831810819358999476e-02 4.150516332241441231e-01
4.748025059353653404e-02 2.946040642730439821e-02 4.502036643388066528e-01
4.399541079008870148e-02 4.388094663801938439e-02 4.472379041114903364e-01
-5.974778267856070690e-03 1.429897069658979565e-02 4.211257092171868943e-01
4.517727419768235303e-02 4.699417515803825524e-02 4.484765829002302362e-01
9.065066039845418077e-04 -1.255471801598800549e-02 4.331460290321673123e-01
-2.008389667591036973e-02 1.263334957634695312e-02 4.258506678579299654e-01
2.569085839032586929e-02 3.512190426686150058e-02 4.335162695624975582e-01
2.944134915688259233e-02 -2.612766353981844903e-04 4.379313110632712669e-01
-2.462351227661693960e-03 2.814803165810799562e-02 4.083786729039962093e-01
-1.053270029873362018e-02 6.275510270065112403e-03 4.263978105816765840e-01
2.757043129854222507e-02 6.551334624379406835e-02 4.493329066722854259e-01
5.605216301543594626e-02 2.852126891469519698e-02 4.880532110452863170e-01
2.780773382157642262e-02 1.521777564110380482e-02 4.361219868476360340e-01
-1.092648192407520702e-02 3.133012148017072507e-02 4.128657684755235868e-01
1.250506878889898546e-02 -1.006425870139908071e-02 4.335934139927010711e-01
3.737135833011680230e-02 6.188014923427471309e-02 4.456217879771192103e-01
5.246990941828373611e-02 4.481628847633176149e-02 4.977233412930464063e-01
2.434018361467741448e-02 4.850201941660495231e-02 4.317339854223752327e-01
4.451505346622416925e-02 6.208912683298470347e-02 4.509958080373027145e-01
-9.366352690181852306e-03 2.792295657216530697e-02 4.139604208761953341e-01
7.686038950393260689e-03 2.343441482589962276e-03 4.310252086310182307e-01
5.648264634799843309e-02 3.009950677837387734e-03 4.903337341640379154e-01
5.180811910695171107e-02 7.812187669517979202e-03 5.012142000641245376e-01
5.332338913126286051e-02 3.410152540512334518e-02 4.975017585220178340e-01
5.668848234205682568e-02 -4.199896609554113619e-03 4.738557270789402476e-01
1.562929712058377246e-02 4.796666046114976545e-02 4.244779433415197811e-01
8.225720776734049208e-03 3.418232401294375028e-02 4.085052664385003252e-01
4.089578181748620977e-02 -1.940746986787147271e-02 4.480927296997337939e-01
1.638340937876452824e-02 -1.279049011693042352e-02 4.348121617331655031e-01
4.058307641309481795e-02 6.555858819560483886e-02 4.507190910270347795e-01
1.446807874631187221e-02 1.760467330204987940e-02 4.274323948287073738e-01
3.012397551508833732e-02 1.943506658878858123e-02 4.372551415685222986e-01
5.473808614389558819e-02 4.986664694772214440e-02 4.763032831951525270e-01
5.427702164039822225e-02 1.740835101763384477e-02 4.587489089698638112e-01
4.417244834705502665e-02 3.289737227018880734e-03 4.477520991683462404e-01
2.853663181638095223e-02 5.236321295540437119e-03 4.371809411030924686e-01
-3.519731377034048675e-02 2.541550860917585891e-02 4.305279929016686546e-01
-4.369379322198363967e-03 6.839225909794379582e-03 4.264808264972033136e-01
5.174260183696016008e-02 4.932657170079230574e-02 4.942073269786507184e-01
-3.062942241671717455e-02 5.411549688124269245e-03 4.350053631302271406e-01
5.728280606114411616e-02 1.943842908223340814e-03 4.849885991485562431e-01
4.747292172085678524e-02 3.676688109927483267e-02 5.091091574795882924e-01
4.079971103088902290e-02 1.399150234131592459e-02 4.443582016947232316e-01
3.453637386725229991e-02 4.895322374382452685e-03 4.400475268146593621e-01
4.014526481779290973e-02 2.504561781736592760e-03 4.445901086470943064e-01
5.628289615123372586e-02 2.929723214770856010e-02 4.870058468363037685e-01
5.264207045830499032e-02 4.791337221997177959e-02 4.566987169803391478e-01
1.255357118478946446e-02 3.870507808483897999e-02 4.204162339927569048e-01
2.660886407858224431e-02 4.727846068556706277e-02 4.336062200340093375e-01
2.398341110401870299e-02 6.047933562348210834e-02 4.367202895332434887e-01
4.894169782031846522e-02 1.858385774188898998e-02 4.514069208180898074e-01
-3.783114443069119336e-03 2.943731324924724752e-02 4.088519204097613713e-01
-1.009244646460066147e-02 -1.684879148843725343e-03 4.306882452186587829e-01
3.819327354683849096e-02 -1.693315503477348799e-02 4.450364120523355727e-01
-9.336126349768966975e-04 3.112421502711354426e-02 4.059384153451044419e-01
-1.933600533085578360e-02 4.210256447572220673e-02 4.135717266686886884e-01
5.679165207017933259e-02 3.459432912497083928e-02 4.841532476226486081e-01
4.257234080503976420e-02 4.483282428283883944e-03 4.462990285524710554e-01
4.744435899788111699e-02 2.028420377948058836e-02 5.081842734311328158e-01
1.627041496478398228e-02 3.101433187763370791e-02 4.250494251619176267e-01
4.995326313127355922e-02 1.448871310304928640e-02 5.012424779571713618e-01
-1.828768786889252429e-02 3.714282783239251234e-02 4.140990704512622633e-01
5.723124413546613887e-02 -4.563168021709974355e-03 5.003219894444342897e-01
-3.218180320989242477e-02 1.027817340225183756e-02 4.346017519253045913e-01
3.131550487241140796e-02 5.528936836493177076e-02 4.379224792891269757e-01
4.872623999134856332e-02 1.733364395661371807e-02 5.044498058765298776e-01
4.437699737630303176e-02 4.694342249853888926e-02 5.122266552012111340e-01
4.050645480259719433e-02 4.126954034336569738e-02 4.444283155536416507e-01
4.579599872353030954e-02 6.454162841793836813e-02 4.551057417070824562e-01
-2.125889089480587774e-02 2.227063267595521395e-02 4.214615847791841063e-01
5.123207338509991327e-02 -1.520281961951597954e-02 4.651704534940148683e-01
1.909887606090001147e-02 -1.285925774153666261e-02 4.353165241904808913e-01
1.229668659618370768e-02 6.015031541540975107e-02 4.294277177913558008e-01
5.479665079027571523e-02 3.257125410389455095e-03 4.986958406424313872e-01
1.079858730215467813e-02 5.067899182015603993e-02 4.198992446233165698e-01
5.061156601462098864e-02 1.275133109781958693e-02 5.007555099677594157e-01
-2.093124211283394626e-02 3.719068926060290631e-02 4.154159705984881712e-01
2.309709328291344177e-02 8.092961585215950864e-05 4.353498443528322492e-01
5.629379364355575205e-02 -9.446871355621699537e-03 4.765948180745875340e-01
5.489694886429889037e-02 1.991552700751443236e-02 4.887200229398759310e-01
4.701544600881719937e-02 4.440841395414909382e-02 4.503385717704380675e-01
3.430006622965322410e-02 -2.330669278416274900e-02 4.440556114125372433e-01
1.550228521555331238e-02 5.178215590782590805e-02 4.249811989905419307e-01
-9.420246732978251186e-03 3.920744658860964016e-02 4.100493214644956308e-01
5.510875961097112113e-02 4.822682095300727390e-02 4.689966686653274097e-01
5.106643355857367478e-02 5.848580868084075901e-02 4.752116632153833842e-01
3.905719267431408820e-03 5.494938593447328684e-02 4.186311925401192124e-01
4.937419255458749129e-02 6.335860180405529507e-02 4.633632103050663864e-01
-1.441266630030665907e-02 3.298489050965189295e-02 4.137192478370306237e-01
1.506025052756400709e-02 4.959798156402507596e-02 4.241875267651702419e-01
2.911839199794184416e-02 1.408052461376448246e-02 4.369671167298267989e-01
1.099199002771347397e-02 3.302545213040229688e-02 4.160391307395855942e-01
-1.972103529693848209e-02 3.134285422064035653e-02 4.168321773986135015e-01
2.943139967680119193e-03 5.874224131076947325e-02 4.209312012707825956e-01
-2.389944482511793464e-02 4.349625303660932529e-02 4.173236909470209866e-01
5.527008913442144067e-02 1.583918549981230828e-02 4.874791666976409088e-01
5.546260764530605569e-02 1.924172007704727516e-02 4.871417433245265882e-01
5.802655980264098678e-02 -3.501909352650803622e-03 4.869636984156455184e-01
-1.992338741775401961e-02 3.384382344291524819e-02 4.160334665583195202e-01
4.455434654055483168e-02 3.169856027667287274e-02 5.140409627231343759e-01
-3.358445842779902296e-02 1.381472277652840905e-02 4.352302366741581108e-01
3.985880972207206385e-02 -2.070131814565099801e-02 4.475181081755113532e-01
-3.136923569340954732e-02 6.332732482296809899e-03 4.353347891509994905e-01
3.505732079416631897e-02 3.410508297358647023e-02 4.406268741020625823e-01
5.304480914541381126e-02 5.315471747628405103e-02 4.806867742145084499e-01
-1.112597356803989891e-02 1.441233268420878504e-03 4.299369711439683384e-01
-1.675744304808577181e-02 3.732623235298327541e-02 4.134198853576964150e-01
4.403284106515662627e-02 -1.020507759879541593e-02 4.500209534841280723e-01
4.601338884180018740e-02 4.232763116936607423e-02 4.491626970288540854e-01
1.300657630766306749e-02 3.808068157026762296e-02 4.212849616229463745e-01
5.015624572404910747e-02 1.533056251484829838e-02 5.004961728295905798e-01
-1.648217587984164914e-02 1.252929203666194174e-02 4.246233622819295395e-01
2.109968697852215164e-02 1.999758414336220633e-02 4.313957530718289801e-01
4.905184402360260321e-02 2.330684070889383480e-02 5.042844543873608032e-01
1.365890790568507866e-02 5.624557291081676985e-02 4.249226941099997212e-01
-4.351246508539279717e-02 2.143147356852290533e-04 4.417595040494602943e-01
6.898670993118646323e-03 -1.933784029424834988e-02 4.373931930034573590e-01
4.866225904262273805e-02 2.505233234433922040e-02 5.056953564284264457e-01
1.094540146152883815e-02 3.568606045539329807e-02 4.155847905235320328e-01
1.337275324366423747e-02 1.839702106728473979e-02 4.262565400732012955e-01
4.936532934163214564e-02 2.065933308692406711e-02 5.031474494067098568e-01
4.063979353056495353e-02 2.996408323453235868e-03 4.449121029740339406e-01
5.471214803174042490e-02 4.605899244078447141e-02 4.839130038460821015e-01
4.959526062457834256e-02 2.025705721119846342e-02 4.520880048671646056e-01
5.045370998539421697e-02 1.486526519697125778e-02 4.531496682046972646e-01
-1.082412021214975567e-02 1.115476097114009510e-02 4.240629771757860600e-01
4.895743070142988262e-02 6.110156147593864828e-02 4.579661370687018174e-01
2.955430167694544918e-02 4.323744871326531264e-02 4.362387625958671911e-01
1.192004614860498780e-02 2.261201012664895357e-02 4.233331050319026345e-01
2.804563604712401528e-02 4.346660315134387442e-02 4.349774733481174271e-01
5.295694051236580352e-02 1.908225903583248353e-02 4.939861606525704496e-01
2.239872293094265178e-04 9.916673853702383939e-03 4.251052108928570772e-01
3.700344614702049534e-02 -2.557949196570587225e-02 4.474127952596287927e-01
5.773396300509078122e-02 3.105332145140067210e-02 4.719144914422259141e-01
2.877780768891442797e-02 2.877738777748031426e-02 4.362103368415004012e-01
4.877455085213669439e-02 5.492957274496108877e-02 4.924567468396531811e-01
5.067485730657823872e-02 5.062789770574247644e-02 4.544805322887022769e-01
3.659607670504088500e-02 6.848428730207294091e-02 4.512049992430721135e-01
4.622683681161857822e-02 5.807629159617862941e-02 4.898410673526296111e-01
3.367112784073979931e-02 4.600254358348544216e-03 4.396611518911054395e-01
3.674436280705918600e-02 -2.448018347220882671e-02 4.466207057836527605e-01
5.665209281766125232e-02 1.304896494875608555e-02 4.672803433145505947e-01
3.422405057366087466e-03 4.743114218455733028e-02 4.130552505339328828e-01
-2.017302275686714413e-02 3.550078483982505029e-02 4.155891557343276976e-01
5.404882304439351942e-02 5.276633104731696944e-02 4.688845946878618109e-01
2.878462018352850090e-03 6.073608290257390824e-02 4.237847859127130135e-01
5.602328551687626307e-02 2.735076574413305983e-02 4.623662235194765935e-01
5.310777926661691684e-02 3.119146293905917730e-02 4.972005576753651401e-01
5.284478573210216884e-02 5.543672537012641482e-02 4.725495711386891728e-01
5.692675862660874497e-02 2.029773301874394573e-02 4.810160402282918635e-01
5.559463908293341833e-02 2.872919785452028758e-03 4.672873830457603406e-01
1.304726944447238447e-02 2.127669850355229028e-02 4.246177221067501950e-01
-1.444694061752038045e-02 2.603549552747145071e-02 4.170273668857978899e-01
5.701518651900450846e-02 7.065449628597000528e-03 4.731680095547354803e-01
-3.576149985505935186e-02 8.199745208260934143e-03 4.394791890779847776e-01
4.649716703624914155e-02 2.776720927022171062e-02 4.492847300782199516e-01
3.183146421420625372e-02 3.534552588315217903e-02 4.385073673905509617e-01
5.602372631302213191e-02 2.138218959614307611e-03 4.942073121654819157e-01
5.581781915258045984e-02 2.234573199000900595e-02 4.873397426028743817e-01
1.743140539823392204e-02 5.327083921259476856e-02 4.270325330472783398e-01
4.677640615496805876e-02 4.814636423423952066e-02 5.078519776044476686e-01
-3.510609074692541687e-03 3.620412281147748768e-02 4.071872750642263061e-01
4.389881014408563570e-02 6.355071743329555878e-02 4.826732494209105551e-01
4.458167171768069592e-02 -8.301400263267696283e-03 4.503107110654606671e-01
5.275450460590391105e-02 3.313964522088892490e-03 4.591479844814781441e-01
2.197057030686408452e-02 -1.684260202559180117e-02 4.367886459234811558e-01
-3.616615550152934427e-02 2.160434847416150064e-02 4.346051279665889000e-01
-4.681759645436177342e-03 4.002972586329717197e-02 4.088781352676006398e-01
5.518910911481976489e-02 4.369627171556943884e-02 4.839677942871756233e-01
4.884122170571829347e-02 2.939945417394744520e-02 5.061919759308510791e-01
4.411239727054903914e-02 5.280840159860342164e-02 5.026948986866839331e-01
-2.184267384282850485e-03 1.635284149203134960e-02 4.202061116732270230e-01
5.897734354377207056e-02 -1.061237215906225134e-02 5.070612933770638486e-01
8.427206537407789730e-03 -9.641362752741581416e-03 4.330196358010011126e-01
4.284723879039912392e-02 5.814749025298680124e-02 4.482539954496586043e-01
5.549659537127048237e-02 -1.477264123471669702e-02 4.759655423928023099e-01
5.271113954643841248e-02 2.000312180235944842e-02 4.946138990977586580e-01
3.828024011556382337e-03 1.018421227852324071e-02 4.265499537749286585e-01
5.482144982267583844e-02 6.781788179564397605e-03 4.929226774169062630e-01
5.723726689823499525e-02 7.413937494142498405e-03 4.785878815238157058e-01
4.539158473975726804e-02 6.730698682719207793e-02 4.609657917869743882e-01
-7.112140846418142474e-03 -4.586267593598911986e-03 4.312404046614994324e-01
1.025613586728572717e-02 1.874681080670421301e-02 4.239440851198074678e-01
5.705638586068923629e-02 1.012913360706324192e-02 4.764942275808300431e-01
5.735548314211780935e-02 -7.392116436069165811e-03 5.111954252364514506e-01
5.096226952936681875e-02 3.317944094014113610e-02 4.538833803450701421e-01
5.769471072210274887e-02 -6.690965953253011356e-03 5.051947846804071274e-01
-3.328104603158082986e-02 2.127754200784611957e-02 4.293100515066299305e-01
-4.649467056349322787e-03 -7.751197469773312733e-03 4.320151341514396615e-01
-6.288818264710769636e-03 9.505211753132269611e-03 4.245889245526074385e-01
2.901363255663187701e-02 -1.604790172035645487e-02 4.387803348023097127e-01
5.028155498421160025e-02 8.962821014055294411e-03 5.042456035333753306e-01
-1.421469808890805583e-02 2.019532952299964851e-02 4.198079933885330295e-01
2.028319585371394715e-02 -9.698198979255626996e-04 4.342932278778051103e-01
-1.006453298278953828e-02 5.022545437489570053e-02 4.137513020088502969e-01
-2.978868980410935997e-03 5.351027098311417207e-02 4.158140281724957421e-01
4.898874358956821495e-02 3.723873515067767370e-02 5.066074993234199741e-01
5.527085853362645462e-02 4.146405362942506487e-03 4.946501776226818192e-01
3.838526712110908873e-02 -2.245036094953059558e-02 4.469988093266875628e-01
3.267751215640866957e-02 -3.895906000364343300e-03 4.394337231600406457e-01
-9.698236169652983338e-03 1.095701712838903323e-02 4.239454954206042236e-01
4.245177092621879589e-02 6.782722109994314408e-02 4.662966123027631471e-01
2.741507741214203528e-03 -6.351388598598064691e-03 4.315359187481491721e-01
-3.056396629943120002e-02 2.873839722991496440e-02 4.244279078376521075e-01
-1.897690227524466075e-02 2.926414807373933780e-02 4.172960508978386662e-01
8.520339800470747016e-03 5.970868119079286024e-02 4.247959342652941062e-01
5.675520307319517621e-02 2.901994204059872920e-02 4.853142102594498186e-01
5.353008664966618646e-02 4.359207656304885797e-02 4.577795657790429962e-01
-9.519530411764998840e-03 4.864769424759605998e-02 4.119502039897720569e-01
2.605128208793401276e-02 1.695851159136419622e-02 4.349737690102117860e-01
4.021009359364882685e-02 2.057905340956309170e-02 4.436492646667637429e-01
-7.140929508385174956e-03 3.880301441516405964e-02 4.090336200071948425e-01
5.449774573661248650e-02 -5.080983715624614976e-03 4.673779920946154465e-01
-1.190360977900374248e-02 -2.689867537389165151e-03 4.312129270865387443e-01
4.521331223167444902e-02 6.559817764603749490e-02 4.777872372018103775e-01
8.907086408141252172e-04 3.160250369661364578e-02 4.051326966871885427e-01
4.717621491418175217e-02 5.136365987871361477e-02 5.024573416382792646e-01
6.884958429934920181e-03 2.929337599008983301e-02 4.090683682294014023e-01
-3.257920614394610361e-03 6.881815824979427981e-03 4.265811761166366511e-01
5.635776230804345061e-02 -9.094824255893136158e-03 4.765979138894069767e-01
4.527539881734254923e-02 6.201973610956696553e-02 4.518223907106486692e-01
2.450537936442085188e-02 1.392941275647002070e-02 4.344627529993542181e-01
5.572061223937083141e-02 -2.087636539363208095e-03 4.695675376210582952e-01
2.094168009269914768e-02 2.777998511787908506e-02 4.300779983671238482e-01
8.022517069570377080e-03 7.351060424566777107e-03 4.296152917146922601e-01
5.474259927586046237e-02 8.314299375216067239e-03 4.623803805470845796e-01
4.215537056949462957e-02 -5.699549203358439398e-03 4.471247230823950369e-01
1.797164877844048547e-02 4.254344012630029842e-02 4.261564087561269254e-01
9.083638396017681971e-03 4.698613173774643381e-02 4.169801959215801990e-01
4.987260253031704227e-02 -3.924463245029079055e-03 5.186249452643304503e-01
1.645557272147804562e-02 -1.748499925353682802e-02 4.363188042581850334e-01
5.414340554478547923e-02 3.851992384309074757e-02 4.953599857071075974e-01
3.784009757772050647e-02 6.846955694878351095e-02 4.518661839516933676e-01
5.365903853663255701e-02 1.089778774210630255e-02 4.939694751015061835e-01
1.874392104298767958e-02 2.563595264985255029e-02 4.286215774253931965e-01
5.705255952062520536e-02 1.306081704557430709e-02 4.710515406628999480e-01
2.449217260977784930e-02 -9.368947155252153880e-03 4.360736545073240489e-01
5.749923975051069586e-02 -9.869130624426368514e-04 4.913943489648480156e-01
5.694786787827587488e-02 2.066792944889569300e-02 4.810096974485187915e-01
1.140766834607066446e-02 2.629779411519159865e-02 4.210578571903792477e-01
3.122012065162741573e-02 4.023480957695719368e-02 4.377784599736626592e-01
2.859056063357881886e-03 2.981266413911772689e-02 4.058048933873213415e-01
4.456157458504909907e-02 6.366844712074862245e-02 4.813767644946055357e-01
3.370415523846769651e-02 4.690490169389295583e-02 4.395437941009591176e-01
5.164027335954716330e-02 5.937040844653106164e-02 4.659590179738079541e-01
1.077329401832388157e-02 -1.383894627438310085e-02 4.351664130167885447e-01
4.865340520075348008e-02 7.700469162197865099e-03 5.100665841475449103e-01
2.714167355472425422e-02 1.600934029688533961e-02 4.356588744760598320e-01
4.581848104725490256e-02 4.230748818440650816e-02 5.113571702114009243e-01
3.750098269289300901e-02 6.072543191515352573e-02 4.452425651274378726e-01
1.908359035597997563e-02 6.123126186847217822e-02 4.393977123959791897e-01
4.680791847407490824e-02 -1.682264348224364429e-03 4.513843972561100149e-01
2.531529220924058979e-02 4.028582682340906690e-02 4.329120784853486281e-01
5.700149505543868761e-02 2.166419800044660018e-02 4.652616285294499665e-01
5.536437031409971454e-02 3.921319216267755287e-02 4.902889283103410989e-01
2.346711987823301218e-02 3.874899914219043229e-02 4.314830348065331056e-01
1.552922586790381242e-03 -1.157055574929865410e-02 4.326660272877704272e-01
-3.300934382192985406e-02 1.372868498787776885e-02 4.340633793339293556e-01
5.237483532452563012e-02 3.286453063833029431e-02 4.991882678275128549e-01
4.667643074493369598e-02 6.653485997726622803e-02 4.695020170569726981e-01
4.346538331447648285e-02 6.602417917777664291e-02 4.779515467835887543e-01
3.727041960272366172e-02 -2.931142263053912109e-02 4.493017165129032375e-01
1.519330598233282169e-02 6.070043922221507460e-02 4.359806539472248499e-01
4.669001921492101775e-02 2.906417326158516889e-02 5.103850879560379861e-01
2.960914787835115108e-02 4.975599226441306672e-02 4.360320801338865571e-01
1.382527827698590631e-02 2.981858385132691441e-02 4.226528755181233055e-01
9.589140662946162713e-03 6.168402695510843275e-02 4.342819887820113522e-01
5.732260662106333782e-02 3.285307244978500490e-02 4.804302060246645745e-01
-1.342397080949231034e-02 2.783600241479016607e-02 4.157657266740591995e-01
4.481063658833584623e-02 3.036944690535797568e-03 4.483859352867567427e-01
5.096009140800152049e-02 5.797574048304069555e-02 4.772204301948367866e-01
5.695319629302795367e-02 -4.330756042656353985e-03 4.752785733335033180e-01
-5.139850870323035489e-03 -5.498716601778057137e-04 4.303454854177927169e-01
5.822385102146160341e-02 -4.089837296046894277e-03 4.909381579182082178e-01
5.373092590377052252e-02 4.577815496874573092e-02 4.920542439375311106e-01
-8.074081119295103623e-03 3.982409482144741442e-02 4.098710425501547183e-01
2.123986594905930350e-02 4.153118066911281464e-02 4.293710921015823079e-01
-1.753640880309212391e-02 4.817143763332756845e-02 4.165278338130062874e-01
8.218639558090212738e-03 5.629794876581847851e-02 4.207758934804973205e-01
4.267711586508914079e-02 2.978776466041424889e-02 4.459578193734358709e-01
5.096705648615226097e-02 -3.878204391708960953e-03 5.173881130725120903e-01
2.219145507659114197e-02 -1.026309264956055609e-02 4.355459088870169415e-01
-1.827910011715923322e-02 3.003035274347174571e-02 4.166209369256969053e-01
4.117809765828972512e-02 4.959730458814833043e-02 4.451341251818174416e-01
1.456500165399319396e-02 -2.143209638197638919e-03 4.328516994793292216e-01
-4.879789525669078407e-03 3.801186948252301828e-02 4.080764617919875326e-01
4.154219678166422292e-02 3.061545537608505521e-02 4.451015563298804656e-01
4.752842056682462374e-02 -2.259985621531460792e-02 4.601406678461602562e-01
5.379387987681109873e-02 5.372769269417199817e-02 4.698041128177140036e-01
1.052033371294102022e-02 4.089128817314927750e-02 4.170825941981812779e-01
3.240255515240621914e-02 -2.460966266357472385e-02 4.429833206519822042e-01
2.747573808466040671e-02 -2.240308531348923424e-02 4.394778027381923136e-01
5.066249101765019774e-02 1.472809897023976636e-03 4.551540832429304961e-01
5.647668157497531816e-02 -2.751421488407237385e-03 5.010804828075224870e-01
4.934896309077307919e-02 5.916945364081344777e-02 4.568125232418177584e-01
5.798989346508588716e-02 -2.698266148190550488e-03 4.880909470780286363e-01
3.958019283550195944e-02 3.515843637452328169e-02 4.437582110278879832e-01
5.559842868776040253e-02 3.381508468014114699e-02 4.613741599770810886e-01
3.766686141428588624e-02 1.488694500746784444e-02 4.419570036651553901e-01
5.660774977293963478e-02 1.267670145010713761e-03 4.922120308442519132e-01
5.448605726388555670e-03 -2.125965320184779878e-02 4.376430928526826580e-01
-3.377843585886428773e-02 2.078438736496977107e-02 4.305225126678641767e-01
1.160762068879789277e-02 3.688248854793133025e-02 4.189980991518176823e-01
4.606651005990846509e-02 3.533271156969437776e-02 4.490170529560894019e-01
4.809037229013887749e-02 6.144015935188601452e-02 4.800596014829910385e-01
4.491018016427638510e-02 -1.578971555804390553e-02 4.527051870796441335e-01
4.777427041382779210e-02 6.058959434532266985e-02 4.545468361705735649e-01
-2.406677635125948830e-02 2.614574243562184028e-02 4.211550959453718157e-01
5.079361425550910081e-02 1.975017225131816059e-02 4.993340521728639181e-01
4.951996202136047659e-03 3.176654334694107434e-02 4.062320859535816231e-01
-2.610178229121116675e-02 3.997854869849899739e-02 4.194766678961762141e-01
3.247674478357807926e-02 3.436163987851290069e-02 4.389819150629021838e-01
-1.112577051793738753e-02 -2.542538431357173941e-03 4.310759350681980795e-01
5.937286032401390551e-02 -1.161142428592079265e-02 5.058829059153658880e-01
8.419863047800242584e-03 -9.250822054629367561e-03 4.329192266941777056e-01
-1.727507075551058119e-05 3.935429136343523981e-02 4.076657102427077572e-01
5.233506670116150339e-02 8.737243972772425551e-03 4.563253417561194403e-01
5.476109667829353461e-02 3.919808869535321150e-02 4.598824560821143104e-01
-8.716741121870647327e-03 6.108551667117982642e-03 4.264684589838037554e-01
5.715454610845541183e-02 4.490012554755160902e-03 4.838181037828578335e-01
-7.090305097098875686e-03 3.818397875628162796e-02 4.089055280510653922e-01
5.408877148951844738e-02 5.041089501512413529e-02 4.809918661225430214e-01
2.214099912318899174e-02 1.141641482655167406e-02 4.337445563929755998e-01
3.477086553334059887e-02 -2.986410644197103406e-02 4.476808920264537250e-01
4.792237487634600640e-02 9.816668231049900314e-03 5.099856220436775889e-01
5.561784642701697590e-02 1.398076422892178053e-02 4.864294449383876340e-01
2.788082303394936318e-02 3.752294555356491465e-03 4.369405334706844002e-01
-4.126137922609073028e-02 2.610298541110299408e-03 4.416402064232408109e-01
8.393928964589372071e-03 5.659949989307143381e-02 4.212310001683219340e-01
4.363606506981888844e-02 5.286419964711212838e-02 5.029705499850788408e-01
-2.189354215868091758e-03 2.506364097991596596e-02 4.100511426464638620e-01
4.935198523259834436e-02 2.449140470111057719e-02 4.518829901944447780e-01
-3.414830981462981668e-02 1.162745443604116732e-02 4.370466393515729520e-01
2.879890788201407148e-02 5.869599827154929617e-02 4.384282237400840554e-01
1.957982637422364669e-02 4.789130569505187923e-02 4.281011859367013783e-01
5.588341262201183129e-02 1.937241119851868367e-03 4.955230593353904811e-01
4.911150211552406386e-02 3.146208005380448508e-02 5.056986195664541217e-01
1.222920278432747254e-02 2.936096166747449027e-02 4.208441188909646247e-01
3.034143035469860986e-02 -2.180014273185303109e-02 4.408260323040776307e-01
5.300217186637668290e-03 3.097165462281871798e-02 4.061814605528127897e-01
1.122785490938234092e-02 5.143049535684725282e-02 4.207309795572071742e-01
5.225587296091997042e-02 5.341006459548230251e-02 4.848684479539439596e-01
-3.457186475574713230e-02 2.210733603232662575e-02 4.309563862492676312e-01
5.658975533059441149e-02 5.807445856029760586e-04 4.939888921025210045e-01
5.675636780683836202e-02 1.760881916697288121e-02 4.815443849228817075e-01
2.231524227021515830e-02 5.778406958121098946e-02 4.329309010851686290e-01
-2.171828757083827874e-02 3.572682833914630693e-04 4.320517592553602126e-01
2.298889628636883661e-02 -1.217784562751390159e-03 4.351524985318689920e-01
5.575785310174851545e-02 3.036074201902513175e-02 4.891570487420163760e-01
5.394915536679622398e-02 5.272029264135117549e-02 4.670632506273663109e-01
