5.123159345376535057e-03 6.410635367911539373e-03 4.291431803480323381e-01
4.217685250742111286e-02 1.573583647140584796e-02 4.452975401636962149e-01
3.816954279493660340e-02 7.155508306534735796e-02 4.537868907793862205e-01
5.745426086803590016e-02 1.995517699407263132e-02 4.716224178216569252e-01
3.495031588004971629e-02 7.203028084111077686e-03 4.400848796026771703e-01
-8.460619955787547150e-03 -3.171110649717738365e-03 4.309815029449956536e-01
5.549741515363705580e-02 8.316604899280082702e-03 4.897653911448782149e-01
1.208439117835146022e-02 -5.664399575846563659e-03 4.325758457454972894e-01
5.536727684071272165e-02 5.785414948760679403e-03 4.919821303975300264e-01
-3.336638382788820016e-03 2.747914158709872240e-02 4.099862594275349714e-01
1.947228030591358419e-02 -2.076304868406465831e-03 4.340379125370482649e-01
3.978104009276493824e-02 6.537793155938423362e-02 4.498546911167060069e-01
5.418532777930263472e-02 5.014885811137399091e-02 4.818934281020703092e-01
9.413304538721467551e-03 3.131980773287668801e-02 4.132050530752348627e-01
-8.718084037013325641e-03 2.168922865150651677e-02 4.171603360692420770e-01
5.388139545539226416e-02 -4.951675056984312234e-03 4.657828461382057528e-01
3.568753039171372599e-02 2.914940170986565771e-02 4.407921992623652363e-01
6.525119517787105958e-03 4.162110897404760340e-02 4.123233357986884617e-01
4.995579357701206841e-02 -1.814428366692339561e-02 4.634684559557992189e-01
4.429055888772263916e-02 5.153112641491539025e-02 5.057114116328322861e-01
3.218643349705339191e-02 -1.108345952659867129e-02 4.394725092343869099e-01
2.991302369629433161e-02 3.431573288862780485e-02 4.369221077154397670e-01
7.475985280070381045e-03 6.074937267750732395e-02 4.274137746669555149e-01
5.663648166434778058e-02 3.996618987811591250e-02 4.763551574274949019e-01
-7.600589605478058793e-03 2.852061955664856197e-03 4.290629962877044457e-01
5.445116687338329847e-02 2.051381416364774640e-02 4.902367087904420107e-01
5.645002821162990736e-02 -6.585676148069912611e-03 4.745843415266148835e-01
3.445860329761279289e-03 2.591265819243643298e-02 4.090289789605598969e-01
5.482293301544689107e-02 -9.770393889929175971e-03 4.705808309208227014e-01
-2.061260925890127937e-02 2.321628100145882792e-02 4.208544121486942902e-01
5.038669326134790488e-02 6.110045934729672196e-02 4.624674458354469664e-01
5.022352380861161425e-02 5.526628364736207305e-02 4.884711085980144585e-01
5.762375611155726857e-02 1.317305778226441140e-03 4.827833083922504764e-01
1.960991036722496694e-02 2.928190426270913665e-02 4.286724301621435695e-01
5.119124390391746604e-02 2.961359974041730125e-02 5.012621838781337047e-01
1.303124194775510773e-02 3.510480732378051111e-02 4.205417119811245552e-01
4.901180864978531976e-02 2.516070896002352633e-02 4.515223865414698667e-01
5.027372429627789685e-02 1.201983434892616928e-02 5.022686627966562734e-01
1.394035876554925585e-02 5.864128714325622660e-02 4.277239708145615937e-01
5.650329741413346457e-02 2.550432654020116929e-02 4.865797347993794930e-01
2.793911327967154093e-02 1.184088268023111151e-02 4.364342731223652683e-01
4.839399962854806780e-02 2.396348888294252966e-02 5.063300186579494655e-01
-5.520043278564715217e-03 -1.008450503008772280e-02 4.329385973536820642e-01
1.369060897738660042e-02 2.885783151323480233e-02 4.225241003727499556e-01
2.941869494094694754e-02 -7.536779749670811934e-03 4.375082838127875018e-01
5.637894950667388799e-02 3.859642319497749718e-02 4.651573286995965839e-01
4.880526074394151564e-02 -1.465316978674365868e-03 5.185972466289686666e-01
2.208582927773126287e-02 1.501592334227385209e-02 4.329320604727508459e-01
1.057812199146814826e-02 5.313217070302490852e-02 4.208654079480397825e-01
4.159844144393037152e-02 6.750926480715163658e-02 4.730907048889597677e-01
5.770596671673946729e-04 1.883095016693656434e-02 4.184876281809540299e-01
2.893149836011428555e-02 9.299142977147071632e-04 4.376135415469670775e-01
5.725384246744108507e-02 3.280047886704262616e-02 4.664618556373603675e-01
4.017577732610397301e-02 7.020459293059264083e-02 4.540048092033838190e-01
4.932722752047273562e-02 2.959265379643098368e-02 5.053868394568049593e-01
1.454820921519705060e-03 5.531305317487929252e-02 4.187007388898154048e-01
1.683554972341953088e-02 2.688972170294941233e-02 4.265256682072492977e-01
1.019826868819845474e-02 3.149732892552857544e-02 4.149997654270979885e-01
5.451737407582850359e-02 2.108673589563328510e-02 4.903340305448267711e-01
5.308332147673468920e-02 -1.728027059203037907e-03 4.621575784214971283e-01
4.689522027640971591e-02 4.163356505904249050e-02 5.100026469898567560e-01
-5.804836260515033007e-03 5.128390252514740399e-02 4.146271117921842553e-01
-8.904897619909948187e-03 1.854317087897917535e-02 4.190268183330992380e-01
1.373365810003829290e-02 5.031891723941588068e-02 4.228077796313002290e-01
5.525132733988390860e-02 4.672109244058520600e-02 4.645293659185501522e-01
5.620351976903503050e-02 2.769264521775013921e-02 4.625930736759645834e-01
6.296900362891856562e-03 8.305592170550933281e-03 4.285077244310203648e-01
5.554426438486107127e-03 3.881665720302660688e-02 4.106157828738944415e-01
4.557750626651524417e-02 -3.357102539225466625e-03 4.503600399332235993e-01
1.387048229691533255e-03 -1.656023100101919332e-02 4.355298086160896975e-01
3.610678349640890003e-03 -8.006472025970226558e-03 4.320435083436948709e-01
1.804358583164294635e-02 5.426536019312379333e-02 4.277755038260869780e-01
3.005219266717598300e-02 2.627501163734648204e-02 4.370369903754284802e-01
5.094891522793523059e-02 -4.576467911989066592e-03 4.587465650042522047e-01
5.750548255702662981e-02 4.890418999597826062e-03 4.793177148913002616e-01
5.457769704352707918e-02 3.914392750491178102e-02 4.942194702818407670e-01
2.080216941940259828e-02 4.048113772931822424e-02 4.290277737168188832e-01
5.406532204952294030e-02 5.212935868406928797e-02 4.754203837492649298e-01
5.663392283776049613e-02 1.711830205098289343e-02 4.827424525277019818e-01
-2.938857264535549643e-02 3.193753506428027161e-02 4.225377747878371060e-01
-2.474548832430191816e-02 4.100570955822160912e-02 4.181686865341205372e-01
5.719173379856443834e-02 1.258034691980369768e-02 4.777513654993029713e-01
3.626190692253074277e-02 1.640261753124248184e-02 4.409073927815884142e-01
3.579042389329799290e-02 -1.919398764993439019e-02 4.436790453584916194e-01
4.223245757646698628e-02 7.003156444750549547e-02 4.564477454051524830e-01
-2.422640374896246548e-02 1.823360175847824061e-02 4.249309155222806278e-01
2.033424896248298142e-02 3.494893205791754776e-02 4.287316674842528430e-01
5.575522124588423722e-02 4.423127457659151163e-02 4.785155834206216707e-01
9.813468452887131113e-03 4.577530796370588018e-02 4.173173339786406810e-01
5.531434673878406899e-02 2.297762407594865566e-02 4.605462186082207587e-01
4.310697285561346237e-02 6.884541907257026028e-02 4.635458345787771273e-01
1.350230202565551839e-02 -9.787244083046604815e-03 4.336521877750009191e-01
5.332290052077970355e-02 5.335785126221355423e-02 4.788637293192099520e-01
-3.012065267544913882e-02 1.736189801916029202e-02 4.288425799926228743e-01
-2.340211218556892750e-02 1.977927923768677682e-02 4.237302948773608025e-01
1.446586327610414890e-02 -1.830251989269944882e-02 4.364972336512517037e-01
9.820331725893912539e-03 -1.936841309807903547e-02 4.371279554073266294e-01
3.531658002705848759e-02 6.736989207028468152e-02 4.501048690548412057e-01
4.502815080562213440e-02 5.286993978201332683e-02 5.017436976089024725e-01
5.745807213317152828e-02 -6.011992966542869035e-03 5.054995607317708251e-01
4.894858157214889566e-02 2.096121175762776997e-02 4.514083725099720112e-01
4.169648341300071642e-02 -7.965646778772652106e-03 4.469030737179043866e-01
5.304577461193441673e-02 -1.658975377180237770e-02 4.697489287801800417e-01
5.592715918986813223e-02 -5.031692384308780210e-05 4.989707572470532537e-01
5.640465164353176269e-02 3.977638496528028422e-02 4.797882377552263877e-01
1.314837631031583534e-02 5.057059896947588284e-02 4.222283111871526495e-01
2.540388031829145937e-02 2.595984087118507339e-02 4.339931032078048756e-01
2.925552644404503383e-02 9.415502211686157391e-03 4.372342626209444472e-01
5.722595671288663310e-02 3.533534840074234462e-02 4.778997352078215854e-01
2.439492319640226142e-02 4.841764440181586110e-02 4.317271138321285284e-01
5.524813742842320935e-02 -1.098780763684668524e-02 4.730883267453622754e-01
2.986765192152770858e-03 -1.312256781433907005e-02 4.337578077639533403e-01
5.055958624185146605e-02 1.963553279168227944e-02 5.001389184570846913e-01
4.752153364585030154e-02 -1.901171210977179934e-02 4.585817091058745354e-01
5.110729528390603460e-02 -2.268809808509527227e-03 4.578497484788482397e-01
4.571348445040565589e-02 5.021825147168393344e-02 5.082377364052382829e-01
4.076707551826909415e-02 -2.402431825608171076e-02 4.508195539722926748e-01
2.730071329038861842e-03 -1.221595369933486074e-02 4.332063775076699375e-01
5.743051502336667113e-02 3.326014512825484909e-02 4.796573305256501274e-01
5.780807995486347134e-02 3.042222702144106034e-02 4.772171886665683149e-01
4.629052800811122442e-02 5.763450338625276947e-02 4.907668347231906036e-01
4.587226966896546659e-02 5.201994891722018510e-02 4.494655914266176278e-01
-2.547337860601284198e-02 -7.387867013780311312e-04 4.338898604148324623e-01
5.295426720783683733e-02 -6.634545437797568536e-03 4.646894336268564407e-01
5.688868400142323839e-02 4.593618650934079041e-03 4.723268471412899738e-01
2.601235959821792190e-02 6.050522679079778365e-02 4.377732287269351374e-01
-4.697231604877710742e-02 -1.831636510941441268e-03 4.455090110700727357e-01
5.035470475661993350e-02 5.999307546338029928e-02 4.603904225461651900e-01
5.615422836268132295e-02 5.088433479188960926e-03 4.686894218110251864e-01
5.447037060552195609e-02 7.346112356465308788e-03 4.618740929394139494e-01
7.958008625364280247e-03 5.706341715393672964e-02 4.212469263619681992e-01
5.689815957462001500e-02 -1.498583043658270955e-02 4.801094536058216899e-01
-8.622395106765847611e-03 1.325766708540976162e-02 4.226444370602730483e-01
5.000458397603209371e-02 2.519781702504334323e-02 5.025848063931330767e-01
-3.414118732287724223e-02 1.721825629080320566e-03 4.368712350674228140e-01
-5.412270553117416727e-03 5.329754726785482233e-02 4.166710126990768037e-01
4.490310275348273483e-02 4.530368972803101163e-02 4.481169585098895292e-01
4.415473979172836183e-02 6.681958297268862645e-02 4.550689672087642745e-01
-1.187662717099666459e-03 1.822249212375529753e-02 4.186670887071854974e-01
4.820624062691818840e-02 4.573802813541566481e-02 5.070333971044277410e-01
3.553220315758377768e-02 2.641862784274689666e-02 4.406281770708548318e-01
5.381415264717248625e-02 4.867113789501184562e-02 4.877677793824560792e-01
4.816881379798983870e-02 6.262345462647667116e-02 4.778021851287374555e-01
2.575081665125690880e-02 3.962111324256458594e-02 4.332518993169658938e-01
1.583474626782044314e-02 -2.137790798552599222e-02 4.370883850344811083e-01
-2.316098188809111169e-02 2.799636997212205051e-03 4.314758297366453332e-01
5.152677827273885458e-02 1.883841853574008164e-03 5.107836950748644300e-01
5.586779968592926401e-04 -1.018662746804930783e-02 4.322426923713096891e-01
5.100001797274528875e-02 -1.051983308667170554e-02 4.626817977562618922e-01
3.006176907842227769e-02 4.341602840118282541e-02 4.365971169688251940e-01
-1.263276699368452022e-02 3.842339249308250604e-02 4.115423264234041034e-01
-3.585539706722349479e-02 9.192738218420246077e-03 4.397358402929055776e-01
4.556425527426988947e-02 6.802760323234345596e-02 4.637177055342205367e-01
-3.472858965088251176e-02 1.139802824523520643e-02 4.380496791933944367e-01
4.631489773679746402e-02 5.108025248599368934e-02 5.050556009857019024e-01
5.779572142677855129e-02 -1.337100581044174674e-02 4.832260831059200790e-01
-5.549451020482721805e-03 8.388127251168050330e-03 4.254057350488577582e-01
5.790166311634022123e-02 2.589072466648940918e-02 4.753579857349611859e-01
-2.147702206846187345e-02 6.328016875501218941e-03 4.294076053124236680e-01
-4.308131757967073421e-03 4.220372088280483630e-02 4.097439450645521952e-01
5.604657406644110440e-02 4.520262401721580198e-02 4.717179836727868336e-01
4.400203508717554640e-02 2.391645079573245791e-02 4.468284286059275856e-01
5.458439995576218340e-02 5.083055482215090293e-02 4.685353598685596532e-01
1.791608427572712048e-02 5.118143479621029002e-02 4.268687700700790622e-01
1.544815526843678656e-02 -9.842756970768438973e-03 4.339752681485556374e-01
1.838402657592626277e-02 9.334252693889589364e-03 4.330339872063440065e-01
-1.419807743733013730e-02 1.371218507419317764e-02 4.235349762039716803e-01
3.932432101446681205e-02 5.474315512124415528e-02 4.445297629821154950e-01
5.076287858912817419e-02 4.622076171830835634e-02 5.013753760489412237e-01
5.486086078543512407e-02 2.329901117520488327e-02 4.904886785803106442e-01
4.218447282502321011e-02 2.123237378378748513e-02 4.451421339219928108e-01
4.753222643619356425e-02 6.653939618683332724e-02 4.664927231103427330e-01
4.240432210185637874e-02 -2.131529812505266602e-02 4.515277538997413131e-01
5.597160340165661246e-02 4.903519817903587152e-03 4.675352977045284519e-01
-3.406646701324419265e-03 1.159650639206802857e-02 4.236797654372897459e-01
-2.429690397112927586e-02 3.618926222621788452e-02 4.176298564077973730e-01
3.140735569173479236e-02 -1.901413245704904401e-02 4.405537882491701862e-01
4.253661826919820366e-02 5.214053436417183385e-02 4.466440607793176754e-01
4.838355617234327277e-02 6.566753530119075200e-02 4.679327847234385773e-01
5.196033412133663210e-02 4.908301204769102699e-02 4.558206085900843307e-01
7.862691823670249838e-03 3.376242272082773804e-02 4.072727208506328189e-01
4.099283092268086320e-02 7.161759843837726958e-02 4.552563262665623167e-01
3.960546644968574760e-03 -1.410340589312759560e-02 4.344466803518203801e-01
-1.671721224083944687e-03 -6.203754906846893277e-03 4.314294930711530807e-01
5.316156340550967641e-02 5.944703711681289388e-03 4.998759872999713472e-01
1.303212213755783160e-02 -1.002657796440174082e-02 4.336589009300275133e-01
4.676672764355439826e-03 -1.138414325813278359e-02 4.329897870438715324e-01
5.753047425689498257e-02 2.729519530059562257e-02 4.811182932977240423e-01
5.320498109656018187e-02 9.662219919417007474e-03 4.961873687732620830e-01
4.202595610222513434e-02 8.705503404686024127e-04 4.462205266471284681e-01
2.143821990005756115e-02 -6.423832080052328461e-03 4.348112853881176965e-01
2.518303943953486418e-02 1.305835642139967917e-03 4.360566676715049161e-01
2.460579018863426337e-02 3.576473068826789559e-02 4.323845274015623574e-01
4.839125453501278568e-02 6.348271582237742516e-02 4.757442569935289578e-01
5.537315919484065568e-02 1.374249492600664382e-02 4.620136702254095673e-01
3.571195485383499291e-02 -8.386399939377151697e-03 4.418096038068050069e-01
5.083814266108648006e-02 3.230107401486470575e-02 5.026254445836513263e-01
5.772707301620728926e-02 -8.539891374602240695e-05 4.853635230133643841e-01
8.392216356195439982e-04 5.016583354812601675e-02 4.127886900979834683e-01
-3.770295783921935595e-02 2.704015533229661965e-03 4.387849253619119927e-01
5.521886666020173889e-02 4.456741807267332323e-02 4.830064241519173573e-01
2.648283314397691102e-02 2.522990887319826597e-02 4.346924262921990079e-01
3.017965915055415005e-02 5.824161505256913313e-02 4.389823430619532174e-01
9.722735183152293389e-03 4.486591209190439467e-02 4.168834361269414535e-01
4.605051146502946863e-02 7.013051710567512129e-03 5.154648726570062456e-01
3.066943418327947035e-02 6.024034356695243814e-02 4.407549230646087834e-01
5.480628548227160085e-02 4.628081005648054802e-02 4.838051006650340713e-01
4.619971079122578428e-02 2.854054705775026582e-02 4.489592426074468512e-01
4.549268125743624602e-02 4.151581646138508691e-03 4.487752494965835393e-01
5.260154469105476904e-02 4.699898997475804308e-03 5.040308089250187251e-01
2.771645271813005101e-02 -9.892792026288500101e-03 4.371454549863819095e-01
-1.050269500937093745e-02 3.534615507044080313e-02 4.116462998263476503e-01
5.660809787852731645e-02 1.259114801356323900e-02 4.821765273154768328e-01
5.756874689286402280e-02 2.059573716183629721e-02 4.737267381250057086e-01
5.401213620471120858e-02 5.225279092929074193e-02 4.640485846908507517e-01
3.483162361134526080e-03 5.552047936766382752e-02 4.192043849935233046e-01
4.624824747315148255e-02 2.740384673309320326e-02 4.489961820253053348e-01
4.723733038153202224e-02 5.870468455065347424e-02 4.869386325035967023e-01
3.664612503879495498e-02 -2.373826479291104782e-02 4.462379577081809767e-01
5.323663791646756488e-02 3.567747105654060780e-02 4.983353844967825519e-01
-3.076707969949303220e-02 1.195759953467567804e-02 4.330496196013798871e-01
3.908690934746311685e-02 3.521300102375137225e-03 4.436463611692867404e-01
-5.985824353125388138e-03 3.179186932184263452e-03 4.288682794916161001e-01
5.118880608436532365e-02 3.384998424053773519e-02 5.021949404466775624e-01
5.311680598555371113e-02 3.405956980460449202e-02 4.981995331796285620e-01
3.998764180057008677e-02 -2.446345646191263809e-02 4.498158726104856120e-01
4.842646895298732823e-02 -1.320386375051119804e-02 4.581587563597116497e-01
5.052478655264638907e-02 2.819567244625106189e-02 5.022276467556691104e-01
3.944351275624790459e-02 4.753930996958023736e-02 4.437131267265919665e-01
1.266067800948108765e-02 -1.467549085710025472e-02 4.357159331721231488e-01
3.387211876115921866e-02 3.077174747117802575e-02 4.396226834568756625e-01
-4.980824174175007765e-03 1.943183674602339331e-02 4.166696530523472664e-01
5.558063531582691300e-03 3.028429181285290095e-02 4.061888657778530698e-01
-9.440283956664494852e-03 2.964202399659932041e-02 4.132475560890108701e-01
5.763335162071055867e-02 3.420733053510902066e-02 4.717726899236723836e-01
-9.488118715833672098e-03 5.155149779782708386e-02 4.158779207870646477e-01
5.506668173262887697e-03 2.102568091938255071e-02 4.179439211253360154e-01
-8.545124648800231284e-04 6.903941672186533242e-03 4.268885257677332290e-01
1.808873971667810179e-02 4.796064497939313970e-02 4.267310755636606889e-01
3.244748643399184007e-02 4.000646440529019576e-02 4.387407700795138976e-01
1.020719241209738434e-02 4.957279264923537127e-02 4.189636424941917681e-01
1.170366513203159944e-02 5.252702692457775907e-02 4.216736392517059229e-01
5.806882961322516051e-02 -2.504800154161503176e-03 4.857515233547378131e-01
3.707980253587931513e-02 3.012334720957530326e-02 4.417798401012780207e-01
4.221902690623048626e-02 6.778557602833952533e-02 4.677345512198380351e-01
-4.497022579240366608e-02 -4.331165231815522175e-04 4.441384899009007126e-01
4.864491430336640582e-02 6.396598694895679060e-02 4.611314213309868904e-01
2.414502560871981465e-02 4.861655158516269004e-02 4.315699444219842085e-01
5.111657003801467480e-02 -9.757536966121726704e-04 4.571767990411063631e-01
-2.305270252620484836e-02 5.323810539741703589e-03 4.305221307364996419e-01
5.046944520485016454e-03 2.578149750970321757e-02 4.095932570773824777e-01
2.699396579205132207e-02 -1.480198210315710611e-02 4.378572216719422983e-01
4.205973556465377600e-02 2.489221742399802192e-02 4.451017239290013805e-01
-2.916967675317906974e-02 2.067611760350366451e-02 4.263228341265609678e-01
2.236515888198836732e-02 1.048138252631324735e-02 4.340589249485489742e-01
5.139993770592284072e-02 5.505539282997836542e-02 4.843405787675132967e-01
-6.672563442952708646e-03 5.012391018098820428e-02 4.134233816885364288e-01
4.293824032294722010e-02 -1.832372008190584489e-02 4.504691274681121849e-01
1.511268140014151301e-02 1.097298489484266511e-02 4.310173551476484399e-01
4.786021004170516735e-02 4.572846251057711281e-02 4.512002299626839408e-01
1.182561009964117754e-02 2.839460451392176316e-02 4.200110957093866060e-01
1.429214945462072180e-02 6.553080352628086643e-03 4.323687255833266185e-01
5.793725370848624989e-02 -9.815440123318124738e-03 4.853965230123192809e-01
3.682385643899976566e-03 -8.339559981826009244e-03 4.321284339913754602e-01
8.570454737108193846e-03 5.691368642270615980e-02 4.215882451652782636e-01
4.847918586574699595e-02 1.296762064097964871e-02 5.068247546026630745e-01
-2.474776471925827989e-05 -8.574503492354114756e-03 4.319180999429491075e-01
-1.228816856952920367e-02 3.256118336161644648e-03 4.287649297124522252e-01
4.583051218688922318e-02 -2.198006547689966561e-02 4.567881108765558529e-01
-1.469095030622769200e-04 1.870979682738071678e-02 4.184400314043144609e-01
2.617227452647199679e-02 -2.171948031402680303e-03 4.362893264584972730e-01
-1.805455912077883612e-02 3.046995622082994404e-02 4.164666086687821012e-01
-1.323676653079427189e-02 2.188611477995835650e-02 4.187221441321539173e-01
-2.025532183472418188e-02 3.352631621000914941e-02 4.164620193401242787e-01
5.070302666535621283e-02 6.070700262536113390e-02 4.627993083349782322e-01
5.679489679855194428e-02 3.762355385495712995e-02 4.789761646697179853e-01
4.051627190409468754e-02 2.099825739156398544e-02 4.438403116456311470e-01
-2.134793870237909619e-02 1.321525978082040836e-02 4.262428360267076499e-01
-1.959760988445858210e-03 3.228974632568932385e-02 4.065950886144932830e-01
4.968031988808254557e-02 5.721579701856505801e-02 4.848187471078863608e-01
4.903617447775333871e-02 4.977921979689552828e-02 5.018700313042537831e-01
3.659269220767528974e-02 3.605973022219514934e-02 4.416441225963282924e-01
5.432561000015446312e-02 4.001859212000163230e-02 4.949204076748530690e-01
1.040282457056474451e-02 6.121273335258545223e-02 4.324738165425638381e-01
9.512020585157737740e-03 4.002775413367806734e-02 4.154477853994943404e-01
1.825273646745875084e-02 -9.584646966374702967e-03 4.345060912408989506e-01
-1.412983103772685704e-02 2.187011623543166916e-02 4.190552021519100001e-01
5.320581199247011173e-02 5.411300379706338731e-02 4.759654491948036581e-01
8.142109659216242162e-03 5.063120497598127406e-02 4.172712346543224760e-01
-5.430631170942180549e-03 -3.968314746764295929e-03 4.309647839242429224e-01
-1.358089896390150472e-02 1.845121987626475307e-02 4.206508191370086358e-01
3.940798673858036949e-02 -1.671578160368367150e-02 4.460175729719030313e-01
4.179037834400201740e-02 7.983001438941339858e-03 4.453350139182517542e-01
4.902210982046548149e-02 1.297144393719527888e-02 5.051633527535934753e-01
4.090659076672446132e-02 -4.437713707358644129e-03 4.457711011723463623e-01
-8.881374719829438283e-03 2.558988957259509395e-02 4.149263315369083327e-01
4.756134354165324207e-02 6.638192293959631340e-02 4.672695255492058664e-01
1.395324367589234615e-02 1.612005323787961408e-02 4.280939924053625001e-01
5.399266840040652105e-02 1.884520174028744138e-02 4.577384776885501383e-01
4.497661949725798719e-02 5.459681454264288247e-02 4.492119353532809112e-01
5.241630571678587008e-02 -5.075135956248244366e-04 5.125996722722897525e-01
5.794344187841454774e-02 -1.168510686404300794e-03 4.854799143967741815e-01
5.338806944710992181e-02 5.063578752984790321e-02 4.859305200706319772e-01
-1.029114749114471219e-02 1.961014072821775159e-02 4.188311933516913887e-01
5.448063312298000865e-02 4.369827164338811049e-02 4.590836949466786110e-01
-1.639509553609308154e-02 2.104608195611111510e-02 4.203219368370294529e-01
-1.948525935881603027e-02 2.918016285732439111e-02 4.177240226773060727e-01
5.453403007100319361e-02 1.336888248180045230e-02 4.599220783408769497e-01
-3.234533842486189692e-03 3.310458327490586883e-02 4.074157476089489416e-01
-3.506062886717702110e-02 1.603725118551662873e-02 4.370735276618002429e-01
1.567816231322772050e-02 -1.485681345745920069e-02 4.354613955379323387e-01
2.688351270757442096e-02 3.159791254845344816e-02 4.347442196603883424e-01
-3.077384481732172578e-02 6.477146648332757738e-03 4.348145740163251727e-01
4.651702241734596149e-02 6.201103528424033173e-02 4.830073304777783849e-01
-1.741285868707578843e-02 4.106899235778075502e-02 4.129727277994197365e-01
5.784877095868156544e-02 -4.316904285976280731e-03 4.808751778615597550e-01
5.783352170616574278e-02 -2.353067989800422966e-03 4.793853614196496582e-01
3.328301056385896822e-02 6.735340921540114434e-02 4.500523544954678767e-01
5.064318592280057929e-02 5.826102429606835886e-04 5.143104241188206638e-01
7.645502757590127985e-03 2.104975802017753153e-02 4.203709514703636851e-01
-7.816757290435722913e-03 1.862789684033952162e-02 4.184904408712903923e-01
5.741468236522528912e-02 -5.826045472057228558e-03 5.049822951737161780e-01
5.478264432587185567e-02 9.719813632539143350e-03 4.618236369370967154e-01
1.597596992468884591e-02 3.715309705744015978e-02 4.246328236699623004e-01
2.109095027386858126e-02 -1.088760623620914705e-03 4.345349000512944704e-01
2.702735410257088577e-02 -4.434988703697972240e-03 4.364789134889357491e-01
-1.627444567669640227e-02 2.894057073141596478e-02 4.164097214812533809e-01
5.760010453338607755e-02 5.504337649286457270e-04 4.853284123231111358e-01
1.223072353475335161e-02 6.016988701396455003e-02 4.291296531540530479e-01
3.206304249983946142e-02 -8.931164334576528058e-03 4.392154780807879244e-01
5.776588034265256466e-02 -1.078234179837266049e-02 5.136847563350929180e-01
5.335583667566411170e-02 1.124374804362508404e-02 4.947803943928839598e-01
5.643663596318550246e-02 8.053063681076725461e-03 4.684160373159503288e-01
3.519268266949793916e-02 -1.938133818426546195e-02 4.432844273875629626e-01
-1.542969715454215254e-02 1.840324747521029231e-02 4.213655585908532841e-01
5.014026983739375276e-02 4.412587759916062474e-02 4.536142453102440242e-01
5.696975351903230816e-02 -7.619997409719862086e-03 4.781509226444023430e-01
-8.211229200321757890e-03 3.135187022701451526e-02 4.119738547057469336e-01
4.981920399584895132e-02 1.118043994674995656e-02 4.523150438783711813e-01
5.764372759527597312e-02 2.253140524998389904e-02 4.727758632663756067e-01
4.748539525513817416e-02 4.597587326637062044e-02 5.081662940538917983e-01
9.730611854811461320e-03 5.548984222975231195e-02 4.209822282164080720e-01
-3.499673743959212657e-02 1.036269708244367399e-02 4.384427807710525871e-01
1.768703288005383026e-02 6.256251378454991130e-02 4.427183731911389364e-01
4.271573812502744288e-02 -2.248008305122244435e-02 4.527838418902047080e-01
4.956446174240237285e-02 3.622281080677938747e-02 5.057440927952250309e-01
9.271608400037158540e-03 -6.666786692509458698e-03 4.323694278737231778e-01
5.499598726056939557e-02 4.063349251603179391e-02 4.606233717097168445e-01
4.464457338633046057e-02 5.594976958740581485e-02 4.948985651919173834e-01
2.800794026907619735e-02 3.769279136247701001e-02 4.352221305965769393e-01
5.699233050702283421e-02 1.096136387022909539e-02 4.805970770859954166e-01
5.528347845929396792e-02 3.094829113429885259e-02 4.919163302384046976e-01
-3.893455044123920322e-02 -6.706682148971390613e-04 4.405033855007751686e-01
-3.413352058874145282e-03 3.637394065693143330e-02 4.073163322577902923e-01
5.486411613093038209e-02 1.500274169792841297e-02 4.888073913282946492e-01
1.370281116814778266e-02 9.038922814015803997e-03 4.310978153832802917e-01
5.024257613585435961e-02 3.350634410255194651e-02 5.041870276080298030e-01
-2.283964092558330577e-02 9.955988263323651763e-03 4.287882780009719119e-01
4.269127146408922130e-02 -1.852051400745709578e-02 4.502067071177207613e-01
1.343051317540457437e-02 1.841243643526494292e-02 4.262619726124429742e-01
-2.047581477251633406e-02 4.206441726456056768e-02 4.140947001439526098e-01
3.402398126842413190e-02 4.680608109619698726e-02 4.397461475562501887e-01
5.408198577983677063e-02 5.036582106853963042e-02 4.823465192221936815e-01
4.681733441467423457e-02 5.974187763176261323e-02 4.858771273408448166e-01
9.104812888604003202e-03 3.176843770269600908e-02 4.120567221453887985e-01
3.103986106752206625e-02 2.991476378861026089e-02 4.377277888869449685e-01
4.049837870862194739e-02 -2.216832887646886380e-02 4.487984563040836039e-01
5.314433732307297792e-02 4.733956381414824999e-02 4.923320361368404563e-01
2.394311066384936793e-02 6.140607423818914001e-02 4.392886543389376564e-01
3.160308327158828368e-02 6.518821878580402518e-02 4.471113478436833932e-01
3.769662300158829055e-02 -9.735252379677686654e-03 4.434203549551532508e-01
-1.314526218109252423e-02 -9.492095746365272410e-03 4.343215543585371985e-01
5.516367820864590682e-02 -7.726091002641930980e-03 4.704241350598543647e-01
6.521966766770768975e-03 2.639856208313607830e-02 4.115950798166394531e-01
-2.787638119789008842e-02 1.508222347073364701e-02 4.291347873401871182e-01
5.488564613368265843e-02 3.353702670022900428e-02 4.935235002501442425e-01
-3.829003555899777866e-02 4.004816612163777587e-03 4.436131328758761705e-01
-1.169087348958120290e-02 7.124273851014889178e-03 4.262838495689397766e-01
3.429645941670363476e-03 -1.915496253824444314e-02 4.367018780141105894e-01
2.366807424587236489e-02 3.571760610255860641e-02 4.315929873087276936e-01
-1.883179806238014647e-02 6.296436041198968589e-03 4.281702374240853315e-01
4.127010114928834211e-02 1.899119013016680943e-02 4.444740557499843314e-01
1.890361764214402301e-02 -1.474086352497769835e-02 4.356729806451816733e-01
-8.791042196196120762e-03 1.348745627350991794e-02 4.225456131112798608e-01
5.381745699871885030e-02 2.856091815488951552e-02 4.951066526571471504e-01
4.849479597471095804e-02 4.925264105136480108e-02 4.519879592099945720e-01
9.317924300601961723e-03 2.806080880576748010e-02 4.146675449514557465e-01
1.501717619863259835e-02 5.367716265991276381e-02 4.249254592418072463e-01
3.079612171446016733e-02 5.540844820474198629e-02 4.375878546464521679e-01
4.495079873838431911e-02 1.297639642939646919e-02 4.475780665295210903e-01
1.994253745230200464e-02 1.330697113806208337e-02 4.322185058712235128e-01
2.555343841988897552e-02 4.482781377786410060e-02 4.327535382802816244e-01
-4.258693134908996328e-03 3.090863376940200524e-02 4.090576964168441965e-01
4.420650314527522357e-02 -9.850235079398696539e-03 4.501373327734224938e-01
-3.525808328992616203e-02 5.500388268196305594e-03 4.392455139450792689e-01
5.092667630672435657e-03 3.882452783835503574e-02 4.101073592695046455e-01
1.134961993465584060e-02 5.729639068112726830e-02 4.241969916921778383e-01
5.747103483700356785e-02 3.398955262806113015e-02 4.774137988570912317e-01
5.458273996402358830e-02 4.583485732470256313e-02 4.599626858961394782e-01
-2.290053229050482801e-03 2.203755613180115314e-02 4.132636486557864641e-01
5.257849340166938223e-02 5.260523362105102435e-02 4.575798891198565865e-01
5.726865601776378462e-02 1.486634855992859452e-02 4.748275290599187626e-01
5.470127498699780405e-02 9.625599371560381728e-03 4.916673050870389305e-01
-1.481271051515335203e-02 2.887379566012807791e-02 4.159078341856959904e-01
7.059262041794985183e-03 1.037021668590321077e-02 4.276453522819634867e-01
4.162738824271297600e-02 5.524425052672224390e-02 4.465793122946815630e-01
4.899273785493899608e-02 4.814128544381362368e-02 5.036550341234906636e-01
4.683310289462388337e-02 2.243362787609172113e-02 5.100905205929473496e-01
1.956599252617916354e-02 4.243320522460711924e-03 4.342057952331256354e-01
-3.343720661769158942e-02 1.623478351951255366e-02 4.335293381450690542e-01
9.081799260265572757e-03 3.679615258850311293e-02 4.145309105735623945e-01
5.176315250268390122e-02 5.700836074363985206e-02 4.764080813025218797e-01
4.825518424964545666e-02 7.678423483695202140e-03 5.110402585323271518e-01
4.202336149810481647e-02 5.048064460110168045e-02 5.104340233905168001e-01
5.754936738714119815e-02 -1.938997306423991679e-03 4.779033697051787710e-01
-9.824656670880725293e-03 3.108971331634689805e-02 4.126582593721326297e-01
3.104690486557888304e-02 6.264301997794678722e-02 4.422363492789175843e-01
3.392976929396113867e-02 3.222223388188221339e-03 4.398838991842735080e-01
2.799958823158573556e-02 4.527754134538556664e-03 4.369530586969519459e-01
1.463444050313369299e-02 1.021406477560584530e-02 4.310872601801193915e-01
-1.880747435376417878e-02 1.633043885104997275e-02 4.237683930229804163e-01
-9.535083531891155872e-03 3.947128218002914773e-02 4.102919722016198922e-01
5.698175538789793104e-02 1.756780150863853154e-02 4.665762304461575916e-01
4.422094004754154734e-02 6.335540711323639496e-02 4.829015359261022988e-01
5.087975782699461630e-02 1.532383231203148302e-02 4.535899765415496998e-01
5.767568986316020524e-02 2.167697915255414540e-02 4.769848314458794425e-01
1.628206998975869485e-02 7.728246184858111488e-04 4.332347067582865696e-01
5.107931768877998352e-02 -1.728789500573585380e-02 4.656736098878646590e-01
5.801575225003879205e-02 -6.457787972673413590e-03 4.848016814165820310e-01
3.656158471537004906e-02 2.115785954778977643e-02 4.410634664835974550e-01
-2.882758481105631918e-02 1.544059157287925622e-02 4.294130547817553434e-01
-2.896490841793864304e-02 1.406510841085976266e-02 4.305172167064575395e-01
1.742444997057325182e-02 5.958543023201075262e-02 4.320869497403153625e-01
5.094866241108192417e-02 6.721742093798334719e-03 4.541442668817669004e-01
4.689044676456551736e-02 3.995899171911903441e-02 5.103417948958139938e-01
3.180044217279791308e-02 -1.796730662152003916e-02 4.405314432289789139e-01
2.798396290127838637e-02 -1.520122653988650180e-02 4.382577968776457111e-01
5.646788070594878362e-02 1.620967196576608010e-02 4.835209184091741053e-01
4.217935770495532394e-02 1.667664020731059876e-02 4.452591244320643904e-01
1.874169233646400673e-02 2.392545357797837627e-02 4.288689617278276800e-01
2.412698131876151071e-03 2.020891884474529041e-02 4.170243115783688337e-01
3.833626752270519189e-02 6.458374628933569173e-02 4.476250330709012348e-01
5.097431062225080828e-02 -1.450352425479828691e-02 4.642233396705630621e-01
5.238536008785728976e-02 3.068353548331195085e-02 4.989167750783718991e-01
3.537016363524098789e-02 1.582151239178306718e-02 4.404057334014196967e-01
7.768132735629399918e-05 3.645042153689186104e-02 4.062492426201548823e-01
-3.240826752288521878e-02 1.663763112296018799e-03 4.359398875161692444e-01
3.609947454946871304e-02 2.679977302030573175e-02 4.410027906784255158e-01
5.328455499618713065e-02 -9.721427780566012367e-03 4.671428192491713371e-01
8.730188386303764855e-03 3.971302282034337022e-02 4.143748111970110282e-01
3.463839556458455076e-03 4.276004581989373970e-02 4.104335926392496114e-01
-1.542185117293636692e-02 1.848045572059159314e-02 4.213211926427696818e-01
5.492466247012739444e-02 6.408948793309563255e-03 4.930238483414918771e-01
2.893485439030563100e-04 -1.311357232859592043e-03 4.307118648360825364e-01
5.128636093052662409e-02 3.126437379818482187e-02 5.014221491263055608e-01
-1.933888745756291716e-02 1.786961579884276466e-02 4.231514072573392404e-01
-7.997711246672879401e-03 9.933917792198569338e-03 4.241937506074147102e-01
-3.273354083088084177e-02 1.904251672641464610e-02 4.301500203714938020e-01
4.326125555246573134e-02 6.649203663378613904e-02 4.535495834128582260e-01
-9.544063413404163532e-03 2.842260248336382286e-02 4.139489493067563530e-01
2.986673005892340541e-02 6.388238657368840168e-02 4.423840017489578114e-01
1.437152547343730630e-02 4.569670246418071347e-02 4.227615400405748125e-01
2.261773170348761741e-02 -1.183350880253137768e-02 4.359288727247580542e-01
3.831078767011618369e-02 5.004654486589638074e-02 4.429775746155606431e-01
3.156571098433191142e-02 1.354982754392089830e-02 4.380714382633765225e-01
7.186986127919072279e-03 3.216338901433548475e-02 4.069637150165136830e-01
2.043991331554653040e-02 5.328706381735528498e-03 4.344840442329623298e-01
-2.701118376187773562e-02 1.556488074121752281e-02 4.282788544757951676e-01
5.455776263512839008e-02 3.072079634422455671e-03 4.998493157905273265e-01
4.212747424965168630e-02 6.772935695968342051e-02 4.705391288862192933e-01
5.290959442453960909e-02 -1.611051635663569154e-02 4.692012845023839085e-01
8.816575137674540277e-03 3.357848112452124084e-02 4.097951858896291544e-01
9.935065875909209615e-03 2.633849141756450241e-02 4.190057755491187752e-01
-1.889744452506120524e-03 2.926075745963170258e-02 4.074841969026166133e-01
4.707678780294358156e-02 4.470000339750767465e-02 5.090910483380621798e-01
-7.740869315863458701e-03 -1.154602405336621618e-02 4.337682831643638326e-01
1.703676170697130884e-02 -7.222888336281424806e-03 4.338084546388858986e-01
3.036446048047427085e-02 3.561095085161233159e-02 4.372448921009187139e-01
4.922820519592907562e-02 5.293634522345707499e-02 4.532359032983959146e-01
5.253654099302550867e-02 4.100141793195857809e-02 4.564958813594499620e-01
3.412745975085174771e-02 -9.278908912392237057e-03 4.407102938270073822e-01
5.821345234303856864e-02 -1.337839479270047996e-02 4.859343980243113204e-01
1.599256452442542747e-02 4.612445858384202346e-02 4.244398848097015731e-01
4.585575090789872216e-02 5.600974173838440401e-02 4.941112169919640307e-01
3.078506238697846509e-02 -6.261510320072646851e-03 4.383276449269641883e-01
1.166222932101764614e-02 2.299632478035862002e-02 4.227899955897540529e-01
3.488230488450838086e-03 5.286930469194511817e-02 4.162186101079328182e-01
-1.838598918025714443e-02 1.276484099207694789e-02 4.252745521712619770e-01
-2.137785763099310510e-02 4.328804696311456396e-02 4.152534958681444732e-01
1.271493679262769572e-02 3.414491187391958948e-02 4.196946846431754419e-01
9.391225752787250511e-03 4.267930935892658151e-02 4.156982943067198955e-01
5.480124114385450523e-02 2.626947089753052522e-02 4.919767760986507588e-01
4.298029058254643209e-02 6.871433015897508712e-02 4.557254481393352985e-01
4.891691583709492641e-02 3.930164871710110225e-02 5.069660389617199892e-01
4.598174523738775971e-02 -1.436519686579240847e-02 4.539789769584146040e-01
4.694777364010523091e-02 -1.654673101726958362e-02 4.560734658129658725e-01
4.093912444939780404e-02 6.898360033618539111e-02 4.647808496645628451e-01
5.781267908719651960e-02 -1.055572301265085382e-02 4.839649628724683739e-01
4.779034279987563055e-02 5.600104438689983144e-02 4.523002327935367606e-01
4.725181846129518359e-02 7.439517593124908221e-03 4.498454870130199068e-01
