1.457514512980740036e-02 3.284497975031147772e-03 4.321584053019845717e-01
1.396106612930179611e-02 -5.228053737221391439e-03 4.326234481707215696e-01
4.072617263891042255e-02 -1.456012046575171776e-02 4.463158222016030408e-01
9.431318893077932086e-03 2.973625619287781352e-02 4.104918852580920485e-01
-3.510980257840812246e-02 2.530644249221392778e-02 4.303523371841567191e-01
9.962728743332815995e-03 -7.537010088020407172e-03 4.323555322442493853e-01
3.834420922024315420e-02 4.467096248315350487e-02 4.416940631500275716e-01
5.334363261442461035e-02 4.954344712624975805e-02 4.882421671014162690e-01
5.574008309396481092e-02 4.718929037126217557e-02 4.678089598838996443e-01
5.694026299453416873e-02 1.950137159569451106e-02 4.822048243792831923e-01
5.539233804691377078e-02 4.668290060260011504e-02 4.618031066678061625e-01
3.733072381744891033e-02 6.284533722719451432e-02 4.448551130629991857e-01
5.741300755986493420e-02 1.385773987458234491e-02 4.792261655530207776e-01
1.116411397372907635e-02 3.463840948535128889e-02 4.118596976067578908e-01
4.156656162406733440e-02 6.778142927253009986e-02 4.693623183996791237e-01
5.406343187994645111e-02 4.015794298641041371e-02 4.957589751001474365e-01
3.001988109010613262e-02 -1.134578815180472058e-02 4.379368907665524002e-01
-1.667028825119571539e-02 8.074896439345419230e-03 4.261525123065990628e-01
-3.110273696363383827e-02 6.390016251567001704e-03 4.348514880910782643e-01
-5.392883579890235014e-03 -2.087654622121407760e-03 4.302651460076516443e-01
4.444083753588588814e-02 -1.014925562192554517e-02 4.500556657626107460e-01
4.976924603524514323e-02 -1.156481174797129551e-02 4.600702177169591622e-01
5.587372497393290616e-02 1.243817200420135882e-02 4.627440850178576315e-01
-1.740859799900728450e-02 2.364609775267388636e-02 4.183698443977914017e-01
4.223723094840864389e-02 4.356010002994100197e-03 4.454397820676841979e-01
7.856375819920897313e-03 4.715908999709713528e-02 4.137098823531544234e-01
-1.570490862784147679e-02 1.193323677745865112e-02 4.239292645635670542e-01
2.284596306785774411e-02 1.150754810059453556e-02 4.331955289071233728e-01
4.804091571831112240e-02 4.797753448981727231e-02 5.055119607026877793e-01
-5.635349053133438188e-03 4.360787847236662074e-02 4.086761777994047384e-01
5.291928988934664624e-02 -2.010606644065805054e-02 4.701656185402637300e-01
4.108692563798511249e-02 3.928225703906153450e-03 4.445737297100802454e-01
4.410519287891698920e-02 -2.134746421654898797e-03 4.480379572401775867e-01
2.123081664407276692e-02 2.420077814668320296e-02 4.292947576492892603e-01
1.052618960635010384e-02 5.393377068026469420e-03 4.307571373743685483e-01
5.050083376524647227e-02 5.958036174858965389e-02 4.582726491089564314e-01
5.781703612332775993e-02 -1.438406040319377757e-02 4.826667109639529163e-01
5.844074888980094196e-02 -8.794992432182289696e-03 5.048043718059492813e-01
5.301136073153079470e-02 -4.408407502786272289e-03 5.151991216787552563e-01
-1.152299559412420238e-02 3.922889319878277575e-02 4.096223843225703098e-01
7.492912579331205414e-03 2.448528504012619997e-02 4.128565519688978669e-01
5.596307127354342714e-02 4.561668649715923049e-03 4.911965709064469165e-01
6.984174009862861507e-03 5.632358815462194107e-02 4.182771070160843374e-01
-1.567859354990774889e-02 3.143284748949407709e-02 4.137541391844732908e-01
3.613967064982059711e-03 8.527277917012368591e-03 4.264677166178390544e-01
4.761079910316595720e-02 1.094954802205964570e-02 5.098525799569489925e-01
7.252791142319390399e-03 1.089032643044079290e-02 4.263169814273656821e-01
5.128988860672420436e-02 1.161621884531274448e-03 4.556098040037296903e-01
4.915832002169832904e-02 1.866947198515957196e-02 4.508696225451357398e-01
3.562892543352864233e-02 1.403061568800271011e-02 4.398840581600799715e-01
4.837295724385740070e-02 6.102955272741204806e-02 4.805596651163956956e-01
5.720571540844221481e-02 3.217031208073679871e-02 4.838285125240571194e-01
3.794353044882615295e-02 2.055905635772303092e-02 4.411020532969039953e-01
5.267144594176420558e-02 5.662665898560724498e-02 4.730185727777175830e-01
4.719008302358307372e-02 5.593275074211848108e-02 4.505009961317746336e-01
4.951426189622207957e-02 5.885203230921329243e-02 4.820848550872433025e-01
1.310837625297850591e-02 3.221535597826730157e-02 4.178071537598913032e-01
5.219517991458782341e-02 3.639101749234704281e-02 5.005147196272586863e-01
4.546935245330413489e-02 4.709261847167159343e-02 5.104801834146390771e-01
5.082472509501675256e-02 3.539810216403804777e-02 5.031036214445012700e-01
5.698744459875644541e-02 1.689540053750612433e-02 4.816876089948829986e-01
2.670428006058780251e-02 2.266570719981576484e-02 4.339097051560181773e-01
4.937631244264957531e-02 5.555688116261930237e-02 4.892983204857029311e-01
3.222998463374660005e-02 3.838447370170437745e-02 4.373107151161449990e-01
4.785916179960674616e-02 5.882961876757553110e-02 4.853153998698352400e-01
-3.485652895061491785e-02 1.113595095825961612e-02 4.380570311374325509e-01
5.128659255314774873e-02 1.647612348400788115e-02 4.981838970885997808e-01
3.168064045269711887e-02 -3.659749463045390561e-03 4.384301079183991479e-01
4.481683253684775464e-02 3.900713360658232542e-02 4.467502976714060603e-01
3.514877349578687110e-02 6.286526071185581654e-02 4.436003237267158172e-01
5.542693061259499482e-02 4.800666878346454558e-02 4.658457156724062354e-01
5.649947659193135796e-02 2.426434322000332877e-02 4.621773377567366947e-01
4.903950566589412863e-02 -3.336368483069872878e-03 4.537892941952902937e-01
5.552380894598594324e-02 -9.711631635554395653e-03 4.725231166069473465e-01
4.969402357869989045e-02 -1.211575653292269912e-02 4.601129874679656950e-01
3.730811729398056387e-02 2.473530196157317992e-02 4.409094764294804736e-01
5.135915461987775738e-02 5.354555311022027309e-02 4.885686616049650932e-01
3.072683468072885671e-02 1.180149575093431685e-02 4.371024347313675062e-01
4.865561226919017795e-02 4.421092218047219941e-02 5.062980918358095384e-01
3.461485640106707479e-02 1.662986193578860211e-02 4.392367106111684238e-01
-2.639864413009615496e-02 8.289727894482618389e-04 4.330815729792034108e-01
1.431550563533957182e-02 4.691624609627326886e-02 4.206188648146514941e-01
5.700195755861011543e-02 3.990747670794052293e-02 4.748996603749405243e-01
5.156135619650228930e-02 -1.499607732700252577e-02 4.653830544541274761e-01
-2.173073062506536077e-02 4.792156344496362880e-02 4.180563777523534363e-01
5.034070960185737381e-02 2.675679973814266283e-02 5.020182844899268026e-01
2.648077609992614476e-02 2.485273371718329030e-02 4.336088522963849057e-01
4.988906081217091282e-02 3.405539415404753439e-02 5.046977798906647772e-01
5.191301194502412342e-02 5.703202032577917024e-02 4.588806432094332810e-01
2.763022907986288634e-02 6.548013673087071940e-02 4.514394544965758538e-01
4.794023140301870156e-02 4.964380325452732307e-02 5.042137906113391965e-01
4.800053987846771009e-02 -1.778067502649736259e-02 4.583940975208832258e-01
1.077931361983920991e-02 4.475529515848317846e-02 4.156360517248689490e-01
4.609134600751835925e-02 -4.921660720328437967e-03 4.508733299908569414e-01
-8.952030735775860087e-03 -4.706428646101918842e-03 4.312328048264773561e-01
-1.051142792221250455e-02 -1.169237896991575168e-02 4.343047560217422887e-01
5.256222515665989747e-02 2.999338105938829241e-02 4.983301032542671871e-01
5.448998574674136786e-02 2.544226855121463349e-02 4.924799848122430879e-01
5.689124480873857664e-02 3.490496765949765295e-02 4.849375210766445066e-01
2.440721618941412221e-02 5.343616482919889138e-02 4.305402012904642195e-01
5.769001368352714293e-02 2.177009495156086161e-02 4.789515704819002906e-01
5.039757900092173976e-02 6.310953160202271983e-02 4.681543578180047405e-01
5.576445282914718055e-02 -1.390432050966070379e-02 4.760223461688778412e-01
-1.342229287535203625e-02 1.252925310019486864e-03 4.298294939203659570e-01
3.245135515628737310e-04 2.246409797636580996e-02 4.108569981487611988e-01
-6.103725947308569211e-03 4.558845462459903269e-02 4.091127727903464684e-01
5.774697753474689749e-02 2.110082905261348798e-02 4.690507653672389421e-01
5.734442656364137358e-02 -9.343429375182604052e-03 5.137192778140585725e-01
4.944976395885930520e-02 -1.336324787312580861e-03 5.176917919589596462e-01
-7.985999182232748558e-03 -2.301839003276167283e-04 4.298951479356174499e-01
4.582078598067743092e-02 -8.562861039679920544e-03 4.515806361789367895e-01
-2.382284844538383461e-02 5.206850076559334239e-03 4.305207404493976431e-01
2.647698295019192474e-02 4.003343880618229905e-02 4.322825990734012191e-01
3.491891361981459135e-02 -2.632316790500582177e-02 4.458461883114705482e-01
3.079510466363168456e-02 -2.206164693175526048e-02 4.409233292940840099e-01
2.172120690414485258e-02 2.643910455498853576e-02 4.293221536426685137e-01
2.887781672762152613e-02 2.914906788223087242e-02 4.350974516473202769e-01
5.244263123961337425e-02 5.623930726774468980e-02 4.755667958299748532e-01
4.633334191190009027e-02 6.185299274932480607e-02 4.833179179313288332e-01
5.731336657443646815e-02 7.860097731393182047e-03 4.745174222230223449e-01
1.727747308423208811e-02 2.763578351105778000e-02 4.246317623390928331e-01
5.770371220061305123e-02 1.919036107464125451e-02 4.714363954775748211e-01
-4.503419532603917391e-03 -6.993877095440442782e-03 4.314918832391068659e-01
4.263113454718973211e-03 8.407263992950490816e-03 4.267574681300432826e-01
2.419678653803924995e-02 3.634526868228257074e-02 4.305558930925467154e-01
4.520054835167578583e-02 8.218936236859378935e-03 4.474957304398610725e-01
-1.571364700272057796e-02 2.151942966167653612e-02 4.187976994524346686e-01
4.815991774737334724e-02 6.446579826387437151e-02 4.747904356976693219e-01
1.952095990306157436e-03 2.864603939041239847e-02 4.039881055989622549e-01
4.984955749469519026e-02 -4.799940928350595118e-03 4.557311937809285785e-01
5.620822489877347339e-02 -1.248389537516053638e-02 4.773249685263326048e-01
5.771030902358600251e-02 -1.083754249328867415e-02 4.826277121816624494e-01
3.484889562714924005e-02 1.032554139073209309e-02 4.390957445392958403e-01
4.023356040385275834e-02 4.699147054078707531e-02 4.431095688895414497e-01
4.698711256246655699e-02 8.000903879601145574e-03 4.490126918073263362e-01
5.523586590005310354e-02 4.583674183286935711e-02 4.821210725175291700e-01
4.676769269460205602e-02 4.343085752610362921e-02 4.488018596774084323e-01
-1.173124728678599446e-03 4.857058640534221011e-02 4.095279857465239370e-01
-6.547909780665338124e-03 2.656533359960125493e-03 4.285640965981185602e-01
-3.964835837482528526e-03 3.253463578643007309e-02 4.072665431515897771e-01
5.540947420960053160e-02 1.731855927788327615e-02 4.877249244705950115e-01
3.348932341775429089e-02 -1.265924415164761119e-02 4.401761872789078378e-01
5.560435397679702740e-02 1.137406409924526102e-02 4.623589801240549635e-01
5.511634323139613656e-02 5.049899075262915399e-02 4.711419202264259254e-01
4.944522759457626454e-02 6.348972195231483706e-02 4.724107558410338692e-01
-2.270346203992900606e-03 5.087902541454542016e-02 4.112145006992385388e-01
3.685997749079632235e-02 4.930389639566081644e-02 4.404952260835927613e-01
6.103141740016438180e-03 2.094382029180552607e-02 4.156113263091708587e-01
4.978861390677944559e-02 5.153692407783495161e-02 4.970674071682673056e-01
7.612555342779197404e-03 3.074056267812369861e-03 4.302813932531886487e-01
5.096304149610660778e-02 3.360224582937005287e-03 4.542393232982926410e-01
5.817461934660431849e-02 -5.307709634643465249e-03 4.875412230979644379e-01
4.781760649658371720e-02 6.516386670416701721e-02 4.745200623138658980e-01
-2.705240293745408454e-03 2.502730768475943876e-02 4.098047988062263336e-01
2.038142335748381519e-03 -2.314394036090957046e-03 4.305750306135046057e-01
-2.174664500705113593e-02 2.127347692571774154e-02 4.213708448568976861e-01
3.342275072519763218e-02 -1.740326799033598340e-03 4.394222454039708459e-01
-2.483143647416835229e-02 2.704641465966089314e-02 4.203780280846454165e-01
3.268858681209350914e-02 -2.157253325924044646e-02 4.418680285987321432e-01
6.033905302130172441e-03 2.613325886982718893e-02 4.064767970475227643e-01
5.773461500604629149e-02 2.942757858563567475e-02 4.804192261125233010e-01
2.360079539696431639e-02 -2.373315627850255613e-02 4.382272081200075386e-01
1.402645548826660614e-02 1.036118718342875222e-02 4.297086407707451650e-01
5.136254870003927053e-02 5.909524968330803762e-02 4.603913103837862231e-01
-5.202302045277336362e-03 4.912886157250132696e-02 4.099997399721530544e-01
-1.823536195656712267e-02 2.369677104031520098e-02 4.186747106976963506e-01
4.907457031236962808e-02 -1.364456018746075874e-02 4.592977299059743945e-01
4.642349524504588675e-03 4.016463944767946492e-02 4.075745868296916097e-01
3.321882178302705546e-02 3.053839746591372264e-02 4.381270865225400657e-01
2.968540909728990471e-03 -7.351259262322965178e-03 4.315024603467830233e-01
-8.107016000600798800e-03 1.278478037763774132e-02 4.218154250498936109e-01
4.502736524835281723e-02 1.466000209618495247e-02 4.469914018913430098e-01
-3.462189783954227468e-02 9.748373698933308212e-03 4.376789224011251034e-01
2.678118970971059276e-02 3.887102539931618778e-02 4.326291838833614123e-01
5.310643872104101743e-02 3.295889106811576708e-02 4.978974053278351075e-01
1.084248666028678199e-02 3.172495792023639211e-02 4.122915775027330421e-01
5.479198992337477175e-02 1.119368310273809695e-02 4.905405977088937441e-01
3.321678868468025576e-03 2.980713399951107068e-02 4.041886971958924546e-01
5.479764898536657741e-02 3.324554008966173341e-02 4.938711314871922498e-01
3.579342916445480555e-02 5.047671675020518750e-02 4.396986152240919266e-01
5.767294438699627906e-02 1.987960847467852565e-02 4.784712002440799083e-01
3.685284026475980218e-02 -2.975079540426611713e-02 4.490848408905425138e-01
5.631231726795115494e-02 4.449832424618026944e-02 4.743987691465800238e-01
9.888187159199694765e-03 2.660985587721983320e-02 4.143166048947139468e-01
5.148148527702670063e-02 5.047625763904122626e-02 4.541872503213862933e-01
4.893351717217950259e-02 4.731700759308998805e-02 4.512756021026218534e-01
9.139045229277579716e-03 5.928790209223055302e-02 4.223758677062194322e-01
1.834505401941902841e-02 2.774947216459215313e-02 4.257852252617038147e-01
9.416069548061779121e-03 3.111413355199780031e-02 4.091129304933389665e-01
3.162286288212339674e-02 6.142402655262454991e-02 4.406731284758468314e-01
-2.984407627383354328e-02 3.385927581976869161e-02 4.215250740706257826e-01
4.317826803320554824e-02 2.153111489718275220e-02 4.451922972967563563e-01
3.381977467693399186e-02 1.008629897778406947e-02 4.383576926008722618e-01
5.549949589902684194e-02 2.315649677240476725e-02 4.890776758505095967e-01
3.565928957511742964e-02 1.892315071703790791e-02 4.397697998410154963e-01
-4.436639110347201376e-02 7.019453033460223892e-04 4.471707633085706401e-01
5.626365848043037715e-02 2.768316192090145011e-02 4.615338237449922443e-01
4.446159752574427304e-02 5.425965950107926317e-02 4.986334105939904671e-01
5.061535286795598026e-02 2.236918889663658608e-02 4.523163908027164615e-01
5.691987835716863509e-02 -1.545050548310530555e-02 4.799498365402163347e-01
1.787728057561827760e-02 4.132603725007960582e-02 4.240614647469490017e-01
-2.550612016509992003e-02 -1.963334585995954625e-03 4.342120264470729074e-01
4.971575488084497424e-02 4.241166891335149819e-02 5.049163676747427942e-01
3.721747925258505479e-02 -1.329597912882110079e-02 4.431128901098913553e-01
-3.386391328270710321e-02 1.238859307197240009e-02 4.365441587107407595e-01
1.222222902336864148e-02 -1.007224354198111779e-02 4.333084750026787724e-01
3.830542317120186335e-02 6.460808866824797880e-02 4.469177268072996312e-01
4.480470590806743397e-02 6.320755233241291682e-02 4.507639900266584010e-01
3.664924073427026918e-02 5.228885439795858542e-02 4.405533557361199781e-01
5.402854094987612904e-02 2.161220784306083428e-02 4.919769800545528704e-01
5.758402680292155212e-02 -8.726288545195713675e-03 5.123732973855934514e-01
-2.301088728420475418e-02 4.626850671446741670e-02 4.166192735453676521e-01
4.541651438362401955e-02 2.544737617163303142e-02 5.122591194163510497e-01
2.673158741323738291e-02 -1.010164323028767477e-02 4.365883214889549335e-01
-3.127289576167349011e-02 3.129566333329920902e-02 4.236180630819503246e-01
5.622081900709807734e-02 3.941127468400758282e-02 4.855406702621155035e-01
9.255567875861330646e-03 3.697284945214255464e-02 4.119992771091361417e-01
4.656067758347008645e-02 4.511718705944347402e-02 5.094768551016378710e-01
3.953669551417894612e-02 6.431999964695984950e-02 4.472350397627923857e-01
4.846882401082417552e-02 5.978710353328958033e-02 4.534874549451791692e-01
1.205209175435099749e-02 2.190929625487608029e-02 4.216996914597527235e-01
1.153325337222424474e-02 4.094946549532905988e-02 4.156612442871230328e-01
-9.217239800093861291e-03 -2.766307925450211223e-03 4.306152623676034463e-01
7.357124268225367740e-03 4.320449039997398960e-02 4.117169393796059063e-01
5.884262347172050135e-03 5.768547335673281096e-02 4.188600422284053937e-01
5.022574191226624601e-02 3.354458485457261635e-02 5.040004504761532722e-01
4.013045263429693837e-02 4.296026292336801999e-02 4.429924631260309109e-01
4.486731361182511729e-02 2.339230542825710205e-02 4.467586613337626855e-01
5.087553739911431644e-02 4.853162903474920326e-02 4.979867790310523734e-01
1.865918934919229277e-02 4.458390476648766559e-02 4.248147319248704035e-01
4.970502633821187455e-02 4.662244966793006179e-02 4.521231819955338072e-01
1.145519244651208718e-02 -5.524589873833128141e-03 4.321134275843722672e-01
-1.572147703027558518e-02 4.723857257256890152e-02 4.123816818841124499e-01
1.756572990258426989e-02 5.320907001867655750e-02 4.250759487214191834e-01
5.709646242193856108e-02 4.089259226092014504e-03 4.856931818056387518e-01
2.464768056250835407e-02 4.670465265587428472e-02 4.301519542225358261e-01
5.575261799757702530e-02 1.357977795563761539e-02 4.619497813461138080e-01
4.656442683232636659e-02 5.309018986949053803e-02 4.989605213206806389e-01
1.266648111426533531e-02 6.099308093084721688e-02 4.323138934947657330e-01
5.797085525360521491e-02 3.014597723751949454e-02 4.779787524130871823e-01
-1.973202906990276229e-02 1.217418274070492142e-02 4.252913325746853213e-01
4.361924973536394218e-02 2.190393387794593513e-02 4.455995189787468336e-01
5.716228821320187836e-02 1.590403933235150571e-02 4.661409223601647445e-01
4.364075329731700870e-02 9.439788080647285029e-03 4.461154844182413370e-01
4.893821264200910043e-02 1.500849565197962671e-02 4.506571321389469253e-01
4.919985390946034903e-02 -2.451678770404276068e-03 5.186080875330999485e-01
-1.215573390911736662e-02 1.652111202724926634e-02 4.204173171678872722e-01
4.362893315708445130e-02 2.760306626235979610e-02 4.457318856793804907e-01
2.417442696846009396e-03 9.830871040347024040e-03 4.249165902936886119e-01
5.787413775630596141e-02 2.207411965461787695e-02 4.712905832303439513e-01
7.332096597651669226e-03 5.304276560256657169e-02 4.158084322835131630e-01
5.371838212022723991e-02 5.519032346153442820e-02 4.671127261599637981e-01
2.348921626765647711e-02 -2.840598822440858640e-03 4.348393961539506192e-01
5.149387160265737895e-02 4.683558823706245045e-02 4.982595386031914986e-01
5.951560070210035885e-02 -1.186654314388749590e-02 5.045688944404930210e-01
-1.620106368941536673e-02 6.106325420123963517e-03 4.270745402931582224e-01
-3.747971970388859226e-04 2.797864554139876947e-02 4.056551225847309095e-01
2.803413712963224655e-02 -1.303229968515338608e-02 4.375356229220545012e-01
5.632632485236170605e-02 2.269125141087716124e-02 4.865679770107781410e-01
5.632157494910121354e-02 3.815340010882586202e-02 4.631527268174018275e-01
5.356972969627148834e-02 4.475599755210126623e-02 4.946349550782585536e-01
5.696922865685613568e-02 -4.835012937314596784e-04 4.943958590406172804e-01
4.683729120724939438e-02 2.622650012910137871e-02 4.486682457554239112e-01
5.208161468429893526e-02 1.338977967911593805e-02 4.967855318217052063e-01
4.666675553867860593e-02 6.585136538747224377e-02 4.580875346376958590e-01
4.451190282280673843e-02 -7.429147114400267565e-03 4.495717574478160783e-01
-7.638469025076401187e-03 2.057428364862995407e-02 4.161024045502792479e-01
4.335365248777115627e-02 2.322594363640058390e-02 4.453622623584685414e-01
4.779791089679705923e-02 5.227117518045085176e-02 4.503985897583309139e-01
5.333319965584252392e-02 4.382098714332490624e-02 4.966310943199736538e-01
-3.094840206115380410e-02 3.255946254655461142e-02 4.228968780110217707e-01
-5.960522585548748593e-03 3.345503997856506123e-02 4.088125427718642402e-01
5.512105062795515098e-02 4.443450838312650031e-02 4.595689343949583838e-01
3.144331831722627785e-02 6.040658809416350750e-02 4.400341124680839378e-01
-3.386843922806730134e-02 1.355570240219345496e-02 4.361306392208052496e-01
3.975734582653623998e-03 2.304007750114801106e-02 4.108084836049131772e-01
-2.075618119234775780e-02 2.319581786253490166e-02 4.199672222825803214e-01
5.278102644639506152e-02 9.961434037478214890e-03 4.972738574365563879e-01
5.000235266380616272e-02 2.486591636812325937e-02 5.023652702364954648e-01
5.201566546398283392e-02 4.508065545015614572e-02 4.547248557891963028e-01
5.795978742275807033e-02 2.882584837700741254e-02 4.673912483345115110e-01
-8.156084497120730942e-03 5.038138394024389149e-02 4.119996643757053989e-01
4.642679130652270503e-02 3.455789019575500332e-02 5.108576785454225222e-01
2.152105550208748691e-02 5.680865207239349166e-03 4.342589960041822184e-01
5.739489995043521933e-03 4.295341028691908314e-02 4.101676661067666929e-01
5.516348447231384650e-02 -6.231441122930817325e-03 5.145926562634384194e-01
1.892305777860781024e-02 5.548567675146126588e-02 4.269841080221499774e-01
5.594570015157771664e-02 1.985528068310710506e-02 4.612015959389969555e-01
4.946310958546413367e-02 4.858821762171789370e-03 5.116773150519269286e-01
1.692750366149759975e-02 5.896942084692739089e-02 4.286282234544349090e-01
5.335914764188656734e-02 5.609105984341004186e-02 4.674278827210544551e-01
5.826357833547344406e-02 -1.332523847821236521e-02 4.858753840967222071e-01
4.979951234420323253e-02 6.420941284054136611e-02 4.678198430713506051e-01
5.544362347202842767e-02 2.782165158678280570e-02 4.911496650012409648e-01
4.605365908801715286e-02 6.500349841571449738e-02 4.545438779061301560e-01
1.645850378064514855e-02 1.979851750049215278e-02 4.263735276940954777e-01
2.621112388814977531e-02 6.137783866582257469e-02 4.375970644347204064e-01
5.788275375366518788e-02 -2.046238758535687090e-03 4.789559756169859406e-01
1.938000450671555422e-02 -2.070600437893815871e-02 4.369894889898520152e-01
5.256893679589454138e-02 4.426813039967097269e-03 4.571649813151261177e-01
-1.264106785183245762e-03 1.607553358652146977e-02 4.191119989176972371e-01
5.115292981680703149e-02 3.992688314123882254e-02 4.535421425272509466e-01
5.638355149318591969e-02 7.421508833984616881e-03 4.875600948557310965e-01
5.572000944980132209e-02 4.688365486851421571e-02 4.759438357830929056e-01
1.535651759418308823e-02 -1.661673129739255420e-02 4.358290866308154876e-01
4.093572393963171296e-02 4.463065267366523453e-02 4.436007720076783345e-01
2.649902554976267879e-02 -8.009090710930474172e-03 4.361786207083536149e-01
-2.390391441491171443e-02 4.149524259693099237e-02 4.166074942643399615e-01
5.501749201389363741e-02 5.059493063389935985e-02 4.688386732427334280e-01
-2.633972189261029120e-02 2.980769798236260898e-02 4.202444530337793305e-01
-7.944276750253857419e-03 -9.840846734827414510e-03 4.330537850822669954e-01
1.416675414549831320e-02 4.717970662761129808e-02 4.204905341878945602e-01
-3.100695579667089863e-02 3.223135928049501026e-02 4.230631040730941095e-01
1.800498878151976165e-02 2.340369868874367376e-02 4.267984828551383281e-01
3.776089415475049164e-03 2.748758084568028032e-02 4.045743134563886678e-01
5.768512250921160184e-02 1.865854793442845577e-02 4.741128640302004760e-01
2.897343433655251432e-02 1.149411230207459354e-02 4.362848157884883227e-01
2.346507195661148501e-02 -2.002212151716718791e-02 4.376456233017866349e-01
5.675486945385842252e-02 -5.966420640320487662e-03 5.112003555675775912e-01
5.102048312112297812e-02 6.179708062344226038e-02 4.675032385315558980e-01
5.742194380542495202e-02 2.660484743988639211e-02 4.841433312997370231e-01
4.706661086667326965e-02 6.473782045469529678e-02 4.562184335191182272e-01
3.260651063134907546e-02 4.573216256596503160e-02 4.371741825856333419e-01
5.798474654465104322e-02 -8.499576203259680360e-04 4.799628676164972574e-01
5.286651864252749772e-02 -1.017129779033932929e-03 4.603807244952949906e-01
-3.414307056010053992e-02 1.823450530086872037e-02 4.335070305009972036e-01
5.345814098618374699e-02 4.942316722839337415e-04 4.611015505148824967e-01
4.533321566300838046e-02 5.121267368056898334e-02 5.055166582688529475e-01
-1.536890391241267813e-02 4.757158688317147943e-02 4.127475919651213410e-01
4.842560489319103906e-02 6.270634790352824783e-02 4.566580653000392731e-01
4.384483736350416189e-02 6.894080798509290287e-02 4.621058598216234437e-01
5.119779129857673916e-02 2.372344485384661472e-03 4.550416723943853103e-01
5.608852306826965506e-02 4.510030147928903443e-02 4.755824883299408223e-01
5.252233366716959478e-02 -2.004287930094126799e-02 4.692719109115177645e-01
4.069280054597975566e-02 6.417410710539871166e-02 4.480311478404773173e-01
2.847295235119649826e-02 6.426355457311921926e-02 4.420005283292871012e-01
2.877563405118459955e-02 6.519568604589412453e-02 4.454246280980716510e-01
-3.891518524902146114e-04 1.915545238583274412e-02 4.154037413495997311e-01
5.628778076643439765e-02 2.905441774122521654e-03 4.915582580938389068e-01
4.294011211530872341e-02 6.918951373515210002e-02 4.541812936025212966e-01
5.524582779205391980e-02 2.007609821037038139e-02 4.594429026893990797e-01
4.573120399523800117e-02 6.724899585142363190e-02 4.601065931566171718e-01
3.657159921892799703e-02 -3.064288864511243490e-03 4.417194129657019408e-01
4.099635616105877511e-02 5.876011704201356683e-02 4.456187788362251934e-01
6.653202819099239378e-03 1.213685303597560440e-03 4.305625733926286003e-01
1.118254483182129846e-02 5.296724635139149484e-02 4.190604987506713064e-01
9.588827683133674049e-03 -6.716852638024047376e-03 4.320891309588087426e-01
5.434972673986379621e-02 -1.704597773291800789e-02 4.728691709615399641e-01
-2.979673056695259122e-03 2.714856308591865035e-03 4.284466793342245339e-01
5.754910266222165727e-02 1.860433484110030067e-02 4.684533975556038898e-01
5.558075035346871778e-02 4.204102179598241673e-02 4.883589902136196703e-01
1.606102308497910774e-02 2.368791133795231096e-02 4.250013303138330811e-01
-1.072147562195416119e-02 2.405281072184166716e-02 4.155846323796363873e-01
1.385018697364724660e-02 2.379151919185990699e-02 4.227577012616522412e-01
7.001786906541258154e-03 2.515725846476819794e-02 4.104569993914971571e-01
5.006526143284108915e-02 -3.964038358694479958e-03 4.557267483661521790e-01
3.734102596000245938e-02 5.247082624657482819e-02 4.410831012705312415e-01
4.467278140889659188e-02 3.304753644820492692e-02 5.137064467311113214e-01
4.095003685100459534e-02 5.084011341392032785e-02 4.438047158221214983e-01
4.584852001168902152e-02 -1.331810177633505413e-02 4.530743975806701407e-01
4.978415917599050833e-02 4.729257858137440179e-02 5.024793798390663202e-01
5.329367989665278332e-02 7.339317421464587772e-03 4.577430389579678072e-01
2.833323266877344621e-02 6.430202588700109634e-02 4.421698296047240628e-01
5.793006330447273561e-02 -1.069675550570305242e-03 4.795650689056846216e-01
4.974359852643327889e-02 -1.659774879330686709e-02 4.619261890928834657e-01
5.870549924688332061e-02 -9.918009987315056300e-03 5.075615507865873788e-01
5.038040965690535056e-02 4.229656103755100732e-02 5.037890438689259787e-01
5.203984601189187015e-02 3.390250416030504699e-02 4.542808969110146422e-01
5.470092589562004087e-02 3.042364184559302395e-02 4.580389354203927565e-01
1.953576568683684789e-02 -2.334550166576846927e-02 4.373347689266752214e-01
-2.104838811126489781e-02 2.570325279132418261e-02 4.190426429222196547e-01
3.923008598739512881e-02 6.534683387544751310e-02 4.483174963736960006e-01
-8.112226878762755430e-03 -1.344498745356991279e-02 4.341579716966160740e-01
-8.363616577855225408e-04 2.046765606600206913e-02 4.134140239125060901e-01
4.700397581551188364e-02 3.345173220312748497e-02 5.097264696874197476e-01
3.557182143427190663e-02 -1.968980986834197380e-02 4.434242767279429343e-01
-1.722951666706890039e-02 5.888260036109728250e-03 4.274118870657822589e-01
1.587720381648497631e-02 6.089063548280637672e-02 4.363054541319787982e-01
-2.629069462475061569e-02 3.606366417578796973e-02 4.181298128641701695e-01
3.789905380489897585e-02 4.064658754934525470e-02 4.413798263578205816e-01
2.746146617899402828e-02 3.151692268759468535e-02 4.338744350185674836e-01
-4.078835216530713771e-03 3.144585374922608673e-02 4.077446859498622400e-01
-1.140363857796929808e-02 -5.610737133116248249e-03 4.318756379969648784e-01
-2.844686173360996828e-02 5.179109991721862934e-04 4.339984649188853849e-01
2.254463923826202296e-02 5.390959111726304626e-02 4.292362514379135519e-01
4.615771518034955667e-02 3.076068993372984076e-02 4.480198485281188803e-01
1.965739393233843432e-02 6.262612680068994908e-02 4.417304044528237994e-01
1.100264467144403558e-03 -7.855799612539362663e-04 4.303008795236891171e-01
5.776627199613542513e-02 2.199472936252206551e-02 4.786188313850548437e-01
5.640812720489326443e-02 2.724932974761746368e-02 4.878240654419582767e-01
5.618569406468698624e-02 3.433600443864025242e-02 4.614154324388591299e-01
5.419580976968470937e-02 2.605038859152839989e-02 4.933613927865021509e-01
5.606424748593513696e-02 3.261995711397682688e-03 4.920326919819487665e-01
2.711676865564191519e-02 -1.205725606510970466e-02 4.370524981965157596e-01
4.997085280977917043e-02 -1.285892765688865721e-02 4.609833526016852701e-01
5.133356726394838754e-02 -6.643832585418131195e-03 4.602674469196930684e-01
-2.193804325685293904e-02 1.843654135778675972e-03 4.311328527914458086e-01
5.796570846953740669e-02 2.399277868150103549e-02 4.705836566865967963e-01
3.087370415523118389e-03 4.761001647681814553e-02 4.104431903360315492e-01
3.943195844317376464e-02 7.067411647815295683e-02 4.528948629148429328e-01
1.471670132637310432e-02 -1.736118207356456347e-02 4.361080803534300721e-01
1.589151299856627134e-02 3.283364526467211393e-05 4.327050432567753346e-01
5.256208214229640685e-02 -1.101729385650056237e-02 4.658668059149392859e-01
5.802335873608444050e-02 2.320792761219534622e-02 4.744260392129923676e-01
5.489410676903783842e-02 2.792616049782281618e-02 4.925631876658916330e-01
5.443222597339028579e-02 2.348385912679173959e-02 4.573416841530705823e-01
3.483416753210892558e-02 5.314942613651157249e-02 4.390831052528885170e-01
2.692057351417560113e-02 4.542499086740200281e-02 4.322571369458675927e-01
5.298949779042960023e-02 1.623014060765178360e-02 4.942569851543761050e-01
-3.729085449961425797e-02 3.130758971935411472e-04 4.394011398893238884e-01
2.123814868275536796e-02 2.530823898242241798e-02 4.290752890098465944e-01
2.663832453636490183e-02 6.491899160000516589e-02 4.495209432704124763e-01
4.743115054366985744e-02 -1.901254430927861241e-02 4.579268035117713409e-01
2.732053384052288494e-02 5.715421331415656420e-02 4.344777719696717444e-01
4.261129085927850557e-02 -5.992470195308558130e-03 4.471345896084298888e-01
3.466962078339204389e-02 6.436052233850854398e-02 4.451895161275766788e-01
5.471589222026439908e-02 1.039124519080184689e-02 4.603050130632837522e-01
5.196658753816250920e-02 5.619259507419804844e-02 4.578752750642764990e-01
5.037396353739039684e-02 1.211365447803013778e-02 4.522967213193088143e-01
-1.593883249016475254e-02 -1.895749584138416632e-03 4.315390130268101920e-01
-3.346033734491929423e-02 1.342581062957113290e-02 4.353362440309122006e-01
3.262734260660206387e-02 4.357964715796202454e-02 4.373040520808768039e-01
5.045970266071907184e-02 2.889823949887528748e-02 5.024318529577975756e-01
8.498008602671766262e-03 3.006064197780650843e-02 4.077086579713373737e-01
5.511387796473304207e-02 1.063822283506408485e-02 4.898962303926574502e-01
5.754795340627254924e-02 1.672818075746659167e-02 4.727892877374281766e-01
5.065499091470260923e-02 2.517417589745299042e-02 5.008776250276225639e-01
1.272988416048209497e-02 5.539079664427739962e-03 4.314175676860318442e-01
5.176972172582105375e-02 4.608437503384506251e-02 4.983880639245698019e-01
-1.814515756288967441e-02 2.179485162614672872e-02 4.196285231544527039e-01
1.516152256957053503e-02 6.023052613344393597e-02 4.314173006534592902e-01
-2.531374765913587885e-02 2.587257992983032356e-02 4.211093829352144380e-01
-2.487803133471335349e-03 7.618650015193979136e-04 4.296964429683808318e-01
3.036721490100637022e-02 6.111210961661546481e-02 4.399096157269056229e-01
2.777332599194166224e-02 4.046227553246554282e-02 4.333638143126413156e-01
2.778058234498394230e-02 1.397583217730173633e-02 4.354625057646444586e-01
5.205314874054232238e-02 2.331196408008582091e-02 4.538031065404171116e-01
3.897619702951992532e-02 -1.644042676000870978e-02 4.452883976731916715e-01
5.759766298279459656e-02 1.764959286135294250e-02 4.746807850791143757e-01
-3.096190700544525914e-02 2.966047174039480178e-02 4.239168279079632562e-01
-2.029016125605167045e-02 4.846154863953399533e-02 4.173306977932534911e-01
5.156570992351304505e-02 -1.723685265131247313e-02 4.664247146070806260e-01
-7.518229596926971799e-03 4.242965927846034657e-02 4.090319757661740052e-01
5.547425471630509225e-02 -9.626707783226794157e-03 4.722664218800279867e-01
-1.865595460491431545e-02 -2.131859596646887983e-03 4.322490803349947619e-01
4.846554222878407536e-02 6.218358856449453242e-02 4.561175861935974907e-01
-2.983949275064097170e-02 1.981680903937630550e-02 4.265165109586921410e-01
5.385043043257453990e-03 3.316247132768637695e-02 4.039960420695096199e-01
3.749432809504923969e-02 -6.916711116580887171e-03 4.426169430227095969e-01
1.426314408003294225e-02 5.559293819860702118e-02 4.226909634643551961e-01
3.178450086079991077e-02 6.688291348195275765e-02 4.519158012264969937e-01
2.756861882075432001e-03 2.755619502502427987e-02 4.045615147566514747e-01
4.239442014426796773e-02 6.989594220882325293e-02 4.590769900147494420e-01
4.770139754254589665e-02 2.889480404300635505e-02 4.494882241285541591e-01
2.732520904055616567e-02 1.629942051083846377e-02 4.348526685638640088e-01
5.465506816782992466e-02 5.430321088902968427e-03 4.959083449223865014e-01
5.441282247904698222e-02 1.083729196952543800e-02 4.919786569330967807e-01
-3.983515477334550331e-03 -1.657216543985649479e-02 4.347349118528195389e-01
-3.565629359429548645e-02 1.636312979008054669e-02 4.379975470719508768e-01
-1.579723878288791933e-02 5.620070565743689323e-03 4.272396086687331174e-01
8.284479774682749348e-03 -5.565240760204030745e-03 4.316748143945512983e-01
-2.418659225851157307e-02 5.065931968862339395e-04 4.325681767557126856e-01
3.192130634778875264e-02 5.886564257194572963e-02 4.393079491896791366e-01
4.446939886274311332e-02 4.124628043139104416e-02 5.133934501920894844e-01
5.770447205312469879e-02 1.970689822020253810e-03 4.827569060880991247e-01
5.168993980969294882e-02 -8.463446911891926022e-03 4.624321203299007199e-01
3.773781982979829835e-02 3.047477021905131006e-02 4.412805927240256443e-01
5.525700651290870596e-02 4.543068254063403061e-02 4.825522886570192127e-01
-3.585307114408918788e-03 3.670470154970888188e-02 4.060743079385936150e-01
-2.687496604888962165e-02 1.686944247367359179e-02 4.265432199407441227e-01
5.558716919619991620e-02 1.660310859267068867e-02 4.608306029980357987e-01
1.530700002740432736e-03 1.603720704872788755e-02 4.198320673692956251e-01
5.304376836360413794e-02 5.681161453004026501e-02 4.686549771114377205e-01
2.075481725523951881e-02 6.068764352726154637e-02 4.368737933958209974e-01
2.765755188393421299e-02 2.538725798206389189e-02 4.343159210586252095e-01
1.673051225764402364e-02 2.504381125725764490e-02 4.253000054037658906e-01
5.227285825593219748e-02 4.308042586866416002e-02 4.996572787084689327e-01
5.739419159968396633e-02 1.233197453536521299e-02 4.778091727513586462e-01
-8.051803263806743549e-03 3.876435290471402090e-02 4.081920646635041061e-01
2.617110630090645207e-02 7.554970173143261275e-04 4.359839599824782974e-01
6.277050531154139065e-03 5.123910080004821094e-02 4.142504066282111097e-01
5.114821056558813139e-02 3.123940509894155768e-02 4.529445922812166958e-01
-2.723787539324180884e-02 3.115982204343078696e-02 4.204071755656184073e-01
4.946114216822756343e-02 -1.715282541388976276e-02 4.615300042839415307e-01
6.592320883946267349e-04 1.376857603686492890e-02 4.213956940956423702e-01
3.879881954572971664e-02 -1.041136007588058451e-02 4.439791593490327037e-01
5.609235466170268275e-02 4.722538710280294733e-03 4.669840373688586843e-01
3.736323360092470847e-02 6.922758037365916994e-02 4.511445985902517997e-01
1.932351239519878791e-02 -1.152752705550290878e-03 4.336234264315726450e-01
4.768437195683374041e-02 -1.267405437729766590e-02 4.558011714914870782e-01
5.437621373058920682e-02 1.101884812033954858e-02 4.919724069513851661e-01
3.815746487409779619e-02 9.556738898741562460e-03 4.416665264762080767e-01
8.189740547774229662e-03 2.844798450765099324e-02 4.083011291850759950e-01
-6.165150656648327177e-04 7.903209959482387220e-03 4.252946413569607120e-01
-3.559091989412894400e-03 3.770307898018476767e-02 4.063618909170736981e-01
-9.940050194577467607e-03 1.116986965154372763e-02 4.230743950805251341e-01
5.779356939502969942e-02 -1.223305449533975721e-02 4.829208237479641896e-01
-2.788508958964170184e-02 2.107670663438713371e-02 4.246344647934230943e-01
-2.204842657152115970e-02 4.729770674262396418e-02 4.173206424772927803e-01
5.740152283887587498e-02 1.261712614640281109e-02 4.781438037585826750e-01
