5.090801759386465175e-02 -4.362739408993224731e-03 4.566866613202884007e-01
5.485292031521997458e-02 5.323933249800080064e-02 4.714997140592839808e-01
-1.928098102181506276e-02 2.418918046035604952e-02 4.177800185523649068e-01
-2.120087914562685666e-02 2.413896801607953377e-02 4.187020627447289312e-01
1.436116811240216798e-02 5.897077523265373961e-02 4.231010192700013217e-01
5.511910115752597511e-02 4.593968277046278637e-02 4.869165925432389908e-01
5.129185578698972764e-02 -2.277337263958045810e-02 4.670106523115542529e-01
4.997455964954191504e-02 3.504685313764192844e-02 5.046406236918467014e-01
-2.873469911794144030e-02 2.887031424712062713e-02 4.217272258345648450e-01
1.831460742408851095e-02 3.296195408056311338e-02 4.216154970445673555e-01
5.862452816111519971e-02 -1.055377696906641648e-02 5.105190454761143748e-01
1.104708107930665872e-02 3.163723581353861808e-02 4.066177757194801567e-01
5.139270045477676435e-02 2.292723769393091582e-02 4.988098365633487630e-01
5.801871199134316093e-02 3.207331078822422965e-02 4.642779878480485234e-01
4.788637729879898636e-02 2.596626512539724346e-02 4.483345856744879732e-01
9.642030728017586538e-03 6.171002519018257970e-02 4.274808729921643069e-01
5.689599869961354389e-02 -1.229023556796520963e-02 4.796022662619601196e-01
3.929388865992102658e-02 1.467670256512922794e-02 4.412751806014352240e-01
-4.527499189090823661e-03 5.114977391805016621e-02 4.096103525902790587e-01
2.573875194164449223e-02 3.672564864196435630e-02 4.294640156131459552e-01
1.206790086407920001e-02 1.553622331270219578e-02 4.237139539970066204e-01
5.662810209713232956e-02 1.369593825459463482e-02 4.626141223508410394e-01
5.762857554699482576e-02 8.329894840346708032e-03 4.768435381903581849e-01
5.702401099803627860e-02 3.798957284535686013e-02 4.830790546736922764e-01
5.247429098146940557e-02 1.375674258072994392e-02 4.537660389633694225e-01
3.882044043430891295e-02 1.711586600504046846e-02 4.406933903140021758e-01
-1.207508429263732044e-02 3.527593143026681172e-02 4.094416327730242000e-01
3.688433326966742559e-02 1.680782100277940921e-02 4.394575353945790464e-01
2.339501417725632290e-02 3.375735513799201643e-02 4.271975861182590317e-01
8.715511898158657261e-03 3.405685596894365147e-02 4.025863299015549623e-01
4.883936969039505416e-02 -1.628043565285922697e-03 4.522382337299481470e-01
-1.274831935611541942e-03 3.942559282403165777e-02 4.042203497723327876e-01
5.418110489192787260e-02 3.405903359136952524e-02 4.961897644162194254e-01
9.376531175039923977e-03 -2.073801621184225008e-02 4.373527442230021323e-01
5.791121985874332634e-02 3.944098021160809264e-02 4.714953384034771267e-01
5.750825504966152607e-02 1.201669275588476346e-02 4.674161620392633387e-01
5.546520993505939245e-02 5.193457745582377369e-03 4.628980195828775179e-01
3.142775746675975646e-02 4.415008331449186973e-02 4.339513428930947270e-01
4.534031048948893722e-02 3.897973584586762047e-02 5.121942094001679102e-01
4.903325942601151344e-02 4.274353720797653688e-02 5.059008782439673446e-01
-5.099913242325671003e-03 -8.848804161885027997e-03 4.319683881301161765e-01
5.171300093133486542e-02 5.547926964666371336e-02 4.835357976358549137e-01
5.683072041328737778e-02 4.330061223882574611e-02 4.767792716217843507e-01
3.945573073116434570e-02 -5.646379818293907442e-03 4.434309695530896378e-01
5.669436906657602387e-02 2.545768114911015935e-03 4.908018181046208128e-01
1.760709098328333902e-02 2.889637608905410576e-02 4.217304379065587305e-01
-7.871116462758292673e-03 7.314493721203949028e-03 4.237347845318644723e-01
4.347198232099860199e-02 -2.347080060197442516e-02 4.539809738509815729e-01
1.559729248382404031e-02 5.281270090485950391e-02 4.198127167325281794e-01
2.314909464922609850e-02 6.152826089997619208e-02 4.373803651742748655e-01
5.786016086391166519e-02 1.455058440925395720e-02 4.777814837814775561e-01
3.133831548116189358e-02 6.618977597438369109e-02 4.484356615401298707e-01
1.264540218328711989e-02 2.134512767134547767e-02 4.199305704027155861e-01
-2.242554945715275957e-02 1.312079188447906608e-02 4.255290822785707805e-01
5.731187523699751013e-02 -5.426290470438540833e-03 5.038426841398327971e-01
-3.260871295841746842e-02 1.003066732807608372e-02 4.345914557481539431e-01
4.626113661710053865e-02 2.386931971521261998e-03 4.484842321299186141e-01
3.246666644463155893e-02 4.505258761769026510e-02 4.348158326647408867e-01
5.702981787443141271e-02 -4.980433168573578095e-03 5.066757791974044745e-01
5.397112410936342336e-02 -8.769714492632290498e-03 4.670283010085295450e-01
1.240243503340843212e-02 -1.886838927212719508e-02 4.365826335676027403e-01
-2.203993053184569173e-02 -2.354928428939161156e-03 4.328555324047195785e-01
3.198825119445977694e-02 5.544317019842667088e-02 4.348039664770249058e-01
1.105488246046759833e-02 1.296567208312807140e-02 4.251819084063236942e-01
-1.138404996449947273e-03 5.022124507742962291e-02 4.076707333479785422e-01
4.111655837902473271e-02 3.066949943986362753e-02 4.423182048224628682e-01
4.628585302494352127e-02 5.165311911789351174e-02 5.031536358643540208e-01
-2.329802154171794690e-02 3.566692802440161320e-02 4.152149285144980939e-01
5.691665189896944615e-02 3.520852246396632274e-02 4.611928302354593168e-01
-2.884425532941752718e-03 1.441043888649400431e-02 4.186985669874370153e-01
4.220876319318461051e-02 -2.156350521339770246e-02 4.505713998384804908e-01
1.875043117085190003e-02 5.453381329605829636e-02 4.232800738273140850e-01
5.034473120214542907e-02 -5.363030546459083246e-03 4.560505994919715755e-01
5.541615796216189938e-02 5.071043523631443839e-02 4.752563866208267540e-01
4.172854554788501397e-02 -9.265269001374381100e-03 4.461183193371334732e-01
-2.628168800571858976e-02 9.699788584496529722e-04 4.326077183947803495e-01
5.301708818347185964e-02 -1.468314370322022257e-02 4.679029475388258863e-01
5.792816563798623003e-02 3.456209879646606614e-02 4.789783631960384813e-01
1.221528945567388821e-02 2.656053205841096831e-02 4.149099364382494159e-01
-2.133565521395185127e-02 2.967080016464396924e-02 4.164044485517863770e-01
1.975376302292557867e-02 -1.795473726460657116e-02 4.364144110734993198e-01
3.377715324946222591e-02 4.113107889494737462e-02 4.363340532227813484e-01
3.254117965830062575e-03 5.267467324087735797e-02 4.107091124899212575e-01
4.837364156008006760e-02 4.557868086068074531e-02 5.063586544869518313e-01
5.144180350990872758e-02 5.794059496993687192e-02 4.784750184140886820e-01
9.896532684689329090e-04 3.986880535014503818e-02 4.038902141019926617e-01
5.780358369606856950e-02 -6.279255714274754874e-03 4.798639056760086730e-01
4.371864454845685033e-02 6.870160987810029762e-02 4.527959220162769416e-01
3.945833211221735221e-02 3.370503059020232839e-02 4.409995791959542832e-01
2.525166759442579872e-02 2.082329108157247172e-02 4.312926350947574039e-01
5.355211840690320135e-02 1.039899670170904740e-02 4.556146252305122712e-01
-8.601208274652043240e-03 1.493707151909594126e-02 4.194568544134698040e-01
2.759953305565719314e-03 3.999659731880275682e-02 4.037696837001704120e-01
4.889252115974594692e-02 9.075658202969887761e-03 4.497864736376632200e-01
5.433198638920907347e-02 -6.961178718521110823e-03 4.666623199945530431e-01
1.299669757971822978e-02 3.354488748100274004e-02 4.102457537271052002e-01
5.743352266286355645e-02 3.989204544804425545e-02 4.761293529664991642e-01
2.896403483799797965e-02 4.715666530213480194e-03 4.360712150731466119e-01
4.508075138018251271e-02 2.673845502149933134e-02 5.125392537295008211e-01
5.774565406200032891e-02 -1.017116681435347759e-02 5.130913930441014514e-01
4.608579046370225862e-02 2.212913860545469638e-02 5.109394285529089696e-01
4.480087449337010613e-02 6.586691760528724793e-02 4.515538193871957984e-01
5.476438120414015009e-02 1.782454351899039058e-02 4.564493026439809253e-01
5.774508347613688253e-02 7.702772595370190739e-03 4.787852642497952838e-01
4.208586708277702731e-02 6.889045503931358339e-02 4.519252141613455676e-01
3.382520189523002124e-02 3.016869268287506248e-02 4.368908647189347350e-01
1.546954806484142700e-02 5.421796895576754677e-02 4.200192012935791697e-01
5.413017487204891537e-02 -1.531828874286915443e-02 4.708168532314294108e-01
6.113327396881749684e-03 3.907358885544623406e-02 4.040478790511051188e-01
5.356048263825061856e-02 -2.049051444131919433e-02 4.714885159062887077e-01
5.080303587835172802e-02 -2.199798123519430826e-02 4.658748621843405990e-01
3.981523624982079984e-02 5.340543233579102267e-02 4.413623297693435310e-01
3.455625419957447653e-02 4.953948606212321693e-02 4.364654833743541462e-01
4.623182270850519082e-02 2.233201043583308426e-02 5.107442321824807729e-01
5.726268041788207253e-02 -3.509534269098871576e-03 4.975375846498278354e-01
4.103469470662210461e-02 6.801656524993934805e-02 4.508614925479738078e-01
-1.977560995607789956e-03 3.178683739445992140e-02 4.050429348862146228e-01
1.187392257781532019e-04 4.649179939954517504e-02 4.062839069628472743e-01
2.056038075237126908e-02 -2.254174403228706436e-02 4.371507676075397919e-01
4.031248505572811169e-02 -7.588430637442676076e-03 4.444913593842672039e-01
-3.177660058490039754e-03 5.042984565151090171e-02 4.085442081887181165e-01
5.057801124496159179e-02 6.244467181983811427e-02 4.721577047705994290e-01
3.502110514846853984e-02 5.631983660951093984e-02 4.380275242893160170e-01
-1.160626152693815423e-02 4.189314480155583581e-02 4.078934285255395586e-01
3.401241181655867418e-02 -1.564558928765907159e-02 4.407753105392461235e-01
4.534148253806920964e-02 3.143112846525337317e-02 5.122901641509362003e-01
4.399520011766595851e-02 5.250370426960881964e-02 5.032644239879726644e-01
4.590085513546341561e-02 4.427945673196443527e-02 5.104176433517032541e-01
5.786502748441994110e-02 -4.245525740177221591e-03 4.783179110858354344e-01
2.017892990454404553e-03 5.466631224942018752e-02 4.126104002788502090e-01
5.729248325093901084e-02 1.855569638321300646e-02 4.818766038967829402e-01
5.181698708287464650e-02 3.078275246406303890e-03 5.087452375534640137e-01
1.675678223958429122e-02 -8.367717506463262164e-03 4.332411449117593016e-01
2.787902282996161316e-02 3.156953717906973989e-02 4.321252815058297392e-01
1.402837020396097666e-02 -8.117527924740729553e-03 4.326516126683231933e-01
2.986182458674116469e-02 6.542698228862670051e-02 4.448784298614283372e-01
5.362257846926964805e-02 -1.569988154277173094e-04 5.093709500089421693e-01
7.170196198212465746e-03 5.084965301900527118e-02 4.110899715136751564e-01
-2.708075272485473313e-03 4.964752359120135766e-02 4.073392149352261793e-01
5.792556488431160888e-02 3.917696503608174979e-02 4.720396584308500509e-01
5.804166426946866242e-02 1.722255236109005924e-02 4.734086570956470563e-01
-4.920299161250527194e-03 1.096065259333305932e-02 4.214757971472113951e-01
5.845634176857362335e-02 2.244371781637600344e-02 4.770268312938186761e-01
5.790687919083874896e-02 2.932424263497868805e-02 4.825191382109650373e-01
5.643511419292205483e-02 4.273535317175610609e-02 4.808109696442935954e-01
5.095579930505716310e-02 5.863220825640972494e-02 4.790408146134597089e-01
-4.785174234058858778e-03 7.820995945594780285e-03 4.237055438319712874e-01
4.573223996887782611e-02 -7.982652014395558333e-04 4.487040828987995389e-01
5.819145849105882007e-02 -1.253894568958455538e-02 4.849746977401936943e-01
5.536131340777274840e-02 5.221498975261937986e-02 4.658137949746393724e-01
-8.534540631626620980e-03 5.263086285143180054e-02 4.117464089185928766e-01
5.166406474590438253e-02 -1.111580071478904426e-03 4.563495476662516315e-01
-5.520867387119644115e-03 -8.803066288645246609e-04 4.294945716191667651e-01
3.557108652194640452e-02 6.163546536959436939e-02 4.413466648346225374e-01
-1.059285471374058797e-02 2.549506167149625385e-02 4.136138448427822412e-01
6.954936466820713266e-04 2.212069170676891905e-02 4.094830503566870838e-01
5.483034506764548899e-02 2.110153719201381464e-02 4.903406332682540003e-01
5.307124499525719963e-02 5.916809944702269841e-02 4.634079087910336625e-01
3.253604095915856725e-02 5.017276485480659520e-02 4.345409466505358864e-01
2.739433384844698095e-03 -1.618396506678753885e-02 4.351855011465220469e-01
-2.831597380911195748e-03 2.849933516724827663e-03 4.276117214437426539e-01
1.089869856522195091e-02 3.828967103824919282e-02 4.099267695793428756e-01
2.065454405558061340e-02 1.412278004137085263e-02 4.300772880545812860e-01
5.281007184515969927e-02 7.776820517932479283e-03 4.986157357656454958e-01
5.342552386256005370e-02 -2.129744299923023998e-02 4.713891465012673421e-01
-1.269044405820531421e-02 -8.102062239024852147e-03 4.331937413489548860e-01
4.663631975730738594e-02 1.304186811781852390e-02 4.473772233679911281e-01
-4.431175710133088488e-03 1.326569037390580574e-02 4.195223350127252893e-01
2.736737516390052097e-02 1.850335729439741075e-02 4.332174326116259855e-01
-6.361521840346660503e-04 1.012575631013072630e-02 4.225069853333958680e-01
5.606783386077376224e-02 -1.089233988583394701e-02 4.745599574304824597e-01
4.634810967850122587e-02 6.495574726999338300e-02 4.522937300952203921e-01
4.775027524160609799e-02 6.549912019354565441e-03 5.129613309792275810e-01
4.142525658192103971e-02 3.654216821746275601e-02 4.424439024053848923e-01
5.407901253243422440e-02 5.437432076587367380e-02 4.740900682207467298e-01
5.798224006094835487e-02 1.671096586997369154e-02 4.768379770402245144e-01
4.230598491424764074e-02 2.788044437125489564e-02 4.433175816864318164e-01
7.195930035842085931e-03 4.488238265398284549e-02 4.084572045233901272e-01
5.857264799801418370e-02 2.461762223390986590e-02 4.708487583760084805e-01
5.362506531216350986e-02 5.220754504360653261e-03 4.995803995742014170e-01
4.669248852770884611e-02 4.594959780527242688e-02 4.468791552941905332e-01
-1.165434035062320583e-03 8.232002541842831436e-03 4.238165886487056944e-01
5.765562361667949526e-02 1.221939958492206796e-02 4.687013924431706613e-01
4.597287352322983883e-02 3.129081415754540740e-02 5.113177052115740473e-01
5.720681440330545320e-02 3.359519501574758510e-02 4.858050445136801176e-01
1.509947190611813858e-02 3.974378085851421050e-02 4.169305201560104535e-01
4.108831479086146737e-02 4.526695826126905797e-02 4.419440494528124042e-01
5.554177886900348027e-02 4.078358139335497290e-02 4.576862042272247799e-01
5.555333957955232299e-02 3.928027466021721120e-02 4.577816486079849256e-01
4.944228903937936126e-02 1.424981795824878036e-02 5.029857722245980600e-01
1.890390043948365559e-02 5.483430411803062732e-02 4.235080138597557275e-01
-2.907418956954162248e-02 3.218886072904705159e-02 4.208157594778936250e-01
-1.435103688681668883e-02 5.813983689270436732e-03 4.260835668730381109e-01
8.970317366645096449e-03 2.738618378245065779e-02 4.055957585026140899e-01
5.699905211724372311e-02 3.762126876469096270e-02 4.839912762163082194e-01
4.580523423980170650e-02 1.592940784338174945e-02 4.465374567921625570e-01
2.703220751197619315e-02 1.113813383119847435e-02 4.342197801212703268e-01
2.027940797405412485e-02 1.602766122702259724e-02 4.290418006000236706e-01
2.680522093752188070e-02 -1.743686007224460807e-02 4.379080525619856723e-01
5.722430526889273755e-02 -5.906133205015966052e-03 5.084489463971753054e-01
4.650117567697535648e-02 -1.223266487597852916e-03 4.495042307685085947e-01
2.288880078759008944e-04 -8.770661501993584630e-03 4.313851414153301311e-01
5.646112051393976927e-02 -3.031650125113740865e-03 4.704173500183329582e-01
5.058761598742433224e-02 2.778896543868062882e-03 5.115056808612259420e-01
9.743295027735568090e-03 2.402377299873225194e-02 4.142123341088638777e-01
-6.825721265140395622e-03 3.090338810954105370e-02 4.088459611401998872e-01
5.728109060709980077e-02 3.149231711079555907e-02 4.617566066910649414e-01
2.033816952707580977e-02 9.084733320356806405e-03 4.319847721873700808e-01
-3.377652226058708296e-02 2.328543836594142505e-02 4.294522392296733493e-01
1.764623035326574885e-02 4.878519151153678374e-02 4.210314226657689840e-01
1.208693200636711679e-02 5.019898940333611392e-03 4.304013851557839110e-01
5.859278618312804138e-02 2.877775601969350880e-02 4.770087222939212168e-01
2.830099287937948987e-02 6.433482309817681322e-02 4.402495443376268636e-01
5.729910631112668587e-03 4.978406171067306651e-02 4.096598039760056542e-01
-2.916812355603146459e-02 9.151504370164369184e-03 4.322143369488147813e-01
5.312383755734563506e-02 -1.291364660824698314e-02 4.673159224138106471e-01
5.639140873510929686e-02 4.705596257478190242e-02 4.747417669870357959e-01
3.996148585305300815e-02 4.600879471504919216e-02 4.410784340660856007e-01
-2.117099180438627645e-02 2.637834569420129810e-02 4.178166817314569736e-01
5.379514388504965522e-02 2.723764210187547621e-02 4.950773575135949955e-01
5.473520351357106378e-02 7.991300271960644769e-03 4.596379897630520350e-01
4.040194726044451373e-02 5.232550484379745737e-02 4.416600216309070071e-01
4.776651207215094203e-02 6.314345331420528895e-02 4.792519828936738779e-01
5.822094421402836117e-02 -8.136854117879092560e-03 4.869293123008308077e-01
-1.703024930759420436e-02 3.016642026067142476e-02 4.138809779556443802e-01
9.231920929977191839e-03 4.610288087361055775e-02 4.108388622329036677e-01
-1.760295168097229801e-02 3.662687492823262642e-02 4.116035101281842468e-01
-1.798308132570369464e-02 1.487196701016412284e-02 4.225336248575554676e-01
5.733080837567295501e-02 -4.786831263331971752e-03 5.003490350825062771e-01
5.619293727397578486e-02 2.278887648363052063e-02 4.879143431837006939e-01
5.666206509087901022e-02 -1.252122540319999811e-02 4.789086523631635450e-01
2.327280178032021737e-02 5.869427582805632204e-02 4.303898012212787338e-01
3.611236349108495197e-02 -1.637387337303813917e-02 4.425881533381363364e-01
5.675246515802619129e-02 2.764271380085527724e-03 4.904078887445423862e-01
5.740136872893830677e-02 9.411690939361751912e-03 4.687486640050300690e-01
5.710979503680115726e-02 9.627220212781919390e-03 4.664815400469101148e-01
-9.035294869371494203e-03 6.908863304127620987e-03 4.242312451954672325e-01
3.028830841313936290e-02 6.098560502816480211e-02 4.375824153723525400e-01
5.687283662512276905e-02 9.856912207294016813e-04 4.921381390309569337e-01
4.077066348270152324e-02 4.528636917616570695e-02 4.417012715382903632e-01
-1.926433682142235457e-03 2.296382272907067021e-02 4.095186367869710353e-01
5.813998356014452723e-02 1.942588435134231031e-02 4.780207200206935125e-01
4.353588240145991189e-02 6.757990790260502700e-02 4.663815893535394608e-01
5.733431493969604054e-02 1.924253661523347286e-03 4.891347402338726003e-01
5.514040466903127879e-02 5.418884222377464213e-04 5.019212871347976668e-01
4.041635483535122031e-02 6.699450952447258412e-02 4.749157776191737512e-01
-1.371572351374181209e-02 2.779484882483470448e-02 4.135943597411850803e-01
3.274287507353274701e-02 1.595293162877286716e-02 4.369835995320180966e-01
5.161645144018758846e-02 -1.780848486792098190e-04 4.556526386646846949e-01
9.547246760405721580e-04 2.374433493163721764e-02 4.071808179239268521e-01
5.022084244376628925e-02 3.736262656187056691e-02 4.507401397218080974e-01
5.521586679729934000e-02 1.853974738496626251e-02 4.576005544505137301e-01
5.385336704078088482e-02 5.005307218692862936e-02 4.865722254024292259e-01
5.788523499277211520e-02 3.937140644092113062e-02 4.723180119641842700e-01
9.606770102381728682e-03 -8.943615316272550061e-03 4.323375932705120217e-01
4.887182946852857562e-02 3.445893732327418718e-02 5.063042262882023747e-01
-3.105905246597526551e-02 1.425713970977605417e-02 4.307264247455888651e-01
1.397683321690596989e-02 4.361728474659467419e-02 4.153594982508128641e-01
2.111508694442950501e-02 5.249271501361736647e-02 4.249898865445428386e-01
2.931350326071744533e-02 4.842290534713080546e-02 4.316859310898077395e-01
5.116319671946225472e-02 -1.346771325493774808e-03 5.151127621640789744e-01
1.385759422979943728e-02 -8.009308942874958370e-03 4.325941356699234408e-01
-8.222537468760678092e-03 2.068294255234297968e-02 4.151561337757114778e-01
5.226404242230101721e-02 5.214617277489109332e-02 4.535788320442844523e-01
9.048230175200504266e-03 9.934997896767818956e-03 4.261348797926485243e-01
4.111546914634593708e-02 5.148597634131928807e-02 5.079244416308684729e-01
4.508195085532155227e-02 2.104191443679588255e-02 4.456587719502480560e-01
5.492424911924147224e-02 2.705747457063954406e-02 4.926436799456083149e-01
5.076034861289099864e-02 3.979129603076798222e-03 5.099230917566216492e-01
-1.964618005979691315e-02 7.018769275798248178e-03 4.272134452070229238e-01
5.838034970930978257e-02 3.483341627919236266e-02 4.740842116453289345e-01
5.038114622324786629e-02 6.456855200054273380e-02 4.681349754488717263e-01
5.278725428823134724e-03 5.321720512144702958e-02 4.120564248683077913e-01
4.104945802919326286e-02 4.567482789506328161e-02 4.419117060900123461e-01
5.667673425730781339e-02 3.621199550835838693e-02 4.875107163969336632e-01
5.167851123867617247e-02 5.632635035670882639e-02 4.546870311189045721e-01
4.197896899055961195e-02 -1.298828943224100349e-02 4.468863795419660834e-01
5.020433243243972027e-02 4.014004600767281938e-02 5.043327554953273006e-01
2.282572856158641625e-02 4.492069472964788784e-02 4.260275924604272624e-01
5.567417907916635128e-02 1.819278485161805736e-02 4.588840553890736751e-01
5.580717813464881188e-02 3.600828166214790210e-02 4.916218779838362196e-01
5.066020863279364905e-02 4.588253429582662274e-02 5.020162800359205812e-01
-7.345599840200118212e-03 7.905840706751445478e-04 4.290628740191574919e-01
5.721784953905037496e-02 8.094836012985779337e-04 4.723948975598116218e-01
2.928932629022367243e-02 1.220252826485019627e-02 4.353142426569128753e-01
5.420808392113677515e-02 -9.460252769462617478e-03 4.678529285405366167e-01
3.334752302041633226e-02 -5.691492617115614071e-03 4.389190682038668911e-01
3.141086077331084470e-02 3.810479521164451735e-04 4.377379672056402882e-01
5.798164052640199240e-02 3.623956691811683339e-02 4.760106735254937549e-01
5.766161218810778033e-02 1.150779026413153300e-02 4.694168565409457261e-01
-1.648023744386620942e-02 2.317711778045305343e-02 4.171547271277407654e-01
2.317940435086154535e-02 -1.280131639806026886e-02 4.356889412345589241e-01
1.060238662244386044e-02 3.319937656152505828e-02 4.035765259795210946e-01
-2.390387409436860178e-02 1.410565493101331030e-02 4.260647122277502752e-01
4.602846512007577329e-02 6.589430908222190797e-02 4.527361536059904545e-01
9.991270022276102850e-03 6.005501649803988984e-02 4.207699988906606903e-01
4.488877188235258775e-02 3.556635969120859608e-02 5.131087380243106733e-01
3.642817569197968897e-02 6.388591534668666867e-03 4.396126533744636466e-01
-2.890187363741992393e-02 3.063082682447864497e-02 4.212575720016619729e-01
2.102995899528834617e-02 3.524567171693389345e-02 4.247411193199176482e-01
5.446436952519062569e-02 -5.194421433719043600e-03 5.142210310369742521e-01
5.542903906142936793e-02 5.141099721813359447e-02 4.616261610840838303e-01
-3.243573698206338261e-03 3.297141047590695928e-02 4.058158069650115163e-01
3.223514372924058541e-02 4.115726826037219982e-02 4.349442712306816894e-01
1.425906807422048020e-02 3.091788660435102268e-02 4.159542441911057709e-01
-7.397995226022684168e-03 5.043098073690482214e-02 4.083494126939548607e-01
5.605235846987641907e-02 4.943612655512162612e-02 4.717189026628417770e-01
2.911746519222168164e-02 5.680257444236875425e-02 4.331392231174451823e-01
5.158947968039222232e-02 7.226584839283873608e-03 4.528695492535576572e-01
4.716962750751571044e-03 1.414275012572651855e-02 4.207566220984874095e-01
5.719744553303116735e-02 1.443282969440699663e-02 4.820513850847120696e-01
5.366468355414430458e-02 -1.461174214816501546e-02 4.692867394947762838e-01
3.826535574776594728e-02 5.566475043044882137e-02 4.405528859480295489e-01
-7.356547775390133784e-03 3.856843346201219852e-02 4.061481467204838269e-01
-2.228892068155604103e-03 2.363004327889615952e-02 4.094327338154865603e-01
1.455994334178560903e-02 4.369142487877267222e-02 4.162172585780818945e-01
3.620762266236190324e-02 4.016262118506629814e-02 4.383625523433651860e-01
1.323541821277648099e-02 -1.334826135751767881e-02 4.345124208762947693e-01
9.584007175498678380e-03 1.906300235030819468e-02 4.195198627958890425e-01
7.275666530967915546e-03 5.859721074849420785e-02 4.169459075710809648e-01
3.174672079340543768e-02 3.567244764556853909e-02 4.349978174360882854e-01
4.968634470444041606e-02 -5.335945130767584619e-04 4.526463907354552063e-01
-1.664508660486890314e-03 4.138469869682424862e-02 4.050906828679119442e-01
5.661899297769296124e-02 5.233922072416833174e-03 4.886908151815936852e-01
3.894285532339777228e-03 -3.746823083542231980e-03 4.304251177887051805e-01
-7.104001385976991233e-03 -4.053459128139962758e-03 4.303803688715158171e-01
-4.649204312364698874e-03 2.482570545322689351e-02 4.105349378519072001e-01
5.257101977628536593e-02 5.420308389068861921e-02 4.547230760176584341e-01
4.103495094999151660e-02 -9.103673580940507132e-03 4.454122753584805472e-01
8.803827403318607858e-03 2.440587309190423576e-02 4.112266173742057385e-01
1.355393203131233411e-02 6.073563552447286407e-02 4.271134791470133640e-01
5.722654959694430804e-02 -9.099196180001161913e-03 5.137092575516067905e-01
5.771881717943681822e-02 2.876739817887128802e-03 4.834879775556857329e-01
4.563719260725127708e-02 4.673540957567789977e-02 5.102010575844632134e-01
4.889647479826075838e-02 1.818207744818704785e-02 4.494800956085351906e-01
5.819601038553874617e-02 2.377763105256501183e-02 4.793103848484337459e-01
3.389597001223530054e-02 -1.923183878622382326e-02 4.416426159526350426e-01
5.497012089478298114e-02 1.166967307361503267e-02 4.900908588826496382e-01
5.564320291729405593e-02 2.221990840447426573e-03 4.967595409208781509e-01
1.163061059953745743e-02 3.850046909841266934e-02 4.110302048366522576e-01
3.311941800353850052e-02 2.401176116947901021e-02 4.366488396071690481e-01
5.465693524382683050e-02 -1.439460563084445435e-02 4.721435879183295548e-01
2.449087845961046145e-02 -1.553878001514667588e-03 4.347450304929716403e-01
4.670934911873296513e-02 3.087834781262321221e-02 5.099875708725540857e-01
5.014533996176479685e-02 6.443350414671178417e-02 4.700724931620859914e-01
5.639304174186109825e-02 4.811334857673118387e-02 4.712996923602694732e-01
5.398621804396800533e-02 4.460335250260967499e-02 4.939997730322635561e-01
1.736922188246790236e-03 -1.421337360021046083e-02 4.337832217571484517e-01
1.527877925247740284e-02 3.118832185853592093e-02 4.183105202972657310e-01
5.701990387144294931e-02 4.505916102675556340e-02 4.718688425123236385e-01
6.892749551357427694e-03 2.596931123541707312e-02 4.048763087620136369e-01
5.663116746087068498e-02 1.027435613331587061e-03 4.935936308574620512e-01
5.140027702004285742e-02 6.002364156340869034e-02 4.582276486830638706e-01
5.209400947148767891e-02 3.434186239327279705e-02 5.004122247722794237e-01
5.276040216529970933e-02 5.336607974115442632e-02 4.547591526333665257e-01
5.832964118707031215e-02 -9.948936626886907206e-03 4.874604472678908951e-01
5.025732930918289099e-02 -8.889846876593186786e-03 4.583385488426732768e-01
-2.789566017866803097e-02 3.695078313142254045e-02 4.180437358903458800e-01
3.516226827587625586e-02 -1.967577806437847271e-02 4.427718443365349921e-01
1.309936446835470794e-02 2.340502486074272359e-02 4.190850673638261137e-01
5.024854705192290799e-02 5.483783565308449764e-02 4.895537296326999965e-01
5.868683186098096194e-02 2.604717456505369066e-02 4.745015452371609821e-01
4.772045463956361977e-02 1.143966095908842667e-03 4.501967788962642492e-01
-1.818745536005033844e-03 -1.216888908881711209e-02 4.326807066135796020e-01
-8.922721893096514922e-03 3.118985716336869843e-02 4.096206574867715666e-01
5.125849980083441865e-02 3.604576364822591195e-02 5.024110650454784999e-01
5.169337776453544059e-02 6.217391554594106640e-02 4.661332084344150806e-01
2.490807423765298290e-02 6.803710621808431273e-03 4.345398579891235347e-01
2.394562118433184953e-03 1.199069061644424290e-02 4.214789495406899844e-01
5.107851142763164543e-02 -9.343272386352716868e-03 4.607309670803729773e-01
5.410144907662684660e-02 5.305390917153822439e-02 4.787163059479442873e-01
4.500345870980210217e-02 3.366658267943268418e-02 4.455651917288186437e-01
-6.974526504119801448e-03 5.173896024042720643e-02 4.104203577202488740e-01
6.594422037524923230e-03 1.788670831364028158e-02 4.182766525308408423e-01
4.777342664147610218e-02 2.172670179855844957e-02 4.482819255035947470e-01
2.972288569827242349e-02 3.990558471530841061e-02 4.327988891912077918e-01
2.691377869950081422e-02 6.399413088475523759e-02 4.397886138132787170e-01
3.796400020859110741e-02 2.669222460577126352e-02 4.399340975738962878e-01
3.133243184140007548e-02 1.632397413328878083e-02 4.360447279078776828e-01
5.776420600237636149e-02 1.390268306851564356e-02 4.685910705932465614e-01
-1.579938623471008677e-02 3.807766844796965644e-02 4.101226151233376416e-01
-2.920060572891834162e-03 5.451198149463121548e-03 4.256830416303538089e-01
3.695598348717401421e-02 2.815805915257733969e-03 4.406574698132398882e-01
4.316105527953882637e-02 4.010716249394655902e-02 4.437101380429591679e-01
5.463641875601256415e-02 5.464589068383350623e-02 4.684191980569881175e-01
5.047927491338916051e-02 5.438571531618846544e-02 4.518777646674379533e-01
5.546507398936154770e-02 -4.661665667326244343e-04 5.018966502107471417e-01
-1.715496116572393787e-02 1.803436203085220443e-02 4.203617543851108085e-01
3.419839257248927233e-02 -2.455466332091993387e-02 4.440568175660740691e-01
5.069245057552632105e-02 5.833236776381721389e-02 4.542649014331077706e-01
5.316063477928228281e-02 5.784280403338465382e-02 4.701462608502982032e-01
-1.279129278955441415e-02 -3.917979535539474999e-03 4.311214637884457912e-01
3.713259470963167080e-02 -1.617360275874800066e-02 4.433322641984069334e-01
5.688563447072706586e-02 3.837523681909371653e-02 4.839880527513914510e-01
5.557396921397460970e-02 2.659666774192891506e-02 4.577400914870354831e-01
1.143519540420002457e-02 3.095077547100461360e-02 4.084985665592383852e-01
-3.501479280678616857e-02 2.266484729691373157e-02 4.325243799625576591e-01
2.901823226992764071e-02 1.077787307585446538e-02 4.354076025526394944e-01
3.458612690071168061e-02 -2.024735071036229406e-02 4.425395985569549051e-01
5.757919594718408085e-02 3.547862515298421532e-02 4.811682893837392894e-01
5.620680944264332818e-02 4.861858737740449438e-02 4.728647072767264148e-01
4.271541797935483539e-03 2.111972938224288346e-02 4.118149924677338980e-01
5.537892954501476284e-02 2.941635219377530808e-02 4.923083296183159985e-01
5.231923875865918810e-02 1.539170949939002581e-02 4.959963502570487459e-01
5.121460939110249883e-02 1.406548416897098787e-02 4.985498619246487295e-01
1.982982134152642267e-02 3.809573964132430268e-02 4.233875101427141407e-01
-2.962685516533098036e-03 1.608753141596194064e-02 4.167134175768335003e-01
-2.071863513313931121e-02 3.402522708169891923e-03 4.295537530783469782e-01
5.775653999823398416e-02 1.935481558141009112e-02 4.798573759715012987e-01
5.813483438127728387e-02 -1.952067712587809544e-03 4.905303264786973760e-01
3.414233558377954142e-02 -2.806921301619436874e-03 4.392759434760334925e-01
1.188277326555910694e-02 4.199337518198766050e-02 4.118993823191187120e-01
-4.440896328687276434e-02 9.168726803770242510e-04 4.449511873939290263e-01
2.757762748025348321e-02 -1.724739375881702980e-02 4.381021801944333660e-01
1.094751265851677015e-02 6.073019679205422794e-02 4.240295360889378973e-01
4.783590482620784373e-02 1.319041676412697345e-02 5.076370350746631788e-01
-4.139631997370257083e-03 3.071433209823381388e-02 4.075078967303871202e-01
5.662517616916686730e-02 1.991599866165991856e-02 4.855684285038570080e-01
5.812924680965655955e-02 3.847112510608668989e-02 4.690545203642148553e-01
5.285300507879413939e-02 3.767905541332910307e-02 4.993166847801073227e-01
-2.573943346028675222e-02 3.409786030525940870e-02 4.174600867796003367e-01
7.612314394007469245e-03 2.816128701829546943e-02 4.019943375428634558e-01
5.794542705361284407e-02 3.971394158362744758e-02 4.696155285205373953e-01
1.590379179656049510e-02 2.616065424963700051e-02 4.208445696791521251e-01
4.216139646831357918e-02 -1.892668691639242881e-02 4.488290951858236455e-01
-2.606481320741871333e-02 1.640365337107173999e-02 4.258231875379273057e-01
-3.257907299235349163e-02 3.323079119970202226e-03 4.352198956359498716e-01
1.369016934225335616e-02 6.087155354331436757e-02 4.280115801948247700e-01
5.384484913325143091e-02 1.288711379866694633e-03 5.053334837578792316e-01
4.435420951003098133e-02 3.976058527400170434e-02 5.135026314961264049e-01
-2.466715637678920311e-02 3.054225370214238774e-02 4.179599720926555628e-01
5.598885039879043790e-02 -3.483735845630482261e-03 4.686071654094974837e-01
-1.946402825457690944e-02 4.398125282365866751e-02 4.114667395120935045e-01
8.241763701006139461e-03 3.795049349250595450e-02 4.065150754125157473e-01
6.487460985023076575e-03 1.637595885708612378e-02 4.196518653440508562e-01
4.582219288737750945e-02 2.864591659807797907e-03 4.479454727520377766e-01
4.106235509747791640e-02 -2.097505738162023028e-02 4.482668544640813213e-01
1.723046136528057909e-02 6.063079350508673859e-02 4.318460049924346400e-01
3.001368614044200300e-02 -1.182971389689738487e-02 4.376009962261477315e-01
5.863441973017560760e-02 -9.858586046444017814e-03 5.076169074710549234e-01
5.009139585674201450e-02 4.869396834545772212e-02 5.002621068501591495e-01
-1.867452661704385036e-02 4.944199870643534167e-02 4.147618436878328096e-01
5.283775821310315868e-02 3.350859710465160790e-02 4.536632788766566393e-01
-1.776862719370091506e-02 3.850994659527808700e-02 4.109812628980269444e-01
5.542581056236007414e-02 6.418717097221772298e-03 4.918414277141277546e-01
2.059224121358006754e-02 -1.070920306503907876e-02 4.346113002876644260e-01
5.310066585089336794e-02 -8.989621849936175416e-04 5.116773020231376590e-01
4.546714575687105936e-02 6.821984931159372212e-02 4.623425308557744251e-01
4.999774757357765970e-02 1.268245340017070538e-02 5.024206248065979930e-01
5.057529769847567136e-02 6.231539998569572691e-02 4.723929411016341562e-01
-2.375089243318645113e-02 1.817935897824992514e-02 4.231918274074594755e-01
3.859171710109866177e-02 8.676407643464757735e-03 4.410248885486883208e-01
3.173589943509191186e-02 6.154687591164956922e-02 4.389679576799080940e-01
1.181684394781387995e-02 4.072666923432458064e-02 4.116215941355375607e-01
-6.690759762582785229e-04 -2.679801491489555102e-03 4.299276496925672486e-01
1.671173047356394603e-02 5.997918123347235203e-02 4.273369647249596337e-01
5.109242278589524316e-02 -1.787324181818801191e-03 4.554873490856034546e-01
5.251636575585202221e-02 3.743652244146065955e-02 5.000512311217673034e-01
5.501454876453679838e-02 4.414988819901880662e-03 4.619997936981233289e-01
5.460415903633451112e-02 4.850314503713078901e-02 4.862138024017270133e-01
-1.726532665230763944e-03 4.076802968316392550e-02 4.048660485792678343e-01
5.536291676819365265e-02 3.484064642635569583e-04 4.652963773871796049e-01
3.622405823005789283e-02 1.022948804671964564e-02 4.390857004963631405e-01
5.815907880033813204e-02 2.563930599554025552e-02 4.811345757191724526e-01
3.939708805572682965e-02 1.055307458032511345e-02 4.415992632148941222e-01
5.985576767361728417e-02 -1.303866192162534549e-02 5.051874080138528678e-01
2.801136649268415324e-02 6.023444688485017628e-02 4.351809175861201529e-01
4.874900074431839925e-02 6.950991534155183740e-03 5.105932130874794028e-01
5.638401553165686003e-02 2.237001706339996135e-02 4.871843445057582045e-01
5.207170139557024818e-02 -8.375387226719235162e-03 4.624123867909908925e-01
-1.738634060327794509e-02 3.871008988042893423e-02 4.106985493537153031e-01
-4.193436419376576907e-02 2.586682640723820658e-03 4.424526356249869341e-01
5.059563624556922407e-02 2.022871186563103552e-02 4.511562310743789106e-01
1.011105515322689892e-02 3.143270400308247059e-02 4.042073121462783081e-01
1.339383883143730608e-02 3.843849248679435254e-02 4.140373839257883715e-01
5.160758135712278927e-02 5.147925741403745759e-02 4.923048516292954369e-01
4.967769348380195182e-02 4.473739845195871812e-02 4.502340714024956059e-01
2.921385691518382094e-02 2.808119233167649664e-02 4.335366175664608912e-01
4.030383184578174849e-02 6.929811378673116085e-02 4.510767869353508042e-01
-5.585905030756340567e-03 3.243270704575201141e-02 4.077692943456926455e-01
-7.412406617155687522e-03 1.109745523237791638e-02 4.215547452617193214e-01
3.068663652566172659e-03 2.033764725861103920e-02 4.126379121896407987e-01
4.803484134700196362e-02 -2.327672895766590491e-02 4.608113262045162029e-01
3.279104688526518485e-02 6.107691688846163258e-02 4.392486838959657192e-01
5.838921272014064440e-02 2.280496573564388604e-02 4.778819030473179241e-01
5.539647776565617687e-02 4.800085780005641789e-02 4.572165758879470632e-01
4.744231180702896539e-02 3.435636392745607809e-02 4.477314520814396626e-01
1.524457085912247264e-03 4.017460564521962291e-02 4.039758576865790651e-01
2.055651565533127278e-02 5.580351861127142571e-02 4.256598916564303114e-01
4.255922452752194246e-02 3.025508776711718917e-02 4.434866741330262818e-01
9.443655415502494842e-04 2.652763535654260874e-02 4.048353733672554466e-01
2.035709472980576362e-02 -1.608622145958195013e-02 4.358112774516404442e-01
1.365321297045357131e-03 5.416685216733090058e-02 4.116830920422305251e-01
2.752174788002495834e-02 6.404625552392119447e-02 4.393290463465751583e-01
5.466804957558870498e-02 5.349699924297932063e-02 4.721630143768072996e-01
5.271185244211085835e-02 4.041089516873977439e-02 4.538121919793783876e-01
4.793123926673625163e-02 5.159744924641763986e-02 5.001892148113989967e-01
5.762791597221388062e-02 8.381470472078605613e-03 4.808068652513962649e-01
-6.157137152930688972e-03 1.507868843614695170e-02 4.183475616132655839e-01
-6.249137651562540127e-03 1.300593259128488173e-02 4.200766234412987576e-01
