1.990582842564520699e-02 -1.376959881905868294e-02 4.350868476620631808e-01
1.394314576354261336e-02 -5.356250436950388966e-03 4.320545413690615177e-01
4.621909861769796929e-02 1.589776289513771673e-03 4.487199021905566299e-01
-1.377618487620361348e-03 3.401936835880024074e-02 4.023289571275798227e-01
4.041262366188754646e-02 6.686195790732982203e-02 4.752383105450050382e-01
4.504283977346709017e-02 6.143852389595768487e-02 4.851504534006989555e-01
5.779655717153977385e-02 3.575169844775425571e-02 4.735719138430363184e-01
5.410468648034594263e-02 1.552836255244002947e-03 5.034668086391898001e-01
5.796529436866228180e-02 -5.569568423245104330e-03 4.820860825929321747e-01
2.160731049544696580e-02 2.261549694777555131e-02 4.279326341852531246e-01
6.913171549894693221e-03 3.579158168592881661e-02 4.046774281057938794e-01
5.119880565919435883e-02 3.524255511357548415e-02 5.010556106305276147e-01
3.222546678696647238e-02 2.497142023458619187e-02 4.359674444652229530e-01
3.389578999258564124e-02 6.674347115768833327e-02 4.470693367298440024e-01
4.248504860511370662e-02 -1.320213734357197563e-02 4.476226651263026657e-01
4.591004037772936086e-02 5.633198800043121707e-02 4.927667748780442669e-01
-1.349547238876749704e-02 1.198717751484095796e-02 4.219201994348160123e-01
-1.991844126086680239e-02 1.590344126918903297e-02 4.221595412337728059e-01
2.437497557614512998e-03 2.559819731298291351e-02 4.039317162768482627e-01
5.141795524686144231e-02 4.055621522995670608e-02 5.006850406377429952e-01
2.795791709923753712e-02 4.768903408142535771e-02 4.305309717304987016e-01
5.285189254292739502e-02 -1.318996362801509118e-03 4.597384083095097940e-01
2.762319294614037218e-02 -3.270874626356489248e-03 4.358504037206683557e-01
5.404415217355974105e-02 3.449362733414560594e-02 4.950991764490638714e-01
-2.353385503638361770e-02 4.688425570919816515e-02 4.154928601170743141e-01
4.871507985009473213e-02 4.623639978020872149e-02 5.044089284157264874e-01
5.285934603070406579e-02 5.109159672220753984e-02 4.863538713801286439e-01
-2.365430298093633074e-03 9.028374741678765747e-03 4.227682229449152840e-01
8.478827251118021754e-03 5.326959871831796201e-02 4.131290530193277855e-01
5.814924975194608187e-02 -1.357967198560886338e-03 4.806560676177432101e-01
-2.437281641222286896e-02 4.433975779169526538e-02 4.154389258914543692e-01
4.057490500809491502e-02 5.748179544108739797e-02 4.430169832743309222e-01
3.865041374594123391e-02 -1.823275327419312045e-02 4.451278283603411490e-01
2.367739487279264116e-02 6.354756287134616377e-02 4.409731164453911667e-01
2.481475394034758988e-02 5.573750788026255593e-02 4.285089745740537359e-01
5.733445437266297684e-02 8.903995715048632770e-03 4.772171683319396673e-01
5.785627908060261143e-02 3.641976306094828197e-02 4.699740280000551107e-01
5.811531381948949887e-02 -4.381584222909894535e-03 4.822003027209135206e-01
1.932437579259364130e-02 -6.856434414566812963e-03 4.333608678551137960e-01
-3.180246302014741455e-02 2.701188017745140973e-02 4.240816155755966488e-01
5.675536189362458822e-02 2.022348145378147222e-03 4.903291653256972027e-01
1.473894087124048673e-02 6.170932861198114017e-02 4.358440564737314782e-01
-8.128486921747181057e-03 2.002470916662056274e-02 4.146487137918935528e-01
3.567642236627855540e-02 5.880751545953967485e-02 4.397665822892080079e-01
4.072787102589169039e-02 6.792590052941295531e-02 4.689775004532876768e-01
3.401974557097785928e-02 -5.793624720180841001e-03 4.393590965111954794e-01
2.143746420188892554e-02 2.036043217677622683e-02 4.283464307972600360e-01
-1.607975234201085638e-02 2.253478809806993069e-02 4.165941847268417320e-01
5.293871548611952388e-02 -2.065440416227455958e-02 4.702426005133834019e-01
-2.613651394970128994e-02 1.291424124924309309e-02 4.277541781420798883e-01
3.384846611376052597e-03 3.087448940993252518e-03 4.284227207808587456e-01
5.540951814292429528e-02 -1.366985906698088733e-02 4.742853632711148681e-01
3.626562597706332186e-02 -2.494727060392519166e-02 4.460523046226542720e-01
2.054463027193975319e-02 1.251200658848779929e-02 4.303864048502719641e-01
-4.176907403276365963e-03 -1.211932343286313205e-02 4.329171951221412185e-01
-1.994601855650691286e-02 2.392043726440919518e-02 4.174883111686581993e-01
3.137316926396135214e-02 3.466207511044215595e-02 4.348409827628815227e-01
1.228591227064704076e-02 3.025353478919761904e-02 4.129045435829786781e-01
7.379639125126918713e-03 4.788841861309755393e-02 4.101193979652655863e-01
-1.316657467791244873e-02 1.362387257134799017e-02 4.208570171199503274e-01
3.972392297278967699e-02 6.313191892367391034e-02 4.445636408681091778e-01
2.142356606877534111e-02 4.547639490127890899e-02 4.248088352057252659e-01
4.807153362307242141e-03 3.691032784236848024e-02 4.023228253309484304e-01
4.978138261031691408e-02 6.286643720143593461e-02 4.591759944411406558e-01
4.096137132195733915e-02 7.579340886982536413e-03 4.431269631286880450e-01
4.707886843885868838e-02 4.543381253695589345e-02 4.474764464296210331e-01
-3.162545066406043104e-02 1.784837538677932177e-03 4.347899700743327878e-01
5.503741036411574639e-02 4.726880730678095083e-02 4.807238751495549467e-01
1.032004497208422605e-02 3.907539245855034399e-02 4.097624906079597729e-01
4.944522060582911410e-02 1.650841513887358128e-02 5.015479096617587729e-01
1.182502332621138130e-02 -4.609705985278021029e-03 4.314634380766610433e-01
4.683135018064756017e-03 2.770156857716963780e-02 4.013387604949509302e-01
2.530817813198562791e-02 -2.344146511522332554e-02 4.385882202232261884e-01
5.300680335050679537e-02 -5.928746305193645025e-03 4.632356765966783030e-01
3.130098990492517774e-02 -1.392217192413063888e-02 4.387286539183339329e-01
2.809881393052942114e-02 7.860339593086553001e-03 4.354360343781240594e-01
-4.624720154113694595e-03 9.880361646076973869e-03 4.219088356512022409e-01
1.257367076402354962e-02 6.046539310854772559e-02 4.255342441685605603e-01
3.055942907867894784e-02 -2.457184310981027492e-02 4.412680181538861102e-01
1.034289787573362818e-02 -2.187807727531791702e-03 4.309567187271295952e-01
4.004725338020801231e-03 2.559415243532922254e-02 4.038633313355206589e-01
4.317154035599144422e-03 4.224473345527220147e-02 4.048679807204830783e-01
2.916529192670106949e-02 6.409983072525479719e-02 4.393807473909516204e-01
5.066302880802789343e-02 8.381386692009992062e-03 5.031821541526733110e-01
3.987790011064892837e-02 -7.505129691959962560e-03 4.440869419376361482e-01
-1.148857231967527481e-02 -7.615923886457404146e-03 4.325190688652265636e-01
1.404442554912952584e-02 -8.452111011897774865e-04 4.314909886593117361e-01
-5.546043420476215111e-03 3.251268589138900378e-02 4.066794308635888755e-01
9.993221156319591000e-03 3.803111993011509817e-02 4.091668823651062326e-01
4.879445411225180607e-02 1.243586138294355478e-02 5.050419875945888482e-01
4.144102405622562824e-02 6.499211065906290719e-02 4.479748196336550414e-01
-5.741890865630094876e-04 2.676655405732346338e-02 4.045117972005268236e-01
5.827690071964217178e-02 2.878665321265513541e-02 4.697563389566806191e-01
4.721838128403006013e-02 6.148979895171818172e-02 4.815102372561003152e-01
7.614011932103099956e-03 5.135047924492869287e-02 4.115910462015384685e-01
3.646356624905434246e-02 5.132319681802662709e-02 4.382367436289723583e-01
-6.565925641981155102e-03 5.149635095366326965e-02 4.099901527563735715e-01
-2.657833975295128409e-02 5.526339719119499096e-03 4.312374202017252300e-01
1.616893096494334894e-02 4.778019301328990942e-02 4.194250833892345098e-01
4.140682745306410728e-02 6.790374334892683439e-02 4.683432301313275592e-01
3.011470571467657689e-02 3.539348894464692391e-02 4.336507282772870120e-01
3.548664770432233967e-02 1.623163838511776889e-03 4.396976986617043837e-01
5.697963382495457862e-02 1.681316699678236330e-03 4.898597902018020367e-01
5.104500377712792303e-02 6.228214059272808162e-02 4.650311943649782509e-01
5.507287033061946530e-02 -8.989773668332155191e-04 5.068204519340243630e-01
4.609953089138467408e-02 3.957800938738194330e-02 4.463941483796086129e-01
5.787602217162376300e-02 1.987519625735282777e-02 4.720508968937315308e-01
5.156189980217993490e-02 1.631922291126329874e-02 4.967591674085536368e-01
9.108481489022723226e-03 1.304129045636009607e-02 4.237919309423769931e-01
5.386194292337762729e-02 5.552096601410649174e-02 4.623875242598762814e-01
5.736847576459330050e-02 -1.294850799277063105e-04 4.756562606887711486e-01
1.963670822709846428e-02 1.451730720964973520e-02 4.293631211477242360e-01
5.704942965708609953e-02 -9.010309846081865359e-03 4.791222486448801221e-01
5.344647956580286102e-02 2.525975334250161325e-02 4.938055675833917246e-01
1.981229721691708454e-02 -2.188441546947454339e-02 4.369551362987440513e-01
2.973126696627168691e-02 5.528646174232831889e-02 4.325550717516356558e-01
4.976842000263111132e-02 1.526185737120881042e-02 5.006463256553358443e-01
2.556402003486855923e-02 -1.561433575597163601e-02 4.369981453272763772e-01
5.371034969105070722e-02 -1.494788533661567734e-02 4.698584574713011719e-01
1.336725354920095116e-02 6.147045580603363590e-02 4.321135774662406837e-01
2.031785820688236655e-02 4.311902387531547920e-02 4.233966886605633473e-01
3.749830258356810775e-02 3.199088982611796028e-02 4.395815296346496370e-01
1.580112830947155017e-02 -1.198835080773161949e-02 4.338286765108018139e-01
5.707409825275517462e-02 3.606430933904808400e-02 4.804092718079057134e-01
-4.780720352660710118e-03 3.101386150460206520e-02 4.065313917112610143e-01
4.279432067000509682e-02 -1.457562910524974956e-02 4.482786859702056481e-01
9.610557571582870051e-03 6.132385457028791120e-02 4.263463863633757400e-01
-4.160139338861973402e-04 3.656490940442450044e-02 4.021148437894131455e-01
8.950686764926600158e-04 -1.367383721252404295e-02 4.332538964204742382e-01
2.757513957831420059e-02 -9.306234227144726673e-03 4.362442251304711749e-01
5.362326873329959637e-02 3.655916779218468249e-02 4.964526967966936821e-01
5.777167905778821805e-02 3.217514681198391235e-02 4.789573887450867540e-01
1.437200237203035795e-02 -7.910211427246820496e-04 4.315794350304856253e-01
3.666557903047677758e-02 3.336919185780328617e-02 4.390128545915720770e-01
1.260200921371752020e-02 2.861788248759390349e-02 4.145884069741608280e-01
4.359764965754588800e-02 6.743176147407380083e-02 4.715287104074412650e-01
4.047997867492163226e-02 6.761964875206338821e-02 4.720058191531614211e-01
5.672014120879509402e-02 1.717263586159542554e-02 4.826679210357075478e-01
-2.740513783115500895e-02 1.668908490836104944e-02 4.257708713145252899e-01
-1.243305853698794747e-02 2.560111400116664437e-02 4.134426189635093118e-01
-3.295455771785855970e-02 7.287613615676825571e-03 4.356165618362037306e-01
-9.737142000841830791e-03 -7.512737827840031135e-03 4.319864889468695290e-01
5.804899777451607429e-02 -4.591840809798818958e-03 4.944445598974415712e-01
2.305301721034430998e-04 4.650833599681464953e-02 4.058669578979711146e-01
3.717767592785637537e-02 3.848386352506701080e-02 4.391436043987384519e-01
1.344731514179994987e-02 1.974062521088660108e-02 4.216859179227606114e-01
-3.518466656752245944e-03 -4.585262262685242153e-03 4.302134721108568094e-01
2.306918898861955169e-02 -1.512700475763654150e-02 4.361386985083085532e-01
4.818436147529981534e-02 3.809617061703863758e-03 4.501166063256410999e-01
4.026968970474464893e-02 4.393118817384750185e-02 4.413428320348507516e-01
-3.492758798504705386e-02 1.155900504375708716e-02 4.375965110898063504e-01
4.103758166847016470e-02 7.076794289976363894e-02 4.521070131755803856e-01
1.332859171636597596e-02 3.895895107194610046e-02 4.145946865999947106e-01
5.218206278782792223e-02 9.181238878957869581e-03 4.987363853821611959e-01
4.279396476886531547e-02 5.138286931282020492e-02 5.077846168670241411e-01
-7.534452119615753576e-03 9.647537086333103293e-03 4.219245531785172365e-01
2.528890756896119696e-02 -2.408892576693044685e-02 4.386847600974115857e-01
7.638906245650096613e-05 -7.218304747127668800e-03 4.308868296016653554e-01
5.012260517372061491e-02 1.487290077667889968e-02 4.998949710707835115e-01
5.430981706004602699e-02 -1.816405925591704079e-02 4.729934031917326642e-01
-1.016864200370597637e-03 5.280171079249599414e-02 4.094783255326620575e-01
5.011209497855979855e-02 5.788059372512351086e-02 4.535100421851406272e-01
-7.906031212671128100e-03 -5.605626837936032031e-03 4.309479957274927608e-01
5.540735259927964673e-02 -9.857330460759783711e-03 4.718628075856659554e-01
4.188202622326365338e-02 6.023911884225721658e-02 4.449696128262352057e-01
-3.648241085354050894e-02 -4.093298073033894459e-04 4.390514708970335023e-01
5.381074190818496000e-02 1.815793764246465165e-03 5.040975171091804929e-01
1.351920479918112400e-02 -6.952472435286662089e-03 4.321845882695279917e-01
1.904574172692147065e-03 3.090795798073061110e-02 4.007623851181086327e-01
-3.520152429197619115e-02 1.510986438747674229e-02 4.375394145046018202e-01
8.605033607788206695e-03 2.244254689136118697e-02 4.141334722695134141e-01
5.591254274638979976e-02 4.687682691439952476e-02 4.650868700692875612e-01
5.804135690249772467e-02 2.251333846127002297e-02 4.721025943919989198e-01
4.672889839893144132e-02 5.442204887396007856e-02 4.962946645013517344e-01
5.833743660435862510e-02 -8.380206293943899890e-03 4.898138578175916247e-01
4.893576812434295015e-02 1.154352848563600792e-02 5.051565145252856492e-01
5.474112701226768046e-02 -1.439514164861802233e-02 4.727612523141141998e-01
8.164858826937636954e-03 2.912952845626388260e-02 4.031212267426401707e-01
5.045057914289090978e-02 1.151182916501103902e-03 5.137794907238363296e-01
5.819592157793895132e-02 -3.084962311360760212e-03 4.840405787842291252e-01
2.552242215213283705e-02 1.363089430595600809e-02 4.328054261055445107e-01
1.988997564409335922e-02 1.040982119329926341e-02 4.310816047488061908e-01
-4.121666329129363565e-02 1.801448456895519664e-03 4.494179824483882646e-01
3.285182586447570746e-02 6.433198348446350634e-02 4.419042452059553927e-01
5.561302767260320468e-02 2.539626055925413642e-02 4.587096853421662179e-01
-9.953175280708843192e-03 5.690469462580564214e-03 4.247712448884527481e-01
1.015357140822465212e-02 5.660210469636896974e-02 4.168332226032637755e-01
-3.351260047030034384e-03 3.363591442853778798e-03 4.268608125562643463e-01
5.697632852622459138e-02 4.878736087964311236e-04 4.915944760394361790e-01
2.183424769682948668e-03 4.106010683664500227e-02 4.041083353995197358e-01
4.231434913629054939e-02 3.168052958776357980e-02 4.433353435770013840e-01
5.361941568187769680e-02 4.568868623527014977e-02 4.919411944779498724e-01
7.819389268245423644e-03 6.154475331518761971e-02 4.253574277516502522e-01
5.385297324036896621e-02 5.871997786270873390e-03 4.974012616368505002e-01
4.666904744797067961e-02 4.604130619717970024e-02 5.078168922449878275e-01
3.594534699221862972e-02 1.566741885384832084e-02 4.389032630118303580e-01
1.216927149401697203e-02 3.559957295495787960e-02 4.115235194336536728e-01
4.553576852940918046e-02 3.051044591938119332e-02 5.110749471981310688e-01
-1.801591552842717742e-02 2.393320042170998113e-02 4.166392077328248678e-01
-1.614274573425842491e-02 1.453799110268560318e-02 4.213941161611846620e-01
5.827260043418525104e-02 2.727469000168389682e-02 4.734837470315567121e-01
5.149638274468178178e-02 2.705707893231792602e-02 4.986733684563798286e-01
5.808917413753610787e-02 3.339688241196447915e-02 4.681844073736100564e-01
-4.385646622429627967e-02 -6.200602591334958801e-04 4.413547338069122028e-01
4.247194876838949334e-02 6.944649461154588088e-02 4.608065272856413097e-01
5.280812190333422640e-02 -1.538975187147790039e-03 5.127344483131157649e-01
1.898395327786546460e-02 2.604064115094558915e-02 4.247814569407016849e-01
-2.268458242927513108e-02 3.980514651759854000e-02 4.134295644991632379e-01
5.570341304299549628e-02 -8.821289713630569088e-03 4.722314778403958746e-01
4.513608201254025454e-02 6.174861792058232435e-02 4.845092445760486033e-01
3.941854378474039799e-02 4.069086774859500405e-02 4.407756717556959303e-01
5.769033286292989809e-02 3.236671033234100880e-02 4.795828662697511069e-01
5.791583880888338115e-02 2.918952805354931013e-02 4.644339010947855506e-01
5.768053872453415831e-02 1.950291956171994884e-02 4.656775877763724147e-01
4.523277858792237871e-03 2.587607841333643133e-02 4.035315322643764913e-01
2.475569538177693762e-02 -1.781340291621538036e-02 4.373092579964166227e-01
5.822545049562655867e-02 3.208984447547297975e-02 4.731440339923096428e-01
5.549673176490209359e-02 4.320814756769633669e-02 4.833938905436704347e-01
5.356566119254931729e-02 3.811617482362203435e-02 4.963436840577962195e-01
4.821267739452167467e-02 3.859063271949735550e-03 4.501337070671695417e-01
5.619940131999491550e-02 1.316118517912161570e-02 4.624101325267493401e-01
4.080114973667740147e-02 4.476777220461690410e-02 4.417424430064495477e-01
6.555217141517431789e-03 1.347906030935984260e-02 4.222202710828842354e-01
1.995617986610660061e-02 4.162104370737225445e-02 4.232263042271149911e-01
3.880505372953377968e-02 -9.580066870540662055e-03 4.433967183249287736e-01
4.945307046179838600e-02 2.744094999742065482e-03 5.134824787440593896e-01
5.465834068735725415e-02 4.346083035808666339e-02 4.900128457346232813e-01
-7.333755048500907245e-03 3.763252216151220797e-02 4.054860284314506513e-01
1.021550026312687161e-02 5.920639273708051820e-02 4.196388364013515226e-01
4.045160904617912251e-02 6.488877398063663815e-02 4.469499150412365451e-01
-1.134319695665964717e-02 4.503723879284313170e-02 4.074243595893128345e-01
-1.291897983242627432e-02 4.220680419294214197e-02 4.077265294399890494e-01
3.826982631888088682e-02 3.418404182932898577e-02 4.401640973200263152e-01
5.542947741361552855e-02 4.446743948065279284e-02 4.816931165665218062e-01
3.231001504488100612e-02 6.044340214129334532e-02 4.384771775662775206e-01
2.107264727852584812e-02 -2.081475358897952321e-03 4.334593891446525404e-01
5.823466065655403395e-02 -1.118215001933271606e-02 4.869486811930261450e-01
4.827842487398734117e-02 6.424575130991477812e-02 4.561119874277839159e-01
5.823435917467000705e-02 2.654949302327272095e-02 4.724346814001493255e-01
4.869672369814106311e-02 5.864620348546832618e-02 4.832761778226297156e-01
1.040872638215235499e-02 1.649622425595420952e-02 4.217850961838181534e-01
3.741969626326609871e-02 2.618451281773443579e-02 4.395583504864821744e-01
4.824720523238168468e-02 9.984086555804044805e-03 4.491397058690493882e-01
5.440817193644266470e-02 9.466288536526078559e-03 4.587708739335316643e-01
4.434837762564002028e-03 -9.202781215281329377e-03 4.316928437440325506e-01
1.337565258541211811e-02 4.046442835415890726e-02 4.144225191724809632e-01
4.656098894771043550e-02 4.913222050932555818e-02 4.469117829444910206e-01
3.943518396802606074e-02 9.872285280402626206e-03 4.416690078224735361e-01
4.765142662571911387e-03 5.613782485979952781e-03 4.272284925635081443e-01
4.574492321769716568e-02 6.817277891363177078e-02 4.615455648109803022e-01
3.869867773040233661e-02 2.441343031575416225e-03 4.421180432379555048e-01
5.648493524223737600e-02 1.413235492823980075e-03 4.926873542667715711e-01
3.052562103714739038e-03 -1.710490322693874674e-02 4.357814159474124316e-01
5.741442807092482503e-02 1.063676810454000990e-02 4.708390038310196757e-01
5.659135189226635609e-02 1.074686926803920459e-02 4.830192819965562490e-01
2.201498976110255815e-02 1.648343085988812282e-02 4.301353164639648563e-01
7.482444231282844860e-03 -1.949733666905578006e-02 4.372565415152825374e-01
4.023767869663144592e-02 1.357798122888104371e-02 4.421463499759790139e-01
5.387117793461985299e-02 2.145401391957365775e-02 4.914720414488732425e-01
-2.651175838732306583e-02 2.035350063159675066e-02 4.227207769007820248e-01
3.775309346503825936e-02 -4.643052032317281606e-03 4.420804447963090356e-01
-1.557213856943258715e-02 1.637132605931262974e-02 4.200379645880442103e-01
5.301561115844176386e-02 4.547117940440233846e-02 4.943786168217199073e-01
2.484159551320041376e-02 3.388284130817445505e-02 4.288504449669950924e-01
4.385329251647601678e-02 6.420838781391442762e-02 4.801021734474655855e-01
5.579174475042406739e-02 4.677931264894871766e-02 4.754009098630820329e-01
5.050320735327876870e-02 3.501017027960419414e-02 5.024158165638539231e-01
4.848441977839276773e-02 5.195407901121169153e-02 4.987949895833400649e-01
5.347309937914969391e-02 5.618971277820367788e-02 4.676981328495118939e-01
1.926251335533694584e-02 5.121959189880387342e-02 4.229997100094869955e-01
4.894150557087811881e-02 4.701072097799888216e-02 5.034294813510662436e-01
4.985871497921049583e-02 3.941959837526873289e-02 5.038966880409757598e-01
8.034023113141103636e-03 5.999666836553890076e-02 4.193945253021905684e-01
4.090288151264585143e-02 4.853222672227237118e-04 4.441536636844093944e-01
1.303659491416811131e-02 3.303664917219596014e-02 4.124267107501932150e-01
5.535585879531777082e-02 1.305335476061983066e-02 4.599300988949086011e-01
2.761443951048559928e-02 8.602929771205022197e-03 4.352135701108117427e-01
5.380966477423876348e-02 5.265370252295491910e-02 4.787970127553924371e-01
3.702152827858577744e-02 5.092069748196347001e-02 4.386978948025409553e-01
-2.167543585455686608e-02 2.771432405755859182e-02 4.166889686873687659e-01
3.665272293999818909e-02 -1.702411988395506962e-02 4.431726054562241113e-01
4.107006283492823512e-02 -1.969445236656101189e-02 4.477233055995728517e-01
5.696199110093207174e-02 -8.930612400600047157e-03 4.785553841481541837e-01
-3.965983206329537492e-02 3.439650227673387781e-03 4.443740115249762423e-01
3.563056429014744425e-02 -1.524448642673995220e-02 4.419164457862514994e-01
-3.460804928917396439e-02 2.237348756005645353e-02 4.305018165734067481e-01
5.688858010293260103e-02 -6.083023009671987939e-03 5.105067627582685619e-01
4.199565648857567224e-02 3.893960906108517167e-02 4.428628359929490665e-01
3.977850269505997516e-02 5.457756277191617988e-02 4.416711939245537843e-01
5.608696935853270393e-02 4.722485696096616337e-02 4.704828964085990828e-01
1.525995094121413223e-02 3.282477559059914646e-02 4.184947831464297940e-01
6.057350350190139881e-04 5.480835892047332403e-02 4.121834609101517333e-01
5.762476816205516078e-02 -5.260078186723131377e-03 4.968632038646372817e-01
2.925850797614290219e-02 -2.235850068361006429e-02 4.399557230446611844e-01
-2.489620370452403850e-02 1.899547081870608251e-02 4.226529028254339959e-01
7.823623659812276032e-03 2.209076523535663875e-02 4.133175882585325422e-01
-1.127381865367985993e-02 -9.453246101029402076e-03 4.334508787898779802e-01
4.544745288051806748e-02 3.973886007020033251e-02 4.456961879749830602e-01
-6.196532492540233680e-03 3.639968678199904939e-02 4.054131594965751928e-01
-3.255495451790928890e-02 2.305945763185449082e-02 4.265331207931499780e-01
5.413016627441928630e-02 5.191131139080659013e-02 4.575289816226967288e-01
1.295905883203367012e-02 2.987129881710548496e-02 4.147526567039298562e-01
3.881476850888297692e-02 4.349540303941114294e-02 4.402307199780713942e-01
5.739374357900688117e-02 -4.655791956492647508e-03 4.975145099201470078e-01
4.976514923113487671e-02 2.703857990020866811e-02 5.021830895831546071e-01
4.299455348568322760e-02 1.929180388813073535e-02 4.438456869885285538e-01
9.884087983848094741e-03 -8.497515596305849073e-03 4.321206763547820739e-01
5.705952837649640175e-02 2.231828907006029247e-02 4.822303129278357470e-01
7.725993046521805081e-03 -2.214246948121999931e-02 4.378846360089168055e-01
9.978346344218262318e-04 -1.631841373535032266e-02 4.349510721049342221e-01
5.410361133844039661e-02 2.203331883074540615e-02 4.911733348467428595e-01
1.725434807523195530e-02 6.081978016337137583e-02 4.343638596006411112e-01
4.594643065220058858e-02 1.151840145348884126e-02 4.469422147995000816e-01
5.502975440318909339e-02 7.695692148980083115e-03 4.914980831561819308e-01
-3.131425596031151698e-02 1.384191534611645125e-02 4.306373848291021322e-01
4.938615818028718046e-02 8.776955047702312065e-03 5.062378620165154386e-01
4.889639393520632538e-02 6.004293692593050402e-02 4.804146143460097385e-01
3.825032604969064165e-02 8.618443481215334878e-03 4.407742316653222026e-01
-8.429803629001879697e-03 1.833296229868210808e-02 4.159170613713016329e-01
-1.265388897387607035e-03 4.649715483968385604e-02 4.057180221902064177e-01
5.693911865041186016e-02 3.314094918049231148e-02 4.842365237868287431e-01
5.618195417270409331e-02 9.937372818823696219e-03 4.857162207073504323e-01
4.900665411227956431e-02 3.161650907062940608e-02 5.047465673168362033e-01
3.577689710567528297e-02 4.728172734465559135e-02 4.377044310490621482e-01
5.464051509937993545e-02 -1.246250033647213450e-02 4.709582975791427595e-01
5.612794613355469309e-02 3.680819669966144125e-02 4.602890583081560294e-01
5.573574979274438512e-02 4.908094116476183731e-03 4.647648610249144885e-01
5.778490513565655989e-02 3.559122515518269719e-02 4.739861886226331422e-01
3.893212479068899196e-02 -2.524154080294328459e-02 4.484812398037936187e-01
4.322341637418942312e-02 -1.469773255535746469e-02 4.489555236378525160e-01
5.452725588937456375e-02 5.012460010492143792e-02 4.795726773890651717e-01
-3.244074244197021548e-04 2.586208421332173227e-02 4.048332607518132509e-01
-8.145220822444416281e-03 3.359730396475915648e-02 4.075583969530383044e-01
-1.540190205985152681e-02 2.908618223371464348e-02 4.127593919353184093e-01
1.953148373225168863e-02 6.096625544535430596e-02 4.354622820293775898e-01
-1.917610209507543753e-02 -3.489039866247710051e-03 4.324190880127414816e-01
-1.969191794530031001e-02 1.773552808911236719e-02 4.209585652103379205e-01
5.710506078691373472e-02 -3.498191557329082511e-04 4.729730634628811492e-01
4.075267550327685284e-02 -1.221572144640175814e-02 4.455890754391624298e-01
-3.211588248835828968e-02 2.441278411348887095e-03 4.347808477982498809e-01
4.617118471455534945e-02 3.553944274206498333e-02 5.099771745691648039e-01
3.974068117822213836e-02 3.895081482428811720e-02 4.410777945892084273e-01
4.663578748101159660e-02 2.635136540015000500e-02 5.091902182950166500e-01
-1.237181081179801988e-03 1.301339092099012109e-03 4.286075113071437515e-01
5.343265166049631504e-02 7.589246023618994794e-03 4.568981390896089678e-01
-2.737178551067726007e-02 1.309876972382314868e-02 4.285844726818230921e-01
5.798731407681110422e-02 2.425944902579645415e-02 4.662439766709688960e-01
9.169432334245046501e-03 2.529844557731857763e-02 4.112308486327084789e-01
4.968462459412987392e-02 6.245745978580070218e-02 4.579780055366351466e-01
-1.050054648621581710e-02 1.308274744516776771e-02 4.205702333463420262e-01
1.749431038340811678e-02 4.217057524626176973e-02 4.204676954757428642e-01
-1.765010538313083882e-02 4.844956550823206753e-02 4.122569514476461805e-01
4.226093221099732483e-02 6.782127788759725884e-02 4.657850745008820792e-01
5.146389981623119420e-02 -2.132408310244338426e-02 4.671187815265279708e-01
-1.568635117651859257e-02 9.610286701627730743e-03 4.238314054765968120e-01
-4.704664878531015192e-03 1.329015175329149867e-02 4.189944524699490969e-01
-1.545957122768336443e-03 2.757214985964740600e-02 4.050171272141760426e-01
4.626217314124785041e-02 2.095100034757534091e-02 5.097984373828734483e-01
-2.454785214516945480e-02 -3.896734799414504000e-04 4.327008203332074476e-01
5.352895730865769169e-02 2.163130563087577868e-02 4.923001961277879146e-01
5.112455326752633755e-02 5.180679892977695794e-02 4.914662758305052281e-01
2.273285797847046565e-03 2.147293602380320049e-02 4.100878752240830760e-01
2.463037779943360803e-02 4.686069454818561630e-02 4.276290383111092108e-01
-1.736571291334841616e-02 4.985018849415146641e-02 4.143296670788750302e-01
1.378082560550563176e-02 9.494090268758963169e-03 4.285234193107467227e-01
-2.653593389978890771e-02 2.165882954022610440e-02 4.220696216329341555e-01
4.722739072017662770e-02 6.584879687883997412e-02 4.741641421424528380e-01
-9.925357084500027738e-03 1.849470128597240082e-02 4.165337044149221013e-01
2.521407873898014185e-02 4.386725721533524247e-02 4.282631396821808267e-01
4.400863250005036115e-02 5.328281733018738753e-02 5.012696159874782120e-01
-1.364191365064200759e-02 4.464417347432839828e-02 4.080934535254038265e-01
-4.827475924328210669e-03 -7.801163364184311028e-03 4.314026993063160287e-01
5.048082807513752657e-02 -2.951266334986216849e-03 5.171934088349178227e-01
-1.207585459639302222e-02 2.799469421002249991e-02 4.119968087148865310e-01
3.790103734784263344e-03 7.153680352546447699e-03 4.258873223464440527e-01
1.566832205984065862e-02 4.926056134326680519e-02 4.190120248339021525e-01
3.469963332543263973e-02 -2.389851503387216587e-03 4.396135662858475790e-01
3.788612985292875990e-02 3.677425976934520224e-02 4.397663851352358044e-01
4.848158103915244793e-02 4.571086808830786968e-02 5.050560108941699600e-01
4.824640412485483448e-02 4.509590406521296613e-02 4.488345448416157790e-01
-1.826795128116883403e-03 1.406031384572688919e-02 4.190240743358812359e-01
2.732426496485833647e-02 2.070490183458472550e-02 4.328843746180328633e-01
1.791913170524362525e-02 5.430213595218191108e-02 4.224854255439295936e-01
5.017455083565644514e-02 3.499866815314347374e-02 5.030886460664873994e-01
4.612653044878196884e-02 -1.853314901801209752e-02 4.547754754335354144e-01
-6.670998037947888787e-03 4.576116340047157310e-02 4.063005458073535303e-01
5.817202704273981284e-02 2.532427700864603795e-02 4.712886097716739164e-01
5.177259366979587718e-02 2.710019663737620738e-02 4.523651969604118861e-01
3.907689804123167573e-04 3.028251535578908166e-02 4.016389076877890929e-01
4.181942450245367156e-03 3.203311232956054799e-02 4.003711518201442110e-01
4.491310062762632338e-02 2.972170872785957763e-02 5.120408716423231477e-01
-3.144770059754296854e-02 1.402165352614702896e-02 4.306068183479039857e-01
-1.022496283183182454e-02 3.663397235134642493e-02 4.073701730244149166e-01
5.174990432298270937e-02 5.849261240631670189e-02 4.584748126230329679e-01
-4.315695283602226373e-03 1.295926961332992053e-02 4.195257409083716915e-01
4.105523436198822707e-02 6.904914811373789874e-02 4.628206112898827218e-01
4.746546986843833832e-02 3.205510343551068453e-02 5.075402204995854705e-01
-1.847396763975970788e-02 4.311134156047085469e-02 4.097780883654207340e-01
5.641846102678023389e-02 6.104383035475287322e-03 4.878595249159670688e-01
5.527147094877760125e-02 1.187453082221796158e-02 4.601670857170294116e-01
2.436674929983655147e-02 1.226768149290781255e-02 4.324264891088094864e-01
5.443994191193499144e-02 1.171149589936981011e-02 4.907530508863220953e-01
-1.228207731632937998e-02 8.545633635891530799e-03 4.236464126679950759e-01
-1.019887457913483744e-02 1.219289488223975620e-02 4.210625612132622986e-01
-1.439781353355942123e-02 3.202402201859691488e-02 4.107542986063565937e-01
3.807430699298717386e-02 6.728142824295829660e-02 4.479868601757185931e-01
4.841526435671050788e-02 1.451050946298963230e-02 4.491953053389913797e-01
2.848936390921896072e-02 6.402249309881578865e-02 4.386082966038207798e-01
4.855258279115570036e-02 1.163402096319719227e-02 5.062176769409457711e-01
3.237797658978555648e-02 5.289652859047491024e-02 4.345324948495746797e-01
3.947517057946370311e-02 4.643936777471900645e-02 4.407086552711284022e-01
5.471407805291351317e-02 5.287549768676719220e-02 4.687275388945482124e-01
1.170712377361424888e-02 4.776873197501402442e-03 4.301957612441147938e-01
1.132960562717502326e-02 4.902263490206427987e-02 4.138478854624921266e-01
-3.956711607072252619e-03 3.968727271359924480e-02 4.043713619173252005e-01
-3.756672983519984688e-02 -9.017383429438426135e-07 4.397198186924619612e-01
5.696184988332777394e-02 4.137986569141387933e-02 4.732222442529170903e-01
4.587399187986127003e-02 1.629359164076577340e-02 4.466631059300501527e-01
5.344186539584622891e-02 4.927067519294174580e-02 4.873905298037400913e-01
5.377425145049147259e-02 -5.912879806997872398e-03 4.650208407014086998e-01
4.425538191717977125e-03 3.780331862964197293e-02 4.021754181496711711e-01
-3.453210380594398665e-02 2.210660192933625381e-02 4.305744725693837482e-01
4.010781958540828723e-02 6.810176379225689469e-02 4.666005310163719444e-01
4.937955056802558612e-02 3.959153302450592327e-02 4.500544751757195594e-01
5.575103617762357938e-02 4.186187263885599030e-02 4.595323738882901021e-01
-3.962582419343859547e-02 2.988793760932942530e-03 4.429835433654132348e-01
-2.887367948280095131e-02 1.587256184282021670e-02 4.273547088182316767e-01
-2.517146620126336012e-02 1.894911595334435386e-02 4.228360994246776472e-01
3.504125858878793381e-02 1.629442096138207854e-02 4.383293736118454298e-01
5.322563519431737500e-02 5.526623412511724037e-02 4.731472705270993173e-01
4.917437797703131525e-02 -6.170493512775832197e-03 4.544577805590598873e-01
-4.011892457226601955e-02 3.019326583897983911e-03 4.459027667251971860e-01
-2.213978156330531979e-02 1.172971414651761447e-02 4.256582801895778534e-01
4.635682259559362195e-02 8.505117215083022111e-03 5.131044175632952786e-01
3.318839140518175385e-02 -1.188805042371950289e-02 4.394019592505421512e-01
1.178794636179951449e-02 5.064911609538468029e-02 4.147842307820316377e-01
-4.079487970280266940e-02 2.580907266228140134e-03 4.430890360732029354e-01
5.600130873169608531e-02 4.309898394539073141e-02 4.794666304145386304e-01
5.244629196091628309e-02 -2.085008021521592148e-02 4.691838809202607541e-01
2.796615167790197920e-02 -2.433236235994883090e-02 4.396793006748009880e-01
5.731446714324744257e-02 3.241057933708431371e-02 4.631929925892115940e-01
4.456542655649453621e-02 -3.167348899773128786e-03 4.480137245310805705e-01
-2.362288240022117347e-02 2.672170707726788039e-02 4.182071857490357036e-01
1.435809355293647671e-02 5.107458904972037028e-02 4.179044028288769197e-01
-3.816351782832667211e-02 2.621508579494106171e-03 4.396263216914234606e-01
3.538519179400292231e-02 2.578012919515734053e-02 4.381475164923224197e-01
5.718215062623248357e-02 4.066232070934955312e-02 4.717318598528952855e-01
5.278161590010867904e-02 5.827273431007021914e-02 4.649572699782637542e-01
5.793491986629941554e-02 2.936225375768402798e-02 4.783084612188186480e-01
4.461765182013951309e-02 1.934943252920307694e-02 4.453587422361456882e-01
5.682069968097932383e-02 1.802118569906990472e-02 4.821701867940063613e-01
2.686506249207225999e-02 6.485086462618724901e-02 4.468566915483028756e-01
4.856157175384499813e-02 2.187577689677175710e-02 5.041764954205938398e-01
5.450302134434487772e-02 3.118306837809389429e-02 4.933910623748332669e-01
5.624370046649869795e-03 9.814781590747339787e-03 4.247225780063925704e-01
1.078457439697463882e-02 4.493348000205633214e-02 4.117356368686975188e-01
-5.508288113569517579e-03 2.105827764367468324e-02 4.125824569135483344e-01
4.740998370348603608e-02 1.686925719835979595e-02 4.481266829719532385e-01
2.530038497952526513e-02 4.907636635807161724e-02 4.282931431877327055e-01
5.239830064267487347e-02 5.131473275581018012e-02 4.540553709164401597e-01
4.597744079771413916e-02 -4.247100396141587596e-04 4.489494503122096747e-01
3.731717206240206530e-02 1.501492388483328597e-02 4.397592005002779469e-01
5.521874016802719165e-02 2.922892723024374945e-02 4.577112757437263868e-01
3.342392744917309366e-02 -2.191250989356510054e-02 4.422561851808163302e-01
5.699531078593796096e-02 4.082164626080616449e-02 4.653880638878172271e-01
-3.334440294894847057e-02 1.007982058110366060e-03 4.362556185980970835e-01
1.493021328442638729e-03 3.579643977670110555e-02 4.012780985028562841e-01
1.690102676216664879e-02 6.025207149015004288e-02 4.302302985861617413e-01
-2.358282818742046122e-02 4.514510257463483917e-02 4.145899776556801752e-01
5.422408762672067950e-02 6.948716599854912884e-03 4.946184099478307949e-01
-1.908686992387385872e-02 1.416057872288327933e-02 4.227816149576375526e-01
4.529398912598703308e-02 3.709628949372663353e-02 5.114418550018218212e-01
4.440305088568162473e-02 6.801965836271373078e-02 4.566959760691466919e-01
8.895688165253132912e-03 3.348280212395852995e-02 4.018910280384014322e-01
-1.235010580427362177e-02 7.301987288571346740e-03 4.243914753653315053e-01
5.771147249133717905e-02 -9.662568791605924759e-03 4.831229793292311503e-01
5.196561707452151957e-02 -4.462620308431069355e-03 4.595974002245834522e-01
5.434815500103339081e-02 2.406077969634965938e-02 4.557698165329528428e-01
5.691894935383737947e-02 3.869787098698633521e-02 4.638481964998354412e-01
4.626571331366779311e-02 2.142827914565464606e-02 5.097895968599378547e-01
5.739890913991587545e-02 1.029525710877344721e-02 4.756478831223653891e-01
3.819918104281201654e-02 -2.685928517942934995e-02 4.487977236734108644e-01
5.281914115819703881e-02 4.227695922526521211e-02 4.972983796544672153e-01
5.078237735320330348e-02 -1.977734855601648301e-02 4.654283754321594802e-01
-5.634119551801424364e-04 -1.297767202057111685e-02 4.326375290915105976e-01
-8.353909168164381366e-03 -8.616882400598390584e-03 4.322399382219205277e-01
1.226021835264064913e-02 5.365452371068937104e-02 4.169169430728269510e-01
1.218939402840314885e-02 6.033232838862076508e-02 4.244260091079976038e-01
1.048867061020645336e-02 5.295102463584119151e-02 4.145477401907683990e-01
-1.776252780384286745e-02 3.539168631859124226e-02 4.113174150450414346e-01
4.162060605791229051e-02 6.186707002800109073e-02 4.454346302389615153e-01
6.009440167800703461e-04 1.505597713748236307e-03 4.289077023774194308e-01
4.933716779247519085e-02 -9.318898025413623401e-03 4.567990744597529851e-01
5.286851419466023771e-02 3.347411117265383651e-02 4.974441077642692832e-01
4.426052612274340714e-02 4.441615247292908519e-02 4.445540660105253838e-01
4.955210279443260368e-02 4.664917861394150822e-02 5.025066022153713563e-01
-3.689143084489801636e-03 8.461308334153767007e-04 4.286066755581888765e-01
-9.845099322787043139e-03 3.664893026350702493e-02 4.071704049722440488e-01
1.469989828854021026e-02 5.188987062988866666e-02 4.187235238439478979e-01
-3.509521810984082141e-02 1.580636676306135247e-02 4.367982782188033486e-01
