-4.107048896425996229e-05 -7.770067669882033817e-03 4.311919745400243364e-01
4.920448650902733284e-02 6.133271622847004390e-02 4.755193253891141225e-01
3.968546361232500042e-02 5.578868576586355765e-02 4.430527206946698882e-01
5.609913648583141066e-02 1.852359579072172108e-02 4.620032471827973941e-01
5.201088488616292804e-02 3.118758183474147627e-02 4.536092409783449853e-01
2.878167004261345321e-02 5.913891199110599128e-02 4.363173677559566976e-01
5.555275028454795261e-02 3.780095587420753689e-02 4.882430403792423212e-01
5.176779391330040697e-02 5.839151433571070776e-02 4.697305485077543641e-01
4.579382981662058483e-02 2.114963366039382051e-02 4.472140813144808158e-01
3.969229968590663044e-02 3.405321643849215651e-02 4.421089167956137600e-01
5.424860439424510766e-02 6.787893835319095716e-03 4.605952887706808996e-01
4.782518901530778688e-02 6.264549553342346755e-02 4.766992285702566501e-01
5.556493662432048647e-02 1.401433300366942622e-02 4.859837332710533753e-01
5.745925451783453347e-03 1.420041939668794870e-02 4.221913382130656478e-01
5.335294343865050470e-02 -2.174317934616057726e-02 4.717269331089474771e-01
3.261358082821921855e-02 -2.095269200800195172e-02 4.414405444753994323e-01
5.432817899401123918e-02 4.272850569987567473e-04 5.053514392217313134e-01
4.776451930841862925e-02 2.996433175481520543e-03 5.160861979063796623e-01
-7.597208948872289161e-03 5.016449685794590468e-02 4.100754919981903779e-01
5.366862447368896810e-02 5.406176382054062729e-02 4.655387132267493899e-01
2.639789794826887664e-02 5.261898588926964410e-02 4.308067989128160358e-01
-1.878948468383295420e-02 4.081227276028684403e-02 4.105062992795751597e-01
5.134625030799935125e-02 2.708686678680744669e-02 4.526986039011958729e-01
-2.139515518172377395e-02 4.382617208528952028e-03 4.291573132940785240e-01
-3.168457406554845562e-02 2.698377960565677414e-02 4.241484107123887348e-01
-3.074444201495832654e-02 2.678746379177751602e-02 4.234524371243992835e-01
2.964540140231322618e-02 4.663551744952576517e-02 4.335891350797302923e-01
-3.433755962150118746e-02 6.747437502450571827e-03 4.371656186439158986e-01
4.349182255852813289e-02 4.612460692398149403e-02 4.449976385905159981e-01
5.767756919035743612e-02 2.393782452690895041e-02 4.706128492330254875e-01
1.948240701542882508e-02 -1.194447214533663620e-02 4.347259583895805024e-01
5.591737364422214723e-02 4.413696690131325984e-02 4.743196714774158829e-01
-3.260849822529194447e-02 2.287178536678364030e-02 4.263310468576014811e-01
4.199246457172498698e-02 3.863989936079225557e-02 4.438289598928853441e-01
4.819393322477154989e-02 1.500893249251744263e-02 5.051393735884183167e-01
6.404472085489830956e-03 -5.414839250989959135e-03 4.311105196254463867e-01
5.224058314395732538e-02 5.793424427532115756e-02 4.658353596336912150e-01
4.618103598977672114e-02 1.514785105535897125e-02 4.476067105982065031e-01
-3.048289483368314678e-02 2.315797727643379572e-02 4.244585729225303639e-01
5.576737842625427780e-05 5.121143463955224462e-02 4.089003171675491544e-01
5.207971365786833590e-02 -1.399771380231678609e-02 4.662063252682983050e-01
2.850095180352556212e-02 6.560913365599098379e-02 4.469566091710834854e-01
-1.090205189317037734e-02 2.121181580731122326e-02 4.155497018253597186e-01
1.917562905338687784e-02 4.645356014713376142e-02 4.244461222534168243e-01
5.628998693533408815e-02 2.554175297867058644e-02 4.618003107794383388e-01
5.768297748932877528e-02 -6.891880789150707856e-03 5.049635776589916913e-01
5.854324843784707022e-02 -1.089279834287670140e-02 5.112087658163000370e-01
5.777305258222802109e-02 3.223875723984181985e-02 4.735555348609901682e-01
2.459148611494238468e-03 8.499074028924984495e-03 4.250826952092713329e-01
2.654093120548341525e-02 6.224988619411523511e-02 4.371273401657212454e-01
3.090718363233431291e-03 1.290776202520764991e-02 4.217929359522821775e-01
4.146032774576124263e-02 5.187266900055967356e-02 4.437667793869974342e-01
-4.669043163081335220e-03 1.395417298886029132e-02 4.190464528629580521e-01
1.745668747417831318e-02 -1.033756549473622763e-02 4.339038102681713194e-01
4.418511837531120118e-02 4.096305995379442150e-02 5.125123173982417679e-01
1.132395142448759662e-02 5.639214228093008055e-03 4.302782549618904273e-01
4.504111250155548585e-02 5.600830121136418822e-03 4.473474874895395637e-01
4.930758914990364394e-02 5.062073230343912961e-02 4.980529031357222580e-01
2.445818887593409138e-02 6.435480291092635086e-02 4.466435541609206084e-01
2.160486444401975292e-02 4.579713095223581637e-02 4.266994743227627840e-01
4.710250834181475832e-02 4.394159227821198277e-02 4.486828449400298569e-01
5.583401512473073341e-02 1.281415808637334508e-02 4.846890648968231741e-01
5.727102547470217658e-02 8.102037194087885821e-03 4.790922299249555927e-01
2.254463526598322540e-02 -2.388695393956212845e-02 4.377628205789636517e-01
1.146006524171975897e-02 8.131436131973457035e-03 4.287592194556720804e-01
-5.919174457242700436e-03 5.092427187451798593e-02 4.109509356253794321e-01
5.484163159561137452e-02 4.954846129780669794e-02 4.678545324646244397e-01
5.671437454635770703e-02 4.514074088314688760e-03 4.872998753785668935e-01
1.756997378631787801e-02 -2.042304757866470616e-02 4.366238916752182009e-01
5.532103989746700590e-02 4.361764720472954132e-02 4.807440792312579481e-01
7.801651433585240353e-03 3.418337715006906918e-02 4.057396705695923700e-01
-2.586939824844187996e-02 3.463232891713790423e-02 4.168822927533542555e-01
5.282039295572457660e-03 2.194629812847135458e-02 4.113517364201579318e-01
4.979635360931961019e-02 5.031635284211784243e-02 4.518302095636508864e-01
5.516314784397798043e-02 4.408891469316495587e-02 4.812435733688551487e-01
6.772753787021003336e-03 1.172708889783341188e-02 4.245095227148282246e-01
7.999358094699192748e-03 4.013612979731165376e-02 4.095454335702892190e-01
-1.199964928517795399e-03 -1.619866747021405512e-02 4.346936663496687170e-01
5.316384216478223929e-02 5.448969671966008566e-02 4.719263260048706110e-01
2.447246859075849143e-02 9.680134420420679134e-03 4.339380618237950737e-01
-2.930421390748920094e-02 4.023315721540796693e-04 4.341889997582581429e-01
4.129753594523362728e-03 4.408421961125658789e-02 4.078585124699801168e-01
2.523986976676293945e-02 -1.381774763055868341e-02 4.365920490038708857e-01
1.822812737774832936e-02 -4.848550992707433699e-03 4.331599387754729857e-01
3.839847691002670760e-02 6.504748685069700054e-02 4.464789229409029669e-01
5.573204518347885800e-02 3.994583567986006306e-02 4.619813882613745815e-01
1.184426997811046170e-02 6.004881305762530853e-03 4.302499191424517533e-01
-2.913994192780512693e-02 3.699883944637071681e-02 4.183875819944760655e-01
3.984743828468410853e-02 6.929290573817529358e-03 4.427969764358507532e-01
8.089278931954801619e-03 3.987015671105856307e-02 4.096189525100705220e-01
-6.464896489348452742e-03 6.319413915029012049e-03 4.248621174894855468e-01
1.682245591528131606e-02 3.169448127018584943e-02 4.224260883613027984e-01
6.783993414271192318e-03 2.533531009727783140e-02 4.084921160703693932e-01
8.571783950857909257e-03 1.061670988297143056e-02 4.260686392426751845e-01
5.381838093902217846e-02 3.976853970757342205e-02 4.568620721857626354e-01
7.528303010060136830e-03 1.230102565760677127e-02 4.244554138646504660e-01
-1.732310579387008956e-02 1.232460761533520945e-02 4.233410731157649654e-01
2.794205787237864086e-02 -2.995809522547314765e-03 4.362846876788420425e-01
5.627719168379358150e-02 2.339204077302535489e-02 4.617884370606336608e-01
4.929393397577684632e-02 2.313105829246490247e-02 5.021754670864708725e-01
2.241526928405461125e-02 6.168639905130021001e-02 4.381581282538952737e-01
-4.766443479920600204e-03 3.101058946440126210e-02 4.063396457801935480e-01
6.214136604918174024e-04 1.944681404713615239e-02 4.134621459945806432e-01
5.464400516845802080e-02 4.889758137597714077e-02 4.776080208632449975e-01
5.350829125161565836e-02 -1.626112738289451146e-02 4.704278268711982181e-01
7.840766031933833063e-03 -7.645029192585365424e-03 4.318352863658402319e-01
-1.165227651682981466e-02 -4.952362759509433728e-03 4.313700233693633646e-01
4.773011112149665863e-02 3.203886573812957800e-02 5.068578632334832523e-01
3.887310777309224002e-02 4.338443112189300371e-02 4.413169184057663674e-01
1.451784958707294342e-02 3.104345526142800443e-03 4.316654621234006783e-01
8.867514764340254235e-03 2.817969923530361590e-02 4.093755810928077499e-01
5.271158081064132583e-02 2.937949594122704969e-02 4.963176358751438810e-01
2.482390558696017518e-02 -1.837242237816551563e-02 4.375951241841938844e-01
-3.327642471559733028e-02 7.573434850806002455e-03 4.358101429537681870e-01
5.081113157946931524e-02 3.727261646458077116e-02 5.018250608702833349e-01
1.208363378593920595e-02 6.039867551594063633e-02 4.278125338204091799e-01
5.447443907206813568e-02 5.108139762591186461e-02 4.678393932036923886e-01
8.374898306189405839e-03 2.064784283683639837e-02 4.176348393055952513e-01
8.288188414208948543e-03 8.754706327082334427e-03 4.271328242203760728e-01
5.614279639821836976e-02 1.287734225905093040e-03 4.947882196820900802e-01
3.612128534624125392e-02 -1.096506240632454457e-02 4.417781722775857012e-01
5.556594040598621803e-02 1.479794081259610920e-02 4.611778495360775998e-01
2.988833032874366885e-02 3.681958460246506637e-02 4.345960952342287076e-01
5.807578249346239535e-02 -1.421957543382082988e-02 4.851267341270352196e-01
5.727450829345442918e-02 2.527080604724154037e-02 4.643224087345819151e-01
3.923715622691396204e-03 1.424688191955990856e-02 4.210136917902981835e-01
5.700082734917039096e-02 3.847522035815279656e-02 4.725677175289089149e-01
-9.253991524692695148e-03 5.183261639412213573e-02 4.126812822676853010e-01
4.724461352752201693e-02 6.592764583610787044e-02 4.598137463711358119e-01
4.828097397671117508e-02 8.379230825540279898e-03 4.499224174926412245e-01
-2.047848124214936977e-02 4.638537902553451636e-02 4.130652590192190887e-01
2.674913702903978369e-02 2.337033534240328531e-02 4.331617434445939052e-01
-2.272696844294666563e-02 3.953785406588947865e-02 4.136621426071960261e-01
5.701449163918445584e-02 -6.965226476065837502e-03 5.115315041287100684e-01
-2.697574598889905442e-03 9.297842589354824230e-03 4.231434486405012962e-01
-7.700078680030241277e-03 -1.016946951676362407e-03 4.296267527970097921e-01
2.216401696331904772e-02 1.125629359004240437e-02 4.323602030393751128e-01
2.801639538597654189e-03 4.288963923747845380e-02 4.068242974217630703e-01
4.860549711798991396e-02 3.426945476397554730e-02 5.054242802249762079e-01
2.303322096368017741e-03 2.088817119364166919e-02 4.117825074864981949e-01
1.384781712264521181e-02 -1.313657317321071695e-02 4.344604608162305204e-01
2.318391209435979872e-02 4.340277133323926229e-02 4.279774228052855567e-01
-2.533074215162281831e-02 1.835256809633695543e-02 4.235413126787385130e-01
4.051101794968137854e-02 3.046037564181115764e-02 4.427581808504744698e-01
1.004437448064048402e-02 4.085098784944588002e-02 4.122900771674833376e-01
4.984373520169688154e-02 2.228713166536666970e-02 4.511987011471446096e-01
5.663346663661195796e-02 3.675992480887518843e-02 4.644777431156375536e-01
5.455870448774177706e-02 -4.079060318116280517e-03 5.128392851182207446e-01
-5.879936066799856982e-03 1.543618558524748746e-02 4.173503287691731067e-01
6.907144151699754799e-03 -2.169820889182219256e-02 4.379028180561901906e-01
5.148026660976674773e-02 3.443499374677860131e-02 4.999253269910823860e-01
5.276095360163970266e-02 2.520869515665740551e-02 4.947322966380844900e-01
1.727420905133897691e-02 5.928000270060269222e-02 4.286311283849688070e-01
5.223448427230390628e-02 5.497564191586241586e-03 5.032543557685918989e-01
4.306807036502946495e-02 6.887116201569570828e-02 4.617381353343602557e-01
-2.310552590781617469e-02 -2.699986884187727948e-03 4.333637995921385544e-01
-1.863990417073089698e-02 3.443766381461397380e-02 4.126186231486651534e-01
9.157022154810944350e-03 6.084379654471899768e-02 4.267712965391411983e-01
4.827938522808304656e-02 -2.194247251274720339e-02 4.609495499437871735e-01
5.760695701703334032e-02 1.500157013817537618e-04 4.878095496624697547e-01
5.002253927438759379e-02 4.912040474930433331e-02 4.978639933283803831e-01
-3.339892776399103203e-02 1.968422936035585380e-02 4.293261623281851014e-01
5.521422948481367887e-03 6.007415852064433570e-02 4.203320587184107282e-01
5.259099553793952775e-02 4.046374462454197657e-02 4.552333166510568185e-01
3.708525960750835501e-03 4.350882582645966556e-02 4.071948859995382364e-01
-1.780345659195793455e-03 -8.195123229065086031e-04 4.296314400337139516e-01
5.387753588215419415e-02 2.080262177982650923e-02 4.559778692513691833e-01
4.414955407717259528e-02 1.181828985561254874e-02 4.460021499370677711e-01
-2.206743583321340782e-02 4.483263270892567237e-02 4.138285077537516288e-01
4.668582094903044738e-02 9.632650203419010349e-03 4.482932447158486378e-01
5.134962225553761639e-02 -4.388209900263687936e-03 4.587984714086637550e-01
5.331449170532599757e-02 2.502527956099440121e-02 4.548082760597024765e-01
1.619058901875568626e-02 5.577109683015576275e-02 4.234549381384909994e-01
4.154906152845488226e-02 5.999067762545008675e-02 4.457034352009202061e-01
4.831778246840771202e-02 2.936372722177106251e-02 4.496434682673163263e-01
4.780822216336323704e-02 1.417350969180107730e-02 4.492047033285660462e-01
-2.480627757346805934e-02 1.028596223214066525e-02 4.282590078363475716e-01
4.593449038296689574e-02 5.684265932567775237e-02 4.487819989493834205e-01
5.500612320175950892e-02 3.358968820290993140e-02 4.913833053612270962e-01
5.415779028802099326e-02 7.085765712076906716e-04 5.050566958727482625e-01
6.075839718743203388e-03 -9.151307404506946186e-03 4.320741900243819100e-01
5.709331426038780077e-02 3.297207039144488261e-02 4.646374950390073089e-01
-2.128485047551067003e-02 3.963690793492582326e-02 4.122140030080519990e-01
5.549594977005579965e-02 4.008539720401579909e-02 4.871023294714366125e-01
2.661919554193541322e-03 3.453697993417839673e-02 4.017042348732740575e-01
4.759049337239176086e-02 1.651868939007485743e-02 5.059825980712371329e-01
2.099717442677209028e-02 3.740248022349946383e-02 4.267379879784529151e-01
-5.727560754543966834e-03 1.195931448080777941e-02 4.209441471032855375e-01
-1.897764845298849368e-02 3.507015305417662994e-03 4.287034457368704143e-01
5.754411878557734450e-02 2.514497693575649603e-02 4.664113573599037443e-01
5.214297227028058535e-02 3.936110447516135563e-02 4.545699561113714648e-01
5.347793992119645456e-02 1.014808219347062765e-02 4.943325273623715432e-01
4.402822073068971692e-02 -1.238662310775216074e-02 4.499094976706221605e-01
4.105407743096489703e-02 -1.203855226404372189e-02 4.461502678348887030e-01
4.317669631101462430e-02 6.842188989507599906e-02 4.568677627426811494e-01
3.531290376682238302e-02 1.461261955776271826e-02 4.391747637279437289e-01
4.843600703656464335e-02 -2.242551872291806414e-02 4.615280935423096698e-01
4.108025942482530779e-02 -2.383215304180009986e-02 4.508684523261182187e-01
5.664757491231010161e-02 3.450984503067280190e-02 4.636332581630064342e-01
2.874268719197174346e-02 -2.099683768346612828e-02 4.394548724187972710e-01
4.647960899731495149e-02 2.862527920730092990e-02 5.093019320244668302e-01
-3.490887139598121934e-03 5.585652635521403536e-02 4.170100810338235875e-01
-1.246546936244405032e-02 2.811102680151717978e-02 4.124930023979022087e-01
-4.282669188057527249e-03 2.900724400687494306e-02 4.066058485644175602e-01
3.859131638078142079e-02 6.925134083183193297e-03 4.417380868732656563e-01
5.584638711156547641e-02 4.068424395701814716e-02 4.625903610485749273e-01
-1.490883080031979013e-03 1.336015892287275263e-02 4.202991211363955593e-01
2.276559195281784367e-02 6.189066691287109512e-02 4.385874004152508498e-01
2.514396195517822757e-02 -8.868568795184250328e-03 4.356235780368409860e-01
5.396652441400146688e-02 4.272616593674635754e-02 4.928819655801681687e-01
4.721416335368152500e-02 6.191126447732128030e-02 4.799595731568568890e-01
3.081877458208778786e-02 1.716782648949023368e-02 4.363368450599295900e-01
-3.368886476442579242e-02 1.910057030406778211e-02 4.304430999141117820e-01
3.130172568794247628e-02 5.187277621628620661e-02 4.349176352606932694e-01
4.061810335618187828e-02 3.351678567523825453e-02 4.428596867553092897e-01
2.209495054118146631e-02 3.053129847431659133e-02 4.282643750303540831e-01
2.508629259590074503e-02 5.710972648040749111e-02 4.315754928458538919e-01
4.959423918828687050e-02 -1.280402580927940751e-02 4.601667590734624391e-01
1.397570008752703832e-02 4.758987781557001001e-02 4.190229133316354382e-01
-3.623041803258699161e-03 -2.065516971643406238e-03 4.298458346734607138e-01
-7.008343711361225345e-03 1.755292935065111068e-02 4.161088446876787805e-01
5.092466832773169527e-02 1.315186987498690938e-02 4.527355091898584982e-01
1.314560381008447743e-02 -4.549207100015998512e-03 4.320408898341592252e-01
-3.482480512898592558e-03 5.493669841979686996e-02 4.151975722588556184e-01
4.198497410739317204e-02 3.545866630125776853e-02 4.440125086147286293e-01
-6.280086943557042223e-05 1.595500229701460326e-02 4.182717386703241891e-01
5.193904948751292688e-02 7.584192727654572030e-03 5.005786571809697216e-01
5.613465121027951671e-02 4.708629884006198738e-03 4.676945630689805511e-01
8.630238993718682139e-03 2.043486199505143916e-02 4.184109758418946279e-01
4.654937521057872681e-03 2.141423528802193638e-02 4.115989876019524041e-01
5.538451507933919021e-02 3.039069146495840951e-02 4.894727749228639513e-01
4.132948652156188257e-02 -1.024834551813319505e-02 4.462064106362928495e-01
2.239697582822254909e-02 6.097653232346646884e-02 4.365866413033777649e-01
-1.914230705173465552e-02 5.007098714398186545e-02 4.175657819920527425e-01
5.699352892577688734e-02 3.160080372716538716e-02 4.826254442912151776e-01
1.276654487082837935e-02 1.284532332443258373e-02 4.270748386013977771e-01
1.100386031059534531e-02 -9.771922103793208997e-03 4.328069680041937151e-01
5.760520076293439151e-02 -1.349266061305469735e-02 4.822166943726415300e-01
4.858147461789333321e-02 2.891222064751744480e-02 5.050806889108119258e-01
-3.563870522240556588e-02 1.615727087551558847e-02 4.369462266767204506e-01
1.818430746858169453e-02 1.118480695511783057e-02 4.306488595202348502e-01
6.752895671629526378e-03 2.427000053839499863e-02 4.104221722356817259e-01
2.698327431695630302e-02 -6.002085686518130424e-03 4.358796720231076782e-01
5.907444382242577063e-02 -1.103320969969190032e-02 5.064902836101542460e-01
4.102431004181823077e-02 5.030157547581500660e-02 4.430573666670147848e-01
5.097727051305666474e-02 -3.693805061386656700e-03 5.170511661204861831e-01
5.020440305997218161e-02 -1.095450309887545555e-02 4.606974106920306289e-01
3.645485757899587231e-02 -1.884453581181208537e-02 4.436776383574007054e-01
-2.870277416637646763e-03 5.320402909321567814e-03 4.259885764548927423e-01
-3.810963451278023741e-03 -2.854084239980340075e-03 4.300257011056855538e-01
5.805192829530495674e-02 -1.213126926368995363e-02 4.854239780790453596e-01
5.712872686909142156e-02 2.117099693475311267e-02 4.796287710611467636e-01
4.732463325196863829e-02 1.860686295034133172e-02 4.487236898255292927e-01
5.461441375688892014e-02 4.552478542032239311e-02 4.832799872927707185e-01
2.955424358306699140e-02 2.086710848606744204e-02 4.351958776941581286e-01
4.749001123804517249e-02 -2.236360384985878330e-02 4.597785122824193382e-01
5.655768732195830262e-02 -1.024484737959669919e-02 4.782140773721447191e-01
-3.682545311036548863e-02 2.134701296323589063e-03 4.378367385592482064e-01
2.876448999522349809e-02 4.693926747064232352e-02 4.327900715527989717e-01
1.163214996015589017e-02 3.170384218512979635e-02 4.136613758335273006e-01
4.075958651727095566e-02 1.294453660523162825e-02 4.432241826709644172e-01
5.447982427552880424e-02 5.126338063384005411e-02 4.714120039656237160e-01
2.558799193920674453e-02 1.405095433340855862e-02 4.335084089989267864e-01
5.421572872790464404e-02 6.047287801542644038e-03 4.607960073709277404e-01
9.697667431186152848e-03 -1.123476401634250846e-02 4.330988083725536009e-01
4.895752158225141759e-02 4.039732962235639824e-02 5.050130898155715808e-01
5.043541014732823985e-02 -9.694615921481131160e-04 4.547584378878326561e-01
-3.455006169551229356e-02 2.161631117193581891e-02 4.300508481596456156e-01
4.641590855114975656e-02 -1.013279894753782266e-02 4.529043490541133643e-01
4.809879225887545712e-02 1.271252495370256072e-02 5.067992766349289635e-01
1.985958918492130784e-02 5.888414753011183417e-02 4.298583061705062436e-01
1.570127826201977300e-02 -1.534317104031823059e-02 4.352351861042954573e-01
5.553304487311447324e-02 4.511327353463650408e-02 4.624699628333041601e-01
1.743656663075471985e-02 7.161732928994512908e-03 4.319639070220520072e-01
3.750688811504923614e-02 6.776056578847478029e-02 4.492200185821857428e-01
1.887131565730466518e-02 -2.193639776964457448e-03 4.331216701728409224e-01
-4.908305725807122696e-04 -9.120134752502203138e-03 4.315027319235519854e-01
5.614862836757984754e-02 4.317838733432352583e-02 4.735426407350327160e-01
4.964410518682253054e-02 8.254268383825622696e-03 5.063564979712996683e-01
5.800234250663897223e-02 -5.480135463207400082e-03 4.876403346272770167e-01
4.528633128250170170e-02 5.023981250210868797e-03 4.476367196818559768e-01
3.958635668295679144e-02 3.911470732226146607e-02 4.419312529960522373e-01
5.772225923885012516e-02 -9.936792292700653492e-03 4.838185184043385934e-01
4.270908032579287528e-02 4.061579794175557839e-03 4.455734242928789945e-01
1.330232770932628268e-03 5.581565743960938131e-03 4.266556749242118585e-01
5.411761026588386009e-02 -1.513794546308508751e-02 4.716923941495650974e-01
5.225588778335832352e-02 1.661522199187560889e-02 4.542745455772073671e-01
2.689592250520117522e-02 6.398782434986238776e-02 4.391006040159251000e-01
5.705151533629188032e-02 -9.990493592285584756e-04 4.941317320798331303e-01
-6.887495826263024569e-03 -1.218137882324675861e-02 4.334587470284284039e-01
5.521732870452740471e-02 4.677961568743808224e-02 4.624684225158360862e-01
1.336360006397709077e-02 4.449387198770454743e-02 4.178277866126027806e-01
4.660202364500888594e-02 -2.117462046476549509e-02 4.575022216223218474e-01
5.194362967072792964e-02 6.833248665560904232e-03 5.018819640105431912e-01
4.868784207447505313e-02 1.746803021591343888e-02 4.500871349950222311e-01
4.781176131546691771e-02 4.634513499700557149e-02 4.495126790254884153e-01
4.859055220021676197e-02 -9.732353696337275178e-03 4.559861922825736436e-01
5.152289265184319816e-02 2.540731629480293130e-02 4.529064280207243942e-01
8.344181249535460865e-03 5.956066091872917745e-02 4.210626560311762634e-01
4.542706723517111328e-02 2.854910723621523552e-02 5.111792825813631369e-01
4.141823880745666708e-03 -5.187223270312080366e-03 4.308338208760199572e-01
4.607516911757345707e-02 3.382867875073241465e-02 5.099680802801683788e-01
2.196697983465889167e-02 1.374323613190263534e-03 4.340404259971150647e-01
3.384162689312429639e-02 1.186403934305348996e-02 4.381180153574867897e-01
5.151259026552806874e-02 5.976667920219314034e-02 4.655661767346109259e-01
5.407129288873421119e-02 6.415180107233353635e-03 4.602612022285257898e-01
-2.155070275846887595e-02 4.020590275153086701e-02 4.124475794657042060e-01
2.487301254893805116e-02 -3.745786703380341032e-03 4.349532371246713769e-01
5.286911784151059751e-02 -1.787641421688709181e-02 4.695782785063048470e-01
3.212827138015619029e-03 4.953692635036563430e-02 4.098124097178871827e-01
4.617612236839537670e-02 6.500865556850173033e-02 4.769417074179220783e-01
4.492076971932638246e-02 2.767469403277066434e-02 5.119501703429926165e-01
5.248461058595466078e-02 1.887687403014391696e-02 4.543024951786829857e-01
5.774827965864553353e-02 -4.752483777681764526e-03 4.956255678498945882e-01
3.388555893427261378e-02 2.103608419684027328e-02 4.380415074117546270e-01
2.326293042196225097e-02 5.546356894776990204e-02 4.286871919742990533e-01
9.272884915894608754e-03 1.902690395667119491e-02 4.204373735494232323e-01
5.550940714612642712e-02 4.727368359067737891e-02 4.697892360189139804e-01
5.138337322359631809e-02 4.686277425584838181e-03 4.546209063461331135e-01
5.414493367417451408e-02 4.215526246082400980e-02 4.572027535372114593e-01
2.625522955426891347e-02 4.192874554831763079e-02 4.309656916656601222e-01
1.790528201070883813e-02 4.168924935064090981e-02 4.228841678997736220e-01
5.336551905673645596e-02 4.798809495989258406e-02 4.560759743417598933e-01
2.927249638287631600e-02 4.704682288476039198e-02 4.332301178176333756e-01
5.774557442082876163e-02 -7.114288144662819779e-03 4.832729350301711579e-01
5.728727054466838109e-02 1.740588347277107970e-02 4.695450441468851377e-01
1.846706571196405147e-02 -1.241429212583838350e-02 4.345956298062401135e-01
4.123201457620173649e-02 3.909692171072062794e-02 4.432184943765146157e-01
4.566685960484207635e-02 5.068847286259954565e-02 5.063848103912309551e-01
-4.678452950217006773e-02 -2.146544189438585708e-03 4.428407702624014286e-01
-6.404126218793425654e-03 4.787634866758986446e-03 4.260149480468121141e-01
4.806293241829839163e-02 6.201937992269886298e-03 5.125813971658544910e-01
-7.456432069093629073e-03 5.071107443398072123e-02 4.109252794973019540e-01
-1.254707460202774370e-02 4.520316690187708292e-02 4.088756658729453264e-01
5.188683365992692587e-02 5.765440773268780406e-02 4.713702209476820504e-01
5.783866222344704461e-02 2.740276509090515400e-02 4.730788456081889137e-01
3.863822043602826994e-02 6.484202416246468391e-03 4.418538053381039221e-01
2.471536537826689306e-02 3.928119689792412134e-02 4.298566799657628223e-01
1.511790486581872719e-02 3.534105740777252619e-02 4.205811493372466070e-01
7.703915437692632553e-03 2.493093604463303761e-02 4.114031708079468053e-01
2.193363256141792061e-02 -1.503010768904899583e-02 4.359935856348790550e-01
3.353629190620682765e-02 1.493918967852036692e-02 4.381197286916792000e-01
4.084139635856540163e-02 4.818337235081937564e-02 4.428519216379563361e-01
5.475196207136030779e-02 4.043986099411461116e-03 4.630308761382476712e-01
2.466368228873519822e-02 6.442444877241401691e-02 4.430347185948046440e-01
2.665961491128680111e-02 -1.327556365335035710e-02 4.369152238865136040e-01
1.138477063170857499e-02 3.431571554433254095e-02 4.119951219807693743e-01
4.680300188020033308e-02 -1.397560887142130885e-02 4.546995062051047420e-01
4.693808234850126854e-02 4.292941349780550475e-02 5.078914807677243903e-01
5.069272669824674560e-02 -1.259828354944364341e-02 4.624761028451002676e-01
-1.534243810277009443e-02 4.655218160829103363e-02 4.102645797415878093e-01
-2.587731953980161939e-02 4.147823431559388707e-02 4.172809626878877243e-01
4.785142811158549225e-02 -6.868861632957272076e-03 4.535552266061147475e-01
-1.878752978413982238e-03 4.572289045393784779e-02 4.070324117707535549e-01
-9.310715774538336903e-03 2.575733310311103391e-02 4.122976085008268066e-01
4.361004023490395315e-02 6.761180453091822362e-02 4.698676505057202690e-01
5.270553146078023332e-02 4.465353444160417677e-03 4.574534564128649450e-01
5.694926413744895444e-02 -1.192311372748682550e-03 4.950883819122083862e-01
5.444417622729678941e-02 1.235776493119073761e-02 4.898377719724457124e-01
1.192316386629642400e-02 5.787995608631620742e-02 4.219966973252435305e-01
-3.237073360042748253e-03 -7.775705556420570153e-03 4.313074439339694144e-01
-2.062656795571185878e-02 4.909042066220187933e-02 4.171869046946802273e-01
5.237684919160921770e-02 4.555030490386770270e-02 4.548197992150895819e-01
-8.423747712868525153e-03 4.724930169274060149e-02 4.081139026899084921e-01
3.040837378144048420e-03 -1.063838675459029617e-02 4.320604712976803818e-01
-3.448661390196037374e-02 1.439273574751582553e-02 4.357454630517402783e-01
-1.616913461777845853e-02 2.902644943961111418e-02 4.135807143954634002e-01
4.328802270486174775e-02 6.826098521289331034e-02 4.565950949152881577e-01
5.705919677075736024e-02 -7.693629054219168657e-03 4.786456257873177855e-01
3.864479725162854595e-02 6.783149924149206589e-02 4.500926219509407411e-01
5.020565079067235842e-02 4.250433776728568952e-02 4.521646787014122482e-01
5.779089753094329707e-02 3.140343817099782581e-02 4.704748459124654669e-01
-1.014886817070771892e-02 -9.871099695530618709e-04 4.296986350104543551e-01
4.994414680164720871e-02 1.042430435536381705e-02 4.515677438118279041e-01
1.089061702206885890e-02 3.193235041023985421e-02 4.114450575624195583e-01
5.601565210782138288e-02 4.015799583454607996e-02 4.804820587419286748e-01
3.467159774542234729e-02 6.731050835849698710e-02 4.481365152764645865e-01
5.670146863138253446e-02 1.776023066694883829e-02 4.813069064370289474e-01
9.568467847775537910e-03 5.372886619896848071e-02 4.163231174906101839e-01
5.124405391810597787e-02 4.420596158942013965e-02 5.000312791548993108e-01
5.178196672336680267e-02 1.720667312200075544e-02 4.959712277314304307e-01
5.306501035545599376e-02 5.570103592899753459e-02 4.677653764439930195e-01
5.560679101802439711e-02 1.443205766273526411e-02 4.858743725008318748e-01
4.274043802076469417e-02 2.487163742906787350e-02 4.443273547314438021e-01
4.872585313917773137e-02 -1.273923238988924900e-02 4.581346881693961759e-01
4.491146170074641203e-02 3.520089551719458865e-04 4.482093353032653438e-01
4.626732928253732974e-02 6.228395399924979703e-02 4.813740886356639992e-01
-8.158456893700332183e-03 2.712340027679699395e-02 4.109081385740667169e-01
4.671379061833121765e-02 3.761919227636614793e-02 5.088524241770456813e-01
1.460500128307774294e-02 2.522761874809145363e-02 4.219384308612056933e-01
1.787690954229696760e-02 5.730025586328994086e-02 4.266891232590916960e-01
-1.085257562400738021e-03 1.813712740499242530e-03 4.286882647929743384e-01
5.571319402336464416e-02 -4.545526011286997632e-04 4.998225376391047803e-01
4.280734841892212122e-02 5.047950414213469433e-02 4.446604521212328964e-01
5.208179999158004531e-02 4.422522817453662658e-02 4.980705817096428567e-01
5.721165234415025863e-02 6.349435017234153836e-03 4.813669485655495683e-01
5.914125597967808193e-03 1.049566781727706392e-02 4.251093294912060561e-01
4.299462502731709462e-02 6.771072616562967550e-02 4.679700038236715431e-01
4.342073981286985462e-02 -2.308957835098633324e-02 4.538422298099688001e-01
4.642839603242358143e-02 6.004495323070806537e-03 5.153023529393401247e-01
5.169629493477141680e-02 3.056437194401247920e-02 4.531975951227161237e-01
5.214423628022801099e-02 5.055011095308711150e-02 4.888075097111013734e-01
-5.502404100313025917e-03 2.732263628252554546e-02 4.089904248705116263e-01
2.796977064490156067e-02 -8.244924413938575086e-03 4.363920687189191128e-01
4.950144220356605951e-02 3.272813754161824074e-02 5.037390559600410933e-01
-2.224025685377224726e-02 4.612647397981280845e-02 4.144250958318224654e-01
-2.154946887862809260e-02 4.446183893587395304e-03 4.291919802255959593e-01
-2.138698080567815948e-02 -4.993104789487966266e-04 4.316562172780095130e-01
4.961807729016388252e-02 5.793878186807098485e-02 4.544877867123511828e-01
5.492970561145855968e-02 3.962046781289699920e-03 4.635826285397099955e-01
4.953421585679993605e-02 6.227569359459884935e-02 4.601990209715436930e-01
-4.758562499822678940e-03 4.056186931740999452e-02 4.061387206066885969e-01
5.013960089450621854e-02 1.422938291139360517e-02 4.517607355183771434e-01
-2.182294421252461286e-03 -1.211216622497343805e-02 4.327270586905506700e-01
5.960992957093073918e-02 -1.228594853361388364e-02 5.043631436165487703e-01
2.908595676766304039e-02 -4.890662030724320271e-03 4.366581970943590463e-01
-2.068705892214688091e-02 3.202901427266165169e-02 4.147137729233350556e-01
-3.065981911716136529e-02 6.345748590162711249e-03 4.338379930124878214e-01
5.588603052954829731e-02 1.548883547679877175e-02 4.619104519776051632e-01
5.739078302498770712e-02 -8.804831864553637824e-03 5.127891529667432113e-01
5.577960310959421963e-02 1.425467197782711790e-03 4.964251081469820970e-01
5.752139621752207915e-02 2.175141596826179850e-03 4.791246290513656025e-01
4.921476376208888670e-02 5.989943678592273696e-03 5.105328611920975090e-01
5.154220489176941644e-02 4.063763594154173875e-02 4.999600101052346091e-01
1.414214497401363596e-02 2.218377957704564807e-02 4.227127679372668645e-01
5.369018901645387400e-03 1.313361180764923905e-02 4.228198686254124872e-01
-2.826880858701121685e-02 9.901108172646350819e-03 4.310525858902578555e-01
3.741507066510443846e-02 6.903927472131526910e-02 4.500129530228871855e-01
5.337201497114565929e-02 -2.941264325760295333e-03 4.628345973401735702e-01
4.801154869706186767e-02 6.556742268021094333e-02 4.680806250679153679e-01
4.558599818267002057e-02 6.180473635840116192e-02 4.502130740106836670e-01
4.903820226848976116e-02 4.946512331817835145e-02 5.002795800259343117e-01
2.996068120309484245e-02 3.249629904070099745e-02 4.349643183507468369e-01
4.252961667093118486e-02 5.084591467351043392e-02 5.098790796571364137e-01
-2.039006831541098977e-02 8.733773135857429704e-03 4.266952358489101704e-01
4.074356389232671599e-02 1.762807004711395772e-02 4.428947885585740596e-01
2.643082823491059094e-02 2.452646700553672010e-02 4.328561037673116507e-01
-1.020542042377142744e-03 1.953156676677959488e-02 4.128855011574076861e-01
2.796731971615722817e-02 -1.554022944348864427e-02 4.379014458189510184e-01
-2.270851741455776930e-03 5.032723158484057879e-02 4.088724619361261414e-01
5.533433318779577142e-02 4.638868142124596278e-02 4.759152371633990630e-01
4.372424641076063517e-02 4.414453495416131856e-02 4.451368032468683289e-01
4.775142314220135603e-02 4.926066245725069237e-02 5.034686886668370276e-01
2.012971627736417912e-02 -1.972202888715763117e-02 4.368555078896915189e-01
4.950737822220359352e-02 -1.484790261122984761e-02 4.607459412867955240e-01
6.948529588577568791e-03 1.634483576028285604e-02 4.208618562856877299e-01
5.101381265149411426e-02 -1.470682140615721042e-02 4.640523908944627629e-01
5.913432010115914766e-03 5.957852435929298501e-02 4.189292684376966780e-01
4.509164905010224281e-03 3.743162220498506138e-02 4.051057750122480927e-01
5.097964621611868891e-02 2.205156486821702958e-03 4.545532895071291990e-01
-5.299017587474093294e-03 2.179043997605973129e-02 4.116711671442296328e-01
-1.793986061614494254e-02 2.463113004259008185e-02 4.166222515584862007e-01
5.450505163071193288e-02 -9.116527251642185525e-03 4.689766202541170714e-01
5.614214176212081048e-02 5.453867627629601332e-03 4.672264087002409583e-01
5.282184743394292142e-02 5.330479503697213572e-02 4.798931704512394147e-01
1.209223171550507375e-02 6.857580980592503303e-03 4.298084934150427361e-01
5.194426549294307860e-02 5.719533838726539171e-02 4.724167102527841999e-01
4.146109468860952746e-02 -1.930434738019486812e-02 4.483448466773000129e-01
5.038001995993258986e-02 5.570261460475628423e-02 4.847953662216935022e-01
5.506393524592147898e-02 5.973107957042923279e-03 4.922319382769391183e-01
9.524020220962218369e-03 5.375692719606851855e-02 4.162894332389973640e-01
9.077103791345094916e-03 2.228109488622624645e-02 4.167541150774251579e-01
4.501049720374632190e-02 4.876418338882430870e-02 5.089452661730429206e-01
5.643770211493157746e-02 -1.408788731845483228e-02 4.787890104483004672e-01
5.346329396395456401e-02 1.458549128264090972e-02 4.918407852357180587e-01
5.244032542364210348e-02 3.450197683530165788e-02 4.546617024112664107e-01
1.613086869774077101e-02 5.500827963479430760e-02 4.227997407520956430e-01
5.735935556693889242e-02 2.609928905007304761e-02 4.811554181080481274e-01
9.854971552819113967e-03 6.091797501491329203e-02 4.278744217341437506e-01
2.960938274372409279e-02 -3.511684986976738344e-03 4.370430860058374667e-01
4.375076900669227879e-03 4.764701039360065560e-02 4.098666172892871939e-01
4.755674850549307386e-02 -1.114700680008691436e-02 4.550642634888559246e-01
-3.586452049037287815e-02 7.724002401631850818e-03 4.389674403857437013e-01
-4.977339430026385056e-03 1.375710586880335429e-02 4.191731578358406374e-01
5.045086967500360398e-02 5.415938675143554260e-02 4.884959545800241498e-01
5.307574869648552102e-02 8.342454785617278712e-03 4.965835594227431815e-01
4.397608231493540382e-02 7.617105833388058099e-03 4.462103329713179578e-01
2.246618744326086409e-02 3.907571847815340116e-02 4.278670970145075358e-01
1.370462807419391311e-02 5.496336852818748536e-02 4.205274343575828300e-01
2.803472291794928406e-02 6.559077962706560960e-02 4.482714674289355328e-01
-1.196888391290527875e-02 3.223318332868950475e-02 4.102099426928240700e-01
2.607552010399234385e-02 3.997240678551329529e-02 4.309871917284510134e-01
4.301184143686812011e-02 6.825288575631503762e-02 4.527969836901475920e-01
5.005336060124961767e-02 5.719111044969412555e-02 4.818647407344939793e-01
5.756373065094824021e-02 2.474826835328810398e-02 4.669540047485980505e-01
5.072150888731816187e-02 1.676398932316168489e-02 4.983091126236746660e-01
3.027224339219203308e-03 2.975418282701355888e-02 4.022656079525877004e-01
-8.624406074095088831e-03 4.150798901153319315e-02 4.075576918880300936e-01
-2.923274340282435574e-02 2.666327211529443894e-02 4.222690751952596355e-01
2.767257826286011538e-02 5.431209748918982422e-02 4.320439142810137967e-01
3.061298902083200643e-02 4.766759399836997813e-02 4.343736743739927686e-01
-1.896896820984595930e-02 3.853128151076137820e-02 4.113212579376686051e-01
5.880351214903073442e-02 -9.955334608729247275e-03 5.040303968084555164e-01
5.691164817796067615e-02 3.319243354163833870e-02 4.640664496928158522e-01
5.496479228579750215e-02 -3.144378549581645574e-03 4.670984629446334746e-01
4.933468282238515773e-02 5.639192849220183226e-03 5.107089316386668187e-01
5.644207139337514140e-02 1.278093613312132094e-04 4.712648348355836792e-01
1.872248757413584597e-02 2.107352612746228940e-02 4.271339016370723218e-01
-2.897602858402340345e-02 2.425309362425985982e-03 4.330608196074867133e-01
1.757018024114835944e-02 3.301305929100728509e-02 4.230359779280077892e-01
