5.525282513921243172e-02 1.235640729745215820e-02 4.877788234791941568e-01
4.075209909125661334e-02 3.240332671966821010e-02 4.424617145234493454e-01
1.419032683395913229e-02 3.604088313317013043e-02 4.173296063728089700e-01
3.146170987774716404e-02 6.612477675734738936e-02 4.466536190450000610e-01
3.049977296496117138e-02 5.370031224018327609e-02 4.335635048055802021e-01
-1.013026363865345697e-02 1.696806114932079140e-02 4.181545198156045862e-01
3.817561357001057060e-02 5.730028595679854952e-02 4.415395246364706150e-01
5.824989071486554731e-02 -8.397524472658721151e-03 5.043292944667346900e-01
9.397057352095493712e-03 6.115854105745275465e-02 4.268683443022013857e-01
4.707987415240282719e-02 1.657974160601105584e-02 5.076793714041958339e-01
-3.160423949946176980e-02 6.177073735045076827e-03 4.348568017382888895e-01
5.803205401485627551e-02 -3.558735981558219623e-03 4.936480844348168362e-01
5.355909466770552435e-02 2.142736680434086105e-02 4.548356447003524816e-01
5.512773644178881050e-02 2.326209690778747660e-02 4.892271664683293109e-01
1.721939580489450713e-02 1.347974596851068095e-02 4.287704411636960589e-01
3.351225353155930925e-03 -7.097361807594375870e-03 4.310690662835268139e-01
7.209284267043235446e-03 1.209643309169021637e-02 4.239849967111185558e-01
2.993677550517433519e-02 -1.813538432074272150e-02 4.392668242803996481e-01
5.817997006144057931e-02 -7.377592450737101813e-03 4.888624293749215810e-01
2.890879641813920778e-02 5.696365401510916637e-02 4.340325734926231971e-01
2.907870257796670022e-02 4.642019328001410067e-02 4.323464289780026837e-01
3.212231591367326750e-02 -1.568352314879419701e-02 4.397150361155524045e-01
1.475685017838178521e-02 1.530530117845149349e-02 4.262817794749352851e-01
4.343495830193801199e-02 6.708842239928840268e-02 4.741932938743649295e-01
4.670284073616187692e-02 5.900217652655009859e-02 4.495779210169583151e-01
4.528312494707364966e-02 4.099574894347581683e-02 5.111088939817877153e-01
2.438368295595871524e-02 -7.530749063972311599e-03 4.350716480127156949e-01
5.142782233974031725e-02 4.664990755808735845e-02 4.974654161198816538e-01
5.744294387935665325e-02 -5.143574025947427950e-03 4.991607227732097196e-01
8.639238980146929370e-03 3.617905135509039138e-02 4.083865575081673804e-01
5.628118963698604260e-02 4.011940465872080794e-03 4.677362587533683835e-01
4.936736997962394569e-02 3.591735166670097928e-02 5.046882812459460022e-01
4.991110302354270084e-02 3.367612106700310082e-02 5.034627991967374205e-01
-3.567109853857582807e-02 6.003210990851054127e-03 4.388258789344756661e-01
5.659959129369391412e-02 2.178371812233642971e-02 4.619127594050162489e-01
3.844161796209177862e-02 3.274360855381538982e-02 4.406891254902469690e-01
5.376481915730021988e-02 -1.191448212319063879e-02 4.685071265366507753e-01
2.770257857123483575e-02 -2.460698042190967612e-03 4.360739372076605780e-01
5.722872291338548800e-02 2.341548763348030859e-02 4.816108818299343342e-01
-3.338552719758942910e-02 1.094601129254089283e-02 4.351986209549286166e-01
4.667043700521893157e-02 -1.812764718436528366e-02 4.555444985440288974e-01
5.502195630991776193e-02 1.637112443830268660e-02 4.586586211124337731e-01
4.963695564116375053e-02 3.591353287668566652e-02 4.506192523485717527e-01
4.699943144084060137e-02 6.615937946985589457e-02 4.708011596677617594e-01
5.061521338337576781e-02 7.810917848083001949e-03 5.043442080352807944e-01
5.751335963503640542e-02 3.774036816232850117e-02 4.705960613054060437e-01
5.225320357393450216e-02 4.712046804093079910e-02 4.945775437386208395e-01
5.956613368682857346e-02 -1.236780930676075266e-02 5.059905276477082436e-01
5.180414185647440328e-02 1.238124740765692879e-02 4.534381086143051687e-01
5.369555071861154688e-02 -8.450057270140004517e-03 4.667004780671190067e-01
-6.135156850286833247e-04 -1.101990665299821187e-04 4.294805483866357410e-01
-1.853168266271185832e-02 4.988183642795344236e-02 4.160098136121417878e-01
-2.071783237727707963e-02 4.374154653094045747e-02 4.121250095897449062e-01
4.824174083776844313e-02 -1.777487706013604341e-02 4.587139863965139508e-01
-1.008552405165767663e-02 3.029510899059840306e-02 4.100202549410539854e-01
3.187044036880598563e-02 9.498139775950407288e-03 4.369290252446262346e-01
5.629715171120461270e-02 1.190685143270499638e-02 4.836484931900666973e-01
3.930830125669006192e-02 -2.361116152032864332e-02 4.478791854095711678e-01
2.536758898162155135e-02 6.052759723458265434e-02 4.349917041950513985e-01
3.466195566689937030e-02 1.153391930108884841e-02 4.383100397559326900e-01
-1.975208326832188915e-02 4.272161358667659475e-02 4.109939637200383800e-01
5.403847915536291041e-02 4.621821035369872571e-02 4.890718282172449305e-01
2.104412152079852133e-02 -2.349473668088473965e-02 4.372938508661465828e-01
1.014880583560740651e-02 5.752314969986062343e-02 4.188688923509628070e-01
5.728551798963097547e-02 -4.403871138288342757e-03 4.981397885784565327e-01
4.373519403460822408e-02 -8.394043351322875643e-03 4.484173466411680020e-01
4.719041770655364038e-02 7.957847989382985793e-03 5.123560501187991445e-01
-2.541291697190979637e-03 4.598678562197675707e-02 4.063059385192757111e-01
6.075082831741261680e-03 3.984496967439152965e-02 4.059722092280191319e-01
4.500918503812360860e-02 9.255417455033177962e-03 4.466167376071870643e-01
5.195784190769596467e-02 -2.304671718106533415e-02 4.686842042051754254e-01
-9.095040541990694061e-03 2.594709264398424586e-02 4.120647519746450937e-01
5.169074492926124115e-02 5.439900068584090781e-02 4.841886510291630863e-01
5.315394318826305309e-02 4.633461325735359349e-02 4.551503691217835268e-01
5.522267282379376974e-02 4.879830288095510227e-02 4.757817227999094345e-01
5.675125322997854466e-02 4.186347901080862688e-02 4.661116700220081510e-01
1.679096629076262670e-02 3.650723737416690373e-02 4.213836624405077336e-01
-6.686209002800456297e-03 3.085310125981541654e-02 4.082775013406060860e-01
-2.034268358570381560e-02 3.315212632590239933e-02 4.139904861533726388e-01
3.230136094347756809e-02 3.183321589426687387e-02 4.362748217149510777e-01
-3.518776359086214778e-02 8.763241582919913467e-03 4.380431943612473344e-01
2.084961343606700143e-04 2.092786282716426610e-02 4.107200188081023828e-01
5.919981411088037250e-03 -6.810970478182881704e-03 4.312871372361821720e-01
5.413101963469856698e-02 1.412384745233635601e-02 4.904737733917565734e-01
5.707041379837708012e-02 8.602485246372391231e-03 4.704062123251323557e-01
1.229930546786110399e-02 -6.134721160212059862e-03 4.318890725388572216e-01
4.597702000431207192e-02 -1.287092705348579988e-02 4.528258862939438800e-01
-2.133027930544206113e-02 2.384097135079204025e-02 4.184546732383978562e-01
-2.105382282684841941e-02 4.563925168215617056e-02 4.130412682833125571e-01
4.291208409125323031e-02 -2.022055861314953767e-02 4.508428776925392234e-01
5.293187100698082403e-02 -1.574771458311000766e-02 4.686120748042707507e-01
2.954881445934776432e-02 3.390852391010517469e-02 4.338321102412576180e-01
5.516401476878862037e-02 3.709368801748332695e-02 4.915424453069495159e-01
-1.951701355000574553e-02 3.118844788520180877e-02 4.142919199632980609e-01
2.868185204883216127e-02 3.203595045970267230e-02 4.333496812527764530e-01
5.525942652465617305e-02 8.748583784297618918e-03 4.900559107570525152e-01
5.794794671633240329e-02 -6.576033521282287960e-04 4.798885937529339119e-01
5.166627089811277884e-02 2.449568219958025636e-02 4.526436635186153468e-01
-1.612519266966497972e-02 4.800342870463633616e-02 4.116086788039804434e-01
2.256355955513462269e-02 1.667364166931903369e-02 4.308320035068289866e-01
3.579799129589458090e-02 3.553089584422981784e-02 4.388197278015773528e-01
5.343771728134116827e-02 4.489359746753526781e-02 4.936436387368717815e-01
1.843258427993634332e-02 2.091112463110549741e-02 4.261925158195392083e-01
-2.019461663658263934e-02 1.676370423943833107e-02 4.219968631976090956e-01
8.027557140734106061e-03 6.046701620504243285e-02 4.223990956709026690e-01
4.790148934049827389e-02 1.063950507741519801e-02 5.084747404868528164e-01
5.306004491921006982e-03 1.878651687682325253e-02 4.164295848733265970e-01
5.624086746341289481e-03 1.342205440567295453e-02 4.222389510037150018e-01
2.524806012564671104e-02 2.373516771545960274e-02 4.314425536761271052e-01
2.020517080226953699e-02 4.044945620713939066e-02 4.244834193969914682e-01
5.630257973579785857e-02 5.138774446974709448e-05 4.698217046823982557e-01
4.572058584593399755e-02 4.773792218778338120e-02 4.465720578386805362e-01
1.552180753044635902e-02 -7.083318862363742821e-03 4.327274239511809117e-01
5.360996329403197591e-02 4.599351598613268116e-02 4.557330851681040129e-01
2.336973028868276001e-02 3.376044231730165879e-02 4.280655498810552739e-01
1.323968715100806281e-03 -1.558843636093956719e-04 4.296380999519086030e-01
4.910142812189385170e-02 2.820837883210061681e-02 5.041049994192585704e-01
5.646742476224991814e-02 1.961980474580677508e-02 4.619477355144873121e-01
4.750010057751440778e-02 1.052637551236686002e-02 5.097591739591490478e-01
4.873487298061510153e-02 6.375421419771993246e-03 5.111403444111024541e-01
4.282480699161417964e-02 -1.027032862344399652e-02 4.476243692140521313e-01
-3.390614361756950218e-02 5.338077690039466638e-03 4.373981089751217688e-01
-1.748772722200762735e-04 3.758167002018982829e-03 4.272163082047406024e-01
4.459448808286081006e-02 5.447173448871504842e-02 4.977819013942273441e-01
3.706954645381254493e-02 -3.053039316115644178e-02 4.494869371376274403e-01
-1.682187853062829322e-02 3.029206402007795368e-02 4.131643116678740957e-01
1.547502122686114472e-02 3.428585171160400402e-02 4.197550870974510739e-01
-2.387743812425634909e-02 1.106632920745300938e-02 4.271994970870925390e-01
4.240812089617276848e-02 7.050953294741554855e-02 4.547907872752695035e-01
5.811964521952280721e-02 2.647732022097365120e-02 4.729813402137427181e-01
4.949130029788043061e-02 5.161505072237441115e-03 5.109542996108769053e-01
6.808167535729852358e-03 2.906828427372270748e-02 4.021010930478698953e-01
5.123129639340622682e-02 5.376180501840086001e-02 4.874145017185924078e-01
1.877855908302840382e-02 4.135265231856000839e-02 4.228260251808287351e-01
4.637934254251233068e-02 3.526946084679197929e-02 5.097186103596859086e-01
4.119930393289010506e-02 -2.611053723824387912e-03 4.448500874238398017e-01
5.398804127547750242e-02 -5.619519300315038365e-04 5.092105132468531803e-01
5.229258012096360021e-03 -1.054360846050417591e-02 4.322625221787089744e-01
1.948723550721297507e-02 5.271941868555650185e-04 4.330904572201745295e-01
4.849428525552628572e-02 -8.321801713776891957e-03 4.547529279415715719e-01
5.629739319539212028e-02 1.186527323285919804e-02 4.836672781817181743e-01
2.457295032406877494e-02 5.011711628580430705e-02 4.284733992791070478e-01
4.756728814504757041e-02 4.983811434668306006e-02 5.036553388827637034e-01
4.928937260398588011e-02 3.751038909313487990e-02 5.049753825591721812e-01
5.658249156870917562e-02 1.655051827780312790e-02 4.830900339585502690e-01
-2.971389268734153655e-02 -8.367347395496537235e-05 4.346751189603841881e-01
1.421725998511559966e-02 2.589037732242129367e-02 4.200968968010861393e-01
4.728379695534272453e-02 5.380337158075231517e-03 4.490540064477408499e-01
9.945221497244824058e-03 4.221119176495072289e-02 4.108567348948862219e-01
2.130948370713344267e-02 2.426800114813625411e-02 4.278397818904634553e-01
-1.717715447121844624e-02 3.151129357479817011e-02 4.128268656573345630e-01
5.493606790267230311e-02 9.647812171447299467e-03 4.605633841917194937e-01
5.528082903802167269e-02 4.228873971650794900e-02 4.882606176028610467e-01
5.159538425944523721e-02 2.632307083615588114e-02 4.525251284345405134e-01
3.100653471184136589e-02 1.304002080222009183e-02 4.363786982527912972e-01
1.879052306301955133e-02 -1.443189450736453994e-02 4.350650185539908232e-01
5.033660349915333038e-02 4.477523678485727243e-02 5.024123026335320930e-01
1.071250641023540999e-02 4.549931869464465817e-02 4.130247713685486488e-01
2.473769484229995999e-02 5.072018798685337670e-02 4.286396040153950260e-01
5.260290408432729409e-02 3.439235741307426764e-02 4.981602096828586235e-01
5.750695028450047291e-02 1.493950259033862901e-02 4.722382928608404029e-01
-4.436682687771364986e-02 1.011259208970557251e-03 4.458201433298031868e-01
8.656269195704250838e-03 7.894496708787406350e-03 4.274671231561802953e-01
5.300742077068583413e-02 5.471048042731371797e-02 4.756744950146498119e-01
-1.924606697226881324e-02 2.788995817599630202e-03 4.291587529347094532e-01
-2.634951307504539500e-02 2.907085391140627750e-02 4.191371208341085897e-01
5.505502760758970021e-02 9.098506537741055805e-03 4.611237489892941466e-01
4.224817487773255276e-02 6.994869824993550644e-02 4.597887938226394855e-01
1.423093719335432640e-02 6.076975725546896606e-02 4.308274024714825456e-01
5.567597298495750337e-03 5.434032030429943733e-02 4.140518212429323275e-01
5.215021140270575950e-02 4.625809484127882398e-02 4.959074828800916213e-01
5.361592827521172167e-02 -1.588100240025732204e-03 5.116281540383722515e-01
4.414980297530585879e-02 5.306693682729416578e-02 5.017499741244489941e-01
5.694332331498865030e-02 8.796282376123273905e-03 4.688671638553495447e-01
-3.348897702213059387e-03 -2.428203589542766907e-03 4.298235921743168153e-01
3.621371493934354840e-02 5.650958841810446026e-02 4.397599829880352029e-01
3.296885102592022471e-02 -1.743468772536554967e-02 4.405362081360947313e-01
1.330331196357868381e-02 2.759178871342811423e-02 4.180747140963376185e-01
2.784036680300218392e-02 -2.216737398660011821e-02 4.392366808861023486e-01
-1.888333465399733707e-02 2.623229666841907920e-02 4.161670184688487928e-01
2.322248231481014585e-02 3.365078652553290389e-02 4.279354858117976335e-01
3.902738165421626437e-02 6.475974614271826774e-03 4.418588801229896279e-01
1.498597489985426488e-02 3.303253353728700936e-02 4.191047052104770465e-01
4.850193362081133691e-02 9.025403804923509340e-03 5.082683503559990434e-01
4.830886817263969901e-02 -1.996127320028312849e-02 4.601628107986641680e-01
1.492083718859780507e-02 3.839642714508639809e-02 4.189071766815989362e-01
-6.916322754939225638e-04 5.481981317660604772e-04 4.292920236219971986e-01
5.519088727936325919e-03 3.918272513794468503e-02 4.050746467288673935e-01
2.275845279161272869e-02 4.060317518571170126e-02 4.270762097537935675e-01
5.645943871091969879e-02 -3.340473914870945981e-03 5.071733202761786741e-01
-2.405895180613848439e-02 3.555959702421158247e-02 4.152402946391951510e-01
9.018002596060839364e-04 3.158487397677267605e-02 4.017370550275069507e-01
5.799471772397576247e-02 2.421830210737761779e-02 4.704706591494703938e-01
4.110561710131888091e-02 -2.196252559150155270e-02 4.490540058141190838e-01
5.212153986622532903e-02 4.955348199728431755e-03 4.554744483562739865e-01
4.684542942630361834e-02 6.085408268324502684e-02 4.830007361051013026e-01
3.272977408230748342e-02 -3.826701984901850241e-03 4.385882581635076050e-01
1.964959910485519767e-02 5.819117692957211790e-02 4.280408145682324528e-01
1.654415254321188467e-02 6.031931512589831790e-02 4.316867333781591043e-01
2.977557436576505623e-02 1.855170583592415795e-02 4.351622322405235832e-01
5.026320848941662200e-02 4.730012948249931459e-02 5.000008610008995769e-01
5.760609633514272854e-02 8.713608787890396445e-04 4.835778275196988552e-01
1.719727597593432439e-02 4.540658949679785700e-02 4.211845176689586467e-01
3.339769019060868926e-02 6.418944626572460621e-02 4.423775633453352896e-01
1.966751372896735628e-02 -1.547850695276477805e-02 4.355116677796891933e-01
3.215278252886479698e-02 6.625936360497861055e-02 4.468275760356532067e-01
1.413495176593103017e-02 5.390474987012068564e-02 4.196434729094247196e-01
4.940111786407781758e-02 6.245660745405635927e-02 4.735335053649196158e-01
4.110273962261453556e-02 -1.895920090197979538e-02 4.475829862811593896e-01
2.728753760790265243e-02 -4.161029725348682276e-03 4.358009762983722779e-01
4.877343595257709052e-02 6.484427996457751975e-02 4.615596784355640025e-01
-7.492390892420269441e-03 3.114408984649750384e-02 4.085290095348242390e-01
1.508000071752859522e-02 3.034575682889291415e-02 4.196510079467600240e-01
1.164933589890352651e-03 -3.150845006248968565e-03 4.301071295617598933e-01
-2.502550459681130574e-02 1.996139520745923712e-02 4.223140987907553212e-01
5.332219400011214971e-02 4.449949239515782473e-02 4.946358428205827606e-01
-1.004745223938803382e-02 3.024624199847181574e-02 4.100303205111344718e-01
4.687384617723360652e-02 6.559143862388476520e-02 4.565071556534218145e-01
5.278111749370659189e-02 3.039657525786291711e-02 4.539558127280881594e-01
4.662861589755719349e-02 -1.071855747223892166e-02 4.531761030187529959e-01
3.335758400892915171e-02 -1.185925543826984660e-02 4.396351994902732430e-01
4.058167911529840868e-03 1.859824690691152735e-02 4.156124959145772180e-01
1.520504424054225714e-02 -1.762812533690413797e-02 4.359390013040236878e-01
-1.942280509885948095e-02 2.431627364263976715e-02 4.173248224366150061e-01
2.968608145689796696e-02 5.630515509025074000e-02 4.342072433026180622e-01
9.453765438278114580e-03 3.869337519334783287e-02 4.097001671861508210e-01
4.431805474492718153e-03 2.235868676270116179e-02 4.095544760683993979e-01
-2.611424198307035066e-02 2.064645899211509008e-03 4.317732614157295257e-01
1.475571122278341966e-02 4.363571580307241266e-02 4.180856239369053484e-01
5.028221981650284056e-02 1.040414348977956871e-02 4.515953438690379906e-01
5.548714721848953257e-02 4.533694822327914015e-02 4.794014054583394802e-01
4.958416447717259312e-02 3.253615420986150780e-02 4.503261477681148595e-01
4.778848667624138041e-02 2.026060718989874596e-02 5.060741955248886370e-01
1.894769494584222502e-02 8.159030370196985321e-03 4.319201736786832946e-01
2.404402705671722026e-02 -1.008371593042955809e-02 4.354155192574759581e-01
5.179106118187794261e-02 1.506680071613794797e-03 4.560020192175795462e-01
2.800790269085158719e-03 2.293577983242091681e-03 4.290392238797163249e-01
-1.025353963552706749e-02 2.229906353192102203e-02 4.146141999729844319e-01
-3.856029769638094108e-04 5.446366658796113203e-02 4.127120014442384188e-01
-3.986253676893272702e-02 2.615818270550991989e-03 4.401565256184366004e-01
3.939983694629002609e-02 3.230125096711590482e-02 4.413870026189982698e-01
3.167779712744285547e-02 6.615626982000449852e-02 4.466981849148393691e-01
5.196396118447711016e-02 5.975632848917384471e-02 4.645915250918355444e-01
-3.272003590301272857e-02 1.167243054539162869e-02 4.341489627248927841e-01
-3.243385411743943299e-04 5.466057581224952749e-02 4.130781338818463322e-01
-3.441961891722162409e-02 4.586930999492812647e-03 4.375696848303708975e-01
-2.500562328297559547e-02 1.341591782311190792e-02 4.267768509725887727e-01
4.033825743866180369e-02 3.166381071809633296e-02 4.421379179830360329e-01
5.561354290705541187e-02 4.175120738737725379e-02 4.855895371765190927e-01
5.154244363388948286e-02 5.731280477442250720e-02 4.761679380703552900e-01
3.606281271583214321e-02 1.998396186900569874e-02 4.390004993303037173e-01
9.160651002162878073e-03 5.984970031767978399e-02 4.212666706565997843e-01
5.715260322437511198e-02 1.848912423882152767e-02 4.801532053727506355e-01
1.518022664437743662e-02 6.063063519001986312e-02 4.314598522296567706e-01
4.092132455867187810e-03 1.256369562621977368e-02 4.221362139746714925e-01
4.870324432787775937e-02 1.797132428977357352e-02 5.035949516544349081e-01
-6.372996746483099856e-03 5.397103977368401112e-02 4.135276123834633610e-01
5.446244507900374621e-02 5.287678311471705195e-02 4.671145487697501153e-01
5.053704776766387158e-02 5.966314329453505094e-02 4.751045060981235468e-01
4.163669572298639432e-02 6.785184386696062331e-02 4.684263273812511175e-01
5.495793678800149629e-02 -2.695338669438637150e-03 4.665721869284087941e-01
5.507579169159457916e-02 4.376965677412891775e-02 4.864349280039182988e-01
6.290027772620668950e-03 3.363416113625034010e-02 4.024918133680628340e-01
2.112030115083020701e-02 3.934691214837192363e-02 4.256211599753251251e-01
2.585115323628563166e-02 6.460613327194444921e-02 4.426734806476029238e-01
4.752605939147053205e-02 6.564827699134939687e-02 4.585888317679454595e-01
2.579921048895135460e-02 6.457080067063515616e-02 4.461887272187790576e-01
1.010622709594344651e-02 -2.224049075849774022e-03 4.310833659440039822e-01
1.227613514068993592e-02 -1.960903138786619735e-03 4.313196232270774533e-01
-2.849982157166960212e-02 1.779076269834275331e-02 4.257171097244537572e-01
3.342116659844772408e-02 5.126255945123650917e-03 4.383363477828400301e-01
4.131577696466708777e-02 1.983007713532750071e-02 4.428002368678387035e-01
-1.918973725235008018e-02 3.999026529386619233e-02 4.107607371534660046e-01
3.805753521858622895e-02 3.445357072737663395e-02 4.404446422183731502e-01
1.260616957260007366e-02 2.057605064410520171e-02 4.210912801168640307e-01
4.390922942265575168e-02 -1.165804710160991964e-02 4.493686271377791974e-01
4.846174213103116024e-02 -1.175991468273529864e-02 4.567277326548093153e-01
5.052608958425474500e-02 -2.013492416271924629e-02 4.650684330580371895e-01
5.433712198399776039e-02 5.197829730879769197e-03 4.969667542263974669e-01
5.443543862973673070e-02 -2.726946323899221737e-03 4.652662354755570662e-01
4.124347508388696154e-03 2.553571449371651314e-02 4.043079493968354532e-01
2.385092940585307672e-02 -1.164438916453661675e-02 4.356299465820080430e-01
-1.747091095202759833e-02 3.107013902874809774e-02 4.131686088540628687e-01
4.341081003440858122e-02 3.639261150755995766e-02 4.446307133759396790e-01
2.737155909843431989e-02 3.393690318628126562e-02 4.320374742976952898e-01
4.873191952442457869e-02 6.489714941902421930e-02 4.615297775552466009e-01
4.613016592609513189e-02 5.472170679754850137e-02 4.479218096012895778e-01
2.507874507553234378e-02 4.006897235519857325e-02 4.293117646415233746e-01
6.626134077831082395e-03 -8.000873768652135357e-03 4.317236798875035420e-01
1.934552569915097206e-02 2.128874779543965187e-02 4.269435665606294283e-01
3.403356982527555585e-03 1.544410828691052118e-02 4.189265988824706910e-01
1.127361142640078209e-02 -2.278929496354645257e-02 4.376009511975638699e-01
4.864104402228711099e-02 8.312651148289470007e-04 5.167459266812420848e-01
1.001660215297344586e-02 -1.815709650511583215e-02 4.366569476587968679e-01
5.229584177951369928e-02 1.956038739582763308e-02 4.951397198803003108e-01
2.678229298636893279e-03 8.512394985478422341e-03 4.247601455010724392e-01
5.083378334851992170e-02 -1.978733258812645848e-02 4.655881636602091644e-01
5.468061771389657461e-02 1.847636769035115173e-02 4.890127634794552702e-01
2.782804419219359754e-02 2.340180502414078434e-02 4.333673117632841354e-01
1.322185570335212418e-02 3.635143286245691441e-02 4.163008376223358842e-01
1.289220594611600185e-03 2.647792578073014658e-02 4.033468341932093248e-01
-1.529829610627713235e-02 3.562965562944653275e-02 4.103346781520161857e-01
5.801677687912711739e-02 -1.329300211783966505e-03 4.859823593369161920e-01
6.638157104015366197e-03 3.526379593292795073e-02 4.054328598735396083e-01
2.240552463862385824e-02 -2.171024633302967230e-02 4.373350818020070863e-01
3.225980876182184265e-02 3.095119306977972204e-02 4.362063074509748839e-01
5.729788216878097667e-02 -9.826873102401325125e-03 5.138886184894592146e-01
3.851717377407653034e-03 1.201278719929509825e-02 4.224283665527577836e-01
5.831923744978317198e-02 -8.478912811895288754e-03 4.895914566914168486e-01
4.579375288098596480e-02 6.492782113267027422e-02 4.526211276042528264e-01
5.731740528037772286e-02 1.047183974928844394e-02 4.763980297549657017e-01
-2.870633892728551365e-02 2.514514372883076831e-02 4.223966070376330428e-01
-1.927133948706613933e-02 4.882925550593027533e-03 4.277912082978437280e-01
5.576194046610386673e-02 -1.239468946926189667e-03 5.023928062287804641e-01
6.220652017886324492e-03 5.992731981894338505e-02 4.187977427540914288e-01
1.172168667275095763e-02 3.890758160575893965e-02 4.129994949783156732e-01
5.580282606608899520e-02 -1.493604601671852210e-02 4.767132138489085791e-01
9.397593539123953038e-03 1.352027351513023119e-02 4.239852995368866284e-01
4.683559485558770608e-02 3.863613080313401532e-02 5.090021813223768454e-01
1.360437630087746666e-02 6.041015341773831732e-02 4.280922861614049890e-01
2.382044460767859112e-02 6.066232470686638845e-02 4.353538059336163335e-01
-2.119328222814078483e-02 1.160697145478345980e-02 4.253775127277586443e-01
1.904027311512525994e-02 3.918794055669728993e-02 4.234169582442202651e-01
2.284181045185008224e-02 2.939475283715237489e-04 4.342474446019854439e-01
5.161222979362028312e-02 5.748370142998965315e-02 4.574327022700228063e-01
-4.831008803731677917e-03 3.593367704162191145e-02 4.048993678585125489e-01
5.430113107990825611e-02 1.682478785232485383e-02 4.899779946066904479e-01
2.614366606811344834e-02 4.780281863933105724e-02 4.295316660773166872e-01
1.138845562395762387e-02 -1.540382553861786505e-02 4.357213288043991772e-01
2.265708095948694087e-02 -4.136707144222983266e-03 4.341998639660469839e-01
5.744595918561540976e-02 1.444231821850448794e-02 4.771666447521589194e-01
5.762003024539523455e-02 -1.557726808120711397e-02 4.820478480222700202e-01
1.681547518389461468e-02 2.550349842289095434e-02 4.233326355867708668e-01
6.622314214679488401e-03 2.385124773121017477e-02 4.090132823301212972e-01
4.312851705941037755e-02 -1.175905397853989343e-02 4.483793616004387861e-01
4.024910933855219836e-02 6.826573684801319486e-02 4.653956811057706755e-01
5.137978137361520758e-02 -5.901743492770863703e-04 4.561065902812945771e-01
1.210998669353422798e-02 3.835562490170234262e-02 4.137375373042828652e-01
-3.651720740672511831e-03 -9.645468530792997153e-03 4.320493673152295266e-01
2.220254636178117802e-02 5.270674263179062763e-02 4.268657487318993637e-01
5.127001930927230222e-02 -1.206221630599089469e-02 4.632560395238547457e-01
-2.069827545138588909e-02 4.880307558447194438e-02 4.162403588550296907e-01
1.396362730895426597e-02 2.985997795958379719e-02 4.184539855872135283e-01
5.481746826178353349e-02 4.500196588021886102e-02 4.858936362030694123e-01
5.268052452380391631e-02 5.361359984070915990e-02 4.812584848820719574e-01
8.519222683647154418e-03 3.014766959627186022e-02 4.044217865164844161e-01
5.367553754658957454e-02 3.612757331136214056e-02 4.962985763454463850e-01
4.772949971134279185e-02 -1.715737933184926373e-02 4.572187340367147024e-01
5.214960768760918547e-02 5.850300926720768818e-02 4.695378315235711475e-01
3.036577934210327873e-02 6.187830910358082387e-02 4.387898434507133683e-01
5.411088328226196231e-02 4.687137406547677021e-02 4.877982801126819479e-01
4.793071910711627082e-02 2.644749306422123150e-02 5.064713552311350675e-01
2.776204295678528708e-02 5.636793279660846229e-02 4.324063057426746348e-01
3.672100491486068180e-02 -1.824862330393281148e-02 4.436255143365639975e-01
5.156853317088427868e-02 -2.176484425015119684e-02 4.674710910294933019e-01
5.186642001286336651e-02 9.007874024077416192e-03 4.997372458710559462e-01
9.527299343051444380e-03 8.034335862239134346e-03 4.277193998912689477e-01
2.947715419738525244e-02 1.927597035688878926e-02 4.348788717319277408e-01
4.804337035354055985e-02 4.891239412713979662e-02 5.035576686208866892e-01
2.293284881764211594e-02 1.835371381839362437e-02 4.306915960790727582e-01
2.703549636983301578e-03 -1.622352407242514533e-02 4.351983780227975385e-01
5.704221001953831832e-02 2.779670553773991998e-02 4.627531820437709720e-01
1.233441008758117199e-02 6.083153229633549847e-02 4.286210888600842095e-01
-7.075794030082511836e-03 1.862908072967676618e-02 4.152255690708038238e-01
4.634714698052059406e-02 2.042048033279598301e-02 5.097384482092958136e-01
3.696901129274696857e-02 5.184763729460527965e-02 4.392947081212277283e-01
4.966172517848007478e-02 1.151710883369185326e-03 5.149890369286506120e-01
5.310119891328596992e-02 -4.537113246373841204e-03 4.626668176384685638e-01
3.149312175788095830e-02 4.655962683804530655e-02 4.344938284007155982e-01
2.377422645609575391e-02 1.165709384316792295e-02 4.325505921760675609e-01
4.915933863843278961e-02 5.146968463657099202e-02 4.506276262373921093e-01
-3.494301179734872476e-02 1.412285198895295649e-02 4.374859499852818412e-01
5.442441940663331895e-02 5.216967277247557683e-02 4.725917812330158174e-01
1.108356149745954797e-02 5.246797155582915567e-03 4.301359253432833207e-01
5.461911090880260111e-02 4.587421549637805962e-02 4.857448661920177879e-01
5.712974352654466570e-02 1.141221674771834664e-02 4.800665125602627814e-01
2.762528390708376622e-02 2.863316016061606337e-03 4.358098055095426249e-01
4.679640021403716488e-02 3.071471895662288010e-02 5.089144298669445732e-01
2.252696526473097621e-02 4.028920917931945456e-02 4.269020519340681052e-01
5.833498688547071598e-02 -8.912615599944648248e-03 5.064255280014304805e-01
-1.925469896458791019e-02 1.876630973943382852e-02 4.204095766596547268e-01
4.903347282167364041e-02 3.235355906606970228e-02 5.048564674196002189e-01
3.223523899142322763e-02 3.140155967415719784e-02 4.362036150428271752e-01
4.966500416845071736e-02 5.955835889811492145e-02 4.548213381769783958e-01
3.551432489758826749e-02 1.177193106280430106e-02 4.389040653662463209e-01
3.724090361246251701e-02 5.730131473361656236e-02 4.408078913984453950e-01
3.510728450856535898e-02 -2.943515873449168915e-02 4.476014855826638272e-01
3.801489145377396489e-02 -2.865187926624486459e-02 4.494351755648378632e-01
-2.796528991838477876e-02 2.653950733631909101e-02 4.213256868517767928e-01
-1.229020747185427835e-03 2.480801913771831305e-02 4.065281645302651348e-01
4.757509215465687002e-02 6.149604015405521484e-02 4.517764301733042109e-01
5.332622309532759897e-02 3.401326852870240058e-02 4.552296138762681466e-01
-3.426162934214084521e-02 1.200442814695717661e-02 4.365621164352003758e-01
-3.130605689512742235e-02 1.603887146797390584e-02 4.291214938873641471e-01
5.508833258893470336e-02 1.460224783541664477e-03 5.000110894569115283e-01
5.284227326747732018e-02 3.453806160461951255e-03 5.048451323141431857e-01
5.612972487448342901e-02 5.122733409816816741e-03 4.665025945091404447e-01
4.384773788006340878e-02 6.753989175906703613e-02 4.700011848158445193e-01
-1.998330418658341573e-02 4.628093953696255786e-02 4.123880090216235916e-01
1.343518938535749607e-02 1.228902134913101470e-02 4.272781991523521006e-01
1.825022443282169060e-02 5.922103386775327827e-02 4.279906840332777795e-01
-2.178125335368637921e-02 4.776150270980519807e-02 4.157292868781741202e-01
1.801093642049738514e-02 1.150396091658211113e-03 4.326280747464844589e-01
7.432126732703132378e-03 2.070971322154194216e-02 4.151865509252863906e-01
4.963046793422184327e-02 2.901815969181275809e-02 5.030370585935904915e-01
5.638238752383744473e-02 -1.617788192284318888e-02 4.783979268136745455e-01
5.434169957505163157e-02 1.508461495222950671e-02 4.898822028904632475e-01
-4.873166362755794977e-03 2.118908784564157294e-02 4.120663499043429878e-01
3.265036474511625458e-02 -2.461432862914977177e-02 4.427914909579747649e-01
3.004186022062851902e-02 3.872369785846267731e-02 4.338771436725753494e-01
4.899578850674382417e-03 6.086518669490906253e-02 4.208496973217201731e-01
-2.690696815351270588e-02 6.373953894788142796e-03 4.313356279925674164e-01
4.634658942574449575e-02 5.666042549094232189e-02 4.919260638402679353e-01
-4.809675157119071461e-03 2.898990673150483172e-02 4.075989724251354307e-01
1.268942931647570188e-02 2.957055157070362372e-02 4.155602117122156325e-01
5.390247535408372592e-02 4.755877812245389719e-02 4.878951308067442927e-01
4.415959044749601797e-02 6.740183475866634577e-02 4.715779770972330920e-01
5.010984091531838977e-03 1.113712024281232095e-02 4.236803570240589845e-01
5.643861856329217275e-02 1.436471145251352541e-02 4.633492369445677550e-01
2.133057537482935945e-02 5.247209642194845813e-02 4.260660425147602681e-01
3.564027348687089786e-02 3.358436627680976699e-02 4.387384002547119466e-01
-2.374215664631214306e-02 4.781452287334099494e-03 4.299172583083089028e-01
5.166211422225792244e-02 5.292853044784365246e-02 4.872791158345262663e-01
2.231440157890670923e-03 2.613427025586505248e-02 4.036648238178809911e-01
5.114607504859113724e-02 2.139402012065757391e-02 4.979206959276167299e-01
4.532954417818591680e-02 -1.559337392404911218e-02 4.525993342042886614e-01
5.733085947141987326e-02 2.958678618694089019e-02 4.826683578241633965e-01
5.674349785736638313e-02 2.677208068135818533e-02 4.620348417158064991e-01
5.096359790184268324e-02 3.983659697901453800e-02 5.017826742112396765e-01
4.635309527640161381e-02 2.712381016454159383e-02 5.098220942889378771e-01
1.402507157484126146e-02 3.609410389442595235e-02 4.171717943743395995e-01
-6.854666132434452004e-03 3.321314517997370208e-02 4.074136410734502944e-01
4.498015108129011647e-02 6.705811521318993940e-02 4.558638487135945327e-01
7.804044748048084845e-04 3.304377026048384638e-03 4.277989471848412939e-01
5.191603225643038472e-02 5.983803792047001982e-03 4.546788675880887309e-01
-6.407734421987816217e-03 1.027079465075552561e-02 4.217733896822126183e-01
5.752303071422144864e-02 -1.618550028396891893e-03 4.769331188098691054e-01
5.318518650442453921e-02 -1.469946247348692669e-02 4.686124421228453629e-01
-1.212871537391359972e-02 1.934294612144526679e-02 4.171007212969797262e-01
2.447623907748641692e-02 4.806639024141833028e-02 4.282650819618402660e-01
5.795620638984425033e-02 3.348933660631578380e-02 4.684848806612565975e-01
2.929184353983720415e-03 3.439906858803690182e-02 4.010525158292163606e-01
1.836020059786854994e-02 5.660825111025253459e-02 4.255082333416601581e-01
5.187217246299535844e-02 8.132941237137444532e-03 5.002748925256449430e-01
4.788795411145416875e-02 6.133384315672874704e-02 4.801891170215546456e-01
2.871223125866445916e-02 3.264392690830567739e-02 4.332939714395843134e-01
5.756968826166328906e-02 5.982216665960165755e-03 4.806466448968895744e-01
4.627127527807837343e-02 3.349175490969447805e-02 5.098740334773138594e-01
3.163521692589323780e-02 6.613045735376114898e-02 4.466712079657801926e-01
1.034265508148396115e-02 -7.258204631422529585e-03 4.318977140662688119e-01
3.190721451679327109e-02 7.295908831450288214e-03 4.372081827471542836e-01
2.954740063374684117e-02 -1.311201850081666898e-02 4.377372416055756998e-01
4.826507273918441421e-02 5.557185921073071189e-02 4.909610425272264989e-01
-2.140960567621617155e-03 -9.329446569940960665e-03 4.316998636441068404e-01
5.149225694186151947e-02 1.484242191905887562e-02 4.529858637180754766e-01
-2.290135656843030401e-02 2.542239470871105952e-02 4.186604012390069962e-01
5.084933618752528889e-02 -1.548703937287236598e-02 4.637789633113424403e-01
4.131089704949324204e-02 7.162260993177549384e-02 4.559798062045536948e-01
-2.530741265198978296e-02 2.890648591642148296e-02 4.185016515930304326e-01
4.040140313463696370e-02 2.247682018608305327e-02 4.419682002895009010e-01
-3.637580480245748010e-02 4.041629436042970536e-03 4.386334066625360295e-01
5.827506657460200523e-02 -6.254373344663167501e-03 4.927293929147473772e-01
1.508635043670664665e-02 1.840479573657555212e-02 4.242836370645444166e-01
5.158871158247674976e-02 6.064451692920116987e-02 4.633189608091621836e-01
5.628201532868044865e-02 2.250553384169055871e-02 4.609886484102201365e-01
-5.094909150857395048e-03 -9.812527388696291875e-03 4.323296079329544406e-01
2.034536966283949713e-02 4.180162361806016857e-02 4.244396831353168809e-01
8.674879483364339797e-03 2.997889271631763719e-02 4.050328184631759587e-01
1.533254232933942141e-02 6.104824875112250387e-02 4.342531608253744624e-01
3.526011451601004237e-02 6.375073814367122546e-03 4.390141930329134468e-01
-1.184718273524704157e-02 2.337061917575341055e-02 4.146996484129774063e-01
1.699476600286258660e-02 -5.191089058463807873e-03 4.328116587405551052e-01
4.751456766145489147e-02 1.240001350284920985e-02 4.484979053844812547e-01
2.554819952957088428e-02 -2.344767497981988750e-03 4.351834371725047390e-01
5.884906822592963355e-02 -1.050752397549397678e-02 5.073900143757626990e-01
-3.636644438022368364e-02 1.874337006712347223e-02 4.371632181257631422e-01
1.033399425155682831e-02 3.195076191372080848e-02 4.074395476543220540e-01
3.432102736810407895e-02 5.580432917597108466e-02 4.379329103625806963e-01
-3.036657104009523114e-02 1.862721668570370068e-02 4.265123246876180718e-01
4.754382712925461080e-02 -1.935903440498194100e-02 4.582202657408053770e-01
2.217281712279944167e-02 6.398720373482998103e-03 4.335196321458629765e-01
2.313750169124425410e-02 6.303188367118368884e-02 4.408169978823687774e-01
1.552337970693263604e-02 5.197461824508376599e-02 4.204969368489610559e-01
4.791405790629992001e-02 2.097724100955099258e-02 5.058181009267643802e-01
2.514201855444748307e-02 6.064121728979547654e-02 4.353396325035858716e-01
3.377362129749668374e-02 2.041391204587290897e-02 4.375641199124159497e-01
2.080443694263439669e-02 -1.778964345651618331e-02 4.364425786573175037e-01
6.765898364707498801e-03 5.714546284296220108e-02 4.162941073790807911e-01
5.728158517293808344e-02 1.351388917384580696e-02 4.682512618471150745e-01
5.013246096592115925e-02 -1.328203861822159840e-02 4.612481317956542703e-01
1.636488378296610188e-02 3.803282739233130455e-02 4.207179488203485751e-01
4.363350733922470581e-02 2.445578508103662257e-02 4.446990312062354400e-01
3.014121225901221501e-02 2.414977022249444050e-03 4.370146295636299638e-01
5.598826512599326677e-02 1.284795094537535473e-02 4.623004498008923546e-01
4.371829028842343090e-02 3.348058732531861148e-02 4.449452949280629510e-01
5.424404178319455760e-02 4.239937142906832074e-02 4.929376814217692471e-01
5.230171003950623981e-02 -1.648237077377656332e-02 4.675774348159507099e-01
3.544883741139461843e-03 2.211666557706114516e-03 4.291202148689552409e-01
1.392840605089815456e-02 3.066190136919117945e-02 4.179456184582509004e-01
3.966713379315217614e-02 6.780542906618004795e-02 4.709669592819754613e-01
