5.191533250834216850e-02 5.453309664899116949e-02 4.811631095646524692e-01
5.144254242439425667e-02 4.513124890987131599e-02 4.988630454108022860e-01
5.780351680654583629e-02 3.265098238890378618e-02 4.700973716083930998e-01
3.120629586394289834e-02 -2.293270365486186485e-03 4.378555587123021953e-01
3.403619730494317902e-02 -2.881309649222467406e-02 4.463467550194134548e-01
5.731387340188692781e-02 1.588057815593623898e-02 4.775753670023917263e-01
5.171235367761555651e-02 5.835505880754265906e-02 4.599936075055977014e-01
9.270931293475696486e-03 4.750821620867455575e-02 4.125989790866839146e-01
4.755936151784304761e-02 3.030241471657197511e-02 5.071916424038603877e-01
-6.518744881546608208e-03 2.473892045046766769e-02 4.107938679568641782e-01
5.587365773727660800e-02 -2.251468775530781914e-03 5.071879432621259065e-01
4.893411234736634585e-02 3.373229698991443010e-02 5.048373448920320250e-01
5.717403915904166467e-02 1.672098153007512203e-02 4.672658188914665667e-01
4.034144928818570591e-02 -1.168862960921307134e-02 4.453368793763513578e-01
3.146915724826108984e-02 2.440179136767242629e-02 4.361059305164720068e-01
4.310446105925332116e-02 9.226367754114407280e-03 4.452101167765721290e-01
5.640591017057497436e-02 7.395720973358619992e-03 4.859801486138555227e-01
2.543460115908912147e-02 3.824746517143302882e-02 4.301874814445508788e-01
4.609452213837790524e-02 5.297878424466578168e-02 4.989930276060213776e-01
3.863614819516283938e-02 6.804691306139235007e-02 4.700044148320605686e-01
5.202830105586213338e-02 5.098075564009030974e-02 4.886258510079003470e-01
5.636481196602815408e-02 4.091015444822053426e-02 4.640057846767810523e-01
2.323603231407581418e-02 6.154610334487418261e-02 4.374512983025464208e-01
5.726185820334808024e-02 1.844773426299329763e-02 4.662371491573809590e-01
5.549506884722180816e-02 4.441868384709532491e-02 4.612063335684158938e-01
5.232863753364176695e-02 -5.646063674501998302e-03 4.618911424257935994e-01
3.140583328906901978e-02 -1.980123353678047218e-02 4.403649962638582216e-01
2.034467021376108742e-02 5.818303161598566142e-02 4.289746562390591711e-01
4.748060805009939045e-02 6.573951411332172590e-02 4.708727266634780140e-01
4.639603534503655008e-02 1.127507693477949706e-02 5.109993870626954315e-01
1.218430033211350891e-02 5.045406105360723120e-02 4.167815368810368071e-01
4.442004817025364816e-02 6.680328836777667256e-02 4.743120115584401608e-01
5.730835257576782915e-02 -8.405697965171338853e-03 5.126059556506225023e-01
5.313661283196553786e-02 3.040937934322459832e-02 4.956823569573158839e-01
3.972946743647495782e-02 -1.245625718373535688e-02 4.448268615486850597e-01
2.682059277219035753e-02 3.471129096492326510e-02 4.317752444154320246e-01
3.442758277215378360e-02 6.359233759898119676e-02 4.422171533209211525e-01
5.828811223125259650e-02 -8.813329112621479805e-03 5.063149344106424588e-01
4.806438950351487466e-02 3.855505287825689714e-02 5.067109322285192619e-01
3.477663578580134779e-02 2.175486219741958743e-02 4.384226072307556565e-01
5.512628796476270326e-02 -5.231893634256326543e-04 5.051984759106540324e-01
5.244498984671228103e-02 3.464343082052710049e-03 5.061223420485294611e-01
4.401685826664922252e-02 2.261997089665490276e-02 4.453117403985371592e-01
3.053115407665079814e-02 4.183519098567495959e-02 4.343783511151556587e-01
-1.653304711551690370e-02 3.968841842354533384e-02 4.096095738678475207e-01
4.796663545757556130e-02 3.179449972813047642e-02 5.063967589741172892e-01
8.953037688590220061e-03 1.995678347871569433e-02 4.194032596431105930e-01
5.131509552632736865e-02 6.062291256518750893e-02 4.650808958832611806e-01
2.833775946829071926e-02 -1.777231729618897194e-02 4.385213102443415445e-01
9.134926973921372179e-03 2.497956540431225253e-02 4.142301982502201163e-01
5.216192622126274853e-02 1.405229778285725824e-04 5.119105884309724797e-01
-2.189975880492982599e-02 3.574160171756678855e-02 4.138129164446850972e-01
2.931270903643554832e-02 1.101733317515686365e-02 4.358578521018818264e-01
3.276315309533599229e-02 5.567646252817696345e-02 4.366177442042566414e-01
4.890355039733532139e-02 4.681633700665750047e-02 5.033950740121174716e-01
-1.285387603737690211e-02 4.138251996823595624e-02 4.083510067703945423e-01
3.365427176113891528e-02 3.541952282267589458e-02 4.375707150601392814e-01
1.087475090382267022e-02 -8.044408620232923468e-03 4.322266277324166017e-01
-2.342292820277121906e-02 2.920910308630902952e-02 4.172531770785089522e-01
5.891605327085135124e-02 -1.022093139305046798e-02 5.033310586639541118e-01
-5.185625954843411066e-03 4.074531710650678221e-04 4.291710350526933837e-01
5.608790464570967416e-02 3.452439918231737376e-02 4.610674873756701597e-01
4.934778439912805570e-02 -4.910643713626318754e-03 4.544760327120471177e-01
2.412723386076794790e-02 6.428380377282158498e-02 4.454437037876884942e-01
-5.193390115949986577e-03 1.800975320150971504e-02 4.148097305751995978e-01
5.100310269405829849e-02 1.130065931634363294e-02 5.000107513545831717e-01
2.777344444048112510e-02 3.553024197554249114e-02 4.324930547684041615e-01
8.816488226941961463e-04 5.444663597265132077e-02 4.132419016634971687e-01
1.983562979790561703e-02 5.070418191274008585e-02 4.248349681388214893e-01
-7.878898462645250733e-03 -1.257141930931431062e-02 4.337556351995437987e-01
1.457374737956633297e-03 2.662439280461786212e-02 4.034394445934868512e-01
5.165603563674882326e-02 1.632752716926031897e-02 4.533694783878958745e-01
3.185419778089071396e-02 -3.188269837372107070e-03 4.381266349276743965e-01
5.343070212525665580e-02 1.410386156474583309e-03 5.062186682631568679e-01
5.762835270315736641e-02 2.448088008696833531e-02 4.664057147045616025e-01
5.226714565201593526e-02 2.106114694620962388e-02 4.536551661628376864e-01
-9.470416231587874475e-03 3.926741354835704828e-02 4.068778927219369179e-01
5.382264000777795682e-02 1.356542554943268933e-03 5.048159216070886579e-01
4.939545039080760896e-02 5.322524910335599269e-02 4.935230869445955681e-01
-3.535646147657007642e-03 3.598251511571504829e-02 4.037573609086573256e-01
3.233335015409505991e-02 4.924972853590525723e-02 4.354911408906704251e-01
5.791433875887672805e-02 3.079232500508283926e-02 4.736600512898391790e-01
4.486449369937473008e-02 3.788917805122470062e-02 5.119664675308306379e-01
4.860619791211490820e-02 2.970593546900474405e-02 4.496907268963390436e-01
5.688146127164389609e-02 2.726794697719795400e-03 4.888555357345660268e-01
2.213760167532056664e-02 1.681146710077394482e-02 4.307761346430439842e-01
5.590557133833867071e-02 4.582476505200399675e-04 4.974856372405706550e-01
2.383524321764633053e-02 3.988564934995994515e-02 4.285985629006772712e-01
4.463103349912431184e-02 -1.178380410374140451e-02 4.504716844163710876e-01
-1.462672387129427404e-02 -1.532354123719644867e-03 4.306864415804910196e-01
5.702259546707693499e-02 1.572850097153331156e-02 4.798499964549457486e-01
5.642815726139478044e-02 1.226889390219484607e-02 4.822949668409427515e-01
4.546054849760178262e-02 6.760683697902669653e-02 4.631688861478399644e-01
5.768675338309268291e-02 2.701429864557267774e-02 4.785181050636843625e-01
3.995784546752868815e-02 3.308527700531674332e-02 4.420635145796449339e-01
4.347773215899857630e-02 6.804686642274684893e-02 4.541933862783306686e-01
-9.992142441373445469e-03 4.996795197474234590e-02 4.090157806197243229e-01
-2.021238969654924351e-03 5.419754493833429249e-02 4.127091845781590829e-01
-2.051534086691297540e-02 4.930065975118431282e-02 4.168607674304152799e-01
-1.003592896797083668e-02 7.580197321424273806e-03 4.239642120154957783e-01
2.419266919087195017e-02 4.630482213742727338e-02 4.282887513218390230e-01
3.825925884304093999e-02 -1.333704899325999747e-02 4.436759682993456910e-01
5.731105875975078812e-02 4.129008728203339626e-03 4.761404024923260869e-01
3.537492160145284253e-02 -1.017285804121208920e-02 4.410518688070401705e-01
5.184133127070951474e-02 1.015151522056078129e-02 4.537372516463372141e-01
4.505811649425436188e-02 4.168196014367056557e-02 5.110455849852685306e-01
4.524016759639702678e-02 2.780122591057390680e-02 4.464519693067328099e-01
4.805975681046352477e-02 4.030331497250189826e-02 4.493414525934705805e-01
1.004461913411074624e-02 5.220397641197099814e-02 4.153539048553719359e-01
5.759210589079648973e-02 2.079045258151029918e-02 4.707272251295556154e-01
1.017289877729768248e-02 5.924713612142640251e-02 4.211684483185076378e-01
4.243500874864807731e-02 -1.802255808254461800e-02 4.491458302940419811e-01
3.626917355751802657e-02 -1.364697706554870819e-02 4.422007286110365976e-01
5.290727295391328688e-02 1.055372734065541072e-02 4.956463557937474396e-01
-1.818055909437838943e-02 4.738507061390028613e-02 4.119301508583143034e-01
1.715248536424061540e-02 4.207799818174168260e-02 4.215191509295446726e-01
4.196351467182012074e-02 -1.752168687509678482e-02 4.483026989600195078e-01
-2.003510636017016844e-02 3.045161944378535143e-02 4.148231860047723596e-01
5.479501306880643630e-02 2.419281633496831591e-02 4.898860308833305477e-01
5.318148587786911997e-03 -1.054432243817061271e-02 4.322990402376274965e-01
5.117930932267527461e-02 -1.811228398288790287e-02 4.659509033633878472e-01
5.042065168387368373e-02 3.002979671948854262e-02 5.013216808232943134e-01
4.629656726838839859e-02 4.532026720389978336e-02 5.083662365170993347e-01
-1.543316211698718930e-02 3.268065697318461860e-02 4.113381828304020216e-01
2.737614714274572494e-02 5.425947289367230586e-02 4.313956107278724694e-01
4.030367950291527390e-02 6.730550381895394896e-02 4.504039184919842453e-01
9.412415623398473832e-03 -1.107193929055316772e-02 4.329784321757271237e-01
2.756744021472651643e-02 8.974573736180452982e-03 4.354861491551025310e-01
2.858384553135836018e-02 3.542537685310975099e-02 4.332132493887859148e-01
2.977117948678184578e-02 3.278999094656065427e-02 4.344449337950635481e-01
5.452249902491800027e-02 4.689037625999471770e-02 4.826274939232392258e-01
4.848666201880991872e-02 1.526817346131970413e-02 5.040652672668373135e-01
1.624966681039522950e-02 5.436152689699905866e-02 4.222196388137373635e-01
2.051073818268983606e-02 3.494018254932355905e-02 4.257917511965449431e-01
-2.516841521199097639e-02 2.512416647164173594e-02 4.199297970971067606e-01
-7.672812325216953402e-03 1.499681420779123628e-02 4.186069937441122546e-01
2.308564245245376539e-02 -1.427925656689972740e-02 4.360471788121828007e-01
5.485753800900409344e-02 3.609448251141248593e-02 4.920348385169852623e-01
-5.229183463416636757e-03 3.604313353967338041e-02 4.049551618834643096e-01
5.501721287878040545e-02 3.530330208773581682e-03 4.964474953753666431e-01
3.082566507398386280e-02 1.987053348991210840e-03 4.374967353361126077e-01
3.986361005237044897e-02 6.815245744323281119e-02 4.662603992701881417e-01
2.663227910584988617e-02 -1.988304919682630165e-02 4.384594573059473754e-01
5.736088815340919383e-02 6.916556557359784113e-03 4.788885318390679879e-01
1.139917752020599973e-02 2.931460399382594326e-02 4.139261584181366249e-01
-7.432234738340254623e-03 5.400390096880390567e-02 4.140898392631653935e-01
9.611599395169274224e-03 -2.266636726786756470e-02 4.377852016022799608e-01
-3.231744572522328961e-03 4.476816856446771270e-02 4.063525314385854625e-01
-3.314229339997287402e-04 2.022915233986806449e-02 4.120298896092247642e-01
1.847903647395859536e-02 5.827743108092486163e-03 4.325476393200295422e-01
-7.859589055547384559e-03 3.212273108413447875e-02 4.083213050323608595e-01
5.289858637606787567e-02 1.642030388405860131e-02 4.933400822047137591e-01
3.483269224470038339e-02 -3.051317723773806518e-03 4.400465752291566335e-01
2.044786685000514817e-02 2.341804047344201931e-02 4.276914619964714004e-01
4.225294889711708052e-02 -6.990833671168559214e-03 4.466371366020093769e-01
3.069044664329168004e-02 -1.453529037602537509e-02 4.387367393487154876e-01
4.939691568291969953e-02 6.079774270720068180e-02 4.563191353721968158e-01
5.724855138953170025e-02 1.406615933668199300e-02 4.776455782871978362e-01
-2.374232423617338855e-02 8.938573594487100177e-03 4.283812755346351198e-01
-1.526622658565977668e-02 4.577294327392913108e-03 4.270747577899249858e-01
1.910842820720564522e-02 2.493054071676745545e-02 4.262300263888496588e-01
3.478488756408841531e-02 5.259889141183936301e-02 4.377597450762792941e-01
2.067144295842496260e-02 5.425059543579924953e-02 4.263322616330661452e-01
4.399695641018830372e-02 5.550024835762003284e-02 4.958224014776068111e-01
4.112455797213157571e-02 6.760669243312224241e-02 4.741274113509634236e-01
1.502910256774933270e-02 -1.152010938349124283e-02 4.337154480616248198e-01
5.564389137620753822e-02 3.512721359509968135e-03 4.929017008054948357e-01
5.778163141728986235e-02 3.054897188795377763e-02 4.672007140396418623e-01
1.853690914777048407e-02 3.397415458396053217e-02 4.235982583823921233e-01
4.724971257622281873e-02 5.153889481837312103e-02 5.012945085662700029e-01
4.144390870796117732e-02 -1.530253830415586691e-04 4.449836127848821876e-01
4.661791485549666297e-02 2.134960809680030644e-02 5.087911305167089893e-01
2.358547856490289529e-02 5.897811302946434631e-02 4.318296106267635603e-01
5.273220856420251373e-02 6.931965742984592255e-03 4.990773568675485050e-01
5.715052185623415576e-02 1.105905825347831134e-02 4.773129572832520151e-01
1.692306294194236005e-02 -7.565777037842166992e-04 4.324998859828533826e-01
3.315789650211557055e-02 5.355642565521815529e-02 4.363128041077436459e-01
-7.815248819310222431e-03 9.274327236641956643e-03 4.225187132490311748e-01
-3.481998135889285972e-02 1.745944616534973737e-02 4.344146723736224680e-01
4.942636713836892626e-02 6.383657547144239164e-02 4.696250189158717725e-01
2.200823836322122681e-02 5.567671281984059445e-02 4.276185125165875567e-01
5.639749114627436166e-02 2.513569739799925533e-03 4.907710722212376142e-01
-4.785844847891599849e-03 2.446184139559383006e-02 4.097241566177042271e-01
-2.514669851158637254e-02 9.988011639793119290e-03 4.286372145037312120e-01
4.290075633247007053e-02 6.774814140669804807e-02 4.670890139113211270e-01
-9.502168079100746859e-03 -1.347750706290363511e-02 4.343463069832713686e-01
1.790236263633645727e-02 5.005108752339910289e-02 4.229404860949702583e-01
6.741628064760117785e-03 4.328931485751353475e-02 4.090740182124704694e-01
-1.280360216928914247e-02 3.121250626645133766e-02 4.107715930075618860e-01
5.617281995024038521e-02 4.113256005420181521e-02 4.780343315427625361e-01
5.429812328652883907e-02 -9.830749994850077056e-03 4.688318245638006809e-01
-6.388624271302515908e-03 2.654022652552373920e-03 4.277982385654645059e-01
5.621847600367611136e-02 1.958149760159092617e-02 4.841100146263589976e-01
1.669537851176617141e-02 5.976168411493968519e-02 4.292013901494975414e-01
5.424331189956387717e-02 1.455963725038126114e-02 4.897058221724944760e-01
5.205064227651721998e-02 8.563883562917162101e-05 5.122375746287913811e-01
5.138031382590476509e-02 4.173450616551514260e-03 5.080263382383404247e-01
3.878701005981911865e-02 6.197355313228976315e-02 4.442115541727579830e-01
5.462768750809027241e-02 5.103654723082795552e-02 4.728994146308180824e-01
1.646541177645371307e-02 2.115228867517587874e-02 4.247147721476075555e-01
5.789027991385922028e-02 2.697405229981952521e-02 4.767284114163007347e-01
4.769542950847369817e-02 7.081071335795476908e-03 4.493142222118807205e-01
-1.421571228437103207e-02 2.108977452633659447e-03 4.288007994782090937e-01
4.888806267209488271e-02 -1.811898118709810712e-02 4.606139309408556759e-01
-4.899052709070477775e-03 4.674414388919972962e-02 4.070097975027726633e-01
3.590782065363033737e-02 -4.596165200869114023e-05 4.406062760406642131e-01
-4.040726729849271857e-03 1.982451107560353337e-02 4.125351088606836192e-01
-1.199469425704077427e-02 4.334987043017689452e-03 4.264394088884864709e-01
3.545076728209009889e-03 6.054982635055435741e-02 4.186999764923888812e-01
1.156059328582323582e-02 4.377865465402830392e-02 4.143593908895423783e-01
-1.623726751561245518e-02 9.558239357066716096e-03 4.242638156747476907e-01
-2.318182677063217872e-02 3.958058325170443932e-03 4.300827662229325665e-01
1.067359098682448687e-02 6.165605896376953610e-02 4.312757160188719352e-01
5.242207371172764863e-02 -2.124517967199575710e-02 4.693931939005053788e-01
1.183578844620098705e-03 9.589353963148812554e-03 4.233866159069139545e-01
4.950325867942751562e-02 4.922107411177938791e-02 4.993084797081407955e-01
4.405068102303743433e-03 2.224249729455484229e-02 4.102296567384143833e-01
5.016037493804996472e-02 2.830480598465700409e-02 5.013650247801807458e-01
5.668903906301479834e-02 -7.671084320065672639e-03 4.765219413666971215e-01
1.113700712578021348e-02 2.886071369371231640e-02 4.135479386325822682e-01
3.878346891475929932e-03 2.308183162757945772e-02 4.087441096111755212e-01
2.993592465880102506e-03 3.166197905029940335e-02 4.012315695627503565e-01
4.491608231549863023e-02 3.739686643959366785e-02 4.460799327259639679e-01
5.574783568191574862e-02 3.664901694333581872e-02 4.881562736307147321e-01
5.812685902897890555e-02 -5.817954515718544439e-03 4.934257714069831269e-01
1.918372452602162825e-02 1.209845932101911818e-02 4.305010699744868385e-01
2.557784098850655885e-02 5.765912516048506825e-02 4.319801754221693213e-01
5.283310588910004185e-02 1.034930138418794360e-02 4.959781623846112875e-01
3.391455109672318786e-03 4.518315789287993128e-02 4.071777596588103121e-01
5.143843737605926364e-02 5.687559957328799931e-02 4.766662031746682349e-01
3.192134272679857110e-02 2.260650536072239536e-02 4.365010318380290189e-01
5.750596300486197909e-02 -7.710377938497896613e-03 4.812894822475356493e-01
3.508260734315210572e-02 3.305841326299539806e-02 4.385608876078821439e-01
5.206767188098638394e-02 4.042045597881818719e-02 4.988953036290471599e-01
2.207396723344381972e-02 -1.200848758509900742e-02 4.352925527700386432e-01
1.347341215304028415e-02 1.690425147164424657e-02 4.243897701863900696e-01
2.358235499566029708e-02 -6.250155035002756196e-03 4.347191574744090903e-01
-9.782655530288050794e-03 4.063757384082716806e-02 4.074731169171346146e-01
3.034908296363243371e-02 4.477273214954734237e-02 4.339747146943234712e-01
3.788226637259730495e-02 2.449643315857904027e-02 4.404816007795111510e-01
3.683995967242380265e-02 5.191275459297669398e-02 4.394985833534558184e-01
3.948248853194191027e-02 6.770737154416642256e-02 4.728910717796852015e-01
1.870799366880997183e-02 1.571372708690455672e-02 4.288252306385959556e-01
5.400141422964015864e-02 5.166817476026666633e-02 4.594896884699478656e-01
1.018124081892412408e-02 3.161871486869703013e-02 4.090478068175744109e-01
4.583455539179038390e-02 6.469310213379333985e-02 4.529713137327540107e-01
8.135473159714599889e-03 -7.986446490241636692e-03 4.319134354550824284e-01
4.571930563425063987e-02 6.543116525800954375e-02 4.537179294265769047e-01
-1.744555312210378101e-02 3.719954381836657747e-02 4.108167594940535516e-01
3.907833342392500603e-02 5.358866510970934638e-02 4.416944969903230933e-01
-4.826423692885703498e-04 3.377635492695984371e-02 4.022665143539967403e-01
4.716934018893852859e-02 8.217246365459464005e-03 5.120777781382832572e-01
5.586810247269870938e-02 3.810782958415526167e-04 4.682142790224392837e-01
5.003312844413426025e-02 -8.531052062616117926e-03 4.584082451423165949e-01
5.304726954087737867e-02 1.579109458822784695e-02 4.929932465274748377e-01
3.271922103785236680e-02 1.468542934074228493e-02 4.374698794246901223e-01
3.516435505009873203e-02 2.525171330021915711e-03 4.396620094690688041e-01
-7.830048004789888147e-03 9.495709091925824338e-03 4.223977299405087815e-01
7.779967673018667318e-03 5.297446628511418704e-02 4.139035974164164133e-01
5.177199068424453293e-02 5.785269746411603881e-02 4.722094872861067882e-01
5.115178657926108124e-02 -2.300712562192497312e-02 4.670230565287641356e-01
5.304999731394715451e-02 5.544445818446870622e-02 4.705654829354076196e-01
3.968792075866348773e-02 -2.801503128027637429e-03 4.436803006571274910e-01
3.572701970398893534e-02 1.869756653890071452e-02 4.390781460724793028e-01
4.642666359675451382e-02 5.817034247121456725e-02 4.492554572174259353e-01
5.454326407721461767e-02 5.179205519365585181e-02 4.692337050364958628e-01
-1.838217735732682739e-03 3.210168547710068321e-02 4.030324530167648245e-01
2.725037420099367391e-02 4.955472740694526895e-02 4.308403272051193333e-01
-3.471279892556424634e-02 1.616733023673606190e-02 4.351648094107732900e-01
2.295913494614753789e-03 3.021690295955454641e-03 4.285283902729702943e-01
3.572772135026979629e-02 1.188759159096080056e-02 4.391929326817932133e-01
1.256719073701064240e-03 2.829922673186337917e-02 4.016052667508752116e-01
4.076762419452017311e-02 5.342887288324943071e-03 4.436552615068590777e-01
4.832891529883356213e-02 3.948723549949545442e-02 5.062127147083496093e-01
5.536186516207491914e-02 4.614245285790634366e-02 4.771357653569268109e-01
5.884613332505282332e-03 -8.011901827145052196e-03 4.316775194024755069e-01
4.747752732098203809e-02 3.287694333683164466e-02 5.073226552638764320e-01
-3.032033044910777825e-02 5.715873991417074959e-03 4.337650031882330781e-01
5.180137576539366184e-02 5.935689714827196289e-02 4.671381529412390599e-01
1.864348162524280539e-02 6.126719314245478859e-02 4.370507182241486488e-01
5.527852385235977606e-02 -7.826793719391503257e-03 4.703895763070519154e-01
5.314386492004379015e-02 5.373347881520523783e-02 4.766674663843535331e-01
3.013190521889136733e-02 2.912491905508963683e-02 4.349702260939779519e-01
4.752717852023003592e-02 -1.501230585030165557e-02 4.561006733641848609e-01
-3.454085002631982274e-03 5.511033223824662181e-02 4.148092623902744358e-01
6.220362768568936038e-03 3.935505084146554561e-02 4.066094262128355785e-01
6.852079662986176878e-03 5.345002723011370999e-02 4.135780003911405101e-01
-2.067314101872276544e-02 3.612722864734618788e-02 4.129770935954093503e-01
2.946062800877365107e-02 -2.025536779275032701e-02 4.396223923556031865e-01
5.192510004182273459e-02 3.327961984072991264e-02 4.988485795035723092e-01
4.832407883894442036e-02 -9.832169509156463497e-03 4.553693923187491777e-01
4.842203331068653527e-02 3.336793229857014376e-02 4.494453539496487404e-01
3.203012628843899135e-03 6.097135643907260899e-02 4.198228576277163171e-01
4.184099577779118451e-02 4.633544315994350682e-02 4.433228472106157669e-01
2.411915948226817444e-02 -1.979215342914447326e-02 4.376419971566603007e-01
-1.157087079203337164e-02 2.222672561224597887e-02 4.151979336237834328e-01
1.091831850585789007e-02 3.706410362101134059e-02 4.128768562990964286e-01
5.650816497495188273e-02 -2.728411359702457954e-03 4.993504370619357702e-01
5.240586043857011628e-02 3.420417484450377632e-02 4.542881997980997011e-01
3.684224175574832977e-02 1.272769278455210956e-02 4.400069890607862244e-01
5.770820420420944702e-02 3.864849835332967790e-04 4.824352164952491751e-01
2.699575130477852025e-02 6.508579589719908076e-02 4.469128885705508369e-01
-3.580795190334797734e-02 1.025059121735017505e-03 4.378081563349218164e-01
-2.196647918284293927e-02 3.050360029489367769e-02 4.159096958073472128e-01
4.735304206866568916e-02 4.604778067138416003e-02 4.486651147050945143e-01
3.898366897824721844e-02 -1.636646507521238858e-02 4.450646931714870580e-01
5.137586383169336079e-02 1.359224521812258356e-02 4.531172803249715608e-01
5.408024955361272895e-02 4.089481498312576985e-02 4.935669718216973978e-01
1.514264968315716040e-02 4.210645509071118953e-02 4.192572164829898029e-01
2.250974343686433510e-02 3.299566893497435371e-02 4.277839194473944118e-01
4.731449357057247729e-02 5.809401135384152648e-02 4.864739742327467975e-01
5.370277428246100770e-02 4.963901937231558759e-02 4.843779103167628608e-01
5.720901706225169081e-02 2.474693987629915382e-02 4.814665605484261812e-01
-4.187957624809832136e-02 -1.064318211423059910e-04 4.411886012031312476e-01
5.546377895726518903e-02 4.030011012308409163e-02 4.603238782728527045e-01
4.536696128358289754e-02 -2.100444849122725180e-02 4.551579896332603181e-01
3.472880794088047812e-02 6.765167313373193769e-02 4.486883502835100068e-01
5.534079740315277912e-02 3.598102488712873193e-02 4.905423457593844350e-01
3.023366029477829453e-02 4.865442657593675030e-02 4.335863864397666023e-01
3.438334820628984739e-02 3.924994172259313463e-02 4.378455029363437223e-01
2.320081563800546406e-02 6.242068899738052734e-02 4.394041019654884028e-01
8.736170227965175950e-03 2.337874316506548950e-02 4.152925796950135973e-01
4.180270463911164164e-02 6.757409862194549421e-02 4.738731567051030491e-01
1.125563625109377540e-02 8.215729887077806784e-03 4.284718527824539214e-01
1.756923147155512246e-02 2.501055541790489847e-02 4.248010081993817133e-01
2.556268834901559081e-02 5.327216938872150059e-02 4.298287442018221549e-01
4.290263700260418811e-02 2.372752619027848620e-02 4.442542592271543911e-01
5.723791500294408974e-02 -4.797389640696833255e-03 5.000956143254423614e-01
5.650621615664429276e-02 1.713709864376597751e-03 4.913653101623350339e-01
-1.842724444887927984e-02 -2.467847373204816452e-03 4.319454066270720372e-01
2.145018288851844104e-02 6.181174729449530336e-02 4.381489125698699860e-01
3.198747205223306106e-02 6.392383981848172303e-02 4.408976905687526648e-01
2.521906381594627919e-02 1.431739262776187196e-02 4.330148064562205912e-01
4.929825625570713465e-02 -4.809607871552146890e-03 4.543700375933196756e-01
-2.300450268491787721e-03 1.527992539348115887e-02 4.181645628852820873e-01
5.147064964138440418e-02 1.004762088019441101e-03 4.558214064919707265e-01
4.683479660687039914e-02 -1.162248483275605399e-02 4.539753278826252347e-01
3.976032488018604871e-02 3.687297688997235451e-02 4.418441978173455187e-01
2.494687942318157825e-02 5.165292675704414443e-04 4.350690139996177264e-01
2.618894649456782533e-02 -1.321001082678107015e-03 4.355846329534232564e-01
4.978853517340408458e-02 -1.067648996858356833e-02 4.594194634768564156e-01
4.898011923583137778e-02 2.238906643821558101e-02 4.501518293082946709e-01
5.708949668480624295e-02 3.440220962904819851e-02 4.799739688544917282e-01
2.938190553778883413e-02 3.499041036979448627e-02 4.339460685914607874e-01
2.412372422373977240e-02 -1.118271671417324711e-02 4.356665128264027298e-01
4.843065424117741491e-02 1.783655661072070311e-02 5.039136597665021533e-01
-1.916659292472451667e-03 7.854813487165920871e-03 4.241314250272233966e-01
1.706780565659318447e-02 -2.046115424179419801e-02 4.365969682075620528e-01
2.913281916133282287e-02 -1.779056970726276832e-02 4.388071117968734280e-01
1.705126911917615243e-02 1.972893277631346601e-02 4.257082136329000122e-01
-3.289981641842537607e-02 1.285193916150799073e-02 4.335356509952429382e-01
5.202375374981048350e-02 -1.392404231438700013e-02 4.659801996788905942e-01
-2.546948102251794105e-02 4.050854654002325472e-02 4.166674704869679502e-01
4.231024301034464613e-02 -2.075183401146560996e-02 4.503415259483067867e-01
3.968464862283601485e-02 6.013570793197925424e-02 4.440565453123672679e-01
3.321244464524840401e-02 6.200275255258963503e-02 4.405951944958121924e-01
5.724960069818105929e-02 2.321972663747164795e-02 4.642314039958100880e-01
4.666744074146522703e-02 5.153342744110117613e-02 5.024418117554638741e-01
4.084542003800547411e-02 -4.646511318513305878e-03 4.449255294368296698e-01
1.596658527767271310e-02 2.286338371702359429e-02 4.238477234629612345e-01
5.181683175781331974e-02 3.855595334648782846e-02 4.996911932005697055e-01
1.287121327739118234e-02 2.249454441764579034e-03 4.311178117214177208e-01
9.457039504350221726e-03 3.148170526708666400e-02 4.072518879027069993e-01
2.233340811772564771e-02 5.775197994968548493e-02 4.298361707675047994e-01
-2.093593818837103521e-02 2.175340493691702015e-02 4.193601308659661853e-01
3.350469792324170526e-02 1.609433867246957278e-02 4.378795013576080031e-01
4.363521105720880033e-02 -7.552770960381262680e-03 4.483183993883147478e-01
4.613386547496643730e-02 1.158069271498252291e-02 5.111436346594003810e-01
5.739018063964718835e-02 1.778905094263426301e-02 4.745404796468677411e-01
4.201940321421063912e-02 1.082500045717854631e-02 4.441485804140161142e-01
5.227093284259934532e-03 -1.631433085559472196e-02 4.357048710843922645e-01
1.697132095934312385e-02 -8.991590177314574307e-04 4.325138254811904948e-01
5.167862792151307894e-02 4.628070599614921010e-02 4.967287451156509048e-01
4.852214720324175140e-02 3.025043841574697953e-02 4.495949630212134895e-01
5.715338911136576272e-02 2.021881977274336828e-02 4.645472193850540554e-01
4.313171927058714883e-02 5.148490010002610556e-02 5.070911860868725363e-01
1.496749964823306661e-02 -7.809172432577594046e-03 4.328173971727135028e-01
4.739091344466882932e-02 5.456396567621354249e-02 4.956273797365628453e-01
7.145839752453449559e-03 3.249252630205762271e-02 4.024777016583208633e-01
2.287172362425043265e-02 4.635173658239204186e-02 4.272827798751341333e-01
1.922306828166902171e-03 4.447212141423115966e-02 4.067133883137807882e-01
-4.243621969618879483e-04 -1.520512638129784856e-02 4.341432847848338827e-01
5.066077135755072541e-02 5.664621186003973574e-02 4.808289242394948593e-01
5.705673554043901030e-02 2.792559651668063969e-02 4.838210177066148976e-01
5.638980515343191419e-02 1.098335486160058674e-02 4.829909711124800720e-01
5.056611508997529980e-02 5.473752170369382969e-02 4.533159769122693805e-01
2.502527072993877486e-04 4.617539069504249249e-02 4.068503719997043078e-01
2.956505913254400819e-02 6.375771724795330220e-02 4.396076717389775235e-01
-2.252895872608780964e-02 4.369085415186460541e-02 4.135341276734601501e-01
1.748652655302852105e-02 1.161217283130036235e-02 4.299746033594313843e-01
1.840519095149991888e-02 -1.614151058577046466e-02 4.356504461827085950e-01
4.710047021937503742e-02 5.837973209091312093e-02 4.501706284188903839e-01
4.909898947940063291e-02 2.500047274242067630e-02 5.030248888542174779e-01
4.296974868332120723e-02 5.638500878410854233e-02 4.943854671369432019e-01
4.837756120692423417e-02 -2.000285343058419082e-02 4.603943200493309518e-01
3.984821035290614551e-03 4.090720546440543975e-02 4.052038740819429163e-01
5.730422035076774417e-02 1.407192395539802812e-02 4.736354480499292419e-01
5.353107429781472915e-02 5.311374948756658609e-02 4.750141566980241592e-01
4.242413402144060847e-02 6.629616593722283124e-02 4.768028772498108525e-01
4.831408996984536131e-02 -1.698970937402616635e-02 4.587552499196675959e-01
5.715814861611231978e-02 1.449934226126703418e-02 4.686730961824760455e-01
-3.751487685550337382e-03 7.750641771558122034e-03 4.239951903407548350e-01
5.556628095520228794e-02 1.264540540765643831e-02 4.859836164251521429e-01
5.799425720489741892e-02 -1.136575011156809589e-02 5.130651879642043056e-01
1.876618504991183628e-02 4.029209309808825905e-03 4.328750762035275534e-01
1.234781519553574194e-02 4.283775062653341625e-02 4.151421600760681341e-01
3.547398778659054813e-02 4.773381981494165607e-03 4.395540711981352211e-01
5.173317457987210849e-02 -1.279437363999812085e-03 4.576668811624667876e-01
-2.528290424367909267e-02 1.408345707602543309e-02 4.265608649691417509e-01
-1.668498888644503325e-02 1.230267488185525157e-02 4.230123674306056625e-01
4.115893665580418886e-02 -2.297106414242336761e-03 4.449095498432776852e-01
-5.431340608534852496e-03 -4.145861898483744687e-03 4.302580458391976892e-01
3.253683318449960421e-02 3.980700457303629203e-03 4.381313982542824892e-01
5.549157027068412490e-02 -4.066639921064582608e-03 5.115602869675568432e-01
5.640837010912582578e-02 4.348657491605835423e-02 4.692131801304806338e-01
5.327702557897100871e-02 2.473621933467077746e-02 4.545849555819213017e-01
5.888461364486933386e-02 -1.065137313253019385e-02 5.074299856691475430e-01
-4.088009593054672819e-02 2.422791944022570712e-03 4.479845152181071710e-01
-1.175815386258670554e-02 -1.194585600851616469e-02 4.345166815204918320e-01
2.877553908488249615e-02 4.039498264042936521e-02 4.329520613547652719e-01
5.646473658074774998e-02 -5.903094558785201493e-03 4.736573610451393357e-01
5.438410545687252795e-02 4.595957201862203162e-02 4.860004473404366809e-01
2.322152360397786858e-02 -2.261458372982486087e-03 4.343243108239908667e-01
1.086721916337845054e-02 6.061453484780689183e-02 4.263206257732293225e-01
5.070975949480620130e-03 4.359839721628770010e-02 4.077264076742591059e-01
1.684407345724056940e-02 2.033287093506887244e-02 4.252580223584657704e-01
5.195125831589771787e-02 3.546305506993117224e-02 4.538303805307122851e-01
-4.047640096419456712e-02 2.154025793910628594e-03 4.409210979585070911e-01
-2.022653563727654091e-02 4.891325419102809935e-02 4.158601431110252600e-01
2.260963625629869994e-02 3.934827945209018463e-02 4.275369221983814083e-01
-2.215047253176039965e-03 3.727482720000936667e-02 4.035759499791619076e-01
8.577675121259738245e-03 2.876589207726883146e-02 4.075581976821134877e-01
2.918425321553748050e-02 -9.618106669415864285e-03 4.369558711130753781e-01
5.541595946118601373e-02 4.140499440728926533e-02 4.603023434543063175e-01
8.787895049237465228e-03 -1.671434266014295948e-03 4.308339278773886116e-01
4.279994903033321196e-02 5.423274150233190621e-02 4.451620438724602224e-01
1.170752774340294219e-02 3.998869448874688842e-02 4.138511193986736947e-01
-2.709664495639196174e-02 2.829021569366929265e-02 4.198516516085083472e-01
7.058643816123009312e-03 3.850166438467218788e-02 4.074974500603253391e-01
4.840235062002067046e-02 4.391964663107083416e-02 5.053391719287618766e-01
-7.578916812079559626e-03 5.051443306632998065e-02 4.098618847416615196e-01
3.545964180346640460e-02 1.805304255844640549e-02 4.389594551590159099e-01
5.544962680807605931e-02 1.797199841334723783e-02 4.865395430768792440e-01
4.178374466690668032e-02 7.002001048731926192e-02 4.527406917862351055e-01
5.515063406935322154e-02 4.910964432300982119e-02 4.721556427365222186e-01
5.419203537124810816e-02 -3.368796579746053104e-03 4.652857772737176711e-01
2.426985640967387753e-02 -1.376948731224518323e-02 4.362227226737196983e-01
3.252393554644358864e-02 1.166009610971356809e-02 4.371469910254805469e-01
4.280675103288627409e-02 6.777638292615867366e-02 4.657238994301629575e-01
3.310873707389018483e-02 -4.017405682357907092e-03 4.389056069126541781e-01
4.572437712553525935e-02 5.972406729400338288e-02 4.490823112800560457e-01
5.135861340083877624e-02 4.319915938903458145e-03 5.078770788242791268e-01
5.489487463243545445e-02 5.026628238566550194e-02 4.690428600920759639e-01
-1.100710046986543011e-02 3.630132965952282548e-02 4.082647064963351169e-01
5.289683354564497092e-02 4.542598086723181709e-03 5.024400860032910421e-01
5.399631922595308359e-02 -3.160074648116999434e-03 4.644715127819399880e-01
9.460508473186069606e-03 6.056100278214418542e-02 4.245056831168598777e-01
5.703209708642550252e-02 3.911299515228702783e-02 4.723307393773760743e-01
4.026273149827380021e-02 -1.019983062021701491e-02 4.450751653488197457e-01
5.367175779351047310e-02 5.097854981839497479e-02 4.569219768016600791e-01
-1.182602752956073491e-02 3.833918542084912423e-02 4.078687573338755645e-01
2.142228900830527374e-02 5.376681018390004618e-02 4.267977771907466855e-01
4.614839073732005664e-02 4.322623137803500298e-02 5.090662871580572402e-01
3.834662092584192189e-02 5.824190013431043700e-02 4.422835302065420970e-01
5.762673050118206214e-02 1.084546076461443548e-04 4.876563258570421056e-01
-1.670193413973033308e-02 4.434935600868254724e-02 4.098587290587376586e-01
1.450581754643155002e-02 2.170332412644454534e-02 4.227877853150130427e-01
2.265929494022065477e-02 2.081020191898238364e-02 4.300404393639200018e-01
-1.391986010377368327e-02 5.224088209680901110e-03 4.262185238753392058e-01
2.987880363763116554e-02 1.655072046332043550e-02 4.355974888862731431e-01
2.548847901202310612e-03 3.928728494618726613e-02 4.037688665800835408e-01
2.869183317988365650e-02 3.533875648952919390e-02 4.333143838283138871e-01
4.987126441890275125e-02 5.283034636042190958e-03 4.519008120351644675e-01
2.850234918520568039e-02 1.969870012814574009e-02 4.343999374590486462e-01
4.875303260705733666e-02 1.383418722823955352e-02 5.041421274338283576e-01
4.546019254658999198e-02 -1.156922399964899553e-02 4.517385184998521930e-01
4.557138526577476922e-02 -1.319136560561018356e-02 4.524236108720275928e-01
5.801309033487143246e-02 -6.928428937127818418e-03 4.861041044989572457e-01
2.227536741154893980e-03 3.114632113605863423e-02 4.011154999627022932e-01
5.172882809356344619e-02 1.148202394851146821e-02 4.535804999210412691e-01
3.806094325920659355e-02 1.014008239341846786e-02 4.410146383238440215e-01
5.740103317466594551e-02 -7.236463457002871580e-03 4.801171327711888370e-01
-2.121434142676620338e-02 4.111569499346309775e-02 4.120065479374573902e-01
9.727069755453102498e-03 5.309542206608904719e-02 4.154740449688167359e-01
5.424419697133190527e-02 2.242444704027908575e-02 4.904594515602618277e-01
-3.530256461186864064e-02 1.325052143535617073e-02 4.380174190216092334e-01
-6.327002119610445653e-03 2.016342193682607586e-02 4.140636531426719058e-01
5.573270514091128308e-02 6.356144149941243653e-03 4.895544446041513731e-01
3.142038844912692364e-02 1.366753156337638907e-02 4.366156617431807829e-01
4.293513757626196692e-03 -1.804182640575010058e-02 4.363441929383785056e-01
4.709621489801845556e-02 6.412073602206717904e-02 4.766210504392007219e-01
4.912171617621165914e-02 1.943466411455910953e-02 4.503201397123762217e-01
4.572331824222031910e-02 4.322636534300799277e-02 5.097168153350174480e-01
5.422525793265561833e-02 4.480829874005436142e-02 4.891111905005790517e-01
5.585344323983514048e-02 2.501826918699150831e-02 4.603503225916465436e-01
3.639800741221388414e-02 3.166948578378639412e-02 4.394371992318985565e-01
1.110549388002994055e-02 3.010844410117313394e-02 4.128124457384108603e-01
4.382142243416742300e-02 6.544215404210101950e-02 4.776659762402130083e-01
-3.403833031194147124e-02 1.785588866855514212e-02 4.324187267275164115e-01
-7.013151779881801953e-03 -1.034258083358550843e-02 4.328424173535085906e-01
