5.812798666966226269e-02 2.918365739065751502e-02 4.733519939896400075e-01
1.224205141375333747e-02 4.782715292335270457e-02 4.154960718399288155e-01
-2.839083130816208791e-02 3.461000089889692405e-02 4.184804584348728040e-01
-2.670295844845651384e-02 1.851566528653687468e-02 4.239719882523916850e-01
5.651657813507017514e-02 4.387555376864296641e-02 4.685244657189395201e-01
2.707841491912746368e-02 4.684708895208933993e-02 4.302300180960883513e-01
5.659106778695856266e-02 6.503076052256837741e-03 4.678827085711872447e-01
1.808001860779888045e-02 5.660921555943729602e-03 4.322388607430149299e-01
-3.065164291871066982e-02 2.221681450567820557e-02 4.247779531339445636e-01
2.818991880055535942e-02 -1.133113150145636031e-02 4.368776385696468978e-01
3.118547326241735695e-02 2.302772394745225548e-02 4.355755670697106785e-01
8.233441552435648639e-03 2.372849780075885276e-02 4.124533691249220313e-01
-3.662797875569182710e-02 2.299214211854041633e-03 4.375794085242210030e-01
5.805669757399669478e-02 2.419151020109819999e-02 4.754044384087258157e-01
4.384249967302887574e-02 5.297695631443084807e-02 4.453961022675377857e-01
4.889414052303818481e-02 9.906149834453441619e-03 5.063656603216453167e-01
4.847954609090642658e-02 9.215957242095966853e-03 5.080262646807059967e-01
5.522775033092272579e-02 -7.827607610253962261e-03 4.696813389064825595e-01
-3.426041076909358551e-02 2.048452129228224561e-02 4.309345996625568165e-01
5.755545593056549114e-02 2.833568901285905481e-02 4.807766864082803626e-01
5.307603544945116436e-02 2.687097635009425001e-02 4.950088640112593197e-01
9.512276212168655105e-04 1.387852564280046830e-02 4.195347639903963533e-01
5.762985765473001287e-02 -6.648598862389324370e-03 5.043026267203397639e-01
1.610599816058908354e-02 -1.896728765120490922e-03 4.321630204457571622e-01
-2.864381021923430651e-02 1.910324070255715184e-02 4.248188011039636391e-01
4.487970428320839367e-02 6.746851055425516497e-02 4.642968919441802789e-01
1.956819895105910839e-02 3.676042081969668491e-03 4.329628320111113537e-01
1.224841455161058273e-02 4.553152869887918536e-02 4.149073410145111551e-01
-2.430652966146672200e-02 1.005155127531258408e-02 4.278954626824038043e-01
4.656414427164089903e-02 5.814405820093832000e-02 4.879819984503800945e-01
1.318396316432592259e-02 5.749552664792346307e-02 4.213201926859967972e-01
-3.302992162421806727e-03 -1.444091277683005881e-02 4.333880845759930933e-01
5.684810645838119306e-03 5.504596329190418469e-02 4.146010578736508689e-01
1.194019374227275193e-02 4.934155505479717596e-02 4.153213830379287042e-01
-2.286081040779495283e-02 7.943443305367206900e-03 4.283667163204362138e-01
5.592943680894949671e-02 7.378041932066704313e-03 4.645558543781060923e-01
1.210583963788636891e-02 1.019514253381622639e-02 4.274103817182695053e-01
4.557337097745182281e-02 6.736786505842966288e-02 4.651394072033798177e-01
3.477999257840774794e-02 5.948836799019097815e-02 4.398771615990588746e-01
4.501435356111785357e-02 5.109348491819396682e-02 5.062158080539053140e-01
-5.921185216430426348e-03 4.998697011199672302e-02 4.085534695614033707e-01
5.789936564933342855e-02 2.607936473008814690e-02 4.784886345091012294e-01
-2.478600751881692571e-02 4.519189214263817471e-03 4.304449228114933246e-01
-2.853236384839062667e-02 3.972275700073952739e-03 4.326544995552187856e-01
3.916501453819088568e-02 9.513710958705276499e-03 4.416342197359177657e-01
1.258148100719422985e-02 -1.073815201409861024e-02 4.331384189674241103e-01
3.165151274451735025e-02 8.692174709590938519e-03 4.368132916039433877e-01
2.086423581241821784e-02 3.262286549239411249e-02 4.255209016750353124e-01
1.755147296925705161e-02 1.100845066671947252e-02 4.299328528401968885e-01
4.731655116891646078e-03 3.668274496580038041e-02 4.032389140835126451e-01
5.486512021817639001e-02 3.753912482007401574e-02 4.576350597214262073e-01
5.805939378224287545e-02 3.203853523962513911e-02 4.701817040884138654e-01
-1.129976790795352709e-02 3.945860392890027796e-02 4.074216451486837864e-01
4.979357635740213478e-02 -7.310013903817216135e-03 4.566115788789355534e-01
1.168793248076083549e-02 2.594006395200320128e-02 4.163990656072424357e-01
5.426072670361380829e-02 6.407436429737092994e-03 4.599940164658538055e-01
5.741067517450645225e-02 1.395914531884126855e-02 4.699270474191715175e-01
2.443445527038457313e-02 2.888675744577276494e-02 4.297594579871406029e-01
3.328998981163230897e-02 6.035836472249997420e-02 4.392486687783050403e-01
-8.038049818420284903e-03 -1.292039866533857377e-02 4.338489429425496646e-01
5.321870611070700363e-02 5.538266716650935839e-02 4.709670415917746045e-01
5.478909953544659761e-02 3.560659801202760433e-02 4.574657747110554284e-01
4.636825415050307292e-02 1.833282694823057390e-02 4.472790197143602930e-01
4.623989203201462478e-02 5.998864534375417112e-02 4.493299337637522428e-01
3.755395209402049433e-02 9.824586008144337371e-03 4.403652606199425223e-01
4.575560576225087828e-02 6.166179622954097439e-02 4.833843856933250360e-01
4.387731099609347429e-02 5.852841400586704379e-02 4.465755553428399915e-01
-3.321791520601219405e-03 1.966704392971205251e-02 4.117480888277580409e-01
1.985865904902544415e-02 4.116302551320944608e-02 4.237491816437037317e-01
-3.380784323468580960e-02 2.590298792211816192e-02 4.271393886979281684e-01
-3.476504372433666425e-04 -4.742553710772449624e-03 4.303286617625414756e-01
4.841863035878672672e-02 6.515736916900760622e-02 4.609073565809327366e-01
5.812923197924013685e-02 3.111734205681348023e-02 4.717389226599572605e-01
-3.946074674703346948e-03 8.457501184134475977e-03 4.231064294865702902e-01
3.284916439742053412e-02 -2.654421218763428070e-02 4.439695995685112861e-01
4.997558419419459441e-02 6.459484781406482634e-03 5.082589356404845216e-01
5.347065078101898711e-02 3.716673322680801028e-02 4.965279670709072946e-01
4.334230552283005466e-02 2.346599217514993424e-02 4.443194324841338028e-01
-1.490927214132292591e-04 7.383198810166677339e-03 4.243216595285408954e-01
4.960782074920469520e-02 3.987912407371658335e-02 4.506708239102598657e-01
4.885205215597853562e-02 2.263985304100402107e-02 4.497062023053804425e-01
4.712369011537647506e-02 -3.240081942846711419e-03 4.511005279289285741e-01
-1.066468117090692714e-03 5.457177176285506887e-02 4.128652784877724358e-01
1.695646322448436313e-02 1.136520996240533536e-02 4.295039357820573667e-01
4.534768211725592746e-02 5.200576091129997108e-02 5.034221474665050433e-01
2.218017428398508933e-02 -5.578535465547241300e-03 4.341330300214116811e-01
-1.428144207592088946e-02 2.782058337508885523e-02 4.130214262808890036e-01
5.716992300926378862e-02 2.762235998536630155e-03 4.870218330725388234e-01
5.317259180980320882e-02 5.344366514157100276e-03 5.003043378710252398e-01
4.766370188480848619e-02 -1.010628242183425965e-02 4.544833683730926110e-01
-5.089411988629144110e-03 -1.103485073139777971e-02 4.327810776596025533e-01
5.688171068353425897e-03 8.018938760807343968e-03 4.261283816351426612e-01
-2.735739689096094995e-02 1.932224314812027929e-02 4.238374221743329562e-01
5.210952146755900433e-02 1.424832149370982952e-02 4.954509950216436365e-01
4.760396100513104162e-02 6.242330981040225546e-02 4.529468449952825382e-01
4.761675643249886625e-02 3.126296759676511217e-02 4.483315779808583201e-01
2.720297111827804648e-02 -1.015434246518388470e-02 4.363362497000283224e-01
5.781355338057107829e-02 2.997184478018325576e-02 4.651501816063737804e-01
4.569417504386225765e-02 1.698704761201046132e-02 4.466573751342526877e-01
-9.445397899376130335e-04 1.485307932872699174e-02 4.184663826669610120e-01
2.268520720048428085e-02 4.998239169266349008e-02 4.267581164053900755e-01
4.365532376799650949e-02 5.038154799952896529e-02 4.446585982143320126e-01
-9.286506520244746515e-03 1.343196559708529844e-02 4.200860896258623023e-01
-1.867992195424194452e-02 2.095783102454947672e-03 4.294498383972669697e-01
1.969921408296240392e-02 2.125848734183515346e-02 4.270482814734447019e-01
5.375207691910693225e-02 5.516911567794399035e-02 4.642836579405560382e-01
1.649393513570188846e-02 4.811446215737084919e-02 4.205047024513639542e-01
5.557871210829264802e-02 -6.418748730380825426e-05 5.001224267641397603e-01
2.546856013073922620e-02 -5.749319217279131450e-03 4.351203073362576723e-01
2.485830086204337055e-02 6.212579329840003939e-02 4.382519269950600482e-01
5.268510762722448948e-02 5.731534214710650582e-02 4.686020927212677378e-01
5.098469677249264920e-02 6.113443477971251816e-02 4.618545671313762924e-01
1.486985115496973833e-02 1.960468719644184107e-02 4.232410674359206593e-01
5.239092151878677051e-02 4.451367803733395634e-02 4.971537370274332623e-01
1.767826187807073485e-02 3.960522809766550863e-03 4.323397330796243110e-01
3.361445921493427802e-02 5.915206450957135459e-02 4.387830599678818055e-01
5.737189358979851578e-02 1.823367402476222488e-03 4.859605044188505807e-01
1.491649756850639726e-02 2.704465342187492571e-02 4.199809373941817414e-01
3.251741760264319214e-02 4.114510869285350342e-02 4.356700519893021983e-01
1.023461204056323563e-02 1.941471042204438030e-02 4.198995892288968079e-01
5.485219073534645245e-02 -1.408266375314451944e-02 4.730083230176136411e-01
4.288687817721126977e-02 6.704538949200739180e-03 4.450116198079291374e-01
1.150590119782243792e-02 5.266543058050644766e-02 4.163300900484208089e-01
1.357307691870402247e-02 4.306605825809762395e-02 4.159708958555478620e-01
5.657833192790315269e-02 2.417276824263990542e-02 4.616206494167481855e-01
3.911627495865061671e-02 1.471523638459817582e-02 4.413541885863138114e-01
8.420864585093380122e-03 -1.072963617772132103e-02 4.326919380280375704e-01
4.526584826054354943e-02 3.061860609226139604e-02 4.460902084648645238e-01
1.051065000532966018e-02 6.697642179148804477e-03 4.288037824886997695e-01
4.654941255556240692e-02 4.345257152879524604e-02 4.472467397085512775e-01
-9.424028178386971086e-03 4.876689073502846888e-02 4.076609719338521454e-01
5.261728187447572286e-02 3.547971480403910860e-02 4.981636339780816658e-01
7.697299496433766819e-03 4.555844871707313143e-02 4.101722870185847691e-01
5.664532557320636763e-02 4.252883936307288310e-02 4.659730193473905491e-01
-2.985936473019232956e-03 2.758250298162424202e-02 4.061700422278545775e-01
4.135832854824600391e-02 2.262961763848972754e-02 4.425758149532533769e-01
-5.244591156552246697e-03 -1.338066559756513445e-02 4.334041546318654903e-01
5.685767979251748344e-02 9.564620656508125013e-03 4.821249048111861946e-01
5.305196457451556019e-02 -1.604793328984043671e-02 4.690296472466485289e-01
-1.977905020612103631e-02 1.474694812370738392e-02 4.228091721826224281e-01
2.024149371754493942e-02 4.822991097125732540e-02 4.243469206904793012e-01
4.612738679843052941e-02 3.966004784675638412e-02 5.099660795919379597e-01
-6.120107474172336443e-03 1.940560435009924117e-02 4.141077797755433609e-01
1.465420556100030872e-02 -6.828087138511357811e-03 4.324370441665143505e-01
5.297344079316709115e-02 5.038633433563804997e-02 4.866248651522029900e-01
2.246914244148455822e-02 4.483624834097345996e-02 4.262732733391815243e-01
2.084941894464128684e-02 2.891033757375989499e-02 4.263002699418070862e-01
5.758956338424523619e-02 2.406662609605518185e-02 4.643756039557194737e-01
-2.863128094074552515e-02 3.547964727453263578e-02 4.183564426946363990e-01
4.553004234715618548e-02 -1.807273826546066872e-02 4.536206842164585140e-01
5.304702922439708673e-02 5.359094212082118197e-02 4.788352973150650227e-01
6.860703939128417507e-03 1.548486331620143285e-02 4.207319650602728833e-01
3.347615349218216463e-02 -9.783247546766770872e-03 4.394310324691644842e-01
-1.932020173908845576e-02 1.948996431942618540e-04 4.306327105656951315e-01
5.652853326463933709e-02 -8.540347936979528903e-04 4.711315536533296489e-01
4.152984879277174524e-02 4.041948493823931121e-02 4.427397102176315880e-01
5.456842677450453316e-02 1.781814666818711673e-02 4.891651747876847312e-01
5.512946108096529463e-02 -1.168679229335165340e-02 4.724252391886187286e-01
3.530400337313040898e-02 4.251564997637397730e-02 4.378922947470525462e-01
4.979925754972110846e-02 6.023537286273338009e-02 4.767216628424265634e-01
4.662574825979229343e-02 4.969920095534609283e-02 5.055307677761812224e-01
3.062225226912427753e-02 5.921108844517337239e-02 4.368686128704213356e-01
4.900954061994113042e-02 4.709864588301179711e-02 5.030998470398315714e-01
5.696192733356535143e-02 3.295219171539150865e-02 4.834586777012241376e-01
5.306541065200047480e-02 3.424898610193221477e-02 4.970394918600598011e-01
1.295503329392383527e-03 4.088169773146662495e-02 4.046198216502885914e-01
5.538109726672537508e-02 2.335793928347924125e-02 4.885356385039547056e-01
1.087039517077757755e-02 2.647280593998325299e-02 4.133900335382140745e-01
-3.040306555164091346e-02 2.075036381435826222e-02 4.251637209495218728e-01
-9.809051061676121730e-03 1.888666435617526035e-02 4.160308211445870041e-01
4.388534627596513138e-02 4.674483430260902017e-02 5.116112962930982055e-01
1.711487273879403609e-02 5.991739661834778741e-02 4.302602666813109544e-01
4.703533814744889630e-02 -2.074613876093601636e-02 4.580024453713537058e-01
5.004429246681507681e-02 4.961592017274627647e-02 4.975301354344476845e-01
4.841714997573889206e-02 4.229424787031238475e-02 5.057951200896086963e-01
-2.820356574475189546e-02 3.239842039328059975e-02 4.191575548512538330e-01
3.182294100625589900e-02 3.093758177565036557e-02 4.357334455497525183e-01
5.703017677990179779e-02 4.149391285267988588e-03 4.853625425139547755e-01
4.833713871547545837e-02 1.171800829818395173e-02 5.068000328767497953e-01
1.004208743777705234e-02 5.576984412639650855e-03 4.293529719153886814e-01
3.740176520517146663e-02 5.808225668293243854e-02 4.410663610737931561e-01
-2.082131251345307327e-02 4.140532556902059430e-02 4.115764995085141598e-01
1.809320774309598062e-02 5.282305816873079235e-02 4.229301001139406657e-01
4.943045652399461615e-02 3.313976039631844756e-02 4.500521351706592843e-01
4.199821115697168622e-02 6.780924640474358944e-02 4.679252271640347294e-01
2.826749848427359546e-03 -1.781671371907854115e-02 4.359723286338305082e-01
-4.542957455597666609e-04 -6.503359886738386067e-03 4.307550663679326486e-01
1.453786999584250755e-02 8.550189824027533414e-03 4.296040970211440491e-01
4.357131803617658727e-02 6.836790380661178501e-02 4.540906590453464009e-01
-7.777097949285347988e-04 -9.444883753556869085e-03 4.314924840183153587e-01
3.247166599518638147e-02 4.533346198876884309e-02 4.352603127635066849e-01
5.527356249384576120e-02 -1.108247073293819936e-03 4.668075816703377012e-01
5.232914860204328222e-02 1.781636336339366411e-02 4.949865864414796923e-01
-7.792506639458464737e-03 4.316627310838749843e-02 4.066978837921784162e-01
-1.807071188132586964e-02 4.731939372465744642e-02 4.114452067440000360e-01
5.779591688001828320e-02 2.804060215191577637e-02 4.648128014944963304e-01
1.908229512935562255e-02 3.875625490490685991e-03 4.328112061448808889e-01
2.467899710013570294e-02 7.522890826436210224e-03 4.343347223071437613e-01
4.361800567161040060e-02 2.376990250947139463e-02 4.445782289055418279e-01
5.604754434284563852e-02 2.831016606701725752e-02 4.877660843195678053e-01
3.493118231736227347e-02 -2.728504296928029385e-02 4.462258150594786144e-01
-5.970044265535125010e-03 3.752889400583564461e-02 4.048621034943210573e-01
-7.803484562254886167e-03 2.178709112956703567e-02 4.135116430707147517e-01
4.896071220850367611e-02 -7.459657724232238163e-04 5.176590254590189843e-01
2.175233583950530319e-02 3.874385016641352514e-02 4.261447308868383521e-01
-3.277681408271068166e-03 4.703116619548446814e-02 4.063018465908381782e-01
-1.863590871794086265e-02 3.711393616572393472e-02 4.112450845072940786e-01
1.915156865459771360e-02 3.669529070811324012e-02 4.236450074210614813e-01
-5.139658727104126981e-03 2.034522485808348824e-02 4.126260365581236877e-01
5.753432771012965269e-02 1.959418597180338784e-02 4.653359075619298291e-01
5.557617269482977018e-02 2.059622969188501691e-03 4.659961731786221306e-01
-2.696863388953825436e-02 2.795713366601658423e-02 4.197849734832710400e-01
3.227816382586072563e-02 1.341685253622194526e-02 4.368836174387495386e-01
5.829855027175676746e-02 -7.532354455493155132e-03 4.900648930193431396e-01
5.518317695993107778e-03 3.957680506037587753e-02 4.050499389491175606e-01
5.048646263279854551e-02 6.055535119446610499e-03 5.075979248266527799e-01
-1.957507447798711997e-02 -2.467893641512233175e-03 4.321170373392201336e-01
5.141072729957828213e-02 6.808457743690145454e-03 5.036442504584184299e-01
4.033958004662301089e-02 5.533792407342535274e-02 4.427302166100743896e-01
4.956514998388571180e-02 3.782122587035405270e-04 5.157939103905104794e-01
7.737661024345848966e-03 -1.340334770551499313e-02 4.340479434387439217e-01
4.685636753590537162e-02 6.626271920324421083e-02 4.698629983729055715e-01
2.117805528279715493e-02 5.676924698786060819e-02 4.276487527336952366e-01
1.943998174879181876e-02 9.031855580430778185e-03 4.316847302909264106e-01
2.485216637795286884e-02 -2.307888289910868009e-03 4.348441636620001827e-01
-7.839078373549801526e-03 4.102604323039629047e-02 4.065895669576884419e-01
-2.184770723919172986e-02 8.193437832167908830e-03 4.276455854734348416e-01
-3.345500494484517084e-02 2.764288218518638762e-02 4.259866584955851465e-01
4.227316331664889015e-02 -1.585991847111342667e-02 4.479642482659971225e-01
3.094531663973003333e-02 5.388557483129313708e-02 4.337485120935450911e-01
1.945171566286657550e-02 5.988575851038709097e-02 4.326707340450798300e-01
5.593151741826559581e-02 -1.470674527739446180e-02 4.770881070825991888e-01
4.926945432047681595e-02 4.747371805029249048e-02 5.021367697190244339e-01
5.200693396550187114e-02 -4.030310796274112241e-03 4.596054033663820593e-01
5.430733506236636032e-02 4.271828153395434979e-02 4.921763278178551970e-01
4.889506871240727193e-02 5.463405892688395077e-02 4.507668788294039164e-01
1.421980810662719190e-02 -1.979191675990197782e-02 4.365579817328572587e-01
5.458188464900231435e-02 2.339908347466280319e-02 4.904357879724713931e-01
3.718916913728894519e-02 1.825447433397621097e-02 4.397115697902265197e-01
4.836542312159184016e-03 -1.555914393973751621e-02 4.350619109952044150e-01
5.733041498270323444e-02 1.491535751268869767e-02 4.681072970867051208e-01
5.354597399678734382e-02 5.490990721113651191e-02 4.603231888194940225e-01
2.624693806477842659e-02 4.159548293653585888e-02 4.299728618775452427e-01
3.832796488484418139e-03 3.970191732892559833e-02 4.037031608610301969e-01
4.959957766239772581e-02 3.856011998949230961e-03 4.517079838792106283e-01
5.507194227471032266e-02 3.763978214864552307e-02 4.914949074579429422e-01
2.020295410318686744e-02 2.999064006326503454e-02 4.253617268173993105e-01
4.194442426194003315e-02 5.128155322083022966e-02 5.087423827365223916e-01
5.540077318319898414e-02 -1.031662894016144305e-02 4.723600950272772714e-01
4.526464512532614448e-02 6.650960616236897827e-02 4.744429946312921365e-01
5.738958466025459448e-02 3.875841548530521014e-03 4.753262422212579663e-01
5.795416345369010930e-02 -9.285946307172613301e-04 4.837543014355355497e-01
5.205246886261759992e-02 5.932799860907797540e-02 4.663891357274047023e-01
3.100918044168154628e-02 5.670903832273409273e-02 4.354855847347124942e-01
3.015540859385860278e-02 3.628474326087418461e-02 4.339970853048337185e-01
5.709859077613620160e-02 3.834928226816418373e-02 4.749967638897539812e-01
3.405980125901125755e-02 -4.772793770758667828e-03 4.394069180226365390e-01
5.752306322648588488e-02 -1.243521598591537918e-03 4.919291381086560166e-01
-2.141818960607030746e-03 -8.973580119677197070e-03 4.315075144025821707e-01
2.023507376810521410e-02 -2.239054347208097734e-02 4.370710826515919467e-01
4.152140397446961451e-02 -3.462752861095115715e-03 4.452174924849091608e-01
5.595520911568384326e-02 4.215662775287231517e-02 4.616322700280284796e-01
5.030191098821920614e-02 6.137985873101504258e-02 4.596605790235759881e-01
5.393388932183056789e-02 4.420569857575567911e-03 4.993646261918809337e-01
5.394529632079089060e-02 1.924683517796436927e-02 4.908145646860967437e-01
1.954915799696707243e-02 1.500078737738462509e-02 4.293189719536357196e-01
2.823262969186505003e-02 6.529754929373533801e-02 4.452625515988334337e-01
4.677283742586976767e-02 6.029787761137838514e-02 4.837419157462981012e-01
2.711080447028856033e-02 3.267607309265333632e-02 4.317758300180590258e-01
4.314695215898557007e-02 3.895234383586344828e-02 4.440920477898663843e-01
5.717203678584543980e-02 1.481723368913753086e-02 4.798965915843244057e-01
5.231310589460021893e-02 1.719533116236143799e-02 4.538154063059852694e-01
3.172083184443659498e-02 3.694347329902815391e-02 4.353294489341800189e-01
4.500096964608363281e-02 -5.678652046879894243e-03 4.493157368475160784e-01
5.465180973999674702e-02 5.178806196557721175e-02 4.715051999486387646e-01
5.583869104308352566e-02 -1.153896667046361117e-02 4.747810325128141717e-01
3.847703576358902505e-02 4.864608588599014100e-02 4.401854974171306445e-01
2.259131355835807681e-02 3.683101443649917234e-02 4.271660626219851431e-01
4.751448298412286331e-02 2.247570420212911813e-02 5.067818210540127044e-01
8.865361748542723019e-03 -6.945314407485510787e-03 4.315791722163597743e-01
1.661702782574295961e-02 2.108176190862630361e-02 4.242525719271153517e-01
2.193774904030824577e-02 6.235573830989227934e-02 4.392186706843206334e-01
-2.188511621194907941e-02 4.766673158045511144e-02 4.155272103958736474e-01
5.587389333048170537e-02 1.971261589321931032e-02 4.602826324556597015e-01
2.618893448979930233e-02 4.369841428427324176e-02 4.296639154718467357e-01
6.391063331658125221e-03 -1.663552158804404435e-02 4.360717771458968439e-01
3.344675513510343701e-02 -4.783949616429959174e-03 4.389894346928456259e-01
-1.478277587129705160e-02 4.461687179162371342e-03 4.268500711960954153e-01
5.093461372458081560e-02 3.160753239385620528e-02 5.007826373147329369e-01
-1.971294572089002037e-02 2.286488212845755666e-02 4.179911268027772797e-01
5.428129068033456933e-02 1.619017350687221649e-02 4.565626277477249917e-01
-2.367512506265304854e-04 2.739002394583972197e-02 4.033688977720111257e-01
1.460487413628210225e-02 3.299072738196430488e-02 4.183289377628672256e-01
4.340580842597405870e-02 1.188187543883151460e-03 4.462539054670109917e-01
4.646119054914263358e-02 3.666586838709354895e-02 5.094008696003857750e-01
-2.436202490756773486e-03 5.089933629219148964e-02 4.087466955971441052e-01
-2.331754132842858360e-03 1.985122994049034681e-02 4.111205594750710346e-01
5.364042080572553606e-02 -2.354171834102127166e-03 4.626324150909737476e-01
4.933948118655025888e-02 2.839984244367537575e-02 5.033730397545450597e-01
5.422612216927011342e-02 4.118157897870690365e-02 4.933199408457128454e-01
-3.713799568573820931e-02 4.579451949157035962e-03 4.413757939716910772e-01
-5.284809217533836985e-03 5.013429366530879061e-02 4.087880067866592748e-01
1.886037673170598908e-02 1.701389407503137857e-02 4.278158700966445127e-01
-3.124422683869008260e-03 4.091166222294401189e-02 4.050775512891850449e-01
7.674730499980951873e-03 9.715984116291298198e-03 4.257368465054373052e-01
4.320307975883154461e-02 -2.090788003720683158e-02 4.519670425848961726e-01
-3.963785172740981293e-03 -6.890532428024545922e-03 4.309418184623577952e-01
5.379174062281548430e-02 5.312968410231889288e-02 4.741628186706992598e-01
4.983978399505257020e-03 1.892537145072159185e-02 4.151318955551516199e-01
5.550159683387802939e-02 6.307087857985506710e-03 4.906920854086435635e-01
5.229874243964240110e-02 1.420231185334994411e-03 5.095130304858616066e-01
4.677747615283438243e-02 6.513415476959279193e-02 4.762020408136580785e-01
2.552179034408704958e-02 7.089054326510461045e-03 4.347415147152094428e-01
1.457994287727249275e-02 5.229902006442925522e-02 4.193972349466564831e-01
1.466745562246944343e-02 3.296681705556149620e-03 4.313834710092122049e-01
5.252125314410999168e-02 4.751617513402710963e-02 4.928006517104561723e-01
9.608254564300821449e-03 7.253572026704666054e-03 4.280813225072946926e-01
5.780896898895909047e-02 2.130000953006248865e-02 4.694258068358264091e-01
4.344024310534994569e-03 -1.638769195342721502e-02 4.355560023920130863e-01
4.116829383997561154e-02 4.586689433757296791e-02 4.423607813468566907e-01
4.087223349001097017e-02 3.009395780744324525e-02 4.424481817087008717e-01
1.456194960175460039e-03 4.616209327923975064e-02 4.064247948310803493e-01
-2.024239182527462835e-02 4.606833547894600631e-03 4.282947344282995172e-01
1.531157777792355353e-02 1.687401684909703783e-02 4.251598905112524140e-01
4.292813744221953692e-02 -1.656090437824377787e-02 4.491500158625413297e-01
3.843783333547658165e-02 2.012478916934580531e-02 4.404069228675072667e-01
2.702926384029328069e-02 4.638257723675245220e-02 4.302235024636509308e-01
4.519010384539982189e-02 -1.525282076760172204e-02 4.522215455534326911e-01
5.547801534218326641e-02 9.464354602377902242e-03 4.888069395827635555e-01
4.073378219058615413e-02 2.088120806171829547e-03 4.439184643305256195e-01
4.585992954445324010e-02 6.789557315437956542e-02 4.612262164666471875e-01
-1.116671744626901615e-02 1.442376413155608064e-02 4.198801544345195924e-01
7.969922725642333491e-03 3.320985604141768466e-02 4.025614067464780566e-01
5.573123610869137184e-02 1.212642392767489426e-02 4.617560230957155065e-01
4.727694020655860696e-02 3.729856460173831129e-02 5.079735044608614247e-01
-1.412122922086955085e-02 4.198562320316834122e-03 4.269012119798275551e-01
9.256675792247804485e-03 5.634080771074444216e-02 4.165669889490695721e-01
5.123797347901649230e-02 5.962113302496036688e-03 4.531975132543877849e-01
5.497345039394980343e-02 2.200703906091369330e-02 4.889329557680252569e-01
5.643731576622153245e-02 4.270442822502203140e-02 4.745659039231350240e-01
5.598961931241674267e-02 2.958358803140806459e-02 4.599169806172563879e-01
-2.185100681913822521e-02 6.225137582265732102e-04 4.311820508748977487e-01
2.436556258895908929e-03 4.098131172931835514e-02 4.046412434409007441e-01
5.663009794597732328e-03 6.662524205369251516e-03 4.269914736183432757e-01
5.512191882453162939e-02 5.009360258770116647e-02 4.714235862012274847e-01
-1.840421282894420807e-02 1.953787068133700650e-02 4.193450588376300692e-01
5.680706350207887639e-02 -2.432735029644038632e-05 4.937940900824017154e-01
1.163770956398531287e-02 -1.018099852706994858e-02 4.328676725375829037e-01
4.289672912416719885e-02 6.340446948964269247e-02 4.475683990592392303e-01
3.698442468996682164e-02 1.247519959336391634e-02 4.398473725919656574e-01
2.404000449921877766e-02 -2.339042275965941622e-02 4.381510970471030886e-01
2.522500995355847139e-02 -2.052301029007069441e-02 4.380744296958672956e-01
2.326087746411308749e-02 5.127915704979529171e-02 4.272839542161369630e-01
4.643686020058945818e-02 5.469910427289718935e-03 5.157696266878245561e-01
5.344059440016853818e-02 2.644856067524237186e-03 5.040087791221502522e-01
5.484004328615532664e-02 3.486368985446879759e-02 4.925496980450562168e-01
-1.532516599299434991e-02 -2.205668501107638929e-03 4.310221622847747458e-01
3.686626958833960632e-02 3.547111407277900308e-02 4.394194404402638199e-01
-2.251571769334513237e-02 1.102466551521525187e-02 4.262974148368858240e-01
4.816404592794307216e-02 6.535155326480403259e-02 4.708792877485794004e-01
3.370953161329840603e-02 1.199354794436425890e-02 4.376451736166550588e-01
-1.814066961023609939e-02 4.001939143787970610e-02 4.099399953502322891e-01
3.480262309105820046e-02 3.282949866697758984e-02 4.379823489468387399e-01
-4.586664909705784506e-03 -1.627462060647122052e-02 4.342699336312995650e-01
4.949095250073511087e-02 4.610082178206526687e-02 5.029863679032124946e-01
-1.566411587862631682e-02 1.055975904962856834e-03 4.295890182385411760e-01
5.403253009207679286e-02 5.066954844395932939e-02 4.809692011360305330e-01
5.433165059903739824e-02 2.214437669708929635e-02 4.905023285635144448e-01
-4.332615543148106950e-03 4.063449755523831225e-02 4.053788719331868351e-01
5.553601367001495537e-02 1.781453453503921425e-02 4.866940888906371443e-01
5.673892629813289540e-02 2.292901129832412843e-02 4.841986450841650469e-01
5.574831851647661651e-02 4.633907923829779646e-02 4.633297396006079705e-01
5.565650864934268416e-02 3.661014221914031530e-02 4.895018300549004442e-01
-1.163879816119937904e-02 4.757215707481004391e-02 4.080110357925904596e-01
2.603900281919462045e-02 3.111013392765162554e-03 4.351316409083323955e-01
5.178833775508594889e-02 -1.335595924477340005e-02 4.649241147644694316e-01
2.728066479937704333e-02 5.018270280902303870e-02 4.303294354159679092e-01
-3.168552348352855503e-04 8.244451407892955386e-03 4.236702069620219557e-01
1.315630831262117571e-02 3.312632993821531396e-02 4.141643813774743554e-01
5.324948043838927114e-02 4.831592959526410241e-02 4.890237283985361394e-01
5.396919935759874470e-02 4.977794146149913668e-02 4.832003648172256693e-01
-2.887462812195659700e-02 3.712000281912759131e-02 4.179432930039017058e-01
4.203564724061423577e-03 1.525402086518503307e-02 4.192897690785394316e-01
5.741592066688284979e-02 7.947704290892648391e-03 4.803542947530433649e-01
4.675094031469324840e-02 2.985753094843106303e-02 5.088484881910754209e-01
5.407030431307276175e-02 5.414744461320365743e-02 4.669936042780288288e-01
1.489596830296606098e-02 3.612391735672937365e-02 4.190925374401966996e-01
-6.367517407488178238e-03 1.073309481154807211e-02 4.212259781377803436e-01
5.464576774740546178e-02 4.961020527113989276e-02 4.783530976473761021e-01
5.357365456999731851e-02 5.084452886068743273e-03 4.586906573802790321e-01
5.337788859176263723e-02 2.977094451276486933e-02 4.952995218962509272e-01
1.364425475644250908e-02 1.490312351190566098e-02 4.255585227844239093e-01
5.212126869638929183e-02 2.944889299692770614e-03 5.080138207949479456e-01
5.801985557112530889e-02 -3.491176633241030274e-03 4.935737554992200016e-01
4.887299019925482602e-02 3.951683679903967433e-02 4.498079830867435791e-01
3.926157233663572083e-02 -1.211820292364316695e-02 4.441681091921741431e-01
3.475209554676125800e-02 -2.470272134429964128e-02 4.446305510045514553e-01
2.657123486356885445e-02 6.487659019489178114e-02 4.481049574747424380e-01
2.715540677711491407e-02 9.941206463255487097e-03 4.348051077142493503e-01
7.382476892386531653e-03 1.958551405889996655e-02 4.169376678408331371e-01
1.467228786138671283e-02 3.585425007545723491e-02 4.184562053979373197e-01
2.383717646961193079e-02 6.173281100150748019e-02 4.377476667688423584e-01
5.509613453708876035e-02 4.858011846572308362e-02 4.769333084134672607e-01
5.642709122220929130e-02 6.759634032469365346e-03 4.872817787414272517e-01
-2.872802305383183666e-02 9.651035366288515660e-03 4.314244045982948972e-01
4.461285475344526491e-02 6.670988492857615748e-02 4.743269011504397392e-01
-4.769643606134785219e-02 -2.827561803042986412e-03 4.461596110675560278e-01
2.657510496607539893e-02 1.335987682306586516e-02 4.337398514609037692e-01
5.083619839775452981e-02 1.764403541164961606e-02 4.983256858330941119e-01
-2.772549441630108025e-02 1.167108161251154824e-02 4.295884734787735471e-01
-1.062039892651164006e-03 -1.404267866770718930e-02 4.332759887741608473e-01
5.705126245212245595e-02 1.036262766232020141e-02 4.684377834619605774e-01
5.101184822599569985e-02 5.344140836629339419e-03 4.529199251330576215e-01
3.732876532173507941e-03 2.693570115988838665e-02 4.020574599822844264e-01
1.415684745851693294e-02 2.514498553302293646e-02 4.201492149243499230e-01
4.900491016594343135e-02 6.308252551580429204e-03 5.105929998675619030e-01
1.758525362182446899e-02 1.207123592272330882e-02 4.294562257563773744e-01
3.455343061472847255e-03 4.056049884620707008e-02 4.043095832755611019e-01
2.081479867360907718e-02 -6.585583428584501978e-03 4.338313992717486300e-01
-1.080518178155900726e-02 -5.672663857128839790e-03 4.314222380371807164e-01
5.729231273007995284e-02 5.447827773053362348e-03 4.728488051459875385e-01
1.789595689079177473e-02 2.295811336300560002e-02 4.249670956842531711e-01
-1.050243691478573022e-02 2.682141368720689090e-02 4.119091709481105812e-01
-2.966468273834682243e-02 3.449324410537778218e-02 4.196108009058953647e-01
1.016622079947417968e-02 1.412142650215042136e-02 4.236699592666628433e-01
2.850290662461682500e-02 5.888868326921951890e-02 4.351118031306133727e-01
-2.454885656215587478e-02 4.384791216816442960e-02 4.156733617371956568e-01
-2.566155775388378329e-02 -2.083658356957366394e-03 4.339897962150000565e-01
2.873680505536016852e-02 1.741065983392935460e-02 4.344747192017301973e-01
2.036045439988688928e-03 -1.021264078260677825e-02 4.316920998498785522e-01
3.907677582892714330e-02 2.895752388366059846e-02 4.410284185223560804e-01
5.631117976061969510e-02 4.887763465511544073e-03 4.672517890812699082e-01
4.585777222981652496e-02 4.303771813732968493e-02 5.096440177966174989e-01
5.722161164741903366e-02 2.980607972460192628e-02 4.832085455257716378e-01
2.393135400750554323e-02 3.112474702912782984e-02 4.289064712262841694e-01
4.555905047412008718e-02 5.434061084127103647e-02 4.472013145557587332e-01
5.533320816083878158e-02 4.847954578548092919e-02 4.650473114715057421e-01
2.572968269271700900e-02 -3.387743679979889587e-03 4.351213561474703284e-01
5.776176278753865356e-02 1.714283099425992218e-03 4.820171854705384007e-01
4.710362767332370443e-02 -1.452672198147969031e-02 4.550919275049787327e-01
-1.221207834119002883e-02 2.409272856136688082e-02 4.141677598758787271e-01
3.587586872475625847e-03 1.173962350378842528e-02 4.222595857279786147e-01
4.196243274152793024e-02 3.217463918023552583e-02 4.433249992971495246e-01
5.167272394196849306e-02 5.376422778611165271e-02 4.856293982218833349e-01
4.079372636554865622e-02 7.149071063476072907e-02 4.559290928011867639e-01
5.290299338857713113e-02 4.413944637016490452e-02 4.961520303143248101e-01
2.992347929787190358e-02 6.565508876716999453e-02 4.457600308327641647e-01
7.612530014603277953e-03 2.773631893446231594e-02 4.040159471206992148e-01
-1.071301956531530829e-03 5.455334542047463042e-02 4.128309693610198172e-01
4.863793769497940650e-02 1.153587584406993126e-02 5.060270080297238904e-01
-2.159595406952088265e-02 4.832225785989104072e-02 4.162933100178617396e-01
6.000243202297035616e-03 2.013243675870502597e-02 4.139058542947113284e-01
4.459650026235488507e-02 1.000805172461053522e-02 4.461256238457433354e-01
4.684841383187766245e-02 5.529110417043044817e-02 4.486416308638381811e-01
2.502326668017118561e-02 3.458051074290870164e-02 4.293769090175953984e-01
5.507099589083572222e-02 2.038678583350952631e-02 4.580949971686495981e-01
4.633602479709439392e-02 1.898338553849392152e-02 4.472418442083538337e-01
9.712675085810047043e-03 6.037323058160091321e-02 4.234076269663579750e-01
1.555341836581502352e-02 -1.230670168474726905e-02 4.339339744155165102e-01
4.955348470842415448e-02 4.969146390339863884e-02 4.507527185468113706e-01
5.399517600731039424e-02 4.736434862797057194e-02 4.873472898855684132e-01
-2.476426126322907317e-02 7.678508321599487180e-03 4.295969639882128432e-01
-2.321759228390091537e-02 2.999375740546612185e-02 4.166442486981912219e-01
5.314564325631803560e-02 4.106834262402599828e-02 4.965476698245616660e-01
4.843659136657537528e-02 3.259995212845152868e-02 5.057015665168707041e-01
5.072842663749396741e-02 5.936604833672626952e-02 4.575224953762243585e-01
5.735709405109030296e-02 5.748699153367760675e-03 4.763091415036838638e-01
4.769828175861992592e-02 6.621010037317349994e-02 4.666836975657392417e-01
5.564294438216564609e-02 3.097800597500921516e-02 4.589960303187592405e-01
-2.209243329762425323e-02 1.390202160935853637e-02 4.243082909958640903e-01
-2.818571939098240761e-02 2.943492199563034484e-02 4.202636035692648431e-01
-1.633749474018206596e-02 1.288515587804179088e-02 4.223920567424871431e-01
-4.330015672072237004e-02 7.452322605867546176e-04 4.420328799612986970e-01
2.739570890593371472e-02 6.402564800158758174e-02 4.389788654611355145e-01
5.807464092264209843e-02 -4.681706614238665895e-03 4.889002426578466509e-01
3.410705063948053090e-02 3.844871251618413310e-02 4.372721521316840221e-01
3.912989700349247396e-02 2.527684926820884456e-02 4.410294291229510111e-01
5.886957609115351514e-02 -1.039486557414485979e-02 5.059943232209734854e-01
1.471318895274489717e-02 4.865733521376452986e-02 4.184999297880698244e-01
4.922816988771722829e-02 2.829700214490150564e-03 5.138625443496710465e-01
5.604489239916490839e-02 2.282843914809738056e-02 4.603422490499561870e-01
-8.363917854942500701e-03 -1.139827701679372272e-02 4.335690580018195517e-01
4.396312426271688223e-02 4.575134422218316010e-02 4.446638714303704498e-01
5.611408965067837817e-02 2.153887181662379746e-02 4.859193740005007811e-01
4.948608029843078876e-02 1.909443673941134054e-02 4.503961361837781618e-01
1.706607559470867813e-02 -1.437156061924039704e-02 4.348245297430119449e-01
-5.731856478210136004e-03 3.272704320973944536e-02 4.066314568655492456e-01
-2.141782047344241435e-02 2.992673342680606668e-02 4.156304522733947904e-01
5.501164089156024978e-02 5.282891415002868504e-03 4.933999291403052267e-01
5.046320092205993507e-02 -3.334782209137636573e-03 4.556218065094134184e-01
5.567712772902128765e-02 1.701549252972299475e-02 4.602577338690478914e-01
4.415398058832008255e-02 3.716308948768622111e-02 4.450691994587149258e-01
3.982914930441878304e-02 4.189733929519887795e-02 4.413663333930361032e-01
2.771275643838724129e-02 -9.775424407387574635e-03 4.364266913507539036e-01
-4.842353968691914638e-03 1.039007208386481026e-03 4.286038308911452321e-01
-3.305951204291420614e-02 2.254963482753041121e-02 4.272608116799257449e-01
3.841773659266584789e-02 1.552562741757826728e-02 4.407392032205826315e-01
5.055978068246885782e-02 1.781735472785581781e-02 4.989387412761120966e-01
1.151938192097443601e-02 4.219483458772844975e-02 4.127818366103155334e-01
2.326843182332308593e-02 3.544332170746044425e-02 4.277685261637138026e-01
