-5.250905065360113311e-03 2.735102994703622267e-02 4.082444385959251298e-01
-3.468248036405905538e-02 1.370987632840959397e-02 4.364540087153634396e-01
5.715403997262609448e-02 1.751373963733305131e-02 4.673861269869413748e-01
5.927124731192655316e-02 -1.154169588312443928e-02 5.059791596771161526e-01
5.715502178978595221e-02 -5.828845243465924537e-03 5.082700501258301529e-01
-1.727225919107674632e-02 9.107604471344350749e-03 4.247053553086051481e-01
-1.849256889473956372e-03 5.519186725182127079e-02 4.150637983959416522e-01
3.355836144018654876e-02 2.978084187032440863e-02 4.375322247491008620e-01
4.572527875478658160e-02 -2.948394657967715049e-03 4.496135452936114163e-01
5.611220976193077165e-02 3.740522990787083918e-02 4.843215855991793162e-01
3.592380789403515351e-02 -8.613195385014269304e-03 4.413094247222011379e-01
5.719861278057599557e-02 2.986046451136292051e-02 4.808726369613031126e-01
-7.872645013922548174e-03 2.548527856713393366e-02 4.110432879140878959e-01
5.062289444964849366e-02 5.858935204939449970e-02 4.752112320671821877e-01
5.303163951838584661e-02 5.571437313349639209e-02 4.664631990868500222e-01
-3.513921749584403287e-02 8.647195480390671568e-03 4.376926885411641654e-01
4.339880480007989039e-02 2.436548155365093546e-02 4.448356417923050032e-01
2.229224271607478658e-02 -2.449546419369335801e-02 4.377417540107887972e-01
5.625011292379598210e-02 3.849265916593935105e-02 4.802489767626978989e-01
-2.706752283718466892e-02 2.648254207920605705e-03 4.318740945082262805e-01
2.701084911235196104e-02 2.287586951412861128e-02 4.332167417292974720e-01
4.086414820860223562e-02 6.799314679524702532e-02 4.667491693954871623e-01
5.537718136294465104e-02 -1.168776711243576377e-02 4.737583346857414113e-01
5.237946576434688445e-02 5.389380903838319331e-02 4.797977726075538518e-01
3.169884405599802946e-02 -2.349510399397143623e-02 4.416186404958557521e-01
2.513275111771885728e-03 -1.802023977756851345e-02 4.360020189269794288e-01
5.760387246732360383e-02 3.346243591817624208e-02 4.702942456105813074e-01
4.016419576337650066e-02 -1.676827599299045291e-02 4.462096352474978489e-01
1.229206129692779134e-02 4.691254596978407937e-02 4.167000004474931130e-01
5.411055034356896526e-02 5.005053483215654575e-02 4.788374141841176268e-01
5.682783287855033144e-02 1.870960507021155600e-02 4.804094976379251203e-01
3.171217466394075229e-02 5.278996466475275456e-02 4.351304810351070418e-01
5.604926567005579646e-02 4.402378449041433744e-02 4.677708033348499383e-01
4.991196078054617458e-02 7.169322415039861528e-03 5.073347015625268019e-01
3.438334026461221937e-02 1.223883375686460502e-03 4.393504145575999886e-01
2.147821090840555669e-02 1.806302791765293514e-02 4.300070656759266696e-01
-1.766376148790464728e-02 4.214270397946029423e-02 4.099793202245513024e-01
3.814818875035966284e-02 6.442336366492913691e-02 4.454961967942277501e-01
1.261527237792349487e-02 5.442015479083681107e-02 4.190983558745318138e-01
5.409514261195669943e-02 5.032122266709743857e-02 4.594539665675515527e-01
2.332974650349258633e-02 6.068811765128574731e-02 4.357531092894240121e-01
-3.465747926766870463e-02 1.683418902202319864e-02 4.340208878548280080e-01
3.301314808659567418e-02 -6.412051962682505102e-03 4.389469651462082900e-01
4.566864768778513411e-02 2.475167562248693776e-02 5.106244961343345823e-01
4.209568487588970231e-02 5.920232306718367643e-02 4.458068449650117171e-01
5.619860771008820116e-02 1.137938595339656883e-02 4.647297214463819159e-01
-4.290350207903798063e-02 2.002893147501275464e-03 4.447915691541113881e-01
5.763305500400667247e-02 3.013274804522811726e-02 4.669358982720893114e-01
-8.368009377513002667e-03 1.503923659500784951e-02 4.186156383933110070e-01
5.502299878109251363e-02 -4.657000718040577199e-03 5.129493641261408943e-01
4.810285660771668886e-02 3.955364036205742673e-02 5.063674457104101467e-01
1.911828025790847721e-02 4.094031193889313691e-02 4.240102418327199030e-01
-3.467685006030675823e-03 1.423430536934917022e-02 4.187566851554669345e-01
3.779593592620671128e-02 -5.942781925461202742e-04 4.420378665907076510e-01
2.997897312112917517e-02 2.397227933419513249e-02 4.351521519336091215e-01
-3.309159958549804520e-02 1.859128245955954384e-02 4.292168767438735433e-01
4.112796504844352247e-02 6.375559517501543094e-02 4.470311306279694530e-01
2.330959025168640592e-02 -2.455829579019144088e-02 4.381125303818003136e-01
2.185278779676577340e-02 3.473006684089406659e-02 4.272896463680274648e-01
-1.201468798562030371e-02 4.430718130263947702e-02 4.083662637966719577e-01
5.216401261307370557e-02 5.392999051450843989e-02 4.559477864590559260e-01
4.365224798356680952e-02 5.707892849479886260e-02 4.466598497942609325e-01
4.179603211631618964e-02 5.702907932958217740e-02 4.450263568416877313e-01
-8.534121929706383908e-04 9.232277311875265735e-03 4.231614047998223938e-01
3.946969625006375992e-02 7.445055896668229152e-03 4.423358650259213709e-01
-3.458103294549867701e-02 2.222684951833608577e-02 4.292440786067094338e-01
2.673508729676719528e-02 3.552069598264460948e-02 4.317519093545761910e-01
1.929816482124892957e-02 -2.198047904515112658e-02 4.369498391815462845e-01
-2.937466080644620878e-02 9.150431103083989798e-03 4.320438892418718146e-01
-4.146990977411659993e-04 1.871693527793136594e-02 4.137487700195648932e-01
3.711447924369167678e-02 1.702708114817926693e-03 4.413699218831471649e-01
5.115615464907044552e-02 5.770400251766680602e-03 4.537036070949432287e-01
5.473462518946172611e-02 7.992052139893908447e-03 4.917645986935750835e-01
5.731961622080330998e-02 1.200886097060501314e-03 4.886549557058655902e-01
2.108879918104859807e-02 3.182436369102827761e-02 4.268108507362093906e-01
2.158540095047501925e-02 6.098953302718032599e-02 4.365238237087146200e-01
5.551875885695831125e-02 -7.530462324731479473e-03 4.712351816873036059e-01
4.854078556689009338e-02 -1.478480004277817929e-02 4.584667418993795818e-01
5.573781788304877499e-02 1.079048674800830651e-02 4.864762170772544692e-01
5.089856990806044396e-02 1.337315311951844596e-02 4.526302618902192654e-01
5.423363799919295875e-02 1.674838670887642683e-02 4.572873375026705878e-01
3.322084919824719318e-02 6.729227486612149312e-02 4.490625711352034810e-01
-1.605921253499414253e-02 4.250437686318379871e-02 4.094886776182884436e-01
4.066726634429505827e-02 -6.921002266294705788e-03 4.450863589860382663e-01
2.070700314591871274e-02 6.529532623927828891e-03 4.330992293567073048e-01
5.629570018283468896e-02 2.672785200176813064e-02 4.861458461141332510e-01
1.051096634046579451e-02 3.176927273878014935e-02 4.101585138908520056e-01
4.880408365720169395e-02 3.227084357340743309e-02 5.047103409259772189e-01
4.744650788967878091e-02 3.395739601734112934e-02 5.071964211914290477e-01
5.532489331047445169e-02 3.195156265063133112e-03 4.653134426461884021e-01
5.778780089018495381e-02 3.048403661633500988e-02 4.694118572726504457e-01
4.425825020727590375e-02 5.811224068112431224e-02 4.473997573168860820e-01
5.093685115504192201e-02 2.755837458888467720e-03 4.542099445267390179e-01
1.918799150910121404e-02 1.354004964840759863e-02 4.300039576996313451e-01
4.160298696538625857e-02 5.250363279100858649e-02 5.055016042144061528e-01
1.271199373021946605e-02 5.217926294883733912e-02 4.186632696178765323e-01
5.719685608283597150e-02 1.989894434811836227e-02 4.651457951227788157e-01
2.790887004252819159e-03 1.852880022744080382e-02 4.152279167579739361e-01
3.423247403383185283e-02 -7.279997920957047459e-03 4.398938075398066694e-01
5.066828078666942708e-02 5.758854432971096532e-02 4.775074089402351341e-01
5.067537096209420028e-02 7.000838360346729565e-03 4.524249041404183602e-01
2.292087427336009578e-02 4.956590020422367571e-02 4.276914356262240258e-01
-1.801165277047625871e-02 3.795187886171728919e-02 4.107381306640264795e-01
5.801843597186033541e-02 -4.517184373094998082e-03 4.859584363357247749e-01
5.021254528029528430e-02 7.281731181139915188e-03 5.062588536752936630e-01
5.666895999507715748e-02 3.850004007374873902e-03 4.884520674470261281e-01
5.221691244784112257e-02 5.675878100951822075e-02 4.597871762204838175e-01
-7.592120395049108822e-03 1.809127986048327669e-02 4.155430409722013496e-01
5.282445706977761252e-02 2.367952497916981855e-02 4.542548596415530993e-01
-3.431726006289043899e-03 1.116428023180447184e-02 4.215135627362289750e-01
-1.638943227903008962e-02 2.692561849213344349e-02 4.144574369904364119e-01
1.518368247246714570e-02 2.016369297277897238e-02 4.239666508300887204e-01
2.601651317793658713e-02 5.288945362288980517e-02 4.302924489749424541e-01
1.588645339114039962e-02 6.333173939803256151e-03 4.315572455189593537e-01
-2.816937318000017204e-03 -5.198599949741432996e-03 4.305048981831148258e-01
2.850813173498853437e-02 3.721787892784430424e-02 4.331719078215412466e-01
5.651607961789729268e-02 4.058014448160668364e-02 4.736260428043186921e-01
5.317761680867326424e-02 1.370054498826525635e-02 4.554256181988975971e-01
5.330435193844781233e-02 4.486309615927597250e-02 4.930557892220676086e-01
5.339954988553861220e-02 5.480458891715532695e-03 4.992097004752837353e-01
5.440603464615155482e-02 5.141663401821042201e-02 4.701387204276159526e-01
5.698203379965736948e-02 -8.932528736848934642e-03 5.139915171768010271e-01
5.701130399050698128e-02 1.364222382296046213e-02 4.681620357816147493e-01
1.683131304057364913e-02 -1.167509796789815979e-02 4.340102126482885403e-01
8.851459980131931235e-03 4.646363420520726456e-02 4.122236491400014247e-01
4.363222143060096342e-02 6.386222352397939728e-02 4.491927175766495250e-01
4.622607594690411603e-02 5.698026197913729635e-02 4.910127884395770193e-01
3.562866194133654935e-02 1.244170878917845620e-02 4.392689692924322542e-01
-2.731773777664334851e-02 4.198613174234562539e-02 4.186775863282199417e-01
1.805803605565790837e-02 4.627088943143999739e-02 4.230188920907729799e-01
-3.520281986068708735e-02 2.001290731184660054e-02 4.325986718412513365e-01
4.024297300468738375e-02 3.881239798494531129e-02 4.422994780627681477e-01
2.674642839686604268e-02 6.329321534078419242e-02 4.379617415969547789e-01
-3.581084155023145366e-03 4.662424379026949145e-02 4.068049052239225971e-01
-1.036001596456973678e-02 2.917172918309553914e-02 4.104850322751771863e-01
1.527926348176457394e-02 3.860911001917784885e-02 4.202796129270656711e-01
5.808189625806349510e-02 -4.075373739824235918e-03 4.835066282234422030e-01
2.772250327897374245e-02 1.863473975453366210e-02 4.341057613547593119e-01
-2.726191453738210924e-02 8.310344036652509911e-03 4.309947743012367827e-01
5.604895993302539542e-02 1.309407337601871217e-02 4.836941544769911006e-01
5.576104147693646679e-02 9.566289187504790729e-04 4.972666163909177928e-01
5.801549346259447099e-02 -6.201264607004073476e-03 4.885151015062609847e-01
5.088250195110741864e-02 -5.290482018680968228e-03 4.581943341031921579e-01
1.677547587888933434e-02 2.603364419518896036e-02 4.237248391713305251e-01
1.494783011766721674e-02 4.131032710547077880e-02 4.195255006660663644e-01
7.218546350675854838e-03 -1.776141474524529223e-02 4.368000876054075055e-01
5.709907152555943055e-02 2.625572672177040219e-03 4.858215479012610860e-01
4.475303025259538825e-02 4.018494158722101667e-02 5.116200525905991725e-01
2.888378917440019913e-02 5.765595974191561890e-02 4.352611038127371934e-01
5.277297787469981127e-02 2.692998075464840199e-02 4.541921592360425586e-01
3.854340595837642269e-02 -7.382994910100254202e-03 4.431495893221099602e-01
1.812921494262037872e-02 1.855610692296096736e-02 4.272521851187330855e-01
-1.630343576015395781e-03 5.534384390817258942e-02 4.152969837143086207e-01
3.772500345452371034e-02 -2.542397618780637553e-02 4.476692976917630018e-01
4.839808180231442575e-02 1.810907942560367398e-02 4.497062435336778852e-01
3.528316788991727598e-02 1.385280771628303112e-02 4.390759482295442107e-01
5.681079530779892250e-02 7.220057638390995659e-03 4.829640603035400548e-01
4.281399164060240708e-02 -2.031008028429592827e-02 4.508895013675584540e-01
5.257026562131859176e-02 1.164363730748261671e-03 4.584317536068598931e-01
3.151066674649510152e-02 -1.604442256264628289e-02 4.395638230073058983e-01
-1.052118618682041859e-02 6.358505319483002093e-03 4.246913330837978617e-01
3.838917639541154087e-02 3.674660020451889220e-02 4.409283914337693289e-01
3.791916090610827211e-02 1.701875519498621814e-02 4.406215844332578846e-01
-3.852608721766604370e-03 2.327570446567184606e-02 4.092018690087259047e-01
5.632027991890439095e-02 9.636565687409998429e-03 4.837439382268934329e-01
5.418701838163635792e-02 3.016178980690999503e-02 4.930210808151492263e-01
-1.272800294244943661e-02 3.481571159997315368e-02 4.093582651881257362e-01
5.371015408377709938e-02 2.261936648161804592e-02 4.555050408449429211e-01
5.239280007620714108e-02 4.715584196620026258e-02 4.547638354086834811e-01
4.018723669260367004e-02 3.098161914042267887e-02 4.423727206591700489e-01
4.351729568850587482e-02 4.794553694173771252e-02 5.112645522708734180e-01
1.980888253396595813e-02 5.731518131628831475e-02 4.280820677964212728e-01
5.142625336600041563e-02 3.147770010430860077e-02 4.992440885520476046e-01
5.512808092192919562e-02 -2.066795012986460608e-03 5.090644918192657187e-01
3.556341721410958417e-02 -5.365586431286713254e-03 4.407653582284365990e-01
7.648981069325479394e-03 3.085302537773991147e-02 4.034061944936861432e-01
1.589139043912846105e-02 8.747642909120374385e-03 4.305657000725612304e-01
5.085993688918850897e-02 5.318870744169065107e-02 4.883061559764426685e-01
4.422731603177210841e-02 6.170645759099527283e-02 4.854306781441476426e-01
4.503909164944627785e-02 6.566009318689373930e-02 4.531676516657844878e-01
5.349339472366286541e-02 4.729541350324775739e-02 4.885255194355366259e-01
5.250498725234443997e-02 -3.012107385566160575e-03 4.606994451231141707e-01
4.900556939063680645e-02 -1.788712318236486062e-02 4.608042110891505949e-01
4.832376007055962791e-02 3.031909183476385813e-02 5.055721371449949375e-01
4.380392979903019283e-03 2.728758890888449001e-02 4.019990443267490443e-01
5.387493340190245561e-02 2.471522810981646376e-02 4.560224080692277249e-01
5.633467948486563931e-02 1.755778144005810254e-02 4.628547774253111147e-01
-2.217078603605905640e-02 8.437175197523757650e-03 4.276877568393614992e-01
5.730685096295684566e-02 1.758499715055085108e-02 4.724318696400190976e-01
5.112776731785527440e-02 6.033833219537330927e-02 4.625039785451555141e-01
-6.379259071566193047e-03 5.372888658785569815e-02 4.136628253015287027e-01
5.705755801153689077e-02 2.959408199484025309e-02 4.822320232706344689e-01
7.934318195220203818e-03 3.922448452242816019e-02 4.090487404773859303e-01
2.069461085535978170e-02 4.676977442747377867e-02 4.256561653339101525e-01
5.443521813371423462e-02 5.028639275459269309e-02 4.636290465951473094e-01
-1.231533240773805861e-02 -5.228317179350768298e-03 4.315321891667910359e-01
5.720374622085182964e-02 1.919992492168758405e-02 4.659008348359593987e-01
-2.484809320646097150e-02 2.198512033079715738e-02 4.208769108633249600e-01
5.049231505832733197e-02 1.707390954842340908e-02 4.986809504203297827e-01
2.911503638273936490e-02 2.255221452581086458e-02 4.346167372180503308e-01
1.057943181885823321e-02 5.820205815063792670e-02 4.208838493835541095e-01
5.579408192889073748e-02 7.597465444443137102e-03 4.648986791182422307e-01
3.743303838666570821e-02 -2.890181719191777313e-02 4.491324667097632006e-01
1.323542958186453566e-02 3.186894922502787886e-02 4.173981386377317304e-01
-6.485593731283904526e-03 -1.129452617218173159e-02 4.331328228936151548e-01
1.266164820274801560e-02 5.978267470577761089e-02 4.255776052704084988e-01
2.104369937492073239e-02 6.046701281445937548e-02 4.350217108220176820e-01
1.739084945689680153e-02 8.567762339735059129e-03 4.313065409721238974e-01
4.988373402259466821e-02 5.713903776156380176e-02 4.543007034235057584e-01
5.639780384883475578e-02 2.452796987304283957e-02 4.620535566685716744e-01
5.655247158787930772e-02 4.317313476232815042e-03 4.703768288309566614e-01
4.925465538858414538e-02 5.625735541050597838e-02 4.521557089328370194e-01
4.647008810047360133e-02 2.983034384641891981e-04 4.496459962552363243e-01
3.955639491774736588e-02 7.579116665476509293e-03 4.423979648265360387e-01
3.656795760924409083e-02 2.264739352432310407e-02 4.396641155335217488e-01
5.155571548362559292e-02 2.671701467933917593e-02 4.978170595032145873e-01
1.813531591225514550e-02 5.744475046381995742e-02 4.268229637518651254e-01
4.206671160534913856e-02 6.923214298554689061e-02 4.613097967033427116e-01
5.601383631910934746e-02 3.161423648965860228e-02 4.862590494354700477e-01
1.695260305420602520e-02 8.913444012708226366e-03 4.309586968176084554e-01
5.657519199566746898e-02 2.748893316510505475e-02 4.852236611472392491e-01
1.038342858937323955e-02 1.295757702736802935e-02 4.253941803358557427e-01
3.303875415288486800e-02 -1.269769882689233270e-02 4.395866080822594668e-01
3.026033597368697758e-02 1.591168665141772312e-02 4.359667552142721392e-01
1.059273260435875108e-02 -2.006555638785276208e-02 4.370234830424655215e-01
3.452636783439360507e-02 2.929001917490326248e-02 4.382089509209892708e-01
2.397389822663134606e-02 -2.358144158013791153e-02 4.381972265688161006e-01
1.143301180376033420e-02 1.352399064912877293e-02 4.256857503045836100e-01
4.303052661181901162e-02 6.240788318053507033e-02 4.475220266095158439e-01
5.113731137682432648e-02 9.169017040338692248e-03 5.011117554109730809e-01
5.724720839774092435e-02 1.531151153530259032e-02 4.726347648649306676e-01
6.553815251661055871e-03 3.905904798700338132e-02 4.073972238560887305e-01
6.038068656328565015e-03 2.441339634140153592e-02 4.078031191997156801e-01
-1.612529683774542762e-03 5.043693389390677129e-02 4.083990390201943099e-01
2.011226145896768611e-02 1.638853035054781832e-02 4.295160390270202355e-01
4.636805400957604711e-02 3.981811184244835738e-02 4.476377542093628592e-01
4.479903041575777206e-02 2.728902534659016083e-02 5.119356802786092508e-01
-3.050527174081510418e-02 9.719946520750633728e-03 4.325743145457225936e-01
3.515306114458689735e-02 8.681800647553156863e-03 4.388522435861808013e-01
4.988820753001101116e-02 -3.446141609689236818e-03 5.180968187861628715e-01
7.296800748198188288e-03 6.027302978971767894e-02 4.225025792560836990e-01
5.667017412245536900e-02 1.186349854800609720e-02 4.809766674948602883e-01
3.902206054545381136e-02 -2.879413659100884051e-03 4.431362424732146477e-01
5.334817082709358838e-02 4.673369027973254056e-03 5.006256380140798878e-01
4.381623075025242037e-02 1.230640291564692908e-02 4.456000984129503961e-01
3.923714055444806059e-02 6.962673698835981223e-03 4.421803623547392315e-01
-6.572481314516366753e-03 3.298200520919292167e-02 4.070030696265392600e-01
1.206098173811476909e-02 3.054830121185911351e-02 4.153435899520716013e-01
3.249089539494917633e-02 4.694600785296989057e-04 4.384995012170627704e-01
5.771739420122794922e-02 2.777625461791968786e-02 4.688234168913227862e-01
3.412532809632180114e-02 2.609499690555691989e-02 4.379811128117706009e-01
5.282014092484612483e-02 3.201426937264560679e-02 4.964741065803693898e-01
3.049305547005678671e-02 6.206156980173414134e-02 4.392609796876700834e-01
3.567004508073401414e-02 9.000179251108695114e-03 4.392076396299053331e-01
3.827211334832480993e-02 -2.254892237057771337e-02 4.466125005501249690e-01
5.606862643351700343e-02 4.105390348364337805e-02 4.775889335038020489e-01
4.818569624228963982e-02 6.555148113375963703e-02 4.669804928914979003e-01
-2.382843504155949393e-02 3.437817905263620966e-02 4.153338995011164325e-01
-7.799809832096687989e-03 2.849614018481866351e-02 4.096163542034437222e-01
4.719089988072136532e-02 2.629827715293882318e-02 5.075745896351836484e-01
-2.174222196118415218e-02 2.600380875381205076e-02 4.175882456423890554e-01
3.630060455262506397e-02 5.907582963631238110e-02 4.414052478537836555e-01
1.743752157988583823e-02 3.438851944582187181e-02 4.226874021748429078e-01
4.026407285247078638e-02 7.038697220121163667e-02 4.521391171807985776e-01
2.658461897628309686e-02 5.705930087612076651e-02 4.326335076903423671e-01
-4.277980022286303682e-03 2.226189514964459215e-02 4.099417911455723873e-01
2.692283181241404005e-03 3.993853176644668844e-03 4.279568178445916082e-01
5.526068782928347800e-02 2.675131835965841032e-02 4.893947673589224556e-01
2.852384722492866051e-02 6.219701974477523376e-02 4.383631880865047625e-01
2.327779412306629075e-02 -1.993298863294192327e-02 4.373859509351715746e-01
1.452381218621071751e-02 1.892475015131499932e-02 4.240068871108274018e-01
-4.568692020931160169e-02 -1.155742950098996623e-03 4.435197951515242321e-01
5.046398891024209132e-02 5.761782581904868056e-02 4.560050841954523815e-01
5.716191089548278842e-02 1.050010391540799788e-02 4.719654359712218694e-01
5.084894596488601787e-02 3.314032228546044678e-03 4.538418369150720166e-01
-1.789848538629122687e-02 3.107518583495383693e-02 4.131721427107380995e-01
-2.153073710863106019e-02 2.515298913625057392e-02 4.178539771153010340e-01
2.527414438928434967e-02 2.084870823687351785e-02 4.322641802267478961e-01
-1.685334680689804313e-02 4.370938824349316666e-03 4.275576016127772272e-01
4.921387993650538223e-02 6.047758461479581932e-02 4.771023149877999803e-01
3.671464332219936261e-02 4.574451557382501476e-02 4.395170776523024125e-01
4.926388400242835697e-02 4.697178149879319142e-02 4.510601716971764930e-01
5.653110891567136170e-02 -5.858190511236894063e-03 4.740154696194828765e-01
3.704500044566869099e-02 6.462008384551512497e-02 4.456080237566821811e-01
2.692927234749044677e-02 3.213612183280141477e-02 4.323977255538835052e-01
4.649066842927764009e-02 2.110175116521601987e-02 5.089479205726457067e-01
4.790195572061353019e-02 5.792820947980617530e-02 4.852779465184590135e-01
-2.143822343897874502e-02 -2.773991501552097987e-03 4.326924584602029888e-01
1.749384113094238843e-02 8.252907998108635970e-03 4.314929525065450688e-01
1.277380194217791337e-02 3.655804901143364094e-02 4.168348260502071634e-01
5.747925507880159712e-02 2.605734528011626264e-02 4.651624437155451597e-01
3.865133577364252004e-02 1.897485435190096170e-03 4.424740543291508232e-01
8.299664411357928623e-03 -6.554298058626222001e-03 4.314904791346813040e-01
1.129855799493135506e-02 -2.160269011035448328e-02 4.373044531845272087e-01
4.932259050365091213e-02 5.326442050681680015e-03 5.110153055648495313e-01
3.907433189410385033e-02 4.534189024944358659e-02 4.412972530733308973e-01
5.645967622165664473e-02 4.198240656071755561e-02 4.703495492781668563e-01
-7.261058056050916434e-03 -7.538530427864294226e-03 4.317344867600426683e-01
2.694588557212975258e-02 4.616420551359549929e-02 4.309797442561595360e-01
5.164382870059675001e-02 3.544334177526473062e-02 4.995584528207742681e-01
-2.636815999626179394e-03 1.150635110981928708e-02 4.213417337051485467e-01
4.313879107121491863e-02 5.632110417625334209e-02 4.460568455893200168e-01
5.282156231454718243e-02 5.625438097389912767e-02 4.663033421509137355e-01
4.859837081243360835e-02 4.986579370472948164e-02 4.503397388303742033e-01
5.431271607489821657e-02 4.764178324017343674e-02 4.576096730346079222e-01
-1.421177975042507702e-04 -4.339232320116929650e-03 4.303204494559786375e-01
-1.621424961640574895e-03 4.526700821048575303e-03 4.264396717705553619e-01
1.370435390398196118e-02 -7.256512246764506950e-03 4.324449294103505093e-01
-1.769810420738945553e-02 3.484863092250557737e-02 4.116306962768629951e-01
2.701965901812728235e-02 2.654746253242117309e-03 4.357004873785477184e-01
5.635579983472505800e-02 -2.375443420311404256e-03 4.994244482809046537e-01
2.176727631030478134e-03 3.311564031581443884e-02 4.008134680981218501e-01
5.640792036751596239e-02 2.907951405671387393e-02 4.853847211102882420e-01
3.080664749547417508e-02 2.816580618122915217e-03 4.374352769201707014e-01
4.913340520106782711e-02 5.424341162974397057e-02 4.516418113046961613e-01
-2.395141269794993921e-02 3.031415530618094580e-03 4.306627241578961929e-01
2.466622064403409254e-02 6.438808684535612947e-02 4.447320124857468415e-01
2.898173897730235704e-02 3.511605114591344334e-02 4.337505726243658377e-01
2.275121023552854199e-02 5.639155245747433376e-02 4.290664277645008240e-01
1.056761684626220631e-02 2.283049349319751092e-02 4.180658391127881623e-01
4.532773922501737857e-02 5.645110686341547196e-02 4.929323702371870564e-01
4.663418274148546649e-02 4.699480401751484487e-02 4.480589576215841530e-01
5.455691677032886711e-02 2.324276422603470393e-02 4.897926170738352569e-01
1.976612556351497324e-02 2.040216225941717323e-02 4.279320034868215883e-01
3.644238574057383218e-02 4.800182159145625904e-02 4.391873793373692325e-01
-5.078862367968108200e-03 3.423397426291029111e-02 4.050318778127007247e-01
4.084789996826170000e-02 6.801956504116761504e-02 4.512838124595384692e-01
1.538211601430337916e-02 1.633666378845061423e-03 4.319168815199815881e-01
5.540475129907562746e-02 4.826938163525762611e-03 4.920207578420179306e-01
4.429455311590216327e-02 3.578138193293432107e-02 5.127553119146396332e-01
4.665467559927444219e-02 1.038486804056599350e-02 5.112536845220710946e-01
4.883784922664477501e-02 5.901176074629380097e-02 4.815031625310299268e-01
5.728594783609196328e-02 3.036368560902232873e-03 4.833821804951156653e-01
3.209911497672005010e-02 -1.115856656229422678e-02 4.387947659355989072e-01
5.245983476291344455e-02 5.666707169091903668e-02 4.692050001205906873e-01
4.885811698224604149e-02 2.346906088154022268e-02 5.030948278277047603e-01
-1.640218032700685186e-03 2.425779645052074038e-02 4.063956578083085525e-01
-1.364073042955607972e-03 5.159502419082005915e-03 4.260423983802694714e-01
5.182734468701446356e-02 5.867695079183644219e-02 4.671719676958679401e-01
5.697445230164841640e-02 -8.633025480358850687e-03 4.791418720188619917e-01
4.353385368987537640e-02 2.203141317133070279e-02 4.449699629310633342e-01
2.848503897763138629e-02 3.551410579629322301e-02 4.332874948066082199e-01
5.577896428494865527e-02 4.398412387787375977e-02 4.631781397021085267e-01
5.432870830918495181e-02 -1.415094402057818362e-02 4.717141248889124561e-01
4.820947390730214582e-02 -9.066581855087249911e-03 4.549168264831914832e-01
-3.472716570100960187e-02 2.129480388201563171e-02 4.304060114870842391e-01
-4.011302098051697934e-02 2.587631309044310934e-03 4.425889205195306375e-01
-1.064761090235680219e-02 -2.578454645558244870e-03 4.302734143062765804e-01
3.849621536090003932e-02 1.056394656151424423e-02 4.414075522847215605e-01
5.724738890409256792e-02 2.101195262286086052e-02 4.649847010790494339e-01
4.762981219730855198e-02 4.796707445550799781e-02 4.492026476307212079e-01
5.720765666489806972e-02 1.749029340897480939e-02 4.683147171214567805e-01
5.681082730414133836e-02 3.528152152479134551e-02 4.799871073771123653e-01
-4.298088740166113725e-02 1.750350916161667273e-03 4.467720282367185769e-01
-4.650803400704148910e-03 -1.302667774128659500e-02 4.332636741672895586e-01
-3.093230820880372642e-02 2.177666957498309783e-02 4.250740658888846890e-01
3.693016440733660338e-02 4.070994417323010872e-04 4.413366536134203377e-01
-1.110492932226985266e-02 4.005464994486912511e-02 4.078342601312755500e-01
4.717958537644773021e-02 3.240730536991244526e-02 5.076702789528835247e-01
-3.904506380622803363e-02 2.657490545771165440e-03 4.414601219842312352e-01
5.479983917140616306e-02 4.897407197729244932e-02 4.655838357635746494e-01
7.212104102637380797e-03 3.028470816558452919e-02 4.028256694303876673e-01
-4.761897588471059387e-03 -1.447357725238006612e-02 4.336312758929299904e-01
4.361542283776917439e-02 -2.123671794904740187e-02 4.528653133298512490e-01
4.932576811845360704e-02 1.928673057930285761e-02 5.016104683026332278e-01
4.814732358123845896e-02 1.701598493231484821e-02 5.044220420343149547e-01
-2.470972945493679542e-03 3.294888743489473443e-02 4.031572323053735918e-01
1.189884418795362879e-02 4.626115235161890743e-02 4.161205233802829362e-01
5.637540444717405869e-02 3.865615537480936170e-02 4.641474719828101447e-01
2.244824385410471024e-02 1.564453698078552280e-02 4.311691678185392007e-01
5.299283449843222860e-02 -2.087365902978912877e-03 4.613176849153614589e-01
2.188568932066630238e-02 5.569902752946166019e-02 4.278518911112515477e-01
2.353960313730015658e-02 6.410918615643683427e-02 4.432085799713522123e-01
2.795010662712501398e-02 -1.366643673519981131e-02 4.373822505637164904e-01
6.082877792175432445e-03 1.656327701751744014e-02 4.197615066402796691e-01
3.946572061343541632e-02 7.177283594318906168e-02 4.537263246301497244e-01
5.676186943296845921e-02 3.860723531275316728e-02 4.744712439553705474e-01
5.335104628215625588e-03 3.533949651170081863e-02 4.052063389844249852e-01
3.264763145786873932e-02 1.580440276142903912e-03 4.384691817247594603e-01
2.316302533112073181e-02 9.123736645963583317e-03 4.333018060596689480e-01
2.214428073421951734e-02 4.965632776516641644e-02 4.271050857174870097e-01
-4.355178571763341361e-02 3.111818958488089815e-05 4.415836062137858953e-01
5.356887788968578423e-02 5.138644610795824186e-02 4.804052023591092180e-01
3.282505585552054211e-02 1.389448656719681832e-02 4.376269162422370407e-01
5.771718310428250454e-02 -1.281901992099768184e-02 4.830068282293598081e-01
5.199175020096238886e-02 1.966493073932901181e-02 4.952885099394415680e-01
3.012329472221693394e-02 4.030334045981334712e-02 4.343212662949669234e-01
2.602863187670064263e-02 5.943172920593710676e-04 4.354751909528625786e-01
4.465173809670809624e-02 5.388345235864614585e-02 4.987122161629614081e-01
2.542673090005719005e-02 4.777305319046335624e-02 4.294902846200598923e-01
8.609261535026778087e-03 1.647629711231655969e-02 4.214347099331376967e-01
5.186540814281818262e-02 5.399490898940519784e-02 4.825833582861513427e-01
4.088550949576819776e-02 5.365833707831908078e-02 4.434954462080604176e-01
5.797463162348658050e-02 -4.298733885465921833e-03 4.823958897077511021e-01
1.682748159360716866e-03 3.505399497787960172e-02 4.018426207309917508e-01
2.639772165993277409e-02 1.603344144876234917e-02 4.335334817313660771e-01
-4.033263779273707494e-02 2.896174513521091159e-03 4.463069500056036643e-01
4.202621748405916541e-02 -3.957209655777900459e-03 4.460210552582067334e-01
9.747654821503762279e-03 -2.053387374134412260e-02 4.372408004053716657e-01
-1.678823323889957683e-02 3.502771697250944838e-02 4.110937665942406838e-01
4.103817030703366814e-02 6.647490142160970839e-02 4.501661372905109149e-01
2.363286341874472687e-02 5.588567380238551596e-02 4.291429506940815930e-01
4.417307027629631400e-02 -1.385107254303275838e-02 4.504098364712642577e-01
4.779253411944728303e-02 6.257983692817915833e-02 4.765479368436290608e-01
-2.302526126282707433e-03 5.349276955930005323e-02 4.119266003895925010e-01
-7.216549380138835394e-04 3.099042170572009064e-02 4.023061213761657262e-01
-2.475015627170016122e-02 6.747375961198245030e-03 4.299174331699892604e-01
4.998423106944157451e-02 -1.495191013772707682e-03 4.539766617880361954e-01
4.765547250792032119e-02 6.360910077596268475e-02 4.559252949339456795e-01
1.868727920583011445e-02 5.734351452387155545e-02 4.271891759600123795e-01
5.724242592207807317e-02 1.512674550224369328e-02 4.758343363826589845e-01
4.768613313820330157e-02 -8.124193466060871359e-04 4.512436739289464316e-01
3.960128248640957388e-02 -2.277604463895085626e-02 4.477046128428798788e-01
3.777378219744890325e-03 5.000584037741662852e-03 4.276905527140231200e-01
3.783859097129611826e-02 -2.234205150653816030e-02 4.461975883914034435e-01
-2.172221692372969942e-02 5.449705882672726577e-03 4.285767364125842027e-01
4.944805191711876963e-02 6.340447588578830562e-03 5.095155400057039818e-01
1.968740611078359862e-03 2.473922082601436381e-02 4.049064365725336123e-01
2.299612230379460831e-02 5.207976019771638071e-02 4.279130337708516585e-01
-2.751165833655319290e-02 1.490319958275594311e-02 4.272008870194633490e-01
4.801345461359459582e-02 -1.680050946987111937e-02 4.579799361366642674e-01
3.094919894694057524e-02 6.510172061939306642e-02 4.448492989071024528e-01
4.247383894384414854e-02 8.009896428561711149e-03 4.448467649298365467e-01
1.292720299818825996e-02 3.759010367284427306e-02 4.168438744781205463e-01
4.729669376368212524e-02 6.455224880461758741e-02 4.562781184822694014e-01
1.408750364856825241e-02 1.073747067866067523e-02 4.286514664895855198e-01
5.612925850923122101e-02 -1.075871905199476952e-03 4.703068559738299292e-01
3.068511624905117564e-03 -1.911142672622465413e-02 4.364342627167327460e-01
2.847905998330280825e-02 5.024671433043100682e-02 4.320566277421220014e-01
2.324370004904869474e-02 6.271164507142279465e-02 4.400393436391815127e-01
-1.917922400323352448e-03 2.817019068841158588e-02 4.041166053276938896e-01
-2.354810168299487083e-02 4.159388600585583323e-02 4.143912559812911733e-01
-2.552198949771693030e-03 -8.869686194889923533e-03 4.315794174475953149e-01
3.048151956096942228e-02 4.260293267755754093e-02 4.344264536496024176e-01
5.502292506746823270e-02 4.394842711488473885e-02 4.598588281494267460e-01
5.025407940590910505e-02 -2.232788601855397945e-02 4.651298385325098317e-01
5.673158878585534554e-02 3.790667032584611740e-02 4.759958199021088188e-01
-2.449443256946281372e-02 -1.256014901610731128e-03 4.331532001748257810e-01
-4.548368326320570074e-03 2.222455420870607379e-02 4.101574058687528779e-01
5.050991795061899464e-02 1.588701185714964589e-02 4.986008506682421682e-01
1.282464221512933170e-02 5.499699343042170618e-02 4.194154461985414306e-01
1.238292587763465021e-02 5.748057482813898750e-02 4.217222672851651533e-01
1.601828918969705473e-02 2.826827874336363192e-02 4.220052202421419874e-01
-2.969707661497320364e-02 3.372006146321111786e-02 4.198376446326084199e-01
-1.861328957138826817e-02 3.400773806463349563e-02 4.124542184386809640e-01
3.964458991557152923e-02 1.281283860017800105e-02 4.422642033294942321e-01
5.767263439997064728e-02 3.271711524930969589e-02 4.714192447772667660e-01
5.838322046127001480e-03 4.235537804820613955e-02 4.082308133105530534e-01
1.887416202513898800e-02 4.933222286829125336e-02 4.240539012362229410e-01
4.575203592795688140e-02 1.555686640513147256e-02 4.471478560540386171e-01
2.212133917653611240e-02 3.786911993243361613e-02 4.274798210708123380e-01
3.447910097145608088e-02 5.317219552122520038e-02 4.376866559167983950e-01
1.420223410344798390e-02 -2.031323598917354062e-02 4.366957942154573447e-01
2.722616773909332724e-02 1.625007781045958999e-02 4.340345429770890995e-01
-2.948912615616025926e-02 2.825149738717219056e-02 4.217099804873297719e-01
5.328200877465518598e-02 1.988830586441781012e-02 4.550038746741000284e-01
5.458713040715108822e-02 5.020810282885158904e-02 4.671268536434292074e-01
-2.982175038827252714e-03 3.467349435186219825e-02 4.033872362063843364e-01
3.250221315521813203e-02 1.291870366546957541e-02 4.372915129413664781e-01
5.627700769332943248e-02 4.204628805736282393e-02 4.659165336890331299e-01
5.721340893409276873e-02 9.288378614017777507e-03 4.797617018608024142e-01
-4.825163281725825329e-05 5.016135632433943448e-02 4.081810269270770286e-01
4.938427694245969141e-02 1.682818314299943524e-02 5.012852127014064685e-01
-3.532643051039070087e-02 1.703914008272816583e-02 4.353274602069657773e-01
4.958823979813845734e-02 6.120146626024740300e-02 4.734179926244141412e-01
4.434529159657107228e-02 6.731913417283935663e-02 4.718022575992545375e-01
2.670064283615389278e-02 1.702177128886641841e-02 4.336387126742028419e-01
4.054111618389783650e-02 3.591620432140991276e-02 4.426415487773543989e-01
5.663637534777972438e-02 3.851140149688214026e-02 4.759724685575313363e-01
6.509330537312551894e-03 1.248260940172721961e-02 4.235806529384380514e-01
-2.417305621512071123e-02 1.237583747047306046e-02 4.264792502238889949e-01
5.561543581575621037e-02 2.051923164853684464e-02 4.861494358571806784e-01
5.905623970374095089e-02 -1.113174926965386502e-02 5.075516947139705470e-01
1.417704441958954776e-03 4.784356147623088085e-02 4.077400377245712915e-01
1.290131138366424311e-02 3.629523751023383538e-02 4.171346758419529621e-01
4.496049183918962577e-02 6.399333108770782416e-03 4.470978594886502178e-01
5.315409722218851496e-02 4.832696218246517253e-03 4.583965839695556266e-01
3.282577154223367127e-02 5.126156504033967803e-02 4.360824093376407529e-01
2.462286969149190402e-02 -8.001105498740746294e-03 4.352657667379341566e-01
1.464436143702073888e-02 3.276728995063391686e-02 4.196060241149552339e-01
2.842770999993666711e-02 -1.336244469413265350e-02 4.374596018331020075e-01
1.361819118329310116e-02 5.910050157004560767e-02 4.245218856625628812e-01
-1.686494883576234241e-02 3.196368683604328131e-02 4.122237489502454943e-01
5.719352106996110352e-02 1.397032020635270710e-02 4.764660540082228390e-01
5.295865620426672832e-02 1.396994740943851947e-02 4.932287232912433428e-01
4.787962421122795437e-02 6.463011412583410942e-02 4.586077542581589728e-01
3.861127902081309266e-02 -6.220807036587653986e-03 4.431018987212979598e-01
-4.093304545546484763e-02 1.970157738496964694e-03 4.494491148821547766e-01
4.144444063355818414e-02 6.800468830148780064e-02 4.648278730877654641e-01
6.125142833798422753e-03 -1.422117799996846718e-02 4.344003888777267508e-01
5.211385556680486753e-02 -1.186871923991819275e-02 4.652764820633556453e-01
-3.932473632346450941e-03 4.948777657221967163e-02 4.085146544497010868e-01
4.688179777598634745e-02 4.627080013423437443e-02 5.069921066046986224e-01
1.319655328492588299e-02 2.222673791611241931e-03 4.312157358608400548e-01
-2.389508084431195972e-02 2.805279021422572502e-02 4.178421286467245421e-01
4.213429468122285165e-02 6.994022687892681445e-02 4.545049718675441275e-01
-3.517363043504534090e-03 2.017536814777274451e-02 4.111827860548503133e-01
5.331477036081189169e-02 2.846037313841406555e-02 4.945024313837997343e-01
4.432129793122065176e-02 4.691137285813774815e-02 5.107187004781745809e-01
4.668778933221792715e-02 6.370772924775523760e-02 4.539221273496913400e-01
