2.561038837567815307e-02 1.018109201810058970e-02 4.342765988266512611e-01
4.949191886738368157e-02 -9.330399933746357649e-03 4.576054846494073680e-01
5.619781117412303573e-02 -6.555762590544318875e-03 4.729036563678368776e-01
8.247362801360149515e-03 1.376814573576794556e-02 4.235499143610577111e-01
5.601142535434366909e-02 1.126636914630231232e-02 4.636807920865749222e-01
9.772569421011732468e-03 2.705097368940802272e-02 4.112390229200760805e-01
4.443781931927343748e-02 4.390824037540989183e-02 5.117335970138349177e-01
5.022397653904839276e-02 2.864407063630810407e-02 5.016001653186483722e-01
-1.945335248338584538e-02 2.706082734890714880e-02 4.161858705044549356e-01
1.783900617760244764e-02 5.986127937021367557e-02 4.326626420190283207e-01
5.327149481507558598e-02 4.973348728376705830e-02 4.864348568661839289e-01
4.771445879586481281e-02 -1.828351760339372994e-02 4.579299676831925514e-01
5.395136623672095594e-02 5.138082802101612973e-02 4.590925935660992163e-01
-2.341669437339843549e-02 1.953439131641306753e-02 4.218701724226519567e-01
2.743244357270458247e-02 5.906573918585673877e-02 4.352135846455841284e-01
5.224272753749394788e-02 -2.261547037590641226e-02 4.692694150833380817e-01
-2.873510311369614073e-02 2.525701453837909255e-02 4.224239618792873241e-01
5.443993802403541277e-02 1.195661995119722334e-02 4.587113333007833971e-01
4.371930795471120484e-02 8.103935546389280653e-03 4.458577512884518423e-01
-7.832915787148638995e-03 -1.348567033425097754e-02 4.339807007225161550e-01
1.961250015986947676e-02 3.601821598513033074e-02 4.250737107569446671e-01
5.736481425554759705e-02 6.493042761021717950e-03 4.779570126835654409e-01
4.047240121103595767e-02 2.279195719904542755e-02 4.423140010918356069e-01
5.717934503442738403e-02 2.369364919640707529e-02 4.812726602382007557e-01
4.045081372318303642e-02 6.799478632781980059e-02 4.681049863022799240e-01
7.427046208910177000e-05 5.272643981914118538e-02 4.114074405581269467e-01
-2.019627342860425695e-02 1.346961478221880143e-02 4.238969283810190003e-01
2.579669369590362540e-02 3.941380025169358842e-02 4.305948134725633980e-01
4.550876592462158032e-02 3.914396997424252067e-02 5.110708652575736144e-01
-1.801603263753569911e-02 2.753385878088104519e-02 4.151924056581129951e-01
5.432642317458940412e-02 4.617017077494797728e-02 4.868386429851933039e-01
3.536307535284983344e-02 3.497312205563912063e-02 4.389403316247459941e-01
4.473600752702044936e-02 5.940560373723842436e-02 4.481731779291315831e-01
5.034390146210682149e-02 6.181018147254735418e-02 4.619612573717394866e-01
2.602374441913987702e-02 3.862496028246708429e-02 4.308656622616760523e-01
5.179665824007756436e-02 5.819758246276701685e-02 4.710581589499465704e-01
2.460441034692602280e-02 6.401080628998254141e-02 4.410392560043294163e-01
-1.735461698511851780e-02 3.028571703471736893e-03 4.287386486133277219e-01
5.335365145691538247e-02 -9.198947707368669569e-03 4.665470071061809665e-01
-3.913548837325798307e-02 2.909412156083888111e-03 4.419975024731430668e-01
3.078264404790424791e-02 -5.718911211979042959e-03 4.376114231706498825e-01
-4.387400491249861256e-02 6.806694049013052583e-05 4.424125814088062936e-01
5.073435265040937558e-02 5.924680765507955166e-02 4.740299933659773424e-01
5.726588527792194488e-02 -1.362821871414188549e-02 4.811050788489019125e-01
5.753516948854330015e-02 6.177517880802175544e-04 4.781910240902151332e-01
5.338246964441180353e-02 2.162069295585000023e-02 4.924083872512856619e-01
4.384803055417294676e-02 4.555357325635271681e-02 4.451678012158989950e-01
1.041655351858778583e-02 -1.963047862998749948e-02 4.369629574948023509e-01
-1.981072721280643933e-02 5.095911310416913892e-02 4.195831895615063090e-01
4.437583114077311985e-02 4.828070420931086099e-02 4.457391743977442422e-01
2.482258265693824961e-02 -1.695459176005342100e-02 4.372311133011712592e-01
3.961493587496724839e-02 7.179956678909822643e-02 4.545944468720496401e-01
3.973129987895882009e-02 8.183501303128056653e-03 4.424908216092603985e-01
3.378288189061951635e-02 -1.851816333517603691e-02 4.415101488812749886e-01
3.170635774372086713e-02 -2.509165466669817379e-02 4.422370034750846557e-01
2.768807409404229480e-02 5.275634093333342323e-02 4.316815465586559819e-01
5.551339311530469056e-02 -5.392388701422500506e-03 4.692720066968918968e-01
-2.159184520458034759e-02 1.089471035942206172e-02 4.260783380110864660e-01
5.606384531837825536e-02 2.475208185562321334e-02 4.869115414163859290e-01
-2.637847956610387887e-02 3.135197653546536317e-02 4.184607445897227107e-01
4.528276686765640019e-02 6.028970072204351688e-02 4.864715073726992300e-01
3.743350186144920461e-02 5.544258320461548789e-02 4.408666218354209687e-01
-1.177734748893640923e-02 2.809199459748505830e-03 4.276893342871859183e-01
-1.890417910979580798e-02 2.563628144143018789e-02 4.165459206686860649e-01
1.539730799423369434e-02 -7.032462259509117061e-03 4.327780526110450166e-01
-1.031767386649902300e-02 3.142509912493641339e-02 4.098005342906609894e-01
5.774782859157739923e-02 2.241821073813513726e-02 4.713554861718826650e-01
5.273222273633956098e-02 -2.294799776866484828e-02 4.704628653161697094e-01
5.912180846030590242e-02 -1.086997634208232248e-02 5.044980241512764252e-01
5.627092695694321106e-02 4.377492630667424028e-02 4.722419472569982513e-01
4.846433966712858366e-02 -8.566300111710620571e-03 4.549611083631043829e-01
1.397801332156160467e-02 2.760267326391304191e-02 4.197440247243751643e-01
-4.680683581608951344e-02 -2.558546795079785947e-03 4.419190986318793368e-01
4.172903221852639066e-02 5.746286188056125982e-02 4.450667029806906760e-01
2.458988056278579512e-02 2.940557756813867718e-02 4.305791885358019599e-01
1.132987722760533424e-02 3.189836736325336181e-02 4.116519350451710024e-01
2.462493640819894691e-02 3.419841148840387091e-02 4.298553306031853705e-01
-4.626141790362058200e-03 1.375460585970389796e-02 4.190719233075885786e-01
5.619561340134038990e-02 3.075343338062798415e-02 4.864020840611739116e-01
2.813113175622981507e-02 -1.811264076135147161e-03 4.364467908400893048e-01
2.833099752308894381e-02 5.116699300040544740e-02 4.320024754657926791e-01
2.504202824696381835e-02 2.049745171548493852e-02 4.321812899335851221e-01
5.147651149233928997e-02 2.813620999742005163e-02 4.988973160899189407e-01
5.336591892996013498e-02 3.919468233353433362e-02 4.963578008531295271e-01
2.986553557799756509e-02 5.618828663322713440e-02 4.349822945204696034e-01
-1.389400532460401301e-02 1.437631927921291519e-02 4.209313669411401393e-01
1.168595419207602362e-02 6.049027222288155814e-02 4.278051807120805128e-01
3.592667505658420773e-02 4.394275565234295571e-03 4.400226123745921702e-01
1.325243187620363944e-02 4.149427246887941317e-02 4.165632016293746021e-01
4.787981802804882475e-02 -1.472310944661628720e-02 4.567631935932570109e-01
4.638376293812133955e-02 2.937799041180063839e-02 4.476328060302007250e-01
5.584792129805013494e-02 -1.058255937119223153e-02 4.744445417683836319e-01
5.436684438971115668e-02 3.745773296375920491e-02 4.936054996280860308e-01
-2.483615765510341529e-03 -9.754914949659984277e-03 4.319673679697847990e-01
2.743518138126831499e-02 3.422427374223819055e-03 4.358539735549869509e-01
-2.724696669504345081e-02 2.526023043295949969e-02 4.212603588896136064e-01
5.220281029822144980e-02 5.855469246462772365e-02 4.624148391861523932e-01
-1.241600039139307762e-02 4.156421356808474854e-02 4.085745947542789303e-01
5.685718850210125935e-02 -6.371181860070659723e-04 4.948656470799307483e-01
5.668029158174713034e-02 7.899943681765046744e-03 4.838748789022773722e-01
-6.988923572619593853e-04 2.753428876390844049e-02 4.039107372079316916e-01
2.923178820242230275e-04 -1.026041147826083598e-02 4.317692479843228126e-01
1.403776806250947584e-02 4.090946646121013108e-02 4.177940497269132525e-01
-3.946847430096583204e-02 -7.885536341127293361e-05 4.407900057898080926e-01
-6.320496769848577348e-03 2.010113070546137512e-02 4.140133933946809064e-01
5.136330680476541843e-02 3.010562967081658117e-02 4.996523193864621515e-01
1.032978420818058893e-02 -5.457217188430355838e-03 4.315449497369707732e-01
-1.927893522494842499e-02 -3.548308342778793215e-03 4.325686526767530959e-01
3.587521763370135619e-02 4.635978463191472998e-02 4.388481933571026228e-01
5.721647407030372445e-02 -5.792610191795435556e-03 5.072245606218567238e-01
-8.161731746078546360e-03 4.770883288019209245e-03 4.258037069360693372e-01
1.590024905940741473e-02 1.180273718136954329e-05 4.322529897513222585e-01
5.601773645998012890e-02 4.241000776259837984e-02 4.778240218156720176e-01
1.919157852707019732e-02 4.344477112912199790e-02 4.238426528344504396e-01
2.016713430998486739e-02 5.372881701532124243e-02 4.260908544215548654e-01
3.686236649774127933e-02 4.875365591855759101e-02 4.395163067450916783e-01
1.764995125408088186e-02 5.993272906535362932e-02 4.328037715773399019e-01
5.488897538304896712e-03 4.970441897092859468e-02 4.112594179882539946e-01
3.773352630911506328e-02 6.833382568078355535e-02 4.675441522214098256e-01
-2.301277917778086612e-03 -2.577572106768382960e-03 4.299586201782926165e-01
5.665210335620403381e-02 3.452395626582093618e-02 4.631576958264467248e-01
4.429858607946868254e-02 4.300477349327351539e-02 4.454974630245505107e-01
3.162140979940174235e-02 -8.693944455856758916e-03 4.382230349754511201e-01
1.428305466935928143e-02 3.699127438578537347e-02 4.192291586683433158e-01
-2.063149034208765567e-02 1.041629074100147712e-02 4.258304814098106683e-01
-1.698685650353596796e-02 -2.491469686842501773e-03 4.316424738657065330e-01
5.552850955019781459e-02 3.825992012220563732e-02 4.888714658284720183e-01
2.002673592049768192e-02 -4.391253680551476628e-03 4.335666353642263493e-01
6.277771666699347337e-04 1.057791866327069570e-02 4.224981654613810811e-01
5.697295195274063723e-02 7.566686721614222788e-03 4.711733699554149779e-01
-1.508474849883569436e-03 5.427106487562923659e-02 4.135034386033746845e-01
-3.564164199536343225e-02 1.135900651496132147e-02 4.386420821248370738e-01
1.230223549726499645e-02 2.388449579164991093e-02 4.196140409073039756e-01
3.381336581675485620e-02 -1.469199822010777354e-02 4.405570806967832875e-01
4.565062519776812849e-02 -1.657248343465894669e-02 4.535127868727729106e-01
5.498545130382798823e-02 4.836260656868030666e-02 4.617720218357143080e-01
1.394686207258517309e-02 3.885647766789759872e-02 4.181475660036160780e-01
1.636971486175255869e-02 3.124291625451959889e-02 4.216937959512631617e-01
3.412872337512934395e-02 6.460414362587246773e-02 4.451892139337700893e-01
3.051131283105508116e-02 1.705730991012967962e-02 4.360613925629773235e-01
5.800045190813260532e-02 2.233778889551606486e-04 4.810001465176213520e-01
4.365049379593003570e-02 2.691559309573527542e-02 4.451080234970156702e-01
2.049425205095397121e-02 3.616570169890769015e-02 4.260126224212774648e-01
-1.912026204342081800e-02 4.099471092183432780e-02 4.106173030718206496e-01
5.749131916012927696e-02 1.095536024537719765e-03 4.854897433516561223e-01
3.103989540422723986e-02 3.066090623016752212e-02 4.357527564121710384e-01
3.328472614824994069e-02 -5.212244684813334070e-04 4.390230992411867650e-01
-1.768827109311848708e-02 1.952621274753338007e-02 4.193766401251283193e-01
5.738691247319108873e-02 1.547833741967672393e-02 4.710784162331869140e-01
5.377650081156652023e-02 5.372358655392020510e-02 4.625093694367279906e-01
5.015553360686150937e-03 5.295046736023017314e-02 4.132030583325622675e-01
1.158168625242575814e-02 1.658313494252731252e-02 4.232630011530984504e-01
4.869160918519886694e-02 -8.191724623233415450e-03 4.550752208961603151e-01
2.447461491257685307e-02 5.694483979727932299e-02 4.307886491278896113e-01
1.451048205511081511e-02 3.874050503340596002e-02 4.192002617309228962e-01
-1.689120485901882823e-02 9.332483992450034405e-03 4.246333191843227328e-01
5.275866051000675794e-02 7.091923247852023604e-03 4.563538997689338128e-01
5.312157756519064744e-02 5.313877556787144352e-02 4.569546548524831553e-01
5.379416918756772109e-02 1.573173250067279663e-02 4.912117256182018665e-01
3.818780282067578413e-02 6.773171934048453913e-02 4.728177646603387574e-01
8.538099494571701684e-03 1.590218071702567335e-02 4.220092397318160882e-01
5.533943240123296442e-02 4.298635230407937130e-02 4.828963746302729065e-01
5.604320779610874603e-02 4.332936727165564994e-02 4.633986711184144847e-01
5.512623477772741337e-02 1.928513970721678489e-02 4.590391198309102250e-01
-4.984375177076457754e-03 -1.603976335867072361e-02 4.341349745528819692e-01
5.097838598078189426e-02 4.821191350284560750e-02 4.965775974737011156e-01
5.728099311789440484e-02 -1.142455599439642575e-04 4.761931444582194195e-01
9.788186755919560389e-03 6.121727749174932925e-02 4.292166822076348698e-01
4.442030990360228832e-02 4.679521632555768557e-02 4.457492163936849217e-01
5.029355736882785977e-02 4.276999683665874685e-02 4.521097091559236336e-01
3.868523470535588371e-02 4.167487908015115455e-02 4.410767099075140196e-01
2.239395456620100339e-02 -1.108561485532186383e-03 4.341562944655973921e-01
5.719317176223293053e-02 -5.845439012055866738e-03 5.081688865736307958e-01
5.457472191773204973e-02 2.603806296823733130e-02 4.914474337614410104e-01
5.508201933016038110e-02 3.209639787275966188e-02 4.914371752149490069e-01
5.398912935485316450e-02 -1.918302637314026841e-03 5.113955848149752681e-01
5.400243514996959371e-02 3.638392452517712206e-02 4.949564382289243225e-01
-2.475715161426524091e-02 1.348853681535054465e-02 4.265659564169689277e-01
5.601747955232393161e-02 4.571389095220063092e-02 4.699862477026446883e-01
3.634766927832098343e-02 -3.034841608968580004e-02 4.489059682704670262e-01
4.941688605647085591e-02 -1.402772226067106401e-02 4.601107487443413802e-01
1.661371169165924699e-02 5.724895597504929892e-03 4.320360296827075453e-01
7.252300387247067465e-03 -1.180068015312026215e-03 4.305846856952130763e-01
4.198287160525213807e-02 2.327006829831684831e-02 4.434925709135777994e-01
4.938067890423156192e-02 2.249182979697949072e-02 4.506234860175540313e-01
5.540524533822524522e-02 1.115101527330468467e-02 4.617405106054760511e-01
2.436446099450219685e-02 -3.673443529707594822e-03 4.347590807068751340e-01
1.169230572001227556e-02 6.111443389185964442e-02 4.309328115037548423e-01
1.466506562414856413e-02 -2.892842753629226368e-03 4.321502662514628001e-01
9.288261558892759243e-03 2.421533529986861014e-02 4.154473781373528851e-01
5.114155356927718027e-02 4.366587801631677951e-02 5.006885367462818870e-01
-2.010195248067925961e-02 2.669928193822471152e-02 4.167024091311273826e-01
4.930258171749839907e-02 -1.794458533766215766e-02 4.614363145674413302e-01
5.733416512175936591e-02 1.284117983107532779e-02 4.722319581671614031e-01
-8.458593812683941338e-03 1.545782074379397925e-03 4.287174581734318202e-01
5.239774522123261113e-02 5.811089623527506548e-02 4.624538362121685120e-01
1.209020903305075070e-02 1.974577823193977497e-02 4.216676959822739379e-01
3.942469347114658379e-02 2.610761868702473829e-02 4.416765596539454775e-01
1.439576013665903528e-02 2.475544637167685982e-02 4.215807213345665883e-01
5.602765604949787315e-02 3.264845882611163569e-02 4.875747062709580026e-01
4.926436930596857916e-02 7.598761478563547181e-03 5.084419880390010915e-01
5.812508375466144545e-02 -6.665477441088826435e-03 4.953031426475768551e-01
1.926375718549515684e-02 -1.596984521923663219e-02 4.356903101363513997e-01
5.665682796245394975e-02 4.182157076148487057e-02 4.710804119608577589e-01
5.511835039311555051e-02 2.514213268650340033e-02 4.586181285248575046e-01
1.221205556406167528e-02 1.502331491317891558e-02 4.250268191999221901e-01
2.319296492271264581e-02 -2.411964662798708400e-02 4.380176910567828985e-01
7.890859576358998789e-03 6.112603822969002454e-02 4.267434842228832736e-01
5.076728254584613603e-02 5.002079941931282525e-02 4.949559608524461418e-01
5.532545662220270111e-02 2.894115675268809241e-03 4.963246851231929435e-01
4.496689859999074973e-02 5.870893429005463737e-02 4.481783406891557964e-01
3.495185824808535319e-02 5.347104485906982452e-02 4.381668337728527596e-01
4.563124905335332743e-02 1.461800195424661775e-03 4.485556118159559902e-01
3.019907143770259386e-02 2.342587890440250148e-02 4.353524284797737343e-01
5.464990329431957533e-02 2.104508463650277966e-02 4.575458562159823162e-01
3.233634824598474733e-02 5.374057146939121427e-02 4.357710928739255141e-01
5.638427339576661951e-02 9.304371691611770107e-03 4.843727423367926166e-01
4.848533637145473890e-02 3.588689558948671837e-02 4.496919945927426721e-01
5.176615513220814147e-02 2.913509049970143885e-02 4.531077198244005122e-01
1.336569046396263172e-02 -1.502420867940974618e-02 4.354093813287202575e-01
-2.690188379258595316e-02 3.516230970115905713e-02 4.175152392329217199e-01
-4.540627854498726496e-02 1.168466889223107857e-04 4.460548126649594436e-01
3.656659059731690552e-03 1.664379358619506866e-02 4.182294568410587221e-01
5.294591024022320125e-02 5.326868556770260332e-02 4.567147958845915179e-01
5.506058060297783913e-02 4.230780002754759572e-02 4.589492574596711338e-01
8.807978284428353427e-03 -8.946828548381144733e-03 4.323116614362500498e-01
2.501125421603151225e-02 1.966895502106834337e-02 4.322461013125604157e-01
2.092943382702568134e-02 1.321900233430959443e-02 4.310040403869552228e-01
4.336788545917601156e-02 -7.925970797405937351e-03 4.480578778223163194e-01
-1.126966781276555335e-02 -8.765691706721466872e-03 4.331698955348738389e-01
5.245391138942486625e-02 5.751536995672856464e-03 5.021034198108736968e-01
5.234167916247012969e-02 5.464768316396927117e-02 4.783180962246360579e-01
5.163407750576491650e-02 4.029696743330492964e-02 5.001013637880771245e-01
-3.117018663026735470e-02 3.034832295160655447e-02 4.226967047272147115e-01
5.409515006898524270e-02 5.101859463207610024e-02 4.787412384429277634e-01
-1.504237811975551314e-02 3.134635641105871368e-02 4.118995808898270328e-01
4.703837774779503350e-02 5.263568515967138178e-02 4.489335181220118765e-01
4.448414076698609804e-02 -2.092273918965978710e-02 4.537957912330592980e-01
-2.202012788497527754e-02 4.413188507782069003e-02 4.136496723803422815e-01
2.166235651427668787e-02 5.647979569311516179e-02 4.285494060853567433e-01
5.104544833305070528e-02 -3.112405940030223313e-03 5.167253914952929517e-01
-5.665378661486031309e-03 9.054097510713806848e-03 4.229043195690511681e-01
-5.493085320747595132e-03 3.469523918836735221e-02 4.058983008456648611e-01
4.439076170478899186e-02 -1.366085360334181806e-02 4.506381763149410746e-01
4.793653746358667728e-02 4.357470079208746773e-03 5.146261639581706238e-01
5.649550029582162125e-02 -1.115744426006901394e-02 4.781781085132976727e-01
-4.194985561402271926e-03 -4.551750039002477703e-03 4.304023760195984094e-01
1.801518757602586437e-02 2.624155986705572693e-02 4.249559329463040158e-01
1.343916428936155552e-02 8.929251334064658777e-03 4.292301578044243615e-01
3.471975359179971937e-02 6.409550427023312513e-02 4.435646637953797877e-01
4.910413749368402331e-02 5.667991244027442005e-02 4.520818052808613929e-01
-1.552939635895437143e-03 3.310216269266926664e-02 4.031826631688197327e-01
4.914706894578906027e-02 8.829065397574284782e-03 5.069729781250004175e-01
3.157067586956245620e-02 -1.177907563213810398e-02 4.385627926633771101e-01
-3.373669543963928735e-02 2.404457035877487561e-02 4.277250513103902918e-01
5.686864388118275521e-02 7.935081868471716929e-04 4.914325557219051399e-01
4.738958410167733171e-02 6.223378371431386585e-02 4.790970571740578166e-01
2.482624388350114855e-02 -1.309048693253125027e-02 4.362517857001235178e-01
5.764470251231041537e-02 2.078952955604034675e-02 4.706871736313690269e-01
4.534840296736787971e-03 3.103128913716639292e-02 4.022230971727778770e-01
5.540963655191093878e-02 1.186608661237114129e-04 4.670363042772283646e-01
2.087373846502544802e-02 -1.100476017147515931e-02 4.348211503678056644e-01
5.750840167916757006e-02 2.380429601030954398e-02 4.648423438663014107e-01
5.729022733512018767e-02 1.184116756029681382e-02 4.746097748879651301e-01
4.934242172018289685e-02 3.676003185185869326e-02 5.047104834484718028e-01
-3.315009875991885291e-02 1.515711120581297346e-02 4.323909710062641132e-01
-8.256512259087609579e-03 2.455767081127582102e-02 4.121568781363730283e-01
-4.789441293396323913e-03 4.327867762757864334e-02 4.067069985194808335e-01
1.054055126922986453e-02 4.539846718616764865e-02 4.138811869836044322e-01
-3.230045313471213708e-02 2.153501997625634212e-02 4.265562250207017292e-01
2.495057819390147230e-02 1.823211460587764038e-02 4.323846548529903244e-01
3.193092032166985894e-02 1.271472586688328354e-02 4.369693569462209659e-01
5.442263658528259662e-02 8.807307568300141651e-03 4.599480218636849416e-01
-2.139351919863070883e-02 2.669688496812027551e-02 4.174003868466851230e-01
5.788542003815783099e-02 2.507669265101081582e-02 4.720512018395466303e-01
3.553898521243908926e-02 1.368740655165383117e-03 4.401797378951541884e-01
2.439121707227745114e-02 3.088731778466422342e-02 4.301975032473029370e-01
-2.131990717749793034e-03 3.172691357027589837e-02 4.036486678378953252e-01
5.506853587841173403e-02 4.630466307357111039e-02 4.797290167883846990e-01
-3.198976592601342900e-02 1.562288294825451423e-02 4.299156170244309294e-01
-1.697908591854871072e-02 4.602794953879666556e-02 4.110145100334491319e-01
5.649664189017934712e-02 3.164726037787980728e-02 4.851144187196456126e-01
1.704471552706620860e-02 -1.729890538571246181e-02 4.359597869272693327e-01
3.064878673642835137e-03 -2.096323920668528590e-03 4.301895319089218406e-01
4.195039598747424270e-02 3.874587055839816274e-02 4.436669552337661471e-01
2.790589885625458649e-02 6.421225956512925659e-02 4.409991210299561981e-01
5.806912500023021784e-02 -6.145246985701643613e-03 4.879556696661928594e-01
5.570221217575003353e-02 2.774121265967965152e-03 4.945857691978756687e-01
5.482574150477836916e-02 3.415668549507997441e-03 4.978555285734865832e-01
2.711119216153506581e-02 6.290111091859315606e-02 4.379758953399833787e-01
1.977928043525176149e-02 5.978468428830309433e-02 4.331003751111666134e-01
4.379599302934760602e-02 6.450730004950618046e-02 4.791806635558468197e-01
-2.619547070480463674e-02 1.245617174844066387e-02 4.281883572766155277e-01
4.487407490633300161e-02 6.841103694472826235e-02 4.612237913760456332e-01
1.466034341745725555e-02 4.536811566323104006e-02 4.192351636759935052e-01
3.977615935036304951e-02 -1.013401574209101853e-03 4.436365542677661034e-01
2.204073834719122438e-02 -1.733642346686597481e-03 4.340232409032754313e-01
4.311232265128512806e-03 4.845637076029062074e-02 4.099478629561709719e-01
5.086955852191027416e-02 4.986090381342847544e-02 4.948613255058276761e-01
5.390402520948966991e-02 1.125665078371943482e-02 4.575387250843158671e-01
4.251171429779652955e-02 6.979926289689311614e-02 4.595952044868678033e-01
5.534865640963090860e-02 -1.170771684649485680e-02 4.735381473149029019e-01
4.670357683218272216e-02 6.247092341751065911e-03 4.485882142216957025e-01
4.237380492182976632e-02 -1.552053305297283400e-02 4.481823269660332176e-01
5.052355818019799161e-02 1.247468728303581693e-02 5.005862226767252565e-01
1.702057108037667577e-02 2.811252235015219286e-02 4.230802549070620810e-01
1.671085081666909625e-02 2.050636504368136964e-02 4.252171581787156374e-01
1.050578318706038745e-02 4.538590379696769150e-02 4.138289492589855012e-01
1.843045783526085085e-02 2.182176059184082889e-02 4.264792857286586747e-01
5.008598995124373399e-02 -1.557786218168172310e-02 4.621617100225395292e-01
-2.834730925787483369e-02 2.733685315825346712e-02 4.214150570953495989e-01
4.616243688475413741e-04 -9.005868883836771338e-03 4.314779199660516151e-01
5.848545510365271705e-02 -9.708986849910309844e-03 5.095236154927628158e-01
2.545297300869283231e-03 1.043758731641375795e-02 4.233472787691542338e-01
5.556014990120944352e-02 1.130010446079251964e-03 4.670593174023550120e-01
2.681751457997908622e-02 5.393723415990304970e-02 4.311255998078399321e-01
3.636555914844266657e-02 6.244481368460620685e-02 4.431433200670248929e-01
4.166703757384433715e-03 4.262367265732041471e-02 4.068744895947123408e-01
-1.013417592027271788e-02 -5.176407945216315865e-03 4.312426128783042323e-01
5.683293446753083511e-02 4.033939325318664643e-02 4.728251501175450566e-01
2.667213585257465977e-02 4.182803448515164113e-02 4.311493786471761736e-01
-2.921745913000681552e-02 3.291462251783207338e-02 4.200855169728006100e-01
1.764790101212482254e-02 2.354064739940355672e-02 4.253551376645446913e-01
5.062740746974508238e-02 4.406293013478643217e-02 5.017804647888177705e-01
5.739260404495687314e-03 3.338380751920415335e-02 4.033426884081436903e-01
4.864159822225197494e-02 2.318542759716278601e-02 4.498845462851273069e-01
5.769875011201022752e-02 2.200564148423483912e-02 4.699272250221896985e-01
5.740286272412421092e-02 1.603358248146947995e-02 4.745045194487313989e-01
3.714028904894862287e-02 3.923659670806989297e-02 4.399640966146964871e-01
4.847070079473463078e-02 5.171523259488113033e-02 4.503770537529508955e-01
5.788012257043659986e-02 2.713515180081787354e-02 4.773124424901313279e-01
3.403335905088419877e-02 3.704418179631407265e-02 4.378922898997764657e-01
4.966685533678832226e-02 -2.014420803314458108e-02 4.632844550258654048e-01
5.510891146694935072e-02 3.974645879015355904e-02 4.586981541273518759e-01
5.579306109511232570e-02 3.714818638413554600e-03 4.663907787332800536e-01
3.784558193640612939e-02 5.923022377523178006e-02 4.427123064884362358e-01
3.339198566596396356e-02 3.421592591302729386e-02 4.376038392516893860e-01
-1.920612964612194995e-02 5.084141375669009449e-02 4.188838119872242416e-01
-4.014918770832209827e-03 4.360733200397256398e-03 4.264420765978634287e-01
-1.929347268443082743e-03 -1.581024113514980720e-02 4.343554602695737787e-01
-3.109577662672390747e-02 3.427731778188848263e-03 4.342602653735483931e-01
3.486805451038989950e-02 2.569395917111146413e-02 4.385289830638381958e-01
1.616450780510796797e-02 -1.360396650143540567e-02 4.346665677042924059e-01
-2.556497868983957991e-02 2.231933977115644480e-02 4.214001648477317397e-01
5.591879512824924486e-02 4.619549597520681422e-02 4.699747916855610552e-01
-2.684549898161790391e-02 2.655558432971352051e-02 4.204510480201389955e-01
3.706300795519973379e-02 1.501836518144019500e-02 4.401202315703390822e-01
2.445709420396952744e-02 6.085983804816944009e-02 4.363174308654452216e-01
2.990138581595292583e-02 5.658654199896214626e-02 4.353572862786782016e-01
-1.442534164210028391e-02 1.065698147380722202e-02 4.232893107488903128e-01
-2.507377588148593933e-02 2.376905711767222235e-02 4.205764966479561551e-01
2.294229800658973556e-02 -6.643209020812033266e-03 4.346150301923422665e-01
4.869572132208308674e-02 9.486191972031305861e-03 5.072501617184357325e-01
1.470849017718062028e-03 1.547627032221111573e-02 4.188224568070588183e-01
5.705046970392460559e-02 1.297144286557819562e-02 4.678041373813335846e-01
2.233548608771011856e-02 2.762592222130536707e-02 4.287052190037922705e-01
-1.677052339729677780e-02 3.680819116008587216e-02 4.108592523798306195e-01
-2.103918309810731083e-03 2.111485224403759214e-02 4.099060561983098316e-01
-2.772548647675775191e-02 1.708116426124750217e-02 4.258159073313187437e-01
-6.029645745660114527e-03 5.242485537677557539e-02 4.125345388467551722e-01
5.551857008365287949e-02 4.713070918777390733e-02 4.739250438643403673e-01
3.343536617056451499e-02 -2.328197946853345981e-02 4.429088740172132388e-01
5.622671319806174517e-02 2.408445618886219386e-02 4.613223186496001049e-01
-1.224620648716247609e-02 2.060885786563894720e-02 4.164287380844796660e-01
5.354246183624296329e-02 9.489657455879397033e-03 4.572753819934278763e-01
1.544365476856643903e-02 5.543958046614842067e-02 4.221045906040754581e-01
4.701409449598487750e-02 5.715795497243495588e-02 4.498513183280191674e-01
2.883122150870216782e-02 1.585108331874844970e-02 4.351122586537505277e-01
5.565345418304946251e-02 3.396553950529533628e-02 4.898663334409721348e-01
5.218203132050439064e-02 2.498454944744776460e-02 4.963226530856668650e-01
5.367302822758666936e-02 8.972005508716757866e-03 4.578415954156628276e-01
-3.373682209514591857e-02 1.535405153434039709e-02 4.335506119744745868e-01
-3.350802855470535330e-02 2.788681947841364916e-02 4.259947685720416599e-01
1.163136199785795577e-02 -2.168814617494676730e-02 4.372974327443998610e-01
5.247616308051892414e-02 -6.825847009346710376e-03 4.630562875092953390e-01
4.455660010706175012e-02 1.104041253036312613e-02 4.463062049183301183e-01
3.160738932116239491e-02 -2.348143245373826918e-02 4.415578914487651718e-01
4.574622226709128270e-02 3.168519059288084361e-02 5.108152188075537614e-01
-3.422408551123278658e-02 5.853939874415454818e-03 4.374700163258095076e-01
3.214354536049734284e-02 6.491920321983590814e-02 4.450708463235151791e-01
4.570582368387039740e-02 6.495968343276260770e-02 4.773319172965125867e-01
2.268123297608349437e-02 5.816102842589228328e-02 4.308165569907085879e-01
1.498419619670353364e-02 3.499269863145441223e-02 4.201385738031559458e-01
4.800777562325242442e-02 5.156247229182783082e-02 4.999094415927652912e-01
9.003464617217286914e-03 -1.609430715947332557e-02 4.360826595175051890e-01
1.428338279571620718e-02 3.387158668855904525e-02 4.192716468945634212e-01
-2.220323651770612569e-02 3.841318631189576116e-02 4.132179882426363915e-01
4.822511911098652237e-02 -1.785383415775284449e-02 4.588653561535822600e-01
-2.425988639081102724e-02 7.854605041802470086e-03 4.293914237530401246e-01
3.963520016359541043e-02 4.859210276537417883e-02 4.417696890869503568e-01
4.158003940604811099e-02 -1.526417248543200655e-02 4.470338957420879056e-01
4.852102257357540638e-02 5.679790299521896013e-02 4.869585404124830430e-01
5.203035649287021669e-02 3.787002474928509964e-03 5.069432443763373097e-01
-7.554277500386352012e-03 -7.924004488367625970e-03 4.319743779803471018e-01
1.235779121207694620e-02 3.177411098104543363e-02 4.145788373865741394e-01
1.995598005990691787e-02 6.035248889995470378e-02 4.348645578894214103e-01
-1.606782124977225359e-03 1.435590971245495964e-02 4.193841997380119979e-01
5.452373862449574199e-02 -1.361013926143392555e-03 4.649948618091820363e-01
5.383826894338272773e-02 5.228330658098447742e-02 4.755190309570219709e-01
5.362539832161685414e-03 -1.495642519394404547e-02 4.348069677567890645e-01
4.310272527239717572e-02 6.811530140305273318e-02 4.635847407596274672e-01
5.211192259596152815e-02 1.032021430963756328e-02 4.540919712165595312e-01
5.303708815495240120e-02 4.193315939407833703e-02 4.966053694528411167e-01
4.521836148965099889e-02 5.218180157955477905e-02 5.031405633829012514e-01
4.975035522429126222e-02 5.811379269335394115e-02 4.815744149180860023e-01
-2.182167709366635011e-02 2.604209880764141866e-02 4.179330953162291862e-01
2.785872837083551434e-02 3.836375960466213014e-02 4.325068362480952167e-01
-6.836402765708701409e-03 -6.172050827006563163e-03 4.311830055111721682e-01
1.599133638783329855e-02 5.563430471829590440e-02 4.228962081588279465e-01
5.449847113976944574e-02 -1.103280519287702308e-02 4.697286233828240065e-01
4.040926334661927577e-02 -9.231985623234916644e-04 4.441753297563686975e-01
5.422978273589906112e-02 6.405950583848948887e-03 4.954031438092043604e-01
2.020037775629787702e-02 6.089676369770315872e-02 4.365574563215637305e-01
3.258397112008685342e-02 4.643227483035742426e-02 4.360504536825916544e-01
5.229134734917324778e-02 4.144555185674180658e-02 4.546238518445261390e-01
-7.315980002524958246e-03 -4.847075050226767358e-03 4.307329060778476992e-01
5.110229033031546408e-02 1.431896823608643302e-02 4.978795167497671592e-01
5.097942260986616098e-02 6.053871455929511758e-02 4.618301468584716241e-01
7.275146248208753594e-03 4.212853886450909635e-02 4.094466841764542453e-01
-2.631682013601025459e-03 -1.208597096693360753e-02 4.327838992378978400e-01
2.716736409013576978e-02 5.310462327007790806e-02 4.313042642503218116e-01
5.145198281707556026e-02 -1.150722660801718322e-03 5.144504847719004736e-01
2.745551716759293825e-02 -2.233236297896253747e-02 4.391795319936699915e-01
5.226267265434011294e-02 2.863689486859498368e-02 4.973670818756018575e-01
2.928972898110921916e-02 -1.723768226388282601e-02 4.387508171412529689e-01
5.640416756752413691e-02 3.266322599512996860e-02 4.856708488500259269e-01
2.975454254795000322e-02 -2.449528378549470017e-02 4.408609382691635048e-01
1.618169229483800223e-02 5.798082541975199677e-02 4.257449920147299838e-01
5.619550990754730579e-02 6.199874734473592372e-03 4.883346575018995828e-01
1.010512095531547819e-02 5.316923898188712777e-02 4.163372612228489200e-01
-3.157383702517108787e-02 1.676138484679072505e-02 4.287635287173572896e-01
1.314329387570458384e-02 1.848883084646577371e-02 4.232104852139047524e-01
-4.102807698987077402e-03 4.438716126019711522e-02 4.067859571007886865e-01
4.055174842962585430e-02 3.555918912130309577e-03 4.438053413607731534e-01
-2.737430476555309869e-02 3.455984553704003620e-02 4.180592800355863448e-01
4.428299149372304927e-02 -7.542797958782751500e-03 4.490695108868394403e-01
5.208685149620091714e-02 3.628399424679498025e-02 4.993763016528494636e-01
2.153207100082707784e-02 5.127850499254427846e-02 4.267376222919679885e-01
4.123890393223948736e-02 -2.848071206606538064e-03 4.450759668635504984e-01
8.226253946214763871e-03 4.386768787817070525e-02 4.110708786897492306e-01
4.033542575287761556e-02 6.801674604522663092e-02 4.674587821516448249e-01
-1.701600170289827019e-02 4.484698660987945784e-02 4.106121447492971366e-01
-2.702349792128271033e-02 2.893988498822486904e-02 4.197531442966959125e-01
5.731820122198490880e-02 1.457150234636612335e-02 4.781960093561841152e-01
3.012785844091420834e-02 -2.226896979322266767e-02 4.405304032451208829e-01
-2.985919129521499502e-02 2.589951919721401527e-04 4.346060623150549973e-01
4.478721865958588261e-02 3.432923069082405299e-02 5.123740227171996731e-01
4.007991835874823161e-03 1.779547918422406949e-02 4.171460704375352102e-01
2.016657842265160219e-02 4.079546390320437643e-02 4.251214378789245352e-01
2.197881036466539997e-02 4.882411887788946220e-02 4.269966387419034670e-01
2.913175326475957519e-02 4.047802596418985030e-03 4.365194098881229889e-01
5.661388714403261385e-02 -1.603173465230810918e-02 4.791467993322442442e-01
7.010744611109708153e-03 2.126568907348443463e-02 4.141781613066311540e-01
5.731867635606167910e-02 4.141184152935859300e-03 4.831697645239031447e-01
4.718579979078968423e-02 1.976288664441842521e-02 4.484724352001777103e-01
-5.599916276112493901e-03 4.643583111116065740e-03 4.261152200086620323e-01
5.722659409261217356e-02 1.938179003904460379e-02 4.793691156339847104e-01
7.837536363042192644e-03 2.221355100380055861e-02 4.147275825271320437e-01
5.609802302775556554e-02 -1.027085357018669640e-02 4.755251056268057774e-01
3.232142442181585446e-02 6.684692106273928958e-02 4.485972407418647445e-01
3.569223355349140925e-02 -1.275170011459046682e-02 4.416164101172620482e-01
2.318617060653900205e-02 2.531177108065627707e-02 4.298050306571508661e-01
5.459586786519571300e-02 3.893897911893893365e-02 4.926032152616990345e-01
5.747928806569232996e-02 -2.624008856696606606e-03 4.949459336220095040e-01
2.524864060495358303e-02 1.395464913992093027e-02 4.332183786288594241e-01
1.346899666245012124e-02 -1.612085103517651302e-02 4.357220090712611293e-01
7.879211457343854308e-03 4.785904299656129623e-02 4.121851021424022821e-01
-3.090267266374148447e-02 3.071178716300997438e-02 4.223348743214727086e-01
-2.372038176864771711e-02 7.301999278733244808e-03 4.293230585929016518e-01
-1.661891758340992408e-03 1.331598297196653208e-02 4.201877801544213753e-01
5.468940670414895733e-02 4.557583153357643718e-02 4.836475979826718175e-01
3.746336483470378426e-02 5.198720858837774239e-02 4.401637920742623167e-01
4.635369382274539402e-02 6.447004166346441412e-02 4.777138302165128136e-01
4.490452276718273628e-02 2.569894114264738294e-02 5.120564318147288185e-01
5.026291707375273032e-02 5.041772257666043977e-02 4.959037667290599471e-01
2.012162733610776966e-02 4.453988061447439195e-02 4.249617130289121136e-01
-3.120885941854725787e-02 3.323995202585185854e-02 4.216511961584871182e-01
2.175779851512627677e-02 -2.436246717306238610e-02 4.375461080726355534e-01
5.483448831086662478e-02 2.249107191661233948e-02 4.579788989109405128e-01
4.775093606363527837e-02 1.358819698895258506e-02 5.071490963075080405e-01
2.851207147947836668e-02 -2.891128814621787531e-04 4.366057729973798485e-01
-2.722395819636432707e-02 1.799388876828377296e-02 4.248501175043741251e-01
5.539727242949821912e-02 4.216901008974194287e-02 4.851488363859727260e-01
5.053971718347308878e-02 1.814130888538710920e-02 4.990245468937007933e-01
5.584476351469591648e-02 -1.528589015945961901e-02 4.769092670192520700e-01
2.381482284596586618e-02 -9.813465791852606437e-03 4.353773111775793847e-01
5.070914435443025364e-02 2.369262877955297456e-04 5.142973893345603731e-01
1.849989572228999055e-02 3.590500294483528476e-02 4.239015760533320631e-01
2.118730655220452813e-02 3.906405555068673263e-02 4.264423685402162767e-01
4.190026982874878181e-02 -7.061461347221884705e-03 4.463056526713105043e-01
2.523922550434597178e-02 -2.199442404801506788e-03 4.351919307437856488e-01
1.851078460792137878e-02 4.842814970617050768e-02 4.236854906075671612e-01
-4.149963712605997217e-03 -1.284049633827880803e-03 4.296485168834748292e-01
3.255007093583488220e-02 4.137953233962213956e-02 4.363823349697317777e-01
2.269802192705616672e-02 5.986774929296108383e-02 4.334287713159389321e-01
5.233593004313407543e-02 -9.687666540265239823e-03 4.645154101289374893e-01
1.209947064529395128e-02 3.010959899081898719e-02 4.151894802320373334e-01
4.247029236738297797e-02 6.775165331721524908e-02 4.666170165914691470e-01
2.139058356262326863e-02 6.058456234966495824e-02 4.356187282223812351e-01
-1.845458381537776887e-02 2.152932446674758749e-02 4.185487855571022875e-01
