2.092875488922823699e-02 5.988441503805783800e-02 4.335264281653490870e-01
5.417710465818399018e-02 -1.487906220860498287e-03 5.104244357284817291e-01
5.261980871359121098e-02 5.590779420066666061e-02 4.667726668128458489e-01
4.865645624286536741e-02 -1.092478642189331425e-02 4.570993267651637382e-01
2.663518570483540057e-02 -2.455348123237890978e-02 4.393022274374349667e-01
2.199435420642155414e-02 3.458221713216862170e-02 4.278185580777624231e-01
-9.814767977368698681e-05 2.728635475975014699e-02 4.020217663976341504e-01
5.276022831356010079e-02 -2.833400242478838899e-03 4.614955496849439953e-01
4.813351935817515581e-02 -1.021601152217340228e-02 4.554375654033085974e-01
5.054604283854932656e-02 -7.793200544765579996e-03 4.594188706837786795e-01
5.005361682864343381e-02 3.044499352494585073e-02 5.015279848192857326e-01
-1.266061879357998840e-02 1.882158396256747995e-03 4.285433987923195076e-01
2.451933722284236131e-02 -7.432997106326139081e-03 4.351684735909783774e-01
2.777940283467324883e-02 5.105981202583508016e-02 4.318325681772813285e-01
5.234358012730735282e-02 6.978538271345396948e-03 4.560324202035142549e-01
4.342508189682414699e-02 1.872682932583960222e-02 4.451060367853288402e-01
5.204833536032433400e-02 -1.484118810983900069e-02 4.666377411336565251e-01
5.104631866535361967e-02 5.962047938374069600e-02 4.676273223950759839e-01
1.878242441155125037e-02 2.675415340346914625e-02 4.260381575673000687e-01
-2.120372394610502489e-02 2.680785321709911601e-02 4.167649467696805665e-01
4.708232450126102753e-02 -2.073862273310822513e-02 4.584250527008365550e-01
5.699392977463352272e-02 1.774153201914507177e-02 4.676786154666019990e-01
2.373490824363771665e-02 4.201758587155663555e-02 4.288005443652881943e-01
5.466137578179417617e-02 4.782837993701089668e-02 4.762445194823803352e-01
-4.251907709557819701e-03 2.031120871545240639e-02 4.111495351519648400e-01
4.891660166797506121e-02 6.417733611656181725e-02 4.683391984441662159e-01
5.756742048266462464e-02 2.653290976544380592e-02 4.731731317033687212e-01
5.708156506123020918e-02 -2.599201360950994556e-04 4.917300525771575725e-01
-1.165060955100099063e-02 3.033948061394527509e-02 4.102375202688256506e-01
3.494528575769187406e-02 2.065027531646582148e-02 4.387302342775526443e-01
5.815007605196383794e-02 -5.074347850813169802e-03 4.911418670126403430e-01
5.260393141233835751e-02 5.303698617675137866e-02 4.568931953902997112e-01
-1.438370058011741864e-02 5.042270256055817780e-05 4.299913996848707121e-01
-2.734241736986950735e-02 2.145220065248155256e-02 4.225132357275837580e-01
4.841690071916045224e-03 4.597276491220134154e-02 4.097864105539352209e-01
5.672617088712947342e-02 3.350819519485334630e-02 4.818226218730086718e-01
-3.061946016475440221e-02 3.211334793869506654e-02 4.210285856858791420e-01
-1.804321544578535788e-02 4.256927013114905622e-02 4.102662160951697778e-01
3.542521157080064792e-02 2.182036201013175941e-02 4.390795975023025211e-01
3.325224422506351668e-02 -1.304463796050367441e-02 4.398253868021432256e-01
-1.931611861358312199e-02 2.682888770062020686e-02 4.157107089790674226e-01
5.445983031931438817e-02 3.265487131111102954e-03 4.628622161140157343e-01
5.254336030534103447e-02 -5.465651384864186717e-04 5.121992965206159099e-01
5.572157186440958310e-02 2.520441721882962782e-02 4.608705976116937442e-01
3.404553626731220140e-02 -4.491057630547789885e-03 4.396517077469804247e-01
2.027937035636568491e-02 -6.636969611473319403e-03 4.338205812090910052e-01
3.509902785671173420e-02 3.925636638210908830e-02 4.386933608317798439e-01
4.973325403929836769e-02 -1.712867163203880827e-02 4.622828628189151745e-01
1.023301200668664569e-02 2.131569733484675599e-02 4.189485848510396959e-01
4.916201155110649229e-02 -2.305766511314216727e-02 4.632125810391422571e-01
3.197207333566182141e-02 -6.187546063418062833e-03 4.383760261788034462e-01
8.516886604772360217e-03 3.128704090047979003e-02 4.066014567983559647e-01
1.945356365384565134e-02 4.056247803688511205e-02 4.249064664201403496e-01
4.763093212538037358e-02 4.958146389205020377e-02 5.027355027328475057e-01
5.181681621865422138e-02 -2.016652821365378170e-02 4.678486346962427156e-01
2.367051665040545080e-02 3.436217491366948262e-02 4.293258665273181895e-01
4.766984497250003477e-02 6.477975870997114416e-02 4.717952849373304169e-01
2.175521279229456276e-02 5.173454623043837602e-02 4.272788386307463382e-01
-1.995640512717621051e-02 4.721115211744505991e-02 4.136798684932257997e-01
1.876100522163862833e-02 3.180389250885858055e-02 4.248405352254235323e-01
-4.589453678573702719e-03 4.485032989666312697e-02 4.068083092405794798e-01
4.766533890429874160e-02 4.917478904589226568e-02 5.030943412458663833e-01
5.468384280883421822e-02 4.123754530190307938e-02 4.890611709877089042e-01
5.533601113121472403e-02 1.251579754962419896e-02 4.864112999743886445e-01
2.776062011684101577e-02 2.967054868849109198e-03 4.360116089733304667e-01
5.513328563573215851e-02 2.241911503872538736e-02 4.875728176657159740e-01
5.771443058050305941e-02 -9.774966016704668414e-03 5.125665740987098706e-01
2.470116078172317209e-03 -1.673381589998074181e-02 4.355197629821632166e-01
4.798156667539001108e-02 4.983417409660175629e-02 5.016724611319994809e-01
5.529725207540942683e-02 8.615429598622188680e-04 4.670063395486065971e-01
-2.266323957788475216e-02 1.027662900112974800e-02 4.267337199488120403e-01
5.385343606234441194e-02 5.091578665424675854e-02 4.608140571422028042e-01
4.491302553612790127e-02 5.820940948578578328e-02 4.482827803437652303e-01
4.027356594344037866e-02 7.156025860164028085e-02 4.531748762329249614e-01
2.509582778417223520e-02 4.649093950570658274e-02 4.296405486609812252e-01
5.541791798900409100e-02 1.060504612066625815e-02 4.627947973652381530e-01
5.056722709327127196e-02 5.926005993897685148e-02 4.717712674668115280e-01
-1.104976058703095038e-03 4.974639383783222013e-02 4.081485960799468016e-01
4.890638118311309637e-03 -1.780426045244485776e-03 4.302983501523136578e-01
5.615603902982840151e-02 1.392685568606216555e-02 4.642253540975812554e-01
5.414830759139821481e-02 -1.896005994815841422e-02 4.731418865739447921e-01
1.958802358203811517e-02 1.127098768282375554e-02 4.311843399209677741e-01
5.733467749544945979e-02 3.399031340704675858e-02 4.726212707621754161e-01
1.202828329666448190e-02 5.911180411419656583e-02 4.237007742098739538e-01
5.460671651161825429e-02 8.704961590615227507e-03 4.914039880725979970e-01
5.751079391012182962e-02 2.522413694902329515e-02 4.721382239886178223e-01
4.953906836667159273e-03 -1.129715475590808288e-02 4.324484931565807377e-01
2.813972000581168448e-02 -1.148337723712213390e-02 4.370086615296106536e-01
5.759709689514902475e-02 2.740001100649441107e-02 4.738356158589873690e-01
5.040824426429363347e-02 -1.654021369753943746e-02 4.635882134426176915e-01
5.259581803035541514e-02 4.060386738191055361e-02 4.555183151061861779e-01
1.756805250899112075e-02 3.103449747295939504e-02 4.236752884534075725e-01
4.792637832021318794e-02 -9.273280970796254213e-03 4.547693094863700658e-01
1.708013641443378167e-02 3.154674530793669801e-02 4.230266454070350512e-01
5.425889123083831034e-02 -6.503180107932386017e-03 4.673724907771025783e-01
2.799976611079834504e-02 -1.694651264445807409e-02 4.382276358740488376e-01
3.438390084175436262e-02 6.719501539847648475e-02 4.477892385410280895e-01
5.593349386434339626e-02 2.999054325914154648e-02 4.613734882380237656e-01
4.602867505906203111e-02 4.047433019121427639e-02 5.093727324785758404e-01
-2.055078298742622073e-02 1.230533323820184530e-02 4.243403689183198324e-01
-8.878403917019071778e-03 5.029105508954224285e-02 4.106743242189746512e-01
5.737351331010295125e-02 9.551386377646201020e-04 4.858139086084026226e-01
5.740438030377284506e-02 2.220061603805235234e-02 4.730676446897058018e-01
3.527970519165916918e-02 6.216648354095575396e-02 4.425159289593535994e-01
2.750184226010879418e-02 6.228242530697182533e-02 4.380633023100818924e-01
-2.422938779962900344e-02 1.312386262574950953e-03 4.315706361941913372e-01
-2.124863010912607722e-02 3.041967003787317964e-02 4.152314674789828741e-01
-1.291725082213323467e-02 2.604823298910806731e-02 4.133056912322637388e-01
5.521655662394328590e-02 -9.246069644063301812e-03 4.716507780010589790e-01
2.930852236767418281e-02 4.162125357190191166e-02 4.338195498014697504e-01
4.881442059578814524e-02 8.668963103290974748e-03 4.505254359685655352e-01
2.977458961128461035e-02 4.385469964228891349e-02 4.340410484369663924e-01
2.422525743877391308e-02 6.101431049126049277e-02 4.365420215937411141e-01
4.931915303667507022e-02 2.232971556171278044e-02 4.508002688850749062e-01
4.480527691731997497e-02 -9.181118738065967982e-03 4.501982316372801218e-01
1.097797111898627873e-02 7.548361073054735831e-03 4.288489628146660571e-01
4.316014691483167909e-02 5.143815768720630399e-02 5.075421406925049173e-01
4.538714168452590014e-02 4.021210919975141962e-02 4.469210945088190057e-01
-1.080225362344353068e-03 4.597862362547005394e-02 4.070105007467395009e-01
4.997489264273423382e-02 -3.930679792862806950e-03 4.556402100382190845e-01
3.110907110018404365e-02 -5.554033257658675532e-03 4.378395240720713844e-01
8.998612744368961885e-03 4.992028090576664662e-02 4.141323168727516491e-01
1.093411790060351378e-02 1.029130401242530322e-02 4.272787564187671694e-01
-1.109084801777802942e-02 5.194222374387544305e-02 4.132506180827178466e-01
5.234298587286720372e-02 -1.756028461781590153e-02 4.684082312336396714e-01
-9.194989634221922142e-03 1.342634875695578218e-03 4.287804499802012059e-01
2.858494618470724252e-02 5.251135332066622641e-02 4.326880867487550852e-01
5.110613443633538894e-02 1.396190847711735634e-02 4.975655661195807489e-01
4.721002819872927719e-02 6.593732949905244112e-02 4.618230024321254290e-01
-2.383992652195797771e-02 4.062360645181676416e-02 4.144404084436243418e-01
4.930071253093268324e-02 1.092847782860189611e-02 5.042646963126883319e-01
2.198083744466129696e-02 -2.063675948562878129e-02 4.371368335462330057e-01
5.721978831349025518e-02 2.423591273213704725e-02 4.786614703894452871e-01
9.187211353054464819e-03 4.786185141272772219e-03 4.298350125970304969e-01
4.688862923211122719e-02 5.295541561587249063e-02 4.492378267123896540e-01
3.916658478880517824e-02 2.929229426760571100e-03 4.429161911890485137e-01
5.125591225530435474e-02 2.897887831640619249e-02 4.528446740190770758e-01
5.466958409776114663e-02 4.843575499447512478e-02 4.747538280732891969e-01
5.489792253612229417e-02 -1.399975626894482423e-03 5.083741230876620554e-01
-2.017721455522616253e-02 8.333530020569027835e-03 4.265276600317834399e-01
5.072573067718249423e-02 5.588997399793557697e-03 4.531919567942668814e-01
-1.815765331107011687e-02 4.760327336204623477e-02 4.132310304534993484e-01
1.370542005349970408e-02 4.385637198844858503e-02 4.185766861647332582e-01
5.628201564236411103e-02 -8.313820318884227595e-03 4.755391311138724153e-01
6.550181745139256259e-03 1.751466292425301816e-02 4.194390404543205664e-01
2.539624269748167254e-02 2.357194954556195154e-02 4.323308318302322428e-01
-6.076280704346163734e-03 3.972159609046477247e-02 4.060794229900669405e-01
5.127724874551558426e-02 -5.048310031760747975e-03 4.592300990188843413e-01
5.676304092889663394e-02 8.787389917735762002e-03 4.815410073427559556e-01
5.710641340362723750e-02 1.686627447744824815e-02 4.747731523124477659e-01
5.626502271460601112e-02 7.670411001645963123e-03 4.673084806670991243e-01
5.449251593758512591e-02 4.966169679424582706e-02 4.682715758529994998e-01
-1.465092581718586452e-02 2.396612360596909325e-02 4.151357188736623516e-01
1.408820610229968504e-02 5.963282327521844672e-02 4.278397223389429627e-01
1.792478211349735756e-02 -1.939027328256377400e-02 4.365434818118819615e-01
8.852867211404382222e-03 3.606548321992414374e-02 4.108214907449455611e-01
-8.226334843137133972e-04 -7.426335105122621599e-03 4.310533112030759395e-01
5.371822279105729903e-02 9.029248129018039443e-03 4.940279232707547319e-01
3.785968710307557883e-02 2.762439951713656361e-02 4.407764874098799024e-01
2.733297559895358358e-02 2.300554693835567266e-02 4.336320668622905550e-01
5.428873216409795671e-02 1.032854870623289151e-02 4.597024323760009468e-01
4.798387608263097320e-02 6.445060575036942740e-02 4.603972416544467872e-01
-3.164260055407281530e-02 1.843436789079771695e-02 4.270638531084873235e-01
-2.497774325551987626e-02 6.123394696447011058e-03 4.301605062369543431e-01
4.775667376236234635e-02 6.229672623453279268e-02 4.764316231368792565e-01
-1.699535863839844556e-03 -6.627464654221986058e-03 4.308602147977329544e-01
3.206794889332995925e-03 5.389558773755618454e-02 4.140672118423960324e-01
3.052375321324499093e-03 8.187246205032840118e-03 4.254988926987181563e-01
5.175591494717307617e-02 4.665351268736279283e-02 4.543359386621912965e-01
5.100896212976353816e-02 4.068050921458002400e-02 4.533239796765490270e-01
5.602535223114594315e-02 -2.153222490504628876e-03 5.065630462447420213e-01
3.514037591364940760e-02 1.736119360827551375e-03 4.399125815999065381e-01
2.718655731692705760e-02 4.422458597307774714e-02 4.317255670179814264e-01
5.607201206748520933e-02 1.643872166849683417e-02 4.629298503835345135e-01
4.816559657218156404e-02 6.356214441194850406e-02 4.587558669198041339e-01
5.753596082101164987e-03 2.076582521781755383e-02 4.134762187702864522e-01
5.034708787396547508e-02 5.902709845110479941e-02 4.738035440910357554e-01
4.770228507165041182e-02 2.311046337742052315e-02 5.056340549468927303e-01
1.533888513721582206e-02 5.515508562483455862e-02 4.223441026291320788e-01
1.867055035814651001e-02 4.304709075881414659e-02 4.237776252663597587e-01
2.384337750168193798e-02 -7.128385409112294492e-03 4.349220970628471794e-01
3.196271328947477425e-02 -1.162885866580328463e-02 4.388066655075637534e-01
-8.492897618885225305e-03 1.448034594836010956e-02 4.189559140922135549e-01
3.326879956763135332e-02 2.566432857883413181e-04 4.389773242800402708e-01
5.531905949713998571e-02 4.074548163006545820e-02 4.845090796522352750e-01
-1.329452393368502072e-02 3.230187332966134861e-02 4.103181522963428862e-01
4.979110169711837425e-02 -9.771395899855012113e-03 4.590209294368537973e-01
1.571105890181058798e-02 3.896904344385077046e-02 4.212021070566745462e-01
5.632123312918636826e-02 3.728585584957396643e-02 4.790688430482022420e-01
-1.113043229469617805e-02 3.007468385481913697e-02 4.101167373353913903e-01
9.333739114876870788e-03 5.429828257404518271e-02 4.165618609076487400e-01
4.916785097724628295e-02 6.285395631489505697e-02 4.697454146747024883e-01
4.680506509988288655e-04 -2.569709539150111591e-03 4.300110121434656540e-01
5.563277475465014388e-02 5.616374238170242575e-03 4.657610384250848168e-01
4.547177174122213339e-02 6.248476360004068947e-02 4.816446262980450532e-01
5.680898756542094447e-02 3.638272775670086875e-03 4.863648441450261206e-01
3.469076675824233486e-02 7.705678109894045780e-03 4.387737511424325554e-01
3.576247655043131302e-02 5.628085256213851036e-03 4.398082050143983235e-01
5.504318143583075695e-02 1.300279617709135683e-03 4.999756462403683321e-01
5.465417783098736743e-02 -6.136640980139663505e-03 4.680296226143883520e-01
4.735859093376716678e-02 5.570610712131376929e-02 4.921662325373380997e-01
-3.045733004354837792e-02 2.307954307893336429e-02 4.240661104487162270e-01
5.241269495944540086e-02 -4.339881324899169494e-03 4.615586600264019457e-01
-3.061194558976248689e-02 9.620179350475859242e-04 4.345724657242096001e-01
4.195996271229172209e-02 6.949948146866477550e-02 4.541093564990278386e-01
7.639544889532204688e-03 2.475733369514340060e-02 4.117294639185687943e-01
4.096080022577097690e-02 -1.164159089104443122e-02 4.460287552460951987e-01
4.435355909669853186e-02 6.755919329579997135e-02 4.687864503277787698e-01
-1.045567516331440301e-02 1.918952884219060281e-02 4.159449565505056179e-01
3.482228044036549813e-02 -1.185409002230452223e-02 4.408870394712375296e-01
5.030780497892151093e-02 8.171617857792594711e-03 5.043784097151620127e-01
3.920429934663285931e-02 1.708482544129144576e-02 4.417949805670776109e-01
4.696318171478926912e-02 1.699058687352101790e-02 4.484750971792726415e-01
5.670891678744071490e-02 6.745856818790640051e-03 4.712001892058322317e-01
4.687715225012804854e-02 4.290412992448362078e-02 4.486308937552084264e-01
2.090957820500193368e-02 3.870056122381154880e-03 4.336170925869046733e-01
-2.110780820172413960e-02 1.065203665321176954e-02 4.256282390091510881e-01
3.160209800389798124e-02 5.333361114363095040e-02 4.354281678788658461e-01
2.478750495998989153e-02 -2.487793176775085491e-02 4.386951381705218034e-01
-2.536542898447463959e-02 3.218464420285827715e-02 4.169734987076623156e-01
1.720511646878968362e-02 3.938573050320447189e-02 4.227171914420181920e-01
4.992835765696303219e-02 7.607665994349534569e-03 5.064649871743985843e-01
4.073366323007252682e-02 1.083898666470252230e-02 4.432831656319344837e-01
5.252462853824262784e-02 3.856645473059770735e-02 4.553913204172826967e-01
5.170258522982222604e-02 5.749540726070779401e-02 4.602398051809105661e-01
4.493874066327764594e-02 3.983709886529614858e-02 5.111267602575088054e-01
1.856632614234147906e-03 4.362479907437320781e-02 4.068394850535140272e-01
5.081751542264752175e-02 1.545068393725538593e-02 4.527017347659132440e-01
5.615032387788700119e-02 1.327743275623246427e-02 4.644507758944219078e-01
6.465779668736516307e-03 4.307150047120213848e-02 4.097990831800740197e-01
3.633769356939469536e-02 7.103930369828677371e-02 4.522447576672588565e-01
4.750117260455585799e-02 1.852760707313219624e-02 5.058571967509970513e-01
5.280543283481708289e-02 -3.999480878634302169e-03 4.623067140470147329e-01
6.783034227895629736e-03 5.884712338131464077e-02 4.187287053708739770e-01
1.977910890520654871e-02 3.893799871185211342e-02 4.254824533932261565e-01
3.513048112475729984e-02 -1.767034845497700637e-02 4.423622426433849175e-01
4.767190126563713298e-02 -1.772577798676434196e-02 4.576374464758020122e-01
1.310431430812770276e-02 5.902337071403341434e-02 4.245536668113031320e-01
5.666735922549123033e-02 -1.968733871950424479e-03 4.970815274517551563e-01
4.990851725355198443e-02 3.063138473000822162e-02 4.513564946505274067e-01
3.595884535362290496e-02 6.045044974299144946e-02 4.422399554411144962e-01
3.916524956929889889e-02 3.808395680353721807e-02 4.417265707632951344e-01
-8.505520701937352348e-04 2.536316250519576182e-02 4.041668822673747941e-01
5.653147372491940797e-02 2.330953091409298031e-02 4.826865681856440382e-01
5.200160511674262881e-02 1.932591225288125131e-02 4.949013207801602476e-01
3.473705779940828436e-02 1.010510452937336823e-02 4.386120549121878542e-01
5.202976590378930594e-02 5.568966115470994072e-02 4.586648357324685232e-01
-4.596906306277361541e-03 4.785854755951253481e-02 4.073501026412389425e-01
-3.306380937695436312e-02 1.305336441196379253e-02 4.328150587007211225e-01
4.200927726340105556e-02 -1.231768558551207642e-02 4.472184497820789750e-01
-4.036116985930746082e-03 5.163169651818356326e-02 4.108715143757218913e-01
3.909269966680268410e-02 3.929005331893307973e-02 4.416497539056880028e-01
5.061173756479935004e-02 1.337682747567119947e-02 4.992077528009205567e-01
5.423764674458319418e-02 2.435043475193950178e-03 4.625901762658065075e-01
4.551719693958036772e-02 2.906264007168314970e-02 5.106002906615576542e-01
-2.870051424458608044e-02 2.118147672058297987e-02 4.235801200634723429e-01
1.395529915464442487e-02 4.148471398729448173e-02 4.185583266650702017e-01
2.944870702708587973e-02 7.128969163456194517e-03 4.363720364205831426e-01
1.927814974211761179e-02 -2.245872338568982197e-03 4.332012410413985104e-01
1.279670989430923070e-02 6.142291236742909027e-02 4.358210802382587179e-01
5.140277773760933838e-02 5.577529480841571935e-02 4.772789614930699753e-01
4.414996173753346631e-02 -1.878359950840601325e-02 4.520521533267283232e-01
2.893788488341856972e-03 3.302791927911157867e-03 4.285323676168835694e-01
5.053912770722578107e-02 8.389996394104377864e-04 5.139061138668430395e-01
5.285317062876970090e-02 4.647890118421739436e-03 4.580733050580594323e-01
5.648972210165957575e-02 5.279642243931132644e-04 4.938440969381834855e-01
4.656509158142464050e-02 -1.174625301897169391e-02 4.537267102904277705e-01
5.361632265581543072e-02 3.250832534918350614e-02 4.564005370780788162e-01
4.436572065639853533e-03 6.052915336791154371e-02 4.219234307650393534e-01
-4.704808576706069612e-03 1.678862772461826164e-02 4.151998954273048992e-01
8.921106751793845104e-04 -1.135294538602815706e-02 4.320453666327809250e-01
2.936343053214260021e-02 -5.408960386738736505e-03 4.367903980558245358e-01
5.472256550552639931e-02 4.734465081178076962e-02 4.622424954031949529e-01
-2.511683848762612942e-03 2.797163400218594109e-02 4.042024099648920954e-01
4.005489009395818423e-02 4.291059756535631729e-03 4.434214427927898883e-01
3.695409056580619550e-02 -5.005603899858090781e-03 4.418592581245281981e-01
5.398269006702283157e-02 1.622782502972678134e-02 4.571834482479554818e-01
2.388695908229267195e-02 3.248026561408728224e-02 4.298140650735677304e-01
5.693822561693804435e-02 -8.388352048650309437e-03 4.791131702164812545e-01
3.654979537915861026e-02 7.942652921156902190e-03 4.400803970964887180e-01
3.644987910736807724e-02 5.044989565793712299e-02 4.395431313206423773e-01
-3.406686847493733961e-03 4.957501711289899471e-02 4.085826805335054934e-01
7.488593673200164870e-03 2.429573972467343607e-02 4.122325809893364612e-01
7.556104573896675093e-03 -1.583928267987682117e-02 4.357606649430803003e-01
3.977130035898696764e-02 7.133374924541052708e-02 4.525277503434305681e-01
1.997259549791068501e-03 4.988570679176138750e-02 4.094406305007352032e-01
3.856182965282716618e-02 6.899916930200340748e-02 4.641904020919573326e-01
-4.485235824317581818e-03 2.021803074956661506e-02 4.114333001927931166e-01
-2.619203798552745960e-02 2.133018128866805141e-02 4.217634185198186891e-01
4.821561751250869055e-02 9.876000820401456201e-03 5.078171158472690738e-01
5.007599012028168123e-02 7.740613223737993764e-03 4.519023097444606063e-01
5.596958908311595871e-02 1.608774716612684438e-02 4.837780807394018168e-01
7.804650259450009869e-03 -1.010254138348483377e-02 4.325107786028800638e-01
5.199136545962564082e-02 8.320512220247929663e-05 4.578756141005883018e-01
-3.518960147849869297e-02 2.434688602564570592e-02 4.289722583151857616e-01
1.983906027870111638e-02 -1.830144870770588142e-02 4.365530166760508979e-01
4.192399550753608123e-02 6.691422101542791878e-02 4.754516735635365143e-01
1.477464441017314022e-02 -3.161528397993801365e-03 4.321979452746987915e-01
3.215597589956345481e-02 6.487853467692121512e-02 4.451412465945497332e-01
5.215186556407680474e-02 5.559912267254150942e-02 4.589055953613490613e-01
3.951573721438283310e-02 5.168323286983050879e-02 5.088776316273891931e-01
1.052697909851964958e-02 -1.500618970194273795e-02 4.354359461055941627e-01
1.299895733309025872e-02 2.018863785749488299e-02 4.224014976631136342e-01
-3.841856587373251863e-02 6.616600372524850636e-04 4.400322376027741567e-01
4.501870190912369424e-02 -1.140805406500237582e-02 4.511255464627415002e-01
2.032657024421003628e-02 -1.043907243658048940e-02 4.345481247710242245e-01
5.578252886457959331e-02 1.009353435533145646e-02 4.643413190535412016e-01
4.695244882953214516e-02 3.568439846511765271e-03 4.495075064360258832e-01
4.333641082292951502e-02 6.790834583597904484e-02 4.634492428441867040e-01
1.046838645564467617e-02 -4.650943397109355212e-03 4.314438700981932384e-01
-2.563460981385202314e-03 5.291739855388261082e-02 4.115639507548301546e-01
5.722285313439959969e-02 1.920005291341679923e-02 4.713505330491074563e-01
3.714381917698351965e-02 5.711520039307041441e-03 4.408505360244478477e-01
5.602980805437044604e-02 3.862653926891019412e-02 4.798354773877169799e-01
-1.786924809032303454e-02 8.475342196058596733e-03 4.251858248583939015e-01
9.995044428244000828e-03 2.890171617800250947e-02 4.125113463691281734e-01
1.742442237086355358e-02 3.323751102526457252e-02 4.232109417899976855e-01
5.801241864661544484e-02 -9.876821284024166203e-03 5.118135335059074142e-01
-1.709866594207423013e-02 3.762574587858075192e-02 4.103481997928815073e-01
1.303109867301604878e-02 2.754508378890165726e-02 4.193548557748166816e-01
4.438087535053091698e-02 4.766209538993305267e-02 5.099904217401974860e-01
1.708108752311590303e-02 1.351274279455978722e-02 4.291194738672574061e-01
5.677304966410958581e-02 1.608335863981701780e-02 4.798719874199519064e-01
1.127399819578213044e-02 2.620642083531282002e-02 4.176839522841824248e-01
3.550468840133989834e-02 -2.555692215942482332e-02 4.458412799447951103e-01
5.793314675662197127e-02 -2.279794417195259593e-03 4.844072203244864649e-01
2.417152570233731257e-02 2.896581602668169345e-02 4.306223922123364467e-01
5.659719767513431143e-02 9.312904862143089879e-03 4.688757394082582186e-01
2.817894925057969069e-02 -1.063112080157311255e-02 4.368511940493919332e-01
2.885577159966820453e-03 5.679458513307918816e-03 4.270281137578086361e-01
5.723724335866772761e-02 2.603853711548531277e-02 4.650393101801811313e-01
2.446066335484713833e-02 5.829259603907631371e-02 4.323478759206396682e-01
4.818487396093129593e-02 4.971946517687168832e-02 5.013364985624203518e-01
5.711774590926832484e-02 1.634015298109829303e-03 4.761335625968295959e-01
5.515238977304344481e-02 3.245190099817688717e-02 4.897732909728902406e-01
4.263666043107781911e-02 6.445296423177132583e-02 4.803732886833343430e-01
3.820456424125791978e-02 3.237026837996397066e-02 4.410699432683301002e-01
2.430302977032071723e-02 4.133812821188821013e-02 4.294107034431743908e-01
4.292091158886238850e-02 5.028428527104356061e-02 4.448910734287273017e-01
-4.195917155513499697e-02 2.550026638516822257e-03 4.458347206790355677e-01
1.399129914059772314e-02 5.073029771785185493e-02 4.199477609145780277e-01
3.833427751983824877e-02 4.212936783394155560e-02 4.410278718729720437e-01
-1.274837714795758192e-02 1.332452936704136767e-02 4.210648370423297759e-01
4.104767671547271402e-02 5.852579980093863821e-02 4.450124305187801999e-01
5.604758718652049637e-02 4.273499756777075081e-02 4.704097512685398996e-01
5.705031474033469413e-02 3.285947546519579592e-03 4.746507414780787859e-01
5.554861361359903632e-02 4.702419715600887140e-04 4.989644684429017096e-01
3.225569034155689047e-02 4.160321906287318960e-02 4.364193695000496143e-01
4.753608755261432006e-02 5.644730275485773663e-02 4.891489382100229211e-01
-1.243621386620320443e-02 -2.224170254821946670e-03 4.303833948656544672e-01
5.569934627135195854e-02 1.293324002939982321e-02 4.844949326887383889e-01
4.705638066738470487e-02 3.765101249783337628e-02 4.486707121738695569e-01
4.426129022340154900e-02 -1.826606061140383097e-02 4.519001709783810328e-01
5.573451476113412684e-02 -4.592770212618110109e-04 4.686655597558299080e-01
4.861748876635237776e-02 4.031689124117332490e-02 5.050187008242525977e-01
4.168023637668013398e-02 3.435373995985847168e-02 4.438685895000968884e-01
5.701241684666737836e-02 1.443015468619896630e-02 4.786297579934650770e-01
1.581541352913199902e-02 1.647434075592007358e-02 4.266273952711360229e-01
5.797624639787907208e-02 -3.410613722421989690e-03 4.839178864911790612e-01
2.034560639754639383e-02 4.656617958206820361e-03 4.334386950632054258e-01
1.525560620562941075e-02 -4.106376256778029518e-03 4.324468742358504869e-01
3.930621436472095387e-02 2.233490921907732227e-02 4.416305280487710094e-01
4.553432112705465412e-02 6.749079369802943318e-02 4.628949770909221995e-01
4.585189718661070862e-02 1.339640822329858129e-02 4.474128321128282848e-01
5.503399066025826264e-02 4.693392788535931393e-02 4.664023318701362442e-01
5.894670238320613709e-02 -1.101024246812253894e-02 5.090730596618029402e-01
5.013952189794870090e-02 2.391956202269612461e-02 4.996364045500550355e-01
5.426717773484545509e-02 4.450586886270081061e-02 4.580646677939426148e-01
3.393908801999935554e-02 -1.569081421653768446e-02 4.409499159479067232e-01
-3.106720425373130264e-03 1.893959179851543648e-02 4.125031697793759555e-01
5.816010433546636715e-02 -7.410344758599181000e-03 4.899285648243307256e-01
3.713854404560185118e-02 6.455510005622951131e-02 4.455235488135412814e-01
3.956463881446527220e-02 6.835812493280961355e-02 4.508886869702840583e-01
5.521663569210554651e-02 4.695094231118070865e-02 4.691688516005240728e-01
3.020341084590744130e-02 -1.039056574931090070e-02 4.375635101792282322e-01
3.606857693785755353e-02 -5.595139320905084465e-03 4.412329565837297962e-01
5.606399484873077904e-02 9.433405033219136385e-03 4.656433716241148990e-01
-2.631391992451351421e-03 -8.210873589725196237e-03 4.313291973313920225e-01
4.168507503613682469e-02 2.655725950130342558e-02 4.436623304537434809e-01
2.946647557450661481e-02 5.782720780869889804e-02 4.360811164896180592e-01
1.764883479969242552e-02 5.762430201804830815e-02 4.270743624279961792e-01
4.651483885654917466e-02 5.173774227302106732e-03 5.158835140758267768e-01
4.736525059778495805e-02 6.405693831651040893e-02 4.566683254156932437e-01
3.589556475567359101e-02 4.146713117203426613e-02 4.392097793298555541e-01
4.589568488758500459e-02 2.716256883394277399e-02 5.099806319626781770e-01
3.519195690895210449e-02 -1.957222833815322818e-02 4.429297908898972569e-01
5.208113831436683716e-02 8.971078400983868023e-03 4.548543823973724143e-01
-4.383432176066190747e-03 1.453789520607382500e-02 4.180728471450610439e-01
5.392554449303172542e-02 -6.795442016376015623e-03 4.667583594339454467e-01
3.535195637448851347e-02 5.224435846962406649e-02 4.387479936603911890e-01
5.514416920616816570e-02 9.822273499284842058e-03 4.888351778438697059e-01
5.647353773673811916e-02 4.041360167990788038e-02 4.697665268752326817e-01
9.238140241839278358e-03 1.779519522325256897e-02 4.210694735345230644e-01
-7.782148116704922652e-03 2.244062024592752974e-02 4.121215748738059625e-01
4.188639844994228312e-02 6.856681506652846647e-02 4.628501529907000922e-01
4.382614530731700903e-02 -2.114363826157596507e-02 4.531428478858582354e-01
6.260624325690253636e-03 -1.710196301775034761e-02 4.364117284480636405e-01
-1.096594571068571292e-02 -7.740429809454519097e-03 4.325049278268528474e-01
5.269000163748693844e-02 5.434343864790262824e-02 4.593449868850444928e-01
4.818010977255997307e-02 4.079100830437020625e-02 5.056927282869185802e-01
1.334545282983679027e-02 5.527363539700496514e-02 4.207226140424061289e-01
1.657063579041722842e-02 6.013324622709602385e-02 4.338574032497133359e-01
-1.608543451966701343e-02 2.535879247523676813e-02 4.150083320874141113e-01
-2.978926607095650284e-02 2.303082657089668139e-02 4.235329797989830225e-01
5.559911256437265886e-02 -2.341820159053242898e-03 4.687514639215051848e-01
1.805502746282322199e-02 -1.785791933379775927e-03 4.328715993593172384e-01
4.982830378445229219e-02 1.319133501050223645e-02 5.012927280410068853e-01
-2.135001818535601711e-02 4.795771814713108844e-02 4.161813322660706249e-01
5.699413393475766948e-02 -3.503727337246696164e-04 4.925393061843174602e-01
1.581827982538077521e-02 5.521884046366594065e-03 4.318193322293800707e-01
5.689427496475086415e-02 3.332506900816042256e-02 4.651250438344230465e-01
4.556428650615680642e-03 3.482781523844318688e-02 4.049814698204771690e-01
5.708391290987123445e-02 1.941881548810871910e-02 4.670955880260155291e-01
4.499722597219956918e-03 -1.067672745132208778e-02 4.322207229839062914e-01
5.776929871128445859e-02 -2.358777567107514864e-03 4.795307008223333445e-01
5.709942238639972856e-02 1.745586481928092237e-02 4.780415464136957282e-01
4.750636554772000308e-02 5.188059374309458849e-02 4.996217187698451800e-01
4.630164159174519900e-02 5.740124525956693397e-02 4.495431867586261454e-01
5.800511181615249090e-02 -2.254373897752239356e-03 4.811813094045791495e-01
-3.571521772725925331e-02 9.904235409032440679e-03 4.383704692022383775e-01
6.531459327013610511e-03 2.001249692765227212e-02 4.161490182462912468e-01
4.510331506246360866e-02 8.132812565648128711e-03 4.471679713826741120e-01
2.291311874104899615e-02 6.385252670878539816e-02 4.414865427174736734e-01
-7.217414330140026549e-03 1.922199647445219789e-02 4.145255598024089050e-01
4.087006735996250723e-02 -8.557169103477736682e-03 4.455735451196191077e-01
5.179168415814558446e-02 1.435537820234807950e-02 4.955877412487504352e-01
-1.210203460392623304e-02 4.466308250399504687e-02 4.085391108934617321e-01
5.250822081552778547e-02 2.526147998185214027e-03 4.580511013613898785e-01
5.052602070384817207e-02 6.845549056823524436e-04 5.140662790263420545e-01
3.238687587959989539e-02 6.724368145309321532e-02 4.496975960575584907e-01
-3.300422649811474846e-02 -1.910536175820422029e-03 4.376658565773515197e-01
3.672866633296662658e-02 2.188587901606098632e-02 4.398940056577527735e-01
2.420760835060935603e-02 1.956242782678599759e-02 4.319239659348264593e-01
5.735705483203500099e-02 -8.792425214714068987e-03 4.817704370406955539e-01
4.833806745000053529e-02 4.718133063576941677e-02 4.503616653242404344e-01
5.469791893767907837e-02 4.869722042218063013e-02 4.737669926494498807e-01
5.557922986317533065e-02 4.378555803457821055e-02 4.639266184542619187e-01
1.655004098667226670e-02 6.012429674502811627e-02 4.337762622955292913e-01
-2.373395648937330280e-02 2.151188837868196757e-02 4.204881405646669346e-01
3.902764401569948360e-02 1.388060368181834141e-02 4.418702299471696793e-01
-3.513768443450995121e-02 1.943186841019899427e-02 4.322860764691954238e-01
8.955020281971599883e-03 3.729853762626975100e-02 4.109848610160537485e-01
2.979956811145350118e-02 2.313092320780228694e-02 4.352828333952749595e-01
4.794798358618696660e-02 3.662241117560720988e-02 5.061480569396327178e-01
-3.910401239454801975e-02 1.146669254426869230e-04 4.407925703752447188e-01
5.723436435101128539e-02 2.431761093955372294e-02 4.657501683687598204e-01
2.356862773220995758e-02 4.490400049458428966e-02 4.283718245595044549e-01
-1.535869075341131373e-02 2.069436480731029655e-03 4.289449856960943497e-01
1.661498345938192470e-02 1.550399374865440646e-02 4.277221200884313013e-01
4.413938372124778797e-02 -2.279448795244666884e-02 4.546285622481369137e-01
3.960512291461554257e-02 6.776573436262373074e-02 4.725594245334160393e-01
-8.790511302525529785e-03 1.389243677786780769e-02 4.196390866388351459e-01
2.602507875106734384e-02 6.487472006881991882e-02 4.462204351555798532e-01
5.468839407073827763e-02 4.834760940466734797e-02 4.747489689912900435e-01
5.127655091665000303e-02 1.911973764791006017e-02 4.966748403905435483e-01
1.777377723151100583e-02 4.882091620426244095e-03 4.325575764244658505e-01
4.610892906817083692e-02 5.138917223672589268e-02 5.038897044031469541e-01
-6.797371095535333953e-03 -3.775805409124239828e-03 4.302012547103745144e-01
3.982268557397825731e-02 6.803165540402124345e-02 4.693312087229524754e-01
4.976600643908332677e-02 6.849506782868384699e-03 5.080888917276336070e-01
1.655311613171180432e-02 5.948667423515461433e-02 4.301171749244597220e-01
5.499562025421508848e-02 4.652540967394305001e-05 5.036892623344723097e-01
5.154128167633619667e-02 3.113030939263002755e-02 4.532390056826747227e-01
4.919468629804142623e-02 2.272138410320278384e-02 4.506749763925292362e-01
5.598086234580727100e-02 -4.840387562084351100e-03 4.714304232068597944e-01
4.583882225037209240e-02 3.389891708451029523e-02 4.473920822794148489e-01
1.737110203679773828e-03 -1.021211886283714121e-02 4.317234838539429909e-01
1.934656372192639431e-02 3.078837505687058700e-03 4.331554393432378580e-01
4.666196071534013667e-02 6.376038482212281755e-02 4.768040588400761504e-01
3.839260513366611616e-02 -7.810831765734867725e-03 4.431542101792483868e-01
-2.259191816614391363e-03 -3.765711786860886489e-03 4.301826849869935798e-01
5.468849491744715019e-02 4.827492843693967361e-02 4.661468818624209254e-01
-1.832588532500858611e-02 1.965048776070061134e-02 4.191527137975954997e-01
3.303098091769242350e-02 -6.148786618108188383e-04 4.389355271548499027e-01
5.764901565178175320e-03 -2.064366740557107768e-02 4.374017544482945996e-01
2.572458810222063783e-02 5.649276370358057714e-02 4.318497538264591262e-01
5.227373296350677767e-02 2.282149438195102756e-02 4.944338166681626623e-01
-1.749598246207047583e-02 8.639952898082094157e-03 4.249560833318741793e-01
-4.904878135540555011e-03 1.035951330787094303e-02 4.219544811086548552e-01
4.435844698513478901e-02 1.538028922983368865e-03 4.474692077035488658e-01
8.544063950638176863e-03 1.719193535569511766e-02 4.209549664504525501e-01
1.961319828971969451e-02 4.300520024083602511e-02 4.247579918342349048e-01
-9.565309700097175682e-03 4.821849646232358177e-02 4.083677630238513045e-01
5.191854101497208468e-02 5.244193898475203383e-03 5.045907344645679249e-01
3.183633816971215280e-02 -5.205929815002548720e-03 4.382636366217618207e-01
4.822820750150950964e-02 -2.244298767088692692e-02 4.610985727244840682e-01
5.795040989299528322e-02 -1.415714102852439274e-02 4.845912139926046858e-01
2.763451829834663240e-02 5.734808884747641389e-02 4.343203808820697565e-01
5.445191083308563440e-02 1.222767727516359260e-02 4.594477231789616534e-01
6.865031878264120022e-03 3.440042929693649248e-02 4.071441828113548933e-01
5.771986676278095807e-02 -1.505245274447300149e-02 4.828066188027910766e-01
1.232631829145974106e-02 -2.163014099670582807e-02 4.371915347315604161e-01
5.998144922849874168e-03 2.696362001851567835e-03 4.294936796602806250e-01
2.030253808325709411e-02 1.122321900714644445e-02 4.315197961241021840e-01
4.987317054728743204e-02 4.470152256129137497e-02 4.520648648309387729e-01
4.627348832530053802e-02 -1.653314683265044716e-02 4.546381571737784233e-01
-1.266799197501056878e-02 -9.013737886351274459e-03 4.336394938674383304e-01
5.398940408146039177e-02 -5.210381068781884742e-03 4.659158044490561701e-01
1.076274126492364133e-02 2.774071752674520108e-02 4.148721475166501360e-01
4.700551187997374647e-02 5.825051356168693684e-02 4.506726955142573710e-01
