3.674573031241542553e-01 -4.967931413583540068e-01 7.670431002413785615e-01
-3.541977642331170517e-01 1.397152575241918659e-01 1.408172900478378731e+00
-1.296626156399740583e-02 1.252222854334763325e+00 8.842340904212877550e-01
-5.211427789797830057e-01 1.409879504081889889e+00 3.556009094723593944e-01
1.886137790879758858e-01 7.235997536153722098e-01 1.158873395878998958e+00
2.028097722621443055e-01 7.722644783549804659e-01 1.128541951270547683e+00
-4.157585234042651678e-01 -6.610758642990308687e-01 1.456441764776285064e-01
-2.079694378031776876e-03 3.783985550683933718e-01 1.347047819860258233e+00
5.001063200946194165e-01 9.147248710097396485e-01 1.123238150766900256e+00
-2.167570609565757367e-01 -3.938091208081709871e-01 1.123438240495961749e+00
5.165114516699170766e-01 1.086608816036395142e+00 1.056615061402400357e+00
-5.782353221738489868e-01 -2.489480153636582371e-01 1.039753797060820828e+00
-3.189701011218424309e-01 -1.791962376823489911e-01 1.322384193892099047e+00
4.991387682630250011e-01 1.249647345155040501e+00 9.962498248052495953e-01
9.000679284252889323e-01 -1.823064427660229386e-03 3.951094533266227282e-01
1.899915520372650324e-01 9.456022364417376869e-01 1.028968457098296874e+00
-3.909784800682023498e-01 1.166059526082166231e+00 1.303331025816238664e-01
6.639551293771263074e-01 1.245621398011500292e+00 1.046142274711481024e+00
2.983278982339537810e-01 -4.204330374500173106e-01 1.030759377781314656e+00
8.297573137264662169e-01 9.997429737394576410e-01 3.201599879381257785e-01
-2.116038154092462487e-01 -4.229362175038114402e-01 1.078074233969199991e+00
-1.835769776503715367e-01 -1.192716645203139858e-01 1.392488770125021258e+00
8.403429072885760798e-01 1.062144509864694442e+00 3.772253230164439031e-01
3.511835298282482976e-01 -5.641660867741202789e-01 5.366321946909770046e-01
-8.773019484027778647e-01 4.417663281732004399e-01 1.203310495131953317e+00
-1.859204745291253569e-01 -5.929251567514872701e-01 6.393216595367144928e-01
8.972235689470291486e-01 5.357602875606859438e-01 1.192399541129511631e+00
-8.646013076643971340e-01 1.336864002470226076e-01 1.068248341131212698e+00
6.271762850184615934e-02 -2.297946409931839185e-01 1.342146346825942027e+00
-8.073666550853473289e-01 4.622016114811611787e-01 5.103951913365809695e-02
1.030277809728608940e+00 4.437193147243455593e-01 7.055324550551783647e-01
-4.001958881232996479e-01 -4.485351753940594599e-01 8.545134208708005108e-01
2.664674564310169358e-01 -7.693813805523868066e-01 9.011089486844978125e-02
5.719511021850677557e-03 9.922236461459107426e-01 9.871549482166889211e-01
-8.226113438527114796e-02 5.737667495257916528e-01 1.241277766143433769e+00
-5.904855967679055739e-01 -5.460633008034658786e-01 1.226795048096635532e-01
-2.102250152914733883e-01 1.535202263044515236e+00 8.784424659331010465e-01
2.704552443673898243e-01 1.378687431581179679e+00 8.979959724807976551e-01
1.001069914736669286e+00 5.663835043456963980e-01 4.472672526146471150e-01
-5.585187215979711128e-01 2.619941975257080169e-01 1.364297235089458882e+00
7.670024810047115782e-01 6.532370004055970680e-01 9.189561885165331567e-02
3.968396453526804590e-01 1.073954521610010149e+00 9.221031209519525706e-02
2.555503528226633625e-01 8.934916670181053400e-01 1.403902849000645929e-02
1.016841120406150489e+00 8.975892429703851150e-01 9.202002780706842744e-01
5.744370953910779010e-01 4.715756056829756848e-01 1.318154633639655904e+00
7.907306875769348764e-01 1.373866094715716413e+00 6.243297707763372228e-01
-4.421754614308180398e-01 1.266071315229768457e+00 9.734908052252707611e-01
7.114257651530951909e-01 1.260701472221694042e+00 3.785680111567647499e-01
-4.729831314303094281e-02 1.538427216654626006e+00 3.127787382822934115e-01
7.844595201052377842e-01 8.759522479578314424e-01 2.001319330742563352e-01
-6.121666900637973141e-01 -2.681352801819958942e-01 9.530459494764506045e-01
-6.566714546670536778e-01 1.262009910838078675e+00 3.299285077352307471e-01
-7.819931846877773429e-01 9.026602839167832126e-01 1.174331346585594460e+00
-7.802998524425618365e-01 1.074070384798560207e+00 1.113435560759871379e+00
-4.821783942810399237e-01 1.476519425456930268e+00 3.927523573592665018e-01
-4.741205211685263765e-01 1.282991761223767346e+00 9.814188251768053428e-01
3.863922940867402511e-01 7.245897291538414553e-01 1.190413147049718789e+00
-9.453003417556342658e-01 7.512008619661474373e-01 1.125071500253162160e+00
-7.197321955233764168e-01 5.659972244246466166e-01 3.040173035975338861e-02
-1.565953905277961064e-02 1.833667509240119120e+00 8.238479583764654057e-01
4.967686022247726207e-02 -6.945268983940583452e-01 3.034719868974704582e-01
-1.010941785568506335e+00 3.515646270040367338e-01 6.234211202434887245e-01
-5.783755457588446447e-01 -3.583765668272860250e-01 8.019144197406165020e-01
1.957122733466384878e-01 1.569846211548806325e+00 3.608943045105257874e-01
-4.778653631278112490e-01 1.700121056170067479e+00 7.384537363774946739e-01
6.227842352799554948e-02 1.704901025954715044e+00 5.001049290445712669e-01
-2.486621272253206616e-01 7.994047483401840737e-02 1.422997665858166894e+00
-3.598372168302346741e-01 -2.537470496286982624e-01 1.239077801581005778e+00
5.293719414203298390e-01 1.540062384087027558e+00 9.496174126545359195e-01
-5.457871382580332664e-01 4.815473184233896586e-01 1.318688459835773319e+00
-1.789944855775850996e-01 1.246562692733560018e+00 9.034475375201649339e-01
6.044955588787982448e-01 1.449092610034389050e+00 4.563460459390099588e-01
9.935330875992994804e-01 3.542135929886817136e-01 4.561706413804096916e-01
-1.616676406462199678e-01 -1.920379729607948616e-01 1.357911243982400151e+00
-4.037409666716943457e-01 -5.481477038981471539e-01 4.876481639863661233e-01
-8.914295200874323699e-01 7.235842106298642773e-02 1.201541383550834563e-01
-1.068254837331024110e-01 1.187423438558750100e+00 9.090118593897101862e-01
8.564603511728486884e-01 -1.274490991296279019e-01 2.731234296503578379e-02
3.549422382574041746e-01 -6.578113274390494647e-01 2.333889160718915501e-01
8.908984217848232579e-01 -6.619100975125292302e-03 6.605385555282825560e-01
-2.046270918463471422e-01 1.789691050600508149e+00 6.849537488246517647e-01
6.720930960059769976e-01 -1.952421723314067548e-01 9.844900977993641389e-01
2.865175948944891915e-01 1.513297732137803830e+00 3.366503851473910958e-01
1.446619971108646929e-01 -7.598052171861202631e-01 1.339484803496970022e-01
-4.504985638387296043e-01 1.247525481307589779e+00 9.802692692971016752e-01
-2.466432239741268850e-02 1.154668939052664545e+00 8.034076574095502798e-02
-8.633391232401679272e-01 1.187431884906281709e+00 5.315529079156688930e-01
-5.399356746847185917e-01 -6.762363862500991168e-03 1.323125937457408474e+00
2.762827914010136943e-01 2.737055126880735267e-01 1.393349391929985526e+00
7.374703024440363297e-01 1.499122078411406322e+00 7.699268920449587883e-01
8.835043197278746874e-01 1.269264732582685018e-01 1.011217832166071862e+00
-8.132269944143997176e-01 -1.917412102199556323e-01 2.842289227661614071e-01
1.189990823396210179e-01 1.807775715483091128e+00 6.903058992674230288e-01
9.162269910544805773e-01 2.816900426488473941e-01 1.736569811871974400e-01
-1.240361298774005083e-01 1.229468008099738663e+00 8.995363005792416100e-01
2.368126935133082200e-01 1.028165055377345594e+00 4.656092409253091702e-02
-1.941208527426262764e-01 1.693808014922471017e+00 5.107373489085502705e-01
6.845026638319215984e-01 1.392461530917131984e+00 1.003299319686191016e+00
7.223136040908133271e-02 1.127861483657382147e+00 9.273243188901414413e-01
-9.568181103721047354e-01 1.764393669500026185e-01 7.864442576435798360e-01
5.025963232856117680e-01 8.438650918343121310e-01 4.014443518467113864e-02
-8.502791657403466763e-01 6.233967250786275338e-01 1.597801774846651646e-01
5.324691825097452869e-01 2.894528286170929832e-01 1.368787040888720608e+00
9.213264821872095556e-02 -7.600050517581656839e-01 1.621657496869371995e-01
-1.582265257231983691e-01 -6.497923862685488494e-01 4.150159861886286716e-01
-7.363335776431251256e-01 1.048845811267869133e+00 2.501404995425695055e-01
-6.710787816567717612e-02 -6.230172063128219806e-01 6.095277445531439575e-01
-9.436532680965397102e-01 1.044445721329648524e+00 5.693445967256557383e-01
9.929188996605864403e-01 7.326532852400645668e-01 4.713653400296144436e-01
5.528391705266897382e-01 -2.454164298448792414e-01 1.088330739740598352e+00
-4.477543663353038550e-01 1.210802930108617614e+00 1.726122629764451077e-01
-2.982528975862507314e-01 1.117621120934615409e+00 8.693391232269173652e-02
-8.955273085421074919e-01 3.194524249614657530e-01 1.142604867686255243e+00
-6.165796795103045680e-01 -4.609403262516065802e-01 2.390936608657673879e-01
9.505735614458441507e-01 2.152406233363096666e-01 9.285383086948924003e-01
-7.779220776581504682e-01 1.401297195007377372e+00 9.638021055494483402e-01
-7.118650769098273656e-01 1.100933673053019701e+00 1.102441352277685915e+00
6.724982962970621481e-01 9.404955023613460474e-01 1.458242442297040531e-01
-1.036406958773565146e+00 5.198637490665722893e-01 8.037676879801836094e-01
-8.656146266498638830e-01 -6.781523005796712134e-02 6.181512075525219529e-01
-6.183167467909004289e-01 -4.804720742730132499e-01 1.898702176630358562e-01
-8.587556967959169008e-01 1.094421395821901788e+00 1.088264511521946254e+00
6.502786340760546846e-01 -4.901623778420441946e-01 1.436386101496321122e-01
2.853165260179647000e-01 9.440179998837531228e-01 1.046027865489991049e+00
8.801132364643589057e-01 1.074366041195024657e+00 4.466102239422208853e-01
7.113584280820564043e-01 1.285162685616382694e+00 1.040721603148116348e+00
3.546742448889313865e-02 -3.083320609830469960e-01 1.274745085007017664e+00
9.566275740093891367e-01 1.311221978147036338e-01 6.154267100896618770e-01
9.974542009463478465e-01 3.408733473114562429e-01 4.844138895024269198e-01
1.935883369735362514e-01 -7.549499402385682068e-01 1.254990531344942484e-01
2.302237629546846909e-01 -5.880132764900388720e-01 6.359950818162565245e-01
8.651809677700083023e-01 8.238750783536007427e-01 1.175217274608094220e+00
8.777373094687136446e-01 1.080043388603196680e-01 9.999963973423949826e-01
-6.960899406066816120e-01 9.110250017769104813e-01 1.164304085341041795e+00
-2.649543480858113087e-01 4.154028106417765320e-01 1.335981928097009996e+00
7.312334459097254991e-01 2.840635793671904552e-01 1.296454244862855321e+00
7.534766477238484805e-01 1.258590596027175712e+00 1.048157833867505495e+00
-4.302494526871472047e-01 1.528139251529464504e+00 4.142555736262297228e-01
-7.739799274883001345e-01 -1.624880804549542201e-01 7.809292487464470911e-01
-4.770128393381138643e-02 9.061418303830945931e-01 1.036316580676863719e+00
-3.024906945467339403e-01 6.122749435983669830e-01 1.238639496784107452e+00
-3.438282880594462632e-01 1.283510437230277468e+00 1.787493252045453951e-01
-1.054101123527320938e-01 -4.251262319215696750e-01 1.110906303551812524e+00
-2.011955732308030320e-01 -6.298714461006449383e-01 4.366307566436579690e-01
1.340241298263727954e-01 1.079379774995196550e+00 5.790293437271820665e-02
-2.371160176841339770e-02 9.418301527319684618e-01 2.364123252085946827e-02
-4.344322542100788609e-01 1.028377901899463431e+00 8.738321140869309556e-02
8.444403818109597060e-02 -6.468383677514888408e-01 4.145701206914474413e-01
-8.235292851277786763e-01 -2.541034882710062615e-01 3.832510123515611017e-02
-8.606944625723466080e-01 1.309470444360408825e+00 7.143400735063230034e-01
-7.458882109620065815e-02 -5.811930431322711588e-01 7.373188199043727575e-01
9.863363223918515665e-02 -3.498705637603871099e-01 1.219244446493415346e+00
9.947436507915897730e-01 5.132661674399213725e-01 4.216352165679078667e-01
5.745884839118740040e-01 -1.027408343346122438e-01 1.232751689186739164e+00
-5.729983723236266036e-01 4.464249047532919956e-01 1.327431435768634316e+00
1.033323316239358025e+00 5.795835269987887894e-01 5.910233883237495656e-01
7.795843817457245306e-01 5.918652760876796926e-01 1.260870495043857620e+00
-7.326583515623665832e-01 -1.589179548786502916e-01 9.040956942611398928e-01
-7.451949991850720378e-01 1.473743638959092328e+00 9.159852784039899110e-01
-4.499436756352001576e-01 1.059744776940118705e+00 1.042461762145363124e+00
-2.964301128163737697e-01 1.535558369596946360e+00 8.966811318699329236e-01
-7.261390842149255676e-01 7.450013026943935746e-01 9.838962917305565936e-02
9.471229361694942783e-01 2.708936430394788819e-01 1.003419858429880351e+00
6.205674376298422334e-01 -4.400411295268392142e-01 3.272107554411353147e-01
3.204592216105262570e-01 8.430144022246541802e-01 1.107359389518309145e+00
8.728238193198466499e-01 1.194307601572609734e+00 5.518028166288826419e-01
1.327237729072935045e-02 1.057578494595592611e+00 5.507882278310897994e-02
6.349405736380939747e-01 9.550212480298760909e-01 1.307572144389540225e-01
-4.077891859888965187e-01 7.836408970243456951e-01 6.832868907797127155e-03
-9.947119015575031642e-03 -2.928985450923509704e-01 1.289859129468811094e+00
1.947964567180767437e-01 4.470639263314706291e-01 1.317115724171994628e+00
8.693869250221212264e-01 9.096443528801174683e-01 1.148376709904239457e+00
-1.021431018260104073e+00 5.278450381030120875e-01 9.253074588202748751e-01
9.283805571309201587e-01 1.015679897702600920e+00 4.944731480200648677e-01
1.000402482182619845e+00 3.260258868464167015e-01 5.516037171155752095e-01
2.793346657323083626e-01 1.795315544010759323e+00 7.788063502968327612e-01
-7.130974607789037911e-01 -3.163609186464876877e-01 4.123823899586984143e-01
-1.468815560829956832e-02 -6.975087109754324333e-01 3.409419459420737208e-01
5.094000411383053928e-01 1.338417486983946025e+00 2.846282985832309653e-01
-8.688576910713414758e-01 7.975626444053832698e-01 2.559921935293326678e-01
3.347483034629916698e-01 1.775337085567544548e+00 8.349748260843178338e-01
-1.706292886243072904e-01 7.002612749364258704e-01 1.168457714730928965e+00
9.974824717905925731e-01 1.009773039318192733e+00 8.791645607722984312e-01
4.572056990597835324e-01 -4.923843218622165896e-01 5.957240935729908315e-01
5.017017313404292800e-01 4.424450059268186797e-01 1.329163410557439917e+00
-3.448727808165830133e-01 1.452722081541109933e+00 9.160202898663314386e-01
1.816855461252618043e-01 5.378238828168078189e-01 1.266310886040067141e+00
-9.096904952087033758e-01 2.694318007119426150e-01 1.750599495174864073e-01
-9.295010543591515628e-02 1.670337535760863634e+00 4.536841924391835090e-01
1.034035313510981213e+00 5.529654831743072707e-01 6.007045456251618454e-01
3.941556149619612204e-01 1.270413574902025555e+00 1.844864205113162237e-01
-1.029241092803008240e+00 7.032458932822834852e-01 6.181110089213485148e-01
1.019525127926447672e+00 4.208438748350115666e-01 8.630353097941373397e-01
9.863443791999693122e-01 2.881299894636315528e-01 8.619205457846218499e-01
-6.130974141753037232e-01 1.555938879937394770e+00 9.411967618698597882e-01
-5.503071605116800769e-02 1.348030970881660906e+00 1.741034406112093036e-01
-2.025499154866895746e-01 6.233068507299294181e-02 1.426616418648152917e+00
-1.026966364971563017e+00 7.349822264233937252e-01 6.239257151802676260e-01
2.366929025244251805e-01 2.722256234119416751e-01 1.393236465463559837e+00
-3.593059301914138803e-01 -5.044950980729632217e-01 7.384737340381413162e-01
