-4.588188913415854053e-02 -2.974505528525111728e-02 4.361802836083575330e-01
-4.321308293765666747e-02 -1.166095287225860783e-01 5.198883231935316207e-01
-5.404209082723929886e-02 -3.486771627855467931e-02 4.420005746868690966e-01
-7.373968262584952582e-02 -1.104333629650963294e-01 5.187236502797277771e-01
-1.615855041268069933e-03 -1.261299189907244822e-01 5.152528899721590117e-01
-3.992127087944505673e-03 -1.235935077410795363e-01 5.002230273396850446e-01
-7.056320401808728604e-02 -1.015145300367912978e-01 4.281135020085789500e-01
-3.710292880464198528e-02 -1.177430579093824980e-01 5.062345301350951177e-01
-5.335090781331266324e-02 -6.000997658694830900e-02 4.316146146560286834e-01
-1.033207644366257866e-01 -8.857721636051206493e-02 4.706102733490111212e-01
-5.553074278046730289e-02 -1.135027723286337609e-01 5.252012883204550953e-01
-7.319076563814007341e-02 -1.110083870193302180e-01 4.794386811171378326e-01
-1.000700359049769561e-01 -9.125199421601661032e-02 4.621432781479074547e-01
-5.274040869363942619e-02 -8.171858240702252474e-02 4.269712745841309776e-01
-4.618495369225500413e-02 -1.158346072679392880e-01 4.981227227530336532e-01
-9.355737392937324426e-02 -9.999571585270690399e-02 4.545519340821360665e-01
-1.294608042626897194e-02 -6.771447944528928564e-02 4.407175950151501764e-01
-4.111461706360044523e-03 -1.253657295932587290e-01 5.101684563017812035e-01
-1.130078742201831715e-01 -9.694690688355049601e-02 4.877642967356343728e-01
-1.150820698827601830e-02 -1.241118067758164717e-01 5.145182715474079238e-01
-8.134022391476337932e-02 -1.108109819523215439e-01 4.815145448931352212e-01
-2.918120393734310869e-02 -1.191539856113852658e-01 5.234734184578858640e-01
-5.637543654741709875e-02 -1.146115139704415725e-01 5.160747438060512282e-01
-9.734245655887617532e-02 -8.703175452942978063e-02 4.628451883896189112e-01
-2.710051452635904232e-02 -1.199160241780500014e-01 5.100282600104592001e-01
-9.456460369609721167e-04 -1.264132790961497721e-01 5.175232741613370324e-01
1.790210140592617388e-03 -8.195865819235401140e-02 4.468362885012346908e-01
-1.706953598106714792e-02 -4.919313653134525788e-02 4.388795365004194982e-01
-1.646906435213347022e-02 -7.313852173567063353e-02 4.414908549566127216e-01
-4.857717125510992162e-02 -6.784405571802580581e-02 4.301786959595920723e-01
-8.490240048471012213e-02 -1.100054889458923213e-01 4.764033351780196379e-01
-7.267945007555094705e-02 -9.686066311933773376e-02 4.252536023119239394e-01
-7.265706304373899249e-02 -1.122634339321485486e-01 5.050379692701273404e-01
-1.374705629339688373e-02 -1.058211087962878938e-01 4.634489997194296551e-01
-5.346446964030350524e-02 -1.141900142408037583e-01 5.239321951996365190e-01
-5.537866907134396388e-02 -1.055146366023170940e-01 4.546800635465420570e-01
-4.827784556244621439e-02 -1.108434702186999465e-01 4.754380655123783828e-01
-9.023556037773515504e-02 -1.080046849140698373e-01 4.698510993959193471e-01
-2.573005823471105624e-02 -1.203918451953030488e-01 5.141847399546843889e-01
-1.892426425397874742e-02 -6.204118260156288311e-02 4.391220519625800289e-01
-7.226241244899700433e-02 -1.054128318581731838e-01 4.512741949691727039e-01
-1.069878059363375822e-01 -1.048436185216596178e-01 4.860494411191058073e-01
-6.809153964274410054e-02 -1.085942967971346151e-01 4.648733642115404630e-01
-6.557071578295044917e-03 -1.245983581592435691e-01 5.075307781457963907e-01
-6.804328826562308641e-02 -1.101229574983025594e-01 4.721324104648882969e-01
-1.257395548098723913e-02 -1.220767483423793459e-01 5.370271359847753612e-01
-6.499328345094119996e-02 -1.040291995455308177e-01 4.333660538632411185e-01
-7.182900276064341227e-02 -1.112694194293704364e-01 4.810415430354892941e-01
-5.355395727839783876e-03 -1.205885061855761775e-01 4.900847811250491626e-01
-5.747266986228061897e-02 -6.692088379433384915e-02 4.298436304272946762e-01
-2.915374645872368872e-02 -8.372063984149800964e-02 4.433349134529071534e-01
-8.891374394382249580e-03 -8.537230833398672114e-02 4.471205315557560955e-01
-2.253537305174124067e-02 -5.489787599995638034e-02 4.383283577133110231e-01
-5.899988914851717059e-02 -1.141076171878230017e-01 5.166725088384470643e-01
-2.348104576462123685e-02 -1.139479235074587482e-01 4.821061241439464906e-01
-6.315514527535090461e-02 -1.136810515776376651e-01 5.047617374778031740e-01
-2.779044213374414971e-02 -8.459380028790566830e-02 4.440133854757105092e-01
9.449893595447471937e-04 -1.264840849405060308e-01 5.144305615124009634e-01
9.755799242144199551e-03 -1.260722408666349603e-01 5.349680376208785226e-01
-3.252202937950303841e-03 -1.260009412642103532e-01 5.194539240255108270e-01
-2.302726422277641405e-02 -1.054490833628546481e-01 4.659147887065287486e-01
-2.561333823376324773e-02 -1.088649223348650275e-01 4.719955435688051315e-01
-4.251653690291973958e-02 -1.156848207133413103e-01 5.288475833244368207e-01
-6.212766941237273660e-02 -8.360065957715988316e-02 4.245316525428591836e-01
-9.344714544496396380e-02 -1.077113243256995895e-01 5.059682316019498138e-01
-3.252584357423898148e-02 -5.707318878836551562e-02 4.365884286595830832e-01
-5.528326687722507488e-03 -1.238030787804295652e-01 5.018673330490176498e-01
-4.867044647933002621e-02 -7.988236361237173455e-02 4.300025918000806024e-01
-5.352174866135879505e-02 -1.138676648326400059e-01 5.253091124095927711e-01
-8.948965043227817551e-02 -9.083034290717517667e-02 4.475927989772241489e-01
-1.603311004516269622e-02 -7.198894767161959085e-02 4.412682475058486986e-01
-5.304582053313259410e-02 -4.267362239656224271e-02 4.368607757266825264e-01
2.816490930532728615e-03 -1.270289082337371089e-01 5.215976379813759278e-01
-3.027785045834661265e-02 -1.079374994240391433e-01 4.708362461772254148e-01
-3.248883061739225170e-02 -1.140047900040428303e-01 4.847568022555946987e-01
-6.113755569668229833e-02 -9.235384712908767391e-02 4.229567669252071727e-01
-2.640270526668765314e-02 -3.606991134389916920e-02 4.386786353672715300e-01
-1.543113440886472072e-02 -6.213733274150450014e-02 4.394073564075943739e-01
-5.222620497002732759e-02 -8.111677913276049701e-02 4.273622801437018115e-01
-3.509908677804607531e-03 -1.258921700235852703e-01 5.230437868644235433e-01
-5.769121083704130404e-02 -1.115372332638521063e-01 4.780372256184320934e-01
-8.735442326998882345e-02 -1.058092586695739412e-01 5.172073544861529593e-01
-6.163819145692014251e-02 -1.082378563196869786e-01 4.624300977576171201e-01
-8.513257195574405745e-02 -1.102657970912057223e-01 4.794855860505086165e-01
-3.829208503886953174e-03 -1.258990440727771054e-01 5.192879172013773470e-01
-1.040638920458721445e-01 -1.048786774651248449e-01 4.751761489149617379e-01
-6.441227625206033536e-02 -1.030274891171683721e-01 4.253613655394747894e-01
-9.425798273688371087e-02 -1.059057597192801653e-01 4.653208128690834999e-01
-9.604602735618228415e-02 -8.430771579484543088e-02 4.642416902493112230e-01
-1.100386171070172614e-01 -9.892414941340761658e-02 4.769455291060001323e-01
-8.539618092099703073e-02 -9.947198204530079135e-02 4.446905630614537142e-01
-9.775066587525586825e-02 -1.074676870117483862e-01 4.757364360229510147e-01
-9.309817321534703816e-02 -1.067059359864913348e-01 4.673595138899007129e-01
-4.876044488808546629e-02 -9.549204486662500602e-02 4.387328068731695674e-01
6.253123348887826803e-03 -1.249213574704707286e-01 5.056336875803670861e-01
-5.777343288200861154e-02 -5.976432004671708431e-02 4.328743573323223237e-01
-8.728917160104765482e-02 -9.700134211968586273e-02 4.450442713760078273e-01
-5.422102457058902009e-02 -1.016728358603963545e-01 4.344013983202724138e-01
-3.387192321593233274e-02 -8.484696705603916866e-02 4.424261720429216727e-01
-5.283475405221684656e-02 -1.018645410985733746e-01 4.465405516391829366e-01
-1.565113167050269025e-02 -9.883889769703775585e-02 4.563044160623143664e-01
-5.347093322623209383e-02 -1.119337313336717654e-01 4.801580933138915874e-01
-6.197107883446832666e-02 -1.041598066214434043e-01 4.416422095115137836e-01
-1.020325530502953076e-01 -1.039636722212247955e-01 5.072076640512785950e-01
1.382242753941750370e-02 -1.260793979196236370e-01 5.201778201174165339e-01
-7.241231452527201184e-02 -1.035262566759955899e-01 4.407516788998836477e-01
-3.439172372092984958e-02 -1.184449293093987193e-01 5.098569220594536544e-01
-1.348464716077779450e-02 -9.521664887885256112e-02 4.528064783862708609e-01
-5.002008785622474862e-02 -1.146904206008449167e-01 4.943562783444281905e-01
-7.836296706413649338e-02 -1.115022341098667186e-01 4.961813315679031722e-01
-1.802601144356860002e-02 -8.388645187823003113e-02 4.452277368518754441e-01
-3.009051865965504946e-02 -4.894431364340961349e-02 4.378093644334387635e-01
-4.022863368498599823e-02 -4.336206707422197992e-02 4.352758826939332470e-01
-1.002353886863832366e-01 -1.069999777593528822e-01 5.002587762158550166e-01
-2.594159953095950127e-02 -9.343708741473430446e-02 4.514624877401570147e-01
-5.998421709062130153e-02 -1.125201821953208253e-01 4.851773047397759941e-01
-8.806578514985989592e-02 -1.052652381576106161e-01 4.587379805187939974e-01
-3.903040625841058819e-02 -9.176032475854856152e-02 4.453739497507260836e-01
-8.102424240417116508e-02 -1.088382367325658323e-01 4.679099906515408192e-01
-1.020912163023648123e-01 -1.068443451374333775e-01 4.829372459959947461e-01
-7.408306495262173552e-02 -1.113654156929238248e-01 4.831001540330776556e-01
-4.722918893172119159e-02 -8.719562022920122890e-02 4.322150972143076197e-01
-2.929204467816376792e-02 -1.194204445502180245e-01 5.183195351257020578e-01
-5.768261170254407322e-02 -1.089577773336209421e-01 4.662862695446380878e-01
-5.568058863886717058e-02 -1.027208504767033320e-01 4.311205302231388981e-01
-1.888540607098141907e-02 -1.157797186019255131e-01 4.843623985440781987e-01
-1.566464377429922436e-02 -9.654716323267026334e-02 4.541472394819127123e-01
-4.477391513081703522e-02 -4.131956127077529572e-02 4.353544168932174108e-01
-3.297690128431204903e-02 -1.105900277327060283e-01 4.758848228684981474e-01
-1.021447497712421465e-01 -1.043013441295343180e-01 5.060992179061124530e-01
-4.588082172990165519e-02 -1.163453877512355683e-01 5.169689921649919251e-01
-9.441798911370778702e-03 -5.470710746092891097e-02 4.383098663111949511e-01
-4.875009959119705472e-02 -4.241153011214437996e-02 4.356211462637823995e-01
-3.606839220018927955e-02 -6.110682263474405407e-02 4.358256331781832360e-01
-4.649572038743996633e-02 -1.141812519198713016e-01 4.904838695814867644e-01
-2.940485994103063383e-02 -1.183301442675224885e-01 4.995164464619698541e-01
-9.434011315995494140e-02 -1.048624207506698019e-01 4.623423362184613250e-01
-1.019921478712633445e-01 -1.066503827750611699e-01 4.808493535064513047e-01
-1.021493567888293458e-01 -9.442031993714648797e-02 4.629725306973030974e-01
-2.690287415710382671e-02 -1.199154316544363830e-01 5.088579341226536767e-01
4.634038370490393619e-03 -1.203833095593986879e-01 4.895966934049666430e-01
-7.280718780326837780e-02 -1.110712029316949789e-01 4.798603089602451743e-01
1.144225136297711415e-03 -1.258436060853427296e-01 5.321874302390888767e-01
-4.664659089529783059e-02 -7.079481471174234319e-02 4.311945093359638159e-01
-3.686177631051734682e-02 -6.792254015209334139e-02 4.355894992029786250e-01
-9.482535136049675961e-02 -1.067344866601373232e-01 5.083716986202774235e-01
-6.795080664685419769e-02 -1.129627253319261670e-01 5.090215618345738102e-01
-6.315815584206263544e-02 -1.122790586389782325e-01 4.859287084363690390e-01
-2.832843515885736033e-02 -4.597839087978258799e-02 4.382851756249424025e-01
-3.407990922409605272e-02 -1.181726728080656208e-01 5.230591154142613108e-01
-6.518151309135059024e-02 -8.913298876362917011e-02 4.222509677085125590e-01
-4.527371184236457513e-02 -8.830929792558135649e-02 4.356541800487200855e-01
-2.753356432812898227e-02 -1.060603462072438191e-01 4.675244559420712043e-01
-2.212898591424194636e-02 -9.146044708778279519e-02 4.496904078300258401e-01
-4.381336767893133366e-02 -1.165967682650418114e-01 5.072791985064115661e-01
-6.010690958492595493e-02 -7.294018999402411552e-02 4.273514191851719435e-01
-6.212257771957736124e-02 -8.641182837008058726e-02 4.236932029647283993e-01
-8.127201527513221169e-03 -1.003215784922134313e-01 4.575346638495592644e-01
-4.777187347240293563e-02 -7.137440502001142495e-02 4.304881680350662321e-01
-3.974211484540472739e-02 -4.394028084718835936e-02 4.353167166522755593e-01
-3.353910529804761398e-02 -8.772610469678016054e-02 4.444197510945351870e-01
-8.039569920853322296e-03 -6.043535561213916191e-02 4.390200413195266549e-01
9.836027112358701127e-03 -1.254112346519924426e-01 5.381437862131323024e-01
-2.037506856262007171e-02 -1.201687735938879315e-01 4.997766834214029674e-01
-5.796113011015956856e-02 -1.068576317819285859e-01 4.585607527552659768e-01
-2.247982239508941257e-02 -5.448265736135032150e-02 4.383816935557600658e-01
-5.491999851863475085e-02 -1.146319818619817160e-01 5.184167392000390562e-01
-9.419862556402907455e-03 -1.058956191504476230e-01 4.630555504326867577e-01
-1.759139666967549087e-02 -1.182290124942437792e-01 4.897803564740254023e-01
-1.011316626842965471e-01 -1.067416110728414136e-01 4.788486468354298253e-01
-2.883136309479120835e-03 -1.248737859477677681e-01 5.065125795695668565e-01
-4.628534776030490683e-02 -2.914565053239950160e-02 4.363157083556439275e-01
-5.063107895783230950e-02 -1.151417326292610704e-01 5.207848122766609578e-01
-1.585003415198832713e-02 -1.190958569765793312e-01 5.457165164035882032e-01
-5.614344127674513601e-03 -7.919495246747410011e-02 4.451371840693849058e-01
-4.491069158013549084e-02 -7.010331084996053452e-02 4.321914519731226978e-01
-4.160664635926031307e-02 -6.761603227562013041e-02 4.335489743988077960e-01
-1.015222743995549404e-01 -1.053239504922754421e-01 4.715930204365350598e-01
-9.615426618298543449e-02 -9.711999586050097666e-02 4.548897950694321679e-01
-3.967430126871076407e-02 -1.039153998227172471e-01 4.608800861318855802e-01
-8.578514043419940144e-03 -9.268768649221606482e-02 4.510977312701022757e-01
-1.587216449701981183e-03 -8.169123917574595828e-02 4.466686433704507575e-01
-9.154172605684481046e-02 -8.868885425371546283e-02 4.518399673462923372e-01
-7.753932551534541140e-02 -9.902613616129267438e-02 4.323652955387778385e-01
-7.128198392164492025e-02 -1.045951965221767616e-01 4.461431508862166995e-01
-1.885599219123524836e-02 -8.498118493119696804e-02 4.456752372485747182e-01
-6.570680253511554381e-02 -1.026821587697995947e-01 4.258212087309604099e-01
-5.045117827365157986e-02 -9.937906473831319143e-02 4.448897652668900027e-01
-6.966787584582354032e-02 -1.055198798972955820e-01 4.511411877750747812e-01
-2.301240921860824018e-02 -1.084729088812140529e-01 4.706154498974175482e-01
-6.208215950334913108e-02 -1.080667105434979375e-01 4.615501522005120982e-01
-1.605670829935923472e-02 -7.042169854648398786e-02 4.409498801381679933e-01
-5.682767987666442755e-02 -7.533227567807020131e-02 4.264375096038484636e-01
-3.474733524227927809e-03 -1.191102872354536657e-01 4.850906834764846520e-01
-9.241983082632382329e-02 -1.064160116517578886e-01 4.657019100916492960e-01
-7.403852372075747645e-02 -1.019152329381516481e-01 4.348178903788790794e-01
-1.956146442469476610e-02 -1.124898964425806586e-01 4.772608081524015722e-01
-1.197024211288658796e-02 -7.500863743850011423e-02 4.427272135960316768e-01
-3.996459641259337420e-02 -8.123015926600540837e-02 4.373407018591206619e-01
-1.972842028404137027e-02 -1.180990960429067760e-01 4.915999992644541350e-01
-9.850480740815169278e-02 -1.056449815946473303e-01 4.685752827726328840e-01
-6.500611321498686590e-02 -7.299064191224233222e-02 4.291281006687997501e-01
-4.031504146232728347e-02 -1.164173308330942597e-01 4.987972639758719851e-01
-3.452141745100082912e-03 -1.213687026796337332e-01 4.920567706343769165e-01
-4.738641104664595427e-02 -1.161031113839384593e-01 5.165204670371403850e-01
-3.402562962631117821e-02 -9.726426607091079313e-02 4.531954605958311011e-01
-5.986128679786262285e-02 -1.040868337626496692e-01 4.447696210749713108e-01
-8.912579298387453275e-02 -1.100145975140687793e-01 4.955608970538217806e-01
-8.520193215501548067e-02 -9.623861719937105985e-02 4.429737876215931736e-01
-9.293285698976994080e-02 -1.093667120175866592e-01 4.956852280249179898e-01
-7.361029054541656791e-02 -9.567678195308938760e-02 4.250461362056603964e-01
-2.467295359452119363e-02 -1.203935142949872500e-01 5.219276019080302254e-01
-1.802149119983349063e-02 -1.137815901667965368e-01 4.793683916724525429e-01
-7.715853788994965490e-02 -1.102693499513256181e-01 5.142621766235950798e-01
-1.030270892743201244e-01 -9.022562334895813108e-02 4.680915832436340351e-01
-6.283262215140177076e-02 -1.037950182137292177e-01 4.288293953140574488e-01
-3.439066679554238920e-02 -1.185160936964587824e-01 5.123943667184598372e-01
-6.991600401512032548e-02 -1.097257650538772944e-01 5.253434466032649297e-01
-4.747954134618612848e-02 -1.050570540104578121e-01 4.584866113834568102e-01
-7.827963106651332492e-02 -1.111903862768974099e-01 5.052244398450647100e-01
-8.302328326026624239e-02 -1.036870914219434198e-01 4.509611191808173269e-01
-7.241814923997080822e-02 -1.096365129682688594e-01 4.705154009188017294e-01
-5.893283387986457400e-02 -1.033288208782255080e-01 4.377791273021132135e-01
-7.294806425572057662e-02 -1.041434578238386865e-01 4.441956856579915014e-01
-1.436244442126611079e-02 -1.213501360244793187e-01 4.982432389683157381e-01
-3.539898012197877086e-02 -1.049437874777418844e-01 4.645995463459087205e-01
-1.321984633202450722e-02 -6.803489841679756511e-02 4.407592252541949751e-01
-1.016526258542423955e-01 -1.064843998475781123e-01 5.007990960906774092e-01
-4.609737188546741971e-02 -1.134349897102667620e-01 4.871627691573516827e-01
-1.043924983049189792e-01 -9.591546721487712035e-02 4.648215911898931352e-01
-2.399365764718921004e-02 -1.026592977234976056e-01 4.624152222279236391e-01
-5.354457217968044275e-02 -8.238135554054736021e-02 4.263999268344818572e-01
-8.658251905686130401e-02 -1.096903304392083944e-01 5.026036782232193856e-01
-2.896174597145478868e-02 -1.178892661197883107e-01 5.359901827195121538e-01
-2.389105946812626266e-02 -4.808290638890174579e-02 4.388879774833616687e-01
-9.218400606474055903e-02 -1.090922996742662437e-01 4.775638820291225883e-01
-1.649059227401524289e-03 -1.181508596041376535e-01 4.826481709615843552e-01
-5.054744901136892440e-03 -7.685333266827999721e-02 4.443490731387838566e-01
-2.513200690094710699e-02 -1.183450008154862260e-01 4.968586502291435503e-01
-4.250406945547170051e-02 -5.622642254914327758e-02 4.340721625836127529e-01
-4.127291726135773331e-02 -1.171447755092771409e-01 5.164799279146188304e-01
-3.803430308259205667e-02 -5.551954439762742805e-02 4.353544618458868309e-01
-5.552139035033178127e-02 -1.073095409734464156e-01 4.610430940201574734e-01
-5.624849588829496094e-02 -5.402758323687860409e-02 4.342629326898285735e-01
-2.118746454982254473e-03 -1.069496676122523027e-01 4.648398858999861494e-01
-3.479154943389713150e-02 -1.096092401002110583e-01 4.737507828297317092e-01
-5.038106078230293605e-02 -6.060505061810850941e-02 4.315562265736483383e-01
-4.759851790041761538e-02 -3.250396127864704082e-02 4.363652126569155798e-01
-5.326346443467293301e-02 -1.131121943168505450e-01 4.863292067410290298e-01
6.530972107820288627e-03 -1.230015349123871893e-01 4.983145793300218784e-01
-4.572128912361377723e-02 -9.393102034434669401e-02 4.428979090597470192e-01
-9.627703009547844415e-02 -1.048852907666953521e-01 4.642104698050221190e-01
-6.878897516718407434e-02 -8.716357444605758731e-02 4.222638995013285323e-01
-4.190979769415833361e-02 -1.170333529005930240e-01 5.143771294400268923e-01
-8.627705376641850443e-02 -1.060725453897639753e-01 5.176482954173023954e-01
-5.987481784730405016e-03 -1.247059986372600071e-01 5.075742335994117838e-01
-2.714497447048168713e-02 -1.200066361898151773e-01 5.157858826518644246e-01
-5.804507044397096659e-03 -1.242310389972057366e-01 5.046461576875547195e-01
-4.152813738120410270e-02 -1.169256966934690556e-01 5.063462076312815752e-01
-3.114134045086145927e-02 -3.779609412349312081e-02 4.376586918411677907e-01
-5.678509215013011202e-02 -1.040812843552034600e-01 4.322978601657679332e-01
-6.080298603418796133e-02 -7.597767500554038211e-02 4.263988735728188040e-01
-1.062049677871748990e-02 -1.199548347464204495e-01 4.897834951948943361e-01
-4.821926218678395520e-02 -1.127745459156315744e-01 4.840914375651803048e-01
-2.396485668221201744e-03 -1.039257571626680393e-01 4.617373387611928282e-01
-5.272817349804405362e-02 -3.093171251099135002e-02 4.394296440776840340e-01
-8.776792532126719004e-02 -9.087780028447786651e-02 4.453214239909305538e-01
-6.930940666642855519e-02 -1.040130209388414190e-01 4.395642369819280360e-01
-4.961222728796350206e-02 -9.754477095498501060e-02 4.407974130107107369e-01
-7.878242225223976158e-02 -1.107486096183207119e-01 5.086355447094926818e-01
-3.714381160868979875e-02 -1.132921220513022631e-01 4.844162945550971044e-01
-2.725280866614548936e-02 -4.444648225216508985e-02 4.385318083052690552e-01
-2.437929936573359976e-02 -1.064848002827144119e-01 4.675903989442240505e-01
-3.570719533874357199e-02 -5.123906245610047872e-02 4.359040680472350271e-01
-2.147149487398666151e-02 -1.209086149051392806e-01 5.056041685345251668e-01
2.000133584752351867e-03 -1.117172348631113865e-01 4.711388966404083112e-01
-3.621269595247562229e-02 -9.591756170539483817e-02 4.505395289787427204e-01
-5.374142547586700791e-02 -4.025830074938781256e-02 4.381692720994992962e-01
-7.466970266635047926e-02 -1.076192018074532131e-01 5.265919268214805937e-01
-8.523072696528968817e-02 -1.105341369035006543e-01 4.959981405441475921e-01
-1.000960089843053527e-02 -1.243952115053506974e-01 5.218805954079804854e-01
-5.742150835653356267e-02 -7.623125159623111990e-02 4.262535354351246197e-01
-7.237728825143797950e-02 -1.123076188255377750e-01 4.993532605746729969e-01
-1.532222073909865825e-03 -1.257974965248751242e-01 5.106966322198208674e-01
-4.258701215852109950e-02 -1.169120599939793004e-01 5.139049113973455096e-01
-2.457324770560015068e-02 -8.893347503189927283e-02 4.470891752702124688e-01
-5.100609520108769640e-02 -1.111437529379899480e-01 4.761095608626537135e-01
-6.790382857744700629e-02 -8.192595523131541990e-02 4.257595183098245584e-01
9.614794550558030447e-04 -1.267395333332990426e-01 5.206593017259952827e-01
-4.577017273255876151e-02 -7.018389252174622728e-02 4.317036945773095047e-01
-5.643656357012075651e-03 -1.237560545403951773e-01 5.016753510395042248e-01
-6.158894010622795873e-03 -1.187404929657469160e-01 4.841465788029852280e-01
-1.075714873116549314e-01 -1.052713697760030986e-01 4.940482514098120115e-01
-4.721854495131761614e-02 -1.013005385196348584e-01 4.511748738418766003e-01
-3.288191582166651028e-02 -1.180765301119972577e-01 5.269855260718769863e-01
1.424817303368476704e-03 -1.189239928391545992e-01 4.850303937288480971e-01
-2.234573285676685200e-02 -4.470703653047819470e-02 4.391071847523752014e-01
-2.627233784520401419e-02 -1.077187567543834434e-01 4.701253772379167528e-01
-7.231800300965401940e-02 -1.093078542284221660e-01 4.687386736399293818e-01
-5.532606030595087904e-02 -1.112531441514053032e-01 4.757826645213646954e-01
-7.748152512701071692e-02 -1.089959493434315280e-01 4.678649825012316521e-01
-5.385042172155264650e-02 -1.148669346770369581e-01 5.011348063113021389e-01
-1.361705919442835616e-02 -1.186426404008442959e-01 4.872780322382889717e-01
-3.781250178319470884e-02 -7.471042128923499615e-02 4.358320515116538840e-01
-4.993603737455541008e-02 -1.156616543888103060e-01 5.091445930656280927e-01
-7.670613003053260506e-03 -1.250941696144853010e-01 5.186656307506745112e-01
-9.783878463912003276e-02 -9.502700863411203680e-02 4.571216260720454838e-01
-3.508869458342851744e-02 -5.710434334980545729e-02 4.361154490661046101e-01
1.301147770718818694e-02 -1.265820221619534947e-01 5.282406064168007065e-01
-8.930312747555343988e-02 -1.061900686257572224e-01 4.622726126860174922e-01
-2.903740913605359908e-02 -7.606548452225055101e-02 4.399067837483274235e-01
-3.156573502500809036e-02 -1.189061902645691254e-01 5.202310672945005265e-01
-7.904110162451263855e-02 -1.109084905461304033e-01 4.808292005446821449e-01
-5.273135315338439363e-03 -1.253801685909486097e-01 5.130318246485536804e-01
-1.078853857020680013e-01 -9.446842620282581982e-02 4.714622105205651947e-01
-5.574057091217827359e-02 -1.140876844491404696e-01 4.952110879655586828e-01
-1.055353411652178858e-01 -1.025340270449071473e-01 4.708912386569906183e-01
-6.852740175193718086e-02 -8.206888640604378948e-02 4.258867748344575266e-01
-4.364226726809550261e-02 -1.155096081181950507e-01 4.948028843835218793e-01
-9.994859301542804997e-02 -1.072402986034653727e-01 4.987710545970145959e-01
-8.252691248149814085e-02 -1.109098242376010401e-01 4.839339784189086724e-01
-4.240511274422269911e-02 -6.495628267269967782e-02 4.332705570716736121e-01
-2.284461480875282086e-03 -1.237932476041110758e-01 5.004431286987777172e-01
-4.867245827477184594e-02 -6.556384013851968007e-02 4.304870528845869404e-01
-1.481240788488128249e-02 -1.195974182988149143e-01 4.911029066162236334e-01
-3.700893307888628719e-02 -7.533334127435417638e-02 4.365532551151838359e-01
-2.458476126038496024e-02 -6.287263958598515723e-02 4.383438795417446410e-01
-1.189087549565046378e-02 -1.144832210196054523e-01 4.769049348861910120e-01
-6.392886366719738311e-02 -8.723566418017658641e-02 4.230220351161511072e-01
-6.138971867472981479e-03 -9.695802988604734773e-02 4.548925656792707217e-01
-1.485454212367885414e-03 -1.054742920193394301e-01 4.633853200996161936e-01
-4.211985877245834342e-02 -8.879473883240683596e-02 4.410640258433182193e-01
-9.574196423461968364e-02 -1.085183229913480735e-01 4.796355612506145727e-01
-2.132486912625844444e-02 -7.766653569992097716e-02 4.420803841577957138e-01
-7.548834405790989799e-02 -1.039939489034467923e-01 4.448295703175994542e-01
-2.379329379889238462e-03 -1.256778839790379798e-01 5.286819246580828358e-01
-3.477860355112352003e-02 -6.359462425488066062e-02 4.361858170536686563e-01
-5.505969195453150333e-02 -1.091304601685240683e-01 4.669846862087098094e-01
-9.324285769428433679e-02 -9.202464921180590618e-02 4.522203918373235987e-01
-3.770498656567291412e-02 -1.169411998047697882e-01 5.278136102692828624e-01
-3.940231942376958008e-02 -1.156217063887866603e-01 5.341387489519922038e-01
-2.688562856661111042e-02 -6.633457991326009717e-02 4.382740111204722622e-01
-5.301467625441622089e-02 -5.167726029802922200e-02 4.347336941764273210e-01
-6.768379520210421330e-02 -8.719895403261222755e-02 4.221492915784413325e-01
-6.693189173821327553e-02 -1.107883358476602909e-01 4.752009882096387416e-01
-1.391222584767688383e-02 -1.067432549460597124e-01 4.644977587146117415e-01
-9.165312622050145186e-02 -1.058498740025428930e-01 4.633752512751415087e-01
-7.428378839106837203e-03 -1.049779183613591543e-01 4.622541346425940167e-01
-1.072776047416414275e-01 -9.701826766021033610e-02 4.699132994479563452e-01
-5.483459570716926745e-02 -9.189381864779873343e-02 4.256884395895060291e-01
-6.211964513445764752e-02 -1.132848766213438579e-01 4.949841482233127699e-01
-5.942204997002189550e-03 -1.216735089438144984e-01 4.937467016712517309e-01
-7.156502551889325214e-02 -1.115848847297090524e-01 4.843541129487557995e-01
-6.167024823627376834e-02 -1.125853825886112269e-01 4.873954581302362699e-01
-9.057245763153630447e-02 -1.067619857830231223e-01 4.654580962102942698e-01
-7.064909257647071505e-02 -9.628513107530452253e-02 4.231882916339129719e-01
-1.045189563193247712e-01 -1.064070257859873747e-01 4.928826412370280186e-01
-3.925113374276088807e-02 -4.439849482256480462e-02 4.353715483184613655e-01
-4.917080823788519406e-02 -1.104526558224058624e-01 4.733907541078817283e-01
-4.661972787121091560e-02 -8.878807971419296063e-02 4.341148579440389232e-01
-6.314500545436745049e-02 -1.042605529291773664e-01 4.326373341710562093e-01
-1.017702684854982637e-02 -1.151871185465960651e-01 4.774926709998717489e-01
-2.008442438836022942e-02 -7.187532350793894576e-02 4.406440507316713995e-01
-1.086755884140086642e-01 -1.000390372255713228e-01 4.753094936725837383e-01
-6.645953380270673561e-02 -1.119470461411164186e-01 4.853753299613103867e-01
-1.822718217449281752e-02 -1.168684746511479550e-01 4.869386498107037275e-01
-1.085055923000905614e-01 -1.040836371694921353e-01 4.911160056113970107e-01
-2.982254878430532288e-02 -1.170840541295537496e-01 5.389716662676073966e-01
-5.960553305818564428e-03 -1.240158166558567865e-01 5.035618443275015066e-01
-1.154655106985689843e-02 -7.190171258726166248e-02 4.418105143770765242e-01
-2.065163349689920491e-02 -1.151857529957425047e-01 4.839836819516470379e-01
-2.260456889713484754e-02 -9.635537011175465683e-02 4.547954975513674447e-01
-2.667486477772846448e-02 -1.199545243134354372e-01 5.084944459229311375e-01
-3.946182023455487020e-02 -1.094894931111134312e-01 4.729314946229382088e-01
-7.486998044383767759e-02 -1.019063864655810753e-01 4.357803439853185634e-01
-9.698614014257600502e-02 -1.063715170276370858e-01 5.071178476724516049e-01
-4.041740850683710196e-02 -1.147667638259405737e-01 4.906931265206479487e-01
-7.752272553650942088e-02 -1.102509193721934178e-01 5.137948808820921309e-01
5.841780316726446695e-03 -1.258555387278527948e-01 5.345655541644898090e-01
-1.107949975885238331e-01 -1.001055418930761609e-01 4.851301919866768952e-01
-9.265329555088121227e-02 -1.094407615729040689e-01 4.884088603796420958e-01
-4.281263710361164071e-02 -7.771964336320737188e-02 4.342683008988281190e-01
-4.584586316692105395e-02 -4.777930810485568613e-02 4.347406002816779358e-01
8.923087503746398447e-03 -1.217027387175435293e-01 4.952106458961976210e-01
-1.056034451532097407e-01 -1.024593874723695730e-01 4.709447456613724547e-01
-4.346423177627534509e-03 -1.003726185402496474e-01 4.581920099041767447e-01
-1.368686642590574362e-02 -1.133632275239809389e-01 4.756090579163627097e-01
-4.704800067979818257e-02 -1.060777719833033289e-01 4.613625284590733844e-01
-1.459496570218869749e-03 -1.204870988186953901e-01 4.891056380192153052e-01
-5.276567128053100131e-02 -1.123279957180322447e-01 4.822857272241563575e-01
-4.016505410187954511e-02 -9.933952811914319170e-02 4.529293801765693628e-01
-9.228673961185128449e-02 -9.778202826049814389e-02 4.514307780500255163e-01
-5.222154537346803543e-02 -5.555663982203717238e-02 4.331844240816409286e-01
-5.214045754110768066e-02 -1.150762852984013734e-01 5.185400065864093078e-01
-5.391072516952232635e-02 -3.862906148411942436e-02 4.397059006488534538e-01
-1.119676075098575418e-01 -9.847666499359755687e-02 4.826332499462669401e-01
3.703558735881603940e-03 -1.052288306672378854e-01 4.637227652746859774e-01
-9.158856325399926390e-02 -9.924726398011901596e-02 4.523867642699170855e-01
-6.975343162975689015e-02 -8.267156768297093117e-02 4.258787236876565574e-01
-2.554788238155846283e-02 -1.029752773518543829e-01 4.630834205225536349e-01
-4.264108740753034393e-02 -1.166977080409215273e-01 5.054568797236400624e-01
-8.558720299748075189e-02 -9.565549617914344271e-02 4.430017580927564369e-01
-3.649665758416085343e-02 -1.171693975605331006e-01 4.997923150012513194e-01
-5.592365977341186289e-02 -4.900323873082485654e-02 4.364098690171631101e-01
-1.808559623945992303e-02 -1.199224729766873582e-01 4.958936873015313829e-01
-1.958018871395361335e-02 -1.030756482735438462e-01 4.617165520848159899e-01
-4.406286836665965212e-02 -4.562502304408155157e-02 4.349235537452340594e-01
-5.219165776078131536e-02 -1.126837582629400814e-01 4.840634709061956142e-01
-3.071426193360286480e-02 -1.192437972529088314e-01 5.121153208484184871e-01
-4.558653714945497953e-02 -5.186440325903455412e-02 4.345827809954209697e-01
-8.145247405220244763e-02 -1.012993828220791759e-01 4.426337551085771094e-01
-4.353301298890593224e-02 -7.947544378415688504e-02 4.341403353128132081e-01
-2.484207911580809530e-02 -8.529792595566226820e-02 4.449499077921921786e-01
-2.042692347770273809e-02 -1.185706460088851583e-01 4.938929675780419082e-01
-7.533923435188530360e-02 -1.050571598822376274e-01 4.511602049395616598e-01
6.662664930584626284e-03 -1.268216099798957497e-01 5.186489230741159195e-01
-3.110465341078841664e-02 -1.179508521798782739e-01 5.318385039735171738e-01
-1.307848802256918533e-02 -1.228568253195855275e-01 5.055610285570020235e-01
1.717488683415241586e-03 -9.299792211920837604e-02 4.528527808552911815e-01
-7.588603155112155774e-02 -1.039812258663713046e-01 4.450026253643656893e-01
-8.822906402809145565e-02 -1.099897098558425823e-01 4.812412448758174310e-01
-5.345346790657093394e-02 -2.707324377610687699e-02 4.426479240750935129e-01
-4.960033284623458459e-03 -8.579617147975537872e-02 4.480360087710737460e-01
-1.151984468669722816e-02 -1.238665116013984713e-01 5.116898686635291682e-01
-5.085808556044751211e-02 -1.144275938084529376e-01 5.258093019356908648e-01
-1.500977465328318453e-02 -1.197827127925316371e-01 4.919324658599729672e-01
-1.021628732217532975e-01 -1.041426429080898747e-01 5.065223432774222934e-01
-8.159365865231195392e-02 -1.104127761512314898e-01 4.777608314464780181e-01
-8.139811387626494366e-02 -9.687425370548924386e-02 4.364868345031527874e-01
-8.201904808650110901e-02 -1.098703997912590241e-01 5.087958246669126439e-01
-8.444910289869028697e-02 -1.098590221615505930e-01 4.745610594835396601e-01
-9.675890749157281534e-02 -1.071509066899265089e-01 5.050790732235125313e-01
-3.665274251902277125e-02 -1.164527854616204255e-01 5.335472656854790552e-01
-6.002100469250903902e-02 -6.238836523669567813e-02 4.331275763289728076e-01
-7.897885650403506375e-02 -1.113912318106051319e-01 4.997659706553480019e-01
-9.459444556405584292e-02 -1.086447356262302544e-01 4.997777163198320327e-01
-3.312216878295561051e-02 -9.925949786727208957e-02 4.564784312320291360e-01
-6.309012220211113187e-02 -7.330982796897914100e-02 4.278144076062983525e-01
-4.906795277581262049e-02 -1.155942620486235389e-01 5.024576993273648373e-01
-6.534443220644220451e-02 -7.296254890644757185e-02 4.296422363917084541e-01
-4.483637197942592911e-02 -9.545191931891709725e-02 4.449400867684660810e-01
-5.781579905709228334e-02 -9.102684228325373661e-02 4.236625400492175508e-01
-1.065337849249028829e-01 -9.961418949338234075e-02 4.694841406189100841e-01
-9.274936090243339482e-02 -1.013726731615352122e-01 4.552333970314411116e-01
-3.137031985382526811e-02 -3.618492453497306610e-02 4.375648521028786542e-01
-2.032828470772465521e-02 -1.022571097625958741e-01 4.611140732021523081e-01
-1.895197944559906186e-02 -1.204781453909754968e-01 5.364026636918074464e-01
-5.461026956427245810e-02 -1.006889576842514566e-01 4.278935136866943156e-01
-6.283087201355933016e-02 -9.001827279749555211e-02 4.226354307322050530e-01
-3.147916898809274833e-02 -1.185651165612824076e-01 5.245504218638166183e-01
-3.725137902008509444e-02 -7.189596577398861543e-02 4.357035624709059141e-01
-9.088361253964793995e-02 -9.665147909568656825e-02 4.486930315024588167e-01
-6.924739271680315465e-03 -1.229686396625453426e-01 5.372445146024180662e-01
-6.899504325774628855e-02 -8.341258474151565239e-02 4.250362870824090922e-01
-4.309156378620036115e-02 -3.711394454599094284e-02 4.352918088317014877e-01
-2.346900064319806800e-02 -4.827160236552377470e-02 4.389371812121555805e-01
-1.002039772044786559e-01 -1.030517354171131272e-01 4.638895791399393342e-01
-1.026974159812776427e-01 -1.048287505316269769e-01 4.711751420687834702e-01
-7.331632434334581228e-02 -1.114025389613243489e-01 5.135956330425061056e-01
-4.267415066765008896e-02 -1.144446689713221887e-01 4.900819627734187001e-01
-7.201751823036425804e-02 -9.288128097388076432e-02 4.227114419054241456e-01
-1.760303348037518811e-02 -5.267697912962118062e-02 4.387743533588912004e-01
-5.889103693186022864e-02 -1.105799047050030209e-01 4.721763749875536043e-01
-8.753158478188861891e-02 -1.087097397537931665e-01 4.702452236192171120e-01
-4.737171120356532816e-02 -1.153643989866140057e-01 5.246956062544879673e-01
-1.361131354849830569e-02 -9.447113025545701703e-02 4.520663158394309655e-01
-6.302418899005897412e-02 -1.135221036423356422e-01 5.006690612424538056e-01
-7.434654901528514603e-02 -1.090962657950053372e-01 4.680137745422562889e-01
-4.201135812717378404e-02 -1.163825727895628909e-01 4.997037556936266833e-01
-4.429439089562270393e-02 -7.858311394102847347e-02 4.333926024651458819e-01
-1.064517482970441485e-02 -1.053162912080728847e-01 4.625273303176323791e-01
-9.988741482310349584e-02 -1.076139887675324758e-01 4.834901174626876075e-01
-9.395557363938254747e-02 -8.592866016354595848e-02 4.584868161539386033e-01
-1.036154587677306088e-01 -1.062791874461294916e-01 4.968465680162276188e-01
-8.411212407961367321e-02 -9.431065160592824737e-02 4.394281266618844106e-01
-8.559371199300712385e-02 -9.427530673216664991e-02 4.420893661914194195e-01
-4.154709798505221846e-02 -1.170956758407524362e-01 5.162839568158807957e-01
-6.975454478882295306e-02 -9.146715019230709787e-02 4.214737294606542561e-01
-1.676680387404210978e-02 -5.549608486742890756e-02 4.386782313990436055e-01
-3.288973064715455807e-02 -8.746659396602621261e-02 4.443821564180944206e-01
2.331463043391525814e-03 -1.186263012398654781e-01 4.843967650415861304e-01
-5.455103338700932614e-02 -1.134245710236928550e-01 5.263678833143209390e-01
-4.901399358470127920e-02 -6.518200257608372516e-02 4.304606552181555745e-01
-3.458684508105750594e-02 -4.166782953361920089e-02 4.365289383437949144e-01
-9.788797537410891952e-03 -1.004335968521754691e-01 4.574566627436928434e-01
-1.009742465183044724e-01 -1.067939229018443487e-01 4.787959857306169908e-01
-8.869340253814658390e-03 -8.461547983988182420e-02 4.468075856778954691e-01
-9.986650674369801362e-02 -1.077049814488713619e-01 4.889889138861535645e-01
-9.462326282726871499e-03 -1.096927362510477788e-01 4.681070333753153956e-01
-8.978741391062262933e-02 -1.070020762212929022e-01 5.117783266433840739e-01
-9.003052319521270830e-02 -1.063073122521839275e-01 5.136935976016619998e-01
-7.995661101312914743e-02 -1.101256789358399935e-01 5.106713176095114548e-01
1.911167315113457103e-03 -8.360161334750347562e-02 4.476549739708217124e-01
-5.731246908998633566e-02 -9.137548045865138968e-02 4.236609757561390910e-01
-1.551355279314232775e-02 -1.231941038985712444e-01 5.160472618826182911e-01
-9.268797184124015487e-02 -1.021432365632545941e-01 4.557510651844262628e-01
-5.474910682700397796e-02 -1.121715901451845326e-01 4.818081325944785220e-01
-1.776771578436245683e-02 -1.188272442262625073e-01 4.915991955093233501e-01
-9.957737637057287317e-02 -1.077685479332547852e-01 4.933865203979600489e-01
-5.026306290330940368e-02 -3.439119912373385379e-02 4.380730649787715758e-01
