-5.327224633580446289e-02 -1.035920998617239630e-01 4.504968540342372818e-01
-9.328520972590177707e-02 -1.062023675324336586e-01 4.651307928288804239e-01
-3.280296347542314278e-02 -1.021836708074050221e-01 4.607187178250581328e-01
-6.975205412401974669e-02 -1.120350559082653602e-01 5.148929388023727460e-01
-5.052953116699412245e-02 -1.127529428753575036e-01 4.836572255447292856e-01
-5.558961431812117771e-02 -1.099024771622503227e-01 4.690270130288320405e-01
-3.193892949338680842e-02 -9.882883969926273271e-02 4.559099166394741665e-01
-5.848687967386186071e-02 -1.141129805003161107e-01 4.983978373778357729e-01
-8.553416338276814690e-02 -8.931829945652175473e-02 4.424878313282069042e-01
-5.133863234312304596e-02 -9.796479510840724880e-02 4.345910208110783657e-01
-8.131634928915351668e-02 -1.104170076359718561e-01 5.060085209612746882e-01
-3.025442190448979565e-02 -4.595656977298296503e-02 4.377376069646636281e-01
-2.297868233213676281e-02 -6.266097732882330851e-02 4.384731425785424741e-01
-1.062047639230713492e-01 -1.037834192700919228e-01 4.748862192843502639e-01
-1.982839474969597116e-02 -1.186427858543546709e-01 5.434755532619601759e-01
-5.771679352469438057e-02 -1.026849190116292942e-01 4.410511851268292260e-01
-4.897568872384482942e-03 -1.197235798721429795e-01 4.869936132698452491e-01
-5.442729424365785190e-02 -8.163428515542166253e-02 4.258442226023728128e-01
-4.747564098179158504e-02 -1.109138221746520936e-01 4.757502958726743114e-01
-2.409876291612479335e-02 -1.206520530528756574e-01 5.204270928156350395e-01
-2.831180752614169405e-02 -1.009360297237626991e-01 4.600090043231773174e-01
-8.016517978644202569e-02 -9.224738275521339459e-02 4.316585709096771861e-01
-4.714117188721615725e-02 -4.663692817447932099e-02 4.347621679302197117e-01
-3.529744580650190366e-02 -1.173115862419696620e-01 4.990924523561419135e-01
-5.917463958024965498e-02 -1.036201553258735558e-01 4.421846180873797993e-01
-1.103094531373248616e-01 -1.010686552283427547e-01 4.853503259224525301e-01
-1.275440863024037731e-02 -7.648770016139772032e-02 4.429171776210429345e-01
-9.936260051444642527e-02 -9.981799660928779294e-02 4.606462623869626571e-01
-1.952988276348463764e-03 -1.248618313612157721e-01 5.057588047988113011e-01
-5.675055525292213576e-02 -9.290515600817560171e-02 4.236417734358104425e-01
-5.767319742271617006e-02 -1.138257567626178302e-01 5.217908728208324742e-01
-5.173327314171019542e-02 -1.154284647437191641e-01 5.143161928213865197e-01
-1.217530066727888494e-02 -1.170571625778835112e-01 4.825306891130755615e-01
-4.565045583344574942e-02 -6.066534735927023997e-02 4.321704378047253048e-01
-1.123546871085222623e-02 -1.013112208303248579e-01 4.581494880198127007e-01
-4.195986331665912950e-02 -1.158452117326481401e-01 4.953884928268231236e-01
-3.952822369213815357e-02 -3.236932964865760209e-02 4.358072615135539229e-01
-5.234526038949244980e-02 -1.043279215471204224e-01 4.529717108974201656e-01
-1.303416859341163109e-02 -9.942564387263468084e-02 4.564040396228256635e-01
-2.961913716258269061e-02 -8.295645618823338507e-02 4.426223221143004705e-01
-5.319297248356645580e-02 -1.151586662830942076e-01 5.159193565157671468e-01
-6.385731868547339478e-03 -7.291261473010171579e-02 4.426084043094406506e-01
-3.521700940377446576e-02 -1.179570884138627790e-01 5.037587770545712829e-01
-5.305643331338318752e-02 -1.132329754101857877e-01 5.288488136880094004e-01
-4.414716036018521972e-02 -1.107881910891290456e-01 4.764014220113160780e-01
-1.591699799185922193e-02 -8.528694520292626202e-02 4.459803691217752997e-01
-1.758023185142588291e-02 -1.053685055464722992e-01 4.637705413128269671e-01
-1.709574460635999993e-02 -1.203553878269251753e-01 5.396316729613286345e-01
-4.153053844511784415e-02 -1.168894197865623930e-01 5.050268691825048339e-01
-7.618690445848079473e-02 -1.008429262260193832e-01 4.337112041818810271e-01
2.083391870139306504e-03 -1.059461521425247993e-01 4.642089371998392999e-01
-7.445951869560689385e-02 -1.100297136349370070e-01 4.729623525641512560e-01
-7.564338913373244710e-02 -1.092301844473747424e-01 5.207558470356173919e-01
-5.773438577183168108e-03 -1.169104880532217255e-01 4.797745122399716955e-01
-9.303034222798194780e-03 -1.182856888856232691e-01 4.839209633616008421e-01
-1.063163008028711193e-01 -9.521670744470855929e-02 4.679565228307094871e-01
-5.366313589495166902e-02 -1.012322184826756205e-01 4.384196827419864495e-01
-4.676305862026510635e-02 -7.948361972044115653e-02 4.309630513450525835e-01
-3.312160632711303593e-02 -6.255886042669628333e-02 4.365572909812116542e-01
-2.204864357404045724e-02 -1.172587486212554042e-01 4.906163175324051440e-01
-6.546005561944227835e-02 -1.055417701193426122e-01 4.485287809769472056e-01
-2.104557960302155025e-03 -1.076418181662197743e-01 4.655110334897888946e-01
-2.644607699510170828e-02 -8.717138753536628204e-02 4.454951150757548439e-01
-5.638038032744887434e-02 -6.169085685515258988e-02 4.309665801352768888e-01
-9.195555954316968206e-02 -1.096710069434058271e-01 4.928453768932424262e-01
-3.834318254822448487e-03 -1.102799783554850033e-01 4.683447292921593119e-01
-2.443007176968362351e-04 -1.172788229259186937e-01 4.806064321508938253e-01
-9.167497746585391571e-02 -8.441776247487314810e-02 4.562291267827425778e-01
-7.788820842806727651e-02 -9.539626928333944100e-02 4.279200149833139455e-01
-7.381222651957478065e-02 -1.010876092479000427e-01 4.308422591449760364e-01
-5.325663107427468929e-02 -8.979784854938006877e-02 4.264478332781500014e-01
8.485587622126004523e-03 -1.226383531215115424e-01 4.976775936778001230e-01
-3.642689448534523755e-02 -1.134899070206396438e-01 4.845124156705402640e-01
-1.897125380672669975e-02 -1.076820486456945281e-01 4.675688472720552213e-01
-7.963924202828043253e-02 -9.715202501306308136e-02 4.335462855153607298e-01
-6.909993247391318927e-03 -1.138413267043437427e-01 4.742776408796686716e-01
-8.119342762241468781e-02 -1.110018045343149073e-01 5.006957640780577146e-01
-8.223656038084597997e-02 -1.110625130261679167e-01 4.851432257546404725e-01
-5.647209414711373832e-02 -1.041340124238868542e-01 4.316225782631718522e-01
-4.609540646307253020e-02 -5.734717794793112167e-02 4.329215116678654662e-01
2.372838866149880061e-03 -1.033860325977353223e-01 4.615144043801925888e-01
-1.074945093107974176e-01 -1.047586569881633345e-01 4.889823076030853644e-01
-2.282153475751164465e-02 -1.203075841384967370e-01 5.034239448562840558e-01
-9.401889220653945889e-02 -1.078868260335620194e-01 5.047023171895520521e-01
-7.970960792654772920e-02 -1.075132058989488604e-01 4.618690271994131402e-01
-4.191752230209128127e-02 -1.170669242615454131e-01 5.108230005810953100e-01
-2.864101887968727167e-03 -1.052431186316794137e-01 4.629495848090616761e-01
-5.126046847041843685e-02 -4.183043726385434619e-02 4.363909829796114304e-01
-2.522165783819447019e-02 -6.833626160196813737e-02 4.387046872240060735e-01
1.059559490663325616e-02 -1.264915156834914012e-01 5.217685636817837036e-01
-6.559168636318395140e-02 -1.032066082765128040e-01 4.284293665990598354e-01
-9.316911439947056506e-02 -1.007797339214755172e-01 4.546000514657168035e-01
-6.934866899375889682e-02 -8.882476771151782968e-02 4.212426064465174536e-01
-6.535508866998000765e-02 -1.100288764059541846e-01 4.707773312704405244e-01
-8.095809880239013268e-02 -1.110875518308946097e-01 4.837747302230144819e-01
-8.443759496998408387e-02 -1.072940757252434235e-01 4.627876634802728373e-01
-1.803529078908038680e-02 -9.675350209647690103e-02 4.545424215949580016e-01
-4.832624977694560675e-02 -1.056579742148752860e-01 4.592396821549263874e-01
-2.386747776031651613e-02 -5.901174447877043788e-02 4.379709253502268584e-01
-2.902006331539317557e-02 -1.145572929946336443e-01 4.850709501214451325e-01
1.409987102009894588e-03 -1.268275836734939210e-01 5.203378735261107169e-01
-5.615441440036150061e-02 -1.020677841630972665e-01 4.392878129528489661e-01
-9.125322809469387300e-03 -1.159782319190171967e-01 4.785641747269631097e-01
-1.347265581318190207e-02 -1.144865387284589864e-01 4.778123651813507844e-01
-8.443056789741416879e-02 -1.106273259409042004e-01 4.981080678327908240e-01
-5.020442709851462293e-02 -9.872591946212293246e-02 4.434953519463250560e-01
-1.139962973676550938e-02 -9.435830704792516621e-02 4.518251915737043767e-01
-9.955652175119092395e-02 -1.021922104514680074e-01 4.617900688466388126e-01
-1.297114203185878965e-02 -1.224327198139941036e-01 5.345096231182141500e-01
-5.913491763409520902e-02 -9.351447478687720249e-02 4.235877107887223159e-01
-7.146606205880064178e-02 -1.125537120413174635e-01 5.028010428511833219e-01
-6.634412953809262770e-02 -1.108680437703261218e-01 4.748437717385657342e-01
-4.565894080128590077e-02 -1.035333995015412234e-01 4.559889679179485178e-01
-4.206695388300929483e-02 -3.204009177259727059e-02 4.356121434174509699e-01
-3.865475047697199129e-02 -3.254943044282650882e-02 4.359629683846948378e-01
-1.037592057325149308e-01 -9.068453927850574081e-02 4.685893138850729667e-01
-4.834419000468361677e-02 -1.117818555962193511e-01 4.793739587771054800e-01
-6.987509341813595565e-02 -8.898334636820375010e-02 4.213701134788989666e-01
-3.548483355132812933e-02 -8.729848227598599464e-02 4.431000593106453889e-01
-7.067924570810185658e-02 -1.110554750388212247e-01 5.196105700864480648e-01
-9.820918765510289195e-02 -1.080881239356790979e-01 4.811752693209421783e-01
-6.187661985413622778e-02 -1.040851617520333339e-01 4.354865409785691477e-01
-1.203688055388673663e-02 -1.050111393090737144e-01 4.622406945765666353e-01
-2.451910388460031356e-02 -1.199335958724177531e-01 5.278933963596315060e-01
7.849073227783203571e-03 -1.250387987358452246e-01 5.068710081695850800e-01
-8.760751443497150071e-02 -1.100706066541421169e-01 4.980896241200989394e-01
-3.218921684928019444e-02 -3.574766961265737203e-02 4.372908401589208349e-01
-5.263668895421723393e-02 -2.535302905687266545e-02 4.403361750470748404e-01
-4.505781293564278117e-02 -1.031569017273739619e-01 4.557230571432126509e-01
-2.742037702610280667e-02 -1.161970113027348123e-01 4.901482480372129635e-01
-7.451870918487889239e-02 -1.089789853567606354e-01 4.668589571792108317e-01
-6.826947302225737368e-02 -9.582817841684067306e-02 4.220690028412459882e-01
-4.538594676819878576e-02 -6.869736264024942085e-02 4.315723544926850508e-01
-5.717990769809749851e-02 -1.142155413015407267e-01 5.188343905418359991e-01
-4.598601750974867786e-02 -1.163435873461975134e-01 5.091187056950871037e-01
-2.573476490092152513e-03 -1.201498296544999816e-01 4.878831831046534506e-01
-4.322079765447710276e-02 -1.167477766925844040e-01 5.182149151037137580e-01
-4.973995783238947810e-02 -1.141406716525587145e-01 5.284736804767665719e-01
1.074358299543319052e-03 -1.255807401749572394e-01 5.335361722658318318e-01
-5.032899532002209353e-02 -6.301279080173034786e-02 4.304296733815001219e-01
1.960678973460311045e-04 -1.222639598119633908e-01 4.948153800882346132e-01
-4.772058896280984008e-02 -1.155867449171436023e-01 5.220919675079311872e-01
-7.765483472080637710e-03 -9.230473062972903431e-02 4.508434148329658608e-01
-2.948101208444275922e-02 -3.468516327942615385e-02 4.378822411720095231e-01
-5.550180505735360925e-02 -5.577822595336674738e-02 4.329282694991750668e-01
-4.477373430387041053e-02 -1.151430762184431217e-01 5.289500553615926748e-01
-8.688090153155753059e-02 -1.102825009956721475e-01 4.967224139452153242e-01
-4.757269641499138613e-02 -1.028930564331261149e-01 4.533813747728953625e-01
-6.362814456167498189e-02 -1.131376076692439947e-01 4.941975971166230330e-01
-6.208779782525886831e-02 -1.137183875708034086e-01 5.148786042242293748e-01
-1.861897861684294261e-02 -1.084019544175370275e-01 4.687120523173268771e-01
-7.056850107152039253e-02 -1.095918437415075164e-01 4.693807476969695802e-01
-9.804876643403701020e-02 -1.071181288097535766e-01 4.739282181590177556e-01
-2.037918533087975173e-02 -1.212568698332286560e-01 5.061756227529753405e-01
-3.357339997296868855e-02 -1.157044195396445541e-01 4.909366220459123187e-01
-5.254148737765595295e-02 -9.032441793086525006e-02 4.270479844399385216e-01
-3.821119644442838581e-02 -8.604128226656176937e-02 4.408390751116211814e-01
8.260465824734861823e-03 -1.236172808937757162e-01 5.009977782394781087e-01
-5.274952509373315168e-02 -1.151367771498863074e-01 5.169213540821470110e-01
-3.426811988250172414e-02 -3.908892681009071279e-02 4.365199319395695055e-01
-2.106514594658476236e-02 -9.712583912556026211e-02 4.553231555741233394e-01
-2.176521593899549689e-02 -7.847121737937745589e-02 4.422302601362835817e-01
-9.643206804317858497e-03 -1.226638703048068962e-01 5.372995736777554932e-01
-7.253702337766508579e-02 -1.086985467580272452e-01 4.651620753111817552e-01
-9.086425788457425101e-02 -1.082628872084271665e-01 4.708737280537205194e-01
-4.095304174008353171e-02 -1.170071526216878988e-01 5.052847944341515296e-01
-2.001407308127612847e-02 -1.212299761009807131e-01 5.266238267220535452e-01
-2.293607441737892036e-02 -7.926312431747220555e-02 4.424078543647496642e-01
-3.776771671277875247e-02 -5.964048703423162345e-02 4.352077133673825093e-01
-9.983225239253151750e-02 -1.051009242443180641e-01 5.068875286832127403e-01
2.089827335010529998e-03 -1.266697221984524613e-01 5.267325512018655731e-01
-4.994464583120211687e-02 -9.211183992459831549e-02 4.295438498550602779e-01
-8.391100565692505286e-03 -1.249616278902744154e-01 5.174465686076733517e-01
-6.985545087214826976e-02 -1.119144601573776182e-01 4.869481407242742255e-01
-1.981805451263224382e-02 -1.109603272565633514e-01 4.741759325502423184e-01
-2.189056874774856706e-02 -6.745117073925004092e-02 4.392961001060409765e-01
-4.370250527238873223e-02 -6.390158200410782363e-02 4.325241327163631411e-01
-3.839399555626946126e-02 -7.646903610488761660e-02 4.358630045928502672e-01
-2.582188275825613930e-02 -7.359250654945991010e-02 4.396615745975307465e-01
-9.245423085933537899e-02 -1.043136607211327116e-01 4.591385378054664845e-01
-5.634348519434734942e-02 -9.690046817572189886e-02 4.239765187236055888e-01
-1.801801307013177478e-02 -1.211096486606021011e-01 5.021310263242935168e-01
-1.092338654228174610e-01 -9.841795682932721889e-02 4.745385969109252589e-01
-9.573993623110739482e-03 -7.849340392635388575e-02 4.441701687902489537e-01
-8.013531830509273979e-02 -1.084302901314514178e-01 5.178836808836103645e-01
-6.425603528941213616e-02 -1.093958570798197749e-01 4.677100651750051297e-01
-2.049042892818653261e-02 -4.449444716135622646e-02 4.390636682429152060e-01
-1.995846016908186388e-02 -8.976556088848602899e-02 4.479337286142904828e-01
-5.803012737963166023e-02 -1.144532313027042530e-01 5.066100171287261089e-01
-7.356980781720250107e-02 -1.015454622525841094e-01 4.320110869445361601e-01
-5.677927368929563956e-02 -1.039155506191635353e-01 4.301486417105733207e-01
-1.644218330647850487e-02 -1.220142353333504570e-01 5.054125814319391230e-01
-5.241783622380357527e-02 -1.033802046357629317e-01 4.506897587660057547e-01
-4.580822400195475042e-02 -1.163875187683222068e-01 5.096262670980753473e-01
-1.929493736239741228e-02 -4.688532158070448513e-02 4.389639308251152561e-01
-4.269253530672412200e-02 -3.430048466302508536e-02 4.353632816803156835e-01
-4.803793199173709422e-02 -1.094528394369116420e-01 4.693056892863947116e-01
-3.877099197895419319e-02 -1.172904240556703892e-01 5.225051304090212456e-01
-4.198128048920578281e-02 -8.774797111938720251e-02 4.398609242793162233e-01
-1.013374362316075833e-01 -1.065504544674995974e-01 4.776554625425107892e-01
-3.514774313983031438e-04 -1.144818813557181292e-01 4.753287892220244837e-01
-7.372631178100476357e-02 -1.111786581742092578e-01 5.144921083257705252e-01
-1.736555319960738156e-02 -1.224307936853095830e-01 5.213105261909727339e-01
-9.146947084741741119e-02 -8.754508012421657881e-02 4.527204199253305195e-01
-7.240880144666743401e-02 -1.052836174371209188e-01 4.501477831064804036e-01
-5.885290483194193650e-02 -1.143364436940850909e-01 5.063847987537942741e-01
-1.036568410642123572e-01 -9.725143340852127061e-02 4.625895082332013852e-01
-1.191660194086476866e-02 -9.453434541054708817e-02 4.519825770007140919e-01
-6.904022218851271764e-02 -1.028760203592267580e-01 4.326930522214412767e-01
-1.093521138824776057e-01 -1.031832694339230444e-01 4.915066350998179012e-01
-6.349151192853101644e-02 -1.136413791320604466e-01 5.129556352556106091e-01
1.827821247861362384e-03 -1.267764178108426176e-01 5.248942717573437111e-01
-4.563098082741467998e-03 -1.255457838367483869e-01 5.251547714078694806e-01
-1.681822593981698033e-02 -7.117263215866573289e-02 4.409081808077915388e-01
-2.777797659542447645e-02 -1.198673789320358618e-01 5.122479802064989762e-01
-4.111673822620778851e-02 -1.020150123685101273e-01 4.563681028031278397e-01
-2.084836108778881369e-02 -5.297751713175492816e-02 4.385147366437982530e-01
-2.783008740642117784e-02 -8.890822244957337361e-02 4.463708347193909853e-01
-6.826373917537960356e-02 -1.078358968555808151e-01 4.610448011318536987e-01
-4.431516144549992736e-02 -8.581615879724041607e-02 4.352621256321330678e-01
-7.411076823800410995e-02 -1.101615769125516009e-01 4.736890574760587169e-01
-2.850963377210028165e-03 -1.256957655955840414e-01 5.119736352740881236e-01
-6.834023398759989099e-02 -1.117076843121777990e-01 4.836121661358301349e-01
-4.735111189644570368e-02 -9.664076921868830494e-02 4.436591709698723407e-01
-2.392005670018941890e-02 -1.208744246714470588e-01 5.137156811563310388e-01
-2.561939057328185484e-02 -7.820401698869627882e-02 4.414632544566749472e-01
-1.795135749976882814e-02 -1.210849399328300935e-01 5.340343628439800927e-01
-4.076278743320897041e-03 -1.197697634676270495e-01 4.868667987251513174e-01
-5.760011473323409237e-02 -6.144648105647222691e-02 4.319769519402341107e-01
-9.938638826701873263e-02 -8.791702175864833657e-02 4.645143624410106309e-01
-3.481807370658730055e-02 -1.045777330625616008e-01 4.639187466865048459e-01
-6.869855826537103749e-02 -1.024689656102537871e-01 4.298261482811849832e-01
-2.010636141317303886e-03 -1.061799472677476541e-01 4.639723563485191327e-01
4.711304211561099728e-03 -1.258131496833317653e-01 5.343232522648428962e-01
-1.454231731534301290e-02 -5.867154812264677860e-02 4.390484685845865154e-01
-4.362284546200684288e-02 -1.160225555760679150e-01 5.254584947786504756e-01
-2.464935244613892032e-02 -1.193394883714697374e-01 5.331192366632786506e-01
-4.314554406626553568e-02 -9.087535966541919474e-02 4.418321120566822691e-01
-2.734399855842523097e-02 -4.330590496087700220e-02 4.384384973052863899e-01
-5.351163509374703975e-02 -6.654297117821261764e-02 4.288835028212915623e-01
-2.456421991003867461e-02 -1.204387717138695191e-01 5.218319388143916049e-01
-3.563938389948797386e-02 -1.182702675510508977e-01 5.133042530921073654e-01
-4.262673806607424065e-02 -1.070648397167885818e-01 4.648174626351700423e-01
-6.221255275424977284e-03 -1.243553950947162423e-01 5.318851267247138859e-01
-1.389089662236458675e-02 -5.545607234236114846e-02 4.386739614138375210e-01
-6.592253662310679219e-02 -1.132928090857725223e-01 5.083877992305626536e-01
-1.271668956756224524e-02 -1.058281480521527096e-01 4.632305551193086623e-01
-1.011928029035650545e-01 -1.072146240020079716e-01 4.952595474067833514e-01
-5.744685005181328352e-02 -1.033668329911419520e-01 4.439840456044721884e-01
-8.394230671765121748e-03 -1.234740894253427979e-01 5.027210510440324187e-01
-7.964742167954386165e-02 -1.096133993689059616e-01 5.142162126373930331e-01
-4.209846194710799988e-02 -3.960684545875371720e-02 4.352020396823538251e-01
-8.966716087365310395e-02 -1.078188713981913793e-01 5.086411901055570839e-01
-1.428019375537616792e-02 -1.055830578914323525e-01 4.631351520657648324e-01
-8.400552489990290028e-02 -1.080317313687525344e-01 4.653140394487639275e-01
-5.363192345837210218e-02 -4.081257107762945729e-02 4.375402673713516544e-01
-8.967292175368449247e-02 -1.060014006720735452e-01 4.615724632977131758e-01
-6.762541171793672035e-02 -1.130809748752967664e-01 5.049394754171296906e-01
-1.052475315979993775e-01 -9.844492023165876682e-02 4.657508658878399266e-01
-5.484717346355241774e-02 -7.797154114746412956e-02 4.263002612798179047e-01
-3.884177341257599031e-02 -1.031977709980799879e-01 4.597815615203938999e-01
-1.595483238995333564e-02 -1.230469998071262311e-01 5.170356768048151030e-01
-4.586550401841767155e-02 -9.948934222597295707e-02 4.483566894654638091e-01
-9.215307959027753404e-02 -9.795091324578754366e-02 4.511907026283210054e-01
-7.538570225800619862e-02 -1.025423116804819179e-01 4.388288887672864291e-01
-3.574609336208392496e-02 -1.144117369363368414e-01 4.871758056744552312e-01
2.177784665568406261e-03 -1.057981400591945786e-01 4.640655636299752529e-01
-4.841489104934657006e-02 -1.114520354946119118e-01 4.780162068700509748e-01
-8.476076026128039065e-02 -1.065974374279502340e-01 4.603614232408706486e-01
-6.903906010085293643e-02 -1.035735976377613055e-01 4.366746484919275528e-01
-5.345585029451503656e-02 -1.012801550369549358e-01 4.378875571936007294e-01
-6.292296670503527700e-02 -1.116536274826034070e-01 4.788402786043045034e-01
-3.793068548491330960e-02 -2.905635593193321708e-02 4.365145844544118803e-01
-7.640125719808982252e-02 -1.016120454616536578e-01 4.356280939797480545e-01
-5.505341999776360712e-02 -9.522953432664904572e-02 4.250218340274783957e-01
-7.841985392499506435e-02 -1.075775270769130654e-01 5.230346407768564632e-01
-1.053524804991186684e-02 -1.131300925664163043e-01 4.736560090768318076e-01
-3.545483275749768820e-02 -9.810337511567389368e-02 4.536975705011390692e-01
-6.898139322973918797e-02 -8.090247729087018946e-02 4.268040980345748081e-01
-5.885398753073319000e-02 -1.103211628507663467e-01 4.708102868097264193e-01
-1.518062969949847581e-02 -9.965184580774680279e-02 4.568738423637581647e-01
-1.252591893608887182e-02 -8.324476226065850859e-02 4.456244139318601971e-01
-4.372969547853240019e-02 -1.167224742312290425e-01 5.158818787356191926e-01
-4.755328503107444926e-02 -4.886964801938810388e-02 4.345325835914389812e-01
-1.047836612072352083e-02 -9.615943838716316250e-02 4.535778871837791715e-01
-1.208095932058947039e-02 -1.240427830643702073e-01 5.174367333364442434e-01
-8.900783214342890270e-02 -1.084915146883093928e-01 4.701936299053517954e-01
-8.763108566591325255e-02 -1.079852154549021948e-01 5.105591056857402554e-01
-8.610633136645674812e-02 -1.087473960060190564e-01 4.691081410069190549e-01
-1.612186201727473442e-02 -8.406581071799217042e-02 4.453799779494800326e-01
-4.139698681557937160e-02 -7.455352589090193105e-02 4.341098617391757064e-01
2.609284937469833442e-03 -1.261639496596430043e-01 5.104719031648133898e-01
-1.884190934935221773e-02 -8.075853372133232067e-02 4.435325562237036334e-01
-4.993712834379464977e-02 -1.001738617088677452e-01 4.458926834416277463e-01
-7.848922664892729606e-02 -9.364258202243021245e-02 4.291880447705615498e-01
-4.417429751035824997e-02 -1.142240182101031121e-01 4.893760942296443983e-01
-5.264797761300071127e-02 -9.844882184494374577e-02 4.282302738062178649e-01
-4.709416005247752529e-02 -6.765070536690219460e-02 4.306292792862131402e-01
-5.305424365962387728e-02 -5.861704881699347780e-02 4.319758628166752712e-01
-8.204951903059358453e-02 -1.111305272046031745e-01 4.901137414692623429e-01
-4.606679801972083516e-02 -1.150559809237962361e-01 5.278752741823897754e-01
-8.029216472233359492e-02 -1.003576298365089214e-01 4.392435630410967962e-01
-4.691786492430746747e-02 -1.014688403583528797e-01 4.513137087074410303e-01
-3.169546316294276356e-02 -1.190471057370449948e-01 5.137969551923418088e-01
-1.836338047314674954e-02 -1.066091892296932298e-01 4.655962448838023016e-01
-4.426380541280177522e-02 -1.159925386942098902e-01 5.248527671641696202e-01
-1.917448557100054005e-02 -4.125312319816459156e-02 4.388728973865802518e-01
-3.174746886832759823e-02 -1.189782657565854884e-01 5.165619474688449841e-01
-1.775363614562379053e-02 -1.142246219581836558e-01 4.800872857649381431e-01
-9.663429733265280208e-02 -9.997587717819911290e-02 4.565514655864312821e-01
-7.428220779461273959e-02 -1.014736421424201340e-01 4.325468965769613261e-01
-3.042537940523285314e-02 -1.068579290167406548e-01 4.687812945491865446e-01
-5.855084261438466692e-02 -9.272875256018398016e-02 4.235108722377102231e-01
-5.209086619074302510e-02 -1.004897657706408376e-01 4.380651889189615122e-01
-7.990536099159299688e-02 -1.010279966085959741e-01 4.398529722828589117e-01
-3.186808244788011391e-02 -1.090391906336650729e-01 4.725054713012524221e-01
-7.933868244887297416e-02 -1.113904383499794010e-01 4.952783177793100289e-01
-6.283420673666038903e-02 -1.049396193408332900e-01 4.445032476465081706e-01
-1.629244896673214330e-02 -1.230059078234740921e-01 5.160867222621271511e-01
-8.065055268294321622e-02 -1.111721788582053366e-01 4.850021867421136501e-01
1.034786484759616862e-02 -1.264768477571003025e-01 5.325717594062646665e-01
-1.632404751713327495e-02 -1.132911404357119373e-01 4.769889779807991448e-01
-9.104987312504032870e-02 -8.677128388145674553e-02 4.526366693324664903e-01
-9.538090964480969158e-02 -1.086624342835847828e-01 4.975741651172642110e-01
-5.264079944477956241e-02 -6.053910956065983867e-02 4.312548151723721301e-01
-7.448899260650634034e-03 -1.237262422135406020e-01 5.332415389300401154e-01
-5.094329366775260381e-02 -4.452728188855663294e-02 4.357733644549281471e-01
-5.360567164684226782e-02 -2.429991574680528954e-02 4.449036663254065660e-01
-1.471204384082469216e-02 -1.147801108727652120e-01 4.792370881571065833e-01
-7.006859914996968475e-02 -1.127187481204077468e-01 5.050195539679516177e-01
-6.975072837380617841e-02 -1.018018350467829458e-01 4.280022392404742027e-01
-1.035209107155515701e-01 -9.390919967152758230e-02 4.649486382962286224e-01
-2.396842509661682719e-02 -9.766394792295485239e-02 4.561440477351584866e-01
-2.632968281777510813e-02 -7.182355299632521561e-02 4.391020383492375556e-01
4.933490376843248024e-03 -1.221961458802487271e-01 4.951204911555316390e-01
-2.708787112396684321e-02 -9.335917296408534349e-02 4.509118146735795474e-01
-5.633773104750298966e-02 -1.029525630873835695e-01 4.250735355253976722e-01
-3.683111378482441245e-02 -1.171839765375619208e-01 5.276517349139238089e-01
-1.035402896151184707e-02 -6.463943500507121631e-02 4.400161007007293845e-01
-2.830494906812145231e-02 -1.197538817708153347e-01 5.141725746134730990e-01
-7.526242747908129527e-02 -1.115433233327885326e-01 4.866543903009625804e-01
4.227720444984270701e-03 -1.262464851429200285e-01 5.315433534660642945e-01
-2.021033904891733970e-02 -8.706453896526503144e-02 4.464098161259323350e-01
-2.690835026039561928e-02 -1.179995722825546295e-01 5.379921329682529896e-01
-2.503425760200361436e-02 -1.175237994038798028e-01 4.937940973423730062e-01
-9.436338517898722883e-03 -1.181911842842903321e-01 4.837257944208170346e-01
-1.653901883780080698e-02 -8.985371754915930098e-02 4.482161374990497604e-01
7.773207462966435013e-03 -1.267959845934056307e-01 5.212767955239898665e-01
-2.245183561211296086e-02 -8.990220494767915682e-02 4.481447693482278893e-01
-7.839271230038993843e-02 -1.101630189026161222e-01 4.741033013321518386e-01
-4.483535750809693188e-02 -1.138134443085134923e-01 4.879911495313810077e-01
-4.533598191762822777e-02 -1.028885354082033771e-01 4.550291911410924151e-01
-8.073953080674874105e-02 -1.079989400689548990e-01 5.184726996561269674e-01
-6.622447000838559139e-02 -1.052824418160022840e-01 4.465675970700055952e-01
-8.557808261637724068e-02 -1.057365825860255848e-01 4.579216029385720921e-01
-4.337271254810301513e-02 -3.053779339691617412e-02 4.357325575100381432e-01
-6.083178737163653926e-02 -1.081326945492028513e-01 4.617898978445945657e-01
-2.383970709108609518e-02 -9.020190113511181162e-02 4.482698877498015877e-01
-1.262764489700367483e-02 -8.410681887089174746e-02 4.460038028639105034e-01
-4.928756255628292254e-02 -9.016489526276955102e-02 4.297594210190953667e-01
-3.439816611034667709e-02 -1.179911686451873970e-01 5.030030986015364691e-01
-1.596221420544182909e-02 -1.187795044586870269e-01 4.894492182607906861e-01
-1.103528646166477070e-02 -7.981886337030140444e-02 4.444032951478447679e-01
-6.828500097783042622e-02 -1.116632711401150807e-01 4.830829650111407303e-01
-1.218000961354399544e-02 -5.441158244990360049e-02 4.385124820274488577e-01
-3.813872120748012552e-03 -1.254515382033357662e-01 5.280522425563384248e-01
-3.194409410729186910e-02 -1.165165865310260340e-01 4.932745211011332342e-01
1.413680816846293528e-02 -1.258640907997231051e-01 5.189032949366605418e-01
-3.764485728446951424e-02 -7.778755350119122280e-02 4.369496180460034074e-01
-1.240171302547800683e-02 -9.677593158659601735e-02 4.541514571530941291e-01
-7.005223289708599477e-02 -1.060296271373322441e-01 4.532744481785626611e-01
-8.617522611201711147e-02 -1.013333513765677374e-01 4.472289183042169602e-01
-2.418988707477173067e-02 -3.948876289664964012e-02 4.389933915629543049e-01
-2.960014007907717931e-02 -7.877758298091398770e-02 4.405518683258788371e-01
-7.817822689305940114e-04 -1.260013009441967036e-01 5.287429746331983038e-01
-2.563645937382884321e-02 -1.197186530425292661e-01 5.035719858519056569e-01
-5.092002007559310456e-02 -1.129535739242600451e-01 5.317832349519190371e-01
-6.132419354412521617e-02 -1.040055189180404960e-01 4.300621654795176996e-01
-3.370373023058723105e-02 -1.156554700932560659e-01 4.908090854112630019e-01
-7.083611630589125262e-03 -1.071031038476011610e-01 4.644923763931814720e-01
-4.435482107616964959e-04 -1.164940043973064498e-01 4.787651602691707087e-01
-8.221986361328961768e-02 -1.109556229398477867e-01 4.987777213016119093e-01
-6.369679656666733802e-02 -1.109855654161520516e-01 4.746524612708319379e-01
-7.047153968984988526e-02 -1.113301293649660573e-01 4.805173522617736115e-01
-7.807986535650941751e-02 -1.115292441461241402e-01 5.017370591019169046e-01
-1.249592847700087793e-02 -1.238848064299621354e-01 5.185092282115397744e-01
-6.447374801804905964e-03 -7.221799928452599104e-02 4.423428334309152943e-01
-2.688120426751625450e-02 -1.188712699386600680e-01 5.324402029057468955e-01
-8.426497313281869350e-02 -1.084240184068392815e-01 5.130903393769729037e-01
-2.901886452821017884e-02 -9.997222925667700877e-02 4.584759950113802551e-01
-4.088692856731470510e-02 -1.147529513560356512e-01 4.905533123764894143e-01
-1.020911617696583923e-01 -1.055337543243697607e-01 4.731900612550874463e-01
-7.265412998805866052e-02 -1.104373155750137392e-01 5.197326338985247540e-01
4.360777467969179609e-03 -1.269725109984560785e-01 5.191280142000626041e-01
-5.169602495257523411e-02 -3.121179846124848278e-02 4.385983445131516612e-01
-6.887446513053027686e-02 -1.061226244924401291e-01 4.536967415494201905e-01
-7.061847266380404109e-02 -1.101433788120909085e-01 5.229507456538591281e-01
-2.499991641508143847e-02 -5.625933094357309788e-02 4.377976000399935175e-01
-1.140505169089143025e-02 -1.179909227754011164e-01 4.842407686939839695e-01
-3.039294406474111337e-02 -1.160787124156103106e-01 5.425389790218844155e-01
-7.061352158539319079e-02 -1.015381873489718256e-01 4.280784814813555772e-01
-6.143755971537821076e-02 -1.110864667433730385e-01 5.290969736422878045e-01
-3.649180431817727888e-02 -8.812596960057395012e-02 4.433299536009900343e-01
2.505502458870913652e-03 -1.203760898381468353e-01 4.889452783637314726e-01
-1.202092133100654547e-02 -8.508771193570352498e-02 4.464877604179380288e-01
-1.029468079393826702e-01 -1.049956732961038058e-01 4.719438466370940999e-01
-5.216739169959713762e-02 -1.152360403219937351e-01 5.052817483654874486e-01
-3.532878005871942229e-02 -6.228431089035342538e-02 4.358148957853845151e-01
-5.158431569113042237e-02 -9.742538663383736031e-02 4.305202775664828674e-01
-5.536159612089774917e-02 -4.615846893892754099e-02 4.387673675976210275e-01
-1.137225210810912518e-02 -1.234840818862402573e-01 5.299194723960857223e-01
-7.815109910550541161e-02 -1.082924300443992432e-01 5.208914944970951533e-01
-7.479991873640706723e-02 -1.118531858051393796e-01 5.061631079275206169e-01
-2.128565495001634791e-02 -1.209454721157461055e-01 5.260568635360669543e-01
-1.048301946706631654e-01 -1.059754750213771773e-01 4.838686529109796908e-01
-5.874078252457001770e-02 -1.043833897243379577e-01 4.472736489416175298e-01
-5.578270141182124775e-02 -9.886130079407846882e-02 4.247153694895032250e-01
-6.256239680381203705e-02 -1.043413161604713202e-01 4.327911942473414708e-01
-6.976048778854500310e-02 -1.126334728645542321e-01 5.092156557657201432e-01
-3.330191792716388766e-02 -1.109508036150274046e-01 4.764422701145614725e-01
-9.711526532212000351e-02 -9.388601627148313034e-02 4.562324672734827669e-01
-5.059607277679137316e-03 -1.155345469038433492e-01 4.770351470623646617e-01
-4.721866262710595896e-02 -6.499365841471621552e-02 4.309776682251008628e-01
-8.546307713887399404e-02 -1.028482796239294367e-01 4.497945309102022171e-01
-8.416094348766320343e-02 -1.040846298946629112e-01 4.525118834807049795e-01
-3.763103277102907568e-02 -8.095839157457712654e-02 4.383872954706982683e-01
-1.461570560621736417e-02 -1.217621240225083001e-01 5.005374696919270283e-01
-8.358860135576608175e-03 -8.986724831519818379e-02 4.493939799944894342e-01
4.131885156294918919e-03 -1.217677428165288289e-01 4.935958745076441390e-01
-6.962720275101129397e-02 -1.065771689575254894e-01 4.560100923860335720e-01
-3.260015349776484300e-02 -3.308686083851222759e-02 4.371347448781829903e-01
-3.884179095246352575e-02 -1.176189730256174681e-01 5.162134344689806031e-01
-9.497907979953658375e-02 -1.051722636749693185e-01 4.631820581218576982e-01
-1.360035998046556574e-02 -1.229856679086536314e-01 5.278602496366699981e-01
-5.166840472039210819e-02 -9.785060241606018117e-02 4.321014927005851214e-01
-2.322235624826415185e-02 -1.208860158819113767e-01 5.105992945437529684e-01
-6.042003212982947902e-02 -1.140743269269458432e-01 5.044429952841817943e-01
-3.891056619821228746e-02 -7.981685919554147579e-02 4.370531551054150921e-01
-3.799358746810527990e-03 -8.867892468572782794e-02 4.496597579139192669e-01
-5.501482485705708192e-02 -1.023932775461706551e-01 4.453691250819467595e-01
-1.329704386210026068e-02 -1.233468972459835084e-01 5.101879530298677468e-01
-5.390905511819112789e-02 -1.103877096980228067e-01 4.709180491442919725e-01
-4.768528660015867310e-02 -9.298394787243466353e-02 4.356494175633190413e-01
-4.852573504622966633e-02 -3.549283315009361256e-02 4.369327884065503653e-01
-5.033537720646279884e-03 -8.623212214295811195e-02 4.481485819232559065e-01
-1.119202942965092928e-01 -9.859162619417519147e-02 4.862190571641101799e-01
-5.359182654045812483e-02 -3.480494012830448458e-02 4.399486311780296255e-01
-7.677915912841484780e-02 -1.041722439425499386e-01 4.463504934612210207e-01
-7.330893967074392226e-02 -8.858033247386720710e-02 4.236669250154304067e-01
-6.847975221596118434e-02 -1.069789092254313789e-01 4.575472368248340582e-01
-7.652294721748330308e-02 -8.958588583091012247e-02 4.273237876797278401e-01
-1.023609743688110862e-01 -1.070991182868219205e-01 4.920887603378898967e-01
-6.705030300421864486e-02 -9.472951787481713459e-02 4.217790671631377331e-01
-5.596897150986474695e-02 -7.298158026986065194e-02 4.267102058385225383e-01
-4.467806962354268357e-02 -1.106747901127705658e-01 4.758637595326652980e-01
-1.150845076133352176e-03 -1.247355679748836516e-01 5.346157688134010044e-01
-6.402828445657920975e-02 -1.007831223761813527e-01 4.239730432966242191e-01
-2.452508591585671541e-02 -8.516627351377575872e-02 4.447754614535774365e-01
-1.102436496816862205e-01 -1.015976282382591994e-01 4.944103429491371049e-01
-2.415648903420631113e-02 -1.206196464050138528e-01 5.097695700787738815e-01
6.135161840465521918e-03 -1.265776081814976306e-01 5.156581008904910224e-01
1.013368372402683772e-02 -1.257885669452691590e-01 5.364426729702599372e-01
-1.796093877892584664e-02 -5.882058369815890142e-02 4.387383516927030880e-01
-5.452713757812720913e-02 -4.527942236360812944e-02 4.367497344869465392e-01
-2.336416607560536096e-02 -9.836907385553360361e-02 4.569596922239712034e-01
-3.325733845216913981e-02 -1.166422481632905100e-01 5.369238167742218515e-01
-2.365651313137927952e-02 -6.014311367810392522e-02 4.381150871686422255e-01
6.803880796865459900e-03 -1.261698704351159883e-01 5.127372525633344669e-01
-7.715954100408697891e-02 -1.104543737470302933e-01 5.131007901607366195e-01
-6.481354816491581529e-04 -1.264740855681501519e-01 5.186637964604846607e-01
-1.630647734071681218e-02 -1.175604549046872782e-01 4.866763834317388016e-01
-2.849872245319159947e-02 -1.197037115795269863e-01 5.142313764523422925e-01
-2.929511679628951648e-02 -1.050818448395087479e-01 4.660766070772695557e-01
-2.028945481933689884e-02 -6.559039800169838563e-02 4.392798576474017391e-01
-6.251599895562980069e-02 -1.096953154730779117e-01 4.688674873298642742e-01
-4.553197048140602415e-02 -1.056263113049380614e-01 4.606599249984201783e-01
-9.841532883028002165e-02 -1.067638129011272002e-01 5.041395303563063202e-01
-3.950164894460653914e-02 -5.016258386416400095e-02 4.351897087633319061e-01
-2.708246203264764659e-02 -1.097308615871930570e-01 4.736908089995554016e-01
-6.854361108014439541e-02 -1.111258825818943058e-01 4.778775106319654298e-01
-2.661513649511899546e-02 -1.010359452347055348e-01 4.602837154391752894e-01
-7.409984989524711838e-03 -8.886740375901337752e-02 4.490170344974279693e-01
-5.364494521448601172e-02 -4.742932791936355086e-02 4.358420240100121523e-01
-9.782790134240204605e-02 -8.999006508329104870e-02 4.596326416876751475e-01
-8.690930837544759424e-02 -1.067609110623317925e-01 4.621126721916690716e-01
-4.350037656642453260e-02 -1.029536711634110452e-01 4.563837168211061779e-01
-1.051482736455567057e-01 -1.044058809748216465e-01 4.747690602755392231e-01
-2.706333116990548154e-02 -1.167313575706648288e-01 4.919637371673538095e-01
-1.734916597787691805e-02 -1.219062932650538805e-01 5.277265049189311386e-01
-7.005402303849543599e-02 -9.547915940815751568e-02 4.219758698813396713e-01
1.430224568136521067e-02 -1.256443748939840011e-01 5.175170018472404765e-01
-5.826463699669368751e-02 -8.264923836458944184e-02 4.247590302596243594e-01
-5.227754074258567779e-02 -4.047619771562313562e-02 4.371056364530819249e-01
-1.156687154650024377e-02 -1.067810276491652222e-01 4.641817151130399610e-01
-5.989476430244172755e-02 -1.138640631876569470e-01 4.977566426546488620e-01
-2.706721329253057931e-02 -1.199759434617411608e-01 5.190510246043609222e-01
-2.186201350127774112e-02 -1.177155534139047860e-01 5.447033592625261100e-01
-5.091436230984078271e-02 -2.808843350170242906e-02 4.378534194488236109e-01
-3.757045345463457670e-02 -3.271932310557693763e-02 4.361624841109532635e-01
-1.766165847862211785e-02 -1.182043091441389998e-01 5.469206847278789141e-01
