-1.717063629602860395e-02 -1.051207178081441651e-01 4.635523145454848448e-01
-3.796723972849065654e-02 -6.055940646774084224e-02 4.353510692564905860e-01
-4.794818933132301286e-02 -1.049891333542816857e-01 4.589687477434244989e-01
-4.740254422083188535e-02 -7.482793502413975784e-02 4.307794762876372419e-01
-4.779102787527673979e-02 -1.155265051315586544e-01 5.214376179466188033e-01
-6.462989395884664173e-03 -8.818225803156726217e-02 4.490305264480831116e-01
-1.088898997885443809e-01 -9.924050344027599002e-02 4.749953628412475481e-01
-3.940330095120608833e-02 -1.055797426749132406e-01 4.645688142358181394e-01
-1.951893174161567143e-02 -1.218148871351503043e-01 5.107329064805072871e-01
-1.011770730297359248e-02 -9.513490120031350972e-02 4.528530894563894682e-01
-9.620388129567655766e-02 -9.317892928945525899e-02 4.556139497111984515e-01
-1.023649195136596274e-01 -9.068874966847442765e-02 4.660883900330740071e-01
-5.995447118977501044e-02 -1.084007999293163799e-01 4.651068429382987923e-01
-3.642147034791423654e-02 -7.995213603325862506e-02 4.392168619858109468e-01
-7.576844288667802796e-02 -1.110441128044049180e-01 5.105757595676277960e-01
-4.987277323035998328e-02 -1.034506632730336911e-01 4.542487845284787773e-01
-8.832216246293819739e-02 -9.439379888605065050e-02 4.450353640669971189e-01
-2.821156136308547099e-02 -1.197180044686677186e-01 5.136557978934830349e-01
-7.455512040982807676e-02 -1.101454843714562010e-01 5.183907191538225101e-01
-9.186240690397853847e-02 -1.056957203806783430e-01 5.131981985490430276e-01
-9.491029474222645312e-02 -8.970749160921429044e-02 4.558319460836585679e-01
-7.401810555636720301e-02 -1.052755133174856500e-01 4.532618010121127194e-01
7.657366282818483562e-04 -1.191959443482533826e-01 4.857881003217096039e-01
-5.401453430860343741e-02 -1.147338656836313503e-01 5.032327433843784004e-01
-1.070428062600267405e-01 -1.006254378249697851e-01 4.722372200956065913e-01
-7.483726890508199392e-02 -1.111471664093261064e-01 4.850528724729951113e-01
-3.810141586421901538e-02 -4.515354528689850128e-02 4.355668837197718690e-01
-7.727831279323726932e-02 -1.036014446649941995e-01 4.470012187769311085e-01
-1.174650098970374604e-02 -1.238337999362174729e-01 5.234151928542216670e-01
-6.616468089780541684e-02 -1.128036314564657416e-01 4.979849280205417283e-01
-3.276912748860090485e-02 -5.968204904449959242e-02 4.367081076464001677e-01
-8.462229711884033424e-04 -8.725509161140194980e-02 4.493357525851808254e-01
-4.013505667286684092e-02 -1.049329328788845550e-01 4.631318119923511500e-01
-6.634018871070707091e-02 -1.130410813778809365e-01 5.073861749480954586e-01
-4.505314441430983974e-02 -4.765159735499858301e-02 4.347924633158804508e-01
-8.895885187825890161e-02 -1.069017187770561900e-01 4.663302002814938008e-01
-3.478079505090447571e-03 -8.256132383576617051e-02 4.468622201124147764e-01
-5.522862975315111222e-02 -1.111891553534426758e-01 4.773819312101217349e-01
-1.160768033039835841e-02 -1.238314448307192700e-01 5.239336214020594573e-01
-4.945913182668185831e-02 -1.114996387771379216e-01 4.792333527944712124e-01
-7.863763804693112147e-02 -1.088378386785034818e-01 5.181740783657835525e-01
-5.455680686606721036e-02 -7.232733114391506901e-02 4.277178037409886668e-01
-3.040837420468618657e-02 -1.114662231294557687e-01 4.780955471946070623e-01
-9.053304853471378505e-03 -1.234154218447637424e-01 5.034120825581044345e-01
-5.183363080832370517e-02 -1.146845592000684810e-01 4.979303103406653719e-01
-9.347088925046881380e-02 -1.064003934845275390e-01 4.680173549699078173e-01
-2.841945565067688015e-02 -3.629197137739906265e-02 4.382442816305334721e-01
-4.847489975422798053e-02 -8.735633708926393570e-02 4.307529930837086241e-01
-1.950214358218566729e-02 -1.210517305745783950e-01 5.297002903597650691e-01
-4.049764058029135111e-02 -1.093516370648515423e-01 4.729449853065589848e-01
-9.103992889300356606e-02 -1.047559249697160161e-01 5.161055969441417091e-01
-4.137820986865815842e-02 -3.921151299957029851e-02 4.352754793862272376e-01
-1.076266778106523131e-01 -9.585215615587830418e-02 4.708000226369397079e-01
-3.936473526706144727e-02 -9.052678185891162299e-02 4.445711183703026648e-01
-5.308984751233687682e-02 -1.071570212457796101e-01 4.623431665590924666e-01
-9.479176296610662689e-02 -1.086430154387323793e-01 4.965885310405027675e-01
-5.458607212131930814e-02 -4.868356611438913462e-02 4.358547702258707690e-01
-6.199073141281358224e-02 -1.077405057206459599e-01 4.618136828322720322e-01
-4.671931153125165326e-02 -7.532747490897664933e-02 4.312893395437185640e-01
-9.215100365204070831e-02 -8.752877383710283565e-02 4.537709185901960263e-01
-1.054009145698088651e-01 -1.043331768134218157e-01 4.781285861201388654e-01
-9.101676581816363354e-02 -9.406895217271413201e-02 4.485138983245994249e-01
-9.589995848591571781e-02 -1.072362437126277851e-01 5.047069508154725659e-01
-3.835295138210938898e-02 -4.400589782397183736e-02 4.355195706146595680e-01
-4.565703930340085648e-02 -1.160491750300926966e-01 5.041055867404281576e-01
-1.822874004366265704e-02 -1.220496495073103843e-01 5.227568730537801578e-01
-2.036526264659631325e-02 -1.119327591624399293e-01 4.765565060075364623e-01
-3.450860948862095878e-02 -9.150430452809564519e-02 4.474367666719018533e-01
-4.388124757220122213e-02 -1.110222057748680852e-01 4.785815759744519449e-01
-2.572948087306078935e-02 -9.267343274115924512e-02 4.508734911374333576e-01
-1.776034706348483122e-02 -7.226219694094407342e-02 4.411808642035972006e-01
-4.739588439382621393e-02 -1.159951284399715621e-01 5.115905614807919610e-01
-4.002594138055477063e-02 -3.697484354961707437e-02 4.354585500249026353e-01
1.039685884117627114e-02 -1.264559429309284888e-01 5.229257597198424534e-01
-4.430268476817576795e-02 -9.866528200089935696e-02 4.494151302196375264e-01
-2.013142260640828768e-02 -5.379966372933713686e-02 4.385505295089015543e-01
-2.714262636421498759e-02 -1.196839422938928699e-01 5.061187943646467957e-01
-5.834806755671441414e-02 -7.226267599406291375e-02 4.272325906187023903e-01
-4.786671399182830522e-02 -6.598080306287094909e-02 4.308477262250919870e-01
-9.655782393241298112e-02 -1.064279060372438079e-01 4.712798403539429914e-01
-2.778535662153334973e-02 -1.012125517826802656e-01 4.609564919829533536e-01
-5.742843148736776621e-02 -1.121769594997332337e-01 4.838367086735942402e-01
-5.247932792595493695e-02 -1.059424074358255446e-01 4.594216540791313252e-01
-3.401509239146527364e-02 -9.086737592047601508e-02 4.470138596175994294e-01
-5.678670415796687604e-02 -1.029667242604317273e-01 4.460569280686476623e-01
-1.589409453678649470e-02 -8.111836758898405275e-02 4.442721981269507348e-01
-9.681610241383674376e-02 -9.415684159733221648e-02 4.561239127190570009e-01
-7.564920171588877806e-03 -1.200981998747851498e-01 4.894063727534488928e-01
-4.587539793966983331e-02 -6.082950936580300283e-02 4.323520402930993711e-01
-7.023825727921656492e-02 -1.012373464276877660e-01 4.297175892526151064e-01
-5.534448026411698668e-02 -5.807275187874935685e-02 4.322117378186611236e-01
-6.577568735395140920e-02 -1.057159789373513653e-01 4.539572989481318044e-01
-1.089877188636621669e-01 -1.030847538876638603e-01 4.890416175498609741e-01
-4.396442841450225007e-03 -1.181303056290202297e-01 4.826300203838866931e-01
-3.727006500663606475e-02 -3.856162042474182289e-02 4.357041712764236907e-01
-7.067896011988362981e-02 -1.094256830139386238e-01 4.708487016145528892e-01
-5.254773249498467108e-02 -2.718341516389622889e-02 4.396857887845092017e-01
-7.599292609367037932e-02 -1.002129247585548805e-01 4.334066036534010569e-01
-3.661567323007205305e-02 -3.940019100201581914e-02 4.358319069030290871e-01
-5.315098766114301210e-02 -9.634210065344291085e-02 4.277688703836719508e-01
-3.944965091736320206e-02 -1.172150425818833247e-01 5.065609504467522006e-01
-6.065623697030794736e-02 -9.505732217740603396e-02 4.242513342172300472e-01
-8.463469329272732544e-02 -1.062440952031432906e-01 4.610554160279956015e-01
-1.573516021105142784e-02 -4.668459583422608639e-02 4.386246460994058793e-01
-4.423378641847896392e-02 -7.682939049772652407e-02 4.334083886637322136e-01
-3.822065605909715641e-02 -1.168772266296728979e-01 5.005960988304056780e-01
-2.236080580963709444e-02 -9.156835063017758347e-02 4.499750935126736184e-01
-1.545948706890455659e-02 -1.065988626247061505e-01 4.648365954688203350e-01
-3.686470281219664941e-02 -1.172383188417693706e-01 5.015450455319746537e-01
-3.436072824764305894e-02 -1.180091610498389676e-01 5.236958189767173533e-01
-2.835824650217835113e-02 -1.190164580354104995e-01 5.273903324518992575e-01
3.264118459409314291e-04 -1.231323296036481996e-01 4.976628913556700451e-01
-2.980842778451246733e-02 -1.103531327320076832e-01 4.756241031181540069e-01
-1.000623214290034257e-01 -1.063244940048185816e-01 4.760215592489235870e-01
-2.948337164167896124e-02 -1.171635369326352871e-01 4.951502297679336584e-01
-4.352976384741956417e-02 -8.841046632381276138e-02 4.392559010169797551e-01
-5.566627900041703353e-02 -1.106445953080368166e-01 4.737393564622362496e-01
-6.186251550266898963e-02 -7.011761482902247045e-02 4.288651059641927499e-01
-3.445765653028200898e-02 -1.147204112707292945e-01 4.883054013217112410e-01
-8.393410130416038839e-02 -9.838255002473894617e-02 4.430473066596595233e-01
-4.714804750465483030e-02 -1.086317539885067601e-01 4.677964229184264910e-01
-5.478619897051325432e-02 -1.130066594511738437e-01 5.275979420270805464e-01
-1.114798502428012289e-01 -9.492126023352341624e-02 4.800355607899814969e-01
-1.366475269446593317e-02 -6.121807043271718096e-02 4.394533285712429183e-01
-2.384793403408169699e-02 -1.124017887455330406e-01 4.789194333820111504e-01
-5.370137604413438570e-02 -4.540989010060121622e-02 4.364513316416436250e-01
-8.957653786993617639e-02 -1.032264868280162035e-01 4.560128747395302273e-01
-2.820513126188635075e-02 -1.066359604526291166e-01 4.689407610478974475e-01
-5.752432646704824099e-02 -5.408287827189871277e-02 4.357826572578618607e-01
-3.621073068062674247e-03 -1.255185136082058173e-01 5.116018973759716149e-01
-4.130385401485084373e-02 -1.153681476570413283e-01 5.322774303872493951e-01
-6.218738456149535548e-02 -1.114881178115468552e-01 4.802134031311064977e-01
-9.473947361766181519e-02 -1.083666461265254261e-01 4.997017159529509311e-01
-7.394906370228675196e-02 -1.070958923158553538e-01 4.607695674121581875e-01
1.774442186748430988e-02 -1.245978743733171940e-01 5.388904712907577332e-01
-5.429821083492007011e-02 -1.105698701972293446e-01 4.735708081430443639e-01
-2.558376025901988246e-02 -1.155554382558982296e-01 4.880106579897134367e-01
-8.740297141365963030e-02 -1.100784684813783110e-01 4.882146390586832307e-01
-2.036828029029759141e-03 -8.111308165928519942e-02 4.464093850314715395e-01
-1.620575097213134211e-02 -7.476778551089796609e-02 4.420356721201478267e-01
-2.088010361207770504e-02 -1.214171688993690573e-01 5.210598659587548642e-01
-4.522483437077531171e-02 -3.174932528736091469e-02 4.358056190149822706e-01
-5.523252443803419731e-02 -1.108506981398868635e-01 4.750194459743893871e-01
-3.500704443109194097e-02 -1.175394059222652082e-01 5.014402820207969347e-01
-4.024883110962679256e-02 -1.118609211503245882e-01 4.812978595157650363e-01
-4.310855779785706388e-02 -1.093204945142333823e-01 4.720954427824637922e-01
-7.960533764398877721e-02 -1.059377025298246927e-01 4.579705248190295563e-01
-1.003861949136038711e-01 -1.066043778239099266e-01 4.782582892752998416e-01
-4.858355959631271981e-03 -1.233234884461375247e-01 5.365409593998948790e-01
-1.502204861528785504e-02 -7.290418857876884706e-02 4.416813934886253956e-01
-4.964159362380457519e-02 -4.060134841428626046e-02 4.362448887989445745e-01
-6.145365198932632722e-02 -8.205392543735787192e-02 4.251330640301785868e-01
-7.048991327594163192e-02 -1.064098248411132069e-01 4.576006420589477375e-01
-4.226158808274368267e-03 -1.136664264323931084e-01 4.740228605742562440e-01
-3.475397946378241953e-02 -1.181334938857288297e-01 5.069276409987581999e-01
-3.687942975943279272e-02 -1.055899155914887672e-01 4.656916216513063422e-01
-7.036196026465965647e-02 -1.092140264372452874e-01 4.696787977962153526e-01
-4.632315931345691584e-02 -1.154367394064573504e-01 4.966637572186440308e-01
-3.214979095340189490e-03 -1.003766538295340488e-01 4.584683844316667090e-01
-4.342886392600469464e-02 -1.166655873986634506e-01 5.166654144220197420e-01
-5.396417135393100084e-02 -1.087985885662341723e-01 4.669756804643574455e-01
-7.083114861914892313e-02 -1.059753430079187903e-01 4.559153081711527222e-01
-4.721358895874995520e-02 -9.218561518718740300e-02 4.369382523125309170e-01
4.401314334588042956e-03 -1.270195495486597104e-01 5.203452506065895378e-01
-1.119888638579530082e-01 -9.809608054406697419e-02 4.863519350380546280e-01
-3.220104178562224057e-02 -7.616299210024377042e-02 4.392667659640538957e-01
-8.370254527904802400e-02 -1.068804493242510173e-01 5.180280978717826113e-01
-9.732610387580839864e-04 -8.211163794142886663e-02 4.469282788155040098e-01
-6.508141783723703222e-02 -1.117312221579598586e-01 4.847837664883843378e-01
-5.347413105093336977e-02 -1.062745078083120465e-01 4.599648313850864256e-01
-6.705484261833918880e-02 -1.127368431780736702e-01 5.130612007030963539e-01
-4.846060211460590655e-02 -1.133795809312942993e-01 4.881327064455505127e-01
-7.281313706077292315e-03 -1.071678496702393873e-01 4.647511149533847252e-01
-3.795006396718719061e-02 -7.524071959009957788e-02 4.361178486192616166e-01
-5.246153317761355350e-02 -9.741682596834418117e-02 4.294246130387326388e-01
-2.673491631406087199e-02 -7.253024659093063042e-02 4.393979150688821500e-01
-4.537605340081390243e-02 -1.158488278930830950e-01 4.984965486735555285e-01
-5.692281434811857777e-02 -6.446196052315163183e-02 4.303718177230212438e-01
-3.683156926427078731e-02 -1.176528545766531569e-01 5.052799586402031418e-01
-5.682577447901178413e-02 -1.125922093723039918e-01 5.276790116720436741e-01
-5.507994156718134388e-02 -1.005857055650527798e-01 4.412618071648279905e-01
-9.065601347732003823e-02 -9.660656010551503525e-02 4.486903329761068315e-01
-3.488857419660236492e-02 -4.631490995885125667e-02 4.363658030375298646e-01
-2.871736248234200289e-03 -1.157927973736417870e-01 4.774576669007718488e-01
-3.756193173406594671e-02 -1.175836169026423378e-01 5.067467123682940500e-01
-7.010943900962615660e-02 -1.013159702627399877e-01 4.299095017293337873e-01
-5.341117659187731570e-02 -9.601294902559502631e-02 4.274254223007488696e-01
-6.568750009404714096e-02 -7.520100553805227073e-02 4.293480432745588327e-01
-9.075503357605376256e-03 -1.171639588206509902e-01 4.812688384598665103e-01
-5.716074197147658770e-02 -1.141099408486523775e-01 4.987998950670768372e-01
1.689888615802475052e-03 -1.025615019743305184e-01 4.608557553316163236e-01
-8.507065456413989701e-02 -1.038488081454027739e-01 4.543087664901050982e-01
-7.180914238641183944e-02 -8.831357724424356015e-02 4.227522495160433436e-01
-1.966776172927103567e-03 -1.180271751876233594e-01 4.824713309381590820e-01
-3.372152660386674994e-02 -1.069676906350794099e-01 4.687297916714737167e-01
-5.052112317170999456e-02 -2.891030133569044008e-02 4.375801090860305664e-01
-8.557202539053306023e-02 -9.648021402903710075e-02 4.437767265058771837e-01
-5.003722017506124359e-02 -1.151585060496815305e-01 4.999441818906404378e-01
-6.635075575857850294e-02 -1.041132215949465978e-01 4.403593924654712333e-01
-5.227728795628856090e-02 -9.999362188586337352e-02 4.451439027672055571e-01
-1.361599169870915740e-04 -1.245321570476260187e-01 5.029579666303680696e-01
-6.503714201263716133e-02 -1.105758491401451910e-01 4.749062365962166687e-01
-3.226700426518824133e-02 -3.568687755602369116e-02 4.373666710443510630e-01
-8.291919990060313272e-02 -9.244655298745280136e-02 4.367465090298348618e-01
-9.529298425860480148e-02 -1.085641920921578824e-01 4.880519423516985200e-01
-5.374498035023537318e-02 -1.148684120271556558e-01 5.167083593520264140e-01
-5.304759810877979903e-02 -1.072702056574754703e-01 4.626472932956581241e-01
-5.141184063254086722e-02 -1.032621609701311338e-01 4.526168093134740333e-01
-9.251139080472260690e-02 -1.040657122623020597e-01 4.600497657146934705e-01
-6.265575228677297548e-02 -8.523219912363548534e-02 4.239310223300977731e-01
-6.455426488526347373e-02 -1.023272140492894611e-01 4.257708189199451154e-01
-6.906051022185095978e-02 -8.422779733495902588e-02 4.242799802035139844e-01
-2.534484291215660656e-02 -4.601834230860615133e-02 4.388063874436043954e-01
-8.769678979157255472e-02 -8.705418256060275251e-02 4.468981241336880128e-01
-9.115977319825130723e-03 -1.062220113612017958e-01 4.635226184653776782e-01
-1.234643129488743885e-02 -1.237454826647233219e-01 5.220824022680241594e-01
-4.517260843553265459e-02 -7.544542519628044674e-02 4.324635026557896444e-01
-1.335514955005477275e-02 -9.625062609330597985e-02 4.539447558455545484e-01
9.171501257662878319e-04 -1.124278920839075213e-01 4.722719780187889516e-01
-1.014242825813378712e-01 -1.039632665429705560e-01 5.074789225056486330e-01
-2.367726074408106618e-02 -8.280963506769305205e-02 4.441190518799674192e-01
-6.934875105741815544e-03 -1.252194229581262142e-01 5.150593600417461282e-01
-1.868472283858029284e-02 -1.192620205863533234e-01 5.422052583473421228e-01
-6.294912693857651620e-02 -1.090677657871051975e-01 4.681221033679434096e-01
-7.354302536233484761e-03 -1.217770918012670706e-01 4.947178730902122012e-01
9.835436729683875307e-04 -1.194133679861000552e-01 4.863910843826410035e-01
-8.232093900189425828e-02 -1.094651277236300541e-01 5.095002083592291564e-01
4.368329519160043736e-03 -1.258352429646872050e-01 5.098104682043888003e-01
-4.777940199286542095e-02 -1.046169949031724999e-01 4.580901770936387507e-01
-5.165290514164887214e-03 -1.250196747928698782e-01 5.089113461510154091e-01
-1.100716380746762958e-03 -1.197984481675669066e-01 4.872834839020605546e-01
-4.868736618851108450e-02 -1.157532053033488856e-01 5.093543157873774430e-01
-3.841198819942175796e-02 -1.176138152595294084e-01 5.149645331549148608e-01
-3.555689095198514421e-02 -1.140235717330455589e-01 4.864842304889457902e-01
-4.842917414214912425e-02 -3.279231556828966776e-02 4.366662769931923815e-01
-4.895123908163477588e-02 -6.031301436484248768e-02 4.317238897775244610e-01
-2.013390334174005800e-02 -1.165944826466859402e-01 5.498382137296766725e-01
-2.068910800961444238e-02 -4.158701419339679711e-02 4.391589354113633048e-01
-3.693296047234208290e-02 -1.161563187526033214e-01 5.346179187108052178e-01
-5.924692068018679730e-02 -1.132547356707899189e-01 4.927689140932895451e-01
-1.063360647379739399e-01 -9.513600346220676962e-02 4.679961408410088786e-01
-6.796601296715215623e-02 -1.009009789897891973e-01 4.261786994368629844e-01
-5.726116458922166780e-02 -1.142622985024156490e-01 5.168374701242434144e-01
-4.256412836356668339e-02 -6.729523390336673849e-02 4.331854099547057801e-01
-9.075383895956294633e-02 -8.656466126615174062e-02 4.520653784368341421e-01
-3.442836116032760296e-02 -1.030692621348462540e-01 4.622167075480835274e-01
-7.051811471390184716e-02 -1.107074334193489523e-01 4.788110164455648410e-01
-1.714650133273613528e-02 -1.140734124806382921e-01 4.795938089184258457e-01
-1.210187041583006724e-02 -1.039261358282885933e-01 4.612560124329703748e-01
-1.710697657780293514e-04 -1.133117614456619904e-01 4.736021644725877389e-01
-6.474522429180612493e-02 -1.048471156715468366e-01 4.463298615964311766e-01
-5.430992992244362827e-02 -1.002915145334848102e-01 4.313189297473888351e-01
-5.447297387318703749e-02 -4.097248953707248453e-02 4.404096648856955509e-01
-1.956358530389671127e-02 -1.220044742578699076e-01 5.140002240653118726e-01
-8.527036167575149928e-02 -1.093649047918319461e-01 5.059800208313305347e-01
-9.734140527382544039e-02 -1.078465241582913653e-01 4.801166984156107764e-01
-4.384756925867753369e-02 -1.161875422788491430e-01 5.227136609885170149e-01
-3.086652441934504068e-02 -1.016497276511163228e-01 4.610024913595630047e-01
-4.191278912938902097e-03 -1.177221300761658040e-01 4.816211452384371317e-01
-5.698584427200828473e-02 -7.420344149077062745e-02 4.267058802280890850e-01
-7.925503591931966352e-02 -9.432808187250138476e-02 4.306697685572775103e-01
-1.645824127073845788e-02 -7.461073696991434023e-02 4.419586293329592075e-01
-9.626906110754517021e-02 -1.058984220190360287e-01 5.087240633261130851e-01
-3.294213732102735381e-02 -1.186229515913361787e-01 5.195875453873168848e-01
-6.940026959938989937e-02 -9.121186283063519029e-02 4.217423434631067392e-01
-2.370875587493797079e-02 -1.000298869499987864e-01 4.593662691933860232e-01
-9.078097553415802323e-02 -9.564408670486809760e-02 4.484124766644507765e-01
-3.515755579118270968e-02 -1.032892463916900150e-01 4.623719492382611373e-01
-5.594346103063795039e-02 -1.009453456155734868e-01 4.257288940398157862e-01
-5.628155949328477597e-02 -7.252621465081077190e-02 4.270373645909321669e-01
-7.450808817866590161e-03 -8.467292493545502952e-02 4.471311557755438537e-01
-1.535328735308003761e-02 -1.217025365525424008e-01 5.018353781432070004e-01
-4.032257755401255639e-02 -9.712782733777135247e-02 4.503091695895246604e-01
-7.602871079174880475e-02 -1.032847294582706354e-01 4.442416754198203477e-01
-7.906957794330995992e-02 -1.030259582544980762e-01 4.467043822937527553e-01
-9.484937522120098774e-02 -9.184506134808571864e-02 4.541971897863004703e-01
-1.479885211609318491e-02 -1.228028927483844485e-01 5.257547121697264680e-01
-3.053909176378974757e-02 -1.190013950294454836e-01 5.209123794192277446e-01
-2.746739775268373235e-02 -8.599248319298087584e-02 4.449880564949618145e-01
-3.815004978760901111e-02 -1.107283239370171896e-01 4.772259626710561031e-01
-3.685878506150977452e-02 -7.179565252345530835e-02 4.359644567721266406e-01
-3.036383725657062702e-02 -3.875809891677321067e-02 4.378662139583284207e-01
-3.288489548072590085e-02 -8.112274931043148007e-02 4.410012439375461946e-01
-1.556235901087109179e-02 -1.231610057855323653e-01 5.159406930135452818e-01
-8.996031597596171325e-02 -9.727744865046546174e-02 4.481247866014175796e-01
-5.610381281408594739e-02 -1.138651985602695538e-01 5.225891235835823379e-01
-3.372341610626628655e-02 -1.172989145267004929e-01 4.981133083455788202e-01
-2.183099459038567378e-02 -8.249149637041630623e-02 4.441985298360036638e-01
3.694651231539100578e-05 -8.999913347102463101e-02 4.509091320128317815e-01
-3.214553643752883494e-02 -1.153538095687495907e-01 5.432085074297091642e-01
-4.986820615843790688e-02 -5.813415559544982819e-02 4.324317187795835293e-01
-6.643594135689308289e-02 -1.126514996961778398e-01 4.954227021522458196e-01
-5.092900215587670143e-02 -9.670076887484381489e-02 4.355025563782449760e-01
3.624342185922714739e-03 -1.130334470265908081e-01 4.736435476184119864e-01
-7.562636834468082492e-02 -9.228877978290600526e-02 4.261656225418674615e-01
-9.872334625437459432e-02 -8.938450862183619505e-02 4.614343135595246892e-01
-9.967134422736813326e-03 -1.052085044034448830e-01 4.624398047538829104e-01
-4.977146016144030904e-02 -1.144323796928812392e-01 5.266047688601938059e-01
-9.987563932915075049e-02 -1.053987026145044303e-01 4.709298579483754410e-01
2.834906679835765692e-03 -1.235442169482575125e-01 4.990454811175392691e-01
-7.203836170429993302e-02 -8.461559193127279888e-02 4.250983345860429585e-01
-6.547170029689727833e-03 -1.020236588822312496e-01 4.594812926990248236e-01
-2.668292550173195082e-02 -1.174406740349279860e-01 5.410103365497416217e-01
-3.230726930508313888e-02 -8.613862331326432864e-02 4.438602056283263986e-01
-6.278233542220520991e-02 -7.104780965548360139e-02 4.285836088200445371e-01
-2.718747928073096329e-02 -9.880458358446261857e-02 4.577715325916194566e-01
-8.762271512308290877e-02 -1.047736079467339876e-01 4.583616666703580478e-01
-8.843250959382510656e-02 -9.239540034107404654e-02 4.452683157729852015e-01
-2.171016506189817064e-02 -4.300370701998337819e-02 4.391728544520200339e-01
-5.180511252986795545e-02 -9.241876543936367039e-02 4.283070559252326603e-01
-5.388887442180800152e-02 -3.424926224854005913e-02 4.414674552478856651e-01
-5.920153461532870476e-02 -8.847933758274652283e-02 4.237523895185165701e-01
-1.132156686636235331e-02 -1.238947796748670893e-01 5.117139640959808000e-01
-9.369371039613601237e-02 -1.086850641636751824e-01 4.801596645094686755e-01
-4.223821900809957008e-02 -6.572492192401695188e-02 4.333527535181351809e-01
-6.591612178578993772e-03 -8.195944280196128251e-02 4.461198471031898038e-01
-7.465428763868153794e-02 -9.022622605071529966e-02 4.249195185424621268e-01
-5.289949192751440543e-02 -3.350774059688284290e-02 4.393862526899608434e-01
-6.029465607157485224e-02 -1.061196370776450737e-01 4.561411265302562912e-01
-1.604933675669048499e-03 -8.530186942838849373e-02 4.482806571777790960e-01
-6.956554525651906240e-02 -1.021083847475383194e-01 4.331222948954895902e-01
-1.068882601688742467e-01 -1.039288238051528229e-01 4.815669632820931967e-01
-2.282821472923904013e-02 -1.200098905162450130e-01 5.310722872698950825e-01
-1.035197532668295367e-01 -8.970729537145599730e-02 4.691623593867111364e-01
-2.827903861754415063e-02 -7.769489509491828150e-02 4.407611998051631508e-01
-5.342190577232114324e-02 -4.022667570376576435e-02 4.376769109717498218e-01
1.955135446255992001e-03 -1.264903581714704739e-01 5.284152954333414254e-01
-7.016065366325999197e-02 -9.789403756589711014e-02 4.246710984458146876e-01
-3.108740167722657405e-02 -1.186363806257943881e-01 5.034187539002037415e-01
-5.162925644488163684e-02 -8.833653414651825020e-02 4.283240304616074412e-01
-2.471433520645211629e-02 -3.978720196167713496e-02 4.390764319939853833e-01
-2.369734460641283874e-02 -1.191435859982167139e-01 5.363363135410976756e-01
-2.266466663785485919e-02 -1.174765795031374321e-01 4.921841554187618151e-01
-3.176139220769962079e-02 -1.148109599517538187e-01 4.875458220028143774e-01
-2.020229278081542984e-02 -1.188866875612526741e-01 5.419326285799465071e-01
-1.119069375915992676e-01 -9.829375748532998003e-02 4.824139258410121700e-01
-3.601582938861792871e-02 -6.846828028683724088e-02 4.359773514917451576e-01
-3.564413177474108629e-02 -5.349078884756771485e-02 4.359771169980148908e-01
-3.165423372796432721e-03 -1.236006056413672810e-01 5.368310630248823712e-01
-8.061864486389515305e-02 -9.528280997721860768e-02 4.346596714853999122e-01
-3.492707414630977225e-02 -8.785667427465750079e-02 4.443637920801407626e-01
-1.627055088401946348e-02 -1.222386459798271569e-01 5.275025789536613718e-01
-2.974367602249490539e-02 -1.147602447259204739e-01 4.865718530368576822e-01
4.963718343200029803e-03 -1.261513338047078603e-01 5.119741440155531897e-01
-5.317382184741226148e-02 -1.150695767081856835e-01 5.099678416591859609e-01
-5.372611350778806055e-02 -2.602538322630969583e-02 4.448461933367934273e-01
-3.597792703902875922e-02 -7.736229112478622272e-02 4.382354275442428282e-01
-1.079723005758109061e-01 -9.736664782676128505e-02 4.716380583434316986e-01
-6.622368192885201565e-02 -1.130702897020991887e-01 5.055656111084730897e-01
-7.759575754796867175e-02 -1.114065455121741322e-01 4.995411199926618195e-01
-5.972539188635365287e-02 -1.110172042712186530e-01 4.760013959598061173e-01
-5.624970542507463228e-02 -1.144971172468163545e-01 5.060152782091301704e-01
-5.840992790238029586e-02 -1.037287589109593816e-01 4.474889936675212065e-01
-8.499592032315073098e-02 -1.095894539181474364e-01 4.757961239610237203e-01
-9.827233309698918395e-02 -8.572882912851974291e-02 4.655355983334088510e-01
3.227942244618128408e-03 -1.264630225185797430e-01 5.288571477903566409e-01
-8.620702318856757196e-02 -8.629967669475119285e-02 4.450764788739371425e-01
-2.732852639946834264e-02 -9.404603324647771434e-02 4.521445222457014523e-01
-6.794084379510083316e-02 -1.128030916196464534e-01 5.077069792295170192e-01
-2.927225744900935345e-02 -3.686935662207657671e-02 4.380696247037906832e-01
-3.385208099127730297e-02 -5.807603387285379531e-02 4.364800129381615212e-01
-2.079695062980462666e-02 -5.062688790292151769e-02 4.387922295339029000e-01
-9.461021239290845486e-02 -8.530286688676746998e-02 4.600798033601740666e-01
-4.194131441507853442e-02 -8.985701416229437133e-02 4.425418210838042432e-01
-4.606027906031688601e-02 -1.162189069170920797e-01 5.169120947913380393e-01
3.961197233822677001e-03 -1.215939294148662558e-01 4.932783270816556986e-01
-3.274171591848749202e-02 -9.101852388122107229e-02 4.474613859658227999e-01
-7.033643471746968412e-02 -1.097855647287904191e-01 4.728096327939065868e-01
-8.924225305859254109e-02 -1.049752706357511695e-01 5.171605456370846898e-01
-7.884261707105369443e-02 -1.023654600340896809e-01 4.442672496085268707e-01
-5.121062385922077465e-02 -1.015699096799364126e-01 4.489857360132694652e-01
-4.146873518192428776e-02 -1.151847062176235004e-01 4.930527411420624340e-01
-2.412662779922351841e-02 -1.043814355042967934e-01 4.649225034157947745e-01
-8.542907312828340594e-02 -1.090222543009505413e-01 5.079345011692115719e-01
-1.492676388542720292e-02 -1.213496030855915203e-01 4.991408819349674730e-01
-1.045979723906368709e-02 -1.236127912785640187e-01 5.311311113027816777e-01
-3.061995379711783365e-03 -1.111880918622380615e-01 4.698472924405220352e-01
-8.431362701241777724e-02 -1.105242606976791220e-01 4.910184247473337593e-01
-8.642095959506165825e-02 -1.066454699134348066e-01 5.156618067707637865e-01
-5.718554292672400896e-02 -1.103256856502068811e-01 4.719098515214193434e-01
-9.779400628080051061e-02 -8.907799988594282403e-02 4.604163826818771232e-01
-3.206462361618842710e-02 -6.751404122535942243e-02 4.374288495646135866e-01
-1.532560715681704003e-02 -1.194967550897294839e-01 4.913435467000679124e-01
-4.144960481006024905e-02 -1.162062519842928382e-01 5.267739317177613234e-01
8.396391525320477667e-03 -1.224851290674260906e-01 4.973717585583443679e-01
-2.020349459755246477e-02 -1.188800157911898414e-01 5.419620301619955116e-01
-2.304100103387046045e-02 -5.241495138438017481e-02 4.385586821526922807e-01
-3.040838368437380479e-02 -9.678378932099672427e-02 4.540868640170935833e-01
-1.258208956242267036e-03 -9.610081894369833233e-02 4.548899754491677605e-01
-3.569151538104965108e-03 -1.252200137680522518e-01 5.307553192165754830e-01
-2.555698863877681887e-02 -1.198416750922395996e-01 5.253550702736348166e-01
-2.500420373360459463e-04 -1.183170217158502069e-01 4.834282957029399919e-01
-7.163656651003532348e-03 -1.206710353926942064e-01 4.911262920531156428e-01
-8.015323733036740228e-03 -1.158417273934786856e-01 4.783531583623095162e-01
-2.967445707432680990e-02 -1.187887242114477881e-01 5.262293946133493883e-01
-8.141166801922869456e-02 -1.093187999320026221e-01 5.117469921358158702e-01
-1.093963893562010514e-01 -1.028495357081774114e-01 4.904057366723959532e-01
-2.124755992642439473e-02 -9.490672954040399456e-02 4.532228972080444840e-01
-6.396185630342576811e-02 -1.121981016931715425e-01 4.879753235687944168e-01
-5.458370446940796761e-02 -8.060177582278567343e-02 4.263587004320691931e-01
-6.747104134686864041e-02 -1.056959682792293492e-01 4.541644584303631271e-01
-4.435260074191584717e-02 -9.475062322901720013e-02 4.451358347608131427e-01
-9.336535647758768819e-02 -1.077182134820191262e-01 4.729863899767312585e-01
-4.880638892321503136e-02 -1.137982257175654266e-01 4.899241714481661347e-01
-1.109689480657489458e-01 -1.000135894977750156e-01 4.876128874613577802e-01
-5.195260439379142253e-02 -1.106556533173120582e-01 4.747406614994729157e-01
-6.638136237917792448e-02 -9.874819321881672662e-02 4.239088904344803233e-01
-4.831744568376021565e-02 -1.123524768004388052e-01 4.830391481786363017e-01
-5.661441879607073679e-02 -1.143251598503991218e-01 5.020595564592422733e-01
-9.385615771025197784e-02 -8.503938440805750010e-02 4.590284029172982394e-01
-2.757460974223661931e-02 -5.163907941342133628e-02 4.380870287213640135e-01
-9.764568596309877724e-02 -9.634595251290785367e-02 4.566841620720890615e-01
-6.272376353812134098e-02 -6.645228556517979168e-02 4.312086758593221547e-01
-2.725544604694894735e-02 -4.210078025054100198e-02 4.385743652300465034e-01
-3.993815248967672732e-02 -8.400360630043481047e-02 4.388537529670310522e-01
-1.002408273185959042e-01 -1.046490430630197116e-01 5.071766764463603305e-01
-1.307408168995068294e-03 -1.065536274559663737e-01 4.645923678660512368e-01
-4.220170071163815290e-02 -8.854078332831655240e-02 4.412024087075454015e-01
-9.756989285041393900e-02 -1.079954836917266237e-01 4.895085337171117823e-01
-3.753548965865177028e-02 -1.058962471328610128e-01 4.659258448918062734e-01
-6.110477748913691054e-02 -6.876103996701807275e-02 4.295049899283445716e-01
-8.189077966792739083e-02 -1.082546336921403340e-01 5.160479943616027576e-01
-1.525066522959088455e-02 -6.237218280421852334e-02 4.394790047774054242e-01
-7.574797163431822022e-02 -1.088486893178104570e-01 5.215972950201572811e-01
-2.770723495529240493e-02 -6.705672324562846065e-02 4.382429154680146932e-01
-6.316830980551395303e-02 -1.081306209528221651e-01 4.639144527343284641e-01
-4.498602714926338425e-02 -1.162529780764237769e-01 5.063279779086488075e-01
-7.783191234539181547e-03 -6.743238708495923051e-02 4.409090649773933501e-01
-2.215654344155816580e-02 -1.052807762856283191e-01 4.655048963136187434e-01
-1.412130781316552758e-02 -1.233573379165856382e-01 5.198904961880874698e-01
-8.583642346142308921e-02 -1.103262263605550991e-01 4.891120689775128039e-01
-6.853530430831251963e-02 -1.105813739525498413e-01 4.766775897115150262e-01
-8.073263374703319728e-02 -1.080713981642033028e-01 4.663582746253786548e-01
-7.090503031517397803e-02 -1.120870584368601208e-01 4.952233003123774902e-01
-5.463964717901863971e-02 -5.947075449942440528e-02 4.317163459456627717e-01
-1.007388496453323484e-01 -1.067469907031326631e-01 4.987404906015077688e-01
-5.538296883700435935e-02 -6.391174115813121059e-02 4.299816183896895683e-01
-3.043824695881429745e-02 -5.539900405306753817e-02 4.369745882312851548e-01
-9.077683403572925358e-02 -1.051579414323661615e-01 4.616934019084842911e-01
-3.234202709876417975e-02 -1.174834812808824569e-01 5.333116653226201986e-01
1.940781913512296120e-03 -1.037452881906177210e-01 4.620218381238944683e-01
-8.098736911231008140e-02 -1.108557669565041759e-01 4.999805169877999389e-01
-5.374304557406338334e-02 -9.490718062484095052e-02 4.268363703527265907e-01
-8.846616620014570442e-02 -1.060293476129001156e-01 5.153274071041322735e-01
-6.124137558693064365e-02 -1.138226634670924525e-01 5.076335035408481300e-01
-9.742699272398834542e-02 -1.046909422252297467e-01 5.107147157416218608e-01
-6.013219253171556145e-02 -1.048795002526508452e-01 4.502827330711367537e-01
-3.430402085138940099e-02 -7.536979123456372109e-02 4.380550896485251866e-01
-4.405741831415804777e-02 -1.085837735407013810e-01 4.693222560973436264e-01
-3.338379550188502742e-02 -1.085026149197834966e-01 4.718534793217191159e-01
-4.144335821676321807e-02 -1.164845069659448118e-01 5.016674258582811685e-01
-5.595093080126414126e-02 -5.851381442967331509e-02 4.320106915280454429e-01
-6.776971387569775962e-02 -1.112180167213934617e-01 4.815309500415881905e-01
-4.714097701551859393e-02 -7.341326403935806433e-02 4.309305886310030309e-01
-3.128067022271990849e-02 -8.249444792983377794e-02 4.422841672751202657e-01
-2.987810498192073477e-02 -8.575762621991137036e-02 4.443920725725183929e-01
-9.021069478564515409e-02 -1.077471006342781978e-01 5.077294299152373958e-01
-6.661137719147347536e-02 -8.273106288505825689e-02 4.244843536097753223e-01
-4.385427143445482651e-02 -4.109698759440946758e-02 4.353251387092090807e-01
-1.095988169099982312e-01 -1.022058529649578357e-01 4.872458759365211334e-01
-5.840834813021452722e-03 -9.657166260592660312e-02 4.546995533131798495e-01
-5.582959840789013251e-02 -1.138994879316073683e-01 5.226824046646169064e-01
1.357871947841581169e-02 -1.259170410859741518e-01 5.189623518827813919e-01
-8.579294875147981669e-02 -1.064534451755371758e-01 5.166802268524327557e-01
-5.057400132235374823e-02 -7.337705201508079589e-02 4.288231521799650836e-01
-5.050807414459022177e-02 -1.138079378710301348e-01 5.288173386268146814e-01
-2.552398974140509050e-02 -1.048521421649277890e-01 4.658046216774359705e-01
-1.781948040008883571e-02 -1.059181988764413690e-01 4.647756020617109241e-01
-5.052322713904566082e-02 -3.132273958224102151e-02 4.378576269940699373e-01
-9.580356567259937228e-02 -9.297654160776668009e-02 4.551953805915848195e-01
-6.065200051958330452e-02 -1.091777859078021801e-01 4.684510571171617843e-01
-6.295461528681865759e-02 -1.027146595249536637e-01 4.257314061015488593e-01
-6.679891033132943912e-02 -9.844339020971062948e-02 4.237076536620448253e-01
-1.892476940564728066e-02 -1.191436336280473629e-01 4.940551943061042284e-01
-2.338939687719419121e-03 -1.181032375372299548e-01 4.826160293064785667e-01
-4.876225459106878213e-02 -1.104231789617724779e-01 4.745742361023921330e-01
-1.243094534848006999e-02 -8.210251623983878810e-02 4.453049653856660517e-01
-1.098235624228416779e-01 -1.019695158548170472e-01 4.940777969165848771e-01
9.565957398946231885e-04 -1.264630135084615081e-01 5.271172185242131158e-01
2.691422469964661977e-03 -1.268178972339189525e-01 5.249088138876656373e-01
-8.332383053185479782e-02 -1.054626517907671923e-01 4.579347168324012229e-01
-3.508997894112868277e-02 -8.413740145734398268e-02 4.418059646673981322e-01
-1.117079093751432439e-01 -9.821586015935537817e-02 4.811462794689649880e-01
-4.909378690214369345e-02 -3.526054931551538679e-02 4.374039663103780340e-01
-2.815312370543197190e-02 -1.015057220120262338e-01 4.613093804915436302e-01
-5.564182112345053555e-02 -1.048179181955295330e-01 4.531454856584655189e-01
-5.298215555823999889e-02 -6.091074819090060849e-02 4.312607538069466173e-01
-7.786133185015237101e-02 -8.688133880996290470e-02 4.309386235354722983e-01
-5.557464790231220891e-02 -1.132157180579456829e-01 4.893394961452333658e-01
-1.050442622353269378e-01 -9.188532097114270047e-02 4.691596407986331485e-01
-8.058480602579916330e-02 -1.013006993331642680e-01 4.432005671616328080e-01
-3.846666114036544071e-02 -6.736657942833298995e-02 4.350491548222000793e-01
-3.977940216909752434e-03 -1.233018276258897317e-01 5.371837402061805378e-01
-4.183872777741506205e-02 -9.165880679665486253e-02 4.442233371902150063e-01
-1.051589304150858661e-01 -9.927236011397500004e-02 4.665983567554086164e-01
-1.202158080690704858e-02 -6.437531282691848211e-02 4.400597022524379565e-01
-6.762669982322080942e-02 -1.051610428060598401e-01 4.512548041699441237e-01
-4.100177110347408282e-02 -1.155475150129506162e-01 4.945415970078208545e-01
-1.120694750958546176e-01 -9.800539245453336601e-02 4.836933988409614082e-01
-5.713801314404502035e-02 -1.142304668590514855e-01 5.013024385012730955e-01
