-5.176496865882078413e-02 -9.694681535634705472e-02 4.297710733982549325e-01
-3.859628394232219456e-02 -1.025597369258694491e-01 4.595949207769848277e-01
-8.372734032536784110e-02 -1.055554707645698781e-01 4.580016571912075563e-01
-9.560266208409748390e-02 -9.857041415899972514e-02 4.551200106942753232e-01
-7.620708374364565385e-02 -1.111798781380075596e-01 5.098875681307074581e-01
1.877378120794411659e-03 -1.265549637369275671e-01 5.153323156596869570e-01
-1.052862540998201341e-01 -1.042033108143180647e-01 4.761709976781102749e-01
-5.254148366794255537e-02 -1.135123751758202182e-01 5.281852135717909347e-01
-4.462914245697950644e-02 -3.882759380186217441e-02 4.356763430164519169e-01
-4.354274652257967421e-02 -3.102917533774067135e-02 4.358269095040339103e-01
-7.340566916819635246e-02 -1.096869563182209933e-01 4.723773319960751782e-01
-5.863819773959538101e-02 -1.112586977765776114e-01 4.768396559398841994e-01
-1.111299561092757380e-03 -1.207650848738776872e-01 4.901619342536169821e-01
-4.719975488495046362e-02 -1.161043429274421779e-01 5.120361959041018762e-01
2.390062882870924894e-03 -1.167201457049914098e-01 4.799304612657449010e-01
-2.429189975796046744e-02 -9.819179715041208290e-02 4.571371880783990926e-01
-4.960140030756021723e-02 -8.472240259286903385e-02 4.298620755724720244e-01
-3.338632124043621092e-03 -9.742830044230298137e-02 4.558823739934794728e-01
-7.992259958933997654e-02 -1.112138086424699773e-01 4.928571062427486993e-01
-6.054897380839827786e-02 -8.963096559973643407e-02 4.234604866230392006e-01
-6.176480898892858923e-02 -1.113100110023949041e-01 5.281164191922209650e-01
-2.164261979839489369e-02 -6.201924684321595549e-02 4.388810678219241534e-01
-1.944758638100107725e-02 -6.644085511003319788e-02 4.398628338972873641e-01
-1.728019414199698928e-02 -1.211806475897308638e-01 5.017859269146839329e-01
-9.223417380577536573e-02 -8.489987818012403875e-02 4.570650327962514914e-01
-2.575953076218085239e-02 -1.197213741026556810e-01 5.264918135431719826e-01
-1.005769476782319982e-01 -1.058824237781142430e-01 5.039154613968487295e-01
-2.537631602863216641e-03 -1.227102621732776705e-01 4.965140421296893591e-01
-3.551912822631620326e-03 -1.116780562464603360e-01 4.706403111161949204e-01
-9.534118987503913123e-02 -9.094985732648579180e-02 4.558517065321122108e-01
-7.700490499141712797e-02 -8.512651176161969979e-02 4.318558651818946714e-01
-3.325230230934159148e-02 -1.186400758571513059e-01 5.175463744911352748e-01
-6.234818692867374890e-02 -9.339186512852325206e-02 4.233634912699336117e-01
-9.698596416718818780e-02 -8.585758277942077965e-02 4.640765200561809412e-01
-3.817752598055595276e-02 -1.141005408316804332e-01 4.878515529657470595e-01
-1.049860908864597292e-01 -1.026845876037453670e-01 4.704871748585986446e-01
-9.307747798887236468e-02 -1.047531432856896177e-01 4.620531376086326469e-01
-5.188252350309259520e-02 -9.020667380737591723e-02 4.283326266877702793e-01
-4.002379901634021270e-02 -1.172850091868679473e-01 5.090145027813195444e-01
-3.315532826244630814e-03 -1.194977352368227497e-01 4.862866287835790891e-01
-9.460969040259017970e-03 -1.042833111106575145e-01 4.613816519657663595e-01
-9.422350895945480476e-02 -1.090143404570671076e-01 4.922850418533341599e-01
-6.342115290087160795e-02 -1.114859936847258370e-01 4.792857899050686488e-01
-7.180194288580313278e-02 -1.100686600333097426e-01 4.742359766173235291e-01
-4.340265575007190568e-03 -1.213286332188347055e-01 4.922591944048647083e-01
-6.594030664197834957e-02 -1.130685827039723118e-01 5.134644902252430976e-01
-1.052091154511106130e-01 -9.605286875691197712e-02 4.660720666812181445e-01
-5.545240941480257535e-02 -6.199397701831697166e-02 4.309302785117488654e-01
-3.500225391282209969e-02 -9.391588134910797137e-02 4.493972707663692612e-01
-8.842877081418679119e-02 -1.095292811710379538e-01 4.777415114932962448e-01
-3.568602399023233090e-02 -9.103075857074773014e-02 4.466813246698083661e-01
-9.807898585506318045e-02 -8.806454028520344091e-02 4.628371157848540363e-01
-8.265650330574018934e-03 -1.243421181131587755e-01 5.086912052281982177e-01
-7.399267125946094870e-02 -1.037881244336346376e-01 4.447039125394385839e-01
-8.471343954032295454e-02 -1.035321861953579919e-01 4.527197519359870692e-01
-8.514605978760934890e-03 -5.737424610554791443e-02 4.386576485970608008e-01
-3.834107114148140039e-02 -5.333949617353649086e-02 4.354414780423450093e-01
-1.292349586265760693e-03 -1.088999593146485062e-01 4.671651364701229769e-01
-3.740381289702100071e-03 -9.275411843416235536e-02 4.521787462794615298e-01
-1.002461212111202676e-01 -1.074736560049227851e-01 4.940616884352949656e-01
-3.887247542892410118e-02 -1.175552717820749632e-01 5.176673031213292475e-01
-1.231135634237381406e-02 -1.232448264344061239e-01 5.289844577372120327e-01
-4.805897207099657509e-02 -2.782278076119648266e-02 4.369927494930681000e-01
-4.330116060681059309e-02 -7.477480788890018826e-02 4.338030174356714563e-01
-5.683609141905388018e-02 -6.111941095210617764e-02 4.318581288876906510e-01
-9.187711697649587894e-02 -1.044471991173397674e-01 4.602824515401248151e-01
-2.254070241422923351e-02 -1.197794849450562610e-01 5.340007922123426454e-01
-4.952172133055146586e-02 -2.754066332784024101e-02 4.374942698091284221e-01
6.962784216522637133e-03 -1.262449724315606037e-01 5.135184553016854947e-01
1.302808065852311369e-03 -1.180183805378456352e-01 4.828486794127659909e-01
-2.868794944234992136e-02 -9.416741592027966234e-02 4.519458303087369733e-01
-4.470778907550993636e-02 -1.136143422844035633e-01 4.878972344438505804e-01
-3.880129119196222554e-02 -8.065374827478431763e-02 4.380849096157219957e-01
-1.279775245349375895e-02 -1.226483504833489196e-01 5.333094062334020613e-01
-7.514829411153167715e-02 -1.038431632719289260e-01 4.456536675751042731e-01
-7.938049150592459483e-03 -1.132276161452417940e-01 4.735868410584614940e-01
-2.534405013373637258e-02 -1.198718176809183827e-01 5.046801274243385427e-01
-8.742453500274212363e-02 -1.065606195559867797e-01 4.633303452100551723e-01
-2.956113406920747241e-02 -5.455850108797913323e-02 4.374438169406751342e-01
-6.633649953032882962e-02 -1.125176486773745432e-01 5.176289284936596014e-01
-2.205474463070326852e-02 -1.166005674047481538e-01 4.890103940113156855e-01
-4.182252968310123942e-02 -1.156020098755643488e-01 5.303708269208057269e-01
-6.269330278421716279e-03 -1.250468699996534205e-01 5.262355018754762970e-01
-5.075314373942001883e-02 -9.824295096322203935e-02 4.389909508915883496e-01
-1.649311169677915301e-02 -1.215128606954692103e-01 5.026231679956899567e-01
-2.165108151573739981e-02 -6.039055030418150755e-02 4.387182696855997932e-01
-2.142385227028842376e-02 -9.237120600660793379e-02 4.506884408415603449e-01
-2.370342760266829635e-02 -5.622607493989211641e-02 4.381680646435080484e-01
-6.844587238596183676e-02 -1.105157146073537100e-01 5.240740777924286498e-01
-9.295851527940600378e-02 -1.092947343509799857e-01 4.913549327418469392e-01
8.906882803679252135e-04 -1.102846642263643345e-01 4.688810149113120107e-01
8.895602497821430629e-04 -8.575443243638690427e-02 4.487237609419500450e-01
-1.048907577982318429e-01 -9.838936071514008119e-02 4.656661271044192918e-01
-7.897898056089652785e-02 -9.448954389150175659e-02 4.300295427732001574e-01
-1.688637289928167709e-02 -1.218582743067760099e-01 5.055086870441161118e-01
-7.827706801798818559e-02 -1.112750036017379207e-01 4.899817231121407213e-01
-9.915145785103329779e-02 -1.056930307205722064e-01 4.706045931202699761e-01
-3.369388613345159628e-02 -8.839589007942712240e-02 4.451621360239907399e-01
-5.716356473925508080e-02 -1.122617028890410540e-01 5.291961463939913735e-01
-3.321878254291810856e-02 -1.164533658198964039e-01 5.379258254813444884e-01
-4.160185348002531924e-02 -6.573402654450072324e-02 4.337717142182992980e-01
-6.393977672204138873e-02 -1.116187328975037502e-01 4.812469135969281719e-01
-1.936523233025146465e-02 -1.215917139914949596e-01 5.072952305939365525e-01
-3.427994148256946483e-02 -1.142425323463299031e-01 4.864885796878103963e-01
-5.370507382519436324e-02 -1.131812778897448024e-01 4.874718563023872075e-01
-1.746290850772452483e-02 -1.202174998220608554e-01 4.967812793516213077e-01
-9.525953662262394428e-03 -1.107590229932439441e-01 4.698906362149393168e-01
-3.714917480860136650e-02 -6.267180497947830164e-02 4.356312370736102335e-01
1.962317049210873104e-03 -1.112641859149655355e-01 4.705446032636109166e-01
-4.718185141507452197e-03 -8.476939760954411984e-02 4.476811063542007751e-01
-8.635705975796337253e-02 -1.055570836250002559e-01 5.190977328078005826e-01
-7.001934107354587655e-02 -1.041647678352204537e-01 4.433392389782579435e-01
-7.161885427188002806e-02 -1.117038442223546035e-01 4.880353250459586456e-01
-1.415539680289167913e-02 -8.978004959160383602e-02 4.487015330227592802e-01
-1.506913499832028547e-02 -8.770744096132190859e-02 4.475195281012142035e-01
-6.575231827688095276e-02 -1.115042539835883473e-01 5.231028738620854268e-01
-6.906729230802882702e-02 -9.456634760797202888e-02 4.225769731233561810e-01
2.812284234586343371e-03 -1.115515351914455333e-01 4.711686926395279307e-01
-1.656364415924941116e-02 -1.202585625658770807e-01 5.407635440185633025e-01
-5.338464525720174048e-02 -9.597826867463031542e-02 4.275103360915538109e-01
-7.393841753845564746e-02 -1.115364142867196762e-01 4.883238970413104063e-01
-3.623656054624595051e-03 -8.425511525615016206e-02 4.476437367403448553e-01
-9.506014250860574111e-02 -1.084630089722730395e-01 4.790913500775327294e-01
-7.781016829655180468e-03 -6.475471104120249233e-02 4.401625785095611976e-01
-1.060579057609229436e-01 -1.023154435911316079e-01 4.726187304906912523e-01
-1.812284476555173218e-02 -5.581677759726039190e-02 4.386561828952985076e-01
-5.854420149850161903e-02 -1.039850971868204188e-01 4.475206359463021477e-01
-9.089567772494994841e-03 -1.095963586362825037e-01 4.680768397201314768e-01
-6.251688030297446186e-02 -1.061178822376963732e-01 4.549264485565389093e-01
-7.796251921268013141e-02 -9.122957230028892750e-02 4.299739860517297618e-01
-1.287697452352448008e-02 -1.197256419039306186e-01 4.903999896915914869e-01
-4.822438272654654134e-02 -1.108666224357813673e-01 4.762057299581434755e-01
-4.738229991903325500e-02 -9.484243346104659356e-02 4.418494849798541013e-01
-1.146259714444778158e-02 -1.241453205293512885e-01 5.180077572934534968e-01
-5.694082005393431845e-02 -1.064102698295998350e-01 4.584741851046587602e-01
-1.646547491558053231e-02 -5.976374966069827183e-02 4.391578139109272860e-01
-9.562574237923135434e-02 -1.086058343766584389e-01 4.860318766532026324e-01
-5.546088538932727324e-02 -1.148429911061565611e-01 5.118132919673785697e-01
-2.108738183148098702e-02 -7.891734299175326428e-02 4.428324141528438562e-01
-6.877107769311081864e-02 -1.122046191109792174e-01 5.151474089135580359e-01
-8.203299568276316289e-02 -1.104606709327611985e-01 4.801880036826454701e-01
-6.606921407698913840e-02 -8.481683363963801736e-02 4.235357751415109173e-01
-5.410261615574353533e-02 -2.954882010454752683e-02 4.451292789365824398e-01
-1.098778718482143202e-01 -1.017483119454958007e-01 4.989779793708095657e-01
-9.656597735349015110e-02 -1.055138634261700015e-01 5.100133171827760936e-01
-6.448111346129985211e-02 -7.882723608160412121e-02 4.270879866714465400e-01
-4.125393601946833466e-02 -4.001304874105870990e-02 4.353525478388536873e-01
-1.415966691592410870e-02 -6.972380526798996336e-02 4.411381659446851344e-01
-5.161397137163249021e-02 -1.122042041983998262e-01 5.333849407488696626e-01
-2.964213416885680061e-02 -6.561041153511903978e-02 4.378171255809957807e-01
-4.775375792669873248e-02 -1.057641412693015315e-01 4.607460200559571617e-01
-6.073921150465966257e-02 -1.077274206359236236e-01 4.615520802472929396e-01
-2.849191482909823117e-02 -6.241620189638652505e-02 4.377383928065940455e-01
-2.294580260674288288e-02 -8.258736882205339191e-02 4.441926964904987507e-01
-6.420332416340099324e-02 -1.038807979340805182e-01 4.337879686262630652e-01
-3.343279728154310154e-02 -1.173125932085748169e-01 5.326693502898683930e-01
-7.527742836550181671e-02 -1.064188003683127909e-01 4.579096937883557761e-01
-1.644026328540617102e-02 -1.154076781352178921e-01 4.821971435522238725e-01
-2.609861354167519742e-03 -1.071449450034825668e-01 4.651281404930181496e-01
-6.221923877268162317e-02 -1.121232048927279651e-01 4.849712003234984414e-01
-3.466374965077956283e-02 -1.183623328546379722e-01 5.182769100120265815e-01
-3.756617613031966452e-02 -1.146490477522684459e-01 4.894415531005636422e-01
-1.908320218751278011e-02 -1.180466894628966479e-01 5.460822193362232513e-01
-4.584934194654367162e-02 -1.043851573702424818e-01 4.583021353117122110e-01
-2.343064503679278751e-02 -8.294820142550402009e-02 4.442856517856272891e-01
-4.409663297536427912e-02 -1.112080631066897363e-01 4.789258894294745050e-01
-3.273458812378805816e-02 -1.187478233901134300e-01 5.168921350093965694e-01
2.261314326076630486e-03 -9.818125788323113501e-02 4.571163631591857457e-01
-5.852393704920378498e-02 -8.785054071408285314e-02 4.243921042253760989e-01
-7.426621840339521496e-02 -1.119033896351251389e-01 5.060722769202830040e-01
-3.717703473520054397e-02 -1.052045102055612635e-01 4.648208933981244906e-01
-2.161226435550478095e-02 -1.212351319439327196e-01 5.204404968970404166e-01
-8.932174947696169820e-02 -1.078880278551711397e-01 4.696289014752522695e-01
-2.857774757615941935e-02 -1.170957490884409341e-01 5.404676637473107004e-01
-2.734545416880347982e-02 -8.997125775634939870e-02 4.479600828918948174e-01
-5.405922182465656284e-02 -1.137140605400625837e-01 5.255655089669407642e-01
-5.329804265835821897e-02 -2.892707097745409600e-02 4.409262966812472206e-01
-1.056416753340257697e-01 -1.057211894188021528e-01 4.950542317435434603e-01
-2.321410593375928047e-02 -1.205942175994333121e-01 5.236721908044721374e-01
-1.373525245467172376e-02 -1.174056808047420214e-01 4.846791368690784307e-01
-4.326634333352538664e-02 -1.154390973229581785e-01 4.947260820143917770e-01
-1.686670142965794941e-03 -9.284138175342207533e-02 4.524499924982387511e-01
-7.784042317822374712e-02 -1.112366992056222220e-01 4.880213406034625834e-01
-6.807987792615366462e-02 -1.047384175215863023e-01 4.467462535413412872e-01
-7.423358448900292672e-02 -1.113429109958820884e-01 4.850807607294740365e-01
-1.062245954932852510e-01 -1.052741759213916967e-01 4.870147727839819196e-01
-6.948717401048584708e-02 -1.126188985410845195e-01 5.000365508795210356e-01
7.251945044978874884e-03 -1.248823506161295949e-01 5.059975616806536847e-01
-2.217931766607488323e-02 -1.177497196314300915e-01 4.928098823994292998e-01
-4.454188734536534966e-02 -1.142490510252527208e-01 4.903095262899564988e-01
-1.993798524298711489e-02 -1.108177231575096927e-01 4.742911998908728721e-01
-3.298880575072456883e-02 -1.076549935884470871e-01 4.699882527612504468e-01
-7.473411642269821298e-02 -1.106918713332576687e-01 4.785834484787025445e-01
-3.497733628593346217e-02 -1.146155283775743133e-01 4.880316687900989048e-01
-4.260297285701199893e-02 -7.605812007457339596e-02 4.343387879454942424e-01
-1.083339632947934728e-01 -1.036947872134368620e-01 4.883692350822422257e-01
-8.815210765216735522e-02 -1.058948537343562812e-01 4.612305353380888873e-01
-1.193669257779965062e-02 -5.800093508995895347e-02 4.388850280132085002e-01
-6.351559468818632204e-02 -9.622852153627649285e-02 4.238340517866982515e-01
-4.792057858758003164e-02 -3.561055341265512847e-02 4.366892427021333845e-01
-1.871907496888204105e-03 -1.233333066770113950e-01 4.985056111243521548e-01
1.799748513203469624e-04 -1.260280131066960629e-01 5.300533905957941494e-01
-6.174659016297380509e-02 -8.927479412581343365e-02 4.232619719277251891e-01
2.779114450795438368e-03 -1.214081347248841813e-01 4.923202716953857805e-01
-5.832623814713697868e-02 -1.126798862533987672e-01 4.863438190783953008e-01
-5.152368819966934854e-02 -6.879561340521413160e-02 4.292941765891668537e-01
-4.678069684104457782e-02 -1.112588254781493174e-01 4.785650704947867484e-01
-2.094581725778316486e-02 -1.004756641120541916e-01 4.595075466189478264e-01
-3.318722464088781632e-02 -1.148883765793575346e-01 5.438402119776222232e-01
-1.070086836149825721e-01 -1.042874775471522020e-01 4.841898736254706126e-01
-5.807356470079359789e-02 -9.565403699593931497e-02 4.241240438926975886e-01
-2.250419685575529970e-03 -8.390973689167201266e-02 4.476330247836687870e-01
8.026302212671510092e-04 -8.270935412515759144e-02 4.473113644667314759e-01
-2.289340632687486901e-02 -1.197830877506091962e-01 5.008278131034861191e-01
-5.494708131615599206e-02 -5.236415443068534459e-02 4.348241835095505992e-01
-3.153511328937708136e-02 -9.709556584321345218e-02 4.539719944579547750e-01
-4.432972499640871339e-02 -4.488445764652684855e-02 4.351472577645860706e-01
-5.121457175179584820e-02 -3.196594454278120501e-02 4.385223450410289381e-01
-6.152814939647216486e-02 -1.082625302915911081e-01 4.636909437356473984e-01
-6.199981773710633304e-02 -1.074540260935975683e-01 4.603444619862867015e-01
-6.046343910195147581e-03 -1.250094694230796388e-01 5.273858949178475974e-01
-2.505493507984562010e-02 -9.459890173675813974e-02 4.532264204470141111e-01
-1.375176288088576781e-02 -6.528672809560485957e-02 4.402138390620770059e-01
-6.122921033302131805e-02 -8.693703447831112319e-02 4.240334074042831913e-01
-2.612373809301990826e-02 -9.766422125390961106e-02 4.565187593254566023e-01
-1.096713859468792102e-01 -1.020305277173832043e-01 4.976843147893755814e-01
-1.561427743307020055e-02 -1.063494918672520106e-01 4.646383966164430168e-01
-2.899643346952018169e-02 -1.179285562609090204e-01 4.975462215775474650e-01
-7.400702461134184285e-02 -9.659817213371939271e-02 4.271229361060874252e-01
-9.528836361333095639e-02 -1.087036875628566573e-01 4.868447843688853971e-01
-5.986243927103888224e-02 -6.476343504837911436e-02 4.318725164528547378e-01
-8.012170941891967602e-02 -1.103103524098129895e-01 4.776631768675289047e-01
-5.765410226587958098e-02 -6.694099185154754605e-02 4.301319467747401482e-01
1.459678022438291086e-03 -1.170376301440006761e-01 4.805015105999921321e-01
-1.030179918712296333e-02 -8.324495460273166614e-02 4.461309865109904238e-01
-1.724640922086125711e-02 -9.592988422608410282e-02 4.538508173822416447e-01
-4.946316717327112200e-02 -1.021382919891390406e-01 4.512989327147008400e-01
-3.067367315340151224e-02 -1.179442979349056564e-01 5.328089953714132410e-01
-4.878236678119822478e-02 -1.153200039495079210e-01 4.989107876583090961e-01
-3.014913220671574471e-03 -9.588850325936462693e-02 4.545759238710525008e-01
-1.418230652318181600e-02 -1.029971589470466409e-01 4.604878747217960311e-01
-6.225600685186024469e-02 -7.139113938285913952e-02 4.286031323738788701e-01
-6.355940244689702034e-02 -8.311126012334017765e-02 4.246258499767550654e-01
-3.112630789789635685e-02 -8.580882996717495437e-02 4.440805002460234685e-01
-1.094876784329252978e-01 -1.025362013979834314e-01 4.935553459716790492e-01
-9.684284154194773564e-02 -1.083392104118338639e-01 4.886854511782477983e-01
-6.118121759626460321e-02 -9.697460110570474412e-02 4.245905116328889672e-01
-2.322007364471880345e-02 -9.372304499882910811e-02 4.523128879879774189e-01
-1.030264935186595704e-01 -8.856435741507220905e-02 4.703471228466167831e-01
6.838648069040612759e-03 -1.268535948035028060e-01 5.224758347851957696e-01
-6.851501187349930133e-02 -1.072560481656805453e-01 4.601820875483083051e-01
-1.793644394661223634e-02 -9.597466174943086736e-02 4.539874710836453997e-01
-2.141358791388354652e-02 -1.208655907985188155e-01 5.262800522355174371e-01
-9.297220435438836861e-02 -1.051857679025338388e-01 5.140900412659653584e-01
-3.269042831993593939e-02 -1.177999426402250027e-01 5.294858369524022557e-01
-9.687372973068882065e-02 -1.083461435589233024e-01 4.948111382919504475e-01
-5.426450540204244555e-02 -1.028026692698421618e-01 4.484782420826514682e-01
-2.214646609187986490e-02 -4.938708937270459148e-02 4.389888338224650632e-01
-9.761331511280987860e-02 -1.080718703303057693e-01 4.837225169146276982e-01
-7.638688696446792326e-02 -1.069557668529902555e-01 5.266568561048401431e-01
-6.093237624157200188e-02 -1.137969613749062470e-01 5.159629426060191593e-01
-4.287640706603269153e-02 -1.026288173555811867e-01 4.569825914735449190e-01
-5.127152193938889352e-02 -9.784457874285890089e-02 4.361832378420590905e-01
-4.488769228675024148e-02 -7.149665194165907844e-02 4.325400966448412765e-01
-6.429983669209368702e-02 -1.030816045067201314e-01 4.286703941708770449e-01
-8.520913300912839883e-02 -1.075834256488952395e-01 4.658329150675025732e-01
-5.626385278876360613e-02 -6.398492181265806600e-02 4.303121504259634911e-01
-9.112996087275085366e-02 -1.069029895438341343e-01 4.674693637332086316e-01
-7.698516404941428692e-02 -1.031107375250654712e-01 4.437287259901854797e-01
-8.448097968400453128e-02 -9.659578284407675797e-02 4.427177464385322336e-01
-4.966042563513058811e-02 -1.141650103870282956e-01 5.285023050179521453e-01
-4.951389917236798804e-02 -8.198765849586248100e-02 4.297832483967553574e-01
-4.753028811221347155e-02 -1.159584860234421366e-01 5.076648959390859250e-01
-8.482104497556809675e-02 -1.052207289359702036e-01 4.574522978369130466e-01
-5.577823784438572935e-02 -1.135333767161311735e-01 5.248931627464878957e-01
-9.898258194527024753e-03 -8.369075057203138879e-02 4.463810951062681665e-01
-1.975709021846451877e-02 -8.952598981721163196e-02 4.481029245657035531e-01
6.922043405104372910e-03 -1.226275745867471401e-01 4.972979580165973745e-01
-8.947903226665469834e-02 -1.097440513276920909e-01 4.976517090538898902e-01
-2.206519627164292216e-02 -9.437289805882709270e-02 4.528533143743104783e-01
-6.396667878219661207e-02 -1.069297587359138435e-01 4.583048540391700953e-01
-4.487694590685484958e-02 -8.225739814585970866e-02 4.335695935812343693e-01
-5.218711165356744452e-02 -8.469244372900229523e-02 4.278528383598763085e-01
-1.022542558378880181e-02 -6.681526597941415957e-02 4.407675360812512988e-01
-5.768628601424875824e-02 -8.281269235701622933e-02 4.253444713897480689e-01
-7.710131513410619850e-03 -1.250254249027951681e-01 5.199353954632334185e-01
-9.201649594035038460e-02 -8.332737298814189841e-02 4.583621885866043799e-01
-6.114519153607368002e-02 -1.139664182452346380e-01 5.101599469776761930e-01
-5.304498591966097520e-02 -8.058858056301514139e-02 4.271663237033844207e-01
4.185277239229463764e-03 -1.235353060047312823e-01 4.994237456230722905e-01
1.776349869594944430e-03 -1.250520264582421215e-01 5.046637870091638112e-01
-2.511703866271407931e-02 -1.150602291854800757e-01 4.862258648944954853e-01
-5.027585619136312745e-02 -1.084185577007305556e-01 4.660671922992682958e-01
-2.334082818147196689e-02 -1.206704001446829849e-01 5.075967733507655844e-01
-1.738483338834671474e-02 -1.127478609978563862e-01 4.767820645644335609e-01
-8.126359055459911329e-02 -1.015958849382414403e-01 4.450699978884660180e-01
-4.021502901147210041e-02 -7.030998346041349156e-02 4.344774680454322469e-01
-4.554086037225352213e-02 -5.894159378013277134e-02 4.328321953533142419e-01
-2.357714595736554522e-02 -1.135808281997724711e-01 4.812520064011848731e-01
-6.164599061242202055e-02 -1.077003124659526717e-01 4.612134556867709123e-01
-4.191993265785125961e-02 -9.577812227701271164e-02 4.478329842187854237e-01
-5.168180058036750402e-03 -8.001841822409373750e-02 4.456125859623662477e-01
-4.293324706031328292e-02 -1.145699773039730723e-01 4.910114402347360851e-01
1.619677384600312457e-05 -1.073020275161309656e-01 4.655782930839064693e-01
-1.060226689041252335e-01 -9.885134659902496124e-02 4.685613150164968377e-01
-2.820904779261357992e-02 -7.027646362548574388e-02 4.387320492088017110e-01
-4.754281740809841034e-02 -1.131417728677100998e-01 4.867348518551095071e-01
-5.115362476829038441e-02 -1.137999014097842987e-01 4.899046552872472482e-01
-1.591733963041083028e-02 -5.405254661694772200e-02 4.388962157394374342e-01
-4.434657500768694749e-02 -1.165767321814815544e-01 5.137870570417720772e-01
-2.975618964925885734e-02 -1.161716481882965474e-01 5.428353044070918232e-01
-1.507105076115408844e-02 -7.241119210062720024e-02 4.416070942250119313e-01
-3.465252644019006789e-02 -9.203460889101176823e-02 4.478722560988853685e-01
-9.844499137460131430e-03 -1.228941630449244954e-01 5.010427078988560767e-01
-4.298460915836285756e-02 -6.346237871648620354e-02 4.333259197936328300e-01
-9.191492540538994532e-03 -1.119253498519028334e-01 4.716183258225987163e-01
-6.240026461328137229e-03 -7.287614947471027227e-02 4.427926381984771398e-01
-6.523222517166828160e-02 -1.129458998429043320e-01 4.961690866677916922e-01
-2.759553230181948161e-02 -3.693456227621115529e-02 4.385007418973609350e-01
-3.985672596926249922e-02 -1.173861743702997312e-01 5.145127398726538903e-01
-1.005968327460349115e-01 -1.041736639408173265e-01 5.085706842932586902e-01
-6.095020616054595830e-02 -1.033747290118962880e-01 4.392975574711409648e-01
-6.686508510945846084e-02 -1.103935798870203100e-01 4.741010283223931476e-01
-2.219733283384883391e-02 -8.644643649548260089e-02 4.461374928589196820e-01
-1.550690345350751002e-02 -7.076922733829885126e-02 4.412026971778564843e-01
-5.024000847067500858e-02 -2.735910000650805876e-02 4.377463578628994489e-01
-5.304378684582250481e-02 -9.311138857606092445e-02 4.274224928107581700e-01
-6.040497681277505471e-02 -1.029465544903067076e-01 4.264277359011824919e-01
-1.109582512158873747e-02 -1.235666442307859908e-01 5.293508346211650561e-01
-8.142898341077353663e-02 -1.074733032095846058e-01 4.637415928746681515e-01
-2.136143682363039059e-02 -1.167877593684988752e-01 5.481516307398670573e-01
-3.971121281565164612e-02 -9.918691128470724649e-02 4.533798970399042227e-01
7.395264250365438802e-03 -1.239639796730745841e-01 5.020652523828523783e-01
-1.852212505002630641e-02 -5.651220735251089727e-02 4.386381980399588487e-01
-3.647561942132847984e-02 -4.476462925093584178e-02 4.359950316779407364e-01
-1.310773189719374905e-02 -1.202149018100098776e-01 5.437638908312112385e-01
-1.181271083023336180e-02 -9.117029260513657973e-02 4.498440385517958884e-01
-4.121583827537828731e-02 -1.168048594773111321e-01 5.037228946214913350e-01
-4.382684987017935324e-02 -1.002278342692628776e-01 4.521564098253602615e-01
-7.891063279533643005e-03 -6.430983708185311620e-02 4.400310383298347006e-01
-9.028667801467978038e-02 -1.098435781655955484e-01 4.928670367564428889e-01
-3.662072038771040094e-02 -1.173076827113564979e-01 5.269949432704528203e-01
-5.371331515459250999e-02 -1.024915251918292747e-01 4.482103985908033050e-01
-3.642163844870432293e-02 -1.177142308599439802e-01 5.228663229489872721e-01
-6.452638274120590933e-02 -1.114841866196713827e-01 4.802144506046209238e-01
-2.849704737427300599e-02 -7.941545434240598889e-02 4.416151402797257042e-01
-9.077121250749554948e-02 -1.089047286875616527e-01 4.752860194265881022e-01
7.496925006591024371e-04 -8.535306571335729564e-02 4.485077875167685635e-01
1.051793564675152859e-03 -9.696685118914658008e-02 4.559119334297944692e-01
-6.625604432945239597e-02 -1.131239729604117950e-01 5.123514697385221917e-01
-5.385091834679431311e-02 -3.589695008333657761e-02 4.407772612373550003e-01
-7.756001763855682740e-02 -1.075903697133920173e-01 4.630947157921030954e-01
-3.946261196003531674e-02 -7.763101950918395444e-02 4.362876961520960051e-01
-9.633791362477715781e-02 -1.080540472940845070e-01 5.002419613079239769e-01
-4.765146840489129648e-02 -1.097028254145644144e-01 4.716180972382688075e-01
-6.725281286580420126e-02 -1.127535520947199194e-01 4.968717493949633690e-01
-7.977017366064767523e-02 -1.078115748339543156e-01 4.645545729159105131e-01
-3.269745294580157086e-02 -1.176211318313656884e-01 5.312952564092114915e-01
-5.237961037416962590e-02 -1.152108608103260823e-01 5.164830974532833574e-01
-1.089450710714471304e-01 -9.582112653795424317e-02 4.747997661901889321e-01
-4.531194964110273060e-02 -1.164231670499299848e-01 5.116833155133516664e-01
-3.741821431705838474e-02 -6.434100361105986321e-02 4.355111794892483901e-01
-5.824224515863359736e-02 -1.037228098457485537e-01 4.466388920915726479e-01
-5.735801033324521014e-02 -1.123610843426556816e-01 4.842419234073085943e-01
-6.962301651908972717e-03 -1.243921519682580357e-01 5.311782998348182350e-01
-3.455684830993684814e-02 -1.031753593369682392e-01 4.622897832430465370e-01
-4.376083001674324624e-02 -8.853870193291218937e-02 4.387894364375393708e-01
-3.810384565006225827e-02 -7.486551360042383030e-02 4.359593443825120485e-01
-1.128821913553955045e-02 -1.161141455959223273e-01 4.802288804545611911e-01
-5.758206570261769491e-02 -1.038955496766765935e-01 4.478933580972396244e-01
-9.138259737856668785e-02 -8.862613117633437454e-02 4.518514277891778064e-01
-3.594600859925362740e-02 -1.069143015015360937e-01 4.681421800774523412e-01
-2.012520242466488141e-05 -1.252736540237864016e-01 5.336850191998887549e-01
-2.931808454277020151e-02 -9.987252777600857945e-02 4.587545462272702435e-01
-1.061594521939433072e-01 -9.330454017176942338e-02 4.700327640346703695e-01
-1.007212679101204128e-02 -1.209449722948114925e-01 4.929973126472562139e-01
-7.971193663234973914e-02 -1.064822645105019672e-01 4.594856788381009860e-01
-9.675043076025566235e-02 -1.012408090178815723e-01 4.581624015411857598e-01
-9.335143290236733171e-02 -9.649182979543970140e-02 4.522270695976341459e-01
6.135131100582307505e-04 -1.208615859010384180e-01 4.905222341893548110e-01
-2.567757141033485957e-02 -1.192989619630988457e-01 5.012048286512431616e-01
-2.237522036959032137e-02 -8.945845035652945365e-02 4.480980774761003094e-01
-3.187653137773459322e-02 -5.754541017004161790e-02 4.368573182987570691e-01
-4.701646468195044143e-02 -8.407449558180768445e-02 4.317927479895283249e-01
-4.606307574937792970e-02 -8.875724453900704636e-02 4.350724525653980601e-01
-1.495575402959309526e-02 -8.390737532362244067e-02 4.457790005634210684e-01
-8.851109438194414147e-02 -1.056255174209622394e-01 4.607206404267742417e-01
-8.712368522760656486e-02 -1.093221883403094619e-01 4.745316786051981817e-01
-7.900762778500089456e-02 -9.818276859685590163e-02 4.349116178875333527e-01
-9.148541488497710650e-02 -1.093136066836445236e-01 4.990141173278837550e-01
-8.765565047820535194e-02 -1.094756209813281395e-01 4.762298471414410095e-01
-8.642903046717133331e-02 -1.103330453220210672e-01 4.857267987815859778e-01
-8.807773057442058739e-02 -9.559378216073007029e-02 4.455317987394827317e-01
-4.196824483721493804e-02 -1.169904435916737928e-01 5.130167817859665469e-01
-9.180193433776571987e-02 -8.831013312445189223e-02 4.530063953823590950e-01
-3.885716346068247840e-02 -1.173986907295278825e-01 5.205426497475286185e-01
-1.835719616138640001e-02 -1.209713092059889472e-01 5.337695944724573094e-01
-2.277212432596748687e-02 -5.653100670242559161e-02 4.382423607590425485e-01
-4.024288066457265556e-02 -9.932389700634670915e-02 4.532574985944308743e-01
4.037020537122473773e-03 -1.246387780803468737e-01 5.032306365428502737e-01
-8.114381643850072934e-02 -1.082940364679112616e-01 4.668063990908815630e-01
-1.752937258424024439e-02 -8.486139073171741765e-02 4.458884123140585687e-01
-5.334554792873371504e-02 -8.348666340237273498e-02 4.268757673332605473e-01
-1.959733752280621091e-02 -1.114954402832547958e-01 4.754917040445046372e-01
-6.511905178386626775e-03 -1.254043666715063676e-01 5.169841502362282348e-01
-8.681608127562392974e-02 -1.044225497292317756e-01 5.216610178650741281e-01
-3.709714833047121629e-02 -1.102148484878233553e-01 4.755061464007429017e-01
-8.556643348799100601e-02 -9.876030518346937126e-02 4.450080972058850226e-01
-2.775995315802264052e-02 -8.372623386989880290e-02 4.438608332987712402e-01
-3.161358488809390063e-06 -1.260810174364988268e-01 5.117209604663274236e-01
-6.034963949909711439e-02 -1.139665924143070663e-01 5.153777878086953645e-01
-1.046975385315798285e-01 -9.903937302699257483e-02 4.655895303363258853e-01
-4.933870271708883093e-02 -3.333655288526090471e-02 4.373736497306627280e-01
-2.530667607872321909e-02 -1.200693693425917419e-01 5.236493551966837634e-01
-5.452702757034581793e-02 -1.093239785006109577e-01 4.682439836791567611e-01
-1.003948028101633583e-01 -1.074340756767418747e-01 4.884378122093264718e-01
-3.742427959689206829e-02 -7.853138879860299681e-02 4.379884883937936180e-01
-4.797739413737057285e-02 -8.888287296830539586e-02 4.321487985448116964e-01
-1.250803202959880484e-02 -9.364943009912715666e-02 4.513848416354521165e-01
-1.852166380347499558e-02 -5.003561025285030439e-02 4.389318424293139342e-01
-7.242908037181898517e-02 -1.082228183221178169e-01 5.270965516018214503e-01
-5.417604132068492423e-02 -3.487233528300480445e-02 4.428165595614629302e-01
-2.471659831755096751e-02 -7.473919915015399262e-02 4.406043572665885866e-01
-3.850833472433778243e-02 -6.520287296829457846e-02 4.351761196637370377e-01
-6.047699558780592760e-02 -1.139109682156977249e-01 5.023987484236842604e-01
-2.596425565592276608e-02 -9.649664619378574282e-02 4.551972239540093557e-01
8.690386381331302937e-03 -1.223960910617065967e-01 4.971644143876503552e-01
-1.554145156722967595e-02 -7.254991543568529988e-02 4.415830643682513434e-01
-3.743098365870038517e-04 -1.152346002302391120e-01 4.768270677096875798e-01
-3.677765675465668321e-02 -6.799730917426753674e-02 4.358093890706153939e-01
-7.515481584382653624e-02 -1.069758910824061687e-01 4.600919323686026297e-01
-4.411212729264471152e-03 -9.507769009655839265e-02 4.537410651960536168e-01
-7.546336980042760156e-02 -1.115564189404035095e-01 4.920047990894441114e-01
-7.822738285867091024e-02 -8.911323448175532957e-02 4.308419929885846655e-01
-6.570955733786069952e-02 -7.623178410805410421e-02 4.291880192356032353e-01
-3.338694246490507556e-02 -8.706112758795726825e-02 4.442558443119236644e-01
-7.769274839109707731e-02 -1.114604102493911564e-01 4.937572291131270830e-01
-2.344816512787548796e-02 -7.284677728112366746e-02 4.404011612844722090e-01
-7.877431260693627812e-02 -1.093072695830440699e-01 5.169277395412443799e-01
-3.332079929158485165e-02 -6.700470363310617739e-02 4.370307888028787113e-01
-5.156454901048718870e-02 -1.066057600566545915e-01 4.611127121448984068e-01
-5.690798625053036103e-02 -1.087751729129418227e-01 4.664079502122047138e-01
-4.070752291714899163e-02 -1.172163936327639683e-01 5.172552016385714158e-01
-3.301879537158720901e-02 -9.517910601896677203e-02 4.513191163051945010e-01
3.406480694067723358e-03 -1.252959379688581287e-01 5.063929532001493206e-01
-3.876178455418394231e-02 -1.174485037637044427e-01 5.201404204630335482e-01
-1.798552494952789394e-03 -1.245945706086320492e-01 5.345636945274879759e-01
-4.744089787209162384e-02 -1.160680651739102731e-01 5.149654684225812851e-01
-6.080554220373578234e-02 -1.116429704625795799e-01 5.279552692594433605e-01
-3.610758925977038819e-02 -1.181408269758743301e-01 5.120669027863863354e-01
-9.958925261686958630e-02 -1.071296329846210676e-01 5.002388699101723013e-01
-8.920447180074777757e-03 -7.323509521465769445e-02 4.425434256932154753e-01
-2.424174394219855144e-02 -1.134221084758007397e-01 4.810089801174181057e-01
-6.257452273724004033e-02 -6.818159804226878173e-02 4.304440350919473413e-01
-1.638069619269170996e-02 -9.376118115176305945e-02 4.515452575926386380e-01
-4.829907338253241339e-02 -1.158136373290679366e-01 5.071900495563412825e-01
-9.285933437643265065e-02 -1.071950876033535421e-01 5.083118458207309676e-01
-9.684556967011181960e-02 -1.060647079444279606e-01 4.695647243461387177e-01
-8.400635485514172315e-03 -1.246731176046208950e-01 5.243232123367794761e-01
-5.699847067430174885e-02 -8.462345902212557724e-02 4.250320282616361078e-01
-3.623470483862613334e-02 -1.180763006242648294e-01 5.107416732670183590e-01
-1.026174917677138143e-01 -9.195785014089799536e-02 4.657416198101607119e-01
-7.555836003989910288e-02 -9.346315133153748622e-02 4.263913833612368864e-01
-4.898158150947252987e-02 -1.097401028568864845e-01 4.711761078670356206e-01
-5.708111875438498517e-02 -1.119177227251266088e-01 4.816310117764108223e-01
-1.014819297125431063e-01 -9.833530935548125129e-02 4.619502384482296331e-01
-7.091789433523826292e-02 -1.103530287275803490e-01 4.757336624610904452e-01
-6.351860909337886385e-02 -9.354584350497976986e-02 4.230219415189113152e-01
-6.962252797917976854e-02 -1.115387529292385937e-01 5.191136742634571144e-01
1.176612253869647150e-03 -8.952089617027270130e-02 4.508235395783583010e-01
-5.762258500370764924e-02 -7.970722357194584551e-02 4.259110382085838364e-01
-9.905445187359611381e-02 -1.077815684620464370e-01 4.923694432781890451e-01
9.219024465016295578e-04 -1.204191538836305309e-01 4.892072476568267159e-01
-6.282033133431290384e-02 -1.089819556255210431e-01 4.672785102482986397e-01
-6.782026745297184411e-02 -1.108366432546797342e-01 5.235233501562307490e-01
-7.956380109735877726e-02 -1.112553406834504710e-01 4.914300659635258417e-01
-2.617381099025632707e-02 -1.170973137907897754e-01 4.933206068580350268e-01
-3.296650711862926519e-02 -6.343577737385712456e-02 4.370037687991648045e-01
-5.508543523728642172e-02 -9.022849444718759881e-02 4.257708176169001102e-01
-3.735383981811851023e-02 -7.576512586556309603e-02 4.367820827668194572e-01
-3.037876957990778837e-02 -3.372850747864390014e-02 4.377852808373796645e-01
-3.615128585205532041e-02 -1.024514026538363709e-01 4.608361070375561752e-01
-7.745346786191206756e-02 -8.792741287222168023e-02 4.299590586977389828e-01
-9.829941980012519079e-03 -1.012058442033285655e-01 4.583387328354751045e-01
-3.426507762464732487e-02 -1.099775862741043247e-01 4.749082311937287137e-01
-8.131622468930500836e-02 -1.066347362305092999e-01 4.604921481588867271e-01
-1.455786739210305873e-02 -1.059616249785665654e-01 4.638708928535373310e-01
-3.914377733275169885e-02 -1.171183682396626236e-01 5.031396002097959785e-01
-4.592001407998538842e-02 -9.969107406315201592e-02 4.498135703537063379e-01
-8.411572153130268681e-02 -1.106465940357883732e-01 4.948955563831470839e-01
-2.487481014077245339e-02 -1.200178687939944117e-01 5.049598582452926587e-01
-8.103208464810246481e-02 -1.092803503520765190e-01 4.707453574946713903e-01
-5.252077719452240279e-02 -1.089631194762076816e-01 4.671860639430678863e-01
-8.281582162723087615e-02 -1.107215687828757567e-01 4.997327100779160869e-01
-9.485977424017899562e-02 -9.605622406258140789e-02 4.540082737302629234e-01
-4.311678243138766103e-02 -1.046156063915582995e-01 4.608518480024736408e-01
-3.871212445242687428e-02 -1.041713361518703251e-01 4.623105633129039882e-01
9.445220356169695131e-03 -1.213764873928132731e-01 4.945848242847811216e-01
-6.693283916745268458e-02 -1.130479431073624502e-01 5.030504322154960573e-01
-3.526278908749835850e-02 -8.119592468355874004e-02 4.403911830140522232e-01
