-1.500805451365432377e-02 -7.912406055865719989e-02 4.433336008029713504e-01
-3.126511659608318533e-02 -1.156120269883528784e-01 4.892199850554977969e-01
-6.830557114324642409e-02 -1.107297733527881356e-01 4.740453153729528024e-01
-1.840268588939978148e-02 -5.043738631257027594e-02 4.387420092416158268e-01
-8.091928041480155043e-02 -1.102630963842707312e-01 4.736108558896857668e-01
-1.220599197107275630e-02 -7.631521665278040434e-02 4.428905120772582693e-01
-7.017242871689392467e-03 -9.638708246042576588e-02 4.540131206983668566e-01
-4.466219584642714541e-02 -1.075761545890844689e-01 4.645865472846634203e-01
-2.352408567881128162e-02 -1.207243407812916974e-01 5.074865486627763156e-01
-3.114769049500039702e-02 -1.179331087956937835e-01 4.979532613497449356e-01
-7.773577054976693601e-02 -1.115442154910845085e-01 5.044470731175323408e-01
-5.459454486643863791e-02 -1.149854142205324753e-01 5.033353479114250906e-01
-4.834736213584858201e-03 -9.290301310694699943e-02 4.517835435948577838e-01
-4.593328285799288396e-02 -9.649656346169724341e-02 4.440180163214547671e-01
-8.809023718001403325e-02 -1.080770169021547378e-01 5.101621111813144926e-01
-9.644692514224548208e-02 -9.507116557808154012e-02 4.553702795390273117e-01
-1.633174053010723326e-02 -6.989297923971395099e-02 4.406472177105048016e-01
-7.069029118929899547e-02 -1.118172969621682722e-01 5.160443361572881749e-01
-7.933916366384290153e-03 -8.429905752333981261e-02 4.466540373892252114e-01
-1.334843266133847739e-02 -1.232080383361127129e-01 5.259071613716020943e-01
-9.060272442896850562e-03 -1.246211154808524318e-01 5.226306392927929645e-01
-2.316209122825140659e-02 -1.173250871061173595e-01 5.448726705504093326e-01
-6.836742802304290878e-02 -1.131351103207862141e-01 5.029204493645826890e-01
6.835424034247723248e-03 -1.246899933372214997e-01 5.042365544102962449e-01
-3.985128050411668177e-02 -1.153431530531350835e-01 5.352147898260484205e-01
-6.149174289001816535e-02 -1.022977735060310728e-01 4.239920396521872914e-01
-6.189777871741554416e-02 -1.105953626071620316e-01 4.715670299566072088e-01
-5.057488014411881672e-02 -3.213845687750457869e-02 4.379650905028988905e-01
-3.973159387238786588e-02 -3.085588993970294139e-02 4.359064072866750128e-01
-7.527536868825859817e-02 -1.018478543336376052e-01 4.344234973333049310e-01
4.421874052541544149e-03 -1.071231161433939955e-01 4.656891656629512100e-01
-3.814226466880972499e-02 -1.057744888898607266e-01 4.642687859035407039e-01
-1.279574493789029273e-02 -1.231368206882687832e-01 5.288805790484509828e-01
-2.045352343353080277e-02 -3.999103239615695027e-02 4.388800124041016826e-01
-8.580864195186983442e-03 -1.059049074171792004e-01 4.628445670679566804e-01
-7.298970707732617413e-02 -1.123127149143540726e-01 5.068412869635798845e-01
-4.972104844973221360e-03 -1.136523127205039535e-01 4.737289483291955428e-01
-8.408369982356262914e-03 -1.245997225812345011e-01 5.256304427068332341e-01
-8.573711885963249124e-02 -1.101647553723368589e-01 5.016223170313679480e-01
-3.533796445056888724e-02 -4.677722797215454892e-02 4.359407490245445493e-01
-3.269849697201370614e-02 -8.160685648198306996e-02 4.406216827468663055e-01
-2.296093169839397499e-02 -7.298663062292101711e-02 4.401133177589563461e-01
-6.579203228814817228e-02 -1.019054189238111224e-01 4.244156034091962626e-01
-7.497540477407797777e-02 -1.062547102863534987e-01 4.543250315193717026e-01
-1.581060431105417788e-02 -1.164457490474360840e-01 4.837304606358828196e-01
-9.406364187361025697e-02 -1.048906899059677683e-01 5.140094669558776808e-01
-4.611797820066308035e-02 -8.490845899853119438e-02 4.312945915805787012e-01
-5.016624871122955798e-02 -5.157595915255298175e-02 4.342590270416735176e-01
-5.643623173044640812e-02 -1.009442160625171059e-01 4.237373768567184174e-01
-4.995022303257126012e-02 -1.127203196929482260e-01 4.824743029156616791e-01
2.092661889856082917e-03 -1.078290160763905464e-01 4.661176557380724006e-01
-7.264867935091670614e-02 -1.102865868571027280e-01 4.726008073307871871e-01
-2.236425528778557964e-02 -1.201788541519442921e-01 5.017521005783690535e-01
-9.396635049476699184e-03 -9.964208845254600433e-02 4.565677874936248659e-01
-5.697614651311307121e-02 -1.145425095012090055e-01 5.170994334094738409e-01
-8.224765798388473936e-02 -1.042623264733351512e-01 4.509164091829612753e-01
-9.561651172058102666e-02 -1.088362889963448710e-01 4.970953405150075888e-01
-1.159816547748596972e-02 -1.158752770489825668e-01 4.796060025003186511e-01
-2.557502800936587231e-02 -1.173421355843114744e-01 5.427522916703398925e-01
-3.228528870784889981e-02 -9.838778714847518092e-02 4.547087723173153795e-01
-2.367326963934966375e-02 -1.208399505948725555e-01 5.188985058676749418e-01
-5.666609354653644876e-02 -1.047718977895871484e-01 4.487825849690102453e-01
-6.612506855058000732e-02 -1.133442189427931179e-01 5.122070801322796685e-01
-4.088866428260575642e-02 -8.987832644343297928e-02 4.419728308520520232e-01
-2.083965899164966565e-03 -1.260114372176222020e-01 5.145397715093882329e-01
-2.739624128786833507e-02 -5.768607907921607936e-02 4.372697908945148981e-01
-5.390272272527903835e-02 -8.704681849683114370e-02 4.252464615384666802e-01
-5.208741185610512442e-03 -1.251500202599468148e-01 5.281209793473077285e-01
-3.188278633970362264e-02 -5.162498523511616783e-02 4.368351664988721628e-01
-9.027889910412847940e-02 -1.093411743695330840e-01 5.019314389271286592e-01
-3.073650695907791802e-02 -1.189211182692695712e-01 5.037105799182765020e-01
-5.325300583723630021e-02 -1.017059777228276618e-01 4.449318584373125329e-01
-4.550224192349106023e-02 -1.097353972725154669e-01 4.707397079057100142e-01
-6.228214772753386946e-02 -1.066788488395190443e-01 4.549593174195170620e-01
-6.527201752497417686e-02 -1.132623716388020257e-01 4.963957903273755190e-01
3.363090318084674922e-03 -1.266000593459161994e-01 5.152403109742540455e-01
-5.974263228630029288e-02 -1.002904117492586650e-01 4.235965699886833913e-01
-7.395813795034457405e-02 -1.063642108582842777e-01 4.543825135672530657e-01
-1.051976019570906862e-01 -9.785192789428874549e-02 4.653382386563387763e-01
-2.648076884255740060e-02 -1.188680558715601437e-01 5.336811991283589851e-01
8.569538295009251211e-04 -1.264680038890917679e-01 5.142952577577472040e-01
-3.776412310719368809e-02 -9.162744408859122003e-02 4.451860097804050120e-01
-6.934138918645922633e-02 -1.109532371773660486e-01 4.758754386165596761e-01
-7.180347351825112912e-02 -1.031683593775062080e-01 4.370087720979320967e-01
-2.044747637687142211e-02 -1.178385336934256872e-01 4.911568526223881737e-01
-6.936173304544585028e-02 -1.123152016560589606e-01 4.888910241443207294e-01
-3.424885195392605997e-02 -1.181760691641312172e-01 5.035165471852495189e-01
-1.105224314212974596e-01 -1.012066235241677326e-01 4.948616691283111435e-01
-2.343210727188104261e-02 -7.734822130553750674e-02 4.413702301236683834e-01
-5.703502022540891253e-02 -6.435114248240197954e-02 4.305800795878431675e-01
-6.107594086531682731e-02 -1.138759782589205960e-01 4.978920623519019761e-01
-4.264631303561523812e-02 -5.658459940654787107e-02 4.336533177957120344e-01
-3.944894585713842883e-02 -1.150639891149744798e-01 4.906556811549305785e-01
-3.857127626600945908e-02 -3.122172137529835925e-02 4.360982233930373320e-01
-5.419800678416330370e-02 -3.304449091647583547e-02 4.441448534215374777e-01
-7.711256635981786345e-02 -1.116794655555044535e-01 4.883152506131222537e-01
-4.703397057907458129e-02 -1.073321724581927927e-01 4.630843098168602179e-01
-2.706085366091358184e-03 -1.260667714956035523e-01 5.164833539276063590e-01
-7.751199283597072498e-02 -1.100821227171016464e-01 4.718934556192537211e-01
-2.303437313837231742e-02 -1.186543341069243862e-01 4.963388181335941507e-01
-5.241073244765439426e-02 -2.612365444811150933e-02 4.398549931573287886e-01
-4.396583734971950402e-02 -1.128019382455558300e-01 4.836804892040575954e-01
-3.812013057144238160e-02 -1.157445426762689356e-01 4.926400727825708814e-01
-8.245250424371712572e-02 -1.090104144340056508e-01 4.673853271248650243e-01
-2.103839453849863997e-02 -1.056565187066140499e-01 4.652430073306951797e-01
-8.870800776616005745e-02 -1.069772154761135935e-01 4.633018874279848376e-01
-8.335668354373161615e-02 -1.101704561767086199e-01 4.737287837027575610e-01
-1.591742716261137364e-02 -1.227953330646625180e-01 5.221645189316025393e-01
-3.217786180630724177e-03 -1.255985137375894567e-01 5.111575869434953345e-01
-7.093911219192987165e-03 -1.253108831577583737e-01 5.165242124449864747e-01
-3.831976632500308511e-02 -9.123587921577470949e-02 4.446089545456879399e-01
-2.281722992805218161e-02 -1.211746213293459495e-01 5.146660042640897048e-01
-1.020904402711171194e-01 -1.073828178172897829e-01 4.884326315580773681e-01
-6.075316119266201131e-02 -1.141780678192052950e-01 5.040986521479934312e-01
-8.554498062207398223e-02 -8.891447093804885626e-02 4.430271601696363359e-01
-5.020889603203447515e-02 -1.139875350849088032e-01 4.887374492508900770e-01
-6.974752392358389563e-02 -1.044940358989830120e-01 4.412633754309505663e-01
-6.639935625553611276e-02 -1.029481470196739190e-01 4.279824900383081276e-01
-1.013444513718050610e-01 -1.070469477976385003e-01 4.794281187559313318e-01
-3.071948426569129365e-02 -8.012125561561907194e-02 4.406027819180153848e-01
-1.057697214058531295e-02 -1.244528285204931639e-01 5.164687806883480059e-01
-7.010994041101975549e-02 -1.119157607873723509e-01 5.164404828364788091e-01
-7.010184311053197989e-03 -9.870898736166122678e-02 4.560670774526140447e-01
-5.453857501130199292e-02 -1.126845060490454659e-01 4.832072733980464219e-01
2.029070998829596729e-03 -1.148137907970027544e-01 4.760665671772784102e-01
-8.134511389777474011e-02 -9.381733268781876356e-02 4.344776917490376644e-01
-2.686415532535336645e-02 -1.114457227602651951e-01 4.766817120328092905e-01
-4.044533592465967414e-02 -4.113100831444456429e-02 4.351392909571878964e-01
-3.108469973389622366e-03 -1.232439047170372226e-01 4.980604670578749893e-01
-1.936675494638277414e-02 -1.216876203312178689e-01 5.237700729389330734e-01
4.231903056883679591e-03 -1.269837536373705777e-01 5.232857356520047576e-01
-5.189575527318075060e-02 -1.041271588899233685e-01 4.518926212065416670e-01
-4.233147940455548458e-02 -1.112940360681825419e-01 4.779142627843312452e-01
-5.471872927231290207e-02 -1.126976489148544952e-01 5.298382992044040618e-01
-7.131253917610896886e-02 -1.120715846808960914e-01 4.872785812842668207e-01
-8.766319525087976072e-02 -1.035518457894709227e-01 4.526980615720704870e-01
-4.931001997214347343e-02 -4.907783190696483888e-02 4.345039261892543747e-01
-7.744571883852570393e-02 -1.114813015293525666e-01 4.828308610118353106e-01
-9.181723069790892824e-03 -1.116890559736537086e-01 4.709197480635423094e-01
-3.907618729499923865e-03 -8.714295429755111733e-02 4.487670849135870221e-01
-1.436470972100623196e-02 -1.229554242863517277e-01 5.082106431811094227e-01
-4.584565514298984817e-02 -6.940672452310055196e-02 4.309765056726295174e-01
-4.244826490345895986e-02 -1.163752500724256067e-01 5.253492463494163767e-01
-9.488221558844973924e-02 -1.091835500322836938e-01 4.852873224258562601e-01
-4.743142760551150028e-02 -7.513955743050827751e-02 4.298543285742823516e-01
-4.544229185682993610e-02 -1.144766903171575839e-01 4.903411318907175409e-01
-7.852547625206429682e-02 -9.210990911295001415e-02 4.300841360519025991e-01
-3.279502131277947652e-02 -1.155283713824139247e-01 4.894982265165213065e-01
-3.575416055642128416e-02 -1.173995995750094640e-01 5.281449315139349343e-01
-9.701474708222382337e-02 -1.050595337707879023e-01 4.642008778705752348e-01
-4.763202561743335589e-02 -1.160090427281312009e-01 5.040572476969716886e-01
-4.925470999265956634e-02 -5.464904903735756658e-02 4.333177113315860307e-01
-8.251103477702699529e-02 -1.001397289309916422e-01 4.415084687377107131e-01
-6.259104038663373948e-02 -6.840614423417501477e-02 4.299832122907454868e-01
-8.582114519830540134e-02 -1.005675854841844852e-01 4.454778472710030357e-01
-7.455679115144481228e-02 -9.175473364757368022e-02 4.246100379481025922e-01
9.856270325601674404e-03 -1.211682794097319465e-01 4.937939635306332620e-01
-2.197340210003736333e-02 -1.086736456227559433e-01 4.704016838879078177e-01
-1.619840288980317622e-02 -1.060545067075833736e-01 4.641270874361079768e-01
-7.412815440320910665e-02 -1.014450020470011871e-01 4.317818945133143349e-01
-5.986813897382990517e-03 -1.204849013697228133e-01 4.897072795941081469e-01
-6.783059722280529447e-02 -1.126427031395005052e-01 4.909302022901110285e-01
-9.353718865042835728e-02 -1.092491538420237301e-01 4.786096142593331826e-01
-7.131033100461232899e-02 -1.047262102917164150e-01 4.447274931999599668e-01
-5.877270572724788839e-02 -1.119867542590874121e-01 5.288880926908351432e-01
-6.460499325112400992e-02 -1.085266125740824705e-01 4.625339832266158191e-01
-1.621924146627834115e-02 -1.222136176339493480e-01 5.061526694045995756e-01
-8.428327350814497632e-02 -1.098264177040089717e-01 5.070136406532909090e-01
-1.879776673263909223e-02 -8.188597503838079827e-02 4.439072557339923675e-01
-6.208695158558149435e-02 -1.088011621802528195e-01 4.637026838100086756e-01
-2.320718941941577601e-02 -1.162738502643276134e-01 4.882217158652818467e-01
2.258666799016639630e-03 -1.269414716764548090e-01 5.219657569985719503e-01
-5.193523786233577438e-02 -5.853461142117689225e-02 4.320202288279031966e-01
-5.165923335051007988e-03 -1.253787889353407126e-01 5.254281091234981327e-01
-8.027958560185542713e-02 -1.104684126660737120e-01 4.749110969007079852e-01
-4.296919885724827942e-02 -7.092482612417541632e-02 4.325487526627644352e-01
-1.993680550422485820e-02 -9.541854211627105731e-02 4.531962649468224691e-01
-4.127674531660548152e-02 -9.422052973586163283e-02 4.456351986131053544e-01
-6.841742925421434585e-02 -1.099610297663843606e-01 4.696682617284693717e-01
-9.138083891351410359e-02 -1.094381650032774517e-01 4.761763873031445993e-01
-1.077636224476892224e-01 -9.587111252276514506e-02 4.710741712021319083e-01
-1.365728491093284175e-02 -1.222519091277353143e-01 5.020270822691000889e-01
-5.018300083613327911e-02 -1.124573379882275181e-01 4.809829371901613304e-01
-4.577713779760709742e-03 -8.228929066826007332e-02 4.463877630867650326e-01
-1.057328478908082514e-01 -1.043148364469177192e-01 4.743569977642547175e-01
-4.548981733933098875e-02 -1.115494588083794647e-01 4.783819842147903900e-01
-8.254849098668624874e-02 -9.301552812975352746e-02 4.359615849870780990e-01
-1.399512266145291894e-02 -5.976288867945626915e-02 4.391712542447866463e-01
-1.008712281326321347e-01 -8.853991243975384284e-02 4.666114351885156664e-01
-7.677706471538726929e-02 -1.105587375368275449e-01 4.747961176302763486e-01
-5.454635197903573429e-02 -1.053830678898546869e-01 4.527292329022489237e-01
-5.512037658374346200e-02 -6.475478922144059513e-02 4.294191925575104318e-01
-9.123691146972946753e-02 -1.089437630731340256e-01 4.730013216477667592e-01
-1.744754495879774145e-02 -8.130595893491493475e-02 4.438023781076383401e-01
-5.594494378734295170e-02 -1.058740637620603914e-01 4.538901950220448622e-01
-4.880081025865949662e-02 -9.504445408893009983e-02 4.330870247121139660e-01
1.083353308649552364e-02 -1.255830673032922451e-01 5.375404166369640580e-01
-5.104641937718702727e-02 -7.637963793326775497e-02 4.277615487804976024e-01
-6.353125615470241183e-02 -1.135173027550315517e-01 4.978772810705425211e-01
-2.956846250448771918e-02 -1.080249191500407963e-01 4.705971997671227203e-01
-1.619525132610076176e-02 -1.229785251578663641e-01 5.175770812828049960e-01
-4.378924055847236568e-02 -1.135737500407807410e-01 4.862575525313269087e-01
-1.685477085190339314e-02 -1.189110841226450610e-01 4.907657436892809422e-01
-9.406190772868130989e-02 -1.065377408901345829e-01 4.659390294360543638e-01
-2.339121300101941470e-02 -1.120721705632661269e-01 4.775557627825477436e-01
-5.678796341867282937e-02 -8.473084123592157513e-02 4.242978057410113357e-01
-6.231148007816946638e-02 -1.116893373715241999e-01 4.771577044157990777e-01
-8.859907515325216032e-02 -9.748605401700063955e-02 4.459966537501299233e-01
-3.941227050008291877e-02 -1.176193316893987401e-01 5.133804097755990670e-01
-5.458646635601632248e-03 -8.655502012419336033e-02 4.481400266749512307e-01
-5.349699756333747142e-02 -2.869122792020505769e-02 4.428657336146866186e-01
-7.053901739026331892e-03 -8.839149143781292739e-02 4.487498461622012602e-01
-2.972015281533845615e-02 -1.193819336083119936e-01 5.190758757141559210e-01
-7.827161121962625256e-02 -1.099748276609215369e-01 5.152096851055837368e-01
-6.451053540209090997e-03 -1.251890420708636487e-01 5.241268332623845172e-01
-6.753154506299331727e-02 -1.130613365336587683e-01 4.973980576537936904e-01
-8.206286278902942544e-02 -9.273595140030610473e-02 4.350659851969400083e-01
-3.561259706584016943e-02 -1.094874831645305663e-01 4.727933918547127523e-01
-1.086433407927198669e-01 -1.030807032150171249e-01 4.818454067907411709e-01
-5.751020177882879003e-02 -1.131967537517253597e-01 5.252586356851678406e-01
-2.252860524370831063e-02 -1.093822347834664532e-01 4.718652981297246640e-01
-8.733742399206935458e-02 -9.844634871858758129e-02 4.452502539811743487e-01
-9.866485158976977254e-02 -1.058881996839749484e-01 5.065871453691818127e-01
-3.631308998616127048e-02 -7.105880918842551186e-02 4.355028226527457580e-01
-3.403102912144784914e-02 -1.157684414130031592e-01 5.405030878175920428e-01
-2.611294026215070507e-02 -4.463380895888511418e-02 4.386299182935954333e-01
1.151279958392060869e-02 -1.261461080466270979e-01 5.350624715313140323e-01
-1.371393333450278418e-02 -8.651902074593013914e-02 4.468227266533283948e-01
-9.280470618621332324e-02 -1.095687403769289581e-01 4.832156349534679207e-01
-1.057220566152378416e-01 -9.618229044073116352e-02 4.664930683998915195e-01
-1.062138577795051775e-01 -9.866249480101506319e-02 4.679459658511817000e-01
-5.757787562627141031e-02 -9.784868723863428264e-02 4.232413207564884594e-01
-7.442824245648271830e-02 -9.627766080531753590e-02 4.258774732542391361e-01
-5.719769798393437021e-02 -6.360004562275305140e-02 4.309956535572935232e-01
-7.642448510720149801e-02 -1.119287835368560635e-01 4.932784944239222424e-01
-5.368647813251254536e-02 -9.215194390382513978e-02 4.254700568105329594e-01
-6.313486704226829727e-02 -1.099436237665242511e-01 4.688731861724206307e-01
-5.456318336691948212e-02 -1.143969632451347501e-01 5.224678728300630182e-01
-4.954819434939082556e-02 -6.692520612190658302e-02 4.295464828906536137e-01
8.576998041919998463e-04 -1.267090229959302594e-01 5.228976941362275532e-01
-5.902927917361952548e-02 -1.087249095806775562e-01 4.637183821939300232e-01
-6.651497654998501929e-02 -9.461831133818113249e-02 4.214665652618928005e-01
-3.128341973019891503e-02 -1.157833628752652777e-01 5.427829020962615658e-01
-6.504254457331963557e-02 -9.352681052102489179e-02 4.213997722070362828e-01
-4.206046751107327120e-02 -1.012704171195350500e-01 4.537247989616409183e-01
-1.097823505394979610e-01 -9.529265935147954170e-02 4.767154824124361090e-01
-1.209851113977342477e-02 -1.237882290525042228e-01 5.229703373054737092e-01
-9.398495984892621391e-02 -1.066187636315137077e-01 4.661817000408915446e-01
-9.203781751906194714e-03 -1.116359637876835065e-01 4.708444056312414694e-01
-3.723893545535506694e-02 -3.105293969550699043e-02 4.363883043502065906e-01
-1.110956965041608700e-02 -1.229770031663045687e-01 5.028050658274457740e-01
-9.176106129402369915e-02 -1.064055486698949893e-01 4.637423975079048577e-01
-9.321269835817067029e-02 -1.061529839650735413e-01 4.639649390628718950e-01
-2.406884025691525403e-02 -4.779751189725155863e-02 4.387504136438081792e-01
-3.237641996097629510e-02 -1.156392048575983073e-01 5.424028375349071451e-01
-1.039134473423615340e-01 -1.060283134272999306e-01 5.002244667922138843e-01
-4.453630639651653955e-02 -1.164161304616161685e-01 5.203362474091046685e-01
-7.461252978251492647e-03 -9.216115397991853087e-02 4.507235159318334072e-01
-1.456785730365904585e-02 -1.234248167258970436e-01 5.168509802962718558e-01
-7.807852915538300576e-02 -1.104628229536322170e-01 5.124810920106396273e-01
-1.841885539079341286e-02 -1.196511494992721775e-01 4.950524042379352285e-01
-5.298892277284521224e-03 -1.153750063123442221e-01 4.766796144401788671e-01
-4.202483322439430624e-02 -5.019768886197933933e-02 4.346015516416431024e-01
-6.651552401590886399e-02 -1.050700387471546760e-01 4.425399227418830850e-01
-9.857877051681000757e-02 -1.023382825049649197e-01 4.607383911592629055e-01
-8.601871463543889207e-02 -9.547237227633045831e-02 4.428576579344801756e-01
-3.843571671565283732e-02 -7.091170972500225600e-02 4.345558882054422756e-01
-2.597576948761638402e-02 -1.142729674572426218e-01 4.830414907285742743e-01
-6.342595070493509124e-02 -1.138063302399749399e-01 5.036303933719280534e-01
-9.644422855577795828e-03 -1.112627871677108332e-01 4.704072691109446591e-01
-4.326163674963863504e-02 -3.670122020669958074e-02 4.351867614129517614e-01
-2.982449031279843857e-02 -5.118279792412927520e-02 4.375108878697506198e-01
-1.982733959452851608e-02 -1.218524578612370929e-01 5.177949718026951809e-01
-2.852811648404455017e-02 -1.161129377847361505e-01 4.899302976801005460e-01
-2.459789297340055081e-02 -9.796029759641056156e-02 4.562989563897664191e-01
-1.016189600022419232e-01 -1.072917463891479017e-01 4.952899977626319949e-01
-7.604672476278623305e-02 -1.093581316350712984e-01 4.676995930119507983e-01
-4.443757816018437806e-02 -1.130661614267342158e-01 4.846580160935409221e-01
-7.784403838909578766e-02 -1.100010615858602464e-01 5.158605517630594495e-01
-1.031390354882232990e-01 -1.068404871568267162e-01 4.949947967683688832e-01
-2.055417924219110452e-03 -1.247173064493392325e-01 5.339457837057391965e-01
-4.740898414935735411e-02 -1.118888077852448482e-01 4.791835349798472254e-01
-3.484661864850039509e-02 -5.956423581086069119e-02 4.359235841534602751e-01
-5.797395873852015380e-03 -1.050377220186091837e-01 4.623477013245783640e-01
-7.933948332345962251e-02 -1.115579546711906456e-01 4.984538693356654337e-01
-3.273279330977098972e-02 -9.821156610183898183e-02 4.542775177011606491e-01
8.413394972901624969e-03 -1.266963275848008719e-01 5.244824189256912517e-01
-9.270812289681419627e-02 -1.063649119479452010e-01 4.642527216998228456e-01
-8.231546825453196770e-02 -1.083638235629481167e-01 4.648001092969990533e-01
-4.067618175907954797e-02 -1.004495239270521423e-01 4.533195643183454693e-01
-2.673170426893770740e-02 -8.852539669619850782e-02 4.460982706346100501e-01
-2.668624451589061281e-02 -8.299423026729739472e-02 4.432051724486587019e-01
-7.038599627648996215e-02 -8.532603226786326933e-02 4.240876122193490971e-01
-7.569175898611071873e-03 -1.231024525220825866e-01 5.363458769995339548e-01
-7.625277497400283211e-02 -9.693946470979443453e-02 4.273214223274899304e-01
-7.372793059141106997e-02 -9.279282530374592664e-02 4.241093675550343667e-01
-2.418176581774797787e-02 -4.037624337103479927e-02 4.390211942534658629e-01
-2.816068519088214817e-04 -8.535722900851001882e-02 4.482422956168390371e-01
-7.514219813233789791e-02 -1.044670554211071523e-01 4.452616121275711492e-01
-1.628784806262007119e-03 -1.182362461908560980e-01 4.825442934979545795e-01
-1.025178190099459846e-01 -1.045497659009536479e-01 5.050549743715376794e-01
-2.777908649735570668e-02 -1.151127973446685326e-01 4.861426417052237547e-01
-5.090588648873789826e-03 -1.250224200191709656e-01 5.084517190491629757e-01
-7.124978456381857173e-02 -9.536388105529952641e-02 4.228962051240219289e-01
-1.101011492438343370e-01 -9.394852938139011678e-02 4.776988505013435860e-01
-7.786098122630200069e-02 -1.070795080989027370e-01 4.586106721308602641e-01
-4.515679785458740630e-02 -8.958235759815295907e-02 4.349766836053617358e-01
-9.040463623241963564e-03 -1.157541146529508513e-01 4.780138532792295170e-01
-1.017852306366829468e-01 -9.052489541356494029e-02 4.658315599214850611e-01
-7.285636437283098121e-02 -1.053963248117433249e-01 4.493846006203747745e-01
-8.393232467889288895e-02 -1.089821184338634064e-01 5.115768294970262087e-01
-4.334441505403029832e-03 -1.251163543187756577e-01 5.301735135944192212e-01
-7.138531132289224757e-02 -1.051930545553790980e-01 4.476647270232071429e-01
-7.391337819632289030e-02 -1.046044550593866335e-01 4.453556916048643233e-01
-1.024608514743250431e-01 -9.763332921448648893e-02 4.610877350308193456e-01
-3.509618658768921123e-02 -1.174021097950222886e-01 5.291063257517262253e-01
-1.028037097664871724e-01 -1.061744569169358610e-01 4.779868684984125982e-01
-4.718203310114731791e-02 -1.125139589032378984e-01 4.818041391902525561e-01
-4.060553617107834357e-02 -1.022807510396355757e-01 4.565597159044074149e-01
-3.467341989543740871e-02 -9.733935531527294904e-02 4.525014483693680090e-01
-6.929052982343059108e-02 -1.056917201546124646e-01 4.501262915929143404e-01
-1.323531811734186478e-02 -1.204208249631824740e-01 4.926339958850700640e-01
-4.804978246640004974e-02 -8.714146032348346615e-02 4.297908458129136577e-01
-3.263166157904241749e-02 -9.771808029950951324e-02 4.536054132325944011e-01
-9.205862309321111159e-02 -1.098702867257886490e-01 4.908805148445480881e-01
-5.200242091615352169e-02 -5.014233367161345656e-02 4.348985157242312716e-01
-2.937890768305431027e-02 -1.175078676281427481e-01 5.375545815119747717e-01
-2.182381591441924854e-02 -7.593780864906599093e-02 4.410537593664576872e-01
-1.037135639408344745e-01 -9.281104678269720687e-02 4.664975263814130635e-01
-8.452578450771608930e-04 -1.226752064811063164e-01 4.959729486063308435e-01
-2.623545985704493072e-02 -1.095284501401048022e-01 4.729805813478655252e-01
-7.793361973868083437e-02 -1.028367284094551387e-01 4.411769984369824371e-01
-5.346668884958901552e-02 -1.148187799602141679e-01 5.202668270134134243e-01
-3.796928193455870182e-02 -4.856081774119141992e-02 4.353901520082703591e-01
-2.327894478425268296e-02 -1.196649426191102733e-01 5.000470345499836711e-01
-5.071500628909399871e-02 -9.633353725183378680e-02 4.285910494117809999e-01
-2.744522813422253793e-02 -8.927249639726823893e-02 4.465555527673140124e-01
5.101939116478378805e-04 -1.166933312695237202e-01 4.791748526584866941e-01
-6.762691421481679954e-02 -1.131555414973342832e-01 5.102339422380098855e-01
-1.448648964989451490e-02 -1.212292769353295191e-01 5.387798296339396664e-01
-5.259678249429405872e-02 -6.820696216870762718e-02 4.284021709824653579e-01
-4.004347056727117909e-02 -4.739986460852023409e-02 4.351116446273893823e-01
-8.801536458609832136e-02 -1.104050193807098873e-01 4.951691061059306787e-01
-6.199364925448909436e-02 -1.075540033028961062e-01 4.584786460067920011e-01
-5.580154401783593565e-02 -1.027701034143566061e-01 4.377508774948347114e-01
-6.230865321254722838e-02 -1.038527380422765434e-01 4.264603834895668300e-01
-3.921997584134265247e-02 -1.121107792398525621e-01 4.805623452272563267e-01
-2.957668210902981640e-02 -1.041752218793465939e-01 4.641998883884169702e-01
-1.026508659741332680e-01 -9.420009298754225546e-02 4.638281434247121249e-01
-6.100261196956559273e-02 -1.124788758360133617e-01 4.837852413988319999e-01
-8.540486925864201884e-02 -1.109105161773125958e-01 4.904300513566279274e-01
-4.520116550967310382e-02 -1.101422237989885811e-01 4.725985866783436462e-01
-3.704091144489141119e-02 -1.176654717369034070e-01 5.031261089266336750e-01
-6.187884524674508099e-03 -1.253720869000502225e-01 5.145349949490202190e-01
-7.934875334179510020e-02 -1.099411321612534659e-01 5.136799664640354646e-01
-4.747075978616103337e-02 -1.054686151326685445e-01 4.583865812390787164e-01
9.897827153395530320e-04 -8.577717345277478811e-02 4.485510727868941561e-01
-4.901718860578931081e-02 -1.148965133488833446e-01 5.258505463328529972e-01
-2.795206081867516318e-02 -7.976177644300004588e-02 4.413313130632020576e-01
-6.275341011157785365e-02 -1.072963847461086001e-01 4.574749514598255296e-01
-6.418215361229283322e-02 -1.137296717787270595e-01 5.079307930470626786e-01
-1.056589492420767912e-01 -1.039019365270938133e-01 4.732489117398513967e-01
-3.398573996675947201e-02 -8.453809013197467748e-02 4.416934418203209978e-01
-5.109334669571855697e-02 -6.284750275381695284e-02 4.303813233270813443e-01
-5.197718963966174027e-02 -4.722364592535777811e-02 4.355782545175137521e-01
-7.814933892323316922e-02 -1.113388089770905309e-01 4.813780472728850235e-01
-3.491643109289863101e-02 -1.147732731642541887e-01 4.875933879418686279e-01
-7.453198851067777131e-02 -9.254701702570757027e-02 4.245840615891853242e-01
-6.797260539447023964e-02 -1.112602471455940573e-01 5.221514710357425537e-01
-2.366821392599301882e-02 -1.140490298585125351e-01 4.818392710609911145e-01
-4.927495850834984203e-02 -9.696946042341841876e-02 4.368353450189991216e-01
-6.803812600402862898e-02 -1.126556326523491663e-01 4.914954102886512355e-01
-5.332876320665677627e-02 -1.004387351863379740e-01 4.265920461739363678e-01
-3.816537454540681190e-02 -8.524976194514581607e-02 4.398138378288084516e-01
-2.376647379027130302e-02 -4.178582243295588666e-02 4.390731762152892959e-01
-1.171589939121977716e-02 -9.116388781811310404e-02 4.495064551344548076e-01
-6.968107980429559013e-04 -1.006419811957705857e-01 4.587567103957106429e-01
-4.247906295519596892e-02 -9.912321829022753550e-02 4.499975563652457433e-01
-5.320529257657505284e-02 -1.063430708540296782e-01 4.580010927128647102e-01
-5.828881729855227983e-02 -1.111772922209394304e-01 4.733482464279424318e-01
-5.393164276755506303e-02 -6.398808632512871519e-02 4.297808038161121114e-01
-2.908626344317439237e-03 -9.761851744283270294e-02 4.557956000942455232e-01
-1.061820345118664327e-01 -9.222719099108757368e-02 4.711165620078978100e-01
-6.624860282696572178e-02 -8.828136335669159451e-02 4.216206798949521661e-01
-7.097770986236631718e-02 -1.116223578026595969e-01 4.810907166475606456e-01
-3.513725109112886963e-02 -1.110992112563227163e-01 4.764038931653307163e-01
-1.425652977053745371e-02 -1.230459965550742413e-01 5.248457398469080770e-01
-9.440468435643932510e-02 -9.362404629512849352e-02 4.532640567862198377e-01
-7.032497445318064422e-02 -8.150034228069065467e-02 4.270264793836472950e-01
-7.215102790088076534e-02 -1.118507111887651895e-01 5.132698868928399216e-01
-5.420152923856075278e-02 -1.147428460736166361e-01 5.198013022096055202e-01
-6.861462950549042372e-02 -1.119817211708918070e-01 4.844709949102342650e-01
-1.385944184209425209e-02 -1.138863521930121997e-01 4.767027041101439266e-01
9.489310997577033932e-03 -1.226793620342743613e-01 4.980044654833356566e-01
-9.756918250435379913e-02 -8.768213345685781090e-02 4.625884223244823845e-01
-3.874233650640066667e-02 -1.177421619820436804e-01 5.139947330431527961e-01
-1.212111008041535411e-02 -1.141831174784466024e-01 4.762599341087134230e-01
-4.108974206389135603e-02 -1.107347880998461043e-01 4.758787768008982955e-01
-5.158424103769975594e-02 -1.008523133772853270e-01 4.382811374885876576e-01
-5.041256890472837343e-02 -1.135585744165826944e-01 4.868608021103971728e-01
-3.098661249482782126e-02 -1.018673642115664885e-01 4.604010181805519575e-01
-1.989928761184442743e-02 -1.191842599446596707e-01 5.409881180143600865e-01
-4.509278863696593309e-02 -3.697251004559114901e-02 4.354455356241122566e-01
-5.213475718275273341e-02 -4.001019985817790003e-02 4.372215213381970833e-01
-3.838761122265908765e-02 -1.013346685351484838e-01 4.565250295652163448e-01
-5.456488090970637583e-02 -6.899726649008512680e-02 4.277954682280509791e-01
-4.810189254064163589e-02 -1.142929600647294430e-01 4.901138343466858172e-01
-7.047988520270555279e-02 -1.127694942168351033e-01 5.058958487131209880e-01
-2.218827174456962370e-02 -1.002381776989720724e-01 4.589595129802357953e-01
-3.078582318674032842e-02 -9.816008152056890368e-02 4.548231374501608970e-01
-9.140841112018233128e-02 -1.003724382637305179e-01 4.530912603173809505e-01
-7.617474294633243270e-02 -1.115928054392645585e-01 4.843805240099885445e-01
-7.754072791023806921e-02 -1.077429823721732516e-01 4.610830234758907520e-01
-1.663950690790923573e-02 -1.226431249957421754e-01 5.213055995946241916e-01
-5.499922169771209735e-02 -1.149467028631328547e-01 5.163307047920977499e-01
-1.013104651846738341e-01 -8.916689245416697940e-02 4.665143369723731004e-01
-1.933886302418600864e-02 -9.951905609218181237e-02 4.576851095877174647e-01
-5.259916706212425935e-02 -1.112946224177375626e-01 4.747860769019268123e-01
-1.159445884729683879e-02 -1.226643866364000024e-01 5.350870085352134042e-01
-9.680425842109997847e-02 -1.050545963661607130e-01 5.110227652215808547e-01
-5.624169499608114992e-02 -1.041858133321209023e-01 4.303095537763187428e-01
-3.649265941349676828e-02 -1.181188326086357321e-01 5.187734343412268023e-01
-7.863390874530440389e-02 -1.113288204384705188e-01 5.047836041157001130e-01
-3.896048439148012271e-02 -5.734743295120244000e-02 4.348114218674264397e-01
4.544427593777997446e-03 -1.256768683841575918e-01 5.084979611609173888e-01
-1.007556278006717203e-02 -5.867599903887707469e-02 4.387289740643756653e-01
1.152131002202617938e-02 -1.257643655422402695e-01 5.368276260719526682e-01
-2.476580453310938887e-02 -1.113198182893775506e-01 4.761776266277672476e-01
-9.044938251419365471e-02 -1.028828490113793959e-01 4.547753370877148926e-01
-6.780838158194646415e-02 -1.000688621958130964e-01 4.235385951581529529e-01
-4.299536152435926711e-02 -4.287211486753837730e-02 4.349578556846080413e-01
-2.313887745850503816e-02 -7.125631032738520554e-02 4.396825172230791057e-01
-3.899649592198260045e-02 -2.829861082390591059e-02 4.363586600688576511e-01
-9.266145731371792926e-02 -1.088742353180823103e-01 5.019998139640101664e-01
-7.294187152749025127e-02 -1.105578729765191170e-01 5.194185628723984038e-01
2.922459663695268529e-03 -1.250255705485278368e-01 5.040875505139787993e-01
-7.937873725213150100e-02 -1.097005545399807186e-01 4.696487963815538791e-01
1.146070658597235156e-02 -1.259545330870394941e-01 5.359380761926980652e-01
-8.496609496683982243e-02 -9.509777776348918299e-02 4.416132669830420410e-01
-1.106371821979230119e-01 -9.283317587968061002e-02 4.790540021150401229e-01
-2.669883354698567371e-02 -1.116535798151721270e-01 4.770856642342468090e-01
-7.122691881245704626e-02 -1.048565153768988567e-01 4.455508493401996728e-01
-4.107959429097740589e-02 -4.870166301376260831e-02 4.349305840302484794e-01
-6.945465584134662140e-02 -1.114988630858423785e-01 5.197122327478945758e-01
-2.381601266025846694e-02 -9.975353019050341163e-02 4.583517970768621885e-01
-1.043732436948644204e-01 -1.038910451197841978e-01 5.046260850559465272e-01
-2.670615267470709264e-02 -1.201587263047115550e-01 5.167878440979112309e-01
-5.301829322549215379e-02 -6.971266609771605005e-02 4.279740534901468330e-01
-7.529498976162199431e-02 -1.090004808356515864e-01 5.223964441342165976e-01
-2.282091759685437107e-02 -9.332013263379874968e-02 4.513738867160092538e-01
-2.583175358997539389e-02 -5.658010077301701968e-02 4.376131565024116155e-01
-1.568813076704405479e-02 -9.979309064200174439e-02 4.571308134283079139e-01
-1.352881484866439929e-02 -1.071483616327239402e-01 4.647151508902636619e-01
-4.990795293408593902e-02 -8.877271732997482623e-02 4.284570609018575893e-01
-4.918276025621223790e-02 -1.079381288849947523e-01 4.635201340149927574e-01
-8.433689072993369451e-02 -1.039442110471426733e-01 4.513663889266630869e-01
1.164204968393235673e-02 -1.266361475405082537e-01 5.286355640515791876e-01
-5.318079267716831204e-02 -1.007874167961274187e-01 4.302539302645895791e-01
-1.059634303220410162e-01 -9.491401695448620224e-02 4.680115941348439446e-01
-5.074705350047307301e-02 -1.046028227333102162e-01 4.540383387112527647e-01
-1.732526802000894373e-02 -9.330732438933635187e-02 4.506232011158986528e-01
-7.397536104856457240e-02 -1.081880732678286716e-01 5.259364224391924747e-01
-3.677065866064990751e-02 -1.177303294084954821e-01 5.032791642739887772e-01
-3.512252321128197380e-02 -5.411021840619148482e-02 4.358101800531711256e-01
-4.835410808457567960e-02 -1.160786294204518149e-01 5.107212281057446068e-01
-6.626797717385170261e-02 -8.064619950548729266e-02 4.261267748572342695e-01
-2.016705329774890615e-02 -8.555116282706684561e-02 4.455262851524102730e-01
-1.114340833750152374e-02 -1.213034994637905428e-01 5.412977046691987981e-01
-2.030199757273095512e-02 -1.201404204980752177e-01 4.993273161472280286e-01
-5.173434301752265208e-02 -1.122847844690870595e-01 5.331204035475055614e-01
-8.160274898330219240e-02 -1.051995273873701786e-01 4.534415430972628114e-01
-2.699957453157921308e-02 -1.180631767780413038e-01 5.376874407473436479e-01
-1.519843161779584756e-02 -9.261041277420739570e-02 4.500115224265158198e-01
-4.071214498418929822e-02 -1.062795015320990855e-01 4.638813410648205404e-01
-6.263938563255781744e-02 -1.065560291032698892e-01 4.539070558208333495e-01
-4.365250550769324972e-02 -1.158108518830937572e-01 5.270298747305973697e-01
-2.072014590296652678e-02 -1.216068862826992919e-01 5.122287713825020017e-01
-1.641270580718690031e-02 -7.609237418022989086e-02 4.420814126966699509e-01
-4.781709446241404898e-02 -7.590385667092011679e-02 4.296043934800173325e-01
1.086647085799381796e-02 -1.254443216450671361e-01 5.381873831991773605e-01
-1.042168806505161249e-01 -1.031873296493291403e-01 4.683897391645290842e-01
-2.962618096355574063e-02 -4.201494666114846677e-02 4.379061728477591231e-01
-5.129068884352094848e-02 -1.134597510887382921e-01 5.302591001169323359e-01
-8.189770246651939534e-02 -1.059908972049722203e-01 4.562251074657730499e-01
-4.861579995808226057e-02 -3.047278015876892648e-02 4.367616549202597009e-01
-7.115952617919077405e-02 -1.126687886231376723e-01 4.987128700299403028e-01
-1.241608005602512325e-03 -1.198560664291472150e-01 4.869620543420121739e-01
-8.008022453513792549e-02 -1.074291874678968417e-01 4.605113675167354925e-01
-4.609709128641545361e-02 -1.091253805189007220e-01 4.677307308752580717e-01
-6.334311032287345822e-02 -9.453367480838043013e-02 4.220263291687594287e-01
-1.323593874816151456e-02 -1.233206583114651173e-01 5.095056947355571797e-01
-4.089209503184860865e-03 -1.109870399330037949e-01 4.691268012245299879e-01
-6.406671768599585259e-02 -7.348013858819522903e-02 4.280102099170656205e-01
-1.956001420423887985e-02 -1.135622316155748129e-01 4.797011843356848715e-01
-7.839224574682529534e-02 -1.021555492240314444e-01 4.395590407015773082e-01
-6.386340148778557602e-02 -1.131178379151010771e-01 4.921730589550266655e-01
-6.105164025079323764e-02 -9.816051091256794425e-02 4.237466289904533445e-01
-5.075238045826553634e-02 -3.506427944841584293e-02 4.381345602809790796e-01
-4.297769852865442747e-02 -1.109646055681769855e-01 4.764725079131726382e-01
-5.843944988675268265e-02 -1.145487025874195597e-01 5.070663998171007769e-01
