-9.555588709753139133e-04 -1.014545675562033705e-01 4.594755057435569445e-01
-2.617643724731777075e-02 -1.180369788224887306e-01 5.388124797700566404e-01
-6.881274338284502912e-02 -1.130179877791624016e-01 5.015787181118579463e-01
-8.101487459565855087e-02 -1.114698591646422487e-01 4.892929725817868336e-01
-8.103124606454802092e-02 -1.111171942132687246e-01 4.814852966534579060e-01
-3.941160137417552833e-02 -5.099480896253865553e-02 4.351183197247279755e-01
-5.354714732613015393e-02 -9.126884585692703056e-02 4.259424599277868428e-01
-1.034917123524597415e-01 -1.051141765945696055e-01 4.724425974529948835e-01
-5.389921605786544140e-02 -6.153797187728581031e-02 4.308348830291502951e-01
-1.804337368226852090e-02 -6.256680604202267959e-02 4.391531932542449002e-01
-4.305602311167416180e-02 -4.011109167071585241e-02 4.352462010716158236e-01
-2.428038699358260957e-03 -1.260236915476801722e-01 5.154264104699077809e-01
-8.862928531026055545e-02 -1.063069506869639136e-01 4.608299623176363990e-01
4.482410879057646159e-03 -1.137238313152329761e-01 4.746078954649801673e-01
-4.853005582930711853e-02 -1.135589069899321235e-01 4.870651103106689583e-01
-7.821076505370530563e-02 -1.107943553664852698e-01 5.101761012177197241e-01
-4.981710602352074080e-02 -1.085524580289480151e-01 4.651126716198398237e-01
-4.490721550268440831e-02 -9.932122401002398127e-02 4.483124005663842171e-01
-2.115576193876749812e-03 -1.037025830937895465e-01 4.613909391012783745e-01
-8.878309825488646390e-02 -1.079002270085018533e-01 4.669426793754709037e-01
-8.436935439611202570e-02 -9.536681533941591959e-02 4.406193565008978963e-01
-7.480124294194215318e-03 -1.052087343936768254e-01 4.623023586328290357e-01
-3.731929670974851870e-02 -1.060500585995914485e-01 4.652524616905670540e-01
-3.070711797318058031e-02 -1.145658555578674964e-01 4.854023626180033468e-01
-9.721485732099893751e-02 -9.502159174109216233e-02 4.562989292094314919e-01
-3.311081383931081118e-02 -1.163709397557075170e-01 5.385989279175460442e-01
-8.318389441775542181e-03 -1.160073644774993890e-01 4.784144195611143568e-01
-1.727197788582279792e-02 -1.190261067977065046e-01 4.915508932288875088e-01
-6.211858898216530978e-02 -1.119689485674742052e-01 4.797421887412959829e-01
-5.254298131747011519e-02 -1.013544564890498517e-01 4.377549548382970168e-01
-5.559420322266802467e-02 -1.146271030568261490e-01 5.184622061244473779e-01
-3.329473983480209925e-02 -7.269584688254876470e-02 4.370031781819968542e-01
-3.089421962006666175e-02 -8.446736549317405973e-02 4.428686529975206509e-01
-3.840998254098829806e-02 -1.126339113542299819e-01 4.822914642840125943e-01
-1.108580389283134182e-02 -1.242108527090683562e-01 5.142910504331370536e-01
-1.051169297697371330e-01 -9.409831393778633757e-02 4.675079979126690044e-01
-7.589151641112200364e-02 -1.114927666798205402e-01 4.820432703159751031e-01
9.878730531243913940e-03 -1.266968500825114419e-01 5.284214286157756790e-01
-3.069166857115736974e-02 -1.183417582517862221e-01 5.292907214903995738e-01
-4.741410480248677006e-02 -1.127910646939112305e-01 4.831988286333354643e-01
-7.508186969300982561e-02 -1.103848026491427020e-01 5.177899620247065071e-01
-4.125921025361386357e-02 -1.165832186435306478e-01 4.997975122488946265e-01
-4.631413019980745033e-02 -1.163472570400810313e-01 5.171551078283417313e-01
-6.573478759676683325e-02 -8.784013686230461582e-02 4.220539270723631109e-01
-3.499565063791776343e-02 -1.177683742374402986e-01 5.264959491736465047e-01
-8.344854501605375452e-02 -1.111955125121518589e-01 4.874804334829849206e-01
-9.615206109699694914e-02 -8.935591868644313096e-02 4.583726468030759338e-01
-1.044054963812545561e-02 -7.242041769283759367e-02 4.419633150901052798e-01
-1.963742898995278138e-02 -9.770380228302642800e-02 4.557204943699706412e-01
-2.326056917471164623e-02 -1.178629570381867497e-01 5.430611453262571553e-01
-6.061058206920401370e-02 -1.041620419946692883e-01 4.375519640465466709e-01
-3.852772603684601754e-02 -5.861866484017999590e-02 4.349817063310755794e-01
-2.554211758472977115e-02 -7.567951545851119011e-02 4.403064319683127059e-01
-3.743935723411187522e-02 -1.179463599986516620e-01 5.169918364686303391e-01
-3.282086257286986886e-02 -1.164591702904952258e-01 4.931213175578513241e-01
-4.411983195054396123e-02 -6.262181894961980910e-02 4.324113171562227742e-01
-5.613024161455763827e-02 -1.122768765560736570e-01 4.813127276910643682e-01
-9.512794116489776963e-02 -1.090395528287955162e-01 4.962864672730676885e-01
-6.210239065804738084e-02 -1.048819643222713982e-01 4.430041432670882018e-01
-2.498701783862558243e-02 -5.888735539573804884e-02 4.377421721034126523e-01
-1.598595009996265151e-02 -1.221404633480147883e-01 5.299058570393666567e-01
-4.408047812600864035e-02 -1.112967996251847946e-01 4.777828735331597909e-01
-8.190167317364854815e-02 -1.112644728273681077e-01 4.955934645245946846e-01
-3.009212356888989193e-02 -1.188952877731643543e-01 5.025273261831826321e-01
-5.527306717512440321e-02 -8.810372247518502564e-02 4.244764236033417570e-01
-2.838781708582844426e-02 -9.859127102591966341e-02 4.565222743672692762e-01
-6.934770937374416799e-02 -1.129677287853288609e-01 5.023754427053599425e-01
-7.421170327607631498e-03 -1.199630765831825319e-01 4.884943091438386231e-01
-4.016992151075782919e-02 -1.139663899241029621e-01 4.870564447970126554e-01
-1.312452721149192682e-02 -1.213395052552729142e-01 4.965745477624948223e-01
-3.400517177431328780e-02 -5.495946698321108048e-02 4.361230393549564988e-01
-7.539083834199611367e-02 -1.033256637657918725e-01 4.406123309837333690e-01
-6.602515622944021834e-02 -1.093654847642489963e-01 4.668141434065612438e-01
-1.064878610801685138e-01 -1.000566263435877790e-01 4.693814633103239320e-01
-5.372065205271860100e-02 -3.525338912612399622e-02 4.406871744637628763e-01
-3.996550912586584875e-02 -1.098773340043037589e-01 4.732578987516918856e-01
-1.199599145854028139e-02 -1.181905451958425723e-01 4.850222612146878887e-01
-5.859782473195510044e-02 -1.143757240819505971e-01 5.158839703815838451e-01
-8.621245857929345224e-02 -8.686093992912848061e-02 4.451378501396073828e-01
-4.894384539506726334e-02 -3.999909579246946345e-02 4.360943485257517960e-01
-6.156842892584245969e-02 -8.250087961402065295e-02 4.246744525428874373e-01
-6.260754766223441958e-02 -1.037968035101405340e-01 4.256012769513849991e-01
-8.275412460112832602e-02 -9.458106664437053446e-02 4.372092313627856108e-01
-2.171703353242308149e-02 -1.204661215590577816e-01 5.299079516767273290e-01
-4.052625577289570291e-02 -1.163089064699610181e-01 4.968487150434433008e-01
-4.514906301840183184e-02 -3.629707170520832943e-02 4.354329117675705407e-01
-2.887798952699013183e-02 -1.196728603857328127e-01 5.140252019915257931e-01
-1.113627864621266096e-02 -1.142445840446868893e-01 4.759193036405107158e-01
-1.070877586283633803e-01 -1.040879286317003410e-01 4.791381545201969239e-01
-2.056175156335102866e-02 -6.629656377795366262e-02 4.393252666167722364e-01
-1.036817996517562374e-01 -1.061336521496268892e-01 4.998601858620030924e-01
-7.636560173415596689e-03 -1.099813028652870950e-01 4.681317935862284729e-01
-1.015278991688759944e-02 -8.393918676762521236e-02 4.461845648321258739e-01
-1.197515069311739372e-02 -1.215007198802744576e-01 4.961534118596578891e-01
-2.803743492620256253e-02 -9.080196020344227792e-02 4.480634269599865216e-01
-9.905692691710325098e-03 -9.250576944693217341e-02 4.505458054916472443e-01
-6.925114937297636997e-02 -1.128487377994605995e-01 4.977056227423465873e-01
-7.760301442022525531e-02 -1.022808015859202196e-01 4.387383822406017431e-01
-8.749259161971785492e-02 -1.046170462951153957e-01 5.206139433037983988e-01
-5.757049063788417798e-02 -1.043610645569377215e-01 4.469564202731489133e-01
-5.460725075244318716e-02 -8.804768723853005630e-02 4.250100683638000643e-01
-5.260681568820642362e-02 -8.084189135451846919e-02 4.265963035796273006e-01
-5.485948871157075857e-02 -8.126286406519571404e-02 4.256587557028320701e-01
-6.422482684219112115e-02 -7.563436714714938391e-02 4.278731863529522395e-01
-3.226646349533885544e-02 -7.577382682043090623e-02 4.385908358964112352e-01
3.794179995639345229e-03 -1.267152690405015658e-01 5.171198388530383605e-01
-8.744626380113648678e-02 -1.075152607183876008e-01 4.647369706689124524e-01
-5.304070646177901777e-02 -1.000731914001012635e-01 4.296670921499442519e-01
-8.409815698906195069e-02 -9.587918337587993112e-02 4.405639591047046943e-01
-7.963225118484011655e-03 -8.018276032250037932e-02 4.450189249442084161e-01
-3.616297941323420861e-02 -1.158844165601792403e-01 5.376629532644803255e-01
-7.343364838265607764e-03 -7.260427740692686205e-02 4.423222228686005675e-01
-9.215982930589684818e-02 -1.052004537280234742e-01 5.147776987291130535e-01
-3.852664771013007694e-02 -1.155924111247527003e-01 4.922179083687899248e-01
-1.094358150319539591e-02 -1.122568426916569911e-01 4.723977267779769229e-01
-1.021826272820311049e-01 -1.037490529083138907e-01 4.657899377579050038e-01
-9.299685219525377286e-03 -9.872607123109936045e-02 4.557948890133578512e-01
-6.541498040931707780e-02 -1.114850095656071127e-01 4.765206494918407532e-01
-5.473171145953695249e-02 -8.584041560537437887e-02 4.249312146960412262e-01
-7.117771267777992655e-03 -1.090177746109180085e-01 4.666521445049971462e-01
-5.125313482763073358e-02 -3.341551477086669719e-02 4.386278126127538535e-01
-7.245861151175835013e-02 -1.008789853581624762e-01 4.283925271687502589e-01
-6.755892575446362236e-02 -1.117610225613090980e-01 4.814800097557319081e-01
-8.370563325373085728e-02 -1.083141698857035401e-01 5.146205985605863953e-01
-5.369163444981522870e-02 -2.899242754495685165e-02 4.435508271238614020e-01
-8.077459334583834971e-02 -1.018515655294166405e-01 4.424530921979517584e-01
-5.307677297612350270e-02 -6.935774311995003549e-02 4.281729748264267998e-01
-1.028802823045670174e-02 -1.245151600242549034e-01 5.166811214144363396e-01
-1.411964220830663926e-02 -1.198143998516354308e-01 5.444704581729057358e-01
-5.167915722633112385e-02 -1.120479601284112559e-01 4.790730223765662377e-01
-8.092248191130263502e-02 -1.053226185696408412e-01 4.536669590760640247e-01
-5.042831836425471642e-02 -9.226188872882712388e-02 4.284646322918930772e-01
-2.104006913232319559e-02 -1.069452202171877614e-01 4.669894133820913784e-01
-6.406519547782597857e-02 -1.137021503504427461e-01 5.116416288802582146e-01
-8.190896988180441929e-02 -1.046725309468482523e-01 4.519846784048573429e-01
-7.681554886934498227e-02 -1.104835970138776241e-01 4.745617557671517051e-01
-2.019767140843214612e-02 -9.655930767805780135e-02 4.545114376067809769e-01
-4.876423626338254741e-02 -1.159954298855171290e-01 5.113775648681617714e-01
-1.263901825970382801e-02 -9.395945012016208853e-02 4.513576844437677260e-01
-7.713567856575770376e-02 -1.113382915789059846e-01 5.081691310328015909e-01
-3.758585868114225348e-02 -6.138395264171735144e-02 4.351397654857981911e-01
-4.347111510180377836e-02 -8.214437320358944361e-02 4.343201336241374055e-01
-4.670923500859881783e-02 -3.961855456946593301e-02 4.355164031583238504e-01
-8.921754834423797909e-03 -6.661178210771555308e-02 4.405855764540372865e-01
-1.196478400886982069e-02 -8.516193929658290307e-02 4.464949275863115408e-01
-6.941244153960984820e-02 -1.099782279144337349e-01 4.700233406496793220e-01
-4.065162425042753713e-02 -1.173751864769520259e-01 5.125408993805621316e-01
-1.139953313741788252e-02 -6.667952688353998014e-02 4.404977988685803703e-01
-3.050443233542589686e-02 -7.784229775941815810e-02 4.398624305383986854e-01
-5.937131188977271684e-02 -1.142896964971586160e-01 5.020638529524179550e-01
-3.775830121277901075e-02 -1.004303245840886816e-01 4.556107218232008926e-01
-8.684658796424957194e-02 -1.051410999097104615e-01 5.199491937958888865e-01
-7.980650281544976465e-02 -1.107450890030883539e-01 4.771377075318193883e-01
-2.241214619230075950e-02 -5.487953542759168440e-02 4.382514081612653434e-01
-2.602422342204260136e-02 -1.190779661777514736e-01 4.999205259889448194e-01
-4.396349787477018406e-02 -1.167896935613549764e-01 5.120375366542404549e-01
-3.064877603474385967e-02 -1.077302307197213899e-01 4.699490756116303514e-01
-2.551698087236265594e-02 -8.146188544747132165e-02 4.428382708601649176e-01
-8.674751678219207174e-02 -9.770440804274541091e-02 4.445869957638878267e-01
-2.770626745353201026e-02 -1.070459857559129951e-01 4.689690806232846287e-01
-4.805391510520076737e-02 -9.293008912720207571e-02 4.324960115042351672e-01
-6.375472359911062148e-02 -7.424997631738773640e-02 4.274791885802297076e-01
-4.674645520931725723e-02 -1.161705037452517575e-01 5.051046382883426222e-01
-2.845682919403263317e-02 -5.516304130395154048e-02 4.374002991596571688e-01
-2.962290379699470885e-02 -1.007876628422945259e-01 4.592913693983409207e-01
-5.600605534317926529e-03 -7.998343455439332894e-02 4.453270411871018686e-01
-2.011315857858388470e-02 -8.755278873218677593e-02 4.466035400767441321e-01
-2.613629626725550228e-02 -9.146127116189806117e-02 4.490327295216716141e-01
-3.563386615906744687e-02 -1.152145937991999741e-01 4.896229565052524491e-01
2.958804303137581651e-03 -1.178500336896696754e-01 4.822857096409471356e-01
-8.470308526381931102e-02 -1.062531765033523645e-01 5.193397937398979147e-01
-6.175559281821949714e-02 -1.140907890940540820e-01 5.101664353419563813e-01
-3.256760280830653387e-02 -1.019837157610161832e-01 4.602446470443492532e-01
-6.270589116009273045e-02 -1.038559294319657128e-01 4.262017502164021088e-01
-9.868536162519717103e-02 -1.028361358043722862e-01 4.616703762197819083e-01
3.724594439186346487e-03 -1.156697077780473731e-01 4.776670083455818450e-01
-7.746108780912965008e-02 -1.112466058990683460e-01 5.083804459847209856e-01
-9.034568724981342780e-02 -1.093173933470346221e-01 5.019965384284003074e-01
-1.061560218975892145e-01 -1.025000876510479136e-01 4.718991371133255397e-01
-2.870163676815196130e-02 -1.191656284531131399e-01 5.027197990618822443e-01
-1.026682796476039439e-01 -1.071806379898534306e-01 4.931257222897286185e-01
-5.915027703246203417e-02 -1.093346719417513935e-01 4.664828435400864004e-01
-7.548833818496089587e-02 -1.044458634658909368e-01 4.453219518540418864e-01
-3.685911475235676554e-02 -1.177078291616897171e-01 5.228560755787464709e-01
-3.448811479762652760e-02 -7.868507749964755160e-02 4.389027295648342264e-01
-4.428144091348648614e-02 -1.005527110415660313e-01 4.510523676315875696e-01
-1.265789217284444233e-02 -9.451179635959087999e-02 4.519088340871211251e-01
-9.577213234623171978e-02 -9.057284026434193891e-02 4.568311813804004085e-01
-3.183404670854531049e-02 -1.181871690245628326e-01 5.281747502087318358e-01
-4.863207199541247708e-03 -1.064310000226084546e-01 4.639402606553231223e-01
-2.853596590250405754e-02 -1.193396590351934045e-01 5.236399205063710927e-01
-5.437040583982158393e-02 -5.470023956901387541e-02 4.333762502577818143e-01
-5.365060912873532289e-02 -2.804900555288082978e-02 4.438300377165902422e-01
-6.918007347544055663e-02 -1.067180341930965698e-01 4.555208662300752054e-01
-9.086115372392651601e-02 -1.098938198323792109e-01 4.968226044559398979e-01
-4.448021702318066817e-02 -7.644562206143078187e-02 4.323736786473992844e-01
-2.615630394034382678e-03 -1.145865987952491977e-01 4.751833167250385515e-01
-1.058753209357345265e-01 -1.046866778274814225e-01 5.013947509916315548e-01
-1.538889562146878408e-03 -1.214811113199981002e-01 4.921512007782443687e-01
-9.840221852081815213e-02 -1.079913002939495575e-01 4.976056107108705606e-01
-7.417172280693527797e-02 -1.122956067606507291e-01 4.985883634519714946e-01
-3.502685592879416221e-02 -1.007653140135983671e-01 4.577633660107616742e-01
2.895268658287472596e-03 -1.266214823898683117e-01 5.275604164320685241e-01
-6.156845989489111159e-02 -7.811238665670554304e-02 4.256508813475518571e-01
-1.706027283238820483e-02 -1.212210615541187558e-01 5.350262634768043757e-01
-5.404867512165378168e-02 -4.654001791809121713e-02 4.361697119094115616e-01
-2.195000232434286130e-03 -1.249622551590112846e-01 5.330273087753593098e-01
-5.601299494629986137e-02 -1.147326446282865842e-01 5.018725903330114591e-01
-5.503507720268255299e-02 -1.027288248465246107e-01 4.365633525140568127e-01
-6.360320020109766492e-02 -7.231961423480923190e-02 4.281437440348763168e-01
-4.085612923930133367e-02 -2.849975530367507628e-02 4.360211694074154765e-01
-5.698915190291829747e-02 -7.820311617161450346e-02 4.256424050464320818e-01
-9.267235880573550244e-02 -1.095048556185872352e-01 4.981843108041207335e-01
-7.079480116487638086e-02 -9.822582083759137661e-02 4.244226769190126980e-01
-5.480468077128667487e-02 -1.053743170001469470e-01 4.526954465275633832e-01
-8.793346516801762991e-02 -1.100143018073706513e-01 4.771516073296992455e-01
-7.452988826749273876e-02 -1.050079704439103173e-01 4.480610982354598648e-01
-1.944713169277656126e-02 -4.239648307941997624e-02 4.389963115875600286e-01
-9.053675064808185124e-02 -9.519011465444822406e-02 4.476034084972657090e-01
-6.933369733332107702e-03 -1.068266110604545044e-01 4.641669977527315138e-01
-1.418156970306342149e-02 -1.054793195221844920e-01 4.629581500820652562e-01
-5.204607843334815159e-02 -1.038094864243771370e-01 4.512404175449467592e-01
-7.731512006784065083e-02 -9.911090043338430244e-02 4.316522411533097459e-01
-3.334243087820062262e-02 -7.130130407006617099e-02 4.368546004543470973e-01
-3.954901521169308654e-02 -1.175146650543244103e-01 5.185213417229594945e-01
-2.666102145054859152e-02 -1.174205890693978543e-01 5.413092433296675665e-01
-7.898396132759725324e-03 -1.040885729961233686e-01 4.609589505883377458e-01
-7.149953966891803292e-02 -1.111135036016719646e-01 4.776523462385290353e-01
-7.492061913725374389e-02 -1.116907619218376890e-01 4.851775753667847413e-01
-4.816027773658786842e-02 -8.336493560847180184e-02 4.298878060367831710e-01
-7.231203797121568688e-02 -8.551965964195780423e-02 4.248020709925933724e-01
-8.952580823961492351e-02 -1.090741693085135466e-01 4.721337234525223581e-01
-8.728107234733584185e-02 -9.609489150480773900e-02 4.442932404175022332e-01
-6.786873710124241565e-02 -8.761728393690350336e-02 4.216371127191232415e-01
-2.144410201325736356e-02 -1.159240946434148267e-01 4.860404958722416291e-01
-5.546713793211405924e-02 -8.320062306497141846e-02 4.250963448841870163e-01
-5.594120041907330032e-02 -7.953877590889719962e-02 4.255353771364658866e-01
-4.067361172016270565e-02 -1.099040912477185078e-01 4.731265997508046772e-01
-9.417410937481381777e-03 -1.129456668403737568e-01 4.729716929419852112e-01
-4.337438777432316844e-02 -1.057985138411000337e-01 4.618537435800017521e-01
-1.038193532317235740e-01 -1.040807605260302138e-01 5.048545852457974048e-01
-7.807827031672816276e-02 -1.018623296841222187e-01 4.383782288703576557e-01
-1.069232627128608032e-01 -9.979107795434341566e-02 4.700992776093881886e-01
-2.551997192975563947e-02 -4.556535093059664587e-02 4.387054659443507809e-01
-5.642452437930149667e-02 -1.146943793667636324e-01 5.025947244115368528e-01
-1.697977759253922400e-02 -1.184371509599898564e-01 5.467908368515148609e-01
-5.807792586592923356e-02 -1.135083217424713992e-01 5.233369944057471024e-01
-8.208651720579066002e-02 -1.111605659195650658e-01 4.986167005905142169e-01
-3.680993908149442911e-02 -1.163588737889438146e-01 5.341067030858851483e-01
-6.710071161905942216e-02 -8.152243384783053326e-02 4.258164714473405832e-01
-6.654394657181328387e-02 -1.056329468148991674e-01 4.478218188933109634e-01
-2.198890923490852151e-04 -1.255770579707818080e-01 5.082111917302266635e-01
-7.320098725805601614e-02 -1.121002136881050909e-01 5.098721291350771789e-01
-3.760510117685330472e-02 -9.347943754545924577e-02 4.470971174702981776e-01
-6.356885554868146881e-02 -1.046529315121720732e-01 4.333750000401802027e-01
-1.088053889232284133e-01 -1.011339095549277922e-01 4.777562125459103859e-01
-7.192294517053497704e-02 -1.099899853554484330e-01 5.224624872362688688e-01
-1.060692651791139522e-02 -1.090688139931406397e-01 4.671545629755025630e-01
-9.695034843808053582e-02 -1.041925574597987458e-01 4.626689740558939667e-01
-7.047356141020552633e-02 -1.021571090073762483e-01 4.298529719737061994e-01
-9.114672524618980254e-02 -1.099331855278458392e-01 4.869551282049119911e-01
-2.272169144669908269e-02 -9.337071666709735596e-02 4.514847790627828927e-01
-9.439902165590770278e-02 -9.729708953376925429e-02 4.528438867264547030e-01
-7.188556711949041500e-02 -1.116802230685329939e-01 4.824289726738679729e-01
-8.139100001047779032e-02 -1.110689011936706189e-01 4.812984756399042441e-01
-3.420036151569053051e-02 -5.232818240893587908e-02 4.361202917643590693e-01
-5.910998263221586141e-02 -8.205286120776808523e-02 4.248579955759300142e-01
-4.609517520559135162e-02 -5.699883791618007983e-02 4.330576980989457869e-01
-6.288469801812390791e-02 -1.117924786584257729e-01 4.783326958165807219e-01
-4.472770303046012808e-02 -1.073215974280707918e-01 4.642130968581455464e-01
-7.058584692646667491e-02 -8.375846980631550254e-02 4.253741088397891557e-01
-7.153353945458458540e-02 -9.054176419300490053e-02 4.214351986964378627e-01
-4.681593859925101825e-02 -5.494358405702621378e-02 4.336884771458840993e-01
-9.324433829112746541e-02 -1.080514207646719321e-01 4.713074778048693680e-01
-7.308153736824259117e-02 -1.090825248512577728e-01 4.658703271325558282e-01
-5.344312342800183746e-02 -1.153076551991203125e-01 5.120844990313364598e-01
-2.535393377991196351e-02 -1.081679581072236412e-01 4.704157833234633990e-01
-3.882862930343562030e-02 -1.155836189719662149e-01 4.923058779410238728e-01
-8.522914274957012204e-02 -9.438657236632848335e-02 4.413567802858266442e-01
-6.434590655517279101e-02 -1.062853949851118029e-01 4.522188183663271577e-01
-7.893033432064602839e-02 -9.766620612946627644e-02 4.328056990872739540e-01
-8.017017825434799919e-03 -9.590748018430388100e-02 4.535210038632396246e-01
-3.438613854932854458e-02 -1.153761085602340586e-01 5.417522175666995565e-01
-9.094145553120086545e-02 -9.881082331043823663e-02 4.502019028159444658e-01
-3.282397094868790693e-02 -1.172766914737614352e-01 5.345048450802905027e-01
-2.224438384665603993e-02 -4.123229704389681782e-02 4.390984562976015804e-01
-7.533308648049508172e-02 -9.757877915826189408e-02 4.273415916217498944e-01
-3.849772583162863488e-03 -1.164417566433590262e-01 4.784893958474060738e-01
-8.728228283923987474e-02 -1.043539866922183063e-01 5.213502553313733578e-01
-1.061114023172298054e-01 -1.042404809247188535e-01 4.753748852813932113e-01
-6.042134329209978075e-03 -7.228146654588581133e-02 4.424081203331222123e-01
2.988748753160443139e-03 -9.203417543157359215e-02 4.522706722655565614e-01
-9.310686821922652123e-02 -9.939429013177222827e-02 4.533825477776535218e-01
-2.179105532095671621e-02 -9.566091091816464331e-02 4.537315255910445155e-01
-6.393704452082146078e-03 -1.080908057739188993e-01 4.655727984613398096e-01
-9.691449358665747693e-02 -1.086664046073109596e-01 4.844720867088186389e-01
-1.976484138555760495e-02 -4.460905763678063574e-02 4.390621781196960560e-01
-7.241770275944858781e-02 -1.124333882777371757e-01 4.969130341582065902e-01
-1.326475445218879001e-02 -7.852298365886942189e-02 4.434771818439471880e-01
-1.345300448181666747e-02 -1.231174532917847925e-01 5.266643807444623127e-01
-2.819816470114689180e-02 -1.153291043510048380e-01 4.870575596153144393e-01
-1.181620652674686064e-02 -1.204564441471527303e-01 5.438020781128464209e-01
-7.893753440816508871e-02 -1.070755135230802707e-01 4.589988637856613485e-01
-6.031879970991711748e-02 -1.138143323314806110e-01 4.961023827074828585e-01
-7.317336707168202448e-02 -1.071276997461224761e-01 4.575501219693528521e-01
-5.088803662193524396e-02 -1.000940980532144392e-01 4.396380714140566970e-01
-3.998846350468862609e-02 -1.071979234047115148e-01 4.659441274615646056e-01
-1.096521549269225404e-01 -9.507207598190930975e-02 4.763824480814330964e-01
-1.999968057645078179e-02 -5.710980220838372118e-02 4.383644889348568552e-01
-2.395447855489842362e-02 -8.513926143435619764e-02 4.447868425142926241e-01
-8.860619365886164556e-02 -1.048689561068120168e-01 5.185522286512176393e-01
-7.529105983045192470e-03 -1.184017436524286288e-01 4.832171584166537470e-01
-1.273073384959470637e-02 -1.135558393081963491e-01 4.752949004441220926e-01
-3.379954204134349993e-02 -7.505723991870236200e-02 4.375419419165650914e-01
-5.094865571137935367e-02 -9.786554722985343902e-02 4.332552783173519995e-01
-5.441288517502869404e-03 -1.251492973789692376e-01 5.095444125998431772e-01
-1.025924436305570148e-01 -9.518520851524894799e-02 4.630668108349672574e-01
-9.419500223298384045e-02 -1.055421912846296884e-01 5.123677928796419589e-01
-1.087125353604004828e-02 -1.106152037317888331e-01 4.697838992361351718e-01
-9.279724324301046046e-02 -1.059103675182125753e-01 4.631334741008218958e-01
-1.019684502337593482e-03 -1.132121580205511513e-01 4.729884409132674716e-01
-7.855345294114142451e-02 -9.287274989658461655e-02 4.297928558903815754e-01
-8.939054959893484240e-03 -1.014628861403799320e-01 4.582969166076976686e-01
7.517076333183534721e-03 -1.268417039702456062e-01 5.191600776023858055e-01
-1.107278024729725918e-01 -1.006577209662934264e-01 4.980957539220651209e-01
-5.936579128036693215e-02 -7.901428471295658673e-02 4.254216650834479752e-01
-7.262578917166354064e-02 -1.108085740433920607e-01 4.759905845202591634e-01
-9.978966090295020297e-02 -1.079767905071466472e-01 4.889878396654975812e-01
-2.629349700606927603e-02 -9.235832835868784674e-02 4.498903640577543439e-01
-9.495521794473776866e-02 -9.665458311439008299e-02 4.535518833029348329e-01
-7.386607892200784675e-02 -9.769958017723770483e-02 4.266395672979847453e-01
-4.650505359996618543e-02 -1.146596824303381806e-01 5.299397456383700966e-01
-9.920536917303501151e-03 -7.149082946973940589e-02 4.417124053248418503e-01
-5.373603669835418095e-02 -3.879575945823472705e-02 4.392652114452831325e-01
-3.846825331907954837e-02 -9.379622638273117652e-02 4.469233974913203178e-01
-3.798061830036815467e-02 -1.142956123913794336e-01 5.420755058414460370e-01
-3.810303103892520582e-02 -6.390832101297318213e-02 4.348764914696020556e-01
-1.124910892412415032e-03 -8.250487578726724280e-02 4.469639958913020350e-01
-6.067399824122379770e-02 -1.052767529187322443e-01 4.474234900650546631e-01
-5.346263007451255989e-02 -1.049499250240250592e-01 4.527928936428262663e-01
-5.971646631109411851e-03 -1.125035400681016345e-01 4.718860620742865719e-01
-2.805617448730298585e-02 -5.401326087234034623e-02 4.376659052135639105e-01
-8.377557445245158163e-02 -8.996613605101172473e-02 4.395259823919015485e-01
-7.130682592104781170e-02 -1.122191773274768684e-01 4.907645519248106103e-01
-2.076813317780240586e-02 -1.204294165773104469e-01 5.325703679340383356e-01
-3.469200283091215808e-02 -1.078084137027479628e-01 4.692934564712960555e-01
-4.368443526834955848e-02 -1.155649097998652924e-01 4.943241352167949687e-01
-5.772460331745739304e-02 -1.075231465901918121e-01 4.595992923624854232e-01
-9.070251966673588406e-02 -9.943273449806584730e-02 4.508104013711992097e-01
-3.687364723026231167e-02 -7.134434200265375725e-02 4.354364846329239480e-01
-5.398109080374084018e-02 -1.125443517808538268e-01 4.824562850602820419e-01
-3.577799905056914392e-02 -8.536546465395668248e-02 4.415843357558923987e-01
-6.180008689557998924e-02 -1.120501028071019256e-01 5.255120520330411882e-01
-8.820384816066249856e-02 -1.085551281936990853e-01 5.081955090839808120e-01
-5.592793310336545420e-02 -1.130046467352150835e-01 4.856015246623630599e-01
-1.342112614546475333e-02 -1.235453126603691665e-01 5.127485027998786027e-01
-4.962690317592267225e-02 -1.158156706204714892e-01 5.165103383867618581e-01
-3.673092872772151796e-02 -1.138943351944038812e-01 4.856492720524849815e-01
-1.095913831904010427e-01 -9.657983665700896336e-02 4.760454424480393687e-01
-3.639579354070585082e-02 -1.166318017406153540e-01 5.330483032621710082e-01
-3.269040294487170900e-02 -7.688503941275272313e-02 4.389080813062264941e-01
-5.669443663128335975e-02 -1.008432686902917402e-01 4.237691885848862694e-01
-4.601087134270545609e-02 -8.197673842597441585e-02 4.314962851604859928e-01
-1.066353114352987796e-01 -9.721185521521721884e-02 4.683039270782361485e-01
-5.227525037829349602e-02 -1.009682977850312052e-01 4.366168014645542828e-01
-5.119052754160718227e-02 -2.570460166316763245e-02 4.381799399716767018e-01
-2.727549912800863313e-02 -5.822728586937668538e-02 4.373013090918758672e-01
-5.343219060673307791e-02 -2.512328568188683733e-02 4.436879328150898916e-01
-5.695992771207647465e-02 -1.064948293326862527e-01 4.563054232616671757e-01
-5.855908034338046936e-02 -1.111243170691827153e-01 4.733096179675311821e-01
-9.147183377548415151e-02 -1.048035149514141839e-01 4.589900281964334749e-01
-8.704377664839044182e-03 -7.201123735287408290e-02 4.419780371915943973e-01
-1.837875736694536202e-02 -7.472402852520472483e-02 4.414407766937135102e-01
1.180295377569239804e-03 -9.434012209020332940e-02 4.535833579515019531e-01
-1.113637157766861341e-01 -9.792541038962715438e-02 4.788197772804411168e-01
-6.350939962781965153e-02 -1.124891040229965694e-01 5.220068985070205336e-01
-4.970407175461391547e-02 -1.133705325674117942e-01 5.317642111346930767e-01
-3.317062110024684984e-02 -8.999851848872188198e-02 4.457964199173052311e-01
-1.691021677031940076e-02 -6.475952667054019063e-02 4.395696069523373772e-01
-3.403355238434526558e-02 -6.096501589619082034e-02 4.362094748441287528e-01
-1.969622910727115116e-03 -1.213383037630012123e-01 4.916776246054136990e-01
-3.164221409470464527e-03 -1.188317991415791391e-01 4.840920070217181737e-01
-5.362083222644747904e-02 -9.001967696804866192e-02 4.258643944114057778e-01
-1.086194512881386853e-01 -9.765316049331625170e-02 4.732367917269361124e-01
-8.320837631536821821e-02 -9.431432132030018178e-02 4.377994165050104747e-01
-9.565557928891252337e-02 -8.972554212398950457e-02 4.574167409019272434e-01
-8.240801381393363101e-02 -1.070396462497339579e-01 5.196979700476342945e-01
-1.286886100247611187e-02 -6.217322544610663637e-02 4.394393034946092458e-01
-3.378119511694659821e-02 -1.127506140286039377e-01 4.809117013833486554e-01
-1.189919596436901823e-02 -1.211897122294350454e-01 4.946551791787220376e-01
-4.148787893062538118e-02 -1.166884111904221977e-01 5.009053588520464562e-01
2.897160068897036266e-04 -1.264136765983326360e-01 5.265433237466168315e-01
-2.646132056131369342e-02 -6.639645037984594211e-02 4.381857348271271935e-01
-6.534025526819070562e-02 -1.059788246550375929e-01 4.505980661020494993e-01
-7.414589394272685929e-02 -1.086501421022012803e-01 5.247756665453660041e-01
-7.094711348792349936e-02 -1.058518091585949894e-01 4.513153650770208580e-01
-5.597474588383749561e-02 -1.074634898328115512e-01 4.602046803537820363e-01
-1.662192926247712740e-02 -1.219489244518419807e-01 5.051550269024661644e-01
-8.961554228819723199e-04 -1.146776280476073939e-01 4.754915926670287840e-01
-6.845292730925181535e-02 -1.017913565090208111e-01 4.261909201746196807e-01
-6.282306032447777799e-02 -8.699337704483185718e-02 4.230044741703615774e-01
-6.972154708730064765e-02 -8.918465617536348866e-02 4.214087630409149576e-01
-8.213541776760281687e-02 -1.091786846696008312e-01 4.681410264385446052e-01
-3.604747396112190083e-02 -3.443987558958188505e-02 4.362696536050642004e-01
-1.369359379477348357e-02 -1.075886349848409196e-01 4.653845163625086601e-01
-8.740040124470467575e-02 -1.095281327551194950e-01 5.039818165393893379e-01
-8.856443086916344909e-02 -1.103546573141928888e-01 4.946121723488821065e-01
-6.034692117043529563e-02 -9.522746785906761879e-02 4.234432229455147301e-01
-2.782328892941885595e-02 -1.198980509692523233e-01 5.151132383222670752e-01
-6.416371309100822595e-02 -9.645033879926646903e-02 4.225224272387154145e-01
-2.076194331567696519e-02 -1.008141253103878865e-01 4.594728074541030716e-01
-4.865857963059470187e-02 -1.035422267389891626e-01 4.532120965161982040e-01
-6.722217561964390076e-02 -1.132887589352671032e-01 5.046476012804456124e-01
-1.465200323936232361e-02 -9.506244272116838590e-02 4.524873524274726777e-01
-6.917370567508017432e-02 -1.051620992621737083e-01 4.462531289257362088e-01
-2.965829046782277392e-02 -1.189548297575737934e-01 5.025267460767407490e-01
-1.667438146164566815e-02 -4.594977891688293431e-02 4.387069725500111761e-01
-1.026602142343990137e-01 -8.879263076673941935e-02 4.694213558009764919e-01
-8.841396798325887318e-02 -1.034402713921836192e-01 5.221213950101322165e-01
-9.061929467991544640e-02 -1.083627143563998807e-01 5.064516978706112837e-01
-5.609905991707699741e-02 -1.147841808816004033e-01 5.160035393970281437e-01
-5.501262677817963381e-02 -9.891350109709221017e-02 4.250437622041700059e-01
2.563997250235299646e-03 -1.257041455258440799e-01 5.340618488467193670e-01
-3.516444152837664566e-02 -1.173407260866674295e-01 5.293900665073385525e-01
-1.028561198345040867e-01 -1.054200404300565802e-01 4.727940906961277667e-01
-1.013753165523766792e-01 -1.073846883188593893e-01 4.949467169580620829e-01
-1.045438108907766755e-01 -9.236772814691353306e-02 4.683831254096756935e-01
-2.472161087053168296e-02 -1.193375602500191812e-01 5.331408006774803754e-01
-6.977141694394951854e-02 -1.099280434097408832e-01 5.250782208721225253e-01
-4.202878241446725976e-02 -1.041848832826174354e-01 4.593618873378478851e-01
-1.665711499024566389e-02 -7.431259609277167388e-02 4.416443461536233017e-01
-7.589758612734925913e-02 -1.032615399550068092e-01 4.408304548920572996e-01
7.094940611828197581e-03 -1.259187494766712545e-01 5.347383183873036794e-01
-7.526592617956144593e-02 -1.036303318819058877e-01 4.414884519229044790e-01
-5.033218656244151101e-02 -4.833641320861556401e-02 4.349004030952254851e-01
-2.884704644447898345e-03 -1.260647440985317447e-01 5.220118908512018097e-01
-6.488194373822496475e-02 -1.110710349470620112e-01 5.259483490267246042e-01
-1.040104890177987046e-01 -9.086874919713845700e-02 4.692427431185961506e-01
-3.910477943539394236e-02 -1.129869256916205961e-01 4.835911869970512811e-01
-4.475194366746414881e-02 -6.262433803492742368e-02 4.321901514571290237e-01
-3.999242360872043434e-02 -8.725284269028958650e-02 4.403091880626031074e-01
-1.727450698049304290e-02 -1.189582743179609797e-01 5.448106362795500646e-01
-2.128275551457934484e-02 -1.106377733785161993e-01 4.739563277145981135e-01
-4.703290352907241872e-02 -1.162817621569153942e-01 5.145759403021352707e-01
-4.813799756612936742e-02 -9.946965339937405282e-02 4.457814617903256837e-01
-4.311759073982895929e-02 -2.691371115314528453e-02 4.363077722858038077e-01
-1.057673650972354024e-01 -1.053867268875423452e-01 4.826598115452977455e-01
-8.555668809405025943e-02 -8.792665048765492541e-02 4.433833849680896000e-01
-5.574654016415719199e-02 -1.111237554184330983e-01 5.334555738443013118e-01
-6.851485109420744901e-02 -1.121322506507054090e-01 5.179049058932744254e-01
-4.315208522498587690e-02 -1.159917502675321538e-01 5.265828254227444827e-01
-4.883856722407709655e-02 -1.146433625321637007e-01 4.918688433722990250e-01
1.245618270538601836e-02 -1.265714070043879869e-01 5.318585895505338890e-01
-4.921830526660771893e-02 -5.294628396153651384e-02 4.340340522860109962e-01
-8.031998806679933878e-02 -1.086158754739730975e-01 5.173821964105441706e-01
-3.105387857047902517e-02 -7.174400907946094919e-02 4.377940756259041666e-01
-1.359426136864514550e-02 -1.234313421305067576e-01 5.220356976124005399e-01
-3.645505781942728896e-02 -1.180969421128662683e-01 5.092301631460002254e-01
-1.039556694746545384e-01 -1.067814305157484822e-01 4.884217317730629726e-01
-5.197350967916551656e-02 -9.487770152867627815e-02 4.273915133239084563e-01
-8.459196839982516258e-02 -1.039672335600591163e-01 4.516943374059916305e-01
-1.623047127191509136e-03 -1.259662139935490976e-01 5.273786435743423873e-01
-6.356766513533772256e-02 -1.126923862276300869e-01 4.878846865278443357e-01
-1.010111609415305506e-01 -1.063912407327406717e-01 5.024756522336225606e-01
-4.668122074886958683e-02 -7.608505916468112640e-02 4.306570394531475388e-01
-1.037589275612346706e-01 -1.040001384793933503e-01 5.050904761983345814e-01
-7.775320193254596501e-02 -9.827818737542402816e-02 4.312394956790617240e-01
-8.839249352007587379e-02 -1.093244644613636241e-01 5.040537252005455882e-01
-2.316296400496458546e-02 -7.811717600596583544e-02 4.418125726943299969e-01
-4.909903860568302220e-02 -1.154549286132167119e-01 4.986899726185227144e-01
-7.618779230470548725e-02 -1.119439697733191769e-01 4.936028020657411974e-01
-7.345294476732279476e-02 -1.123860327141560228e-01 4.991767516425791307e-01
-8.156485473642260953e-02 -1.098106950759357020e-01 5.104390554796951474e-01
-3.024776224405636982e-02 -5.467942425919883331e-02 4.369427190326382049e-01
-4.294911723468072817e-02 -7.438484247008640693e-02 4.331970030227777491e-01
-5.525740657388308885e-02 -1.148502393221139811e-01 5.024055347430539387e-01
-3.197287465311357546e-02 -1.158612655346818870e-01 5.420979571094569627e-01
-8.560684482234726111e-02 -1.063146853778881573e-01 5.180263071687887244e-01
-1.344016558248499298e-02 -1.237479033632868930e-01 5.152106335350241650e-01
-2.403740474878093489e-02 -6.134854226652500936e-02 4.381410933832253218e-01
-3.673332405588305288e-02 -4.336376277586565658e-02 4.356842817821175995e-01
-9.605818318963592339e-02 -1.088269144443407971e-01 4.823511047260098383e-01
-6.966301413233857986e-02 -1.095072542063592475e-01 4.676805800589124984e-01
1.047882295470374363e-02 -1.263105894692477527e-01 5.338474188069827209e-01
-1.099309532038954679e-01 -1.016934204554224841e-01 4.850606159459955879e-01
-1.079683832611215560e-01 -9.540857820174694637e-02 4.716146705056371013e-01
-1.283168673357133749e-02 -6.673338457258957968e-02 4.404205627262829381e-01
-6.855872133396750945e-02 -1.012706902550050969e-01 4.254502298308542874e-01
-5.204369593256277099e-02 -4.901656262664188385e-02 4.352147809850848148e-01
-1.026773497685435910e-01 -1.072211501594727834e-01 4.903610030268019671e-01
7.246195169659483924e-03 -1.237609266350152004e-01 5.009915196700346351e-01
-2.561031729706431115e-02 -1.195078663429287591e-01 5.016306086315305279e-01
-2.794040533694378339e-02 -7.333683676934438234e-02 4.389892923176825223e-01
-7.520205763283513423e-02 -1.117416184901949966e-01 5.085129842670981226e-01
-3.202014672477671020e-02 -1.190317211753351007e-01 5.140255126806348995e-01
-1.741690377772393827e-02 -1.220860121507807844e-01 5.252604255814555811e-01
-5.867192467995339250e-02 -1.031984161762962565e-01 4.395030258678876423e-01
-8.453942973112099635e-02 -1.101996337776870172e-01 4.748585354010350090e-01
-6.140384628195928729e-02 -1.085800548712032715e-01 4.625935608093996732e-01
-5.377693930899758029e-02 -1.009194145789360092e-01 4.414283197709951145e-01
