-9.619056417509055934e-02 -1.030374231674588970e-01 4.581394270599594143e-01
-5.815905328141556668e-02 -1.133308364878092833e-01 4.862896270696189793e-01
-3.603631858699000295e-02 -1.126206238326345754e-01 4.805764936004773280e-01
-4.676195906852864681e-02 -4.703732253639341526e-02 4.344880332808052081e-01
-9.314407911142760788e-02 -8.581151782604078126e-02 4.574963020812912728e-01
-8.556224533016051903e-02 -1.101730185666908307e-01 4.726287557387301441e-01
3.074372054398294158e-03 -1.050271473802344840e-01 4.631127994122831715e-01
-1.073167085446658509e-01 -1.001847249418943986e-01 4.704009568831548638e-01
-6.076424964463409545e-02 -1.139911104424461974e-01 5.169490343993752290e-01
-5.164571273200661838e-02 -1.005949567143803181e-01 4.407760911790714053e-01
-3.846295687132149366e-02 -8.401448436594011193e-02 4.382460749589525140e-01
-5.490233511902050875e-03 -1.113384938863877655e-01 4.696406361075524116e-01
-5.473573375090430571e-02 -8.231813009779836987e-02 4.248827919013402621e-01
-1.937173264783547191e-02 -1.006917794212534994e-01 4.587812561239654752e-01
-9.741305257144354524e-02 -1.088613941268879726e-01 4.912913205645700887e-01
-7.040537286486263369e-02 -1.029632513150868095e-01 4.310296242111776310e-01
-3.903338485483683756e-02 -5.905599855424298328e-02 4.344460316768235519e-01
-1.087597895483807392e-01 -9.907542224232110395e-02 4.731635742008070689e-01
-2.940750326518075386e-02 -1.193138110167837329e-01 5.219966294775650884e-01
-5.971317256671607870e-02 -1.144329213905704440e-01 5.145904618768938343e-01
-6.482327796645415141e-02 -7.266346257067228531e-02 4.288472897512922155e-01
-3.175624949014452941e-02 -9.904806560174690688e-02 4.553348270928380126e-01
3.446672614516605154e-03 -1.183615405272725046e-01 4.833638662893312565e-01
-1.553136899760400834e-02 -5.066794238849997578e-02 4.386198109145422741e-01
-7.686742888411972341e-02 -1.115323158761065692e-01 5.084791631285827673e-01
-5.509909965220777250e-02 -9.317588606324174461e-02 4.236868390139758023e-01
-2.962830391359789345e-02 -1.192712127631594538e-01 5.043675142515056109e-01
-1.846957988102958595e-02 -5.758622292853109864e-02 4.383829376158150937e-01
5.917497258298346115e-03 -1.241548606071219696e-01 5.016013430293408959e-01
-1.896857164459587325e-02 -1.203730079327693520e-01 4.985139919779897344e-01
-7.878958568187244271e-02 -1.081633396698267191e-01 5.211799173520090811e-01
-3.214174921618120906e-02 -8.163406536704785610e-02 4.404227021817982979e-01
-1.361871662894335302e-03 -1.257194273858080746e-01 5.303460175282297406e-01
-2.822701078998410967e-02 -1.199021948483389582e-01 5.130966675980763725e-01
-7.323151191940706350e-02 -1.027215824504607578e-01 4.333669353483493025e-01
-8.266715447457478882e-02 -9.154970893748992644e-02 4.366435795050587210e-01
-4.325257590549554110e-02 -4.239577081072135739e-02 4.348677595223583991e-01
-5.461910034655161061e-02 -1.150659304981607733e-01 5.001684428943393712e-01
-1.579488796282070562e-02 -1.083255779992805951e-01 4.670958781654528935e-01
-1.232303249753048842e-02 -1.187157067997171717e-01 4.863145642537510804e-01
-3.284238119541723483e-02 -1.187789591722852867e-01 5.064347898245422641e-01
-2.387753103699392573e-02 -1.078739136257268055e-01 4.691416440472065408e-01
-9.754652787546179427e-02 -9.348021312529329607e-02 4.568171354021857145e-01
-1.818446509023322055e-02 -1.217103814643608894e-01 5.272440218093952247e-01
-1.346215679767238591e-02 -1.237207102547124432e-01 5.172066422411040199e-01
-7.240058484038074116e-02 -1.026493125328013095e-01 4.319081824712948103e-01
-8.468709837206303548e-02 -1.085781461697862688e-01 4.650310649387920381e-01
-5.118215729444397510e-02 -1.007533613524974198e-01 4.370383673318069540e-01
-1.047953287565952032e-02 -1.182959664371925901e-01 4.842139044263246705e-01
-2.882668681478360584e-02 -4.872366270987535386e-02 4.378224131153787280e-01
-9.719172598756979642e-02 -1.065546482988783961e-01 5.067770399940780823e-01
-1.107505709183946412e-02 -9.346551602938610315e-02 4.508119657726548657e-01
-6.433791541371491896e-02 -1.092048997679248984e-01 4.638954686476501332e-01
-5.770363011835206134e-03 -1.252046761529018448e-01 5.261064856896241482e-01
-8.663370613673940235e-02 -9.469282366293869935e-02 4.422560614176007099e-01
-2.101228654184262787e-02 -1.212615852510064846e-01 5.238157439643269520e-01
-3.183176839747830361e-02 -1.188871104515814986e-01 5.212609992103254264e-01
-5.391412444737196663e-02 -6.290852890096855499e-02 4.299696210975308963e-01
-2.775070532757984570e-02 -1.170840625362957466e-01 5.417136772088317898e-01
-6.242972493350897739e-03 -9.162500590791734789e-02 4.504673419983623583e-01
-1.172384842187878216e-02 -6.742917439292427095e-02 4.404828350170625906e-01
-4.506295563868024934e-02 -1.100683625718054809e-01 4.710831067719520315e-01
-6.445491185297796966e-02 -1.030006220830054081e-01 4.236428604215846661e-01
-3.409341850357625742e-02 -1.005404784111750965e-01 4.569658669915449001e-01
-6.102917004858544880e-02 -1.140263064691699468e-01 5.161346202798730021e-01
-3.996928860773396597e-02 -7.141103291109016094e-02 4.335549222646588041e-01
-1.591636806825493661e-02 -1.186445893010924652e-01 4.888633989164659632e-01
-2.289477472691974370e-03 -1.223525424597231015e-01 4.947361170622241455e-01
-5.236725036434820846e-02 -5.495340724633646090e-02 4.329543949106802181e-01
-2.272246704225537942e-02 -1.153746538146449702e-01 4.848140527535411692e-01
-3.094019011807437256e-02 -1.172763508139643973e-01 5.368730735968655354e-01
-4.564410920214562184e-02 -5.422123259570757470e-02 4.338535838123732669e-01
-5.238124455657033191e-02 -1.149536796799140864e-01 4.959436186348518127e-01
-6.768344362303767292e-02 -8.247771973605665108e-02 4.251071718984085757e-01
-7.423038100115048055e-02 -1.065701422536930870e-01 4.532054880988343748e-01
-3.711502104153654221e-03 -1.177540814748052611e-01 4.809862558225158069e-01
-1.026622069380946634e-01 -9.856115171598893443e-02 4.608996442115226855e-01
-9.700435680203375877e-02 -8.571517520617487340e-02 4.642178732472826974e-01
-1.032685229757891870e-01 -1.071329701400306200e-01 4.832725166818981344e-01
-7.431665016966758353e-03 -8.231573409868200852e-02 4.457421271192862355e-01
-8.607622496871915330e-02 -1.095849740857130633e-01 4.694183759553849367e-01
-4.559787176083717614e-02 -1.158868221663280629e-01 4.956587544112901478e-01
-4.104552760279450013e-02 -1.160391168559514879e-01 4.944616885401625916e-01
-8.799342143603791633e-02 -8.612042872021169471e-02 4.484782749566788018e-01
1.122687695220650830e-02 -1.265043306107000165e-01 5.211389655479290450e-01
-7.659020246517629638e-02 -1.120318020078721888e-01 4.903332376826250449e-01
-2.818127620240874071e-02 -1.192293373827320591e-01 5.267185171123557330e-01
-4.204474560245979181e-02 -9.508521409686132575e-02 4.451455621151934050e-01
-3.798658324994912128e-02 -1.133783526578334561e-01 4.838022707583651272e-01
-1.978643675817375394e-02 -1.174574397555156607e-01 5.473283212525814623e-01
-9.625317421259493855e-02 -1.068064371576712412e-01 4.672811410352015749e-01
-9.104560973181478889e-02 -1.103376765184791719e-01 4.916863060470852420e-01
-2.506210546062812711e-02 -1.204814144838986523e-01 5.087245196737134600e-01
-4.258071592424953616e-02 -1.148499209992540071e-01 4.899845678900085488e-01
-8.420107251200786846e-02 -8.754431417543578897e-02 4.416642713708024415e-01
-5.013145568474150493e-02 -1.095718914379098935e-01 4.665578900378349880e-01
-5.067006370948767824e-02 -1.003688260519976089e-01 4.380660713410092222e-01
-1.076743948026640252e-01 -1.028948301753082190e-01 4.766727410794767694e-01
-4.191811855143757343e-02 -3.243045501576707901e-02 4.354458057243030256e-01
-1.618082170648652181e-03 -9.654281112139712073e-02 4.548272839233708509e-01
-7.122593579370267713e-02 -1.122021037172336172e-01 5.130317641385077065e-01
-1.292946815578510655e-02 -9.481579097049698535e-02 4.519225289583387872e-01
-2.618312620831972706e-02 -1.202556849515279969e-01 5.096137299375960161e-01
-2.654254740975982296e-02 -1.031249159021593725e-01 4.626534235332108724e-01
-5.298743363500717229e-02 -1.152287436684538147e-01 5.176884501221606927e-01
-9.769289608827530502e-02 -1.056942506935845405e-01 4.646414541099822548e-01
-5.091748682541651777e-02 -1.108795838996928795e-01 4.716168964225126436e-01
-5.679039191301200190e-02 -5.237084309993399883e-02 4.363288021275576467e-01
-6.010436231386827310e-03 -1.247142603390418159e-01 5.071940175643420146e-01
-3.260633664123122055e-02 -7.031486668349154479e-02 4.366280940119646736e-01
-2.764414092765418371e-02 -1.139177388045389677e-01 4.818895617139854481e-01
-4.419056011029244557e-02 -1.163863905935329096e-01 5.223874914825675786e-01
-6.503903819604663072e-02 -8.349464841711749796e-02 4.234086126792417359e-01
-1.862797456049960013e-02 -6.092712930853955849e-02 4.387277880894602800e-01
-2.828342757051871201e-02 -1.144403576888067958e-01 4.836449474550647554e-01
-7.609271980352595721e-02 -9.513854966047854966e-02 4.261091700812956184e-01
-5.116879447824838889e-02 -1.139985693545004231e-01 4.877259839624141780e-01
-4.861316928288027250e-02 -1.158799476943717377e-01 5.187410747054843618e-01
-8.810718516913125520e-02 -1.088729221711233902e-01 5.074624812012733521e-01
-1.801751664307200615e-02 -7.576395367679122916e-02 4.414935674498300378e-01
-5.094035993238058002e-02 -1.104629479769354550e-01 4.697724861453840828e-01
-6.690836937417733721e-02 -1.131664885433423806e-01 4.936789557630079650e-01
-9.033737108328765419e-02 -1.080888429626654934e-01 4.669879559590283113e-01
-1.067101408052229666e-01 -9.615582471169081824e-02 4.680284967869324242e-01
-7.830573951542466049e-02 -9.926155114533879997e-02 4.329149532186765126e-01
-1.027353143761637194e-01 -1.013581410514941827e-01 4.624317196384847839e-01
-7.758488697115351052e-02 -1.119672298106378638e-01 4.905533923224509874e-01
-2.882214245156327487e-02 -3.564913181133468056e-02 4.379165466289479114e-01
-1.035606086346144289e-01 -9.589907707220744759e-02 4.635720627693232232e-01
-9.671354939199862388e-02 -1.052810408003834464e-01 5.106861363430889034e-01
-6.379321650564195867e-02 -1.067676114065973791e-01 4.522533871999302457e-01
-3.561169430953217002e-02 -1.184450267631228376e-01 5.123087804139802026e-01
-5.225776849806039459e-02 -1.088630267292252096e-01 4.639923028694662444e-01
-3.220269732974458121e-02 -9.840656868801721247e-02 4.541397699269529298e-01
-3.603143881057212228e-02 -1.155019761255685895e-01 5.397370185639471796e-01
1.805770455839874906e-03 -1.243472141125833846e-01 5.011401765011088694e-01
-3.515445462152866352e-02 -7.392636134640338808e-02 4.358940462854681286e-01
-2.916038474197292507e-02 -1.172307210760375751e-01 5.392692980181852391e-01
-1.028591910268044328e-02 -1.028793444495215564e-01 4.593509908115003815e-01
-7.771083968172981526e-02 -1.120419925516135534e-01 4.930321756033725356e-01
-1.878576701756281761e-02 -1.223758640393648039e-01 5.145793313782077716e-01
-1.045233657886434214e-01 -1.036737693382609876e-01 4.687099410946836686e-01
-1.157261219038820815e-02 -1.209898853578352251e-01 4.931520688841326550e-01
-3.113438125722898381e-02 -1.164688520833526975e-01 5.406290279103499463e-01
-4.473554004102459070e-02 -1.167851110996040442e-01 5.117062997932844137e-01
-2.706262048016351215e-02 -1.143836585990060384e-01 4.831534781488660557e-01
-9.805450097296294909e-02 -9.726818200278154747e-02 4.564512098398237350e-01
-8.643264873038741802e-02 -1.060296162089269245e-01 4.570773691523989379e-01
-5.720087257003145242e-02 -1.032873473076562632e-01 4.237755020682718587e-01
-8.963429817398127497e-02 -1.010750634505468426e-01 4.505186841390222963e-01
-1.461220179560858597e-02 -1.095368740070587349e-01 4.688127623147264056e-01
-4.717654651083611622e-02 -5.669668317101882182e-02 4.326890085704994116e-01
-8.376494734176068158e-02 -1.048144422974474355e-01 4.519098467852590284e-01
-2.759207525840408001e-02 -6.452472382846244359e-02 4.374835865825774661e-01
-3.191874219656271744e-02 -1.177836961193894638e-01 4.970303651190076666e-01
-5.490935761762479744e-02 -1.035288136470843140e-01 4.451822013970792025e-01
-6.528203610845187410e-02 -8.617957310091717282e-02 4.220865704750076941e-01
-6.120189711033402480e-02 -1.136149823294544114e-01 5.197674706018674540e-01
-6.976097717835397227e-02 -8.424097425174990883e-02 4.244904757788889316e-01
-8.435885089963916783e-02 -1.005239388234158981e-01 4.433660640321429591e-01
-2.918060558921757239e-02 -1.144957478937237011e-01 4.840478317725747659e-01
-7.062292695295926959e-02 -1.089752528524317310e-01 4.631232211284694866e-01
-5.472410691744194339e-02 -1.120347056817008052e-01 4.776818937004226884e-01
-5.491362811821887124e-02 -1.051964814750878385e-01 4.505811627374846084e-01
-1.392969238563335384e-02 -1.208461400926853641e-01 4.947289747441293017e-01
-4.373304261908879387e-02 -1.061703019713777091e-01 4.613101802310553556e-01
-6.300553351446015748e-02 -1.106407018772875561e-01 4.703411869323291805e-01
-2.097855679062632719e-02 -9.133405480413946120e-02 4.489489229193066588e-01
-2.809023212695092864e-02 -1.192031823594370127e-01 5.273219929715544652e-01
-6.059203461348697251e-02 -1.121092634163454449e-01 4.780349894154486412e-01
-7.075616741909451779e-02 -1.032037588235536624e-01 4.328045956165889052e-01
-4.440990716370976643e-02 -1.165070641041098948e-01 5.004795915238061665e-01
-6.376745670995309645e-02 -8.633019083496970558e-02 4.224037870767778924e-01
-1.899579133540740122e-02 -9.946223616880643659e-02 4.572840923329528628e-01
-6.973330151911646957e-02 -1.031588855095023766e-01 4.312262811587548317e-01
-7.471479559970481410e-02 -1.099370693645286279e-01 4.685444934433997677e-01
1.327694942060198653e-03 -1.258481755308747674e-01 5.323533472498731545e-01
-3.432133732198477949e-02 -1.161042924914296171e-01 5.386630431920783613e-01
-2.134031282439575322e-02 -6.371337939407559214e-02 4.385981639527414266e-01
-9.354045920746989484e-02 -9.292847052440576794e-02 4.519183605938933979e-01
-9.059901580682989952e-02 -1.102502168291386447e-01 4.829731860951116396e-01
-9.903955110328857472e-04 -1.008173824910993666e-01 4.587127738383000031e-01
-4.398811153052491554e-03 -1.218746255528987549e-01 4.934071795680608497e-01
-1.788588653796723688e-02 -1.101457543008991374e-01 4.712439855064885497e-01
-1.945647120567919539e-02 -1.219319700922190108e-01 5.198091270017969334e-01
-7.619897302644114412e-02 -1.098682470287909302e-01 5.184275633632715596e-01
-9.770610423318704107e-02 -1.083714643112895226e-01 4.980137037520389054e-01
-5.672701462930584276e-02 -1.115691655554016393e-01 5.317314248655636844e-01
-2.883393991000138268e-02 -9.922067693161848445e-02 4.565160294116611395e-01
-4.525466934921997669e-02 -1.136864389792866803e-01 4.861267974155258909e-01
-2.660187024719571150e-02 -5.196407294265352472e-02 4.378644665965862881e-01
-9.601631140182428914e-02 -1.077312972623167692e-01 5.044990116566681060e-01
-1.226130001646125872e-02 -1.238676557547536000e-01 5.209172634641675570e-01
-7.875452227807393235e-02 -8.988323784536625394e-02 4.307213923156550939e-01
-1.566578072322631632e-02 -1.010474246219136979e-01 4.581670078362172771e-01
-9.797598443008979918e-02 -1.073900535235711856e-01 5.035324142969489492e-01
-7.806411687022617174e-02 -1.078951791122789577e-01 5.229734490197416319e-01
-2.087107173311698524e-02 -1.206739763652853598e-01 5.024607709316432080e-01
-7.967099745026091917e-02 -1.109224080369055204e-01 4.753861804310364758e-01
-7.139940990389502529e-02 -1.060789378791452409e-01 4.500458578769224727e-01
-5.519384807201103971e-02 -7.139148447313813095e-02 4.266192383011888078e-01
-1.032739174032711732e-01 -9.264126576160348903e-02 4.659377501239820307e-01
-9.666807436618089777e-02 -1.038337520142350312e-01 4.604101875402740740e-01
-1.817487338768942334e-02 -1.089482828179075824e-01 4.691019151836787748e-01
-9.159346015661544438e-02 -8.536001343176839729e-02 4.554824849097781625e-01
-3.808069578608670736e-02 -1.148552189792034217e-01 4.887596670923290421e-01
-1.024357989847379802e-02 -8.959630819335588636e-02 4.486424320270325783e-01
-3.014047772832251573e-02 -1.181755966223568127e-01 5.325843667869125664e-01
-2.796516891502378102e-02 -1.140440686650370794e-01 4.823574093790111705e-01
-8.282101096262817208e-03 -1.249095493249659378e-01 5.144912089085346141e-01
-1.403733479517869573e-02 -6.953818980373878411e-02 4.406992513298258474e-01
-5.406283926758312028e-03 -1.235593457525182154e-01 4.998190685574026015e-01
-6.467895693602172813e-02 -1.110802355633708632e-01 4.727285824031454697e-01
2.711274846429103519e-03 -1.264244493776293665e-01 5.119880332549882063e-01
-4.627420704752605030e-02 -1.151023421223319465e-01 5.280635638106965235e-01
-6.211637368296713327e-03 -1.192839265492679213e-01 4.854188635552549869e-01
-8.494699371095755513e-02 -1.051327363244751734e-01 4.538270510168368466e-01
1.344777757365527189e-03 -1.262739129420271944e-01 5.105048438742120220e-01
-1.901943080919714715e-02 -1.183603892306426264e-01 5.451073752325700239e-01
-5.343448673260642323e-02 -1.146839922527812528e-01 5.224060299488826331e-01
-4.191000038882912448e-02 -1.171428935337291560e-01 5.184490141769536597e-01
-4.798721770485579047e-02 -5.808547186412905960e-02 4.320434828747799494e-01
-8.500971294552756713e-03 -1.199211673652153531e-01 4.883368592237789518e-01
-7.795972885170074362e-02 -1.109486458658899555e-01 4.750357568214486070e-01
-5.689258042822025602e-02 -1.149541202527449429e-01 5.133034738887437554e-01
-9.313898572929581177e-02 -1.065383733337174343e-01 4.635197791685630730e-01
-4.790706917823114863e-02 -1.050372602042832365e-01 4.558634826044195010e-01
-3.334665893271378939e-02 -1.177459483702879006e-01 4.982809994012841748e-01
-9.182318244288990849e-02 -9.411787023698940657e-02 4.496275905322023037e-01
3.299955263509546030e-03 -8.990265971553303148e-02 4.509657272235392256e-01
-2.182664773593311416e-02 -6.625874663169645240e-02 4.387426156284597867e-01
-6.724047583159920016e-02 -1.038333930215339929e-01 4.309736247472555348e-01
-4.298914621289003091e-02 -2.893807509147446055e-02 4.358607344712224774e-01
-6.161804912399952705e-02 -1.067996172067171984e-01 4.521449595491711104e-01
1.019985649649188253e-02 -1.266809366882824250e-01 5.299197881289764434e-01
-6.101755495255552220e-02 -9.448639350635235079e-02 4.220267488634255604e-01
-6.825012174129137243e-02 -1.053678329264189917e-01 4.425378958323376022e-01
-2.927840736415353307e-02 -1.189642343645672395e-01 5.268268180937006884e-01
-1.382785573930104400e-02 -7.593198591752116366e-02 4.422753474616138436e-01
-2.713559376446829374e-02 -9.582038872378120797e-02 4.530313822588207806e-01
-7.374576342573850585e-02 -1.077131158673993588e-01 4.579539447065878455e-01
-5.495907671769541952e-02 -4.312018711137563520e-02 4.410606844227092371e-01
-2.494435760232178306e-02 -1.197318801147709694e-01 5.017214804579339660e-01
-2.935468153974974542e-02 -1.138098546209869028e-01 4.820447975401478957e-01
-8.272230708656014286e-02 -1.110481948925471640e-01 5.006511187753925896e-01
-1.011635777437413231e-01 -1.075637885497501833e-01 4.802783045117630656e-01
-9.448681070922236580e-02 -8.845690441122916470e-02 4.568228450642822236e-01
-9.032540282385641273e-02 -1.034801308321419422e-01 5.201579505196392006e-01
-1.102284231512556112e-01 -1.002471644170308263e-01 4.785424005514987145e-01
-8.136170726028771338e-02 -1.112961411873314849e-01 5.007779220967487621e-01
-2.808229086865290242e-02 -1.154545856745193000e-01 4.868148001994943574e-01
-1.409188591117945498e-02 -5.704807000456834504e-02 4.387427350738483667e-01
-2.517813901516477437e-02 -1.203997480120171937e-01 5.072572745337999844e-01
-6.876062779852368245e-02 -1.070928381850741601e-01 4.549423067864826753e-01
-8.456205132865549784e-03 -9.305280349760894354e-02 4.509374150524811387e-01
-7.825221691596795370e-02 -1.118349192608178583e-01 5.018187400700990786e-01
-4.665190912842359650e-02 -3.120471530142168368e-02 4.360184205825198278e-01
-8.388495906150016113e-02 -9.105033260757547375e-02 4.391486840467015429e-01
-8.086233270315236477e-02 -1.023714859147759615e-01 4.428650668053605854e-01
-3.504158321722322667e-02 -9.602303167874745582e-02 4.498851856553120476e-01
-5.624620977150631557e-02 -7.985128708803038156e-02 4.248530282508226619e-01
-7.246207419416986206e-02 -8.660717137972048785e-02 4.241462165123588979e-01
-9.426366670136122894e-02 -1.096114270039575678e-01 4.850713004191754552e-01
-3.048803118815546220e-02 -7.295736610827484314e-02 4.376990839439571790e-01
-4.419822566025714133e-02 -8.303608098172698959e-02 4.322933736916678704e-01
-4.343350082219097491e-02 -1.157068114777159568e-01 4.938847863379818848e-01
-5.652720897044912624e-02 -1.031519046525202904e-01 4.405378493921627836e-01
-5.171407545461187416e-02 -8.897340438649489758e-02 4.264136816661623364e-01
-1.584083360512211769e-02 -1.217450498606745118e-01 5.337318818103399254e-01
-4.793553892779622849e-02 -6.133749875715975575e-02 4.309266587432629692e-01
-5.784029468033787674e-02 -1.043222254347955652e-01 4.428767480766053755e-01
-2.114479639345796802e-02 -8.089704662758305520e-02 4.429989072968172348e-01
-3.642641949145104807e-02 -1.098718026684048915e-01 4.729567206048606587e-01
-6.220590072121737202e-03 -7.908778950337751190e-02 4.447053180745437206e-01
-3.303398052926408840e-02 -1.183426086431215440e-01 5.249269217591481240e-01
-5.426385378533282733e-02 -1.020286891406156637e-01 4.395845358153816496e-01
-1.720188657881733044e-02 -4.945542894915188475e-02 4.387620645267517605e-01
-5.651273868562738806e-02 -1.046766432246407225e-01 4.328880270434442012e-01
-1.983692976413840847e-02 -1.195010739735634098e-01 5.396503311411473547e-01
-3.646954038448047691e-02 -1.114775166989952909e-01 4.772099751844097737e-01
-1.384501251435541966e-02 -1.236654416347177793e-01 5.163265141672505054e-01
-2.390485816964144777e-02 -1.082157943855651255e-01 4.697309961043187876e-01
-4.712607028238378210e-02 -5.235578694278329032e-02 4.340820398600501728e-01
1.500316731196147182e-02 -1.253349353220462037e-01 5.373592480869779919e-01
-7.628631182570026759e-02 -1.105471881193106215e-01 4.723669594592382337e-01
-5.719397329004177744e-02 -1.107624768449928243e-01 4.699464956028156504e-01
-2.936124447301462215e-02 -1.178806757535719590e-01 4.962781361544326142e-01
-7.430940978297358168e-02 -1.107191124328281012e-01 5.176956604387208394e-01
-3.364050327304404786e-02 -4.107696024391654238e-02 4.364880334144249918e-01
-3.571959514311663642e-02 -1.182634029021324140e-01 5.073813172035805952e-01
-1.300301879120701817e-02 -1.239036789538337929e-01 5.153080660128521728e-01
-1.693899310679120029e-02 -1.084820920206415185e-01 4.677703854014027551e-01
-1.096985687188221231e-01 -1.002029772567154531e-01 4.768399996559753995e-01
-5.266570941580461102e-02 -1.040877114259897707e-01 4.498713118363535379e-01
7.858873320940495261e-03 -1.235735831442834887e-01 5.002985303690893337e-01
-9.415217798023249943e-03 -8.967004947854570474e-02 4.488030397733975274e-01
-2.751843154239870873e-02 -5.038804116248745552e-02 4.379308706969085030e-01
-9.562408901281625739e-02 -1.084688753101487602e-01 5.017557896695278297e-01
-6.244654012122306808e-02 -1.107471408425144133e-01 4.707396460874090915e-01
-5.108580289090574461e-02 -1.111133467402472819e-01 4.727883609189592051e-01
-3.483758993204898874e-02 -5.339581141487331067e-02 4.356604094782126069e-01
-3.967258208445124945e-02 -8.888724218480750783e-02 4.411589158013669021e-01
-3.763092490776600435e-02 -3.227518038603492678e-02 4.360601300089375076e-01
-8.296418431014382366e-02 -1.114895490130014266e-01 4.894951765873009064e-01
-2.899232037602847423e-02 -1.028269791415606926e-01 4.617666545748470575e-01
-3.707205613952550827e-02 -1.180859738594665226e-01 5.090463403658000985e-01
-1.494319994927453474e-02 -6.324156243007145184e-02 4.393190905401644364e-01
-4.302156493144154714e-02 -7.318486263959098070e-02 4.323544822118661757e-01
-2.498768365347031617e-02 -6.693764798879738021e-02 4.382293743389653606e-01
-2.748086800729411527e-02 -1.200398626074540703e-01 5.155840881437420142e-01
-5.248638451440020697e-04 -1.179847003415761125e-01 4.818050159985180492e-01
-6.062054784456050865e-02 -1.045993467503424923e-01 4.394931168786953557e-01
-3.180039450714808313e-02 -1.006716402258032855e-01 4.578523474897057133e-01
-7.686678950599099003e-02 -1.066419864355174357e-01 4.546531247366072948e-01
-3.016981135063899130e-02 -1.118810006483050290e-01 4.777193193114641079e-01
-9.788910862949143366e-02 -1.087130152290731039e-01 4.816701542522813795e-01
-1.001183047562344969e-02 -5.767243955668074906e-02 4.385048478679593464e-01
-1.834424816368705399e-02 -9.116017259223703484e-02 4.486221570318675300e-01
-4.687346477240443565e-02 -7.797166355099499624e-02 4.298300621143061884e-01
-5.313324368244583262e-02 -1.118733696631293989e-01 4.763179887059242335e-01
-7.053605484748538823e-02 -1.108914999645026628e-01 4.735716559066852072e-01
-1.435559384078557814e-02 -1.235122146583027825e-01 5.143246804033539954e-01
-3.950835145913863394e-02 -9.466789402952843768e-02 4.463649094706065856e-01
-5.182188308678165739e-02 -1.101108123654305215e-01 4.681097849307094827e-01
-2.111649348100200912e-02 -4.382146911025119190e-02 4.389880774776108718e-01
-3.578587205715228620e-02 -1.098524975509102691e-01 4.729747163764232987e-01
-6.753543023315557170e-02 -1.059619183587588304e-01 4.478365720787313431e-01
-1.731003570120970975e-02 -1.039723775057962152e-01 4.615946979616841195e-01
-4.613178207078336146e-02 -2.984151023146794368e-02 4.360272947229995033e-01
-6.021206663714077055e-03 -1.252301339345970321e-01 5.117997800124092223e-01
-4.646080689023705801e-02 -1.145612638654447540e-01 5.307919787056437633e-01
-3.818840371983817095e-02 -9.829484335713319088e-02 4.511079562680180843e-01
-3.335614037291498302e-02 -1.067261953962684029e-01 4.669016554542329556e-01
-1.475229700040955189e-02 -1.233020516439513187e-01 5.190570307893273005e-01
-8.672896684850255056e-02 -1.107530947992449027e-01 4.961795417519195284e-01
1.284005616943569017e-02 -1.265451730363874872e-01 5.333614397441414079e-01
-2.626437495429675625e-02 -9.658998547348206232e-02 4.541953602735858686e-01
-1.535395522843765841e-02 -1.227627879594198057e-01 5.080484580547840467e-01
-5.950631935803029487e-02 -1.031983574591064101e-01 4.234500057197411738e-01
-8.794249781352651840e-02 -9.952937956865651192e-02 4.455425357434978362e-01
6.391514544288660199e-03 -1.253004266910539288e-01 5.070894896776102501e-01
-2.477485107093303773e-02 -1.158986487398538101e-01 4.875737965071968993e-01
-7.555397485911669042e-02 -1.092485371584681342e-01 5.214090106538249447e-01
-1.924740425132931421e-02 -1.220220438126641688e-01 5.187713110656791970e-01
-1.934663398580678192e-02 -5.583202692910511911e-02 4.382356104087363202e-01
-5.283518742813271551e-02 -1.116003386402485142e-01 4.746948416317577912e-01
-6.814777998684279359e-02 -1.028654529132191631e-01 4.267690415115658054e-01
-3.301421620920082928e-02 -7.296779446457860030e-02 4.366782784107802740e-01
-3.486907397216226778e-02 -8.491377160391026802e-02 4.410861926978771330e-01
-3.818146047471483034e-02 -1.078935603051001113e-01 4.674814215577856036e-01
-1.649258772917381807e-03 -1.027468818807352885e-01 4.603591421622807434e-01
-2.846874753934742000e-02 -9.197629877868385151e-02 4.485427920222613829e-01
1.650372293685546362e-03 -1.002799568988325257e-01 4.585048962961922880e-01
-1.800393879386463086e-02 -1.204065392407338841e-01 4.974211583280445104e-01
-4.145573847320672273e-02 -1.139832029890061188e-01 4.864884765890808982e-01
-2.400880425164439794e-02 -1.145622885479021524e-01 4.830343059497487213e-01
-7.741993936557522993e-02 -1.015762368108596575e-01 4.357819321495650100e-01
-8.095074617136450990e-02 -1.097538531582390592e-01 5.124792005286927798e-01
-5.905656813935078464e-02 -7.009475521153382682e-02 4.280622671815560998e-01
-5.357603188391526355e-02 -1.017564473233589784e-01 4.276251913094533674e-01
-9.857296968042578156e-02 -1.085675173694842510e-01 4.912036305604349784e-01
-4.120375763698455596e-02 -1.167633985394887775e-01 4.998420944573995772e-01
-6.344871217517368545e-02 -1.075796882059556481e-01 4.566668182389000963e-01
-7.273910503254690796e-02 -1.059734410591723214e-01 4.498020617105198959e-01
-9.041939047281860597e-02 -1.093935759564067106e-01 4.723708133854667146e-01
-5.487076568268140636e-02 -1.139631177383712279e-01 5.243597975431845137e-01
-5.287415312629780567e-02 -1.131612642753281189e-01 4.840336251447185378e-01
-6.186699225042695260e-02 -1.043736969815386439e-01 4.252383191018126452e-01
-8.061071749083624505e-02 -1.115805928610960757e-01 4.995445305908005618e-01
-1.871533887620147746e-02 -1.212168995346143696e-01 5.308295377715257501e-01
-7.471824263048429393e-02 -1.097697620796024981e-01 4.675687529089914696e-01
-4.415793597604478204e-02 -1.139305594267789462e-01 4.868143783821308190e-01
-5.159344672650603009e-02 -1.155697359123042389e-01 5.040364323262233048e-01
-6.892294830280487616e-02 -1.119688338102793890e-01 4.810437620311997509e-01
-3.153979741925291846e-02 -1.181602419137849774e-01 4.987986436023158499e-01
-5.922634298564399130e-02 -1.111759706222377742e-01 5.310929590447406312e-01
-3.505897852967979067e-02 -1.076498971089687173e-01 4.681758819970932017e-01
-8.910007713439535917e-03 -1.248875900479082118e-01 5.159333804015249214e-01
-1.350948227253953061e-02 -1.221576772093850988e-01 5.353760856967197945e-01
-9.250459110082015490e-02 -9.080823752792241410e-02 4.516362193006207559e-01
-7.622248909564445507e-02 -1.088344323275794306e-01 5.220142521689569159e-01
-8.612447487598842710e-02 -9.045098708462545600e-02 4.430507718577331722e-01
-9.559568693414944446e-03 -1.240459125776371963e-01 5.079565756152845113e-01
-2.865923789147140077e-02 -7.865410928731103590e-02 4.401970657599581505e-01
-5.321626033444800535e-02 -1.012113951462645239e-01 4.409618087724039848e-01
-9.453437081302670797e-02 -1.030932555711123882e-01 4.565402488263847758e-01
-1.099112523655587995e-02 -1.099413715578633766e-01 4.683580378652451581e-01
-8.837908696324577040e-02 -9.762520594620217873e-02 4.451765452519056976e-01
-7.552652211641378011e-02 -1.081837446819982618e-01 5.247000531743196694e-01
-9.228416863310844390e-03 -1.144716173469676190e-01 4.754120526874239805e-01
-5.580506829977525257e-02 -4.864560850748732984e-02 4.376509007078213109e-01
-8.409812962454213392e-02 -9.142592484031460132e-02 4.393546016996683901e-01
-1.043687739102504702e-01 -1.033241455744260684e-01 4.679119901093345413e-01
-7.884867546376046754e-02 -9.606349439436455417e-02 4.310517085091728484e-01
-8.399614130656565120e-03 -1.103924458697318062e-01 4.685647052123315670e-01
-8.517814089709097036e-02 -1.111912366046716727e-01 4.839042689459812641e-01
-2.055969031815587170e-02 -1.175474339262602280e-01 5.463791381134820435e-01
8.154288270070250005e-03 -1.231762326955990750e-01 4.990175055823277694e-01
-5.317639257358263913e-03 -1.244575475612066662e-01 5.049930116972671801e-01
-7.563243548723329324e-02 -1.038559201199433513e-01 4.405901243297488112e-01
-3.885167683317068688e-02 -1.117033054879993381e-01 4.784583764380044291e-01
-1.932062615092370456e-02 -1.158947591118660442e-01 4.843173623928073157e-01
-8.639708472429498409e-02 -1.069605792224513768e-01 4.595164287020648830e-01
-7.081697497213866599e-02 -1.120980996550860753e-01 5.143119146789603136e-01
-3.883126486575099595e-02 -1.137805541365662365e-01 4.853819205136296056e-01
-5.943227563501307653e-02 -6.027022133441446022e-02 4.338522515605952035e-01
-8.638226423807969512e-02 -1.109755200622258575e-01 4.834023961744175479e-01
-1.172339335813673070e-02 -9.951576879025601785e-02 4.561647766421687011e-01
-6.139333089402167210e-02 -1.096024250539785611e-01 4.658979429872424638e-01
3.630927302019812744e-03 -9.809205179522337281e-02 4.567769444050908678e-01
-5.012145178184788247e-02 -5.371043492157609456e-02 4.334015310974246860e-01
-4.853271901735597277e-02 -9.634849309476550827e-02 4.359626805327485033e-01
-8.686699180511044463e-03 -1.097116852981241258e-01 4.675978760070951257e-01
-3.134799187070214099e-02 -1.052079178521339309e-01 4.649294352375330508e-01
-6.911830599543138109e-02 -1.027919234737131732e-01 4.280839671868896246e-01
-1.246285908771651955e-02 -1.144124750230475357e-01 4.767315124817633198e-01
-5.807136814233986033e-02 -1.147485241626718250e-01 5.082253997700076908e-01
-1.914187086914377264e-02 -9.851615890757578486e-02 4.562339842268093859e-01
-2.274244417498064511e-02 -1.056840346604301512e-01 4.656380771577908750e-01
-7.349857654025374054e-02 -1.053905943602432421e-01 4.466804639627355855e-01
-1.726212243675410984e-02 -9.251867090490320522e-02 4.496573598007827521e-01
-4.065590933904943138e-02 -5.271624599707999681e-02 4.344155558093537595e-01
-4.917473803675970895e-02 -9.534352590898181878e-02 4.299005222852312902e-01
-7.802077033339620271e-02 -9.096355180550087793e-02 4.295674498245835027e-01
-2.533711647049730065e-02 -7.228498783764790436e-02 4.390514980414341184e-01
3.681589689933556769e-03 -1.177754838769325268e-01 4.819000119478963895e-01
-1.975357461752112742e-02 -1.187231100668674905e-01 4.931361856405581112e-01
-6.940475660211249676e-02 -7.984985619615353469e-02 4.278676081242806517e-01
-1.713329549554212794e-02 -9.920762000363554656e-02 4.567549228959947305e-01
-5.416332376450384151e-02 -3.440500203634315468e-02 4.433436530502777306e-01
4.670661211679715853e-03 -1.210066587853980274e-01 4.909224440903510733e-01
-6.346286372665743691e-02 -1.069870389058510812e-01 4.540668899821369564e-01
-6.978295398737549560e-02 -1.030277107843844686e-01 4.305721000860227021e-01
-3.261348317687601944e-02 -3.431988440641983718e-02 4.370116535429318660e-01
-4.348403653000716684e-02 -2.987027314837992914e-02 4.357550712164798834e-01
-4.478951583524440339e-02 -8.874090255466479671e-02 4.342105566181995169e-01
-1.104394282300912300e-01 -9.600941551087777137e-02 4.772668087346796373e-01
-3.721435873734661726e-02 -3.642487830830962170e-02 4.356433410650810134e-01
-5.649957826885468673e-03 -1.255328236115769991e-01 5.203892649421646421e-01
-4.920639445770638720e-02 -1.153410097321769245e-01 4.960941477112245090e-01
-1.853992836008764005e-03 -1.216802578114453970e-01 4.924831366045951953e-01
1.146485832765125473e-02 -1.264364150606887560e-01 5.227087661106916139e-01
-7.229783899232170019e-02 -9.227023849958847224e-02 4.216215327728148887e-01
-3.977878525930686471e-02 -1.124168248056869324e-01 4.809102495257546739e-01
-5.192796159369169468e-02 -5.078531885411639163e-02 4.345555558218494596e-01
-1.067954855298030442e-02 -1.244748603097344808e-01 5.159001345612423961e-01
-4.512528910648627017e-02 -1.140663904189735262e-01 4.875623787251039953e-01
-6.691002052451662518e-02 -7.649513007934161113e-02 4.292652735899474825e-01
-4.960888915356274909e-02 -4.348366428827397934e-02 4.354511594790518303e-01
-1.330175034153070930e-02 -5.385400168515525748e-02 4.384666052568199079e-01
-3.119892367276888567e-02 -1.170064533461018241e-01 5.378920730185399179e-01
-3.243427988402770856e-02 -7.464831951365531737e-02 4.374395942396034909e-01
-5.394548522103542049e-02 -3.361779745446120266e-02 4.426610537528158917e-01
-3.825863672914293218e-02 -7.894788226413039511e-02 4.360977752811763253e-01
-5.560255235685207520e-02 -6.581221872473508316e-02 4.287706238278322091e-01
-5.731339274619056540e-02 -7.908922647877589251e-02 4.249674629040133822e-01
-2.316828023805775350e-02 -7.950956696722093209e-02 4.420786848230462973e-01
-3.085207689460330374e-03 -1.242067409996916727e-01 5.348380436620924216e-01
-8.332719386032891307e-02 -9.167296356108241284e-02 4.378034445264248897e-01
-6.135930807860117547e-02 -1.092119066542120431e-01 4.638172885050008132e-01
-4.850711311775576795e-02 -4.285880405128388027e-02 4.352474687529473973e-01
-2.690767950156645189e-02 -5.087841747062001041e-02 4.379533845858993302e-01
-7.805228773112485308e-02 -1.111109854520093559e-01 4.763045134795618751e-01
-6.184616380326564411e-02 -9.986824417671731624e-02 4.232668987661278304e-01
-1.033795258588662003e-01 -1.058256600218497323e-01 4.746874167395161437e-01
-6.400834503014565802e-02 -9.873660891062936706e-02 4.223419588273685243e-01
1.842306648842467320e-03 -1.064913617538729984e-01 4.644911426772088126e-01
-3.016135858652760088e-03 -8.794733107234478653e-02 4.492037031162060545e-01
-1.155351844867920016e-02 -1.239458990101630215e-01 5.118778339364506991e-01
-5.241116973071306001e-02 -6.867027339665919550e-02 4.280101982901569069e-01
-7.964304343706618550e-02 -9.595775424059872771e-02 4.323004733794224008e-01
-2.467753587742676710e-02 -1.204717615626313271e-01 5.062395443194960265e-01
-4.070619337756230249e-04 -1.195496455200859981e-01 4.859348268988113451e-01
7.385555664107899126e-03 -1.269191124093238254e-01 5.197268629562974418e-01
-6.670638947463020108e-02 -1.133309437024013905e-01 4.968048182238276045e-01
-5.644911523960467747e-03 -1.000745475216018865e-01 4.572892711578088187e-01
-3.624162331964018297e-02 -8.116929310485834770e-02 4.384571874833585459e-01
-9.661789102036076604e-02 -1.090454114034985905e-01 4.838898766766371318e-01
-3.477515218092097626e-02 -3.498522070472200041e-02 4.363214435293282789e-01
-2.205593073949555991e-02 -1.210907811232013187e-01 5.066491631089701242e-01
-9.974121113953786366e-03 -1.242534833168907477e-01 5.246164383852519597e-01
-3.304064638325661385e-02 -1.174660341598596919e-01 5.330112212142579242e-01
-2.360278642456472425e-02 -5.393463949357809456e-02 4.380271857356051179e-01
-2.552495762019931294e-02 -9.522654059501733936e-02 4.527862654673575626e-01
-6.662627617397759439e-02 -1.040236789497296366e-01 4.311924595474691535e-01
-9.208265096616891077e-02 -1.053639076464702035e-01 4.592727215401864460e-01
-8.750352410626799360e-02 -1.036018305796420902e-01 4.509144918608353758e-01
-7.710973818789264300e-02 -9.806801477108940956e-02 4.289162347686470422e-01
-6.865787017532615222e-02 -8.174788046590399093e-02 4.260635486568500330e-01
-2.531465915722740101e-02 -5.494627222280946272e-02 4.376971413971164626e-01
-7.222825999022966514e-02 -1.093928201565836783e-01 5.245068493078585137e-01
-9.687736114757744543e-02 -1.084218803987663515e-01 4.751646324992113701e-01
-7.480710729880851728e-02 -1.098040865999069665e-01 5.203462220176617858e-01
-5.562653119433486754e-02 -1.146633814570704457e-01 5.190613628396210100e-01
-6.000099954317695411e-02 -1.145024528740753583e-01 5.120705113091267302e-01
-9.291989893116318899e-02 -1.068057865279149338e-01 5.102952326273664241e-01
-4.163941367115798348e-02 -7.939764625137402110e-02 4.339720753830686450e-01
-1.546424091276804406e-02 -1.228406728267378428e-01 5.092864612401005742e-01
-7.951196468675279794e-02 -1.101479236215214541e-01 5.128760989986286267e-01
-3.900027315553626639e-02 -5.840838335748636811e-02 4.344893072860727123e-01
