-6.207532328653246612e-02 -1.140229552042783534e-01 5.112791150941503604e-01
-3.769899986118467605e-02 -1.171122928922729151e-01 4.998877600796168830e-01
-4.884061674412156634e-02 -4.890552664775969088e-02 4.344729161073357937e-01
-4.194191316613175846e-02 -1.160875891136846083e-01 4.959419805731180020e-01
-9.076041561986489259e-02 -9.495443911891061906e-02 4.479105869089383685e-01
-2.907880616999981502e-02 -8.425636873300901275e-02 4.432033341632559686e-01
-6.915953339475108819e-02 -1.106884125296937194e-01 4.742968459023582106e-01
-9.089674877303585698e-02 -1.099701435765158969e-01 4.876081011318524894e-01
-2.112690966369257239e-02 -1.212606128003138051e-01 5.070282673840350585e-01
-2.308741460110107918e-02 -1.191297074317987370e-01 5.374271041607512345e-01
-1.919276775553315634e-02 -4.781928234008238354e-02 4.388900684197979407e-01
-7.729878943898085830e-02 -1.107270746020272006e-01 4.761251299870614129e-01
-6.692923602524998572e-02 -7.706997860277690904e-02 4.291408827373288104e-01
-8.499676387468110828e-02 -8.802747888052274428e-02 4.423966398157725410e-01
-5.891604797818495581e-02 -8.567321199527602738e-02 4.239786144445816807e-01
-7.272805497296958022e-02 -1.112996014804006062e-01 5.159232623811026430e-01
-3.432686012510540591e-02 -1.071572100165150282e-01 4.679549397695498270e-01
-5.328438380829882137e-02 -5.256620484289856871e-02 4.341494861978042463e-01
-1.458477376185741275e-02 -1.217969819946630450e-01 5.005532986497762682e-01
-3.944709649454709866e-02 -1.110138163464344796e-01 4.771405531480432116e-01
-7.878255206468455507e-02 -1.029953847894304331e-01 4.438029885814105402e-01
-2.446049173168977908e-02 -1.191771774102499126e-01 4.991340898425938866e-01
-2.591992037501509444e-02 -6.923222530794502505e-02 4.385505425326354789e-01
-3.879512175355084858e-02 -4.859964145774264832e-02 4.352523525299313301e-01
-5.470542842833317487e-02 -1.037430207892390821e-01 4.482195729612001300e-01
-5.153288003219107932e-02 -4.516030026565623356e-02 4.358006350688340969e-01
-4.372484155485421853e-02 -8.702414753232994016e-02 4.356626209569217645e-01
-1.261413926695044083e-02 -1.217242350622320390e-01 4.977619547283981261e-01
-3.727469466903413770e-02 -1.180267915323781475e-01 5.120953873904965370e-01
-5.663148457670037772e-02 -9.121169806247361733e-02 4.231201015945647570e-01
-9.170243431430116776e-02 -9.651054468273463638e-02 4.492882837490919101e-01
-5.559144678419061097e-02 -1.038790110652707821e-01 4.296218595634673232e-01
-4.650395437814783955e-02 -8.584990924507673871e-02 4.310316782652803269e-01
-4.661294975164068793e-02 -1.157706570323211309e-01 5.232969376523538552e-01
-2.421141575328004253e-02 -9.884077446262246047e-02 4.572960468516010235e-01
-2.618596352133008981e-02 -1.147438929253206952e-01 4.846382000057024020e-01
-1.603761517815033635e-02 -1.210559395560723839e-01 5.377967638789389326e-01
-4.896085411501194251e-02 -8.501684285361878202e-02 4.290595828948904344e-01
-5.164458517356142198e-02 -9.851961321620514300e-02 4.303993653881649784e-01
-7.679511870995371636e-02 -1.119511208357712173e-01 4.988896373071587953e-01
-1.259191898283043738e-02 -7.076000319551389861e-02 4.412504094225257467e-01
-1.410463418177491414e-02 -1.231068069443549268e-01 5.246538234390656363e-01
-7.286768731912682262e-02 -1.111148983299239806e-01 5.173195294337558092e-01
-6.644709813131217946e-02 -1.132371001613307337e-01 5.121723283776438151e-01
-3.456324995883142820e-02 -1.078307976121179318e-01 4.692757539632003150e-01
-4.973645276676942617e-02 -1.158266069410586463e-01 5.111585103772021688e-01
-3.428008809326277273e-02 -1.152550897063500390e-01 4.891179491248681677e-01
-1.003449688944201418e-01 -9.200109226252940753e-02 4.619119137436733524e-01
-9.122201085860939807e-02 -8.925316727920699911e-02 4.509246417573078425e-01
1.028922785489898989e-02 -1.257376302525895218e-01 5.367239081408378132e-01
-9.636779773819728612e-03 -1.086622757566448605e-01 4.663909879540776848e-01
-5.578968182522864999e-02 -8.382159795953750270e-02 4.246091234492134769e-01
-6.098727528767166305e-03 -9.714989543451790777e-02 4.548330932886071043e-01
-6.701645278421271279e-02 -1.125401267235530967e-01 5.172872982443141865e-01
-6.023104100036639347e-02 -7.559418123784138188e-02 4.261276863366699752e-01
1.135260284656121853e-02 -1.255006622365213709e-01 5.380179910941179644e-01
-4.650369744389878240e-02 -1.159155932326582789e-01 4.981163092771159207e-01
-4.488446003256000433e-02 -9.226297254758469846e-02 4.398211819644833875e-01
-9.185566337950286375e-02 -1.098312797285505710e-01 4.889700655495323178e-01
-2.829058627821835065e-02 -1.183691336715495535e-01 5.344896003255945605e-01
-4.566174631294105807e-02 -1.105831198167182977e-01 4.743660529842116391e-01
-9.620382477628763168e-05 -1.255831508856884993e-01 5.081065711704590981e-01
-8.362271858569809979e-02 -1.077262976029542269e-01 4.630562452767080783e-01
-4.881533462751705410e-02 -1.082081420917163916e-01 4.643554025099583815e-01
-1.536127446843399760e-02 -5.616135403157710565e-02 4.386596584152248623e-01
-2.742500988817934623e-02 -9.113502943788254207e-02 4.484087715094844384e-01
-4.168288006888546532e-02 -9.539316161459440724e-02 4.464786461566155884e-01
-4.221706443745577159e-02 -1.017606945530476342e-01 4.545153926896640662e-01
-6.543584723753670396e-02 -9.612547918380656697e-02 4.218975852754289768e-01
-6.426467690857481929e-02 -1.055295235893460443e-01 4.452821385834120349e-01
-8.390077752041660841e-02 -1.110818480978856132e-01 4.857237072898853425e-01
-2.655367023305978819e-02 -9.859852209246131038e-02 4.569587342757073234e-01
-5.631948468824189702e-02 -9.897009054835509412e-02 4.232276588017664931e-01
-6.396274345197996980e-02 -7.942013219740678975e-02 4.260862821855658233e-01
-1.271681339470300681e-02 -6.126865670268227815e-02 4.392595050735857432e-01
-5.391764988288270943e-02 -2.766037792949458882e-02 4.453938221642162465e-01
-3.387691035327804190e-02 -1.177036089103735278e-01 5.285939376807593515e-01
-2.741730510186212583e-02 -8.313449942910049184e-02 4.431026314575339242e-01
-1.489979015721394108e-02 -8.844052294723607488e-02 4.474774755106244450e-01
-4.671000834058264967e-03 -1.204474951715794190e-01 4.891517659214510427e-01
2.090051549741357359e-03 -1.268854687804431836e-01 5.229457383629279033e-01
-3.826476003443567836e-02 -1.099479043802901457e-01 4.739907431955644457e-01
-4.667192986507132796e-02 -9.114964737715604282e-02 4.335402009795464306e-01
-4.870575521085460102e-02 -1.147736154835647948e-01 4.925723097870753353e-01
-6.801853187178914795e-02 -1.084686017824366411e-01 4.627172319827326241e-01
-4.698974695302296500e-02 -1.160152705679488166e-01 5.019926306669780791e-01
-1.055668644833123865e-01 -1.049225496622341602e-01 5.009347327307359654e-01
-5.798768666056285798e-03 -1.254675640173750217e-01 5.150689173421693079e-01
-7.729019784807043304e-04 -9.203358809904246818e-02 4.517460460427126789e-01
-5.086754230520757619e-02 -6.338928374065140592e-02 4.301201218494252743e-01
-9.382528150730792826e-02 -1.069108217559154028e-01 4.672624954897010574e-01
-9.563676831045959600e-04 -1.122606980421204381e-01 4.713580220107425056e-01
-1.426442920489091534e-02 -1.192642196043409153e-01 4.891732850298142754e-01
-6.274581495909298257e-02 -7.851839118390294137e-02 4.255724878786804610e-01
-2.529390854589296314e-02 -1.023317305659567078e-01 4.619851566581669178e-01
-8.522423027997151623e-02 -1.104503584669681709e-01 4.998133913633684422e-01
-5.799434418198878144e-02 -1.129806494490268598e-01 5.256469614723192629e-01
-6.806584749935255807e-02 -1.090025650840299176e-01 4.652646611167618462e-01
-2.636749363462671802e-02 -1.201534513432798434e-01 5.099908867996286732e-01
-4.149232560352796029e-02 -1.034351299520568923e-01 4.580474540063042554e-01
-5.665275921889900701e-02 -1.065122936111038976e-01 4.566626367797784192e-01
-1.071089339628991527e-01 -9.798565571407756580e-02 4.692901848169198087e-01
-5.719508322168204845e-02 -1.028252797247893729e-01 4.388463714577163222e-01
-2.004735817730482483e-02 -1.103248749850155447e-01 4.728645115201244309e-01
-5.261618413960652413e-02 -1.139539370961677872e-01 4.898747452439364269e-01
-9.183170661700926218e-02 -1.097152149828524020e-01 4.839377186297088018e-01
-4.858463722885619784e-02 -5.049084087644465507e-02 4.343104904031132030e-01
-5.478582057050451759e-02 -3.870385625007766173e-02 4.431332961790429570e-01
-9.233938237996980325e-02 -1.097552173529251218e-01 4.932141269155425611e-01
-6.930781558468095127e-03 -1.229795248490009457e-01 5.372449373534196049e-01
-5.116053957483132630e-02 -1.013398902770732690e-01 4.459387827840308738e-01
-2.435119850224563148e-02 -1.201447811904476359e-01 5.042027310899633852e-01
-5.284254919435781711e-02 -1.096682302762851807e-01 4.677588127739827351e-01
-6.461269731893776180e-02 -8.131533294102248621e-02 4.248278107573984497e-01
-3.480205667902887962e-02 -1.110291063265083783e-01 4.762579960861305084e-01
-2.704185589763461947e-02 -1.185215047610611860e-01 5.352992937897977921e-01
-1.083751796620526231e-01 -1.043528160321042508e-01 4.902540014849449124e-01
-2.600623338656276803e-02 -1.111220329736014589e-01 4.759272831721993446e-01
-8.166548137983063727e-02 -1.083821476735671724e-01 4.648197540198299449e-01
-1.541511609072603560e-02 -1.192397366248251905e-01 5.455890118475800188e-01
-4.240307672290353352e-02 -8.879490870918339829e-02 4.395665342992820523e-01
-9.303361900099971216e-02 -1.086364339227648274e-01 4.734469134364420184e-01
-9.331580125024822869e-02 -1.050689565463295283e-01 4.609182217021380867e-01
-2.307737451332074474e-02 -1.209001783482858833e-01 5.094242706085524430e-01
-5.748141077531326165e-02 -1.065884451310553510e-01 4.563295572112506804e-01
-4.243151302860666274e-02 -1.163298674109605330e-01 4.978758416934132014e-01
-9.453609887067034381e-04 -1.168662741419721207e-01 4.793520249862097682e-01
-2.192481596527204660e-02 -9.048003537729243373e-02 4.485812651973518639e-01
-9.728812258216673614e-03 -8.495964399722111260e-02 4.466134071151294238e-01
-4.470135914773577801e-02 -1.157498708210383531e-01 5.259956261071287997e-01
-4.452540977152583124e-02 -3.274337992896493577e-02 4.354599183798981143e-01
-2.941143861859255373e-02 -6.895268505497123557e-02 4.377581076973904306e-01
-7.665907443432144752e-02 -1.036850308884597199e-01 4.429237978337217108e-01
-5.255450645502472706e-02 -1.140456863932966941e-01 4.904088727172431494e-01
-6.539052031495781736e-02 -1.119232108063656361e-01 5.220900940792791989e-01
-4.182074053764753968e-02 -1.160897322023509426e-01 4.959047516529716537e-01
-4.722400968199072513e-02 -4.600531041305726265e-02 4.347578056487785281e-01
-3.636061747943388628e-02 -5.991546885844698661e-02 4.354403480769833967e-01
-9.130932182574118261e-02 -1.029594108728229956e-01 4.550842891373895194e-01
-4.373278621489400803e-02 -5.149102834026455383e-02 4.344035082166008421e-01
-1.522521621356664676e-02 -1.217398021203586478e-01 5.352052804838779432e-01
-1.015031489282445382e-02 -1.198573827613855086e-01 4.889716036444829994e-01
-6.710944276041257150e-02 -1.106481347708959673e-01 5.250550526738404500e-01
-5.353969947637027271e-02 -6.738735948973650913e-02 4.284104724339514170e-01
-5.463410731598484366e-02 -1.113751360360377418e-01 4.749735750329102668e-01
-4.822462259589501560e-02 -4.570314820222256408e-02 4.348103626732618965e-01
-8.379233904059679716e-02 -1.106905460549170717e-01 5.001293882924817691e-01
-4.261074199484534558e-02 -1.016043138546290914e-01 4.539523583053968192e-01
-4.158334710373701865e-02 -7.577156100049863008e-02 4.338531420744249911e-01
-3.476429175295459029e-02 -8.703514540142506806e-02 4.428380760113420078e-01
-4.003513628356649562e-02 -5.829856107938458099e-02 4.344131784794322271e-01
-4.670742698627182443e-02 -1.134473920785960266e-01 4.865572745929979681e-01
-2.197720965003752830e-02 -6.439197433450766228e-02 4.387073575749400600e-01
-8.150701628169512714e-02 -1.109201536446334097e-01 4.799408396716696168e-01
-1.942771002372152209e-02 -1.220673882788159414e-01 5.133606363728420163e-01
-2.759272973736101586e-02 -1.188229940058246198e-01 5.001385782330380891e-01
-5.244432184733226199e-02 -9.977596019903506308e-02 4.312370604495396331e-01
-1.006088988566751219e-01 -1.058396792422253152e-01 5.038857849918160214e-01
-3.844646168492227983e-02 -1.003994664527231018e-01 4.549304174218765651e-01
-5.730755841292282937e-02 -9.249470379056992653e-02 4.231788227430946514e-01
-7.503096552643551131e-02 -1.030082075349477155e-01 4.394275368814737348e-01
-9.566607967391709683e-03 -1.243633844192158500e-01 5.118683492034857840e-01
-7.325855049255171336e-02 -8.770881761936327736e-02 4.243293175996743494e-01
-1.677494100792754558e-02 -1.176991139929504798e-01 4.874769332567071567e-01
-5.575284206730685144e-02 -4.938539945494229561e-02 4.359240783076435699e-01
-5.440626231040156247e-02 -1.142452598599032476e-01 5.231369897977878880e-01
-7.825637587290840136e-02 -1.113058599857336406e-01 5.055372834026047313e-01
-7.694686769781595992e-02 -1.117685451857585721e-01 4.921248274625750208e-01
-1.248008670479498934e-02 -8.354848348472501685e-02 4.456587206661711820e-01
-3.560100875473810184e-02 -1.175925127127910724e-01 5.268356340044505481e-01
-1.083909409812333913e-01 -1.019490287868433098e-01 4.781569695027922950e-01
-5.184194715836499059e-03 -1.255156596000097102e-01 5.143870623910566930e-01
-3.858560378599272533e-02 -8.147965963750306018e-02 4.375592598718643367e-01
-1.516961522061134604e-02 -6.434838809327891873e-02 4.396040590264002623e-01
-8.578077089209497352e-02 -1.108253978151561431e-01 4.893749357741780104e-01
6.936342542408454812e-03 -1.240278060102752572e-01 5.017697632243255379e-01
-1.590088096049107821e-02 -5.989985543983144395e-02 4.389804209608537677e-01
-4.706775551390010755e-03 -1.237315098735047719e-01 5.351518478467596207e-01
-1.141689854942953830e-02 -9.043330485978991196e-02 4.491263959516436088e-01
-1.235900507233471390e-02 -8.562402309409083978e-02 4.465803915312854255e-01
-2.672280473228455869e-02 -1.201130330644906291e-01 5.185282020684638393e-01
-7.921353175066846164e-02 -1.102382743877118737e-01 4.731635696171926364e-01
-6.628056869301368614e-02 -1.048269929536945477e-01 4.397604877776093435e-01
-7.146238407310580298e-02 -1.048190983188473646e-01 4.456376394366592941e-01
-5.875358673179013891e-02 -5.867337355750749245e-02 4.342001496708526864e-01
-8.605122064691561601e-02 -1.107820793530478465e-01 4.899655364737006136e-01
-8.703288543191338433e-02 -1.102393749156781871e-01 4.786353073547090498e-01
2.290731010259024376e-03 -1.157234172454571358e-01 4.775556838795587122e-01
-4.317121248609265965e-02 -6.077467677167468912e-02 4.328098478509131986e-01
-9.144350847205636248e-03 -8.672708392662009658e-02 4.474508857906228654e-01
-7.595340455254728784e-02 -1.094975114722799153e-01 5.196577976132772392e-01
-5.086063048856071661e-02 -5.242291300269689980e-02 4.339347652057047311e-01
-5.738382532722174911e-02 -8.676227008542633512e-02 4.238123577890952065e-01
-1.373449842427237021e-03 -1.138209253883167987e-01 4.739154430648809257e-01
-1.244691252928021782e-02 -1.211228758729787081e-01 5.410188746293195239e-01
-8.459084401486116622e-02 -8.775750195702834711e-02 4.418838514456708277e-01
-1.409949105648987400e-02 -1.210840232040948095e-01 4.963321822191870125e-01
-4.956724634377501076e-02 -9.669769013782232581e-02 4.353726614447033239e-01
-1.017498339541983571e-01 -1.056866564059930347e-01 4.721329325781346009e-01
-9.166847583723362891e-02 -1.072372743412817603e-01 4.667214948558520149e-01
-5.372214593793502024e-02 -9.357839524607193538e-02 4.253980258038452811e-01
-6.592051641632834351e-03 -8.839752101238837478e-02 4.488346180306582722e-01
-6.935517356636054787e-02 -1.121187436207983501e-01 5.159603748762391362e-01
-1.270635992519819277e-02 -1.224395359300585739e-01 5.015994334356614903e-01
-4.477436053439071834e-02 -1.049936225175134019e-01 4.589024520956578868e-01
-4.773941552895846763e-02 -1.122344834283604681e-01 4.806121246502309541e-01
-9.944192677710748940e-02 -1.070134543683376876e-01 4.748521704131509757e-01
-5.011870365833703822e-02 -6.269755819844929912e-02 4.304337062231526345e-01
-5.246210758017783721e-02 -1.122020166929755675e-01 5.327413555933037115e-01
-4.394113724956373590e-02 -1.056543675260593063e-01 4.610342403505673370e-01
-1.027980118562228373e-01 -8.945719605285602782e-02 4.685039287397674834e-01
-4.626490944421982748e-02 -4.163515259244522648e-02 4.352159871442193295e-01
-1.124558855558338288e-01 -9.796547626851488666e-02 4.869061043757330620e-01
-6.236515610979136842e-02 -1.120572040498511446e-01 5.247569123219768539e-01
-3.993245898591283455e-02 -4.819965939247903425e-02 4.351009349418262784e-01
-4.131154927203053995e-02 -1.169580398821657707e-01 5.038073513750022103e-01
-2.115726629942105922e-03 -1.093128608525020945e-01 4.672721077623608887e-01
-2.133468949237288248e-02 -6.742052812397988926e-02 4.392910297033473244e-01
-8.426543173911524298e-02 -1.106891982167237942e-01 4.800485675473708524e-01
3.339240917839074105e-03 -9.895439899183268440e-02 4.576511295189019668e-01
4.710370422720806458e-03 -1.268655998130664153e-01 5.181945272768224697e-01
-7.932631393800576233e-04 -1.241055938820411625e-01 5.009882384566758384e-01
-8.226160665318993370e-02 -9.287820141295181908e-02 4.352873109464411860e-01
-6.186623248011406673e-02 -9.125958086882186848e-02 4.220851684491039313e-01
-8.043294647265124275e-02 -1.087051044528939137e-01 4.657453826948687037e-01
-9.068810917440113528e-03 -1.129885679684511368e-01 4.728892712563496081e-01
-6.459522161382480476e-02 -1.116689215930416063e-01 4.780986067672005069e-01
-1.937033202126053639e-03 -1.185459096798262557e-01 4.833349631783936395e-01
-6.608036225685194609e-02 -1.047906654274949056e-01 4.390319630723679145e-01
-7.038678420604782549e-02 -1.121316718280402913e-01 4.882521701302534600e-01
-4.923576678380641586e-02 -9.518785387301184620e-02 4.318025216842742986e-01
-1.171923355016452756e-02 -1.210361778868243171e-01 4.937184250300111765e-01
-3.599412010926841127e-02 -1.180891316170878252e-01 5.202142729991220405e-01
-2.548840561972486388e-02 -9.853174790780007408e-02 4.569115778510127734e-01
-1.910949910281557057e-02 -1.087850520113292085e-01 4.694744494231677945e-01
-1.121030089405377315e-02 -1.072782646411130497e-01 4.646104692242672973e-01
-5.824713394862896659e-02 -6.852856725287266582e-02 4.289089463420941994e-01
-1.085944182153604359e-01 -1.030030988979788870e-01 5.019467984698957608e-01
-1.751235199279983779e-02 -1.203920520817854944e-01 5.388594641288408926e-01
-1.083271184527163922e-02 -1.163423273647365419e-01 4.801107199071184550e-01
-3.718677699304975132e-02 -7.965511931317353911e-02 4.376540992966632682e-01
-5.791855206140650303e-02 -1.128695459338151103e-01 4.851987186214246073e-01
-6.134548443092506520e-02 -1.115749241938838593e-01 5.277387390080160445e-01
-7.322049765803444188e-02 -1.038659377029468173e-01 4.413429375816095290e-01
-6.025371479364513561e-02 -1.027687049324629981e-01 4.239927099581151659e-01
-8.328426548955163156e-02 -1.074324353923722802e-01 4.618064555943903193e-01
-5.623974457912187669e-02 -8.318143702029026643e-02 4.245474124344071898e-01
-6.241258642253079414e-02 -1.059404526917898937e-01 4.487870145504710417e-01
-9.130875852224937250e-02 -9.481948718741241289e-02 4.488116939896600321e-01
-6.317516818419853519e-02 -1.117981177428825496e-01 5.248785944951659399e-01
-2.719013800849551937e-02 -1.187864060719002052e-01 5.328340529316234475e-01
-5.931065281442358256e-02 -1.063555433831424868e-01 4.535873719758878875e-01
-8.795023071377820745e-02 -8.765025676664792154e-02 4.470676242188640348e-01
-3.193858199993135361e-02 -1.187040069983264085e-01 5.040615298366633024e-01
-2.085729316815058271e-02 -1.211876481379798726e-01 5.248636618660172948e-01
-5.273049581037965450e-02 -9.446245503094832796e-02 4.261730482516807306e-01
-4.431770697118882912e-02 -7.218001219199005059e-02 4.319794975925139724e-01
-3.268281176748061290e-02 -1.184627383562667918e-01 5.235559932242503933e-01
-1.513166973581710033e-02 -1.217970956181994441e-01 5.349515976835602649e-01
-9.452231465436146396e-02 -1.091958358923918321e-01 4.959018165908155584e-01
-9.380311235203821207e-02 -1.090518822621961981e-01 4.773837039390966264e-01
-3.645190210868401448e-02 -1.091948351926333993e-01 4.721110861736290687e-01
-5.359635137940937238e-02 -6.361405202253100910e-02 4.298801871366570437e-01
-4.776685270098290914e-02 -4.644536894413012901e-02 4.347204008918570950e-01
-2.419836538796276554e-02 -1.175681652361180857e-01 5.431861328763312180e-01
-6.342765809726065573e-02 -8.568422571304559754e-02 4.230142104456246499e-01
-8.282128100581734320e-02 -1.048178351287485238e-01 4.530294024414566190e-01
-2.150981037426287490e-02 -8.849129989941204033e-02 4.467948429536435784e-01
-5.487215532186733719e-02 -1.141599128643113470e-01 4.931522036856736957e-01
-8.518198195680407037e-02 -1.106873988023855671e-01 4.811560735543586320e-01
-3.242867480507346384e-02 -4.370085261755250056e-02 4.369951964874531081e-01
-9.085817040505657360e-02 -9.797255276402762336e-02 4.489250672511614360e-01
-2.747113496512736119e-02 -1.199946049643987322e-01 5.124779428224360833e-01
-2.759391658791274238e-02 -8.834732811201520541e-02 4.458492301187112483e-01
-2.389946450911846834e-02 -1.044149865828403884e-01 4.644331572044858025e-01
8.892136503741017786e-03 -1.223875580967159066e-01 4.968761574003215387e-01
-5.194782585473805420e-02 -1.142367108609277510e-01 4.912256338940497180e-01
-2.549280647185491605e-02 -1.198598163739657968e-01 5.261866619887258789e-01
-7.808818667805481062e-02 -1.081935161351927077e-01 5.215345146145441424e-01
-9.191333193633940968e-02 -1.035479273039560250e-01 4.565157030050224218e-01
-9.863474275883280309e-03 -5.556282859730575507e-02 4.383483161617386936e-01
-8.041070704384091494e-02 -1.074612185095756706e-01 5.209886001596518712e-01
-1.970201931380843874e-02 -4.198065277968945908e-02 4.389881060086103792e-01
-1.718164944047126386e-03 -1.207342694967542956e-01 4.896044457504351577e-01
6.743572227225951357e-04 -1.237244957739815354e-01 4.992788910031811800e-01
-5.087860713013539482e-02 -4.472833345055535897e-02 4.356892037370937443e-01
-9.078398705034311511e-02 -1.089475302610628527e-01 4.727305446923656396e-01
-1.918079386190095839e-02 -7.088605167979074306e-02 4.403892912289415484e-01
-1.332365598716778177e-02 -9.223483253673343818e-02 4.498453901719399739e-01
-8.117427799631726781e-02 -1.096608478018983174e-01 5.117485095480170942e-01
-7.887867074714607907e-02 -1.111117054877327898e-01 4.800632464481501271e-01
-9.807557297390041839e-02 -1.082229502195243137e-01 4.797804995121927041e-01
-4.498261643812114657e-02 -8.742155575144093527e-02 4.342128876239665369e-01
-3.842020418055615283e-02 -1.162931422136680021e-01 5.317725114295153155e-01
-8.776369443499894285e-02 -1.097624736638743298e-01 4.745156144048848224e-01
-5.523921816702735688e-02 -1.150147173633304792e-01 5.086631687140283908e-01
-2.143517776493734928e-02 -5.565716441565071032e-02 4.382188743150071675e-01
-2.513775166935919639e-02 -1.151635313313660453e-01 4.857899296484137763e-01
-1.123029980598898719e-01 -9.798147128209701295e-02 4.851797560753976502e-01
-1.039176874161096970e-01 -1.040573836850424705e-01 5.045594308532621586e-01
-8.024006384134545547e-03 -9.047027119996739475e-02 4.496767512481913420e-01
-8.943634852726752016e-02 -1.103075796612210391e-01 4.925628212793399796e-01
-1.038715683567503247e-02 -5.933889786796889970e-02 4.388442047779774757e-01
-6.961232027009074674e-02 -8.256107993473782436e-02 4.257708300255113043e-01
-2.784243020892366791e-02 -1.161054491267408673e-01 4.896575885455842769e-01
-6.638374035299060560e-02 -1.024311744142649555e-01 4.256700251885391362e-01
-6.999829656805657552e-02 -9.493280309993523680e-02 4.214663045621214188e-01
-3.968107780854861905e-02 -1.174935073396943669e-01 5.089265880055429125e-01
-3.656842343949924523e-02 -1.180581234076099328e-01 5.191380890338795906e-01
-1.094689789463836466e-01 -1.032303469271297625e-01 4.898969263795973639e-01
-1.128343012364926845e-02 -5.417813121705476048e-02 4.383865587068925262e-01
-7.886185118056064647e-02 -8.945996102734082855e-02 4.311819426478948336e-01
-7.272190052182801734e-02 -1.122823442854247872e-01 4.940060438357099515e-01
-8.485394510308710836e-02 -1.037758308300201493e-01 4.512779690859332060e-01
-1.576608595300127424e-02 -5.337948147285967448e-02 4.387531942482814640e-01
-2.276456141767949082e-02 -1.204613324336337443e-01 5.272012649012350893e-01
-4.231715498428654382e-02 -9.302049776211812615e-02 4.438334586495989997e-01
-2.351366033526043967e-02 -1.190683449310680486e-01 4.981705852011407143e-01
-3.838831857543803516e-02 -9.998079325855184496e-02 4.542444379203003924e-01
-1.099656387623820959e-02 -7.290137788213343906e-02 4.420136139801573161e-01
-6.689275364252983413e-02 -1.120124079547504398e-01 4.839054024509828467e-01
6.472483455344497580e-03 -1.261324783769914026e-01 5.120459549553777467e-01
-3.856601056006588556e-03 -1.169039762401302557e-01 4.793346365344658411e-01
-4.547066562360560504e-02 -8.970568492044687925e-02 4.346151228189366056e-01
-6.341139991831004630e-02 -1.039995737348586718e-01 4.295539720394748739e-01
-6.671269016745958423e-03 -7.965036983933122816e-02 4.449779024458974663e-01
2.283769299263295298e-03 -9.783932873127124119e-02 4.565457723425296321e-01
-7.482958320521197748e-02 -1.114264194050706286e-01 4.810284616389653989e-01
-1.019435210755908691e-02 -9.262185251568387512e-02 4.505131149922243505e-01
-1.473500025599169122e-02 -1.098117084143005046e-01 4.696005068099718960e-01
-3.599621975396763429e-02 -1.159667055897147386e-01 5.374046838038917251e-01
-8.775918808298716067e-02 -1.099768821530018176e-01 4.767096580794394356e-01
-5.404838174505077059e-02 -7.569674180844945810e-02 4.266872483878267897e-01
-7.022730579120728400e-02 -1.043792606494169800e-01 4.413676575125419221e-01
1.261975597882042041e-02 -1.263177696097325942e-01 5.215021278649800696e-01
-2.972646565416616621e-02 -1.184469965260491475e-01 5.304333361063728880e-01
-3.869324673821020188e-02 -2.889873962339583116e-02 4.363318099306950915e-01
-7.400070296772064127e-02 -1.045527360923544369e-01 4.453247336701259829e-01
-4.467205688345679548e-02 -6.728907195114951223e-02 4.315245726129079973e-01
-2.147459879813696723e-02 -1.204595977421130809e-01 5.306080542995434968e-01
-4.377719669297775590e-02 -1.072012282539272221e-01 4.642096271339100633e-01
-2.564500471850270080e-02 -1.203953278481403322e-01 5.178615342772451280e-01
-2.533751437505689721e-02 -1.174050704925610894e-01 4.933037781540807742e-01
-5.184592310279812627e-02 -1.120545720761550734e-01 4.791390007332428924e-01
3.762427500969946562e-04 -1.209001409066721572e-01 4.901964975099668553e-01
-7.229446717169581149e-03 -9.578696132207119296e-02 4.534934567594525179e-01
-4.546395253983737117e-02 -1.165381315709232007e-01 5.130071969724617764e-01
-4.288481488243445217e-02 -2.651961983468870826e-02 4.363082619532967499e-01
-7.045173072370772283e-02 -1.127601435866030788e-01 5.053312162253574824e-01
-4.354444839004529416e-02 -1.115587524828149796e-01 4.789340267129679196e-01
-5.460293660735371542e-03 -8.887798558260920356e-02 4.493187703642997355e-01
-3.208430764452975537e-02 -9.106972972459458082e-02 4.468989121409419618e-01
-2.835194765733402289e-02 -1.192175350958780272e-01 5.257805813151836816e-01
-7.486860945920451038e-02 -9.353296947279887696e-02 4.249889665051259091e-01
-3.138108445105472488e-02 -9.236029692043894179e-02 4.482415539556278694e-01
-2.045648260118606773e-02 -5.628425061323762135e-02 4.382245830946109866e-01
-9.660270869129573834e-02 -9.882686684791509857e-02 4.555352017276419474e-01
-5.656112233051280996e-02 -7.250787582285506128e-02 4.265570772104551600e-01
-5.068997207275852818e-02 -2.609666325282973195e-02 4.379312200935221999e-01
-1.924723080903338601e-02 -1.213966405916599295e-01 5.271532763398660837e-01
-8.814099692574062228e-02 -1.097252974123983926e-01 5.010011386979958958e-01
-8.676301007385496533e-02 -1.104789405556685922e-01 4.813032464910822483e-01
1.194364133849139253e-02 -1.265747183546669374e-01 5.251771776806665182e-01
-1.775714876119803727e-03 -1.058462993974890881e-01 4.635533874491517548e-01
-1.299101465833009394e-02 -1.236649453173737229e-01 5.205931902915552634e-01
-5.900419725427091117e-02 -6.892732957916447578e-02 4.288313236913143811e-01
-4.356938548266323097e-02 -1.102805189115741713e-01 4.737331664222247940e-01
-6.595495624639333143e-02 -8.695019565736042400e-02 4.220274390697370537e-01
-6.888422575730589192e-02 -1.085501425098509415e-01 4.631472985281676058e-01
-2.142198903897876358e-02 -1.198885765793032271e-01 4.993451431386682904e-01
-9.484331506108230336e-02 -1.080830519185993904e-01 4.730320555566563390e-01
-5.791123113624337126e-02 -8.995428514959878663e-02 4.229945125415928708e-01
-3.774750908665576443e-02 -5.630335662516630646e-02 4.351152138090406685e-01
-8.075911356456373646e-02 -1.099632124248507425e-01 4.716517644716575197e-01
-7.973178419368767700e-02 -9.376616875414611751e-02 4.311390061930245321e-01
-5.757435959179747070e-02 -1.137674471879603494e-01 5.224853323217076850e-01
-1.885520336237893335e-02 -1.222383316060858260e-01 5.132728351425923652e-01
-1.820118104669873546e-02 -1.205649470452344607e-01 4.988389283857861956e-01
-2.350828153825869349e-02 -1.163360150085509664e-01 4.886046380802279709e-01
-5.342446327734418771e-02 -3.010269517713061449e-02 4.417128289208535064e-01
-5.319130275389680196e-02 -1.121982553408763517e-01 4.802605745608732324e-01
-2.991480130151108821e-02 -3.674204481777784692e-02 4.377669706795233595e-01
-2.173185706750400611e-02 -8.899676496017278060e-02 4.471246168682894706e-01
-6.593105568202642375e-02 -7.740303840678640357e-02 4.283713545709761927e-01
-8.679892935892380770e-03 -7.897616528149781212e-02 4.444039220157002257e-01
-3.481759272090385188e-02 -7.346888807270383903e-02 4.363175064397227243e-01
-5.172299054993714090e-02 -1.114360512697485928e-01 4.759862792248767960e-01
-3.230329884010813002e-02 -1.182884294250572260e-01 5.015623882682290757e-01
-2.701471764997810665e-02 -1.190934912005198743e-01 5.008061752194361560e-01
-5.821961541113186006e-02 -9.183276290144713749e-02 4.229568979819459118e-01
-4.468368036784351599e-02 -9.088899759201020390e-02 4.375633916054522121e-01
-9.748263887207377076e-02 -1.008806942565291243e-01 4.582321306934568628e-01
-1.310339625839352859e-02 -5.833636487269104609e-02 4.388939679902403301e-01
-3.919725700395136625e-02 -3.748009409132104647e-02 4.353455762984267396e-01
-3.506916581870656718e-02 -1.055592519107873828e-01 4.651156442728640594e-01
-6.412431895562938078e-02 -1.050497260918243636e-01 4.416518524358869491e-01
-3.751714845077178118e-02 -1.067041675093356179e-01 4.661644408376932058e-01
-5.468116465489898659e-02 -1.027713887944476379e-01 4.454051168537713212e-01
-8.797774673039433779e-02 -1.097336561253392795e-01 4.744949178346424268e-01
-8.095183623770772774e-02 -1.060199898777072075e-01 4.560217918948936688e-01
-1.586984456394103030e-02 -9.245831647012305032e-02 4.498745908251569614e-01
-3.344895703523303315e-02 -1.168353802682540049e-01 5.359442390226918373e-01
-7.626302873859489018e-02 -1.117908758303092775e-01 4.912334600056315614e-01
-5.017839075744540828e-02 -8.832720632514270975e-02 4.282215339886292216e-01
-5.142430122676826948e-02 -1.068259708878192549e-01 4.600988386768365968e-01
-2.703807369094184815e-02 -7.523247614956926621e-02 4.397336760389043975e-01
-7.409694809360600765e-02 -1.123596044479144018e-01 5.025118619144446352e-01
2.855142103008067971e-03 -1.241310186571203816e-01 5.006208835340951735e-01
-1.110462195142481422e-02 -7.717461149849601243e-02 4.433444047689226175e-01
-2.666617356674791037e-02 -1.013617570114458549e-01 4.605125229806332765e-01
-2.932885032015954130e-02 -1.189646300267770684e-01 5.022697519511292175e-01
-9.518976980983091807e-03 -1.014098734540433838e-01 4.581737796183230071e-01
-7.049628926746080715e-02 -1.002205826227701435e-01 4.262241461568953560e-01
-2.905306454871344011e-03 -9.561363825749681633e-02 4.540361306774640671e-01
-8.511109586441441277e-02 -9.847994177902837099e-02 4.435915848823308583e-01
-8.570773208627946796e-03 -9.623898103524339276e-02 4.536095345126638367e-01
-1.733416787129158157e-02 -1.097603442679079278e-01 4.705238652502135022e-01
-3.464148533620076131e-02 -8.605830946909455437e-02 4.422587949652573291e-01
-3.879625854672298646e-02 -7.752456775318722348e-02 4.356140470894851457e-01
-1.025305191051690823e-01 -1.072312906195042881e-01 4.925005522988283313e-01
-4.978020919131009858e-02 -2.957958841731460342e-02 4.371612301039982107e-01
2.313811104068776853e-03 -1.242135731345266614e-01 5.008600304374770662e-01
-4.885478582082702914e-02 -1.086406936754477637e-01 4.654643621112465324e-01
-2.197146709349531886e-04 -1.031007126623962045e-01 4.609365518900476189e-01
-2.669829101381598555e-02 -1.153579404944388292e-01 4.867407323184996804e-01
3.337438353494428470e-03 -1.192599439412157097e-01 4.858851706534682013e-01
-7.750899753614728938e-02 -1.108478888864686263e-01 4.770830716551719419e-01
-9.980062618769623695e-02 -9.433019746612421319e-02 4.596441703735922313e-01
-7.412900511935952008e-03 -7.233344324640775258e-02 4.421564850449242745e-01
-2.918170523478420125e-02 -3.821349826233655378e-02 4.379584328985510200e-01
3.553618787900638971e-03 -1.209949014934364048e-01 4.907402369518084062e-01
-1.351242403851994622e-02 -5.698086544986764174e-02 4.387479799581935902e-01
-7.834330082189393252e-02 -9.586984052438354831e-02 4.303217399508320606e-01
-6.867047403067887135e-02 -7.702302000803566695e-02 4.298609306392701113e-01
-1.041998616965076757e-01 -1.067010764020089181e-01 4.891088224150507702e-01
-4.471805232156535886e-02 -8.978263476735522108e-02 4.360934265480483907e-01
-3.384062762482748649e-02 -6.892489315015144780e-02 4.363083605751603145e-01
-3.205009509455399030e-02 -1.154980612375090948e-01 4.891254470706933866e-01
-1.013071811191910976e-02 -1.242606092307101256e-01 5.121839490490663893e-01
-1.531978052108048764e-02 -1.051592456723781932e-01 4.626834847329631684e-01
3.253817529181133369e-03 -1.071149403675724920e-01 4.655026842830402023e-01
-5.428667107489811711e-02 -4.126406367901562511e-02 4.400807932449998239e-01
-5.600693184220914556e-02 -1.033420891940617370e-01 4.354135115547935753e-01
-5.445031354146608743e-02 -3.409353480727804475e-02 4.447670589221070503e-01
-3.032062971917913463e-02 -1.073803032754500758e-01 4.693561188201164636e-01
-4.355411250388680627e-02 -9.103397957743701585e-02 4.409490657726132246e-01
-9.463832889619691602e-02 -1.088047882427376906e-01 4.763402951578564748e-01
-3.364521945956321092e-02 -1.174592847391234818e-01 5.312158383145612062e-01
-4.059956294028139318e-02 -1.148481243170278165e-01 5.357387200956220674e-01
-9.960916386459009453e-02 -1.079997480888851558e-01 4.869455105217516677e-01
-5.312483764588352489e-05 -9.327998879527693576e-02 4.526697076527140817e-01
-9.707466817109199064e-02 -9.502968992063037801e-02 4.559571249309797847e-01
-8.864101908429487808e-02 -1.104161994442676292e-01 4.894774198256481856e-01
-9.879449623655824075e-02 -9.178826434576133064e-02 4.598174136590001959e-01
-5.274449388461401045e-02 -7.916012781219439187e-02 4.265869163764332006e-01
-9.927588475243454003e-02 -1.080813187777351914e-01 4.887859779365563706e-01
-4.533363406751768354e-02 -8.819020510029015880e-02 4.340817160591737833e-01
-4.054047302675375941e-02 -9.598148018393498626e-02 4.477005360717562499e-01
-4.950586554679314161e-02 -1.154323983040646262e-01 4.990405979647813961e-01
-4.448169937425280884e-02 -7.464654277731827547e-02 4.319480340578737421e-01
-6.707339432073319840e-02 -1.109056424555863035e-01 4.744989564191574583e-01
-5.303064959481795793e-02 -1.097061189118101188e-01 4.678671933636634472e-01
-5.124353522655444165e-02 -1.054737979056552533e-01 4.561652650915402063e-01
-2.449736194357714225e-02 -9.447378021072860843e-02 4.525334296593847005e-01
-4.528346415260676994e-02 -1.149968394752752116e-01 5.294576779487668583e-01
-1.979344509146752432e-02 -1.035371043658917939e-01 4.620659828709604011e-01
-5.981195142756973865e-02 -1.132145675474727359e-01 5.228796444310408464e-01
-6.973366604433944675e-03 -1.239344773729878502e-01 5.038699514869319218e-01
-3.916966750656480922e-02 -8.992207964859620650e-02 4.430974664963141518e-01
-2.585512454924677322e-02 -1.012488116862044346e-01 4.603888081246969022e-01
3.630113085608479857e-04 -1.004157427558949461e-01 4.586446289032020118e-01
-7.571070973694801753e-02 -1.073702881052907149e-01 4.593122182009798937e-01
-3.156005335504916132e-02 -1.191374810557856434e-01 5.135333373519108680e-01
-4.202942906341083223e-02 -1.027883843500598526e-01 4.564642665425051038e-01
-5.206786926107034863e-02 -1.102643472524500318e-01 4.700996675702450722e-01
-1.055083382762496275e-01 -1.032462754310147363e-01 5.048093760096106219e-01
-5.708049242128591244e-03 -1.178801396746735064e-01 4.815553218886814424e-01
-7.939254403376173885e-02 -9.209938943338449868e-02 4.309744714853965819e-01
-1.633765901977533852e-02 -8.842383345478599388e-02 4.472791313250115142e-01
-5.186604249694892754e-02 -9.415916986630905317e-02 4.269141363452725324e-01
-3.049396401380792890e-02 -1.193176582576359890e-01 5.107720146751795198e-01
-9.235120961199456968e-02 -1.062309959314928637e-01 5.119147184617155455e-01
-6.356470529805548220e-02 -1.036364737025553540e-01 4.273273238413610731e-01
-2.199484499884617889e-02 -1.212895222656961425e-01 5.120300050902605316e-01
-5.259778643123292491e-02 -1.124837125660235748e-01 4.818054390600327030e-01
-7.655881154311372505e-02 -1.079817527956358908e-01 5.240672580274300385e-01
-3.218741507429610099e-02 -1.189632484852726768e-01 5.159187489515624225e-01
-3.939616481995515500e-03 -7.885317652071020811e-02 4.451012131260106419e-01
-5.958508079553712089e-02 -1.139341266140514453e-01 4.964021223786239667e-01
-1.602905530391594141e-02 -9.236180912136655874e-02 4.498062408768724874e-01
-7.072526217674332538e-03 -1.214249310546374333e-01 4.930875521060300581e-01
-4.487211193128112091e-02 -9.312637703330924055e-02 4.418855399388431637e-01
-7.113708126771345341e-02 -1.078434899489772447e-01 4.603661324969489099e-01
-3.328456123623749208e-02 -6.839688641154198501e-02 4.365028285131180019e-01
-6.572711851511763015e-02 -1.133079278103625714e-01 4.994718862647968827e-01
-3.052969353275677977e-02 -1.056017487141744787e-01 4.663008397821001294e-01
-5.598090966397587659e-02 -1.135080358463921579e-01 5.250567014271479982e-01
-2.427424405691620823e-02 -1.138401255170076870e-01 4.813006779091750786e-01
-9.113026210085665990e-02 -1.046703883344751590e-01 4.583342945698621884e-01
-6.548388574360583525e-02 -7.537067064505216518e-02 4.290732722995382886e-01
