8.444182392006302149e-04 -1.179626170542389940e-01 4.816730935065046681e-01
-1.067497825007693579e-01 -1.061461015600199814e-01 4.879561858440659150e-01
-6.062845144876595482e-02 -1.054633580103361140e-01 4.347318451563793595e-01
-4.724816947426837416e-02 -8.789104673714968896e-02 4.292382943347846092e-01
-5.266541042778700998e-02 -1.156506652511822553e-01 5.047190274296081691e-01
3.179202551552065201e-03 -1.268698749776496215e-01 5.177777972918743421e-01
-3.238621829238966243e-03 -9.520305827430375345e-02 4.533897612524946941e-01
-5.014310161073252947e-02 -3.341237332283526762e-02 4.377201802216469928e-01
-7.889259342302704092e-02 -1.046492213401521987e-01 4.457175728183616070e-01
-8.534344216744986500e-02 -1.059850758528298881e-01 5.200011698773223667e-01
-9.777533962263694478e-02 -1.085670917074842284e-01 4.751809548052260412e-01
-8.273039104279029943e-02 -1.112141324206750576e-01 5.016279461934967099e-01
-5.468117662267385493e-02 -1.153964742538954313e-01 5.052910012779379123e-01
-5.037066485737884403e-02 -1.147416367686004551e-01 4.902302487611845394e-01
-4.310418558771697203e-03 -8.762524769651842960e-02 4.486303660579816222e-01
-8.120739931323685268e-02 -1.095147336408185262e-01 5.145166930193536547e-01
-5.788193120800952385e-02 -6.537079154636990519e-02 4.307288243938478534e-01
-1.103646535209601709e-01 -1.002337267410211702e-01 4.779048191905121423e-01
-3.057649616083176619e-02 -6.125366469531109276e-02 4.364879778454210379e-01
-6.874361076131339787e-02 -1.134759567706870864e-01 4.986358361927361038e-01
-7.322283672439014457e-02 -9.808351308800680735e-02 4.248921578227748963e-01
5.707698823816609313e-03 -1.270170401448467712e-01 5.236388262303410812e-01
-4.944077573147590693e-02 -1.146049227603346821e-01 4.890749998437435297e-01
-6.352449632523334000e-02 -1.077402430531260308e-01 4.553101242594960185e-01
-4.413026543264180618e-02 -7.855239399073114803e-02 4.314532041431093368e-01
-8.151239142513035107e-02 -1.118051669398325981e-01 4.984653183488322314e-01
-9.663999635750353256e-02 -1.005344986795656814e-01 4.560638994592961515e-01
-2.585673303772632187e-02 -3.469260337272656036e-02 4.385528091382215887e-01
-6.286524236336786531e-02 -1.020126651096374820e-01 4.227932348434246257e-01
-6.983091798645867099e-02 -8.154797787318837643e-02 4.269159191396248443e-01
-9.897611343213588708e-02 -1.023970479679115891e-01 4.602027245910603193e-01
-9.522039815368173177e-02 -8.963845084719440637e-02 4.571937223649999438e-01
-6.285323914738369377e-02 -9.870939267405480499e-02 4.219192427672844303e-01
-1.050613480412009304e-01 -1.055499357997626009e-01 4.750437271591377852e-01
-1.038747837178674756e-02 -1.239162556111350622e-01 5.081994730540181360e-01
-4.906944487425930757e-02 -1.157622441244382239e-01 4.976577399143565783e-01
-3.635961350891385446e-02 -1.108338739524099836e-01 4.746566581561318943e-01
-2.225871305787621018e-02 -3.988240370002704704e-02 4.388753285365528667e-01
-5.564723421270374726e-02 -1.131493106872659832e-01 4.825812337403414531e-01
-6.574049660398206818e-02 -1.115101659561566344e-01 5.241770937295722188e-01
-7.202031773968825545e-02 -9.637257184026164214e-02 4.226692872767873199e-01
-2.099613188530979543e-02 -1.143738996243596345e-01 4.816470713028406792e-01
-8.337848253396241971e-02 -1.086273536375161330e-01 4.623892990741720888e-01
-8.824314141375060039e-02 -1.111305625989888329e-01 4.923400525221648394e-01
-1.562816265088100981e-02 -8.404512768150898538e-02 4.449405221748533590e-01
-6.951609534353829500e-02 -1.041502491002289921e-01 4.330930929537389340e-01
-6.424257095051601196e-02 -1.139680595753875536e-01 5.129331762959496999e-01
-5.459307651084082530e-02 -1.121832090430484041e-01 5.317015278629756425e-01
-2.685472553950368768e-02 -1.145435274841099527e-01 4.830059436746564905e-01
-7.620833638381808994e-02 -1.125829667038422133e-01 4.949960577722666288e-01
-6.733594381588595135e-02 -9.948830808946267090e-02 4.214414672717095578e-01
-4.758554052631835951e-02 -1.139921157371630300e-01 4.864324643670645543e-01
-3.493037918993232432e-02 -1.183490065689732085e-01 5.217029171148300781e-01
-1.038095191174497472e-01 -1.075016116483013401e-01 4.860721911919619331e-01
-3.915264137091015173e-02 -1.173587316413843840e-01 5.237448810934440813e-01
-5.351335628795157728e-02 -1.116682857597596085e-01 5.337394602465950211e-01
-3.013122846985199013e-02 -1.185446042682781059e-01 4.990429852886283935e-01
-4.082384192294775255e-03 -9.732875356522040222e-02 4.549699723618375047e-01
-2.923421641545205507e-02 -1.061835401836005999e-01 4.665239767446190955e-01
-7.622820993656151400e-02 -1.124131850767506463e-01 4.898398404745301637e-01
2.172944619724025139e-03 -1.171692858881175081e-01 4.800055201622837053e-01
-9.096012539992293089e-02 -1.076809074874594263e-01 4.638796027109404752e-01
-4.777818050871000637e-03 -7.505986542570876330e-02 4.433730831829548746e-01
-5.520416866656190774e-02 -1.154163093752964137e-01 5.100700371487231211e-01
-4.110699007440174468e-02 -6.120374897071870907e-02 4.331765074781772640e-01
-3.224260865462860726e-02 -1.187414078292503422e-01 5.230631175357561835e-01
-6.489486683605227846e-02 -1.053740098273228676e-01 4.336089380738946120e-01
-1.323978307227353414e-02 -1.151756245111797972e-01 4.787259690222880892e-01
-8.923912035331554859e-02 -1.099774129429373221e-01 4.716981694729012187e-01
-7.665849422155866788e-02 -1.074911659810607878e-01 4.558070141615375159e-01
-8.633076757685850811e-02 -1.079989400623756757e-01 4.615127878407135342e-01
-5.576862711422399255e-02 -1.001087347762200236e-01 4.222805508612397229e-01
-5.620765145307622668e-02 -1.066256358728259052e-01 4.521733108175767235e-01
-3.112861041748617510e-02 -1.187541181329028889e-01 5.253594066822897535e-01
-9.028971254405529848e-03 -8.382648747873949757e-02 4.459713173320882795e-01
-2.288169771200629019e-02 -9.749951466276936263e-02 4.551155112394744129e-01
8.624490462189486617e-03 -1.231066655473948002e-01 4.986751971492538460e-01
-5.359746814579081226e-02 -1.134634762343061792e-01 5.283423741455726130e-01
3.685281687166534065e-05 -1.248960346916182101e-01 5.040940980511783298e-01
-2.497902808912689024e-02 -1.171981933434369239e-01 4.913997947006282785e-01
-5.264025739911188523e-02 -8.685849884512321373e-02 4.250263244501923388e-01
9.196155813221086953e-03 -1.219131583815835779e-01 4.952173184040150056e-01
-2.956434443453125060e-02 -9.135266110353695845e-02 4.469494232742691198e-01
-5.232574762050355016e-02 -1.156316001670435328e-01 5.004613923208702797e-01
-2.588140379508276773e-02 -1.204744415646431949e-01 5.171823657562116816e-01
-7.762194411095249547e-02 -9.875578337743051716e-02 4.306259907647997376e-01
-3.647114606665657205e-02 -6.191439477731437713e-02 4.349048091074272926e-01
-8.667433703952325680e-03 -1.179829998653409706e-01 4.823228450893110586e-01
-6.954452689022691536e-02 -1.082260523591537932e-01 4.574789419140530278e-01
-5.098665622879804127e-02 -1.103703382217912643e-01 4.676866800451557893e-01
-4.873816648923019051e-02 -3.634199647903834512e-02 4.369621567903948511e-01
-3.425169164604667613e-03 -1.256116378128148414e-01 5.108250344257088127e-01
-1.051270518596475745e-01 -1.070202455928615792e-01 4.855365044120635853e-01
-5.559042605555551686e-02 -6.593810839158062431e-02 4.288493508313460656e-01
-8.055142130371475973e-02 -1.089035888651849332e-01 4.624489198292932035e-01
-1.774906568466495457e-02 -8.760237585623743828e-02 4.463809462355676771e-01
-9.446645094502165163e-02 -8.597412332825803138e-02 4.602258501066086582e-01
7.418389134149744324e-03 -1.258861679801857869e-01 5.103609900329979521e-01
-2.094320042196191195e-02 -1.168693113338721834e-01 4.878381000524756872e-01
-3.308419218963996877e-02 -5.957033957579399575e-02 4.359935163435991190e-01
-6.229280605917528191e-02 -1.138519607736821621e-01 4.923768690947977200e-01
-7.355409324227152323e-02 -1.061472566314082544e-01 4.478768772262105013e-01
-5.400464739884965060e-02 -1.118260242212853611e-01 4.732836256767418148e-01
-4.886559500735618289e-03 -7.504870446855624322e-02 4.433506069607591749e-01
-6.358877629993756574e-03 -1.252020114090391933e-01 5.244875156644852598e-01
-1.716860377055773670e-02 -1.167742864382861484e-01 4.851139457273526134e-01
-7.335131234141958889e-02 -1.129498179585647216e-01 4.992336292616009752e-01
-2.869488961810275074e-02 -8.768901489182075182e-02 4.445090143894256385e-01
-1.027105136752542031e-01 -1.078521658829875440e-01 4.861814679027940400e-01
-8.931613844585320483e-02 -1.075147229197780802e-01 5.121280846725216884e-01
-5.424960091549919233e-02 -5.682627015578722851e-02 4.322696983190922881e-01
-4.412920520835077187e-02 -9.604528559840133650e-02 4.434326877652614018e-01
8.646934750285694901e-03 -1.263978238327782277e-01 5.144658364568115427e-01
-3.167986725246594356e-03 -8.200059594485042958e-02 4.462300162609947329e-01
-1.337187910284728248e-02 -1.188080344360067098e-01 4.870074677512989392e-01
-6.023395340661318043e-02 -8.119604703024005388e-02 4.243051918546958956e-01
-9.350649001948889427e-02 -8.505380319325814287e-02 4.595809913745857456e-01
-4.205880465665611662e-02 -1.118475930061177126e-01 4.778887785512411779e-01
-5.213958934595629147e-02 -1.158225218284486407e-01 5.107883938273448665e-01
-9.173843112421914414e-02 -1.105743763881439773e-01 4.896527270128386289e-01
-4.923762076873951232e-02 -1.140907554805472152e-01 4.867752492479577309e-01
-4.334391315161630759e-02 -5.164886818658206286e-02 4.341372310622959585e-01
-5.409813673084107322e-02 -4.234872170238836164e-02 4.393318768609123515e-01
-2.578721172138697532e-02 -1.131669783537202628e-01 4.792356697310171110e-01
-7.135780146183928752e-02 -1.120857865888329891e-01 4.791960446755036407e-01
-8.396123279717442045e-02 -8.890148174059672725e-02 4.405905076089855488e-01
2.451784430824189946e-03 -1.268185027575169654e-01 5.256143967436538444e-01
-5.105875339649673661e-02 -3.463817398381839607e-02 4.383076856463345994e-01
-8.500079725052293866e-02 -1.112295142665263026e-01 4.778515044036800719e-01
-5.495417779647001483e-02 -6.022545676733126463e-02 4.309388412126694545e-01
-8.287596513624767569e-02 -9.346799302709837831e-02 4.365693739978736554e-01
-9.574306316202382816e-02 -1.001209805692437060e-01 4.540685329793598402e-01
-6.413910466826037993e-03 -1.137081220767112433e-01 4.734722620106963098e-01
-3.654307217757084281e-02 -9.247867589436944979e-02 4.453085681682444341e-01
-1.583236903899583672e-02 -7.360643235487099312e-02 4.412112281416059600e-01
-3.548185452976532206e-02 -3.764234517382261669e-02 4.358060015398939058e-01
-5.451197573046306921e-02 -1.087577866110810559e-01 4.615367155381718267e-01
-2.785690423606675473e-02 -9.534817798415311241e-02 4.517590323919924433e-01
-6.328734598822316482e-02 -1.142851834258430260e-01 5.059788560628796228e-01
5.799564421205001541e-03 -1.267526891189455218e-01 5.167870356063988257e-01
-9.659866428087300616e-02 -1.038116021561761443e-01 4.590192700000041426e-01
-3.811555528046346730e-02 -4.811818679143150396e-02 4.350747603278803943e-01
-1.029549832752014830e-02 -9.460954645845029432e-02 4.516439589755935069e-01
-4.987446382095848951e-02 -1.160761972852876328e-01 5.063191978101048152e-01
-1.102758044991247743e-01 -9.871332604874953620e-02 4.762774087375173937e-01
-1.902904603305125876e-03 -9.258771138409782608e-02 4.517101405817839366e-01
-1.391125029481418696e-02 -1.170744227223127071e-01 4.834324075009082122e-01
-5.033831178620160746e-02 -6.817235069614599463e-02 4.285311408753580964e-01
-8.775706928895932180e-02 -1.112157062695306731e-01 4.916133694027864931e-01
-4.946623935740873668e-02 -8.136573491618767640e-02 4.275244854470605094e-01
-5.538301226285082673e-02 -7.993051637510020790e-02 4.247689865540811294e-01
-3.297046061925641702e-02 -6.271175994309284574e-02 4.359842029014798781e-01
-1.365796716639199049e-02 -7.212706657806408628e-02 4.411639745051159078e-01
-8.268223728423546026e-02 -9.192536649297206042e-02 4.369560523798489693e-01
-7.835746200024328034e-02 -1.121651323120272659e-01 5.011580444051147998e-01
-3.856275554282596191e-02 -4.466813948862725925e-02 4.350127691463078761e-01
-3.645844409052992341e-02 -8.265823015635639925e-02 4.384419369563732349e-01
-1.454742401969786811e-02 -8.146589612048227291e-02 4.439590171770982363e-01
-5.045570836846191565e-02 -8.262876329266294340e-02 4.267422319787570473e-01
-5.013707863609707938e-02 -1.160736923849372410e-01 5.153958254475913270e-01
-5.118588734262318612e-02 -1.123465756799867377e-01 4.770982788205215264e-01
-3.357565010284141449e-02 -1.172664577525862062e-01 4.951087726317500159e-01
-4.139174829102454378e-02 -1.026373591525341772e-01 4.547052294359191782e-01
-1.583131984104777651e-02 -1.224757801450784139e-01 5.065295628572479281e-01
-4.969423851639153018e-03 -1.223539712620209663e-01 4.949369944579525282e-01
-5.781616424614686306e-02 -1.050562624431864989e-01 4.431610242476248795e-01
-4.529987712161857166e-02 -9.842334006497710508e-02 4.447356950267404851e-01
-2.351088809155591278e-02 -9.556567047648344138e-02 4.530287131771523756e-01
-3.811984243536058886e-02 -1.173658770687526220e-01 4.998860335680378464e-01
-5.441548830835430534e-02 -6.127906171226388948e-02 4.305476982233845118e-01
-9.895251143621418277e-02 -1.044657521194554961e-01 4.622689067720486822e-01
-5.785379961439760660e-02 -6.910903817769284418e-02 4.284889649959274793e-01
-3.957848892546533132e-03 -1.243703672728872500e-01 5.031344082812064800e-01
-9.842981537363140743e-03 -1.230616132405951552e-01 5.352676150275221811e-01
-3.195123029495836042e-02 -1.189803227149454634e-01 5.209916065022356380e-01
-2.591582469923002507e-02 -1.090858967662833856e-01 4.713123625315630560e-01
-6.899290221661810718e-02 -1.117872755304031157e-01 4.762062936073107045e-01
-3.718083514129254252e-02 -1.173076403266672257e-01 5.274441326444663236e-01
-5.405450790945688644e-02 -1.044328936166704080e-01 4.333215212972028052e-01
-2.902103385248241138e-04 -1.257384117291892034e-01 5.317822250978293530e-01
-2.971280042871407220e-02 -7.205991105360459725e-02 4.376539183467529903e-01
-1.474152001752324775e-02 -1.086553813687417686e-01 4.670869923009968172e-01
-3.143561208687739583e-02 -6.250477882560276366e-02 4.364152891998349659e-01
-9.674112631318822209e-02 -1.085333470909953246e-01 4.729995392553335010e-01
4.409690826241532621e-03 -1.252997000317459531e-01 5.055913749174679728e-01
-4.444648958990955745e-02 -1.163158119761023707e-01 4.960350117080509214e-01
-8.169535150992968120e-02 -1.093512282169866595e-01 4.645819361826528660e-01
-7.554748901004694484e-02 -1.090522348861010793e-01 5.227042274636675145e-01
-2.640035964954940903e-02 -8.061881092711702113e-02 4.415898384153217893e-01
-8.015066158580715777e-03 -9.706072698301075607e-02 4.540118045963565385e-01
-9.237622596736031269e-03 -1.240584230424980478e-01 5.301195630786834645e-01
-2.719521766397298840e-02 -5.760503973532177246e-02 4.370398593662192521e-01
-4.022416687618796810e-02 -1.156360998360446840e-01 5.336566418826939051e-01
-8.692640859645717200e-02 -1.087690551571429409e-01 4.652573712185312793e-01
-3.659017422444451467e-02 -1.178568163904223781e-01 5.237251417649718688e-01
-9.555324899161037056e-02 -1.080252332282279903e-01 5.048675632135407598e-01
-6.430743624795676183e-02 -1.137461398846076888e-01 5.148910387402965139e-01
-4.223843166489748419e-02 -1.167704437932133715e-01 5.237600474598625988e-01
-3.298992498552689306e-02 -5.908102882993730709e-02 4.360049538552195902e-01
-4.645254691585269657e-02 -1.161595035812225674e-01 5.216881989382722296e-01
-3.455034817074233849e-02 -4.414986682906477111e-02 4.360278124872416505e-01
-7.635451904903520735e-03 -1.221246660125656219e-01 4.950557388750465582e-01
-1.602637191235371100e-02 -1.222515709572653403e-01 5.287432204552241499e-01
-4.618329975030701501e-02 -7.584943614084918573e-02 4.298012793384546337e-01
-1.619647698636563979e-02 -1.217532065002580599e-01 5.328142582602364286e-01
-5.228772360242226608e-02 -1.062539269591673829e-01 4.540566707287257420e-01
-5.559325747788965155e-02 -8.761170557726928598e-02 4.232971760252849380e-01
-5.245178221606139335e-02 -1.157795088665306421e-01 5.113777116054453176e-01
-8.453702458977380846e-03 -9.603629221774583058e-02 4.530839110076568255e-01
-5.394389896263275530e-02 -3.942389003814034121e-02 4.406144461612810370e-01
-2.220204843814292325e-02 -3.863668097578441124e-02 4.387335296252307115e-01
-1.167570948829081343e-02 -1.125191889926742267e-01 4.726418608915420316e-01
-3.953296098988667157e-02 -1.122123642752418798e-01 4.793199958426006546e-01
-6.767225727116921163e-02 -1.128270963894619089e-01 5.163916602546489987e-01
-6.787994980509533260e-02 -1.030397035188568150e-01 4.253618949144160610e-01
-3.709734233204087933e-02 -9.104322343976171961e-02 4.438612631329611480e-01
-4.387410376478526747e-02 -1.151789635384779797e-01 4.907437068691837823e-01
-3.851531824073337051e-02 -1.175482605157602556e-01 5.229381052106208960e-01
-1.930041599211540157e-02 -1.221941530242847823e-01 5.154513940565115249e-01
-1.995037950933965104e-02 -1.220035701268709777e-01 5.137193548041129043e-01
-1.070392069726952416e-01 -9.601668725837313179e-02 4.689464544087019737e-01
-6.688465514045129068e-02 -1.106243885619038886e-01 4.687504639229573278e-01
-1.347684242057882453e-02 -1.150058224735363149e-01 4.785006324693312219e-01
-7.787635196064220111e-02 -1.018461679496761307e-01 4.361280607661739972e-01
-4.020567129173615445e-02 -9.133196127585338497e-02 4.423017101344804969e-01
-8.867166494267371413e-02 -8.785110119924878502e-02 4.481525105569540979e-01
-3.859171630320078206e-02 -1.129131868287352874e-01 4.815130448188045253e-01
-1.785299067352094302e-02 -4.213349680740666181e-02 4.386241600892714088e-01
-6.294040081924197338e-02 -1.107656378875734454e-01 4.688266444360743024e-01
-6.782054939167252161e-02 -1.059844470175136250e-01 4.426529319672187768e-01
-1.890367448760101390e-02 -1.212168801829837661e-01 5.029075758591025069e-01
-4.073886186014194499e-02 -5.974901797925757929e-02 4.334908699483939198e-01
-6.171532004064169546e-02 -1.128892197870079300e-01 4.824684881849095608e-01
-2.251374123934596003e-02 -5.315080120708878114e-02 4.382101491731630882e-01
-5.897841374500605027e-02 -6.471568516272142857e-02 4.313482520960233435e-01
-2.330685994261444752e-03 -8.122844191988443097e-02 4.460147054594526539e-01
-6.621150567807097820e-02 -1.118958343994768123e-01 4.751796028603384459e-01
-4.215774231113835618e-02 -1.079178388786268955e-01 4.644910764875235798e-01
-8.939539623918302258e-02 -1.065734630577150899e-01 4.589616219167947375e-01
-4.771592292037620670e-02 -1.126234183121650051e-01 4.795050914062010672e-01
-6.241581622153680176e-02 -1.083405534041352453e-01 4.576342554824640585e-01
-2.606719345781159658e-02 -8.211538176751360940e-02 4.423869055298221831e-01
-6.723665782526747070e-02 -1.116881127490007564e-01 4.746408722598521313e-01
-1.464889793244017122e-02 -1.212741201859739298e-01 4.973306732626122106e-01
-1.639012245031649245e-02 -1.228539540753760401e-01 5.198133482018134632e-01
-2.507252307535332708e-02 -1.185494940994849949e-01 4.962751302109997265e-01
-7.303931308479056153e-04 -1.205331844944391023e-01 4.883834605111290750e-01
-3.539737204746051802e-02 -1.000673392256414135e-01 4.548462157037260201e-01
-2.904553755217851793e-02 -1.004748547803218650e-01 4.577848209349856812e-01
-5.396099219912132983e-02 -3.213368526715238566e-02 4.438591529846216410e-01
-9.199140940570066372e-02 -1.103158325117608307e-01 4.785544347586935254e-01
-1.057834295381158002e-01 -1.013985162085645070e-01 4.678597698080726452e-01
-2.670385253687979771e-02 -8.525530961147211040e-02 4.436087517319181051e-01
-4.428969956198575142e-02 -9.966825245796860633e-02 4.470605697499060449e-01
-1.906275003312508584e-02 -9.384471679006746447e-02 4.508999698967113834e-01
-4.036085553412636223e-02 -9.029831932596829591e-02 4.412596907890365405e-01
4.159818382348466279e-03 -1.267856690416646337e-01 5.265096931318139495e-01
-3.901403027787652723e-03 -1.043194642947696676e-01 4.614313195004506318e-01
-5.560728951246125124e-02 -6.695630217718041843e-02 4.284631116349485458e-01
-5.066012626038575439e-02 -1.113362884040362960e-01 4.720013565721785653e-01
-4.339923237438646740e-03 -9.619630024921752010e-02 4.539208277002061975e-01
-8.284005426434277314e-03 -1.195533368812664032e-01 4.867118662609701829e-01
-9.382198251872429784e-02 -1.095803065915464669e-01 4.742812940733582283e-01
-3.241122144179690856e-02 -1.188736038433137188e-01 5.211943315549394384e-01
-3.653012810704833052e-02 -9.455348965111982917e-02 4.472646218168894738e-01
-2.168669269594707474e-02 -1.213591870626555963e-01 5.203418976974590882e-01
-7.717192032910967503e-02 -1.006004776398043976e-01 4.326127160027563590e-01
-3.412860684528409155e-02 -6.470264320714473605e-02 4.355847217238459357e-01
-4.486229233519360704e-02 -3.121742881713231513e-02 4.356539305891422575e-01
-1.076459289472425640e-01 -1.009473023266073688e-01 4.714434894695357370e-01
-6.903135287806266146e-03 -7.401029764854170911e-02 4.426307472023617851e-01
5.797541206021822671e-03 -1.257257096453722744e-01 5.087046542922034620e-01
-5.683476645329613858e-02 -6.976705462916074629e-02 4.278838979010538557e-01
-7.763675329449826190e-02 -1.082497434742991510e-01 5.228810559370618005e-01
-4.173434070241006238e-02 -7.983543320547495381e-02 4.335240344671716928e-01
-4.440625588924629330e-02 -1.169983278083545214e-01 5.120608866955010940e-01
-6.649801740793949423e-02 -1.108788999173858231e-01 4.700333584628579309e-01
-1.415679724458058716e-02 -1.236179222546981843e-01 5.146617713911817438e-01
-3.984027152348287859e-02 -1.043741343774837738e-01 4.589957190252796360e-01
-9.798637813132217433e-02 -8.898794015863815965e-02 4.621025346035546599e-01
-2.812175858881761289e-02 -1.156769320368629811e-01 4.869874823722466495e-01
-1.393909224256357181e-02 -1.118139890047437357e-01 4.722311825271027219e-01
-6.767065751255087191e-02 -1.071937624284892698e-01 4.523530143185601760e-01
-7.085337072578112502e-03 -1.232785080894377855e-01 4.990475994886991451e-01
-9.554248592852788990e-02 -8.895894582586724719e-02 4.585282105592198287e-01
-7.998348678253903998e-02 -1.097498614874784506e-01 4.657728242217011871e-01
-7.962772253470902506e-02 -1.045890713696722985e-01 4.465747842680187207e-01
-4.249599832229324775e-02 -4.214314536510473108e-02 4.347916814288600995e-01
-8.192986786106473684e-02 -1.011361269540495683e-01 4.403592785467832504e-01
-5.151639305960814541e-02 -1.016718316435805819e-01 4.438421343229318472e-01
-1.143342521471237688e-02 -8.627893589412068132e-02 4.466688426429158976e-01
-8.861480191796580752e-02 -9.708474027739154300e-02 4.449353809796385839e-01
-9.654600105761737550e-02 -1.094610462534108264e-01 4.912342772993144036e-01
-4.794836316027467626e-02 -5.047572657217335584e-02 4.340501087871418973e-01
-1.048612710959977434e-01 -1.066468264075836891e-01 4.819049872796704048e-01
-3.483615092336942581e-02 -1.186905448269630764e-01 5.101956133299646590e-01
-7.390667849677810819e-02 -1.077094626936252880e-01 5.274367261965411391e-01
-8.537041467076637857e-02 -1.099549727777098668e-01 4.685373140486913668e-01
-4.806950858787220962e-03 -1.248341359289632940e-01 5.314347957270604272e-01
-1.113783871225769440e-02 -7.453479637457829932e-02 4.422867311366965315e-01
-5.235279632273925204e-02 -1.139441094062360604e-01 5.275263028280502420e-01
-5.176493612514954795e-02 -5.149884142448116209e-02 4.343360355692405528e-01
-4.699986947099343143e-02 -9.371471705168162025e-02 4.317993612588438279e-01
-4.231615729247972107e-02 -1.086683400541956779e-01 4.658870497798404675e-01
-5.172246333522942385e-02 -1.156227560968780821e-01 4.992612407100756045e-01
-1.044744342166228634e-01 -1.006942819956742063e-01 4.646348363927237379e-01
-2.361872132827880916e-02 -1.146206508103792682e-01 4.825359431522406872e-01
-8.249852426076988154e-02 -9.583350191291363507e-02 4.367514711207326483e-01
-9.212582366801417774e-03 -7.157625606070731894e-02 4.415480386553655712e-01
-9.583493033579437714e-02 -9.644499213091650702e-02 4.541245585439005472e-01
7.897739769568425452e-03 -1.264647174422990072e-01 5.144889234097493880e-01
-4.058746385492559110e-03 -8.024528194255614588e-02 4.453909998496902167e-01
-9.042166483791849729e-02 -1.088808547019133183e-01 4.681253408803840443e-01
-4.532085934531546872e-02 -1.167358424102856035e-01 5.052859264390242577e-01
-1.043177496832058820e-01 -9.195903082188347510e-02 4.688871373033295931e-01
-6.669541386391975024e-02 -7.929533962972910854e-02 4.275280205861721194e-01
-7.994668519020418918e-02 -9.919314045166360838e-02 4.349133174840585370e-01
-3.274311074825999039e-04 -1.258689082959026651e-01 5.307077708308901576e-01
-8.060286323911615425e-02 -1.112974784142044121e-01 4.749701000730148226e-01
-4.195716114448067025e-02 -1.173404902281388190e-01 5.083178411483453285e-01
-4.412599682522262701e-02 -8.118460100404892299e-02 4.316102954803635039e-01
-6.964432162903433365e-02 -8.535128049046154797e-02 4.238606112697708150e-01
-5.342012794557397803e-02 -3.096447345361200837e-02 4.418257512044095336e-01
-8.414560975623708305e-02 -1.116453508747417278e-01 4.920995688139161994e-01
-2.292774299553653958e-02 -1.210293005182128817e-01 5.211614128454421513e-01
-3.967966079160011733e-02 -9.531563045122860844e-02 4.461843018277359962e-01
-4.952491823554418249e-02 -1.004787464202866049e-01 4.394259061621554330e-01
-5.080790239750697379e-02 -1.159705515204681875e-01 5.150005873538857637e-01
-9.765871542220587453e-02 -9.204819971151238789e-02 4.582272043459216793e-01
-9.196464940663323651e-02 -9.456089120560888517e-02 4.499298883182744069e-01
-9.320776173079800553e-02 -1.068582828094193776e-01 4.628277326859621676e-01
-7.468051669221567601e-02 -1.117809626382958860e-01 5.118943020734955107e-01
-9.821082208243174516e-02 -1.016429723237865790e-01 4.590116170671633689e-01
9.372873971128174719e-03 -1.267643916790667236e-01 5.273844865788984704e-01
-5.459286794186171687e-02 -7.665481087745083799e-02 4.256677552304081735e-01
3.828212249482347215e-04 -1.162137178504015350e-01 4.777668268622688452e-01
-5.304738883918072578e-02 -5.906075018933205911e-02 4.315052312037827575e-01
2.489357721275086734e-03 -1.251710621531780809e-01 5.042221578603242049e-01
-1.001281234442420905e-03 -9.450876368644134384e-02 4.531767906362770826e-01
-3.344460523958421583e-02 -1.122406321037231341e-01 4.779072610954859801e-01
-5.410441389505284832e-02 -1.154975424225592739e-01 5.064801309247223271e-01
-5.647486571164426344e-02 -1.139056997068783328e-01 4.873915772890884957e-01
-9.081538277068132436e-02 -1.061568852829335163e-01 4.589127072828455001e-01
-1.595539910539423359e-02 -1.230777955973095250e-01 5.180669296336154472e-01
-8.671413338498516754e-02 -1.083948759853645694e-01 4.635811440256595306e-01
-5.334669563557384135e-03 -1.199933084164452601e-01 4.873056722863030044e-01
-3.658651924413259399e-02 -1.180683030549226908e-01 5.035058347199683482e-01
-6.646308241648617166e-02 -7.986819917628398824e-02 4.269876081927703182e-01
-2.415562715815123759e-02 -1.182887180825318157e-01 5.404153221435282761e-01
-1.874145547169992973e-02 -1.074484303579233413e-01 4.663604989423956182e-01
-3.140810482685466032e-02 -1.187460706250360737e-01 5.017318575931241087e-01
-4.712103756893715190e-02 -1.043737681753907076e-01 4.535247153735718628e-01
-1.197906799410611636e-02 -1.240411540968456988e-01 5.191503677314988074e-01
-4.330198094960021477e-02 -1.119521546174081367e-01 4.780371368634166451e-01
-5.677477102030599465e-02 -1.149101054391193366e-01 5.165997505509678511e-01
-4.996233114598875452e-02 -1.141274491188419699e-01 5.293925213264468743e-01
-7.277938922794771615e-02 -1.113936594171267835e-01 4.744524790901020195e-01
-3.372388602096644539e-02 -1.177656899183021216e-01 4.976531620243068721e-01
-8.643307482762432881e-02 -8.521123505832771394e-02 4.478570226621806927e-01
-4.375866158909162695e-02 -8.755594603870656134e-02 4.340729545083789609e-01
-1.615763918777562806e-03 -1.237653813258556279e-01 4.993614548969907974e-01
-4.656745576960256983e-02 -8.607879524663379633e-02 4.297350611469059056e-01
-5.848188804395749313e-02 -1.050920748829568957e-01 4.362336191420031484e-01
-1.751721981668381486e-02 -1.139571058814291687e-01 4.787462933130517406e-01
-1.172118151210736758e-02 -8.664349843373748972e-02 4.467857341543143290e-01
-6.461297981447224059e-02 -9.283077579808589330e-02 4.205910089036363764e-01
-3.032362740714232563e-02 -7.242788553770457272e-02 4.374826020663236115e-01
-3.450601602571107956e-02 -1.086585928304677345e-01 4.697627226351914764e-01
-5.885635975535890435e-02 -1.132404575948939562e-01 5.248067921673211789e-01
-5.082880045804442221e-02 -1.159989724167782982e-01 5.090299483023368321e-01
-5.043134388996079603e-02 -9.961215926327970926e-02 4.330779086966466962e-01
-2.747792862231026104e-02 -1.081509633382981561e-01 4.698597665468371432e-01
2.584843576401585179e-03 -1.093228971231283153e-01 4.674756988338002461e-01
-7.222804600784299423e-02 -1.083188963561197427e-01 4.580563619655496077e-01
-4.265662516515243696e-02 -3.152841677731242631e-02 4.354621400812504484e-01
-5.643403219065253745e-02 -1.137015843055679126e-01 4.861839987219325754e-01
-8.748030190204120204e-03 -1.182279798081217193e-01 4.829433848987668143e-01
-7.728692645404021573e-03 -1.078405326805637332e-01 4.646867544565361219e-01
-3.635182769986544660e-02 -9.974885628353341582e-02 4.535569462532454410e-01
-9.456746814607371043e-02 -1.090568585288591019e-01 4.727849280475995841e-01
-1.105438294013831937e-02 -1.109187999468941310e-01 4.698998996121315219e-01
-8.437503634928854301e-02 -1.110258058855339292e-01 4.746061305353272974e-01
-1.282389187445935261e-02 -1.239747564701743632e-01 5.159454913084821071e-01
-1.086328894446569465e-01 -9.542584311330264135e-02 4.730608918335892921e-01
-4.068658648765893782e-02 -1.079797536752976211e-01 4.653075683052059208e-01
-5.312595960030793395e-03 -1.001262045357829422e-01 4.572150012868870239e-01
8.976700018231064879e-04 -9.279061067218587200e-02 4.522245703759723012e-01
-5.466902783354486012e-02 -1.139855379812317465e-01 5.250788185889594395e-01
-8.008648486582994885e-02 -1.120700434704375165e-01 4.832431707453386238e-01
-6.361466692578923721e-02 -1.038124690310693460e-01 4.232678343164661960e-01
-4.299701490476575544e-02 -4.001218617869670841e-02 4.350358934810282241e-01
-1.032673713922398900e-01 -1.064125400804510763e-01 4.754825645381799970e-01
-2.935879080911193983e-02 -1.197158557547845226e-01 5.103858303354283921e-01
-4.793002288301417835e-02 -5.106592994646090566e-02 4.340205592914308519e-01
-1.027131278833182948e-01 -9.403863110608824682e-02 4.641581190089547060e-01
-8.524757741800544075e-02 -1.079166588240177138e-01 4.605003724283696642e-01
-3.929501734919035871e-02 -4.886987784021670778e-02 4.349155270585841615e-01
-2.967245923563276849e-02 -5.768544386673957886e-02 4.365174940332380848e-01
-9.457351580681123970e-02 -1.088951151925444533e-01 5.024241487479248480e-01
-1.005095695447539711e-01 -1.081460205211916131e-01 4.794569042460001262e-01
-8.853240691013403163e-02 -1.099613834564537873e-01 5.026894406692991035e-01
-7.705734273340233975e-02 -1.008716669579940023e-01 4.330686781929987128e-01
-5.257023712532678250e-02 -9.242514494109835277e-02 4.250975527367262807e-01
-3.520186920103110517e-02 -8.593993475803718418e-02 4.410746787291793258e-01
2.822340933059445250e-03 -1.264189181319517463e-01 5.111069182609335737e-01
-6.592248478087092689e-03 -1.149928464203487516e-01 4.757360893928440082e-01
-6.526770293974396009e-02 -1.065926716604985169e-01 4.463716520789234310e-01
-9.226542918873147092e-02 -1.078429642106937258e-01 5.081964275754480287e-01
-1.691973336608831868e-02 -7.328877462534008624e-02 4.409598274339365798e-01
-4.513451300023484103e-02 -1.127949981218950293e-01 4.811455043221659622e-01
-5.141675737690510478e-02 -4.911562984730072356e-02 4.348470767796677738e-01
-1.415153151042601760e-03 -9.349971314227682739e-02 4.524100571970169349e-01
-1.977387538450884122e-02 -1.211218372727543569e-01 5.290560579629504101e-01
-7.167016925925533133e-02 -1.130204511968563030e-01 4.946369117426605566e-01
-5.491328013347677311e-02 -4.659923949390133713e-02 4.379937619896180911e-01
-1.042200268676081315e-01 -1.020755483282330817e-01 4.650839056560771012e-01
-9.870474085130738484e-02 -1.084501286291427724e-01 4.977890375909767573e-01
-1.078429975799690202e-02 -1.239898014488023253e-01 5.099596252377025518e-01
-4.564080051491430784e-02 -9.305901728006374385e-02 4.352436920687579036e-01
-7.414836399327767724e-02 -1.100362297300171710e-01 4.661499841514739617e-01
-5.234544374141567036e-02 -1.120225585780165178e-01 4.750294889209534244e-01
-6.704379055755241290e-02 -1.066495091997187172e-01 4.489140793893959258e-01
8.383790111431895301e-03 -1.267828407685627767e-01 5.241797359416225932e-01
-7.334394743930781890e-02 -9.746043139166553348e-02 4.244260397016895725e-01
3.355697583575529847e-03 -1.236776872441956443e-01 4.985953394827487561e-01
-1.180884460996254985e-02 -1.207048553668407798e-01 4.920366051907282823e-01
-1.650679424839683607e-02 -1.198250483953379603e-01 4.927332565653171903e-01
-1.009095584305668564e-01 -1.056393548636282986e-01 4.663240177809206966e-01
-5.393360290067551743e-02 -1.064355004363224250e-01 4.534031699648946034e-01
-5.846576146505765709e-02 -1.112678315347646330e-01 4.705790724885858256e-01
-8.494710492554762016e-02 -1.098634715604965700e-01 5.079454147062000269e-01
-2.625600308534938726e-02 -1.202784505941714016e-01 5.203712400380381409e-01
-5.409339487353509446e-02 -4.372371506991869911e-02 4.385021248637812619e-01
-1.257670786955860862e-02 -1.085165244603218532e-01 4.661370531055658573e-01
-9.369077581222126638e-02 -1.093410311061509127e-01 4.730449062883425593e-01
-3.421038979925807022e-02 -1.054009342569267177e-01 4.638522616827137623e-01
-8.463433731704429752e-02 -9.239702380497685774e-02 4.403135828288252118e-01
-6.376345577474783199e-02 -1.057683060983253959e-01 4.342891266711730869e-01
-3.523940722285584526e-02 -1.184603099974564089e-01 5.066488543294414004e-01
-2.425303035813090174e-02 -6.787176469909265986e-02 4.383144965457903552e-01
-2.086285506455203692e-02 -1.203688690651663062e-01 5.333053566319617689e-01
-4.093525630101792906e-02 -1.151780203772595906e-01 5.341777364435315034e-01
-1.213410343099597007e-02 -1.214388067028155799e-01 5.401899483209477992e-01
-4.769472776480753601e-02 -9.661917201121859866e-02 4.365038481475079224e-01
-7.751825740242389295e-02 -1.071812075046818941e-01 4.547894742802603973e-01
-1.051111936147957476e-02 -1.236007369122804483e-01 5.310250389430120066e-01
-5.966878771222779848e-02 -1.140326575202582765e-01 4.914343896516216170e-01
-5.365183420993919344e-02 -1.003405062673373566e-01 4.244547530384967793e-01
-4.600815324935333961e-02 -1.146349505188240664e-01 4.892841863542626291e-01
-6.223106960855288861e-02 -1.055780312097785584e-01 4.358542308356523343e-01
-4.599754765169566939e-02 -1.110110308545698282e-01 4.729687492961734963e-01
-5.775052029519494451e-02 -1.044602367009061644e-01 4.377404574582222652e-01
-8.131263605348171275e-02 -1.070667980238578648e-01 4.558829905594491416e-01
-4.474828167938246781e-03 -1.140918538505704960e-01 4.740269725488442942e-01
-2.133923917509564228e-02 -1.189133562332932298e-01 5.407099937223005526e-01
-2.459751661531277972e-02 -5.816712019805588690e-02 4.373867842217368795e-01
-3.525651538793280609e-02 -3.355179064112937676e-02 4.363449119744560734e-01
-3.260665557034267414e-02 -9.794733223621832074e-02 4.527417460538686322e-01
-8.678288948727111429e-02 -1.085777522701285858e-01 4.644500321319641190e-01
-3.553794509088126219e-02 -1.178857687282082733e-01 5.257691231705592383e-01
-8.665297604696324540e-02 -1.113077928348284035e-01 4.821690251215242085e-01
-7.066164447030702511e-02 -1.115937481862784991e-01 5.189931332919359708e-01
-1.943740093108246511e-02 -1.175739810982808081e-01 5.472597811615682595e-01
-7.295182327701001113e-02 -1.079596177157890469e-01 4.565191277034489903e-01
-7.107669104662693582e-02 -1.115891412763541646e-01 5.185965959644179835e-01
-4.323435466633793883e-02 -8.155532319066810532e-02 4.324208485878940911e-01
-7.412906494196033411e-03 -1.251987095114339976e-01 5.186460225591575934e-01
-6.638095173194974441e-02 -8.208712415954794173e-02 4.251999308616828399e-01
-9.016638379040514684e-02 -1.033511969408867914e-01 5.208912633650163437e-01
-4.226610150855181908e-02 -1.154618305963776709e-01 5.317980105199027197e-01
-2.975701727540936217e-02 -1.189163573922588230e-01 5.268057466637009467e-01
-7.112915937772470998e-02 -1.125877773501652024e-01 4.847932697596281093e-01
-3.565699250041131502e-02 -1.102622957845373897e-01 4.732114136692481821e-01
-8.996545156025038958e-02 -1.085931651469573683e-01 5.073592118132339568e-01
-1.768557897550780689e-02 -7.134240925570350944e-02 4.404663822883451152e-01
-8.501852266427378790e-02 -1.100636183766866977e-01 4.688084282240443934e-01
-8.569547044908047695e-02 -8.709069999895197034e-02 4.448140808094537824e-01
-3.816264972995913468e-02 -1.143669570176587269e-01 5.416237636605963912e-01
-6.530434199739992840e-02 -8.230751874337058349e-02 4.246231423040676689e-01
-3.737556230497769000e-02 -1.147879589778594556e-01 4.874498941405032149e-01
-1.019336660386041121e-01 -1.081324513355469696e-01 4.888925755527481209e-01
-6.622304193362001101e-02 -1.108276897614948464e-01 4.697457456799483677e-01
-7.298363021104337101e-02 -8.943063493137307085e-02 4.233286879219040899e-01
-5.534549974760926555e-02 -4.339871942260472432e-02 4.423710580639469425e-01
-6.748771903484421242e-02 -9.005072007654284227e-02 4.202187901933369663e-01
1.206192293789907187e-02 -1.256143969980646202e-01 5.376002278184399685e-01
-2.954458377193474455e-02 -1.160690970282991646e-01 5.433168352637908205e-01
-1.840382705700919358e-02 -1.090450819004097488e-01 4.691310845078502378e-01
-5.570561799205567266e-02 -4.781445755936742509e-02 4.393178035842474904e-01
-6.933751694874575044e-02 -1.090402024386061541e-01 4.610559521834671770e-01
-8.532820187346297491e-02 -1.115654128709041293e-01 4.841057030132746020e-01
-6.751826453886718149e-02 -1.103823371185688740e-01 4.675210292717972838e-01
-6.932862483113740558e-03 -1.115498880307267265e-01 4.699650143174980976e-01
-1.588111618094337207e-02 -1.218803491034088082e-01 5.325092926211352218e-01
-7.025726290778147587e-02 -1.071995482372648523e-01 4.524829134205120562e-01
-8.243192155657870501e-02 -1.019445972413129120e-01 4.421239919335736568e-01
-1.098809122511787834e-01 -1.025565001697889278e-01 4.857753718275975019e-01
-1.734768273136391009e-02 -1.066969045672456068e-01 4.649141047864984166e-01
-4.713409351392658375e-02 -1.159657434453890412e-01 4.967654026453773297e-01
8.870048882606975521e-03 -1.248855645906412348e-01 5.056794642158811692e-01
