-2.731176040401353186e-02 -6.433013979336732469e-02 4.374328918631509855e-01
-6.353655469465049888e-02 -1.063336840139478962e-01 4.513218281663696207e-01
-4.939652058125056783e-02 -3.627052890025683068e-02 4.370958720625763294e-01
-3.830048235707930043e-02 -6.256387835296205180e-02 4.343402842119357676e-01
-6.530910900352841775e-02 -1.068172392404082710e-01 4.546892856512146919e-01
-8.854792055034997611e-02 -1.104004843810089120e-01 4.842913091053203667e-01
-5.044748745209560320e-02 -9.966967871815243796e-02 4.431102160923239275e-01
7.675618076786053581e-04 -1.261921074475576277e-01 5.105214691256532156e-01
-6.584034237570628167e-02 -1.047941061702997168e-01 4.377598551942848970e-01
7.128489516895291332e-03 -1.248260603835806976e-01 5.049707382058322702e-01
-2.554998179676291545e-02 -1.181954972781123214e-01 5.387952591450299034e-01
-5.418448938908123486e-02 -1.135086979502252374e-01 4.868842244195227820e-01
-8.963581667138457998e-02 -1.087189599000278201e-01 4.696308003824916644e-01
-1.241887310606278397e-02 -5.777561507667273305e-02 4.386292703300012641e-01
-1.435942879617308453e-02 -1.174039125374124887e-01 4.845770364174231681e-01
-3.370391527560611528e-02 -5.193064843932228974e-02 4.359360069318720665e-01
-5.759777516982702433e-02 -1.081300720012382394e-01 4.609557223235327128e-01
-5.392445020704381836e-02 -1.139165176805120999e-01 5.248500523097314741e-01
2.346634822609268683e-03 -1.219677285433040242e-01 4.934927560661020451e-01
-5.526777799519398682e-02 -1.031460133080750463e-01 4.444812694071645920e-01
-1.018914975874666336e-03 -1.238163153705583303e-01 4.996188914681992110e-01
-4.515728310082012253e-02 -8.394248674891638395e-02 4.312408183948059914e-01
-5.905613149119023908e-02 -6.705661717249630782e-02 4.295729891980291093e-01
-3.548206989438233705e-02 -7.205581913240259595e-02 4.354576990816303450e-01
-7.112350053363189484e-02 -8.640349135014030457e-02 4.230886643484179088e-01
-6.191421773919278393e-02 -1.126174933369457898e-01 4.849889311113760315e-01
-5.634752559046850295e-02 -1.043027760422534783e-01 4.317561762326690422e-01
-2.586947249888806727e-02 -1.172315583868398653e-01 4.925880669151673219e-01
-3.157000783420790824e-02 -1.166712384688374932e-01 4.929269175943080117e-01
-2.268937912236394100e-02 -5.518105495005620753e-02 4.379110558522665841e-01
-7.311413896576350602e-03 -1.032726256955832367e-01 4.599790874496478277e-01
-7.871454473635929039e-02 -1.117054755121595633e-01 4.944080398533047815e-01
-8.987498802005193521e-02 -1.025238038680330172e-01 5.221299757173470946e-01
-2.814188742912084040e-02 -8.344741986677618739e-02 4.426965274596371125e-01
-3.992979592130121297e-02 -1.175414622273652648e-01 5.131236194097592573e-01
-9.582914927458795196e-02 -9.255975232181848367e-02 4.544763209781993996e-01
-5.209717639799048804e-03 -1.213014382128319996e-01 4.918427031865783561e-01
-4.782501320873877582e-02 -1.035201085027007001e-01 4.529223815592043345e-01
-3.586118032676303274e-02 -1.152915748731583312e-01 5.405855749174911518e-01
-9.387079498877488881e-02 -1.092949723612312019e-01 4.789121802063129318e-01
-8.698860560178442447e-02 -1.107297902576504928e-01 4.905223240301612164e-01
-2.661292774584252466e-02 -1.068876668276098341e-01 4.680552333977970325e-01
3.019519493557119676e-03 -1.218923792536407424e-01 4.932379852787717178e-01
2.561785130554248419e-03 -1.165346457481681169e-01 4.789362995529451994e-01
-9.758307250704705005e-02 -1.019115038980690502e-01 4.583077084636862364e-01
-3.562478713439637401e-02 -1.010893346190563369e-01 4.574835820870685743e-01
-8.155234590975443676e-02 -1.094844820751493530e-01 4.681245244225752389e-01
-6.212866556868894274e-02 -7.244425754399438921e-02 4.272206544393501448e-01
-2.699295664775018186e-02 -9.109483859986060306e-02 4.480532558537899113e-01
-5.898407296961999391e-02 -8.008165855247424691e-02 4.244876530342867049e-01
-3.373659956722367681e-02 -1.142835806230118184e-01 4.851358491409976104e-01
-9.121365451466788288e-02 -8.887498937365030660e-02 4.509759697129540612e-01
-7.381118204602551969e-02 -9.861802855288220870e-02 4.265161168904788580e-01
-7.088100402103983400e-02 -1.117258090362225481e-01 4.812709834973090683e-01
-1.544437909158097658e-02 -1.198936498310166077e-01 5.432277411857860949e-01
-8.032872758746997799e-02 -1.109761658932238437e-01 4.781675911828920378e-01
-5.863241185279186030e-02 -9.104919759652294053e-02 4.220087156362633540e-01
-4.246394270444526359e-02 -1.001553575015692588e-01 4.510216292702776131e-01
-9.097459347738476310e-02 -9.248857549183493731e-02 4.483730994495834787e-01
-1.175067906828399997e-02 -1.130901468291298922e-01 4.736893149885626486e-01
-3.710885179557747021e-02 -1.169500119454059822e-01 5.293302013627789737e-01
-8.305784776377936329e-02 -9.025030330059191641e-02 4.377607260688266000e-01
-3.383767270458995502e-02 -1.181470980503092766e-01 5.248544453284388345e-01
-2.020299658939139417e-02 -1.184237139844270953e-01 5.438426194617728138e-01
-3.708385864903789714e-02 -1.169793942049859869e-01 5.291511459869547851e-01
-7.886532431944631716e-02 -9.172221767973104400e-02 4.300954429296226511e-01
5.731556971866548673e-04 -1.265748283566446586e-01 5.252773420752157030e-01
-4.286206783199263126e-02 -6.514825155255178635e-02 4.320435735412375688e-01
-9.403603589916990912e-02 -1.058224335500213414e-01 5.112261377652956851e-01
-4.444274750413150510e-02 -7.124037130841641419e-02 4.312744133068154295e-01
-7.825337980373942015e-02 -8.834971603702349019e-02 4.304650270016019409e-01
-1.772549603383491088e-02 -1.221359776976175815e-01 5.240444047822546692e-01
-5.165191818255720352e-02 -1.114845350711753391e-01 4.754374374527856606e-01
-1.062817142592184169e-02 -9.685464828676443316e-02 4.538609964278431108e-01
-3.984888215470247519e-02 -7.959231237948777293e-02 4.352026260245968059e-01
-5.606820121612271501e-02 -9.585444217192326533e-02 4.225064377189123865e-01
-6.584148731618970352e-02 -8.828627864329019470e-02 4.209751575178826699e-01
-9.793299406730750223e-02 -1.076558626170690397e-01 4.741890579783044624e-01
-5.986053964058209165e-02 -1.143871394599327573e-01 5.088714324228745811e-01
-3.715170899725684511e-02 -3.621254902043959112e-02 4.355963378671801056e-01
-8.677516308903426845e-02 -1.010277598988578440e-01 4.463022826727853221e-01
-9.451758322248350608e-02 -9.682678317724448258e-02 4.523345182426510847e-01
-3.037717866041206999e-02 -4.430365838879509605e-02 4.374356824707132385e-01
-7.585418767515003657e-02 -1.117748794598733136e-01 4.867025014731036769e-01
-2.834721919379516730e-02 -1.064207856123064455e-01 4.675747685192900849e-01
-3.282974746895930135e-02 -7.820437251061693185e-02 4.388355145559182380e-01
-1.590288067142192445e-03 -1.240851891458887996e-01 5.364262176325508280e-01
-9.191082215953326473e-02 -9.373881445650378286e-02 4.495712454970764993e-01
-1.182899337274195394e-03 -1.211078135771100212e-01 4.906143856523024205e-01
-5.444720636186151791e-02 -1.025358957226650686e-01 4.264444499427638147e-01
6.606584823049784991e-03 -1.268213060688202221e-01 5.177461276616083241e-01
-6.371233990542615744e-02 -8.500894202070201355e-02 4.225161579433365788e-01
-4.990966888167824161e-02 -8.362514428256340171e-02 4.274989348351238561e-01
-8.142175264605440443e-02 -1.113011352086753503e-01 4.826961474531572538e-01
-1.147998276390140016e-02 -1.241602904401515189e-01 5.141713361213772204e-01
-2.944149634750042877e-02 -1.169932667573939100e-01 5.399891946321612179e-01
-3.242778558259850480e-02 -1.177641615307078726e-01 5.311723681128130981e-01
-4.905462728822758411e-02 -9.449148904258757031e-02 4.294769132462468164e-01
-5.420105587074855458e-03 -1.169276498421219640e-01 4.794283064631971736e-01
-3.090424832159395681e-03 -1.256894404430895229e-01 5.117435010566493414e-01
-3.938418294401183767e-02 -8.393055109746982989e-02 4.375060638105436883e-01
-3.739657408314166209e-02 -9.731986322334273964e-02 4.503951549157116374e-01
-4.401748614992856412e-02 -9.172481967932001601e-02 4.396946742803264918e-01
-1.194660119173140966e-02 -9.205187561033542631e-02 4.497113765092167204e-01
-8.895595576837781598e-03 -9.327925458085289945e-02 4.509999210403642378e-01
-6.986171024613842435e-03 -1.253677343921414389e-01 5.164874889501113175e-01
-4.422358181433360541e-02 -7.093722272530791906e-02 4.314046166836132956e-01
-8.840498200489990688e-02 -1.103304977382892904e-01 4.957640380782772360e-01
-8.079066659248181070e-02 -1.115463088632104444e-01 4.888069206511729825e-01
-8.502957078941254798e-02 -1.110257982151282297e-01 4.876513722098981818e-01
-2.479536984293816831e-02 -1.199079459232236661e-01 5.028572677465916740e-01
-9.744873713281049926e-05 -1.265951610241510539e-01 5.189709171361102102e-01
-3.142676854380765245e-02 -1.190556341741788454e-01 5.196443134554979970e-01
-3.667603069937373089e-02 -4.563403092069838463e-02 4.352679548926082220e-01
-8.081834715019227400e-03 -9.812435222821783154e-02 4.551218757311844554e-01
-9.228625729799656841e-02 -1.090055960179097533e-01 4.733820907749956008e-01
-1.960343957797898093e-02 -1.196542684814337759e-01 5.392174744802505915e-01
-8.568506287542874966e-02 -9.951517393820920321e-02 4.438159147127442306e-01
1.288074463131801475e-02 -1.263346927393254326e-01 5.224632623023641731e-01
-1.876213374164661593e-02 -1.218770423407188469e-01 5.072399251056857183e-01
-2.820419211379239857e-02 -7.891171560503588978e-02 4.404214877280807072e-01
-4.323025589791505696e-02 -6.406336559335372438e-02 4.319739007544519671e-01
3.902974997050855099e-03 -1.269337545596399275e-01 5.185400360621275073e-01
-1.089892026795056812e-01 -1.035303654320343658e-01 4.853798574905541785e-01
3.407784253552682829e-04 -1.225581261907007224e-01 4.953873241985043419e-01
-8.726649279582733565e-02 -9.296236299121328484e-02 4.432116951323525900e-01
-7.066778246711388767e-02 -9.098177790073003202e-02 4.201474236693894526e-01
-9.201731049031217080e-02 -1.083203840555697350e-01 4.700592123937474276e-01
-6.156343702637377679e-02 -1.123402951743013162e-01 5.244380566241700903e-01
-5.215519929892580703e-02 -1.129418090855586754e-01 5.308838152324049098e-01
-8.241983061422530898e-02 -9.805745981223321084e-02 4.389801322156476893e-01
-3.030251747128462347e-02 -1.000134319395506594e-01 4.573925739245611188e-01
-7.602245849129907196e-02 -1.120211498467956202e-01 5.025304588777752546e-01
-3.968809035781951933e-02 -7.426943142121614216e-02 4.339158653645239228e-01
-9.637354534025692476e-02 -1.072222665441292383e-01 5.051185689085976316e-01
-5.947918637761840516e-02 -1.118841534290607315e-01 4.777196535638306152e-01
-7.072582608235726542e-02 -1.128355295407878073e-01 5.030589812951880013e-01
-1.059592447317583702e-01 -1.060675456273679623e-01 4.861864188633842065e-01
-5.006125018744075200e-02 -9.538402875100009115e-02 4.280648531222902009e-01
-6.313863578992778836e-02 -1.044924418849382114e-01 4.374325816383726195e-01
-6.172903591254883665e-02 -1.101902523208500712e-01 4.691208511240894108e-01
-4.483619416679829328e-02 -3.750013722325558352e-02 4.352376412891361679e-01
-8.586057494558520242e-02 -1.103482456220249430e-01 4.766894799027034946e-01
-3.667665126876804016e-02 -6.883616368289968701e-02 4.347155426325575167e-01
-3.632495167284981868e-02 -1.135635538650077853e-01 4.838896525660654202e-01
1.197676495880737463e-03 -1.268091405494854162e-01 5.208864378867824607e-01
-2.311800724899516074e-02 -1.104697635143584017e-01 4.738568380221132026e-01
-2.552828481680141648e-02 -8.777800737434929279e-02 4.454659459404559652e-01
-6.948108181241451076e-02 -8.386841614790264965e-02 4.242497184060902149e-01
-1.494099406081168466e-02 -1.223218302853444767e-01 5.043710370474279170e-01
-7.726216900602804472e-02 -9.950677124506508708e-02 4.322794953869018575e-01
-2.500792768450774833e-02 -3.844211754089723460e-02 4.387642924980582060e-01
-1.810217238921428204e-02 -1.199461723273604619e-01 4.955141171834905878e-01
-4.093925660124760058e-02 -1.143070655151304238e-01 4.878665504440819478e-01
-6.516840233752417555e-02 -1.114189987001401455e-01 5.240397854204812411e-01
-6.420739583144002838e-02 -8.127457325484417627e-02 4.242746543529039571e-01
-1.305303592106374019e-02 -1.184556887538295716e-01 4.860207721834412520e-01
-9.258258011705505774e-02 -1.089361149708903964e-01 5.013105099002008735e-01
-5.213121124357811970e-02 -1.146684259238163334e-01 5.233286156806951084e-01
-2.350749855147595685e-02 -1.047322561771525384e-01 4.644955825167518260e-01
-5.657998210763888133e-05 -8.821087783857012310e-02 4.495607962548249792e-01
-3.825568843633873201e-02 -1.042997925408515464e-01 4.610255815224104659e-01
-7.260628320777295919e-02 -1.124912726615385633e-01 4.974263033102277465e-01
-9.963868232512043677e-02 -1.041923235424291605e-01 4.635436365289364868e-01
-9.861354516340306575e-02 -9.851537829808360014e-02 4.580894203440924461e-01
-9.135653619068562215e-02 -1.002237026699937944e-01 4.521025834803322208e-01
-8.911320634262644494e-03 -1.227926636649338266e-01 4.987336422535596503e-01
-9.461563152419306955e-02 -1.089886825022442912e-01 4.766624531827203248e-01
-2.526778589204232983e-02 -1.182586970642033192e-01 5.388700584621948231e-01
-5.203323936890192486e-02 -1.098182096022996268e-01 4.676228976881516841e-01
-8.538023269873529220e-02 -1.075760235486550309e-01 4.622851809311289695e-01
-6.523763415436453772e-02 -1.060151523500036941e-01 4.498927704377618242e-01
-4.100287231446364533e-02 -1.089250627770136509e-01 4.689991773933873676e-01
-7.186635413152296648e-02 -1.005695554635172989e-01 4.269378815842649888e-01
-7.233858172152965449e-02 -1.016169231139954221e-01 4.292372588269269262e-01
-4.715342009724304145e-02 -8.150057159620825720e-02 4.294737028579330151e-01
-6.805770512273784378e-02 -1.117591093798218777e-01 5.199761697290168350e-01
-2.875277971552185619e-02 -1.099621213098210953e-01 4.736875117930757773e-01
-1.566543449653273745e-02 -5.632079438642226266e-02 4.384864552889857214e-01
-1.739897716065036404e-02 -4.489740954136485496e-02 4.386564800729609304e-01
-4.741780742411656757e-02 -1.109106026328366690e-01 4.741590943940278136e-01
-2.992825111413885408e-02 -1.186234344315251349e-01 5.283451995589163452e-01
-7.642853020566016398e-02 -8.626719929055216840e-02 4.298428190185340503e-01
-9.886628246165278522e-02 -8.894092990406295141e-02 4.622182479289821400e-01
-3.742771468697846798e-02 -1.170448965719302348e-01 4.984211286066168034e-01
-1.623855648596321186e-02 -1.221285512492555764e-01 5.053133403996286077e-01
-7.397246156812767315e-02 -1.065412731504457727e-01 4.542461225889420917e-01
-3.988286721418463077e-02 -1.008114599128211164e-01 4.539304297071833916e-01
-6.687130327594643930e-02 -1.097497639674903380e-01 4.678310821434932820e-01
-4.442137497415982184e-02 -7.856592902894501962e-02 4.315456133709795195e-01
-9.931107093434253172e-05 -1.233417184814962902e-01 4.978136640506068411e-01
-6.756991147060439906e-02 -9.876877787110960316e-02 4.217769398811972992e-01
-8.029431821671494107e-02 -1.109290536865629312e-01 5.046867996112568422e-01
-7.297723656898694178e-02 -9.090048598558780890e-02 4.219867249157666089e-01
-4.017125688608093326e-02 -1.099936561639006938e-01 4.729245974877772096e-01
-3.476922209907826883e-02 -5.425972622897067693e-02 4.355737982397769326e-01
-7.242502189674610014e-02 -1.072744551481827902e-01 4.570444782162473851e-01
-5.668471920719448179e-03 -7.236794324417016033e-02 4.422825895919211270e-01
-3.970696023073487513e-02 -9.174317746908214333e-02 4.437837443070131727e-01
-6.243521230149235574e-02 -1.058449661108435413e-01 4.464628363807969236e-01
-7.549062647425745787e-02 -1.104896578679019775e-01 5.166117870866562267e-01
-2.451053159279439203e-02 -1.042343231363563050e-01 4.639924021723584868e-01
-6.568213218276575116e-02 -1.132539495648851174e-01 5.136542254998300860e-01
-1.461819448658868356e-02 -6.651847506921064468e-02 4.399358579556232329e-01
-8.150366816012181992e-02 -1.110064824001573969e-01 4.793053736124310849e-01
-4.745561890365183194e-02 -1.160447663237622190e-01 5.033123489318620525e-01
-7.108309663891008989e-02 -9.632544825949194978e-02 4.226094611779550592e-01
-1.990609531159325679e-02 -7.737535595215311313e-02 4.416049579541771464e-01
-5.648082159210705833e-02 -8.285949135530423781e-02 4.240051386632371910e-01
-1.048668639056446195e-01 -9.049679091354870253e-02 4.702529225405409075e-01
-6.340532971582653332e-02 -1.046063794906006428e-01 4.327557137463250991e-01
-2.263181643686685424e-02 -1.053854564876240268e-01 4.651951469016637475e-01
-9.472479968483642210e-02 -1.072574808798690132e-01 4.684562059649156618e-01
3.622452054918435214e-03 -1.268995372861255466e-01 5.245455219840048366e-01
-9.631044147763935526e-02 -1.087942788826762458e-01 4.798817914692835029e-01
-1.084940435143513515e-01 -1.032428574796827453e-01 5.011188549061843522e-01
-5.196940690064832946e-02 -1.143215395634226972e-01 5.251689864976544220e-01
-6.006202053064442145e-03 -1.136121738289386784e-01 4.734965528363536125e-01
-3.878390594672701669e-02 -1.177303169932367999e-01 5.163311850674324743e-01
-8.040245081994815135e-03 -1.249685877110994492e-01 5.210945019745073514e-01
-5.728839162726206968e-02 -5.832267997988768021e-02 4.328017918266556241e-01
-6.669866375205599218e-02 -1.059117205878143259e-01 4.497577250021022599e-01
-8.820385585134721262e-02 -1.103586290032159967e-01 4.956714478838138982e-01
-8.575022598366044413e-02 -8.813867721660070820e-02 4.431164492718445702e-01
-4.347373013408846465e-02 -6.287191422983172406e-02 4.319851818617597705e-01
-2.106754442169201172e-02 -1.171739156941111332e-01 5.471203153892346682e-01
-2.862808209921025113e-03 -8.484691795972283679e-02 4.476079705857687330e-01
-8.192597198561803185e-02 -9.012381773821802333e-02 4.357513810393189857e-01
-1.363693407540441348e-02 -1.064814931997680458e-01 4.637271049057009042e-01
-1.721936000147018114e-02 -1.179462504371274756e-01 4.883158963958252885e-01
-8.270648662480746538e-02 -1.112277461665061445e-01 4.943205740000478632e-01
-4.021777411057583795e-02 -1.114015768900731979e-01 4.780205064574672980e-01
-7.522770452179991518e-02 -1.042823549970166019e-01 4.431343202903751943e-01
-3.091412078698633700e-02 -1.109979916804961081e-01 4.758078287493529568e-01
-5.359847283334338158e-02 -1.115038333974726625e-01 4.749712318018421975e-01
5.466176075687691031e-03 -1.261122939000295928e-01 5.111541386880325000e-01
-2.429136872144973050e-02 -4.998312445817229555e-02 4.383232353791016722e-01
-1.071351681767941655e-01 -9.946591395209818109e-02 4.694055048174226030e-01
-5.034778099246085825e-02 -1.154502604320832709e-01 5.190606442489651418e-01
-2.858634718177476344e-03 -1.089173944589767601e-01 4.665767122573800663e-01
-2.908203054588966857e-02 -7.641276302772202766e-02 4.392436833478695069e-01
-3.676124412019599746e-02 -6.887706050702928351e-02 4.346796941011742410e-01
-4.046398084727265837e-02 -1.091834182604644737e-01 4.700174173415508916e-01
-3.156706707142246937e-02 -8.992164423547227559e-02 4.455992418595929871e-01
-8.731748912874867652e-02 -1.037187892907838194e-01 4.520109251799377947e-01
-8.722955566888629386e-02 -1.106928958340447633e-01 4.913268995520092552e-01
-7.156251532657735559e-02 -1.019969101796879413e-01 4.297455977282421680e-01
-1.224600717493520494e-02 -1.240794044956093356e-01 5.161401922952831844e-01
-5.341694107287505572e-02 -3.006342728392311092e-02 4.417768565916481149e-01
-4.492504604427078468e-02 -1.014483737802873153e-01 4.513062928812086594e-01
-5.812756992531173394e-02 -8.496287184511255863e-02 4.235421841310531010e-01
-6.786950622590513793e-02 -1.131923984575320258e-01 5.081901942837071529e-01
-9.542279450858279222e-02 -1.089804001143158813e-01 4.795563414567747818e-01
-2.507733151141917916e-02 -1.176977478932563770e-01 5.418881672730072596e-01
-1.210734033962213366e-02 -1.227664674489954144e-01 5.024813268791530341e-01
-6.199339119785443608e-02 -1.049939929015105966e-01 4.423037133664240450e-01
-3.788626376376547089e-02 -1.156458725427862988e-01 5.365950946094311114e-01
-4.005079365016143284e-02 -7.769249654884642642e-02 4.341823489536169034e-01
-2.981318573597636912e-02 -1.173803266761245107e-01 5.376005867833112406e-01
-1.023494012187796814e-01 -1.066430421722224658e-01 4.990407895047156983e-01
-1.768532123323382499e-02 -9.317489761235366041e-02 4.502302076661441332e-01
-7.594080557784235047e-03 -1.080126749234734534e-01 4.650839763604320831e-01
-2.858985603041454618e-02 -9.364464936459614142e-02 4.502106748721180218e-01
-6.416056397314601201e-02 -1.071085294287211775e-01 4.557432420133113449e-01
-4.390408570045704895e-02 -6.887683233170348307e-02 4.314156192296162984e-01
-7.116625690309229257e-02 -1.127923727584446423e-01 5.021140089533511208e-01
8.206497296693458093e-03 -1.267755862393929733e-01 5.219900125921899114e-01
-5.788362578163784578e-02 -1.108212776704290969e-01 4.709693598796635405e-01
-8.233556056059843087e-02 -1.036493406840551246e-01 4.484317651184576148e-01
-3.325962567176479062e-02 -1.187780163125083249e-01 5.093119968140666920e-01
-7.852357077536958885e-02 -1.094540350628576547e-01 5.166795715398053712e-01
-2.782672499958027332e-02 -8.796468170748783511e-02 4.452144399064241753e-01
-4.274784608857151030e-02 -8.760222828843279574e-02 4.367950826793263741e-01
8.690689604245443317e-03 -1.267431654782009420e-01 5.198182927661169073e-01
-4.625319492138860872e-02 -8.582811783361594948e-02 4.303899306342428566e-01
-2.178258362657256586e-02 -1.000156570038269327e-01 4.583289990494646693e-01
-9.872517834062002895e-02 -8.966951602808161115e-02 4.611001724969541193e-01
-1.778733493045752539e-02 -1.214720533868785673e-01 5.034486089871925696e-01
-5.298644593895949356e-02 -1.112951049994855973e-01 4.739657966588999849e-01
-4.490489806510393478e-03 -1.257845096351851988e-01 5.161066918359121791e-01
-1.371340520032739672e-02 -9.657578622290008408e-02 4.536669542288431223e-01
-7.010846835404206667e-02 -1.129354169937107910e-01 5.028636642074080232e-01
-3.522156204577008703e-02 -3.156856588505299599e-02 4.365817046134172763e-01
2.516229229886407254e-03 -1.211118864904596609e-01 4.908047014937071961e-01
-8.153287970006731222e-02 -1.072397049945504610e-01 5.199734319438712449e-01
-3.696085714970653163e-02 -1.160886812571909621e-01 4.931162675425465602e-01
-4.111302832918541789e-02 -3.848206115292678031e-02 4.349374156553845738e-01
-7.245910366165057848e-03 -1.249870291388945065e-01 5.122848067658664073e-01
-7.817543819007366501e-02 -1.117386437662835907e-01 5.009203670077443382e-01
-9.144090256194171984e-02 -1.072537537918765715e-01 5.091130025884172960e-01
-8.285186403853732340e-02 -9.369462772767631065e-02 4.363305696457689953e-01
-4.089003176148858776e-02 -1.173571146318058700e-01 5.095608104647815217e-01
-2.360309204961934249e-02 -4.525482357221442820e-02 4.387831522888093749e-01
1.895120728059147396e-03 -1.204975606172132979e-01 4.888737023706540286e-01
-3.741319227436155914e-02 -6.675160883422480429e-02 4.344860260287046749e-01
-4.569405225943039967e-02 -1.147031536670558571e-01 5.306209167214835931e-01
-5.887875210440117468e-02 -1.041886826092343205e-01 4.351534922243142645e-01
-3.552894234519759966e-03 -1.056042635209382269e-01 4.629539639855999589e-01
-4.109165557613167485e-02 -1.164844930052095495e-01 4.980417149645889330e-01
-6.129954870290123259e-02 -1.116514732190769243e-01 4.758443792866144384e-01
-6.372285940272967575e-02 -1.038240399634012129e-01 4.279616190980428114e-01
-5.750452412208823146e-03 -1.218547791536837011e-01 4.938017636568035051e-01
-1.028123229878871725e-01 -1.069337585517669970e-01 4.818339113552283504e-01
1.254533415407155586e-02 -1.265822736212853517e-01 5.310969958150143500e-01
-5.263642186313050031e-02 -6.596220523551321602e-02 4.285700056372557798e-01
-5.373366239811290523e-02 -1.145446232174172907e-01 4.946748176879585124e-01
-1.872660324682336522e-02 -1.089851906429564615e-01 4.694118926547563575e-01
-9.728095862253517689e-03 -1.036162433204392275e-01 4.600851566138919324e-01
-8.739085243379722534e-02 -1.026947402330255776e-01 4.495856404616090929e-01
-2.273896589005581365e-02 -1.181366998506450522e-01 4.939895551065433543e-01
-8.773670926147013327e-02 -1.103218354453383704e-01 4.791928205898643989e-01
-3.594965490913580586e-02 -6.459090251051709253e-02 4.350146285967032567e-01
3.499206646672782528e-03 -1.259882282416404653e-01 5.095156780116014694e-01
-1.044296767145788118e-01 -9.952290115175203844e-02 4.637023047614473592e-01
-2.634378330872828161e-02 -4.841969750545693785e-02 4.381761483386240053e-01
-8.733953539801535271e-02 -1.040315431364850635e-01 4.530438204021426940e-01
-7.524775287953072711e-02 -1.069809495892875550e-01 4.565593151069628486e-01
-5.270123881071015447e-03 -9.653036002625184353e-02 4.542067230078866702e-01
-1.717362979121193206e-02 -4.576253425572922306e-02 4.386372048239419175e-01
-8.152127966379282831e-02 -1.066913381273212058e-01 4.573398746513258617e-01
-8.936394231000704957e-02 -8.652562383838660609e-02 4.495551072136061976e-01
-6.059422957353561429e-02 -1.113800182458601351e-01 4.740755533778437947e-01
-2.977936197359542722e-02 -1.065844869152358237e-01 4.677358169425849255e-01
-2.099871841142295775e-02 -1.203095759703789042e-01 5.333182419434362442e-01
-3.944735338708398042e-02 -1.093305722532421087e-01 4.708363568045551006e-01
-1.095156254962641740e-01 -1.023452255977685688e-01 4.832317961527176631e-01
-2.550849427978019168e-02 -1.066222048629367064e-01 4.673587840801761151e-01
-4.027404199992878908e-02 -1.050812355684061228e-01 4.614511427137464317e-01
-1.285879563538127462e-02 -1.168399744222757830e-01 4.822329912687895459e-01
-5.084973838630520854e-02 -8.310970955158654416e-02 4.267464475748497521e-01
-6.090702419841963200e-02 -7.704956590436590202e-02 4.252637972610856520e-01
-4.339770373454086838e-02 -1.089703734204452851e-01 4.682074063071157144e-01
-8.690883644495171756e-02 -1.105705352267280644e-01 4.810216687462257057e-01
-9.852048573492820649e-02 -1.024227364898679937e-01 4.599722427615449694e-01
-4.539610019845010530e-02 -1.142045214228095545e-01 4.886868207500009720e-01
-4.295932505529474754e-02 -9.180999262738441524e-02 4.415286855247436693e-01
-3.160708196795608549e-02 -1.191458777126140900e-01 5.107630371855316209e-01
-3.073381880208298639e-02 -1.173742490431350510e-01 5.364908608165001036e-01
-7.519748907619672185e-02 -8.955930083735785807e-02 4.253356820671477245e-01
-7.789650645678745933e-02 -9.969704170038762303e-02 4.338830278559943077e-01
-2.872544746658994147e-02 -7.347125526128985007e-02 4.383266862977803768e-01
-4.128429000656352876e-02 -4.590891782121679643e-02 4.346471843578486038e-01
-7.721247542868597824e-02 -9.597049256052787858e-02 4.268586218611232774e-01
-4.982758054891314736e-02 -5.205141296037156529e-02 4.337940543462132093e-01
-5.916960214607683288e-02 -1.062369840599637349e-01 4.519310094008986978e-01
1.763911568031517607e-04 -1.175685436549147173e-01 4.809482977133943682e-01
-1.095749300993872632e-01 -9.613944452689102138e-02 4.751366063146394980e-01
-2.961739482532305817e-02 -1.129268391994547177e-01 4.801470219690175401e-01
-2.332117619594403866e-03 -1.130561466834222317e-01 4.723614298626609975e-01
-1.094483114426175741e-01 -9.487305937848089510e-02 4.748118677141170973e-01
-5.233498161873179066e-02 -7.803275306988763371e-02 4.263078353789391262e-01
-4.492459216916921266e-02 -1.060650489097506727e-01 4.607522878745121675e-01
-7.201890091866637589e-02 -1.093451279330307779e-01 4.660780922918734137e-01
-5.317614531342926276e-03 -1.159578398532171567e-01 4.775587385255096184e-01
-2.247861158295890588e-02 -7.614332203529271259e-02 4.406671853702133768e-01
-1.433435872923931494e-02 -1.022595117828249550e-01 4.590079815476432734e-01
-3.797794950679259096e-02 -1.119803526145239370e-01 4.794792789224551766e-01
-6.060326730515361998e-02 -1.041496488310841712e-01 4.369948061781198101e-01
-6.978082045346949147e-02 -1.100152241785532087e-01 5.244598190079488020e-01
-6.957308599805613059e-02 -1.084756516797730497e-01 4.618944403916794283e-01
-5.233584805752906910e-02 -2.434631772641330030e-02 4.400843817474024977e-01
-4.418943162009288106e-02 -1.047100269541448581e-01 4.580298571072977110e-01
-6.898084192637772560e-02 -9.914402365420681151e-02 4.230911185772102678e-01
-1.012259111963025038e-01 -9.613570046616368159e-02 4.598006287143807658e-01
-1.073156625959437588e-01 -1.046715550121504884e-01 4.830483848136090108e-01
-1.910196747488450766e-02 -6.597392110889953309e-02 4.392547280170877588e-01
-7.693079710929776049e-02 -9.773267712507600902e-02 4.285767341687758414e-01
-5.516331120294035856e-02 -4.177853964823971533e-02 4.423994203896663424e-01
-8.144229367343580259e-03 -1.240960704117357039e-01 5.312371799542531248e-01
-9.892006544620961239e-02 -9.968210333626643938e-02 4.591509057175012787e-01
-7.998397338674707868e-02 -1.097690414044963370e-01 4.690688333061883153e-01
-3.576371130771485718e-02 -1.183499008447284756e-01 5.127848474736724782e-01
-9.654181470179852564e-02 -1.066242988018348131e-01 4.677857556134343842e-01
-7.334637351093185875e-02 -9.199321807258828421e-02 4.231306671935526897e-01
-3.708432760092220115e-02 -5.135604221674519576e-02 4.351576097190784642e-01
-4.203756544560707104e-02 -1.161292064011343189e-01 4.956586304415359634e-01
-4.313193620863402938e-02 -1.090803813055262611e-01 4.687853196203011219e-01
-2.040784185502141426e-02 -6.337803147493079048e-02 4.386556480995471574e-01
-8.443095938984555848e-02 -1.104985164687565941e-01 5.007018238465018589e-01
-8.968341450899758316e-02 -1.036843299033308047e-01 4.541455389526088404e-01
-4.907123439031910866e-02 -9.369962297383488403e-02 4.290992804567217989e-01
-8.816887393713544741e-02 -1.076898751658158376e-01 4.648199110449533489e-01
-6.233107277881816399e-02 -1.067398003553807900e-01 4.544301778771597244e-01
-1.344400191613493237e-02 -8.116113346656064764e-02 4.441429907679701472e-01
-8.232918368424728753e-03 -1.250460642847463777e-01 5.158432332759913530e-01
-9.952986170893642071e-02 -8.949713722279717398e-02 4.625173522422458272e-01
-9.678054383805373417e-02 -8.944130913234761560e-02 4.585211893166302177e-01
-4.526474015560191105e-02 -9.075426939318709252e-02 4.349088072209886247e-01
-9.728082437007015693e-02 -8.894886982768149264e-02 4.599043698278687531e-01
-6.369853433407614285e-02 -1.085528229055579552e-01 4.616967640720079924e-01
-9.913497466234454103e-02 -8.889380712870209589e-02 4.626617951759550706e-01
-3.449553476733113050e-02 -1.002797584365996281e-01 4.565575107433395563e-01
-5.673006634264703835e-02 -1.114506205876705375e-01 5.317069601816111213e-01
-5.388712360754211589e-02 -1.147119643506915726e-01 5.204472988161676916e-01
-5.190104163378780888e-02 -5.480547996958155810e-02 4.328194091969744250e-01
-6.485359355910483292e-02 -1.054604814201630519e-01 4.439426265864394039e-01
-2.284837618978263415e-02 -7.145588827373108853e-02 4.394766238042908113e-01
-3.958379685154736483e-02 -1.109090501031956000e-01 4.764283491588979791e-01
-9.932481514232711917e-02 -1.081619966778976788e-01 4.900991596879340495e-01
-6.822832015475091549e-02 -1.105500027179881495e-01 4.719589537528990353e-01
-1.602792125531619580e-02 -1.016708992960212304e-01 4.588750885844005145e-01
-1.909283759971003649e-02 -1.202312446580475758e-01 4.980756279274280995e-01
-9.013793361659830361e-02 -9.277127158239251159e-02 4.469961581367334347e-01
-1.728687892614791735e-02 -1.206941834967223404e-01 4.980285880500771034e-01
-4.127125311189609042e-02 -1.159154554167282775e-01 5.295285998279180006e-01
-2.234345492524307183e-02 -4.187253380661339758e-02 4.389627365808286830e-01
-6.692815638807238232e-02 -7.767059451750941979e-02 4.282625020584129305e-01
-8.304718331283224286e-02 -1.054361879157968834e-01 4.540782625732489586e-01
-6.702803011960029034e-02 -1.021247454341952243e-01 4.249988675203901778e-01
-5.558171556654863121e-02 -7.327142724441672306e-02 4.259334281676944167e-01
-3.290736410395338207e-02 -7.664540749103466999e-02 4.380712250927510931e-01
-6.681916645624272344e-02 -7.829522425572252309e-02 4.277126447525260722e-01
-9.208344851519399688e-02 -1.029663827236226015e-01 4.546081277361291861e-01
-7.587321271834317205e-02 -1.094171450767958964e-01 5.198847108719106824e-01
-1.617772261226066433e-02 -1.224561572579000862e-01 5.255979722677555088e-01
-3.672606545977256942e-02 -4.760113400868396655e-02 4.352648182285604461e-01
-3.259553447603914106e-02 -1.177900710481842861e-01 4.979217058034258736e-01
9.963002778829324266e-03 -1.265582484937837482e-01 5.232163215007523682e-01
-8.623104093440016327e-02 -9.332165673269575412e-02 4.416917741060717439e-01
-1.037852816845215159e-01 -9.849877655005252752e-02 4.614000132969303114e-01
-3.831005772613543109e-02 -1.158760764073237942e-01 5.346254830930899926e-01
-9.594538451842932192e-02 -1.080437444969737509e-01 4.729351155971923126e-01
-9.552225587469229118e-02 -1.069222381514409598e-01 5.069970885233597846e-01
-9.576431219824757535e-02 -9.550812246348452939e-02 4.538785378733889986e-01
-2.697929168977579797e-02 -1.163400741038700253e-01 4.897864485015381297e-01
-7.906921283350674956e-02 -1.094393189954506740e-01 4.672735975126276475e-01
9.795737450318848724e-03 -1.266166893868791443e-01 5.305125693304264534e-01
-1.452597016326389809e-02 -1.234621011968308896e-01 5.141826012132697521e-01
-1.972438560193064214e-03 -1.126163155971339619e-01 4.716006469518516098e-01
-4.479872884095302543e-02 -1.144593296635800367e-01 4.895064868816042525e-01
-6.565061450545911503e-02 -8.281490369395649864e-02 4.236668539869518080e-01
-6.352822464545038184e-02 -1.138549111721498391e-01 5.046133897749135455e-01
-3.962955553615282039e-02 -9.712261987106447780e-02 4.487244349807226751e-01
-1.014848212394504207e-01 -1.075888214967271189e-01 4.857999367134342439e-01
-5.244565046958152288e-02 -1.022399166475007615e-01 4.454487847006423085e-01
3.146050309396740061e-03 -1.246329031559835626e-01 5.023157417940845582e-01
-1.385719642135391401e-02 -1.105965193620739168e-01 4.703821734534044396e-01
-3.358999243922813904e-02 -1.186098428988509174e-01 5.198446659232507372e-01
-4.184777495687935084e-02 -1.153029303933130606e-01 4.918801334631893729e-01
-8.920683505700884031e-02 -1.000590745606450838e-01 4.485236960237975468e-01
-3.029586878155426585e-02 -1.052037968463687134e-01 4.652997728802165112e-01
-5.581083139852967973e-02 -6.593293203383429613e-02 4.286802650920991109e-01
-7.419932925403344148e-02 -1.123964487336939350e-01 5.000715414155335603e-01
-5.239998045624870426e-02 -4.443399860209166358e-02 4.359779216936685575e-01
-5.456145468112463121e-02 -1.150687571496958050e-01 5.052180035047003637e-01
-4.589630550403378528e-02 -1.162883912743435111e-01 5.031354571735303649e-01
-3.096874831338026005e-02 -1.190850001961664267e-01 5.063721518192598747e-01
-8.112390432794600037e-02 -1.028258158137781708e-01 4.457178768377126898e-01
-5.841718177191444761e-02 -1.113467517212926167e-01 4.734678577869470550e-01
-1.338564804157888789e-02 -1.148174838795751052e-01 4.781771562214959803e-01
-4.095076590574493747e-02 -1.169023552546234468e-01 5.229344916262095300e-01
-4.930559528472312075e-02 -1.119263850462714066e-01 4.781855779554053942e-01
-2.823525580656670309e-02 -1.188095875783522770e-01 5.001877767223603666e-01
-1.122477233068276334e-02 -9.602191720139816034e-02 4.531010440270435979e-01
-3.850900996671180465e-02 -1.164159085357126255e-01 5.307118983033998205e-01
-4.218480870584342263e-02 -1.171203420047726290e-01 5.132803828182046502e-01
-7.992578148724012455e-02 -1.044196759072862773e-01 4.490036172964391725e-01
-6.500733227748395349e-02 -1.086384378821947660e-01 4.623092935621256894e-01
-4.406453505187023917e-02 -9.864416870973588547e-02 4.472366979687396049e-01
-3.670258125275479427e-02 -3.793193195326695355e-02 4.354830765591947150e-01
-6.760254080745621563e-02 -1.066897322361738676e-01 4.543049307003461101e-01
-7.728408544926973489e-02 -1.030163472633768285e-01 4.402873654656180302e-01
-4.695633690750071476e-02 -9.513508493760883256e-02 4.388980513954161000e-01
-9.816853015037070584e-02 -1.068945948382334504e-01 5.039767131429523372e-01
-1.548600823297029486e-02 -5.109237690890992140e-02 4.385713743170994716e-01
-3.392748447836043540e-02 -1.180005152621631942e-01 5.263491482186314352e-01
-3.633506937779087953e-02 -1.036811005289728499e-01 4.611246576339107506e-01
-8.408678900903385212e-02 -1.111023754474612657e-01 4.910318804996340880e-01
-1.034591831360815450e-01 -8.961380508827809788e-02 4.688927046550317446e-01
-3.590889760087497690e-02 -1.171611916093255185e-01 5.295688607680547610e-01
-4.100874476069765046e-02 -9.050296489893183693e-02 4.418309641111705099e-01
-2.594799861841007999e-02 -1.115207424558492533e-01 4.763881662457206123e-01
-6.425023037886341826e-02 -1.063282106708006575e-01 4.515450821497362099e-01
-8.697864324143429748e-02 -1.095233736297862720e-01 5.045934452159815953e-01
-4.861144354730977113e-02 -6.980455709401701958e-02 4.286808824989739031e-01
-1.021790880352625719e-01 -9.031744367686687924e-02 4.660087235606428790e-01
-1.021549502510000068e-01 -1.073206911721928530e-01 4.931788901196536012e-01
-3.269634837048279036e-02 -1.136865816863091294e-01 4.828929954653585210e-01
-1.079817469234030797e-01 -9.908955493447456353e-02 4.708550618856211512e-01
-6.829596390883915791e-02 -1.069083110737002462e-01 4.552467032508375477e-01
-7.331566847038975543e-02 -1.056638312240392036e-01 4.501057963057296107e-01
3.834122488479785838e-03 -1.268361124689956765e-01 5.178099536430859073e-01
-6.260018372897838135e-02 -7.749610930107209139e-02 4.254404249757693379e-01
-7.477472236366553004e-02 -1.073053890711048730e-01 4.577148721699620393e-01
-4.762936514567275154e-02 -1.081015687988759327e-01 4.637736554990309901e-01
-9.560865907932797336e-02 -1.019989216953015310e-01 4.556729634701616738e-01
-4.784809877944178752e-02 -1.161813722854226766e-01 5.149492201116923074e-01
-9.864229694284720740e-02 -1.065660135219750893e-01 5.042599156144891293e-01
-9.369819175231235142e-02 -9.340055241302103184e-02 4.518002575921464259e-01
-4.454579870163761363e-02 -3.034430487016471709e-02 4.357091050719235636e-01
-9.347704027342253197e-02 -1.096130129142499215e-01 4.896819209515365645e-01
5.527873695925812625e-05 -1.227079549500348227e-01 4.958613961694772199e-01
-4.883778568497604278e-02 -9.720745590474083597e-02 4.375959105795648729e-01
-8.884035929657999042e-02 -1.090875927857273137e-01 5.048555143515661703e-01
-3.234199308286856561e-02 -1.188402467105105359e-01 5.066926588409899068e-01
-2.062837821791641685e-02 -1.069300492504172001e-01 4.665084602276738934e-01
-2.937468439815908369e-02 -1.195888800256499629e-01 5.111572767648095983e-01
9.795668193712348676e-03 -1.267046952618617883e-01 5.254521175896433860e-01
-9.829145151282192572e-02 -1.063328530680815592e-01 4.684922651846240016e-01
-9.196020346983040453e-03 -1.239820912307545708e-01 5.068262937892534792e-01
