-7.831678363575125812e-02 -1.112060162656345330e-01 4.826817018198922282e-01
-8.419805192870143118e-02 -9.318236693657422354e-02 4.375117385094083322e-01
7.488677109524499720e-04 -8.669451593438295967e-02 4.487159668320283568e-01
-7.191009023465735894e-02 -1.078703946376532857e-01 4.603608473391974654e-01
-3.428807167963296432e-02 -9.112960017679955227e-02 4.457699517896880903e-01
-4.035046021931785326e-02 -8.264450623649503835e-02 4.361810647131717511e-01
-5.999357920766389823e-02 -1.080894972980147722e-01 4.608647644183847536e-01
-5.963648342126273011e-02 -1.037918687926713962e-01 4.279777723185527183e-01
-5.543915321590173889e-02 -4.835808910793957388e-02 4.354656746950762436e-01
-7.669402840445203873e-02 -1.112814261861843346e-01 4.828683567140024113e-01
-3.718948876671820773e-03 -1.198682799934921578e-01 4.866367539187693159e-01
7.175862454790034491e-03 -1.245736043237565815e-01 5.038356154810432752e-01
-7.283251536295821255e-03 -1.246450599719887975e-01 5.080583555382276462e-01
-2.278626771229876058e-02 -1.188578207139794479e-01 4.966442131614997590e-01
-1.612548379411660833e-03 -1.260110286234762678e-01 5.275774614797636985e-01
-9.201129264342641778e-02 -9.260726649075047556e-02 4.489838699568230451e-01
-3.228594985728568123e-02 -8.764653538069568095e-02 4.435924127169010855e-01
-7.398859327920564999e-02 -1.111192846890399766e-01 5.133830348878799521e-01
-4.018035092755661841e-02 -4.379067922784041222e-02 4.345921485659321459e-01
-7.170742796363464844e-02 -1.119657164995746107e-01 5.110894398002104877e-01
-7.151086722302985033e-02 -1.020190313017491773e-01 4.308969131414315257e-01
-4.149863095556861198e-02 -4.280613502408132931e-02 4.344749700285415184e-01
-6.925283639936578861e-02 -1.020145003212509088e-01 4.277077819732548192e-01
-3.070316918681869484e-02 -1.187715324730334032e-01 5.238976758336413297e-01
-5.468942533432306907e-02 -6.832468731601096246e-02 4.269866660589241025e-01
-5.328141540514031577e-02 -3.725232560554495725e-02 4.379292822540914454e-01
1.397941655901341037e-03 -9.936052764754572941e-02 4.575419984254791572e-01
-3.491462760472371137e-03 -1.207260597186561729e-01 4.893975885194302156e-01
-4.426389549662658462e-03 -1.089714904714350202e-01 4.663871988855765593e-01
-2.434443773345847453e-02 -1.144319546547730299e-01 4.830266400975534724e-01
-8.143549598248159271e-02 -1.037414034158734427e-01 4.483502852268336780e-01
-8.090452793741435833e-02 -1.068023443087637442e-01 5.215034828833349234e-01
8.406245647618196606e-03 -1.244683128118410642e-01 5.038685197945564909e-01
-4.118475582012866287e-02 -1.171983973305197047e-01 5.117751477962171336e-01
-6.449609708401264629e-02 -8.853700151378458838e-02 4.205942066648735156e-01
-4.367901873633965593e-02 -2.944653850780256862e-02 4.355927767903420844e-01
-3.938742037904002097e-02 -1.004675768211365089e-01 4.539631697767531060e-01
-4.271627288053160554e-02 -1.169042646399958418e-01 5.142258032117792421e-01
-3.908362622757460825e-02 -3.358410126886576808e-02 4.353425863505380744e-01
-6.995913869376382821e-02 -1.119040372667095967e-01 4.863020725536226774e-01
-2.572775410461513972e-03 -1.005214150388488853e-01 4.581025780612348330e-01
-6.449897180735712776e-02 -1.131710103392512684e-01 4.964764659673328584e-01
-5.595631960175272146e-02 -1.025676641149256829e-01 4.424306179784646131e-01
-1.642022196723794732e-03 -1.188503538323383013e-01 4.839865113801894991e-01
-7.846632109809733441e-03 -1.249462662013642172e-01 5.238235573324947492e-01
-9.311810488274439856e-02 -1.068516757481848406e-01 5.077894095224233517e-01
-3.608644979167787564e-02 -1.099177090841886167e-01 4.734107120666736224e-01
-8.062479017074440646e-02 -9.442007007223358894e-02 4.323533150186107954e-01
-3.916610854953510301e-02 -1.096236347999294813e-01 4.724807903956921851e-01
-6.456867722320933090e-02 -1.111388958254326820e-01 5.248521894344038152e-01
-4.579934661238738158e-03 -1.251074212914619621e-01 5.303722389367137025e-01
-5.533494389143717856e-02 -1.096382246049975445e-01 4.672891534683317749e-01
-5.093156961795223397e-02 -1.051221588241315757e-01 4.550083961186035530e-01
7.162874189981340185e-03 -1.256973379725856155e-01 5.361670585664560784e-01
-6.669437127493223205e-02 -7.627786570895056517e-02 4.282138659356444221e-01
-4.478144121920251547e-02 -9.377670962594003568e-02 4.418786782659188672e-01
-3.069680326492386924e-03 -1.139828631992307606e-01 4.738551108672034440e-01
-5.511402153095725648e-02 -1.013522036694785716e-01 4.388870015767099009e-01
-2.573350751070446057e-02 -1.152816280645595909e-01 4.860774393281585004e-01
-3.618156412294547437e-03 -1.259453484968370840e-01 5.231347691673972067e-01
-5.114981952463475146e-02 -8.658147593529783026e-02 4.263013679465341710e-01
-3.421793212800078310e-02 -1.183109517367501862e-01 5.052822447526115202e-01
-5.952810108312985710e-02 -1.132684620704195178e-01 4.900962647756179069e-01
-9.691299952402168683e-02 -1.068755427653956258e-01 4.699440775007917015e-01
-6.624388873856591753e-02 -9.404509313026775119e-02 4.201069730791390233e-01
-3.076604395268308506e-02 -7.192661632387667425e-02 4.371747794989355729e-01
-7.201437414170182294e-02 -1.039063258968413728e-01 4.408684056574062038e-01
-8.088021928658352400e-03 -6.150219217723808252e-02 4.389009944477280656e-01
-2.256142371724633930e-02 -5.834173928097122208e-02 4.376157523084374668e-01
-4.443149015239564181e-02 -9.400291369448650347e-02 4.423656607780355188e-01
-2.184389014092476961e-02 -1.175703673446155395e-01 4.908573841272953486e-01
-6.617668178254215716e-02 -8.062924194962486912e-02 4.246480884529057476e-01
-7.633518501502301046e-02 -9.304271351201304219e-02 4.258128741261487105e-01
-9.871208995488575666e-02 -1.059323786388497862e-01 4.680217354305676869e-01
-4.317164681579285790e-02 -1.165535423835008660e-01 5.029574080592205121e-01
-8.858060102476091047e-02 -1.032453126792538395e-01 4.519522601527026784e-01
-6.900618917398326779e-02 -1.118190277189580750e-01 4.846743864644312838e-01
-4.613145304349353104e-02 -3.572215872464661046e-02 4.352839872686494194e-01
-9.392600673367317021e-02 -1.037899765168630584e-01 4.579180344579742434e-01
-8.246977924928650117e-03 -7.332811885391174456e-02 4.420723386147351608e-01
-9.242439486845596686e-02 -1.085603340221754365e-01 5.015774717205608857e-01
-3.600550855619657348e-02 -1.182094297013583789e-01 5.104422797394557731e-01
-6.281853581962835997e-02 -9.545956505792400903e-02 4.212713137367132266e-01
-2.368901880257956796e-02 -1.037033020024027280e-01 4.629896482757074327e-01
-4.110252475017020513e-02 -1.047773302445251103e-01 4.606358162897045139e-01
-1.032842880501844002e-01 -9.609509668605066557e-02 4.613382562195252889e-01
-1.081754277800650310e-01 -9.910493102352159467e-02 4.703495274918240154e-01
-1.095900216906013497e-01 -1.021328521053349869e-01 4.807453209879742895e-01
-2.190621787782411414e-02 -7.631998499320627460e-02 4.406515004711210048e-01
-1.720607706829464789e-02 -1.119194888616832778e-01 4.742783423472773374e-01
-8.308442325673470741e-02 -1.011165106086186066e-01 4.430510440511201686e-01
-6.307292644522999314e-02 -7.910849854362103639e-02 4.245296806979941828e-01
-2.946191941035942313e-02 -5.627288938642648758e-02 4.363171161234594697e-01
-2.025075992578233286e-02 -1.204899856163318128e-01 5.007742135822994545e-01
-2.157440138943152175e-03 -9.337438651503106313e-02 4.522036638533482589e-01
-7.186913366990836660e-02 -1.025984419788173035e-01 4.342473505814780088e-01
-5.463578137217307146e-02 -7.168267298325427250e-02 4.261235271895548737e-01
-3.331293964672194657e-02 -1.112842916036677898e-01 4.765756894098877594e-01
-6.716873601159192853e-02 -8.993921686288763873e-02 4.199650729006713101e-01
-6.381912165375834556e-02 -1.044685394698513653e-01 4.392979815206364824e-01
-1.017412841516478761e-01 -1.058878160908818533e-01 4.728843777590812647e-01
-1.005163004551189038e-01 -1.067265453848233459e-01 4.750412695252767548e-01
4.635309243821599846e-03 -1.263733262631686616e-01 5.127957622591524656e-01
-1.637676723676796675e-02 -7.983171226564741985e-02 4.429073486718976271e-01
-8.546915343923167097e-02 -1.083296544744378059e-01 4.660177119475062413e-01
-1.717532091357127852e-02 -6.791295026344948416e-02 4.397274134560255066e-01
-8.493881463254043807e-02 -1.093205683918007792e-01 5.066925210446888705e-01
-3.150066609646082205e-02 -1.177705886368074356e-01 5.328049599825642746e-01
-5.829325672395958141e-02 -5.868699571936861203e-02 4.328693360893219322e-01
-4.918616209870672884e-02 -1.128557304707780568e-01 4.834825038008439546e-01
-4.358221792282712670e-02 -6.836859972766339000e-02 4.312393824132535469e-01
-4.631446860636172572e-03 -9.382542534366987430e-02 4.521725743045540979e-01
-9.010453569271256735e-03 -7.056204366461925337e-02 4.411306814440715818e-01
-1.673907650228907478e-03 -1.246699916183084261e-01 5.344935523248820486e-01
-3.675282409450835591e-02 -1.180551050193124341e-01 5.128263657060139202e-01
-4.519024473838085393e-02 -3.347839355136336681e-02 4.350775094201362880e-01
-4.300268574640482566e-02 -1.166669064927079724e-01 5.191947862384856949e-01
-3.435415515722996943e-02 -1.177326155523197582e-01 5.269508497532841007e-01
-5.410668471415206598e-02 -1.092309079725371085e-01 4.660869926621404868e-01
2.948137687807295040e-04 -1.262506553826369393e-01 5.288194490137491099e-01
-6.656785052096497735e-02 -1.080217173511102136e-01 4.605669531327948318e-01
-4.126437321365984678e-02 -1.099651865369782044e-01 4.730457930471937966e-01
-2.912214902711049783e-02 -1.023494249899178227e-01 4.611324985356388684e-01
-3.519210937811519807e-02 -4.421184578475503835e-02 4.356154334285308738e-01
-6.184575728680501844e-02 -8.754838142272898527e-02 4.215194648631949148e-01
-4.154679914275433844e-02 -1.171202377449210297e-01 5.127307410008548061e-01
-6.859201391362207412e-02 -1.048420746283797722e-01 4.444529905892335431e-01
-8.761029610834250581e-02 -1.095286115765014001e-01 4.731375080701643587e-01
-1.088261090491442901e-01 -1.024444324329562978e-01 5.015305187115138841e-01
-5.109737250261577046e-02 -9.978992951496683250e-02 4.377304569266459722e-01
-1.024431342588346949e-01 -1.064372690019378814e-01 4.977075431088032187e-01
-3.835010638686370960e-02 -9.784945954577828342e-02 4.506743101120386230e-01
-7.472580750198969113e-02 -1.046915121429147916e-01 4.467760868897932558e-01
-4.003648415912916536e-02 -7.675182510500942745e-02 4.338224953098476222e-01
-1.119407550680421096e-02 -1.204431042337937713e-01 4.910354129770730935e-01
-5.852775044340548238e-02 -1.121740059269341477e-01 5.274509632182668994e-01
-8.242628451968665726e-02 -1.109790844273711580e-01 4.932640637054056532e-01
-7.417699727828579170e-02 -1.101746519814238712e-01 4.727240764359713077e-01
8.221724100223065657e-03 -1.264684129579676797e-01 5.313889843813474068e-01
9.033249091865069511e-03 -1.223793738761421307e-01 4.967917405832917854e-01
-1.005648434762226179e-01 -1.068098149727150087e-01 4.755683660976216531e-01
-1.756403122375456080e-02 -6.985704499271190582e-02 4.400528148200676393e-01
-5.368878414296066742e-02 -2.819136173868706102e-02 4.435351089197526742e-01
-5.591145987524168137e-02 -6.764645968086605010e-02 4.274137643345040094e-01
-2.939376096132643654e-02 -1.182280272300814949e-01 5.331390688442128045e-01
-3.332994943054693598e-02 -6.418603255202229296e-02 4.357247437552873581e-01
-4.923047935031596434e-02 -1.001676763054244329e-01 4.451276290999239826e-01
-3.130834751659943710e-02 -7.768713279816094608e-02 4.388681734343902741e-01
-1.778388990975700301e-02 -1.210298404910038206e-01 5.004751866019632178e-01
-6.190008299991693608e-02 -1.037820155411102313e-01 4.272281206524380925e-01
-1.877617486406519751e-02 -1.180873406055353153e-01 5.462613214333710276e-01
-5.782153520909456834e-02 -9.576811593906994768e-02 4.217691782649998222e-01
-1.126975468192928098e-01 -9.771228295371992001e-02 4.808558239261532252e-01
-2.402446255245483525e-02 -1.151422997639498652e-01 4.849359603558712206e-01
-5.103079815380590772e-02 -9.886716999674920181e-02 4.355822460730842116e-01
5.482867137646320766e-04 -9.918987491339378848e-02 4.572963760972311165e-01
-4.575558411937957065e-02 -3.922448776417312294e-02 4.350128765149060550e-01
-7.981494852505514881e-02 -1.112326089632083154e-01 4.859153938250920790e-01
-1.736475009868796923e-02 -1.227716375588144698e-01 5.160058690893084554e-01
-3.318675814473171642e-02 -3.769570704920480186e-02 4.364982134817946280e-01
4.934607623256231923e-03 -1.263456372139381279e-01 5.127644896742812319e-01
-3.710356892338310952e-02 -3.801376601303529251e-02 4.351920430622071567e-01
-5.169345771810109763e-02 -1.147942458711610492e-01 5.218299013814676757e-01
-5.780976234117666396e-02 -6.938323218240075030e-02 4.272614495039095406e-01
-4.328987823044367494e-02 -1.038514759522400910e-01 4.572883273496911039e-01
-5.163781884595800703e-02 -9.758253257673399350e-02 4.269305541848431584e-01
1.421223562919898299e-03 -8.307184456390787064e-02 4.470510674765489356e-01
-4.876004388081225764e-03 -1.111859434273227837e-01 4.692077331654961880e-01
-1.109270672538792551e-01 -1.008484128463343066e-01 4.860335205620619492e-01
-3.840282271265103159e-02 -1.166558192333861793e-01 5.284561671108023440e-01
-2.125034500624722877e-02 -7.155270850534306559e-02 4.396451791872576509e-01
-4.602035993441018491e-02 -1.030179393213052769e-01 4.537041202220677416e-01
-8.462239936890839087e-02 -1.107837120312772372e-01 4.873173921539258879e-01
-8.981406552066245608e-02 -1.096613878178785556e-01 4.781939772894063245e-01
-6.778621762979671062e-02 -8.335043189652387163e-02 4.231257887047187860e-01
-7.811465171293484333e-02 -9.200943922166980593e-02 4.281464232166698469e-01
-3.497805920862886303e-02 -7.980182839802246741e-02 4.383737643040507281e-01
-3.532708885103270913e-02 -1.125070357332969145e-01 4.803485321531561492e-01
-2.573447463133706620e-02 -1.047101206352633873e-01 4.646714664000335393e-01
-7.529846885329304074e-02 -1.105016877048319579e-01 5.155984271069740110e-01
-3.110260177895439460e-02 -4.786644483562721430e-02 4.368425405513109983e-01
6.325478289760114170e-03 -1.268460923661538786e-01 5.240010700647601549e-01
-2.238341190145576309e-02 -1.206629064540408053e-01 5.044369071505370172e-01
-6.202495655565667954e-02 -7.917178292630018543e-02 4.239875850712581662e-01
-2.197254130467000272e-02 -1.033787204619847633e-01 4.621102195922393019e-01
7.254701446341037599e-03 -1.267867711647570894e-01 5.251721106635136582e-01
-4.825011708123862902e-02 -1.155015454572113770e-01 5.211409459757375684e-01
-5.611047389609893910e-02 -1.118198618624522689e-01 4.789012080981536745e-01
-2.180917855585510004e-02 -1.211155209441500263e-01 5.070298022965989970e-01
-1.383458430433149797e-02 -1.049280010462861901e-01 4.618563026747926625e-01
-7.711678911456362751e-02 -8.819936494059125998e-02 4.278359867485412860e-01
-8.560652557397896434e-02 -1.084797807343569759e-01 4.666000493834661089e-01
-1.088295360465052347e-01 -9.975215115160608603e-02 4.727874022487091321e-01
-6.352667702441780473e-02 -9.388298231147357287e-02 4.206029712742703208e-01
-7.174216906997626930e-02 -9.975876167731376198e-02 4.258042560764818685e-01
-5.347680780127590100e-02 -1.117247345676677800e-01 5.324811579235042558e-01
-6.546550210177960738e-02 -1.129037588365576772e-01 5.152057128461040580e-01
-8.962937644961600780e-02 -1.092327189099656232e-01 5.002973420058822729e-01
-7.222240744311901606e-02 -1.075119947999801512e-01 4.588875711377142230e-01
-9.780498809536955496e-02 -1.032114449699161191e-01 4.605179567094508930e-01
-4.488763692012749662e-02 -1.165189067815226714e-01 5.153652094070938494e-01
-5.879145970897763779e-03 -1.203971333629763746e-01 4.890933591916080680e-01
-6.154703069457694020e-02 -1.123220364046748770e-01 5.236944526981973658e-01
7.448814903871523417e-03 -1.266922079440527815e-01 5.172365903122138064e-01
-5.667523325177439841e-02 -1.117719659507452751e-01 4.787323823529555655e-01
-4.096477049723663139e-02 -1.153051899658603940e-01 5.332242978506124276e-01
-2.755247069640310784e-02 -7.921579507404473419e-02 4.406088627352691689e-01
-1.871179170567136701e-02 -3.957287897212356104e-02 4.384875539367141806e-01
-1.847916201477508777e-02 -1.190673662003122329e-01 5.432956116761962218e-01
-4.121415503977327727e-02 -1.154039238619673780e-01 4.923968183786592290e-01
-3.199285949477027186e-02 -5.988755494224364678e-02 4.359725995248167618e-01
-7.609485280527251982e-02 -1.019810169569541347e-01 4.357415993565348922e-01
-3.606113392213390612e-02 -1.167974279741392646e-01 5.316601212779014096e-01
-4.818275669559005103e-02 -1.105644302766173731e-01 4.731712962155619207e-01
-1.124380517854409178e-02 -6.865730990911830811e-02 4.405636337471694475e-01
-6.645822939393974949e-02 -1.114229585372652487e-01 4.781849557278730067e-01
-8.815374080880609975e-02 -1.073474855085739810e-01 5.112645191280129620e-01
-3.924267374285474175e-02 -1.107917632827708498e-01 4.761854823366853950e-01
-1.048174702248753365e-01 -1.063623014975711156e-01 4.891713126640817588e-01
-7.287440664963827641e-02 -1.094922036817249783e-01 4.682371126977513121e-01
-7.163909214644113843e-02 -9.306575851579475256e-02 4.214793266061641064e-01
2.723455023017583992e-03 -1.265275485532224853e-01 5.142920191206855618e-01
-2.517466680795631823e-02 -4.358044233085943409e-02 4.384956421617229316e-01
-3.238778135979954176e-02 -1.155270331000811806e-01 5.422716187364722273e-01
-6.998279171473048565e-02 -1.119486458448099436e-01 4.869364240506095509e-01
-1.080197917942615944e-02 -1.228856107347819082e-01 5.351443531516318908e-01
-2.411994110861898424e-03 -1.252138404471583311e-01 5.073641620258942941e-01
-9.622573364329892187e-02 -9.609380004074311032e-02 4.534147713816490954e-01
-4.595201132513513503e-02 -1.162031178894476352e-01 5.048654329659221229e-01
-5.501974156449136732e-02 -1.062382226797684154e-01 4.566410293062273529e-01
-1.962897349274116132e-02 -8.619219623040053069e-02 4.454510210274278958e-01
-4.631477131967852434e-02 -8.967394857295843402e-02 4.326365487545584254e-01
-2.953009257468471732e-02 -4.416067958468167243e-02 4.375094214677076598e-01
-3.174925722135119033e-02 -8.021048810021347286e-02 4.396358102796119049e-01
-1.430298247321563736e-02 -1.228842061418763537e-01 5.069461103404758751e-01
-2.270014461866285901e-02 -8.792364558914492201e-02 4.458436987726583367e-01
-7.088398822589301457e-03 -1.043301027280948284e-01 4.609947407648270490e-01
-5.310996985406540166e-02 -8.674878344376554806e-02 4.247149734421891698e-01
-9.312290988726885932e-02 -1.035725398407796871e-01 4.567370582199772877e-01
-1.467417655944371589e-02 -1.227701653496272999e-01 5.276020770641539626e-01
-2.904872529713715609e-02 -7.602057594440117527e-02 4.389162406042548259e-01
-2.382028709029554089e-02 -3.943662252582662286e-02 4.387125406768319635e-01
1.872582472484383455e-04 -1.254392018026252165e-01 5.067831244378465660e-01
-7.574449109481308159e-03 -1.252004931024110757e-01 5.184768227013635267e-01
-3.915497584449931234e-02 -1.172967222029876050e-01 5.209726817318851566e-01
6.389340878674809425e-04 -1.157340163225521190e-01 4.771421775860071879e-01
-5.750430660528745713e-02 -1.133213060996435678e-01 4.885812197056608741e-01
-3.102746706946285862e-02 -3.502878220444120144e-02 4.372045918406478049e-01
-1.103129509489523125e-01 -1.016657469729556618e-01 4.993351823700942216e-01
-1.045678927713227513e-01 -1.063342101045674087e-01 4.854115668861964106e-01
-3.906825606658171496e-02 -1.128248154832947880e-01 4.827832087472459510e-01
-4.843160916935176918e-02 -4.674960136953002637e-02 4.341285995363309280e-01
-3.007413082830051945e-02 -1.169856137954809749e-01 5.389916227725393139e-01
-2.711499342743750249e-02 -4.143986846650435374e-02 4.381303795984309302e-01
-6.747820465156012526e-02 -1.125142881456929062e-01 5.146997133684925174e-01
-6.526644014407589900e-02 -1.114746701404125406e-01 4.777805988035034312e-01
-1.064626742403825127e-01 -1.058006800983385953e-01 4.892065217346105443e-01
-2.699951265373765064e-02 -9.233726429818700510e-02 4.491866110635470144e-01
-5.132824998029822394e-02 -9.485289977038982578e-02 4.265264218537149765e-01
-1.182990972267554397e-02 -1.090927487739313112e-01 4.670050041389179341e-01
-8.125251789588813778e-02 -1.007111742796304443e-01 4.397267731004143032e-01
-3.116732604599390874e-02 -9.689672761269099710e-02 4.525529659633374391e-01
-3.956518471424622096e-02 -7.205752249374469676e-02 4.334407919549034816e-01
5.681804402648781872e-03 -1.231792452676482991e-01 4.982529278928975458e-01
-4.152125454775759672e-02 -1.092310427267023237e-01 4.703122187768169482e-01
-6.835907879316119318e-02 -1.119850007320091351e-01 4.859627535905347573e-01
-2.713453958148881115e-02 -9.021052079591465600e-02 4.470435144780764980e-01
-6.564207623014362003e-02 -1.046243530005602496e-01 4.387767448523228198e-01
-2.239683122863459636e-02 -6.762816309503542900e-02 4.386136600847259648e-01
-4.812422886705990110e-02 -9.862097018359941569e-02 4.439134299218369661e-01
-1.853458280806001904e-02 -1.220517668114803334e-01 5.225371285928908094e-01
-3.473545426227114125e-02 -1.179860245400020935e-01 5.235552841241133404e-01
-1.980740110031991089e-02 -1.213250400352619968e-01 5.051931202850008518e-01
-3.152683289264993777e-03 -1.032924473229378803e-01 4.605734002845317532e-01
-8.845350813751705864e-04 -9.048221194575656323e-02 4.505687390032319106e-01
-6.259375335355392422e-02 -1.086290016654691826e-01 4.631668975522441056e-01
-4.105299018618849272e-02 -1.168656131174566348e-01 5.022418242624525631e-01
-2.179467685357207307e-02 -6.098019163773867046e-02 4.379887629608411603e-01
-1.054297919633759711e-01 -9.969614302612958556e-02 4.653002147044809633e-01
-3.850135829895723338e-02 -1.166393449559509493e-01 4.973189657546455700e-01
-1.105846170740724665e-01 -1.013780234123128621e-01 4.940715697101628057e-01
-7.478146897842831431e-02 -1.083590296202638775e-01 5.237820820356986484e-01
-5.074653668165786391e-02 -8.989560499526443038e-02 4.266903117534350254e-01
-8.870198869902423677e-02 -1.089983294559000171e-01 5.032734094808534175e-01
-4.245130365222347241e-02 -6.770885251405057981e-02 4.317856037716398254e-01
-6.636898543385674754e-02 -1.131657821650938200e-01 5.105652651402957654e-01
-6.517295513465544421e-02 -1.133955473215502718e-01 5.052771016028119178e-01
-1.252190587030329975e-02 -6.781066444929548243e-02 4.402874040942068024e-01
-5.416402860100444361e-02 -1.132468955531308052e-01 5.267927889403234420e-01
-5.870660665208451978e-02 -8.356957872321899017e-02 4.231677467810511795e-01
-3.057711785460639001e-02 -1.159077032653134248e-01 5.425614948672768945e-01
-5.946919185115634443e-02 -1.134584666363779859e-01 4.918612794389934373e-01
-1.083350268749365755e-02 -9.069615638272734981e-02 4.489744570044550409e-01
-1.795867330127888517e-02 -5.089439406312810943e-02 4.384269161135605497e-01
-3.427710104246502187e-02 -6.421196255572922396e-02 4.353569387671060165e-01
-1.062303711490505259e-02 -1.101434275621514802e-01 4.684612759754658295e-01
-1.659227908521954467e-02 -4.419018245785851645e-02 4.383583733853344544e-01
-4.382089474288656562e-03 -1.258696664129097809e-01 5.168923290955443894e-01
-8.483231917392895782e-02 -1.107128257505582414e-01 4.905720016198203970e-01
-5.575539122454231666e-02 -1.148095959149737222e-01 5.141053801883499474e-01
-6.858167776681954597e-02 -1.128941505987327426e-01 5.018649637658637586e-01
-1.009234258520530780e-01 -9.390517268146389429e-02 4.598444979706491909e-01
-1.019100687484608414e-01 -9.601486397914783810e-02 4.596000026215260048e-01
-1.267927333825287842e-02 -1.225573731644241521e-01 5.017533413911441365e-01
-9.495523939552710790e-02 -1.036401538636774339e-01 4.586493813388211049e-01
-4.370571491730989439e-02 -1.167254215232931686e-01 5.137144549016847694e-01
-3.242694150740700609e-02 -3.816088320748104584e-02 4.367654042894156818e-01
-6.464825283760972097e-02 -7.180002207388160029e-02 4.279168052973125747e-01
-8.300832621421662394e-02 -9.184942977794503804e-02 4.356508700844932691e-01
-6.221829268085649761e-02 -1.117982770433497142e-01 5.249195866237383878e-01
-7.995421578513399463e-02 -1.110973192423428957e-01 4.819428913604989484e-01
-6.838390029766638900e-02 -1.019397523972568054e-01 4.256839974737662846e-01
-1.028546110032351468e-01 -9.617123877586793157e-02 4.607187880713797812e-01
-1.028217691570719877e-01 -9.700020974904972892e-02 4.600536926691982109e-01
-5.324588763693471893e-02 -1.013130903837364954e-01 4.359237656568926700e-01
-9.045562415613264684e-02 -8.865236806427982674e-02 4.484024722029181231e-01
-9.167782694446371949e-02 -1.065271146613235437e-01 4.636152870704112750e-01
-9.583856558652062950e-04 -1.240011506525315055e-01 5.002968107489226268e-01
2.209854663304393861e-03 -1.018363681927418468e-01 4.597723763155147081e-01
-1.031650429692901744e-01 -9.511467088640238043e-02 4.619179744496094142e-01
4.066259396814444170e-03 -1.249068624701121094e-01 5.041230916430821107e-01
-4.413563124081238548e-02 -8.363698406559406939e-02 4.329667706201216770e-01
-2.397183350645563926e-02 -1.166637435334844236e-01 4.895189134488684979e-01
-3.529394877917469558e-02 -7.844726856841141571e-02 4.375900500616836664e-01
-7.214679494403798687e-02 -1.094612132123003040e-01 4.679221842881581828e-01
-9.011221015971626613e-02 -1.059645837252150419e-01 4.604806897279947187e-01
-4.200080750090719184e-02 -1.170347349635541961e-01 5.136336452920171602e-01
-6.124714671999969412e-02 -1.061292648314846043e-01 4.515941731309226492e-01
-6.099926394331202373e-02 -1.051919604372986705e-01 4.470383680081119193e-01
-2.662820694127669696e-02 -1.161720459209430317e-01 4.891823112992931821e-01
-5.374708104000662512e-02 -1.055980308311792598e-01 4.549176235267574087e-01
-5.770044659052236957e-02 -1.030137276713617989e-01 4.357968565208134026e-01
-2.167015537836427391e-02 -1.211548890882457596e-01 5.071879705297028806e-01
-1.185552276320865107e-02 -1.216521309606541229e-01 5.394573967438180961e-01
-5.005548325661642040e-02 -5.975690620639839690e-02 4.307460320996949754e-01
-4.899288353307429400e-02 -1.074582973928545349e-01 4.621109276230821461e-01
-8.500648330618264248e-02 -1.101545326929592450e-01 4.763956872033107137e-01
-1.126608199785485293e-01 -9.772878839291176956e-02 4.822717311746665403e-01
-5.254810715571179430e-02 -1.000700993595050464e-01 4.413002765730418275e-01
-6.519151392815127066e-02 -1.117221963600370793e-01 5.219129306030424464e-01
-8.659982621453141127e-02 -1.030274751789531096e-01 4.496080101403018836e-01
-4.539166728612589741e-02 -3.649804340723528107e-02 4.350370589087219630e-01
-2.930766894589733468e-03 -1.254574908874292738e-01 5.303460206401036103e-01
-5.433743144093379496e-02 -3.407219135035501750e-02 4.436465036977256804e-01
-3.148962211828378044e-02 -3.586349561275403025e-02 4.371005397631267386e-01
-6.424382961675016712e-02 -9.948584068797539093e-02 4.221310555159646927e-01
8.812563290533153779e-03 -1.228172886232851424e-01 4.981577310492927846e-01
-5.270886595676309294e-02 -1.026197984161727056e-01 4.473828494486051244e-01
-4.087051997215057630e-02 -8.141460987139138850e-02 4.352590189369650586e-01
-2.763935443236393077e-02 -1.199782311436543430e-01 5.126154359909153024e-01
-1.068166360865293735e-01 -1.051449854669045392e-01 4.844827638279757820e-01
-8.151773248439958541e-02 -1.087098865867360542e-01 4.657969629933076394e-01
-6.988942588971028269e-02 -9.826525680526820850e-02 4.225430393665415285e-01
-5.637050573867709649e-03 -8.642667310793691882e-02 4.476933791773071158e-01
-1.408309838534573671e-02 -1.138259167717726311e-01 4.762610914942185247e-01
-4.821484805409595453e-02 -6.261189350962513556e-02 4.298675919784584187e-01
-2.440397050100297227e-02 -1.201021364812434877e-01 5.036490046742029270e-01
-5.211148191172394056e-02 -9.866312201891172529e-02 4.294284484702560745e-01
-5.840251093131204434e-03 -1.011876713320860321e-01 4.581505996164473293e-01
-5.259513460579020444e-02 -1.134964099126290898e-01 4.872192720434847524e-01
-2.572182481609246868e-02 -7.938299782803441562e-02 4.412714936267005394e-01
-9.570955979875031550e-02 -9.788262013003527773e-02 4.525803379412747796e-01
-3.506503795461096695e-02 -1.145407591471919451e-01 5.430960312574740767e-01
-1.342376287312327214e-02 -5.318512987475616793e-02 4.382622442266339569e-01
-5.816438273522705343e-02 -1.143643349421922667e-01 5.042200091410280471e-01
-2.989726846240406063e-02 -1.180386559653929107e-01 4.975306882681049259e-01
-6.023789233755039857e-02 -1.123710013778104061e-01 4.830026393698477749e-01
-1.125965350736982465e-02 -1.163058349857973711e-01 4.798602544623736255e-01
-4.775796068020060625e-02 -1.138691839164057001e-01 4.884324881389880968e-01
-5.103149588429144179e-02 -3.505080975913221764e-02 4.377837079212795190e-01
-1.954910370488315008e-02 -1.084894773219265279e-01 4.687139316977753656e-01
-3.890049325136527014e-02 -1.075281512608976947e-01 4.668116396330592166e-01
-4.124320080703349628e-02 -8.782098364255833123e-02 4.392234141510145129e-01
-6.813376079743407865e-02 -1.109199048826282619e-01 5.219088741125013087e-01
-1.231989196373585449e-02 -1.237514847019492992e-01 5.112649597151864844e-01
-5.317458106823165498e-04 -8.866072287563739329e-02 4.496179378957914086e-01
-4.054255612140283960e-02 -5.799341767434797179e-02 4.335249996956655472e-01
-5.356083280724659862e-02 -1.013042086971297356e-01 4.434788988889403205e-01
-8.627349064715757188e-02 -1.104601371706546431e-01 4.916675300290630490e-01
-8.711790177246331313e-02 -1.104192275941023316e-01 4.867241131244310348e-01
-9.918751256131290439e-02 -9.457623032789161388e-02 4.569206593192896571e-01
-1.018858747260592140e-01 -1.058832943334365451e-01 4.731265344533605588e-01
-2.936717531177990628e-02 -1.186541734788013197e-01 5.004682667179971567e-01
-8.542562151470053933e-02 -1.095294153264107506e-01 5.047882808399727361e-01
-2.682480819884802692e-02 -1.124481527461255043e-01 4.783690195242316090e-01
-5.722347659272442738e-02 -1.145300084683681385e-01 5.056639685645557547e-01
-1.280952358062214039e-02 -1.061922809696256298e-01 4.631623685322406314e-01
-5.865046741836894145e-02 -1.136449893978308257e-01 5.208372961393993306e-01
-9.934875972093316909e-02 -1.078710902212549894e-01 4.861848827227929215e-01
-4.974758343809006569e-03 -1.172330844920248666e-01 4.798360376712812458e-01
-9.519103897021052862e-02 -1.038699996419707450e-01 4.593736096636329425e-01
-3.823638900487401349e-02 -1.172272563771708936e-01 5.243188491245656113e-01
-9.121392252188902094e-02 -8.602415873287883041e-02 4.523854003118607525e-01
-1.830033419265045865e-03 -1.263232398016677360e-01 5.203927024593217876e-01
-3.212489650690572573e-02 -1.190119419939072581e-01 5.116993762044486083e-01
-1.853065584068503899e-02 -1.218620914277910999e-01 5.246737228357837290e-01
-4.408372480869611476e-02 -5.086361710696774008e-02 4.338335505316072704e-01
-1.081482138012282435e-01 -1.035321777522218156e-01 4.795755053575554427e-01
-5.508645546390285828e-03 -1.167052643405443457e-01 4.789025633325760811e-01
-4.886728277755073013e-02 -4.248000448143528229e-02 4.350120852660981363e-01
-2.994222737994782502e-02 -1.193139747626078551e-01 5.181466740068242371e-01
-9.545570528018600120e-02 -1.057472195966584483e-01 5.091470190840777787e-01
-7.888340150961661856e-02 -9.103978836984322198e-02 4.293448849569351244e-01
-8.280514352564741221e-02 -1.110491444478495793e-01 4.852900946788713532e-01
-2.956589997154061497e-02 -1.100868245187837102e-01 4.739945853064919667e-01
-1.464532704548474756e-02 -9.572179490065420293e-02 4.526978652837248540e-01
-6.198078350643034667e-02 -9.825503101710181264e-02 4.223175059668895504e-01
-9.096887209777994310e-02 -1.070066802540400458e-01 4.648441518534437988e-01
-5.806811539124719784e-02 -1.139867447828918218e-01 5.185823392139785604e-01
-7.229484931508612863e-03 -6.629835937192832263e-02 4.401677825555129764e-01
-2.002719540098928455e-02 -4.618344978680925111e-02 4.386846912987134584e-01
-1.085591861516658520e-02 -9.580738364772024840e-02 4.527591402546002897e-01
-5.350538061788354116e-02 -2.427243399661566103e-02 4.441028932577367194e-01
-6.282273294922435802e-02 -1.043088520718866152e-01 4.393918187698174216e-01
-6.754639733363602960e-02 -1.118373825613228206e-01 5.191976621135332426e-01
-6.788662382621696301e-02 -8.074251072314056477e-02 4.252420639901627886e-01
-2.489675091750776642e-02 -1.191460475904531774e-01 5.346280289412843612e-01
-6.222492556994844298e-02 -1.088390578775055295e-01 4.642696630551103043e-01
-5.665223811763831635e-02 -1.029150264364506739e-01 4.422269191702257185e-01
-1.024312988690121926e-02 -6.165615656362914004e-02 4.389631528573291752e-01
-2.260825032429367512e-02 -6.199029217468164654e-02 4.379227686311549794e-01
-1.060260989076514115e-01 -1.029765555875865324e-01 5.034685323577469118e-01
-2.093053988335449173e-02 -1.197907272272679818e-01 4.982188884416885455e-01
-6.927767231014467231e-02 -1.086447451138902315e-01 4.635531721988082055e-01
-2.181351980670238194e-02 -1.038536816321336265e-01 4.626629519408034241e-01
-6.093589187734674978e-02 -7.961748391348240361e-02 4.239267710540471357e-01
-2.299167809197792678e-02 -1.204305650225386826e-01 5.037895179231243192e-01
-2.668945949613113489e-02 -1.074984607093877054e-01 4.690616243559009302e-01
-9.892049481495321372e-02 -1.077311621037392031e-01 4.783243327135031087e-01
-1.254381888880864472e-02 -6.163014620617415784e-02 4.389952722317116973e-01
-5.378448241706380167e-02 -1.133014465546685057e-01 4.865280327311058417e-01
-7.861518701618663840e-02 -9.530820348459834168e-02 4.286425826208104528e-01
-8.842628246488237753e-02 -1.101205802602180372e-01 4.835909866871886398e-01
-5.714471236693034056e-02 -1.144922794439447583e-01 5.038457226174632986e-01
-5.458665179324401207e-02 -9.380008692166813544e-02 4.234752263552997165e-01
-5.806203420771887530e-02 -1.115056743099675646e-01 4.765394701813216449e-01
-8.263599646062941284e-02 -1.104258351516684278e-01 4.769179688699203279e-01
-7.549218942835941859e-02 -9.025270907631401107e-02 4.246214449045501160e-01
-8.549144022627903905e-02 -1.077634964653754746e-01 4.639335905936993187e-01
-1.585662543991557538e-02 -1.228317825801679142e-01 5.101354127980816111e-01
-1.058530516930930587e-01 -9.331492101698561636e-02 4.672065917086986597e-01
-8.178588589963578515e-02 -1.110958854219572800e-01 4.845303013655776203e-01
-1.010664930036341419e-01 -9.229839476282709898e-02 4.610644066090427984e-01
-8.568345551012605810e-02 -1.046599857278736889e-01 4.540358555178570232e-01
-5.622792615097682578e-02 -1.023592422849459727e-01 4.409945217392655659e-01
-4.517741303386973994e-02 -9.122759469408611710e-02 4.365546377977931325e-01
-2.837416011713700045e-02 -4.785375220376343608e-02 4.376770266686541011e-01
-8.280433463919656401e-02 -9.814255558372950161e-02 4.390205355686322974e-01
-2.416323297755429769e-02 -1.197224701906733912e-01 5.309342976214820320e-01
-5.463266489311539159e-02 -9.278310032301116672e-02 4.234689538941491804e-01
-1.106483414441893770e-01 -1.016410672547523042e-01 4.877404375765226341e-01
-7.547391511703574127e-03 -1.250711636300912422e-01 5.228837022132548640e-01
-3.048989023849969435e-02 -1.103608399976252624e-01 4.745803056394574670e-01
-2.847964431696110160e-02 -1.173912530476469568e-01 5.389744951294436204e-01
-4.159918525636610576e-02 -5.645450230043790041e-02 4.332230058569765396e-01
-3.535599703405261501e-02 -1.148367646296543226e-01 5.421009631966621223e-01
-7.531481880306514776e-02 -1.024972774099567469e-01 4.373602786637856288e-01
-6.916553996799407189e-02 -1.092810047118784322e-01 4.665980970596016464e-01
-4.005178482293264564e-02 -1.017940180919522097e-01 4.557986887278133725e-01
-2.091565874068710904e-02 -1.007532933889833671e-01 4.589334596393558896e-01
-3.877411523239906316e-02 -1.167879030744903845e-01 5.267545946124491119e-01
-2.211982697478596244e-02 -4.804433792131163061e-02 4.385842615923680743e-01
-1.806078226485640509e-02 -1.187911152296552836e-01 5.446396694346948841e-01
2.480058967748539553e-05 -1.026132515551334695e-01 4.602297789981287246e-01
-5.138984324752069593e-02 -1.119837111545503860e-01 4.788902986157234087e-01
-6.212496040861952007e-02 -1.063209569525539328e-01 4.532097349653419482e-01
-6.030106302498112851e-03 -7.661073965832462807e-02 4.436405864191151904e-01
-5.519026684691619861e-02 -4.593679032092521514e-02 4.382194222120222027e-01
-5.708939511456423421e-02 -1.146161013481254431e-01 5.090227511635821989e-01
-8.221615434472782230e-03 -1.249499517264541504e-01 5.217132179238511691e-01
-4.488223130257685406e-02 -8.620080988537540123e-02 4.330723630911572086e-01
-4.783966705076600490e-02 -1.153695431402109173e-01 4.963278874681258945e-01
-4.002919066969344575e-02 -6.072321592695936743e-02 4.335031582567161479e-01
-5.710020025696274648e-02 -1.144944599193744306e-01 5.036989957348287916e-01
-4.453572877207078590e-02 -1.164246140853445050e-01 5.048199350551463294e-01
-4.981468124090192989e-02 -3.581752556325108749e-02 4.371097269140931108e-01
-7.285786273038101502e-02 -1.054833089356232989e-01 4.500552576552723782e-01
-5.365193164489147348e-02 -1.005739177395259809e-01 4.284396636320176865e-01
-9.711003512219154588e-02 -1.079542040706815004e-01 4.751775620455917504e-01
-1.031940902191613857e-01 -8.788549749352853047e-02 4.693864705136608362e-01
-9.669184236292478751e-02 -1.085503147646833116e-01 4.919383535820953113e-01
-5.779045066046871459e-02 -1.031974376830429585e-01 4.246882355645385521e-01
-2.877541469226348528e-02 -1.138074601436924876e-01 4.821462505722708958e-01
-2.541939658482132020e-02 -1.204691958109877226e-01 5.170479699351249181e-01
-8.445081133855622535e-02 -8.875916755638924016e-02 4.398678618455090783e-01
6.822306223915901649e-03 -1.267900513372504923e-01 5.262884407332447667e-01
-1.596974709205675660e-03 -1.262378708376612479e-01 5.153983417859857585e-01
-5.297297158706578551e-02 -1.142844546047112053e-01 4.928847124256724999e-01
-1.056116095902414898e-01 -9.909883671904348712e-02 4.653101984406594060e-01
-6.000748823985668085e-02 -1.126182498054217884e-01 4.848689780123736082e-01
-8.401686659016549888e-03 -1.056145921971663598e-01 4.622193833265001439e-01
-8.330140956507699201e-02 -1.078614001228342528e-01 4.630316933967342230e-01
-6.435468752560004335e-02 -1.055612292572838951e-01 4.477237337494277547e-01
-2.775270938723136196e-02 -8.718010609885386286e-02 4.445532610490292025e-01
-6.695287755373967309e-02 -1.032995430469555026e-01 4.314761148646587552e-01
-4.168391508750310392e-02 -6.816595279836559773e-02 4.321572151414639351e-01
-9.609730692594332935e-02 -1.086118890974028389e-01 4.819819857103168070e-01
-9.532342089851501832e-02 -1.087838578286904057e-01 4.819841225879349378e-01
-2.790709784531266238e-02 -9.733247546442985731e-02 4.544905736637930294e-01
-8.523651142879629106e-02 -1.022156448508694249e-01 4.467406365901002152e-01
