-5.995325010082325733e-04 -9.871716082828506378e-02 4.567416527549962302e-01
-6.572331452513746619e-02 -8.788211916871328799e-02 4.207418243525261614e-01
-1.097824494330336582e-02 -1.235760412474408154e-01 5.306610553891415449e-01
-1.550505845993751554e-02 -1.073199144844319691e-01 4.650619491307469433e-01
-8.662341861907107976e-02 -1.025580744232143376e-01 4.476536933992079081e-01
-7.443585615543250877e-02 -1.071769769826438207e-01 4.565042728354705148e-01
-2.849744827502466698e-03 -9.279472395568745535e-02 4.517233065959381233e-01
-8.823858741206823397e-02 -1.103793940345940278e-01 4.819910089041248846e-01
-1.333586913314840569e-02 -1.214529301733211081e-01 4.967431998137891713e-01
-8.866467447635897892e-02 -1.104439206747632601e-01 4.914724572787501078e-01
-7.972943864224685262e-02 -1.007764130149051279e-01 4.373768586219447529e-01
-8.358785185123747408e-02 -1.080365693665390342e-01 4.627076296921897591e-01
-6.368734107502516117e-02 -1.133698332431000572e-01 5.155927678189873298e-01
-1.875517658294061085e-02 -1.204640511264125496e-01 5.368866983765063772e-01
-4.585691840655641699e-02 -1.162936099543509932e-01 5.039362129501691046e-01
-3.289745568554541116e-02 -8.490069801577547481e-02 4.416368709643143653e-01
-4.094067333591773841e-03 -8.279275356927599805e-02 4.463752338297996003e-01
-2.802670833029548281e-02 -8.923193728299136374e-02 4.457859055363328493e-01
-1.009539868197916745e-01 -1.072167109684855069e-01 4.778856407099838499e-01
-3.340167413099650456e-02 -9.684727553323312088e-02 4.515149297876822621e-01
-6.763527684681128194e-02 -8.955123014754916289e-02 4.199810148781157881e-01
-1.674523704487464182e-02 -1.185270735561382432e-01 4.890311805254026756e-01
-3.755848197671837752e-02 -1.033303947950078294e-01 4.596384984104675553e-01
-8.110264717779021304e-02 -9.790780429979038801e-02 4.353698707804760093e-01
-3.360982728537143666e-02 -9.678897706974848303e-02 4.513720838294834614e-01
-2.746636644981152384e-02 -1.198425748832792487e-01 5.074344753035097133e-01
-6.506931696207041149e-02 -7.773826901370421705e-02 4.266975191040776050e-01
-8.009152774459425694e-02 -1.039450686938239443e-01 4.468373643813372542e-01
-4.738407838144619716e-02 -1.125436355333816474e-01 4.813240450021711303e-01
-3.365116543039673586e-02 -1.184870758330844182e-01 5.051045144287299449e-01
-1.029163148832632768e-01 -1.072018745489195096e-01 4.912133175906974181e-01
-2.502237122243926651e-02 -1.174519139691687780e-01 5.427180878775312856e-01
-3.891021137552429926e-02 -1.175813941379957733e-01 5.070839312617091421e-01
-5.897537608805925730e-02 -1.083857441886127010e-01 4.612786677450115280e-01
-3.945903138172270064e-02 -9.002320404072201854e-02 4.422026079761984252e-01
-9.506310947182697313e-02 -9.404007593175925384e-02 4.526646211431610278e-01
-4.116096203569232642e-02 -1.167372687674027298e-01 5.006875658151354047e-01
-6.223452843113026073e-02 -1.122593518394536111e-01 5.235811242366912310e-01
-3.686588529882132981e-02 -1.078967703029214409e-01 4.685868045110885838e-01
-1.039733971048770883e-01 -1.032069395881136664e-01 4.664515293362382353e-01
-1.820895869216640484e-02 -1.208801406883597829e-01 5.000723096459003258e-01
-9.756695388378104628e-02 -1.024560877026576833e-01 4.581186763999728906e-01
-3.769042748531304526e-02 -4.274454893426335444e-02 4.349901420909968452e-01
-6.493823829182948648e-02 -1.057449755603439845e-01 4.454141889863820203e-01
-1.066790619061423889e-01 -9.807687963059490144e-02 4.668927651653452249e-01
-3.407758549499333850e-02 -6.870133758869628737e-02 4.356004555212365514e-01
-6.230245361364642603e-02 -1.133986484782892046e-01 4.929168840566917620e-01
-7.972361071326175552e-02 -1.099677563006772746e-01 4.700351202977635645e-01
-7.326572344361076405e-02 -1.095157787133591437e-01 4.669008219199562437e-01
-2.777824892372198623e-02 -1.064275911425707211e-01 4.672897331632008266e-01
-8.013217247391500597e-02 -1.001720828512013828e-01 4.368750924447989958e-01
-1.092199027770252989e-01 -1.034512015726934409e-01 4.852436996433164840e-01
-6.107757347981551677e-02 -1.069236097803201030e-01 4.553984386487353042e-01
-4.329954249487397849e-02 -8.147628627013915603e-02 4.331290103970756311e-01
-8.417616528694123190e-02 -9.277237306245439408e-02 4.376236017289155122e-01
-6.927930086194562798e-02 -1.098523813395903687e-01 5.251495974330515626e-01
-1.040822003758094527e-01 -1.057068614470792617e-01 4.999602873682524873e-01
-4.675701847700883262e-02 -1.046060976375204066e-01 4.557425193044558065e-01
1.110708032007724604e-02 -1.265941393971818096e-01 5.247386008040156868e-01
-6.130168526781358540e-02 -1.141179636947197706e-01 5.063071042060260929e-01
-3.509806727234103529e-02 -1.156706969662434498e-01 4.905173286050597548e-01
-5.911052754794135500e-02 -1.136483395057539814e-01 4.916480828215637477e-01
-3.348623614988954778e-02 -1.187554127801845189e-01 5.141944313925147503e-01
-8.943977636765099160e-02 -1.030148427051466864e-01 4.521961222507718259e-01
-8.775319609577425170e-03 -1.097069312783602174e-01 4.674425340347106994e-01
-2.743162878292207049e-02 -9.514973927623225636e-02 4.520778056794482747e-01
-8.598467093058219379e-03 -1.053606936605203243e-01 4.618443322772124437e-01
-4.162039557099522086e-02 -1.162749038613388325e-01 5.264612794034310150e-01
-7.415070004749353683e-02 -1.112509707781285800e-01 4.780112527495961050e-01
-8.737099469637309157e-02 -8.629928151233404177e-02 4.461840591433234304e-01
-6.730477812647842062e-02 -1.054833754428469023e-01 4.452559263277809931e-01
-1.082821296162189140e-01 -1.002587205610153548e-01 4.717882538277337612e-01
-1.718087490454515628e-02 -1.185794868206511976e-01 4.895982523112287210e-01
-1.084286964870697506e-01 -1.027711228381968656e-01 5.018781434299097732e-01
-3.158679230113170533e-02 -1.191324255649815200e-01 5.105849432557498790e-01
-5.114819626842604522e-02 -8.343244597358376313e-02 4.263485444503579691e-01
-2.032112842535380159e-02 -1.173412243152325285e-01 4.890539009824018124e-01
-7.034920572727637600e-02 -9.595292280473313729e-02 4.210171652129777176e-01
-1.036922828550598669e-01 -9.079275698597978617e-02 4.671899799100819317e-01
-9.527048144784068529e-02 -1.090803184663217268e-01 4.823874516887297625e-01
-8.407102692400880706e-02 -1.030372653783407227e-01 4.472659216171959162e-01
-4.730082378685014632e-02 -6.846044056908473507e-02 4.293158537710012879e-01
-4.812542883061252802e-02 -4.005989975820627158e-02 4.353754738167259775e-01
-8.406654641753442958e-02 -1.093486310917099330e-01 5.086395271599797319e-01
-9.081149494473949799e-03 -9.365833897893657833e-02 4.511326631168819934e-01
-2.304991741253858625e-02 -8.492336447686345269e-02 4.442335493624132159e-01
-5.192343699308525629e-02 -1.091889997671701973e-01 4.652708726400925365e-01
-6.549114050978370460e-02 -1.059009044066347299e-01 4.477284464681715592e-01
-1.223757283860703315e-02 -1.228802398255482847e-01 5.033261229740776388e-01
-1.468207576201585162e-03 -8.508868275983562379e-02 4.477283720023587654e-01
-8.578497700194419318e-02 -1.056145784494288281e-01 5.191219142972236522e-01
-1.548937107034993252e-02 -1.133770609222691933e-01 4.760999552819347724e-01
-5.526109877144385479e-02 -7.519145969600338208e-02 4.253941365156656551e-01
-2.104894449153447630e-02 -9.400232530792650143e-02 4.513576756318620209e-01
-3.230049044063021402e-02 -9.114112852819862554e-02 4.462235979115976026e-01
-7.778138590322485751e-03 -1.149297407608762395e-01 4.758637052173500526e-01
-1.989856579371030929e-02 -5.033829497855575597e-02 4.384188250327128444e-01
-1.914416868875206193e-02 -7.602674833316828973e-02 4.411075944564525342e-01
-6.454196060373319777e-02 -1.123035036346233528e-01 5.209340229518575338e-01
-3.367964753698058505e-02 -9.747233035304742055e-02 4.522880143072141590e-01
-5.303020696263010224e-03 -8.551842150213913307e-02 4.473065344620502648e-01
-1.566066862814324617e-03 -1.141725250069433595e-01 4.741771697258418405e-01
-7.285493456214512872e-03 -1.204056067943464897e-01 4.894860134228454229e-01
-6.052783994685231872e-02 -1.091546344697709447e-01 4.644176110300937133e-01
-2.957969601563141537e-02 -1.090416293196857095e-01 4.717251038476572012e-01
-2.904294439938203201e-02 -6.582014921939063901e-02 4.369993078851336921e-01
-2.723200432823666070e-02 -1.086470818907386282e-01 4.709256246251201095e-01
-6.738352862057730985e-02 -8.443053410897938260e-02 4.225858431481127053e-01
-7.883134282612704047e-02 -1.116354351330251377e-01 4.959215509897457186e-01
-5.693947525236647128e-02 -1.144916455280032552e-01 4.980057766839995903e-01
-2.084445354163462147e-02 -1.210269180190598620e-01 5.269050910825910927e-01
-8.129076124078070398e-02 -1.100183468184193769e-01 4.706196193000561911e-01
-5.381394979822790026e-02 -1.150029816155650059e-01 4.994238129947173310e-01
-8.812840563771506819e-02 -1.086688608828469543e-01 5.069380268144997315e-01
-2.021669446548721855e-02 -1.219058668515495825e-01 5.150539310349505628e-01
-4.795417414041908133e-02 -1.146777642730855418e-01 5.276008874119912928e-01
-5.839367075557096859e-02 -9.027573857942562674e-02 4.217020741201336076e-01
-4.549848934197486816e-02 -1.122747802476734419e-01 4.808147689810012282e-01
-7.522447906042654953e-02 -1.113520121217404374e-01 5.106173401546602042e-01
-4.109571313102142881e-02 -1.022730690462752418e-01 4.554588729228705724e-01
-1.922846738589066920e-02 -1.172679886527178278e-01 5.484941358842875259e-01
-1.507650895177705709e-02 -1.169188367630501213e-01 4.837428399332227014e-01
-5.885767743854697365e-02 -1.064874798428282060e-01 4.532175852271467797e-01
-6.467799553603814644e-02 -1.111949759932476939e-01 4.737924700427397218e-01
-3.657577665837240949e-02 -1.016552040093280096e-01 4.576460003065621618e-01
-6.433523257869122602e-02 -1.055009017692411788e-01 4.422505262899974476e-01
2.035820176060715303e-03 -1.191919100468690207e-01 4.852455278087993151e-01
-2.075451539578357374e-02 -7.586588092716338438e-02 4.407538480110325119e-01
-1.025131650039081410e-01 -1.072745483261310084e-01 4.863588612999313332e-01
-1.616312516061195123e-02 -8.432311845511086812e-02 4.449444342286922871e-01
1.653405244297151454e-03 -1.006618077560312713e-01 4.586960260964684788e-01
-5.191399348669232389e-02 -5.897382471117603581e-02 4.311271474994938790e-01
-6.674147407917897790e-02 -1.058532570265356410e-01 4.481102583088353297e-01
-2.584695696769202453e-02 -9.364162065292300219e-02 4.506882219191379879e-01
-7.383892042194953320e-02 -1.103078032807982140e-01 4.718193810882555517e-01
-3.036710911639847049e-02 -4.012386686796502733e-02 4.374243335135488131e-01
-4.267691112449131796e-02 -8.494519921866659773e-02 4.353771453437528804e-01
-2.117181082183269142e-02 -1.168308355503554358e-01 4.880580504956836263e-01
-8.784447256906402490e-02 -1.103307479654943579e-01 4.795371104331629941e-01
-1.076809302125748997e-02 -1.195384381929786993e-01 4.878367146022067335e-01
-1.081617341964885570e-01 -9.798792228135418114e-02 4.702797730927175124e-01
-2.543172628425483667e-02 -1.203465102987796020e-01 5.081362389641171928e-01
-7.561312897705911584e-02 -1.088432476135894472e-01 4.636804666816520815e-01
-8.676766954211360960e-02 -1.014498851417801467e-01 4.462028969834179182e-01
-4.521702458420688402e-03 -1.256750542894000955e-01 5.242300595582251033e-01
-1.743978341472199670e-02 -1.180292015663547966e-01 4.884453935361645627e-01
-9.514561796335244126e-02 -1.072109469016730848e-01 5.057195366596873853e-01
-4.999594481313902189e-02 -6.445074124675274907e-02 4.290933945951009854e-01
-6.907979445327064316e-02 -1.129832136215437460e-01 5.011142138480328967e-01
3.418168714371332996e-03 -1.184679495640571650e-01 4.836021811969601347e-01
-8.025555886494627200e-02 -1.068784443937449008e-01 4.569713549088773030e-01
-1.335417791760875120e-02 -1.236951640449243800e-01 5.189564321131744373e-01
-6.920287136588956778e-02 -1.129100964053414979e-01 5.073604976486172369e-01
-1.104491153540397980e-01 -1.016979765080213843e-01 4.941330570236994180e-01
-4.401317945390604419e-02 -1.163093523568450166e-01 4.979449182718158617e-01
-4.211238215927275846e-02 -5.534640580083778627e-02 4.336011235505269901e-01
-4.945497538283400579e-02 -1.136773253854976018e-01 5.305962992467464501e-01
-6.559106626152391706e-02 -1.134852749894744717e-01 5.027685917472221044e-01
-6.488034093890429621e-02 -1.131103337021890781e-01 4.925090310433988261e-01
-2.558648070125724150e-02 -7.897643179456792506e-02 4.411033323376085113e-01
-6.843416005207744734e-02 -1.116721244845638866e-01 4.799354726154934636e-01
-7.495953008251457494e-02 -1.102877857590136013e-01 5.175017958467668100e-01
-6.705518810544647268e-02 -7.454330997214532462e-02 4.294967941919243248e-01
-2.739056276657545266e-02 -1.185469774130658988e-01 5.346049649943636073e-01
-4.913497730764133931e-02 -5.004683788768501951e-02 4.338203885051058473e-01
-5.478434146143511957e-02 -1.120489639548672561e-01 4.788062434415382151e-01
-4.598180505211080932e-02 -1.152462012582775586e-01 5.267772968596711181e-01
9.705685556098408995e-04 -1.178433630034395885e-01 4.816447026920899765e-01
-2.918779567896232635e-02 -1.151101671535022242e-01 4.860915001849542838e-01
-4.210303681807518739e-02 -9.051414269947472002e-02 4.409194179167307825e-01
-5.033979248398402079e-02 -6.965621631914079015e-02 4.278987586710311652e-01
1.512728713816642936e-02 -1.250900104704447957e-01 5.379899578880787958e-01
-1.426243767606294975e-02 -9.393597428072575362e-02 4.508750639043230257e-01
-5.496465616337056770e-02 -1.146553410085940083e-01 4.973387778317166497e-01
-4.158453964948408133e-02 -8.002918685792508036e-02 4.340840604825638716e-01
-4.759002498447977014e-02 -1.152429195321269945e-01 5.249210769196581694e-01
-5.306773888604811307e-02 -7.007760440031179927e-02 4.269929314678230781e-01
-5.436441973404836092e-02 -1.016082149940335799e-01 4.386430311281617755e-01
-6.276121456697414218e-03 -1.230732563069291269e-01 4.979231790998332463e-01
-8.593445359287894825e-02 -1.025206446303173480e-01 4.470183446695582541e-01
-6.893818433819542957e-02 -1.048893129615166980e-01 4.405886013660118006e-01
-7.847614831773562505e-02 -1.098245365240598376e-01 4.690948671297492378e-01
-1.611881832745855683e-02 -1.230817006605992442e-01 5.136495299984015217e-01
-8.396967860775765569e-02 -9.038704491769319893e-02 4.384624427478659436e-01
-6.356302908912384031e-02 -1.069433080112232731e-01 4.549143100922999339e-01
-1.857260039972225343e-02 -1.197708506817325019e-01 5.402824140098385630e-01
-9.335048729643344312e-02 -9.286081343451781100e-02 4.507870216342292347e-01
-8.384789183581414090e-03 -1.173017159154591676e-01 4.805232603667750624e-01
-8.014772286855534333e-02 -1.104674310556415101e-01 4.736583054062748488e-01
-9.624687229604485250e-02 -1.062635658309563358e-01 4.654265531424638391e-01
-6.323617521635506444e-02 -1.042213318726865484e-01 4.270709968789219158e-01
-4.416545566561234926e-02 -7.510294324496311069e-02 4.314724563724508521e-01
-8.442613767032197680e-02 -1.108399846481698120e-01 4.802703262177595023e-01
-6.106525571422879994e-02 -7.805157714627566912e-02 4.244511080943433323e-01
1.544515640327387071e-02 -1.250998978224759639e-01 5.377954693519757523e-01
-7.261764752087224162e-02 -1.117375100550816042e-01 4.822345550907568001e-01
-1.799052887038959936e-02 -1.143722391782496933e-01 4.799962017279673088e-01
-4.657146547321956709e-02 -1.163561063518578770e-01 5.104375668472973526e-01
-9.565270875212115997e-02 -1.057118475674830166e-01 4.628977145600856602e-01
-5.076825394482913090e-02 -1.139060659854834873e-01 4.878280208901023540e-01
-2.405613148615810479e-02 -1.129889079692729809e-01 4.790120857592565229e-01
-9.409666095253847035e-03 -8.478654106000726998e-02 4.462420309695170895e-01
-3.221564609005484608e-02 -1.176314846796602809e-01 5.328362255760640265e-01
-5.314074230703370871e-02 -1.123155652865339277e-01 5.314698402837924052e-01
-1.037285219683299758e-01 -8.855524424321074839e-02 4.700232175345284702e-01
-1.540481493280267643e-02 -1.182606502726133019e-01 4.870255430381594808e-01
-4.434937461894520455e-02 -1.163378562478876860e-01 4.991538361674609514e-01
-6.510956354425119497e-03 -1.248289069446872762e-01 5.290375922494071625e-01
-4.722834272100195907e-02 -1.023343418223581075e-01 4.510204836339056778e-01
-3.361609804960741243e-02 -1.107480766181893894e-01 4.751316688313872993e-01
-1.912510763166455283e-02 -1.200452672158718315e-01 5.382762820613079535e-01
-5.147319229449533184e-03 -1.063578879230058505e-01 4.634457925939270417e-01
-2.142740042358991584e-02 -1.190359305647156890e-01 4.960242334744011106e-01
3.670751863615177618e-04 -1.262453466824215997e-01 5.116205976880342510e-01
-8.585866928846268287e-02 -1.103075909496325918e-01 4.992754241272525650e-01
-6.830301562704155227e-02 -1.082204308264665127e-01 4.602699098270222056e-01
-1.293680706662081285e-02 -1.231408988169464813e-01 5.293382814909143308e-01
-4.558906200530166847e-02 -1.049200876935526827e-01 4.572502662421663588e-01
-1.543351062309696042e-02 -1.221422731771225623e-01 5.317314573817810697e-01
-4.326437979155133007e-02 -1.159155423305546356e-01 5.263586760807903442e-01
-1.150501816787663847e-02 -1.072021072460426355e-01 4.641555697391570590e-01
-4.469632253889366247e-02 -5.235982406135888945e-02 4.338052572818122399e-01
1.725044139855426081e-03 -1.160572812706226198e-01 4.777492209141077084e-01
-1.060192388508656575e-02 -1.242104089065110689e-01 5.119453287611934744e-01
-3.970275679563829707e-02 -1.175538034285262823e-01 5.132566378429412879e-01
-2.152470007562486479e-02 -1.212809012658806612e-01 5.218443930805147790e-01
-2.521879091880605342e-02 -1.203934390738041899e-01 5.209100372379321664e-01
-6.006822264782945425e-02 -7.050530580914481094e-02 4.273241430872605218e-01
-6.081373470438333068e-02 -1.068316450743942020e-01 4.545751265308980993e-01
-2.101924601149502553e-02 -1.216783838693184239e-01 5.142543777976189556e-01
-3.354562438574693745e-02 -6.636595393880717619e-02 4.357561207722723817e-01
-4.468281775639328796e-02 -3.374055425311315443e-02 4.349893568486133399e-01
-4.723070229782438956e-02 -1.030385771100112147e-01 4.523095457525312391e-01
-5.457225188345904421e-02 -4.531940976705835233e-02 4.370177840548301051e-01
-1.864078676029859612e-04 -1.207426446876644494e-01 4.893865740284146226e-01
-2.230016062158361040e-02 -1.159605025213158863e-01 4.861480936575949818e-01
-6.541902161525982307e-02 -1.054004990928258667e-01 4.424466891841525862e-01
-5.584253276216562950e-02 -1.051037363430592925e-01 4.499338784620074416e-01
-3.779456864552737522e-02 -1.070187255029211443e-01 4.659242669787015956e-01
-3.912967537437200133e-02 -6.488935785014066093e-02 4.336215329165046262e-01
1.165063884769851170e-04 -1.134839940739350156e-01 4.732651878265374257e-01
-2.913298787852995619e-02 -1.061759895793120689e-01 4.670329927027611072e-01
-2.753135611610185371e-02 -1.082186149098622041e-01 4.702490036213878843e-01
-1.637927247783727350e-02 -5.489746428219989538e-02 4.383461452401911096e-01
-4.004825405434836449e-02 -4.882148145225491398e-02 4.346190653045736707e-01
-9.916207693455583727e-02 -9.761600613343208999e-02 4.577308816176618445e-01
-6.528020635796537297e-02 -7.797700627011325269e-02 4.267081935642240142e-01
-1.629670464487781648e-02 -1.204933079213014596e-01 5.401666448724060654e-01
-3.616661319572805205e-02 -1.163094191353788026e-01 5.350389879250747605e-01
-6.622340373754788401e-02 -1.131269759454130441e-01 4.954464942672068273e-01
-9.461147784502781793e-03 -1.023194765810572504e-01 4.586720405847978244e-01
-3.423116458317999183e-02 -1.148022811733186432e-01 4.868398557344537081e-01
-2.599663901644539907e-02 -8.407515408182722472e-02 4.432264689326474993e-01
-9.954140215765955313e-02 -1.080796283101440602e-01 4.841035742055647684e-01
-6.152730618334425333e-02 -7.720642458597229418e-02 4.248616537888604272e-01
-5.467399486356796373e-02 -1.150506168068063245e-01 5.067791272238335587e-01
-9.005914274962933952e-02 -8.915187945366907785e-02 4.479746134303718152e-01
-9.199293776756366225e-02 -1.097176054591635780e-01 4.957970510021123545e-01
-8.989672190941054575e-02 -1.071604454075674451e-01 4.635300722156149300e-01
7.999082541842219771e-03 -1.225403847822884029e-01 4.968457077189956661e-01
-1.415047423722337258e-02 -1.234031282154616077e-01 5.206914367673105559e-01
-9.369827229955166037e-02 -9.126828838600517524e-02 4.517468377657528622e-01
-6.742415627011243140e-02 -9.785636661346694409e-02 4.210140088963839622e-01
-1.999676772978328798e-02 -4.678859924575327206e-02 4.386985648778694569e-01
-4.147173018894435154e-02 -5.642544135323070836e-02 4.333753136335740108e-01
-9.617575417159081319e-02 -1.002032554749838905e-01 4.544162689590957593e-01
-1.078090896970335666e-01 -1.040787728494361464e-01 4.802730915122990218e-01
-4.064923247455127370e-02 -1.098978755117835521e-01 4.723694754376484561e-01
-4.266548473483502968e-02 -5.678680618885766085e-02 4.329586586222494149e-01
-3.439153719340847654e-02 -1.185391815994613907e-01 5.168862311212121252e-01
-4.208900677900303394e-02 -1.155357761176259573e-01 5.303535377668875395e-01
-8.264934748406763121e-02 -9.792926831529806531e-02 4.382668720828933329e-01
-3.300598045106499512e-02 -1.182632220587691713e-01 5.249836787205557354e-01
-2.451260420373216342e-02 -1.199554975000793750e-01 5.025963225329995732e-01
-1.062635506012920075e-02 -8.701361174537562693e-02 4.470026958623339319e-01
-8.556052428461276282e-02 -1.087019505530811975e-01 4.663938704733927021e-01
-1.988842379000711758e-02 -6.201128013524161847e-02 4.384822263314978597e-01
-6.977793561297007500e-04 -1.260819592383386201e-01 5.117538435779964701e-01
-6.941911049172547199e-02 -1.129565690443095766e-01 5.018579486708475423e-01
-3.591714274883855453e-03 -8.985378914971292597e-02 4.499000587809556251e-01
-5.560945602445785396e-02 -7.055284090792945939e-02 4.262476991951750782e-01
-7.474727071253128852e-02 -1.019621286536332300e-01 4.320328030073751768e-01
-1.019354536069337486e-01 -1.052154765490041638e-01 4.683907519492807592e-01
-3.318687783366357225e-02 -8.435267765414479479e-02 4.412206956201195629e-01
-9.469501545143382826e-02 -8.517477505281247085e-02 4.596107917107439822e-01
-4.810621613937847776e-03 -9.379950364902933657e-02 4.521198174521273705e-01
-3.053885461765619772e-02 -8.905795906723228128e-02 4.449909980305601920e-01
-7.269296595692578689e-02 -9.626960338560307251e-02 4.228963138522078280e-01
-7.247087325587656115e-02 -1.098769526811058800e-01 4.687421304977182901e-01
-4.163603198273871375e-02 -1.150454658865829871e-01 4.907768912273471895e-01
-1.749638041289814858e-02 -9.952963064785705360e-02 4.569304975367454169e-01
-5.467356693344892389e-03 -1.242028328896985501e-01 5.034137088638855895e-01
-3.681493525981308773e-02 -1.172375861222558352e-01 5.272869505569125481e-01
-5.052750956060665655e-02 -1.108190369700098182e-01 4.723175892930437381e-01
6.746469224780633073e-03 -1.266332453536274383e-01 5.159232672720057700e-01
-8.143871721098014382e-02 -1.112377660823496150e-01 4.982885532197817713e-01
-7.236247853061347768e-02 -9.484722359438627071e-02 4.221342801069449813e-01
1.216673199474985548e-02 -1.260455310654057803e-01 5.182003131322683309e-01
-9.183915572312631448e-02 -9.029415892772253704e-02 4.498847596831492268e-01
-6.101956860050843090e-02 -1.068110180258209502e-01 4.544030922143490470e-01
1.192473231552862618e-02 -1.263807747384703140e-01 5.224576817473516321e-01
-8.237443858635604133e-02 -1.072575389526344292e-01 5.183288396401242171e-01
8.995185454263509781e-04 -1.225231085253434549e-01 4.951810958152721431e-01
-1.071122413206597596e-01 -1.041187975570605495e-01 5.002824570407697902e-01
-7.337631071842059052e-03 -1.202835608726959549e-01 4.890988167058813452e-01
-5.692786336756971294e-02 -1.147086491099688355e-01 5.056565887256868619e-01
1.493111131358860295e-03 -1.268942214759432585e-01 5.206163994713651766e-01
-6.794861141046065756e-02 -1.033430580327344972e-01 4.299607154771030171e-01
-1.467244113224169463e-02 -1.220258697093027228e-01 5.345781973574572632e-01
-9.849361190205775662e-02 -1.081827927789977273e-01 4.944484870876781901e-01
-9.299197096486294667e-02 -1.066841097685570644e-01 5.093092063514502721e-01
-5.993763493920080399e-02 -1.043456563123288522e-01 4.343921705994706062e-01
-5.177997393015078276e-02 -1.126112333182501535e-01 4.815787991003362412e-01
-5.427385387046147064e-02 -1.113670437720219869e-01 4.739785489774281935e-01
-3.368780132374239039e-02 -1.060543961955422304e-01 4.656625607202892758e-01
-1.976884961875300870e-02 -1.218204993626045285e-01 5.213045509517488796e-01
-7.056154190793811898e-02 -1.077671795102328745e-01 4.585150190165703799e-01
-6.568312546783156014e-02 -1.065320403609089639e-01 4.526687925170494453e-01
-4.865437716237157317e-02 -9.409908312814263542e-02 4.310632056749306162e-01
-4.106681345566135649e-02 -9.852101419541686722e-02 4.495737087665233056e-01
1.885086493723731396e-04 -8.674603505695835381e-02 4.487136884440010576e-01
-4.383544970136332708e-02 -1.166401444094955359e-01 5.184912313894246561e-01
-4.144556927854987916e-02 -1.159004176369128891e-01 4.943230250401477455e-01
-3.384150467286392572e-02 -1.178226286844517856e-01 4.998918536375076549e-01
-3.999573104210087104e-02 -8.715806881237232739e-02 4.392134577993606626e-01
-5.922892406772253815e-02 -8.365938685834617417e-02 4.233079283601646758e-01
-8.455480499823753160e-02 -1.099097640838239826e-01 5.048886857735336298e-01
-2.788782915733566299e-03 -1.261269682066066267e-01 5.228567088135619434e-01
-5.293402397351035238e-02 -1.071252145331995920e-01 4.593837391604014830e-01
-1.042155337631900935e-01 -9.956048350917717782e-02 4.622517491554935520e-01
-3.958308146327681187e-02 -1.025809193259479418e-01 4.570988193179725267e-01
-7.378428560760164068e-02 -1.121213116797143278e-01 5.067677287007537057e-01
-6.435380670517662320e-03 -1.244091814394867046e-01 5.055833295386065185e-01
-9.591443759749233855e-02 -1.021187312087259713e-01 4.556451438301765688e-01
-5.946338378412598796e-02 -1.143526351222042270e-01 5.048848723101647673e-01
-8.845061695890142628e-02 -1.098380612992776867e-01 4.989563154522984600e-01
-3.198349795248478511e-02 -1.189822058412314115e-01 5.173345378330322930e-01
-7.305773625465989546e-03 -8.545923597076093836e-02 4.469018208654556568e-01
-1.795744284361776993e-02 -4.163409355973831522e-02 4.384929635444088092e-01
-1.003112420154726736e-01 -9.923422802831934064e-02 4.593856449807963149e-01
-8.470008621920790959e-02 -1.018499017023470204e-01 4.447796421434653813e-01
-9.606250134736529778e-02 -1.072799260271401489e-01 4.695873809453638414e-01
-1.444331884697912065e-02 -1.200022898626860318e-01 4.915416986623493134e-01
-3.699926758688277389e-02 -7.414572953235626374e-02 4.348318731003378845e-01
-3.191719056830141094e-02 -7.991044724481112527e-02 4.394838249213894321e-01
-8.403693360535254009e-02 -9.590760829103631147e-02 4.390517890701295944e-01
-1.094217029124765206e-01 -1.033261375586753544e-01 4.860380048053347668e-01
-4.681215895701879015e-02 -8.038474277055561446e-02 4.295727371915492587e-01
-6.609191933457718438e-02 -7.689998178970551546e-02 4.277388902952261041e-01
-1.577279280333172135e-02 -4.871663587966194864e-02 4.384233868571767445e-01
-3.494443481359418846e-02 -1.122929727285325863e-01 4.792878493240248505e-01
-1.023545430419356972e-01 -9.092618968347808417e-02 4.648349801021359196e-01
-2.914645740401297300e-02 -6.536501378066003620e-02 4.369381522307264065e-01
-4.724538263390725551e-02 -7.401385821828770917e-02 4.291458970365385484e-01
-5.189376918160572283e-02 -1.154951851286109138e-01 5.085575712743304333e-01
-7.157207940387105838e-02 -1.125145100225398154e-01 5.059061753467527511e-01
-3.056253966777279854e-03 -9.144497072709659169e-02 4.508316158229110915e-01
-6.200705195001334630e-02 -1.073893507610854808e-01 4.567721059032620601e-01
-6.293326519513074702e-02 -1.138953311300165000e-01 5.068466253246542985e-01
-1.937329016324344788e-02 -9.418813204576462206e-02 4.513162420831431931e-01
-2.297257060612213977e-02 -1.179152472560496406e-01 4.930836638537891004e-01
-5.345806503087632139e-04 -1.265386838994217167e-01 5.229837684496947414e-01
-4.834349925688478933e-03 -9.380966290210565606e-02 4.521231898960993423e-01
-1.047103569295185915e-01 -9.402231219671515483e-02 4.653937381023253717e-01
-6.417247230324811536e-02 -1.046734467706661731e-01 4.324193651732355370e-01
-1.125782403299599999e-01 -9.809676778031609090e-02 4.805398079338336070e-01
-3.970812530654966449e-02 -1.076345692441969953e-01 4.660897622142006202e-01
-7.552466731569409952e-02 -8.911569089227214246e-02 4.252831917797743055e-01
-4.195784267625789904e-02 -7.880596767600075991e-02 4.333321453955453761e-01
-3.659327091247342734e-02 -1.101792200134793093e-01 4.737252883067487597e-01
3.385431722267563844e-03 -1.149853666452714529e-01 4.762037223025572530e-01
-1.061568760505968989e-01 -1.059167217380553722e-01 4.853602281055365841e-01
-3.456054273939397625e-02 -5.611375066156011615e-02 4.354514328181986471e-01
-2.798832474531961351e-02 -1.190663795011519949e-01 5.284178828229897373e-01
-3.385833709394388269e-02 -1.182088544551594123e-01 5.236037744723766041e-01
-1.323198606502059421e-02 -9.604800187727191574e-02 4.529821696956406463e-01
-9.170830437394608681e-02 -9.987783732341186382e-02 4.514283429204319353e-01
-4.899685317857648686e-02 -8.845615750074863060e-02 4.281944753111410207e-01
-3.348970868873073908e-02 -1.065506077818251796e-01 4.665469321047726048e-01
-6.822276396178535152e-02 -1.026891142705145671e-01 4.265410538060987466e-01
-3.882887685546471818e-02 -1.173280481441238698e-01 5.222900614961972776e-01
-6.573991278911578418e-02 -1.100366023129984716e-01 4.686839564049108398e-01
-8.945340253052677659e-02 -1.102589234675210444e-01 4.932455659367373513e-01
-2.726900946352366767e-02 -9.801007507213056746e-02 4.555549353672038171e-01
-1.298131206043038298e-02 -7.766712549055536374e-02 4.427863323544833363e-01
-9.494051200475404906e-02 -1.092414739941306862e-01 4.868610074331804483e-01
-6.213782620718475563e-02 -1.126158475217824695e-01 5.223327676332094605e-01
-1.085657194616591187e-01 -1.011778146385774874e-01 4.749016472898360819e-01
-5.172141343283411657e-02 -3.778226103569078120e-02 4.372921466292672421e-01
-5.081813050850562258e-02 -1.141816818171841885e-01 5.268079404285993528e-01
-3.770681615367169059e-02 -1.162952162567203879e-01 5.329132634209252650e-01
-1.082564422427277628e-02 -1.153569544279438031e-01 4.775350211285034341e-01
-2.764311969412212855e-02 -1.199097369782888695e-01 5.186252950521417215e-01
-3.827209328925462728e-02 -1.175983128802226690e-01 5.047609019395724594e-01
-5.573249701607846385e-02 -1.147272304858114461e-01 4.996212563283830010e-01
-9.401565117788578119e-02 -1.093583842505048837e-01 4.824422473739493622e-01
-7.523348828792100762e-02 -1.122324333724359219e-01 5.000772152056771613e-01
-2.593307575447021882e-02 -6.296507448284335839e-02 4.374323325806043217e-01
-5.394235776121444892e-02 -4.667002311617386712e-02 4.355253848864541477e-01
-3.526607971695260718e-02 -1.155908319831513570e-01 4.902795063910974083e-01
-7.731335693639443396e-02 -1.084937228777302087e-01 4.626195396108009894e-01
-7.285407684868477896e-02 -1.042702552462245608e-01 4.409629521031926958e-01
-4.702382436118580922e-02 -1.083263449026441311e-01 4.643298302232138353e-01
-5.900707883721420521e-02 -1.043226138651006107e-01 4.278667067262345580e-01
-5.252698984991181069e-02 -8.413401211648008360e-02 4.252336717453027437e-01
-8.634734150844519673e-02 -1.078453893841587186e-01 5.123938969399398635e-01
-8.497686363592455577e-03 -1.241501568897870889e-01 5.065373135340111022e-01
-4.202357056940166091e-02 -1.036663450717755508e-01 4.573767085276118638e-01
-5.445074301585234311e-02 -9.265113424603173276e-02 4.237723421230725207e-01
-6.199624877701266634e-02 -9.674452556532291136e-02 4.218376580620534777e-01
-8.396753616768812267e-02 -1.048114085083525215e-01 4.521855455813477143e-01
8.998572224625087448e-03 -1.266013598992872802e-01 5.192396926473488161e-01
-3.740242051506929150e-02 -1.171084112139295502e-01 5.273539647380158790e-01
-7.806628996698915246e-02 -1.115141592852023772e-01 5.029500894940562850e-01
-7.627402143994567452e-02 -9.412059757745952493e-02 4.255715808798408162e-01
-2.285267795135152713e-02 -9.131214065410651892e-02 4.487677046137457104e-01
-1.266979460279898245e-02 -1.200719994974707994e-01 4.905015694996048836e-01
5.605204827650902590e-03 -1.249696988433465911e-01 5.050586728486430310e-01
-7.074248086289681992e-02 -1.067469432248625699e-01 4.542167684952028162e-01
-4.041694893991457788e-02 -1.172076656981166920e-01 5.197995354657989342e-01
-4.575352856934931933e-02 -8.136633527802769605e-02 4.305115606250027316e-01
-4.240841133782928540e-02 -1.153333662568824247e-01 5.311404735533608035e-01
-6.016652887862607851e-02 -1.136262749991158588e-01 4.925679075236428228e-01
-3.574504969011511879e-02 -1.183301391617468667e-01 5.126885649665126055e-01
-7.198985553438744245e-03 -1.249437263357973948e-01 5.110441459159036359e-01
-5.896361230442720425e-02 -5.986380763740307281e-02 4.329963909285242663e-01
-4.327120488587915190e-03 -8.707387940581502728e-02 4.483164682984014937e-01
-7.127138842483297931e-02 -9.899574219401678643e-02 4.241052746849092170e-01
5.662439052050322399e-03 -1.243040847580978159e-01 5.020972611797045460e-01
-4.152784498489654752e-02 -3.017827858766502017e-02 4.355108838623416578e-01
-3.072335766075811464e-02 -1.184577759644024064e-01 5.279592884360484462e-01
-3.215309565647465895e-02 -1.179548691408642547e-01 5.296866802332763635e-01
-9.122959512659446768e-02 -8.632312939197395174e-02 4.525968379202802705e-01
-1.057933163665289861e-01 -9.254230473585547956e-02 4.685657132367313515e-01
-1.709000158496532321e-02 -1.155270578050527214e-01 4.820411288443989251e-01
-1.735336981762070768e-02 -1.217160766284745427e-01 5.040969748957196961e-01
-5.366521376541314586e-02 -4.248906349284030382e-02 4.370532717839806791e-01
-7.949406242123402411e-02 -1.109943036843066139e-01 4.778587311542761840e-01
-8.180319026077030597e-02 -1.099613130794313970e-01 5.084314648550060101e-01
-6.039275504306893666e-02 -1.117036946539884668e-01 4.761697815056412653e-01
-9.236726503648284847e-02 -9.332025092684359535e-02 4.496023983835827909e-01
-4.239839290037004937e-02 -1.109051693311739750e-01 4.757686351868772312e-01
-4.394394862186914996e-02 -8.842955607431865483e-02 4.355691773445440895e-01
-2.196436618780894454e-02 -1.209919720550181182e-01 5.057876214266932013e-01
-3.070552828939819914e-02 -1.104971150136906111e-01 4.746558123797813278e-01
-3.251089570779956001e-02 -5.445479146207744120e-02 4.357986726467764083e-01
-7.060100634812116471e-02 -1.099572247570504702e-01 4.688113586849183001e-01
-3.274431816008023521e-02 -6.536537032871639341e-02 4.360605365289215718e-01
-1.731140276577756293e-02 -1.001493035852116936e-01 4.574911759532767075e-01
-3.065916122293986697e-03 -7.944738786476789050e-02 4.451708047927339096e-01
-9.166376090757602513e-02 -1.000536775796299627e-01 4.515914421190146411e-01
-6.265188733855134307e-02 -1.139387930587908715e-01 5.076862620667164094e-01
-3.654884571829643963e-02 -1.117177001761770205e-01 4.781144920731604242e-01
-1.014328972396200471e-02 -8.995806440741073440e-02 4.486708163445603526e-01
-1.012476065389274621e-01 -1.064818268326670619e-01 4.736849520114369549e-01
-6.424954987087874714e-02 -1.058877905076296977e-01 4.467264730247075266e-01
-5.726449049578692663e-02 -8.567262839149818177e-02 4.229607305883761881e-01
5.536291808276548598e-04 -1.176683606487503864e-01 4.811691772793483257e-01
-9.368524147664847312e-02 -1.054143492593103137e-01 5.120739007780861218e-01
-6.750170117540910120e-02 -1.125122762578478347e-01 5.159584281549802753e-01
-2.816287944747206465e-02 -1.106690954577889685e-01 4.747897985491280615e-01
7.686393659839757617e-04 -1.262483832769024372e-01 5.108521028947993203e-01
-8.279262072842588638e-02 -1.003859592130646877e-01 4.407170786749808333e-01
-2.353096427498631380e-03 -1.200433170869474320e-01 4.870858080618525321e-01
-5.209083876386235053e-03 -1.044973138769941662e-01 4.614897644680265865e-01
-3.899211728680160305e-02 -1.174845876344941670e-01 5.052196191723327123e-01
-8.503594552250270944e-02 -1.101802391074706150e-01 5.014897898255048503e-01
-1.710202763986530539e-02 -8.165594624739024032e-02 4.435850632179659803e-01
-6.263616738144971163e-02 -1.084622953705089293e-01 4.606971731856944197e-01
-3.204606715154032642e-02 -1.175356649917179419e-01 5.338795648884437917e-01
-4.084984803490911663e-03 -1.259226428640443651e-01 5.181051281669065700e-01
-2.255555039622259700e-03 -1.256742445920641660e-01 5.094834328969061188e-01
-9.118375495203022429e-03 -1.147753068446610847e-01 4.757858899219599702e-01
2.296111740494894554e-04 -8.820493587279601422e-02 4.494656804689877161e-01
-9.677550318639920046e-02 -1.084670679613903566e-01 4.967263037150388971e-01
-3.971917740121416740e-02 -9.901213156463800624e-02 4.511459366110223135e-01
-3.494767525407570241e-02 -1.174394431880630696e-01 4.983799028556348820e-01
-5.690966005019958834e-02 -1.141772493788723447e-01 4.947091613828807355e-01
-4.008200641015735241e-03 -1.202759704144394926e-01 4.880136762046206056e-01
-4.322231001466608248e-03 -9.280403756285553196e-02 4.514749533193361253e-01
-5.165459886327873618e-02 -1.034622075678205133e-01 4.496013663485887157e-01
-3.910134444695029243e-02 -1.102779324903340463e-01 4.742920748011318355e-01
4.953103545102834765e-03 -1.236993100244466598e-01 4.996910367235397610e-01
-6.431156605757940015e-02 -8.157567278285000889e-02 4.236006243549881312e-01
-1.868641567127041214e-02 -7.931459060243289949e-02 4.424012077566546464e-01
-2.942389733781563058e-02 -5.499324508332454481e-02 4.366090058640143545e-01
-5.008848722670464215e-02 -1.046327537309417050e-01 4.537951504120901203e-01
-8.773248312638855240e-02 -1.100563071891065420e-01 4.983707438258433986e-01
-3.376526063888337509e-02 -1.155374721015912653e-01 5.413720413633502648e-01
7.720624298481283676e-03 -1.263895902721467457e-01 5.144088293903784637e-01
6.029256492673977334e-03 -1.206888682128522960e-01 4.905567009026684522e-01
-8.042202890424123007e-02 -1.109203229397049267e-01 4.776396132350057000e-01
-2.021711817989106305e-02 -1.137130392985729460e-01 4.799646487530748740e-01
-6.334439971276673020e-02 -1.033901850333707878e-01 4.226844040207337061e-01
-2.113404506370005972e-02 -1.195462018764406192e-01 5.378853171422500745e-01
-8.663375799690131718e-02 -1.107402705808090831e-01 4.858306376051007014e-01
-2.279856700603454314e-02 -9.627808066126308795e-02 4.538598732972512484e-01
-3.779943200363335143e-02 -3.721246327294398804e-02 4.352049927344713298e-01
-5.635661683924781534e-02 -5.058892295652193255e-02 4.359530821836521963e-01
-7.636384736976069981e-03 -1.144387709583715718e-01 4.749137936769637913e-01
