-8.201647025119034040e-02 -1.094011486826239887e-01 5.106687483610957701e-01
-6.465575179143172313e-02 -8.532028209360173476e-02 4.217947442104260092e-01
-1.059746235910409423e-01 -1.057720670719758532e-01 4.945271957382072481e-01
-3.776829051429086287e-02 -1.127474182185418533e-01 4.819068890462226418e-01
-5.123193651554683314e-02 -1.018176946937768279e-01 4.462427454200790233e-01
-9.000487516664153198e-02 -1.099445290673129183e-01 4.951064977526508093e-01
-4.831751661700537520e-02 -9.623643435465067952e-02 4.388792193831541066e-01
2.485697058606151436e-03 -1.262173234523506771e-01 5.104956195908156857e-01
-1.762012792632536295e-02 -1.223407088931644654e-01 5.222866377278710948e-01
-1.010689070229533158e-02 -7.436286469051044123e-02 4.422408150658588832e-01
-6.867605582128423480e-02 -8.919530760125865543e-02 4.199093326854329011e-01
-1.079769864673920665e-01 -1.030120343871831906e-01 4.773305582411381254e-01
-4.796990912497626179e-03 -1.031147097539353991e-01 4.601538439953023474e-01
-1.854946780338096596e-02 -1.059801700363879329e-01 4.643335600468917468e-01
-5.864861969014613374e-02 -1.036015322862286481e-01 4.358270980391554805e-01
-6.549196237041773547e-03 -1.122570313900509847e-01 4.711307719382539783e-01
-4.156812964550225808e-02 -1.168576243998973307e-01 5.208767041278173915e-01
-3.134769375429677374e-02 -1.063515045849348778e-01 4.669301815240705089e-01
-4.402256415034049714e-02 -9.067151870265707791e-02 4.383150231707726996e-01
-4.711303794635448433e-02 -9.331800693380919165e-02 4.354070626159526891e-01
-5.213256722032619250e-02 -1.024692198031643409e-01 4.471863328105891155e-01
-1.743362791629794392e-02 -6.780010091568665354e-02 4.397125667341728605e-01
-7.824032748564527240e-02 -1.078268190987365649e-01 4.608080539794209285e-01
-7.469798996670534708e-02 -1.099867719473519162e-01 5.185675558726221546e-01
-6.653730719558755002e-02 -1.117820395612153517e-01 4.810513398603145641e-01
-5.673409364410481048e-02 -9.103631890612248756e-02 4.220365134745894253e-01
-1.128656648528776792e-02 -1.223005507842449269e-01 4.986032102139505429e-01
-5.749567954831999450e-02 -1.129986428312544366e-01 4.856660527570479391e-01
-7.223161516271518756e-02 -1.124134138574537783e-01 4.979851364136863578e-01
-2.883082722881473436e-02 -7.924937939905296602e-02 4.402467592457835477e-01
-2.255382790816780683e-02 -6.883313366448051696e-02 4.388692674567634122e-01
-8.783297705568042513e-02 -1.080555620550728846e-01 5.093529957101594619e-01
-7.559793818891361039e-02 -1.115312808657267646e-01 4.840579405652289946e-01
-6.862454297832856764e-02 -1.009120191324327231e-01 4.235814249945552556e-01
-4.352378656432902976e-02 -1.165966630271985938e-01 5.040642462373560173e-01
-4.743387386482324219e-02 -9.557446276505490723e-02 4.400040366819272242e-01
-4.168629386397402353e-02 -5.855275317610861979e-02 4.330496788291913202e-01
-1.292100007172176067e-02 -8.657026410104913527e-02 4.465444784280673263e-01
-7.586115626412309743e-02 -1.113344452950249114e-01 5.092039344875960438e-01
-9.473595788222401171e-02 -9.298160924675931416e-02 4.523200619742646089e-01
-7.087488444924963660e-02 -1.110843931496180576e-01 4.770971427405903964e-01
-4.619142850777133852e-02 -1.090694216739859224e-01 4.672661288933877555e-01
2.576569568890125887e-03 -8.575112609422297361e-02 4.484295150099149030e-01
-2.766495307277349117e-02 -1.186869850324398373e-01 5.326533637228241247e-01
-5.803416625768573200e-02 -1.125995675584704203e-01 5.263882202163471247e-01
-1.957056346414831616e-02 -1.211663186434056294e-01 5.291112140817321174e-01
-5.561632108217658826e-02 -6.058581550025247953e-02 4.302184075494520643e-01
-9.660346018205340224e-02 -1.072279864136740091e-01 4.705062563542334875e-01
-4.363017201764950170e-02 -8.075094255491530038e-02 4.325007954467666171e-01
-8.353485419856387928e-02 -1.100680710043576566e-01 5.045098665937949312e-01
-1.043642212174899497e-01 -1.056815466709793150e-01 4.783032940802772748e-01
-5.418760368219766033e-02 -1.151233210805017865e-01 5.107899321959256111e-01
-5.937250437532860456e-03 -1.255360160818990989e-01 5.195002638707031384e-01
-1.283202350730337782e-02 -6.462475979800433312e-02 4.396169539676945681e-01
-2.229564261083053899e-04 -1.253440783236305367e-01 5.066092405744526683e-01
-8.059114318178454972e-03 -1.035276538438475724e-01 4.600110984025029270e-01
-6.093291908747042185e-02 -1.141198091992644548e-01 5.104809477058396272e-01
-1.937408372983333640e-02 -1.126335898941068364e-01 4.767917693871489559e-01
-1.128601239744874557e-01 -9.758177082017686910e-02 4.817314454730482476e-01
-7.887554105431332507e-02 -9.331693084544528949e-02 4.286579677998624271e-01
-5.588974767014067563e-02 -1.146874041305619429e-01 5.158368866793746621e-01
-1.361861815415920524e-02 -1.147586202339776901e-01 4.779835719310639996e-01
-1.085056139389398572e-01 -1.045393903171604050e-01 4.925184647344613698e-01
-2.907434025763085475e-02 -8.054419255376872588e-02 4.408110146488344872e-01
-4.892420208413608695e-02 -1.056057250417848370e-01 4.574526446734056839e-01
-5.681578706541721979e-02 -1.147119747715973637e-01 5.085042041280629643e-01
-5.830420804224672321e-02 -1.083742470047224793e-01 4.620855252007738945e-01
-5.470397490603605417e-02 -6.845168671372815761e-02 4.271058358487910822e-01
-9.739742711263912889e-02 -1.012235773049551119e-01 4.569566787720342194e-01
-5.443465659659835199e-02 -1.022257806148017811e-01 4.311635409399494634e-01
-8.531171411282900685e-02 -8.915508465600201216e-02 4.411133053185024022e-01
-2.414774487653303936e-02 -1.197303174949141680e-01 5.309458092361292181e-01
-2.371318538745079661e-03 -1.072109629342064413e-01 4.645991695213919082e-01
-4.592375826561034824e-02 -1.032204248274488645e-01 4.539800182805608930e-01
-3.765498021910285847e-02 -1.031446213106940180e-01 4.594868242118334001e-01
-4.950284854899370153e-03 -7.655920015714111349e-02 4.438326956552660074e-01
-3.966641249082804993e-02 -4.291139334667291166e-02 4.347469251570745818e-01
-1.085977633502888534e-01 -1.040074963099257427e-01 4.868399040085059637e-01
-7.404189715967447738e-02 -1.121555127729082502e-01 4.960919926910097866e-01
-2.097489821936767904e-02 -1.202642406992750213e-01 5.002042904997753281e-01
-5.454468433672293032e-02 -4.047946096132620103e-02 4.407616021448941823e-01
-1.017901859719822638e-01 -1.073803787278356930e-01 4.881025917850775886e-01
-9.653466977846737046e-03 -6.528955086073674752e-02 4.398985547976172472e-01
-9.295401994035600024e-02 -1.074105347810918598e-01 4.674875697543767750e-01
-1.027579247848529193e-01 -1.048527705453172476e-01 4.686839533226473953e-01
-3.799057462316578898e-02 -1.162859258482497882e-01 4.945848453227548180e-01
-1.388488012162132981e-02 -1.182064548078123195e-01 4.858051317107123790e-01
-2.785971407235408523e-03 -1.224483658084151994e-01 4.950711986768058792e-01
-4.339287023700395124e-02 -9.683319720561375799e-02 4.460129948401055922e-01
-5.374169545149569405e-02 -1.138181691270682278e-01 4.894730363264497841e-01
-4.946901974972567340e-02 -8.810130120154954780e-02 4.279398173545467254e-01
-7.658406390643975048e-02 -1.068188377770233344e-01 5.259640421227382845e-01
-2.345042620440652287e-02 -1.190946849455648687e-01 5.370912813792240170e-01
-4.965573003969996763e-02 -5.797904934754191664e-02 4.315351539463025965e-01
-2.003482402986569901e-03 -8.740200415526426514e-02 4.488764088709201738e-01
-6.315481213680743111e-02 -1.065727473268550524e-01 4.537705785872402364e-01
-6.407362777967605394e-02 -1.130953603978550881e-01 5.168476922340181634e-01
-4.326059157470120431e-02 -7.603793663675408043e-02 4.323858323794020353e-01
-3.260857338507566067e-02 -1.170442426333637292e-01 5.355471397681732526e-01
-2.510519506882362764e-02 -1.149722987065481122e-01 4.848495809289353198e-01
-4.558911028772898166e-02 -4.390771596675469013e-02 4.344992541199967362e-01
-4.092610456447245276e-02 -7.938458989931683474e-02 4.343715780509407320e-01
-2.835329831133191064e-03 -1.250177880661717533e-01 5.323860831365311297e-01
-4.924608303885818356e-02 -9.582777843429016174e-02 4.344666730380357111e-01
-2.344719686710810755e-02 -1.206773286649351629e-01 5.226392858150205045e-01
-8.036117306273257710e-02 -1.075882648876379244e-01 5.198990211186309551e-01
-2.208864387301056470e-02 -6.943014084332678471e-02 4.391058311164886541e-01
-5.445342091668373130e-02 -1.148813109191533371e-01 5.016377465611688846e-01
-9.584216825162732156e-02 -1.088928373332622435e-01 4.884304260160683420e-01
-2.438503298250126877e-02 -1.201371255686705108e-01 5.261573672277276570e-01
-5.670376672219597930e-02 -1.066184194992086387e-01 4.565176059883631621e-01
-4.585539417378285687e-02 -2.946181524927566145e-02 4.358421565110693341e-01
-5.437591217045766728e-02 -1.110050231395611625e-01 5.338389057852469533e-01
-1.099534057049703084e-01 -9.719403519332660280e-02 4.745774201801861714e-01
-4.687688404030309480e-02 -8.676851580345562587e-02 4.301893171191189524e-01
-4.134305895611315590e-02 -8.884164538791292087e-02 4.400914770150622934e-01
-1.370105691613322622e-02 -1.222303131198605869e-01 5.013314496753412675e-01
-7.222828470314793248e-02 -1.019524273638185569e-01 4.297835405463540370e-01
-6.403074464581236247e-02 -1.082988761214253026e-01 4.607981551998968084e-01
-5.979408963013191358e-02 -1.039432173779057250e-01 4.261753372328399014e-01
-6.025865200512878217e-02 -1.043301716354793213e-01 4.422642645352988788e-01
-4.347012134466776007e-02 -4.133235498640193406e-02 4.346913118280518740e-01
9.417868119627531218e-03 -1.266188364333962479e-01 5.209155257661534089e-01
-5.118464704810102989e-02 -8.518509365635792974e-02 4.264659621434760406e-01
-4.352856263417735627e-02 -1.165876838319065134e-01 5.193804884025815527e-01
-4.528961700422049624e-02 -1.022475905452318590e-01 4.526240778141232268e-01
-5.932928941520743821e-02 -1.142101245541684712e-01 5.014343475779144965e-01
-5.661047657215220394e-03 -9.271793459156667250e-02 4.511545541080765886e-01
-4.760052730674230181e-02 -1.143468089642676877e-01 5.296025782645455982e-01
-8.322063857728514980e-02 -1.110951052006363543e-01 4.842647530344134088e-01
-7.478176446062463623e-02 -1.118211675758377238e-01 5.067970252375091356e-01
-8.884892451292535076e-02 -1.093052014781961956e-01 5.016208336597320905e-01
-1.233269397637730240e-02 -1.225884920659211091e-01 5.346615058609729410e-01
-6.635486432840020932e-02 -8.508801600445502211e-02 4.216026099828981133e-01
-9.055581082966342177e-02 -1.003772280189411115e-01 4.505371923623485708e-01
-4.281167634985839909e-02 -1.108668648013098890e-01 4.759198038618840942e-01
-3.619676190702946633e-02 -7.681871578060424366e-02 4.364206027753895212e-01
-3.759584518250797674e-02 -4.907053507400635506e-02 4.349645563525610381e-01
-7.693868869641876107e-02 -1.114880589603882421e-01 4.849926363734253787e-01
-5.964339979259816737e-02 -1.143035823272029045e-01 5.132140659846725628e-01
-8.460294278616144192e-03 -8.529731454276005820e-02 4.466364808559001309e-01
-9.026755104664219154e-02 -1.099543120832240095e-01 4.840898874426787235e-01
-4.659043044514325771e-02 -9.760151434195639408e-02 4.439419686939093945e-01
9.424642231942045867e-03 -1.265612878538829311e-01 5.311404906822906336e-01
-6.205176381317045742e-02 -1.129446929820736162e-01 4.888756584294228213e-01
-1.992731979653041691e-02 -7.025857649981911979e-02 4.397264746611915243e-01
-1.784878577788247961e-02 -4.374100138216922840e-02 4.385681980018237280e-01
-1.091736256805116295e-01 -1.024317439762933019e-01 5.015887086999100131e-01
-1.535919954988631923e-02 -7.072047171887387018e-02 4.405535522066293952e-01
-9.209261708926012868e-02 -8.806207583852597442e-02 4.521806957793622628e-01
-5.698436666554586305e-02 -1.077170725893100978e-01 4.598429560643411129e-01
-5.514483060775594164e-02 -1.149749665332119447e-01 5.134408595280772758e-01
-4.885809914814153755e-04 -1.247447654127210592e-01 5.351693062130543632e-01
-2.288035941297352979e-02 -9.628256990811576155e-02 4.539211683344414050e-01
-8.159136297817416728e-02 -1.077883603158003578e-01 5.174340273132918000e-01
7.352941749791322770e-03 -1.228970726536774000e-01 4.978653802250295746e-01
-8.932809483902776461e-04 -1.261034677547061833e-01 5.124049811928674814e-01
-3.455221933857011152e-02 -1.182317435417724050e-01 5.043809366248170889e-01
-5.196829616968782345e-02 -9.912890883157528255e-02 4.325912253986309297e-01
-2.083683125645067330e-02 -4.220685402454465301e-02 4.388926093471293699e-01
-1.629496583268646298e-02 -1.225786848857979977e-01 5.083717445604158947e-01
-2.746025021472919478e-02 -3.756299243955571465e-02 4.381103715602222559e-01
1.353217646740309879e-02 -1.255152877824665947e-01 5.369441796589728977e-01
-2.183582772938611610e-02 -6.233481929439561170e-02 4.381497325818559108e-01
-6.783247972677854121e-02 -1.130750556764239662e-01 5.016679481899742887e-01
-1.452942080148929109e-02 -1.232485961897849119e-01 5.218591303437547513e-01
6.859731406901146446e-03 -1.267429137970476627e-01 5.172172781623607385e-01
-5.310797954915046776e-02 -1.011596658737770327e-01 4.434654510441169428e-01
-1.460337555244295947e-02 -9.720925813925160308e-02 4.540672000758368410e-01
-8.095180369829353684e-02 -1.073859146813032767e-01 5.197288568382378848e-01
-1.676390577111718308e-02 -1.078462357410621270e-01 4.664674326464107734e-01
-5.382775839802092510e-02 -1.130028822234698527e-01 5.286030077342828148e-01
-2.910846146292185577e-02 -1.179557393506886070e-01 4.966102421770273168e-01
-6.811258858973308350e-02 -1.061527772927400998e-01 4.515767874679486038e-01
-3.037485474641477522e-04 -1.083610528036097476e-01 4.660769067105361430e-01
-4.383850641669732179e-02 -1.162156669365374262e-01 4.976424527139831078e-01
-3.516082259315913422e-02 -1.136056740695702144e-01 4.835663814822711015e-01
-2.650842710094401117e-02 -1.020549423133659261e-01 4.610918175039988021e-01
-7.742072761484820875e-02 -1.075749164597856466e-01 4.596015728890312513e-01
-3.660908092594655772e-02 -1.152678028136502747e-01 4.898471343225480057e-01
-1.310583676554107763e-02 -1.217965918578444440e-01 5.378281530213484540e-01
-6.468151655621358354e-02 -1.040408849029711563e-01 4.299758835866435147e-01
-4.810655277169894467e-02 -7.624881971171496020e-02 4.285708813132320660e-01
-1.403621670547462556e-02 -1.188662830989495739e-01 4.874579150013325646e-01
-7.587282468085274068e-02 -1.067790896364051861e-01 5.267264388508706707e-01
-3.394850396040174217e-02 -1.157801907099039740e-01 5.402082377735785146e-01
2.305801412224929656e-03 -9.066045760270825815e-02 4.511211781181574398e-01
-9.927414602933844201e-02 -1.060682223949001440e-01 4.686367820635551906e-01
-8.151848245356944911e-02 -1.112470737880973393e-01 4.907790044043654487e-01
-7.182431763278064596e-02 -1.095323483730806235e-01 4.674667518643562669e-01
-2.378006495254926175e-02 -1.208569399429259700e-01 5.111770657212785229e-01
-7.420896987519791377e-02 -1.087117060364612281e-01 5.235945642423008861e-01
-4.690200662657673797e-02 -1.142211886483280731e-01 4.896299066491342500e-01
-8.285994622108605601e-03 -1.247178137840175838e-01 5.114753242664705768e-01
-2.289421253583820773e-02 -5.218034175122327617e-02 4.381062464647080823e-01
-8.990330670352947307e-02 -9.471290380388350250e-02 4.452858841076511309e-01
-7.975242394529787060e-02 -1.022440550486014565e-01 4.407477372586764419e-01
-9.568625366256161557e-02 -1.089316625864442944e-01 4.892337806515650311e-01
-5.519477559056036771e-03 -1.236603325079113358e-01 5.347774541432311901e-01
-4.635068692955979230e-02 -7.779397328662172872e-02 4.299228649611512854e-01
-2.414106666233968579e-02 -6.325225903794079452e-02 4.378026782626099345e-01
-4.582830662128922067e-02 -9.074018830674042413e-02 4.346192821744938595e-01
-6.771993900408157518e-02 -1.032701518120189704e-01 4.301013838973862247e-01
-9.201613000598407588e-02 -1.090072913431146817e-01 4.734421785752945255e-01
5.004775488731461920e-03 -1.214405913184487401e-01 4.925928223434014042e-01
-3.793946109604496436e-02 -1.096873696850057672e-01 4.728631417373168055e-01
3.155579159202712147e-06 -1.209603287723143850e-01 4.901360977441490685e-01
-7.987384015075049692e-02 -1.113741220856939024e-01 4.961149154257490368e-01
-4.686085618778149109e-02 -1.162487334036246961e-01 5.139664950613335170e-01
-2.904232207580333472e-02 -1.196050039229831080e-01 5.108613830332141559e-01
-3.956429716951374159e-02 -1.076459656317697577e-01 4.664900624462571810e-01
-5.674160409274947581e-02 -1.047607491074180608e-01 4.482187684361053637e-01
-2.039908974634515454e-02 -1.151140549654525863e-01 4.830340469049857477e-01
-8.669188432280482137e-02 -1.062109328074836573e-01 5.159721655604900814e-01
-1.689969182988381932e-02 -1.216884183574583889e-01 5.319619537351462091e-01
-3.075838349327006047e-02 -1.050683867275247207e-01 4.649526328234964700e-01
-4.720002117818599546e-02 -1.145879016785824045e-01 5.287391403056695971e-01
-4.211752245910876935e-02 -1.148559713085098161e-01 4.904207582576463054e-01
-1.170711294216915214e-02 -1.164942170563723622e-01 4.805412395178724205e-01
-1.766846679727743230e-02 -5.817807546131435747e-02 4.383247324239034071e-01
-1.938972031783397706e-02 -1.002460823441147508e-01 4.580964153646902015e-01
-8.716539616374810451e-02 -1.065345624831422339e-01 4.593070884375055063e-01
-1.263179648757242236e-02 -6.987903628841971027e-02 4.407394044818508383e-01
-4.333357723595825800e-02 -9.593106446875283855e-02 4.450966265914471642e-01
-4.365529934398235112e-02 -1.153770478227282154e-01 4.931118703083411936e-01
-4.959719604932270182e-02 -1.024182185429043518e-01 4.493017792789325560e-01
-5.190252577326259081e-02 -3.516069409617386676e-02 4.381195833881686430e-01
-1.040021062830444841e-02 -1.040465251206039998e-01 4.605164369415424286e-01
-2.010676247303081615e-02 -1.145964184215338966e-01 4.818344151618912385e-01
-5.226163870763537306e-02 -3.745834795941347523e-02 4.375547726823224015e-01
4.852215097078301127e-03 -1.226592759769414009e-01 4.962088143157913911e-01
-3.166522818332183353e-02 -1.141732023671660629e-01 4.840609482209213832e-01
-5.447839016717365146e-02 -9.969826196048965639e-02 4.243389188852746408e-01
-2.800446547105405609e-02 -5.703151398871204869e-02 4.367266992841376538e-01
-4.870508131727340623e-02 -4.048437146736932890e-02 4.354339934934733924e-01
-4.807255382626169499e-02 -1.144655123322343288e-01 5.283982370550488472e-01
-6.843013199101807831e-02 -1.048024049573609146e-01 4.410875306504267734e-01
1.113987339626593132e-02 -1.261565914831799251e-01 5.179230979474362950e-01
-1.438909363148173706e-02 -1.222929957960350728e-01 5.029479016599802677e-01
-1.820903720985019014e-02 -4.945871949184178773e-02 4.385404800272885706e-01
-5.990280990966893176e-02 -1.115621773227355312e-01 5.284095385447313831e-01
-1.712326838021920039e-02 -1.223636328326085931e-01 5.081832269626107568e-01
-9.409878625684466036e-03 -1.243800502063928948e-01 5.106546208699472844e-01
-7.535657465664373500e-02 -9.018698616993574280e-02 4.242549090032476933e-01
-4.460620125941905378e-02 -8.727561560331610624e-02 4.340664215472832543e-01
-5.150375395107758408e-02 -1.153278569517594970e-01 5.023153317949552443e-01
-8.672502127080813916e-02 -8.416769866761636409e-02 4.474212426787054775e-01
-9.937626462204426914e-02 -1.004281473570645816e-01 4.594486502077557710e-01
-1.350199348208537889e-02 -6.925694024528150639e-02 4.405066013910263201e-01
-5.923942177012415239e-02 -1.135151843122108178e-01 5.211790077657235676e-01
-5.106006170224330204e-02 -1.035232830604696924e-01 4.506519575477513917e-01
-9.457275093789224707e-02 -1.030066246906238964e-01 4.565517632059045705e-01
-6.538305797054666524e-02 -1.057007492881627264e-01 4.472666621393160957e-01
-8.110479246559840205e-02 -8.823275523005306986e-02 4.341645165026641329e-01
-6.206060416989442330e-02 -1.120518660016969759e-01 4.805778554007275050e-01
-6.264770580256262544e-02 -9.280582397530950933e-02 4.207134011488263270e-01
-1.666985067585979863e-02 -6.850881155986668358e-02 4.399510571422896588e-01
-1.004083808044836795e-01 -9.202252250292025648e-02 4.605589825362054190e-01
-6.733658506785940301e-02 -1.099086786853100822e-01 4.689623603592184553e-01
-5.853529604923035645e-02 -1.126954475684719681e-01 5.255311021575519437e-01
-2.937671090590812401e-03 -9.530157203717891379e-02 4.535178825278721737e-01
-5.592403078231855673e-02 -1.141758548951277569e-01 5.209975236256100262e-01
-1.761721820347405404e-03 -1.245970244046484821e-01 5.035342166541189046e-01
-7.097112646348027742e-02 -8.179731021968875138e-02 4.258428413893093345e-01
-1.569234167796165758e-02 -1.216716249368465091e-01 5.010672479601609997e-01
-3.543082318271965903e-02 -3.433481250292353543e-02 4.360771048348082157e-01
-1.093755183456707608e-01 -1.035212871952401054e-01 4.905634907272830580e-01
1.546039958709357481e-06 -1.204019737289706848e-01 4.884337339562678237e-01
3.345838895743961060e-03 -1.054222629559493779e-01 4.634707064118568365e-01
-7.698777823406513510e-03 -1.210810279823482938e-01 4.918767004164622536e-01
-3.177574509303290190e-02 -3.879231973990271420e-02 4.370367454963113296e-01
-4.214986791673055316e-02 -1.025517909670280448e-01 4.554274749248538590e-01
-7.119239436855373526e-02 -1.119044046293972139e-01 4.855383137822620321e-01
-8.124136402689315084e-02 -9.761014042757092113e-02 4.354018567961248642e-01
-8.960258524201950014e-02 -1.009515323652420415e-01 4.498935699672237942e-01
-3.035142369313914221e-02 -8.098657038006604192e-02 4.406231691691166463e-01
-7.952616128288145236e-02 -1.106980995455660449e-01 5.072377183314629168e-01
-2.876316226761476552e-02 -4.727208499693585919e-02 4.376577925516250134e-01
-9.170614549608938071e-02 -1.053900422121822195e-01 4.595902069889816755e-01
-9.061737811389669606e-02 -1.068288686975342322e-01 5.106116342834103872e-01
-9.571373070192121246e-02 -1.063273646101300235e-01 4.657302740775547401e-01
-4.713090923537537752e-02 -4.646159593379101116e-02 4.342131009192101154e-01
-1.269702187971698433e-02 -1.223187530554867425e-01 5.001969207749714652e-01
-8.077859832155399877e-03 -1.126005524097495464e-01 4.718163144246421137e-01
-4.258092519503530599e-02 -8.384372242721165047e-02 4.352500766184657643e-01
-2.271963465614948441e-02 -1.209964579321698291e-01 5.088725986534049506e-01
-9.014493226313829988e-02 -1.066782191061152740e-01 5.117289563330773561e-01
-9.694734323400777676e-02 -1.085846950074454281e-01 4.836153933983383113e-01
-3.773444195274909541e-02 -1.167369064555597163e-01 4.967823039741584012e-01
-3.681871408541482343e-02 -1.175692688536084385e-01 5.239735749320257874e-01
-5.938564602633143730e-02 -1.096680828533603963e-01 4.671504558984889699e-01
-1.147217114103923907e-02 -1.095049154315138190e-01 4.676036763172780608e-01
-9.079134695051271908e-02 -1.100134133571378792e-01 4.914123503602259579e-01
-9.169800194021632267e-02 -1.077373756291250956e-01 4.676919940179598556e-01
-3.062588163312789449e-02 -7.961739802881764860e-02 4.397905853115167685e-01
-7.469605215702175560e-02 -1.028908112679313980e-01 4.373214177878673725e-01
-5.333508640688015834e-02 -7.064365919231460622e-02 4.267992008598402442e-01
-5.729441485803409007e-02 -1.096638969940214314e-01 4.669019512356435420e-01
-9.461516745784534499e-02 -1.064329025724532057e-01 4.651378458240369995e-01
-3.423426870251478071e-02 -7.338948455025554041e-02 4.359560819339564630e-01
-6.332732789210994938e-03 -1.091257458736934333e-01 4.663802024230861432e-01
-8.421319884579574200e-02 -1.037571692672946549e-01 4.496318153685652796e-01
-1.015926281816596360e-01 -1.004231878935026162e-01 4.605044448026527903e-01
-3.486152650885090964e-02 -9.248313716351860836e-02 4.467614569758528997e-01
-1.036056070656674044e-02 -1.205093417214034845e-01 4.908748303009636271e-01
-5.143784713800288871e-02 -9.969806424492709540e-02 4.360618573547064281e-01
-1.737052764404516114e-02 -1.194676244359380718e-01 5.430230532898785434e-01
-5.700113529526169148e-02 -5.985073167711785214e-02 4.314738415960975848e-01
-7.438489005599432935e-02 -1.119452649878493328e-01 5.063293815101587159e-01
-5.644479485168046352e-03 -1.252202399329627180e-01 5.103243384003158800e-01
-7.707269602875063685e-02 -1.074662846193260440e-01 4.590879692371565568e-01
-2.621795408548073178e-02 -1.094336960139126458e-01 4.723804628123018379e-01
-7.692392531997259419e-02 -9.982735618815122280e-02 4.311901707096679748e-01
-5.538046734320101194e-02 -1.107550959836627602e-01 4.707799232736802897e-01
-6.183794226533544103e-02 -1.043593203682410542e-01 4.331894131670539494e-01
-5.629359553886495449e-02 -4.933477094944042213e-02 4.373518727497544001e-01
5.476820315513649361e-03 -1.226429274794043484e-01 4.963698473998716110e-01
-4.480372083042920284e-02 -7.749854541653602991e-02 4.311858509317743615e-01
-1.518253393328735691e-03 -1.050279969101361316e-01 4.624541241220860854e-01
-2.985276149755212299e-02 -7.050525333836139830e-02 4.373857196257572855e-01
-2.181521765698191812e-02 -6.797130780224573676e-02 4.388778118397608785e-01
-3.887005757262271960e-02 -1.019796698711717964e-01 4.568188592913922097e-01
-3.224823873212108016e-03 -9.522034407697652081e-02 4.534134582801642166e-01
-7.052305852384546658e-02 -1.121901733105217097e-01 4.898491016376337326e-01
-2.103703322990328403e-02 -1.208890095455031760e-01 5.040494742745257328e-01
-5.898589043125873621e-02 -6.270709977752536579e-02 4.317588662491718687e-01
-6.472352014910597029e-02 -1.098032629071387656e-01 4.679688168205852761e-01
-2.878849614401770424e-02 -1.179579832354941266e-01 5.357596774580023480e-01
-3.541528435084041748e-02 -1.183396590331620563e-01 5.144490502334539972e-01
-4.863945232855645256e-02 -1.074886696996472379e-01 4.621566580560776405e-01
-8.037802819573443280e-02 -1.103093179648164945e-01 5.083272943884423745e-01
-6.006779249054120667e-02 -1.142357590883867346e-01 5.097825954002999094e-01
-5.965475002316505265e-02 -8.149142494219965838e-02 4.237194375326571172e-01
-2.700484600863723231e-02 -1.024896087067214828e-01 4.616851620241292919e-01
-4.560541143544533105e-02 -1.163689556258208219e-01 5.064665303106632432e-01
-9.528744261448647904e-03 -1.246749634224121467e-01 5.197269597046629830e-01
-1.559834163637704302e-02 -1.025385633104952399e-01 4.594184935822992477e-01
-8.281399376459212813e-02 -1.110524675081003970e-01 4.934631466784095699e-01
-5.269270627096055842e-02 -1.090481336947473068e-01 4.651452090302323761e-01
-1.703056944711343196e-02 -5.267079322399813301e-02 4.384310812534994994e-01
-3.523656838131572488e-02 -1.183754434829170366e-01 5.144872901816754940e-01
-6.956423796915692237e-02 -8.549825059838249419e-02 4.224245873413225993e-01
-4.797850629328139632e-02 -9.389265027415906462e-02 4.344057878720037902e-01
-3.842815097572264277e-02 -1.166866365419580026e-01 4.972610611292099803e-01
-3.649537256897453924e-02 -5.995726916083788521e-02 4.348627845550587789e-01
-8.708092712542590819e-02 -1.091849641913360952e-01 5.053918956736892509e-01
-8.300056832755046965e-02 -1.103685815750068688e-01 5.026968171928690721e-01
-3.648578827000802452e-03 -1.259975195192725161e-01 5.191854765211632028e-01
-6.270356601118910744e-02 -1.039726924561322763e-01 4.257587020176834547e-01
-5.484494104630392025e-02 -1.099520444816610570e-01 4.679735076783058667e-01
-5.160959535196697062e-02 -9.991553862013022314e-02 4.359670991955205133e-01
-2.932616094945090027e-02 -1.004756296618326689e-01 4.583557623148776239e-01
-1.086008215605221115e-02 -1.205260325621592410e-01 4.911161960095829504e-01
-3.602217391129878057e-03 -1.251399460665263419e-01 5.077844652087777355e-01
8.392328668712712922e-03 -1.263955929343146267e-01 5.323704606541365125e-01
-4.390465460171677492e-02 -9.733777376654136060e-02 4.460918682221864384e-01
-2.652947547276486226e-02 -4.885668647658503172e-02 4.379889100158267934e-01
-3.024452208782339030e-02 -1.064814818019331893e-01 4.674443859434277426e-01
-1.097138681012002209e-01 -1.028793699978518550e-01 4.980949336067970190e-01
-9.844395678703610209e-02 -9.257856563537979200e-02 4.573637566745973326e-01
6.851653176479892415e-03 -1.254867139944807197e-01 5.085206435325739793e-01
-2.330538618698881764e-02 -1.166802275948118778e-01 4.890815609347966553e-01
9.021591057460554355e-03 -1.264407859020257874e-01 5.323075512163207845e-01
-8.513948861230551113e-02 -1.108423428153901824e-01 4.860041349361362006e-01
-5.041181857159384577e-02 -8.017109124026111644e-02 4.269720575134566265e-01
-4.029774673487170056e-02 -1.159712018831397795e-01 5.300232622405731675e-01
-8.568176205288273450e-02 -1.019599848082827082e-01 4.460551547808802031e-01
-2.052712460070054909e-02 -9.941707346013733959e-02 4.572902858331721609e-01
-8.102853037633912792e-02 -1.101727979472433977e-01 5.081298130156343129e-01
-1.077123784162995965e-02 -7.294167367849627159e-02 4.417356704052542993e-01
-5.235513232650728516e-02 -1.153693594556991220e-01 5.107432952328528897e-01
-4.360879065812294647e-02 -8.661340721044182012e-02 4.350774643347477544e-01
-5.530566779637810515e-02 -8.548039603203223813e-02 4.234884594915317990e-01
-9.299880091986749420e-02 -9.842551495623468039e-02 4.513607103948321098e-01
-2.489392059655974598e-02 -1.159169566954575681e-01 4.878114092835557636e-01
-4.042479315485706520e-02 -4.163973103208552795e-02 4.347073769554485878e-01
-2.528474908872392277e-02 -1.133209692656501344e-01 4.799351919392517152e-01
-2.100377177542161675e-02 -1.178797467615882028e-01 4.912069559151023834e-01
-7.272779124003929396e-02 -1.021776813337826328e-01 4.315938059372873559e-01
-4.496724652936359701e-02 -6.637238607893840292e-02 4.307701039185057867e-01
-3.522729673121637733e-02 -8.675799575433876254e-02 4.417968066870603949e-01
-7.062069482469651716e-02 -1.127032540193983606e-01 5.033266108059329946e-01
-1.488233049671964028e-02 -1.196496478840257532e-01 5.444060396354944986e-01
-8.931659966634544756e-03 -7.032107398247255947e-02 4.411154316861836677e-01
-2.057435074118842827e-02 -9.749220503972033658e-02 4.550937292680408697e-01
-1.453297982741377781e-02 -1.101183069872740256e-01 4.696654678246431902e-01
-3.287006881738305242e-02 -1.106512147359341447e-01 4.750795939651145661e-01
-5.624578770438335394e-04 -8.509394173236907444e-02 4.478123919764484540e-01
-1.747898092469453088e-02 -1.225455198825928932e-01 5.196717715530225767e-01
-3.603132816037984271e-02 -1.170463190748002452e-01 5.296825383317390612e-01
-9.118909894583606540e-03 -1.115503718115622434e-01 4.702977978912012968e-01
-4.164519152047556350e-02 -8.237263258617580353e-02 4.352583653184078916e-01
-3.952704172851624620e-02 -1.133010826455475850e-01 4.842929960009938473e-01
-2.148732954489913916e-02 -1.206995425888173490e-01 5.034480202580168262e-01
-7.568821247436424704e-02 -9.151128972007403772e-02 4.248136359418904773e-01
-4.950410269242803279e-02 -1.032488738589691230e-01 4.513011054616779538e-01
-3.736160711528030420e-02 -1.179597937137401437e-01 5.139380983550860815e-01
-7.958968046551487263e-02 -1.113021548075865258e-01 4.833649094653982292e-01
-7.579397036685758815e-02 -9.949227869827621806e-02 4.283270235124884695e-01
-3.839787234772026880e-02 -1.055812493979048639e-01 4.633773452349903010e-01
-2.290762879557745740e-02 -1.158208433359414619e-01 4.862030560538906920e-01
-3.530703621457381702e-02 -1.179092383330914845e-01 5.026557631618255861e-01
-2.256715256666470132e-02 -8.210570198321494317e-02 4.430904728947182014e-01
-5.992428824438642693e-02 -1.063124902488774420e-01 4.522571889071119178e-01
-6.414959244448516229e-02 -1.070304499280364113e-01 4.555975914254281056e-01
-7.554248885956993398e-02 -1.076761748512146261e-01 5.249605886801338439e-01
-4.307376096512300495e-02 -6.606196436656514015e-02 4.316834806366249278e-01
-2.674365197240911526e-02 -1.186284455597309551e-01 5.349406781984813453e-01
-6.857604101314176970e-02 -1.093966029750977481e-01 4.664791126981724378e-01
-1.033363708786616542e-01 -1.069449378884708979e-01 4.887711895404498463e-01
-3.014152059600859121e-02 -5.231317060158671706e-02 4.368184989499924731e-01
-6.028537544706081414e-02 -1.115299368772381117e-01 4.756613060608828047e-01
-5.350689970594519305e-03 -1.254992880861816595e-01 5.137813446512496940e-01
-9.277074073571624224e-02 -1.068533269573275074e-01 5.085463936687473208e-01
-7.131297040594807013e-02 -9.661749054865911845e-02 4.222200914712699871e-01
-6.787876860852473659e-02 -9.833581992967438401e-02 4.212390333980275958e-01
1.212320256158106683e-03 -1.030259256311907567e-01 4.607192139855915136e-01
4.429182675629989713e-03 -1.250871489322237518e-01 5.052385218081693052e-01
-6.190891322034758337e-02 -9.793406615294336648e-02 4.223326621059746988e-01
-9.473485120596557285e-03 -7.699403929643992839e-02 4.432288928448737120e-01
-4.398524091296417138e-02 -7.984794824869853591e-02 4.321092957871857099e-01
-4.321016787965589051e-02 -8.914053159799295578e-02 4.378893387035102114e-01
-9.806981109758472481e-02 -1.083214332698626964e-01 4.847377199823647009e-01
-1.149235228431571415e-02 -9.749712607561758504e-02 4.542762527723462340e-01
-1.511808760403761734e-02 -7.415780912296859873e-02 4.413894674009715136e-01
-1.666800016666608597e-02 -8.565585348418111589e-02 4.455401715403917717e-01
-5.607472693240658085e-02 -7.734661559840573519e-02 4.246966340483613878e-01
-8.025012711575692237e-03 -1.251300926216512011e-01 5.156918690938248062e-01
-5.178780887710170144e-02 -5.974509200882893029e-02 4.307875006970789400e-01
-3.135605000313781282e-02 -1.189887283989430472e-01 5.198424775090916272e-01
-1.892813108538751732e-02 -1.214169044778860423e-01 5.286331852825415512e-01
-9.154189964574041549e-02 -1.041625869969278750e-01 5.165181259763137467e-01
-3.808728457311620630e-02 -5.019463957127043990e-02 4.348837418534213795e-01
-3.889460583401607718e-02 -1.171952622482106965e-01 5.233881937490835190e-01
-6.481436430712263219e-02 -1.135027469023211638e-01 5.095073769957964016e-01
-3.393411474261916194e-02 -9.526197118860173230e-02 4.495545689734619099e-01
-2.087919625813309740e-02 -5.741410311604856764e-02 4.379006868675007214e-01
-2.644001049864479549e-02 -1.143299098279473153e-01 4.829994433533164044e-01
-9.857449890651476254e-02 -9.129930476976180764e-02 4.583917410002492088e-01
-6.289785801099435913e-02 -1.121029333963854124e-01 5.232302919872784397e-01
-4.495755782861630273e-02 -1.162870884093350626e-01 5.018322461099552489e-01
-5.374753645485932235e-02 -1.142279915175438282e-01 4.925061355802749508e-01
-3.190970829267343600e-02 -4.291601828577524397e-02 4.368648747053628378e-01
-4.699126308576585115e-02 -9.981712197377184959e-02 4.463801743832734314e-01
-1.007645805847148940e-01 -1.068416849099477067e-01 5.002016938279102432e-01
-5.114457183313684402e-02 -9.688419347314990160e-02 4.276058622879445603e-01
-2.304040816544869474e-02 -1.204564664040719824e-01 5.039370815745839449e-01
-7.699358162685274176e-02 -1.093020975894279379e-01 4.669550152858285008e-01
-6.674465323887446289e-02 -1.059966726980649393e-01 4.505697393071386170e-01
-4.873869007533101344e-02 -1.000352163886616547e-01 4.451948328886346506e-01
-8.476656514709754453e-02 -9.321140381147899334e-02 4.383133285717426553e-01
-2.289385762562486104e-02 -1.206625593800967483e-01 5.050707077755397512e-01
-3.284636219687164099e-02 -1.094210621263437822e-01 4.724983619638905008e-01
-4.084108977203997765e-02 -1.169018128258150629e-01 5.221495366899542301e-01
-7.204861896656612752e-02 -1.115388139961845798e-01 4.810830496279314139e-01
-3.108439820790857150e-02 -6.662027532649554551e-02 4.366454172338972151e-01
-8.698416320644936084e-02 -8.535842425159012592e-02 4.464544779937655306e-01
-6.978863579756379443e-02 -1.119293360376966417e-01 4.851435203328571255e-01
-3.910801796550804343e-02 -4.588186568831928436e-02 4.347613719819029554e-01
-5.929953361675973506e-02 -1.099600726121154753e-01 4.682213637247577553e-01
-4.420735916825020012e-02 -1.017158564382569519e-01 4.524479828897978173e-01
-9.715566842568840178e-02 -1.028445326900071372e-01 4.588808310296060289e-01
-8.430004299542537272e-02 -1.098206685178585718e-01 5.053376054531938388e-01
-8.987488459908631044e-02 -9.343087790091191003e-02 4.455271513836542296e-01
-9.250351139992935012e-02 -9.826957535627667273e-02 4.506466015366153433e-01
-9.571349948507472394e-02 -1.055130562864389776e-01 4.628173100401515860e-01
-3.207119732928888356e-02 -1.190254851451489626e-01 5.128107528793101055e-01
-5.796553527602932993e-02 -5.784303110865249287e-02 4.332056112999541075e-01
-5.545257309576844679e-03 -1.245203364234036963e-01 5.318719591891929444e-01
-2.817823148496206506e-02 -5.765336633500748459e-02 4.366155475162336042e-01
-1.061745432787572219e-01 -1.057166060336306307e-01 4.944398462521371607e-01
-8.878861512629904196e-02 -1.103081233640817727e-01 4.880779580257338934e-01
-4.346969602856745434e-03 -1.251725406190967727e-01 5.301538401826432212e-01
-1.094307565149024303e-01 -9.397660694702116013e-02 4.736064289854863829e-01
-4.711924966945789384e-02 -1.105968129827848284e-01 4.734383360766215021e-01
-4.315982118110801152e-02 -4.401475906070036193e-02 4.343927329282902261e-01
-9.759278221680798421e-03 -1.247177914943148475e-01 5.161456223901770279e-01
-5.715458113670712770e-02 -1.033530522841410587e-01 4.423399768505977270e-01
-9.606412449500851408e-03 -1.061075380241936761e-01 4.627644309261950695e-01
-6.256641126434103750e-02 -1.070976649368751143e-01 4.561779000291741881e-01
-1.041835001884277787e-02 -1.241892140933641281e-01 5.244896691898075503e-01
-2.718965908349120497e-02 -1.019137380058288134e-01 4.608390884432952972e-01
-7.387872288753966066e-02 -1.075062421771784821e-01 5.267080883010458736e-01
-1.215046637096489938e-03 -1.256681455109034395e-01 5.313971309461339443e-01
1.763266568472204518e-03 -1.260055892433626645e-01 5.089705702494486950e-01
-1.878335707072906896e-02 -1.180285267643488706e-01 5.464380009703950769e-01
-5.869924819092950385e-02 -7.849497541684612167e-02 4.243665116992165198e-01
-1.447062625977093078e-02 -1.223406879754230930e-01 5.325087741369854966e-01
-5.323872791377565195e-02 -2.903470401155282959e-02 4.404733089536572721e-01
-5.041557911886102722e-02 -6.560423553117443463e-02 4.287315980910933466e-01
-3.149574187718161972e-02 -1.191041248076677023e-01 5.144450600827891185e-01
-5.811818612495947556e-02 -6.615876294357281306e-02 4.294805113629774906e-01
-4.927321581901131925e-02 -6.236197117461786399e-02 4.298850910492417743e-01
9.279541418680738174e-03 -1.265005929336105450e-01 5.188722559930502021e-01
-9.289405979863550253e-03 -1.174546817656547670e-01 4.813584743865925164e-01
-7.996497487817377792e-02 -1.100609764375176103e-01 5.105444537926452364e-01
-2.124422167906879488e-02 -1.210360402971511623e-01 5.255895717326090066e-01
1.228647696395157064e-02 -1.263111475104411463e-01 5.214750196013553385e-01
-1.644535605022987707e-02 -1.153822467735832885e-01 4.813012627842072066e-01
-5.340570572266308685e-02 -8.975783450259232354e-02 4.247588843958124971e-01
