9.260687403095088643e-03 -1.259972205593547223e-01 5.352664158326839727e-01
-9.406471737393673482e-02 -1.078712156444352060e-01 5.035890370211435485e-01
-6.231850247801502818e-02 -1.059287804070474653e-01 4.507458833048726410e-01
-8.884494224121626538e-02 -1.093686348469404962e-01 4.740594603131615403e-01
-1.012932841531575673e-01 -1.071067618360036638e-01 4.816004849367852558e-01
-2.543182591181625957e-02 -1.194721074829262764e-01 5.301024992690828164e-01
-5.470633540238789561e-02 -1.147637119434301578e-01 5.162475592541894143e-01
-9.262281654785192719e-02 -1.019996553101707032e-01 4.543892846808200159e-01
-5.347537318843680054e-02 -1.057755811075225816e-01 4.567004165027708784e-01
-7.324674691291310769e-02 -1.105947186438200613e-01 5.177891369849579872e-01
-5.439399537620893260e-02 -8.342456809685072638e-02 4.246941930432219792e-01
-7.616559853792401191e-02 -1.032210998803163998e-01 4.409345671108232390e-01
3.378053145671555332e-03 -9.976351990596908637e-02 4.582264444202623910e-01
-7.696417794480503449e-02 -1.086134622537902744e-01 4.649225938910016565e-01
-2.919107235218561247e-02 -1.194800069927343250e-01 5.175639016613566845e-01
-7.070743497603178274e-02 -1.111727336349846579e-01 4.794421468377227935e-01
-4.492099879896714609e-02 -7.160093323187706471e-02 4.313486073108594998e-01
-1.775259898840222256e-02 -1.208201179722502711e-01 5.366546989790242916e-01
-5.397970798344976784e-02 -8.621026121355754301e-02 4.248882050245739173e-01
-2.314125053183128250e-02 -1.053752648911728818e-01 4.653672692109540043e-01
-7.823822503277254314e-02 -1.085327315909425661e-01 5.192330520949243189e-01
-7.204709482470227078e-02 -1.048099711397205286e-01 4.467093685588971463e-01
-6.415686567109284144e-02 -1.113435680124243987e-01 4.765201583958077469e-01
-3.085771388141943586e-02 -7.646459198913933830e-02 4.389110480259759139e-01
-2.190488314774055589e-02 -8.026276734138008961e-02 4.426235001048395290e-01
-7.592066994592550078e-02 -1.050180068408576028e-01 4.502798823318089338e-01
-5.111946407930665487e-02 -5.140517163663615302e-02 4.339537079777814887e-01
-6.561757695516953585e-03 -8.740608550224394924e-02 4.481787854634304291e-01
-3.691348263824946463e-02 -5.808407247241936799e-02 4.350640072077622267e-01
-9.590482153010906896e-02 -1.020895714233090307e-01 4.568501212513803034e-01
-8.710990082684126612e-02 -8.748754556662356741e-02 4.446245714701590468e-01
-4.212772635287666961e-02 -1.130608926042550727e-01 4.845228416446041853e-01
-4.294334568515601608e-02 -1.143394083811377082e-01 4.892845015520738139e-01
-2.807398487762536449e-02 -1.151246353727514299e-01 4.863916383361588380e-01
-7.348302997859874897e-02 -9.621693639127906761e-02 4.241957720128303189e-01
-5.678897255932100624e-02 -1.026173709737241008e-01 4.420689111019249773e-01
-3.224467544911659156e-02 -3.629137017398589848e-02 4.370628108926978839e-01
-3.059293892838239534e-02 -1.095023028670760318e-01 4.731980064284405096e-01
-1.109463325444400433e-01 -9.596301626890368919e-02 4.770472941974593373e-01
-6.456662715711221356e-03 -1.194639584477196204e-01 4.863962670365297725e-01
1.079695590949713777e-02 -1.266715934347915073e-01 5.264836273029354086e-01
-2.786082149052520815e-02 -9.377832975223610035e-02 4.508383507724921246e-01
-7.858823943862418282e-02 -1.113753407573544046e-01 5.006766127769337604e-01
-2.867215294481970447e-02 -1.147058710159890027e-01 4.851655987385952717e-01
-4.670354628949385106e-02 -1.129345218037084431e-01 4.849373343164857242e-01
-5.773658426137144584e-02 -6.758740353477482588e-02 4.286926010700838896e-01
-5.506950582439064379e-02 -6.450445967074597275e-02 4.289136724531960043e-01
-1.026599829351561993e-01 -9.990341581848619090e-02 4.613797905919139741e-01
-2.436195492766623019e-02 -8.286045024411919924e-02 4.433343638653278185e-01
-9.748423681803354557e-02 -1.068516527855112447e-01 4.712783182847870012e-01
-5.965846916358520657e-03 -1.251591832786925484e-01 5.266315069807191440e-01
-1.612490053088668635e-02 -1.050180514697535705e-01 4.625180507239775030e-01
-1.453664046855315459e-02 -7.718080360236437287e-02 4.424934504147899350e-01
-7.734075226676680181e-02 -1.074719117127210521e-01 4.605333607248710548e-01
-4.639120826670582731e-02 -3.346485204898339005e-02 4.355841529120333955e-01
-6.360982698052700113e-02 -1.113496695191108221e-01 4.764945511161095548e-01
-3.158259390869421618e-02 -7.930840843453856870e-02 4.397270019731750468e-01
-8.476687647740790976e-02 -9.666973901254763413e-02 4.414552008070839473e-01
-2.938318617203173472e-02 -4.184927921620745783e-02 4.377729540693733878e-01
-2.390762237231500512e-02 -5.230340472179419165e-02 4.380717163193347807e-01
-7.528644488322991379e-02 -8.912128179924942717e-02 4.245182259625275845e-01
-2.696184446029151888e-02 -1.057645350280191077e-01 4.664184141220352187e-01
-5.383415304844341859e-02 -3.795990230507269997e-02 4.393669846694976955e-01
-1.269343797278616251e-02 -1.168377920049714913e-01 4.820353835057298308e-01
-3.269999252990147404e-02 -1.185004865459242523e-01 5.219650562560409490e-01
-7.294958182253495627e-02 -1.062089802317332798e-01 4.541762968144869017e-01
-1.269824303031653195e-02 -8.838291556374185121e-02 4.475682007322903666e-01
-8.911636735330362435e-02 -1.094709746779875398e-01 4.754468676414714268e-01
-3.791807284974339602e-03 -1.256084710762342960e-01 5.122221304958520793e-01
-9.015222711066883665e-02 -1.027328168437909306e-01 4.535445209099948638e-01
-5.878397523621947673e-02 -1.127393188231495813e-01 5.248969519655445337e-01
-6.580629750858636717e-02 -1.104899505817609345e-01 4.726547573769865895e-01
-7.650436995516299299e-02 -1.084399356998046737e-01 4.641081794117791759e-01
-1.417268442057638932e-02 -1.229709866314954159e-01 5.076510726378442584e-01
-7.817622223669652703e-02 -9.512814704342678618e-02 4.273036376775104506e-01
-8.653776191772347137e-02 -1.086562223531409438e-01 5.081995285311076138e-01
-4.993615048956792646e-02 -8.441061105206312809e-02 4.281316494174676190e-01
-9.243357662705073419e-02 -9.137200470049904044e-02 4.500713914786941827e-01
-6.012472397141218478e-02 -8.170345199176679007e-02 4.240120449616175402e-01
-6.029468708629152386e-04 -1.212521264917566927e-01 4.913297474977190160e-01
-5.529880752673034527e-02 -4.388210941057787973e-02 4.407251725627159278e-01
-1.086931486925609563e-01 -1.035395963690349530e-01 4.843537863104339647e-01
1.290081103645685304e-02 -1.252818795504774263e-01 5.381791378002157566e-01
-3.405632546211870282e-02 -9.802495258314548876e-02 4.535767343598087198e-01
3.463115543247895570e-03 -1.256801619053902197e-01 5.082930098619742321e-01
-6.266722803396417019e-02 -1.039731035924252589e-01 4.292702575421438183e-01
3.055565001976453393e-03 -1.263588038608847997e-01 5.122277401577067790e-01
-7.930830537257457791e-02 -1.089272302495935679e-01 4.668079821084613612e-01
-4.715316180300303806e-02 -8.202815584318512432e-02 4.301097673647173436e-01
-6.062441965314941533e-02 -1.139740471901997676e-01 5.042054191634605109e-01
-3.596842189977122323e-02 -3.589402013259326840e-02 4.358774506637119184e-01
-1.594655432170200005e-02 -1.225806346596575308e-01 5.252084719403360413e-01
-5.583756631099886375e-02 -1.127142005770913336e-01 5.275779894342141896e-01
-4.809650174107379245e-02 -4.799172748941445132e-02 4.342081174867317150e-01
-4.622183608214181470e-03 -1.193333493150515040e-01 4.853719387607952629e-01
-2.640274813492111614e-02 -1.067741018176673190e-01 4.680070098447343119e-01
-4.450957811779393536e-02 -9.808539085445859562e-02 4.470947143638842602e-01
-3.646437511016426686e-02 -1.174653404265664502e-01 5.015215350150610263e-01
-7.719649003726564152e-02 -8.878113626978509365e-02 4.274339165227751258e-01
-5.621393988480682946e-02 -1.145359665343381878e-01 5.159969574252658564e-01
-9.237356281813394188e-02 -8.409276290201388171e-02 4.564656098881916257e-01
-1.130569482599995401e-01 -9.716180820117477357e-02 4.808704402530282751e-01
-4.814443625975727004e-02 -5.754971572030305460e-02 4.319595284554282322e-01
-8.638795058035285412e-02 -1.074060872023031299e-01 4.638692536617650131e-01
-8.319036494003090310e-02 -1.066775418251649510e-01 4.593048100185023741e-01
-4.525011904929154144e-02 -3.445665953400831732e-02 4.351470177245357340e-01
-3.937118426137383061e-03 -1.242073796476512032e-01 5.027478594891781061e-01
-5.438485321241589426e-02 -1.124455302966882314e-01 5.301000466639204101e-01
-6.397656758886141604e-02 -1.125783652691966230e-01 5.201216147161918935e-01
-6.165857623554423655e-02 -1.131968250096668654e-01 4.927493125128034057e-01
-5.447617852258906934e-02 -5.831011023010151256e-02 4.314072904142374765e-01
-7.666882380947413755e-02 -9.440815641594986485e-02 4.258360637686692263e-01
-1.710975038333202233e-02 -1.125697915107660568e-01 4.755830977299543294e-01
-7.116023198625970325e-02 -1.069513973227492476e-01 4.571813690780871520e-01
-7.633307879980857913e-02 -1.089279686140030984e-01 4.665609186588615676e-01
-5.330256222959491030e-02 -4.060210905874506865e-02 4.370686300994973128e-01
-5.186399021566202860e-02 -1.132042111206399415e-01 5.298233294179642838e-01
-1.085694561675009783e-03 -1.231677995537124037e-01 4.974416055469470521e-01
-1.814092706409009895e-02 -5.605525140103474746e-02 4.382124678740328405e-01
-6.900775174295209480e-02 -1.113215704157306668e-01 4.800279316677207864e-01
-4.667923172448736752e-02 -9.416971698109199984e-02 4.407126870573843669e-01
-2.200746338703889193e-02 -1.154787542683149842e-01 4.848629305822691471e-01
-3.952532203793271415e-02 -9.830540236762069783e-02 4.511401624790040699e-01
-5.241696324415433261e-02 -3.625507957635311362e-02 4.380458484083638027e-01
-2.150100516769347381e-02 -1.123208786432700890e-01 4.774413209231869737e-01
-4.808025675276551836e-02 -1.138504961536277310e-01 5.309961570117964769e-01
-7.168805577700565479e-02 -1.111292046841933640e-01 5.175441922977657150e-01
-5.477490730109354708e-03 -1.219135284280405268e-01 4.939963268521136430e-01
-2.747232561109383409e-02 -1.198186761494521441e-01 5.203729224340274406e-01
-7.457315035365590095e-02 -1.120170809834776238e-01 4.993522832751212670e-01
-8.506953301612134311e-02 -9.761019134431585254e-02 4.423542089446861891e-01
-6.983126300360111005e-02 -1.102275497911004154e-01 5.228032162135684002e-01
-7.870043523810729691e-02 -9.763036731900959220e-02 4.312398505242391322e-01
-7.388344490814812218e-03 -1.241875901380887076e-01 5.055035791172317605e-01
-6.170668983857549583e-02 -1.080662125822184488e-01 4.608841285677949262e-01
-7.452518579977476798e-02 -1.081524492447572816e-01 4.626029078156575491e-01
-6.598452732612162218e-03 -1.173776054169245880e-01 4.805572174927846274e-01
-1.010122887513692919e-01 -1.038567267463458149e-01 5.079342948999151508e-01
-4.227999722185022541e-02 -1.152901028733631511e-01 5.311882182914359207e-01
-2.884596040349365204e-02 -1.195632942860746090e-01 5.179175859711109275e-01
-1.920208147880559865e-02 -1.181504278369825828e-01 5.456354568641744729e-01
-4.117354865770223721e-02 -1.154682918220830967e-01 4.931399882895019515e-01
-4.939986286650566855e-02 -4.930619443580801925e-02 4.340764281746244402e-01
-5.792227605863466827e-02 -1.134287762275962702e-01 4.908121210740087892e-01
-5.724038426856663600e-03 -1.188126328020037981e-01 4.839561458411562045e-01
-3.332003547223124501e-02 -1.176525428260882938e-01 5.293951826060462329e-01
-1.112342539834253533e-02 -6.745716571391054128e-02 4.404536370919294175e-01
-2.009323474073465565e-02 -1.123852540123116417e-01 4.768221469864635242e-01
-9.837688893090873465e-02 -1.074211808388017136e-01 4.755378320707547846e-01
-2.502837776866822725e-02 -1.200441367607544968e-01 5.250251899901200447e-01
4.562522125517182864e-03 -1.269797802133558196e-01 5.193606352842777829e-01
-2.354809045194590500e-02 -1.151484211831846211e-01 4.848872926007175010e-01
4.643700067986287344e-03 -1.225670011709266705e-01 4.960619158053231059e-01
-1.626842587809444740e-02 -1.218082265964239852e-01 5.324470282195628013e-01
-9.301659774595995300e-03 -8.046735695464184157e-02 4.446632111875022941e-01
-4.713443176045513383e-02 -1.083767884304995266e-01 4.653612188556177642e-01
-5.632277739175874098e-02 -9.063564100304816185e-02 4.231049205801685198e-01
-8.159450690935794726e-02 -1.110939028778460264e-01 4.890161678798175537e-01
3.841144031710205103e-03 -1.216296752191138447e-01 4.929593446749554464e-01
-1.967699697583318030e-02 -9.986105593461688801e-02 4.579041578388947653e-01
-1.152715827682037827e-02 -1.193497603975588461e-01 4.879046206405494579e-01
-9.563982192918728253e-02 -9.727673700481503927e-02 4.530180515203074965e-01
-9.732355409137867508e-03 -1.212061655537834542e-01 4.931820025393729989e-01
-4.732606535461126446e-02 -1.154682105328480313e-01 5.234874148377373082e-01
-4.107299018692867065e-02 -1.023741687058304373e-01 4.566419657272750565e-01
-2.373057661767216664e-02 -3.830563011607794610e-02 4.387291807921211428e-01
-8.226387906665820482e-02 -1.109775551147654388e-01 4.907127726822283487e-01
-9.163404949213163619e-02 -1.073522137903277496e-01 4.674796333377713720e-01
-2.031394136015749179e-03 -1.180831188555701572e-01 4.821282985683760236e-01
-3.404818836852959579e-02 -1.136042151820324392e-01 4.836220836052959049e-01
-2.184632814495627781e-03 -1.262432225153080068e-01 5.222472434425066146e-01
-5.023835924274892839e-02 -1.142888474069976984e-01 5.265947880779403567e-01
-6.119516800895989650e-02 -9.620439143640599489e-02 4.227769428333261748e-01
-5.310468292998949541e-02 -5.509861851929268028e-02 4.325873971812758678e-01
-4.348152638847896378e-02 -8.789925966520834022e-02 4.374024060023447569e-01
-3.353074299859622881e-02 -7.312789834699801039e-02 4.365595791218976340e-01
-4.400297547428543704e-02 -1.164685114982544484e-01 5.051409204720920254e-01
-2.211851572476469362e-03 -1.237318200885381553e-01 4.998054391116454331e-01
-7.554867218568189768e-02 -9.643254308779219963e-02 4.258769747030516362e-01
-1.568101113016782261e-02 -1.145739553056360910e-01 4.791172057934868223e-01
-3.896658128191404086e-02 -8.186518522337977999e-02 4.373875856068214496e-01
-1.201012061090371910e-02 -1.227998347106016852e-01 5.338834763934686700e-01
-1.207924866450701268e-02 -1.221358572094610739e-01 5.374435767652080420e-01
-6.833474592048686957e-02 -1.115772972053570289e-01 4.825081173820988667e-01
-8.365620223738157168e-03 -6.735542328919440214e-02 4.405894425660660807e-01
-5.383883560625494363e-02 -1.030471981315708302e-01 4.482177919910227959e-01
-3.479249885190190128e-02 -1.102599266735601741e-01 4.746595178500264689e-01
2.315830806109193344e-03 -8.595142049561461939e-02 4.486102500776981694e-01
-7.774387560125906038e-02 -1.077885335392468336e-01 4.618760743261434154e-01
-5.109531114125218793e-02 -9.913920804285432375e-02 4.382862282415466160e-01
-2.138293423664353390e-02 -6.879047145779289274e-02 4.393497997877082173e-01
-9.916963937390659012e-02 -9.698249869161404413e-02 4.578393493294314887e-01
-8.611803366385140102e-02 -1.093027194639872024e-01 5.054042301623142830e-01
-1.077519751245471363e-01 -1.051175923160526798e-01 4.907269092532874355e-01
-8.844828114951928943e-03 -1.058900920734580225e-01 4.626730566062136618e-01
-6.335944432235193768e-02 -7.393505761324344061e-02 4.266380247976298556e-01
-6.868645238797689567e-02 -8.990263337045747982e-02 4.203834360443380880e-01
-7.061283400610793293e-02 -1.117573101246234352e-01 5.143657387094910938e-01
-4.155486246844741771e-02 -1.163935169788998525e-01 5.253519597769206184e-01
-4.558946777748312112e-02 -1.154879562011924266e-01 5.254480203122573467e-01
-4.149086435206980616e-02 -1.144000796956569366e-01 5.357788722879094356e-01
7.931565268411763098e-05 -1.235080848144225335e-01 4.985253890208657945e-01
-6.203669069235006467e-02 -1.041824606349943116e-01 4.408541997166917081e-01
-6.477480320066378305e-02 -1.122940838084805354e-01 4.869262585417893363e-01
-2.454089201222723823e-02 -1.141685827066999531e-01 4.825077555498025195e-01
-1.831591058488664034e-02 -1.208249608232841305e-01 5.003196294317696635e-01
-8.479473879053772006e-03 -1.152450818540255023e-01 4.768063735399344361e-01
-2.944052527402590130e-02 -1.054850715918774495e-01 4.663872224301919278e-01
-2.288155865124306271e-02 -1.201236573245608313e-01 5.302441566510395221e-01
-5.971955602454722539e-02 -6.580784158305232057e-02 4.301769355237280990e-01
-8.348274603251977510e-02 -1.053349435368266668e-01 4.550987069043481159e-01
-3.924523311310117515e-03 -8.029133455999491742e-02 4.454754305444446061e-01
-5.808441358811007593e-02 -6.184583070317322545e-02 4.315470809407270791e-01
-9.884497599723679473e-02 -1.076406241584201423e-01 4.784276407440911649e-01
-3.040124473408962677e-02 -1.192807694314661493e-01 5.142937208442489583e-01
-5.313082040599041711e-02 -3.648236201172766480e-02 4.382368693088810607e-01
2.973695723127224924e-03 -1.218545518562171581e-01 4.933195876739148722e-01
-2.966949215702277542e-02 -3.918974063638770017e-02 4.377013557261044130e-01
-1.611868768516428949e-02 -5.386286498151891117e-02 4.385228704730186333e-01
-6.826860082694802268e-02 -9.970218560830296228e-02 4.225165957729912769e-01
-8.596746730068891007e-02 -1.031910927714387860e-01 4.503257256405359121e-01
-4.225155262727794958e-02 -1.169536095550887944e-01 5.116738580861203145e-01
-1.031756049682290705e-01 -9.901215922075001785e-02 4.612721633919968922e-01
-9.672170101508933970e-03 -1.242909239897278112e-01 5.106519846035652010e-01
3.639633617474609395e-03 -1.224212179042416943e-01 4.952809721328238490e-01
-8.601795099520770371e-02 -9.100210669101781169e-02 4.415032880531241100e-01
-8.429086627016697808e-02 -1.063314534526787203e-01 4.585543337890919946e-01
-5.795081934427839462e-03 -1.246028005599543603e-01 5.313887245855074548e-01
-4.167311924642546489e-03 -1.219430811934002490e-01 4.936883665350639272e-01
-7.116510152652742380e-03 -1.146402315659207360e-01 4.754386228401257242e-01
-9.652859454749643242e-02 -1.084129583633240135e-01 4.811425647580607756e-01
-5.099182988676424777e-02 -9.431513979591217567e-02 4.280709720584452427e-01
-4.796750157253952540e-02 -7.068619852951302240e-02 4.293716813633917662e-01
-4.876539107451442062e-02 -1.142133794988416939e-01 4.904505838908369553e-01
-3.505598561921047934e-02 -7.525687824671054016e-02 4.367212998145054148e-01
-5.549028629657978134e-02 -1.023840537893755537e-01 4.295754531781360575e-01
-5.716855676093725303e-02 -1.074839623804347277e-01 4.601000098347866052e-01
-2.909212144440925796e-02 -9.068385994538669115e-02 4.473914132745259176e-01
-5.671290865473336412e-02 -1.127168740756612497e-01 4.850070708546900811e-01
-8.824807015660848103e-03 -1.069913238128370886e-01 4.639314470221965192e-01
-9.774879030242522582e-02 -9.444079126937471313e-02 4.557894788844573664e-01
-4.308706129389864442e-02 -1.164713915737632666e-01 5.019242616925060352e-01
-4.318575224929079026e-02 -9.375338281362007031e-02 4.438300647982928449e-01
-7.648295620716384635e-02 -1.113648025238930805e-01 4.864484008148823868e-01
-8.177055855113488092e-02 -1.090757242821061013e-01 5.124272288103991491e-01
-4.222141046907488399e-02 -9.808500751001991702e-02 4.488878968419899862e-01
-2.522169780690890900e-02 -1.203044961627344617e-01 5.077666777047407098e-01
4.330345986925187608e-03 -1.110383261547889383e-01 4.703639222932396446e-01
-1.588756599139500361e-02 -1.080737555172324726e-01 4.667672456736564612e-01
-8.904168523112673816e-02 -1.099979479645879776e-01 4.857814863006706396e-01
-8.283454267993213549e-02 -1.098300926215715345e-01 5.068626513148632995e-01
-3.180369083156437196e-03 -9.291444652166355733e-02 4.519282536681493712e-01
-5.101845852544029114e-02 -8.586016994207867903e-02 4.273190673723801236e-01
-1.284733339671828914e-02 -1.236510201727878955e-01 5.118676264817438870e-01
-1.313131711059896747e-02 -1.114730444754083172e-01 4.715716885517405310e-01
-1.886352675788515593e-02 -1.094172859369740569e-01 4.703275472209107466e-01
-7.681515070290082653e-03 -1.241346623538609750e-01 5.314360959868510426e-01
-9.982059008002133749e-02 -1.076743700005715620e-01 4.904863023573831637e-01
-6.524752280249548897e-02 -1.020957703201404998e-01 4.231878994345476541e-01
-8.374995009256998302e-02 -1.107661927993603967e-01 4.928905436853567856e-01
-8.708425541009716386e-02 -8.877766399783890150e-02 4.440555832566199790e-01
-7.864492509946478804e-02 -1.096386598538582752e-01 5.147614274031606652e-01
-6.800845258925523884e-02 -7.835126008381249063e-02 4.276010246897645750e-01
-3.199318991853720290e-02 -1.167633629314574900e-01 5.376550298651265880e-01
-5.107688389262401291e-02 -1.151419441563758667e-01 4.993857427430932194e-01
-3.194584205173753994e-02 -1.032191354862559418e-01 4.621081749093831625e-01
-2.856527579549004298e-02 -1.186142730258734068e-01 5.309843161356601060e-01
-3.319133014620276496e-03 -1.260411336618905143e-01 5.178321790333720864e-01
-7.712985372329950184e-02 -8.586590694282950076e-02 4.299637415953652675e-01
-2.764473646188328471e-02 -1.192642995018638602e-01 5.025970242515319653e-01
-5.578214550519362130e-02 -1.023209673697122457e-01 4.433685291315526689e-01
-8.114837546479986008e-02 -1.103788640457563364e-01 4.766485388200533690e-01
-2.625870753074376063e-02 -1.008911013213579372e-01 4.597380072812140561e-01
-3.685473657727623975e-02 -9.072466134924642156e-02 4.447588653996457642e-01
-6.290409604003149857e-02 -1.020031369294154416e-01 4.231363994081746016e-01
-8.339332082683727221e-02 -1.095515589801174111e-01 4.712601414294510516e-01
-7.346654325588626577e-02 -1.118800466081628642e-01 5.079992748777232281e-01
-8.956849002765927825e-02 -1.076034145227575539e-01 4.667102703860590562e-01
-4.576120051419998308e-02 -1.161876875941831588e-01 5.049751400626312225e-01
-3.953879624294674017e-02 -1.168044796287997095e-01 5.004295130765685773e-01
-7.649262052608053752e-03 -1.240785596240069066e-01 5.051418240608760435e-01
-1.153866740583458714e-02 -6.664973777814722777e-02 4.402512238052878057e-01
-3.806326691251203653e-02 -1.167809048925499554e-01 4.983873014742982166e-01
-4.125072667403728230e-03 -9.268189690571687622e-02 4.516144906593063668e-01
-9.304729167746755847e-02 -1.093570869606954321e-01 4.895925829672793106e-01
-7.433015701183353849e-03 -1.000563873655827135e-01 4.570421538783109305e-01
-5.211606084694001689e-02 -4.669922819233089661e-02 4.352750026509309422e-01
-4.548667310342444092e-02 -9.240056692814069272e-02 4.399572093002324102e-01
-5.233391183126868962e-02 -7.213959460026624082e-02 4.273116599217279266e-01
-8.478733844468296088e-02 -1.021304393854810949e-01 4.469763065590534046e-01
-5.018833070209002128e-02 -1.151679221864086305e-01 4.986258815622015561e-01
-7.828202517766778834e-02 -9.670641769275516164e-02 4.299359254265116559e-01
-2.116853287969110153e-02 -1.212334185662837099e-01 5.070137907977962932e-01
-6.197591840583138029e-02 -1.071485590257234000e-01 4.576400985965061174e-01
-4.679822416437759425e-02 -5.301865492603567709e-02 4.338826898344971816e-01
-7.137564790630825107e-02 -1.039835896954894451e-01 4.408644505545040726e-01
-9.985955881339439455e-02 -1.064782381264125499e-01 5.021662321454255506e-01
-1.037048144726419874e-02 -1.243404667856489593e-01 5.223963443679859875e-01
-4.105579260802844077e-02 -1.156596197221876898e-01 4.939988696525186018e-01
-7.339392202209918392e-02 -1.089335484050957537e-01 4.660948788378549423e-01
-1.672051767223567062e-02 -1.129448959365643018e-01 4.761308747034077582e-01
-8.789596409458505510e-02 -1.087304792344171156e-01 5.061964597195288684e-01
4.757794086563495173e-03 -1.257609503062500633e-01 5.092707263280268348e-01
-3.821369832265848754e-02 -1.119510832693123986e-01 4.800640400676490227e-01
-5.687116443485411288e-02 -6.360622140526762947e-02 4.299323529574742841e-01
-2.526064701985689109e-02 -1.107722166242635364e-01 4.750637209049490828e-01
-2.914194834940316350e-02 -9.335083631266387350e-02 4.500419574370654874e-01
-3.994967584866666171e-02 -1.086844729213523181e-01 4.695977423965801978e-01
-1.330222425340021886e-02 -1.125475245386150236e-01 4.733235070432668667e-01
-4.608151300744306456e-02 -8.325732448078929093e-02 4.311802168846362582e-01
-7.586950382034923779e-02 -1.003288462961217098e-01 4.309702931680212123e-01
-1.515912632264379556e-02 -1.233623440885758676e-01 5.147661245000207941e-01
-3.480761140945541621e-02 -1.051005144419704940e-01 4.644374676840575256e-01
-3.573866321248490852e-02 -1.171706456998112406e-01 5.289451879281458213e-01
-5.286121136193050463e-02 -1.151134705559601901e-01 5.063185039436256529e-01
6.974534324144091024e-03 -1.223084386737769563e-01 4.960348495665584667e-01
-3.593628981763102859e-02 -1.178216120962677638e-01 5.223964944336785265e-01
-5.875547979288040651e-02 -1.097684406009040714e-01 4.683799846170749737e-01
-2.015895719328296420e-02 -1.134976145059700264e-01 4.796805328479413211e-01
-6.800130901060549848e-02 -1.107736649686335978e-01 4.750522537728295025e-01
-2.522227622865898591e-02 -3.718365011637016909e-02 4.386867142562294597e-01
-7.815214353238326972e-02 -1.102582394534420279e-01 5.116604873784644791e-01
-3.731911182144680497e-03 -1.259667454349861493e-01 5.202538437625370271e-01
-7.267166827196669399e-02 -1.084161548297186833e-01 4.635182988977619711e-01
-5.299670911250900507e-02 -4.211692667078796581e-02 4.365052394654010959e-01
-2.850386285506631076e-02 -1.155967011839026393e-01 4.881965830311345012e-01
-1.756061896102175182e-02 -1.222353681297189409e-01 5.083966900868330807e-01
-7.730519989562978367e-02 -1.107914439624027442e-01 5.096889279563054931e-01
-1.463453598435768624e-02 -1.182279772800300804e-01 4.865426792806211709e-01
-3.067055546062086996e-02 -1.147213783655514213e-01 4.858825085777931929e-01
-5.134971765839080327e-02 -9.681734853077482439e-02 4.296685996329073776e-01
-3.716356972891543022e-03 -1.259701937449159703e-01 5.171402331373856631e-01
-3.477583230818447058e-03 -9.992115656447475569e-02 4.575971534934208385e-01
-6.309844557560442824e-02 -1.057986687051392372e-01 4.500382404686713023e-01
-1.045150850737958104e-01 -1.020151469480918976e-01 4.664801548339932991e-01
-4.852872064706642563e-02 -1.060970047104117103e-01 4.599147410038587624e-01
-5.610509100882891953e-02 -1.107359123492328012e-01 4.719726430876424184e-01
-1.031172544258661256e-01 -8.750237636450391987e-02 4.702113450173761033e-01
-4.370968807467583150e-02 -3.556263069985931419e-02 4.349438487189586366e-01
-3.626767415852390208e-02 -1.036413037126551473e-01 4.616369870857609525e-01
-6.843480615130760614e-02 -1.086509075444725969e-01 4.643259090166962366e-01
-9.415937063972679155e-02 -1.046078476514863131e-01 5.133973352750894614e-01
1.681331311085526581e-03 -1.099559729095949817e-01 4.682486530615987408e-01
-3.601705116474682167e-02 -1.174230334984245200e-01 5.006590688847075699e-01
-9.385655278171152471e-02 -1.091600878571987732e-01 4.937310232898204365e-01
-1.825349022559598008e-02 -1.190554818203527071e-01 5.435578257121520540e-01
-3.371214315799225120e-02 -9.224757111634579454e-02 4.473008953751073657e-01
-7.023418230535631579e-02 -1.104953373775146575e-01 4.745924031886538108e-01
-4.048734898958340073e-02 -1.148879328895026225e-01 5.357199851545357827e-01
-6.137547900374479976e-02 -1.107293922592761798e-01 4.727728207867156196e-01
-3.334350227966161040e-02 -1.034421690116639342e-01 4.620858939743618943e-01
-4.599286087455352334e-02 -1.080597950669523744e-01 4.651961663858025231e-01
-1.452323385053979656e-02 -1.227373855890315640e-01 5.064852163703219556e-01
-1.576686968233170089e-02 -1.229467340366894035e-01 5.208188285716218724e-01
-1.076830686117820624e-01 -1.026310276384953257e-01 4.761001950110596015e-01
9.102291108418893856e-03 -1.260029887744780475e-01 5.352003088071037862e-01
-5.396147874264062283e-02 -1.056893791139829203e-01 4.560265080440276675e-01
-5.372917690163081517e-02 -2.766797386133885289e-02 4.438360971252017229e-01
-3.954143534162112353e-03 -1.241713152614088989e-01 5.025412267798423649e-01
-7.333723415893510233e-02 -1.113155397474221847e-01 4.815945074394122338e-01
-4.118869497092174370e-02 -4.696073628968605584e-02 4.346450271269834409e-01
-2.327652454200654017e-02 -1.208636752817782017e-01 5.098661122625578468e-01
-6.914538840218963089e-02 -9.395680673683830253e-02 4.206338172593630520e-01
-4.848162724518127742e-02 -7.893662128579226334e-02 4.289716994665377370e-01
-1.110921405273395945e-01 -9.996701086637270472e-02 4.808745868861851180e-01
-3.769077655958508188e-02 -1.170173189584166606e-01 5.269859826053774343e-01
-7.448098299589811511e-02 -1.043364755838127600e-01 4.451070616928133328e-01
-5.998491192119512899e-02 -1.100522223900712443e-01 4.697146408332856793e-01
-8.460126504288857652e-02 -1.079953435456741800e-01 5.134416028089139328e-01
-7.860221566420078076e-02 -1.114014595625654608e-01 4.996299410450911194e-01
-3.176049379968969716e-02 -4.588156903341178428e-02 4.369348791840987345e-01
-1.316551495426575812e-02 -1.166364558251385269e-01 4.818995533195085113e-01
-8.048319301968930028e-02 -1.096974103420636365e-01 5.113427066390149323e-01
-2.425004412046725608e-02 -4.919769550762423393e-02 4.384040988190345822e-01
-4.448029559436513652e-02 -4.597437735204445985e-02 4.343836603774975935e-01
-6.815589803564668647e-02 -1.036402019060628787e-01 4.353406100613090857e-01
-1.046052319150827560e-02 -1.244291594176768073e-01 5.195970015802344744e-01
-1.933294933384334738e-02 -7.366688662835894907e-02 4.407064870711843163e-01
-7.596104574505034568e-02 -1.103440128839627277e-01 4.749381308031675464e-01
-6.263680544259120353e-02 -6.746015576031956507e-02 4.297817668148571912e-01
-7.657125009609154487e-02 -1.117561619304015957e-01 4.980580178375291767e-01
-2.789468085993145399e-02 -7.772898475384380779e-02 4.401121141229123457e-01
-5.479357599098787224e-02 -9.709020476640059516e-02 4.245398957046389032e-01
-1.682059311542912633e-02 -9.549448420420478256e-02 4.527098162362233058e-01
-7.934936717413354490e-02 -1.024308841014340554e-01 4.421412726049868125e-01
-7.767579931693929796e-02 -9.763423743162634449e-02 4.295075174218219716e-01
-5.194455374853038966e-03 -9.798722527425683670e-02 4.556016509269017467e-01
-3.196036732228844240e-02 -4.082461154926348562e-02 4.370357082893270295e-01
-8.565778749658714553e-02 -1.076465621003687978e-01 4.643082928209801286e-01
-8.325815906158977320e-02 -1.103656709484849008e-01 5.010467064937232928e-01
-4.547267081377134867e-02 -3.256218749253072392e-02 4.353696533184122641e-01
-5.616414887888691865e-02 -1.113058088249259392e-01 4.757186792695228816e-01
-8.280668140648332620e-02 -1.104589256803796410e-01 4.786329171800693394e-01
-6.484492712279003868e-02 -1.056272953317988345e-01 4.493857711310106917e-01
-4.000401174307806340e-02 -8.941823896567092922e-02 4.420797101711070876e-01
-5.841491165426061782e-02 -1.124232988657957039e-01 4.836121830921363274e-01
-5.858764878558109235e-02 -1.143020555303046193e-01 5.065932738272815872e-01
-1.212959894092818097e-02 -1.230078689257558533e-01 5.325319011154073801e-01
-8.830099114274742034e-02 -1.098924446202101252e-01 4.795534550967407994e-01
-5.332332578032492748e-02 -3.119504078592784391e-02 4.398557043474558004e-01
-2.799118229988858605e-02 -5.592866005350970865e-02 4.370896068076159935e-01
-4.947570138719141475e-02 -1.125178892482501941e-01 4.821467087587275602e-01
-5.731549087189386632e-02 -5.803071732687544587e-02 4.325155844139128569e-01
-3.436515282993282683e-02 -1.184564845177154130e-01 5.166597542786889319e-01
-4.166148713423025590e-02 -1.170556530655769423e-01 5.093707949248659217e-01
-3.822380207124766865e-02 -1.146072247922816090e-01 4.887725777050649922e-01
-5.304122122895122554e-02 -6.500459463856644859e-02 4.288282587329929618e-01
-1.097014805036082702e-01 -1.025573462237132777e-01 4.941118217716709005e-01
-9.269071520506563452e-03 -8.415953892483417353e-02 4.461790962311442676e-01
-5.217132317718380097e-02 -6.728883834794162355e-02 4.282025854854139002e-01
-8.450164414369437660e-03 -1.127425327239863911e-01 4.722732438783733278e-01
-6.601206171962052671e-02 -1.076489875835363180e-01 4.596025563350624177e-01
-8.438863958914034902e-02 -1.051329726432979339e-01 4.549917670475885911e-01
-5.638794575750561561e-02 -1.140323170208000364e-01 5.209070391346265483e-01
-3.571194851525399949e-02 -1.179109501287294998e-01 5.218289504219186803e-01
-6.302741143079274022e-02 -8.009394030669737818e-02 4.242111812176745378e-01
-3.117145066854066018e-02 -4.811505358177084468e-02 4.370419654473501336e-01
-7.040409067833797163e-02 -1.083154107948069572e-01 4.628639004873000840e-01
-8.515547989515105318e-03 -9.617475689775346892e-02 4.534329839554501196e-01
-7.138953995163745125e-02 -9.346727172549341989e-02 4.210683848737854507e-01
-5.385367409411393608e-02 -2.661843608264748140e-02 4.449993239275494283e-01
-2.277385981227952536e-02 -1.178696958103445935e-01 4.931278377469817120e-01
-1.013646307195268936e-01 -1.066420178050028061e-01 4.988904955711853662e-01
-3.191065264057138529e-02 -1.163723849970331736e-01 5.397360232173208372e-01
-6.024892700204777934e-02 -1.140836369325567839e-01 5.085332088373027970e-01
1.109584405818972788e-02 -1.260951297592273201e-01 5.172264005385109886e-01
-8.539123133767555218e-02 -1.084768788636897852e-01 4.671981846219181445e-01
-2.269835992053273813e-02 -1.204831141855122745e-01 5.271167309560835790e-01
-6.476359028263189987e-02 -1.122924562915876279e-01 4.869032134293522773e-01
-4.639580039636687081e-02 -3.840600003226399273e-02 4.352967534037035513e-01
2.377031898161053713e-03 -1.254143273395364466e-01 5.063124731116199762e-01
-3.971085204903739008e-02 -1.171925587291506032e-01 5.047255026698668212e-01
-1.414042183238158924e-02 -9.391274714402488011e-02 4.511034435554567290e-01
-3.606463409569776735e-02 -7.998057661100760329e-02 4.384256556626777712e-01
-1.040161260606780463e-02 -1.168362441230842569e-01 4.806429897778721760e-01
-9.272597382136942012e-02 -8.744532299718330015e-02 4.537109861218511786e-01
-4.115512244828583438e-02 -1.095595348802181901e-01 4.721593806869535670e-01
-1.100742576284247376e-01 -1.020573779612125309e-01 4.984745130004714087e-01
-6.391052542569579387e-02 -1.041779731672049791e-01 4.351960752146994404e-01
-9.001463784640562071e-02 -1.097295928840516799e-01 4.958395544910443875e-01
-5.081180267335699136e-02 -9.475408270125269816e-02 4.285657869431020450e-01
-1.154388167967393408e-02 -5.629456499111323148e-02 4.383988020536587205e-01
-4.317585021812270912e-02 -1.097851747708407655e-01 4.723672170387739899e-01
-3.606336864827069250e-02 -1.179383635714034984e-01 5.059540957007150341e-01
-1.040934258252106531e-01 -8.862302180660745765e-02 4.702376468370377260e-01
-1.382875378030828765e-02 -5.444200124015840386e-02 4.384204290290197314e-01
-4.446997117935283343e-03 -1.178111059202273658e-01 4.813454238742483349e-01
-4.097591136156042424e-02 -1.029415373739742956e-01 4.576283527716256128e-01
-3.091556763081728179e-02 -1.191504744843339264e-01 5.101904270204292713e-01
-9.603044731663012978e-03 -6.296881112139361691e-02 4.393113665365819820e-01
-5.749643175499891817e-02 -1.144808241269649612e-01 5.080128686136791138e-01
-5.046360948481354997e-02 -9.588894116292921710e-02 4.312078361132203885e-01
-1.596973712959493755e-03 -1.166437227866215787e-01 4.787399974589702234e-01
-8.671283393082174218e-02 -1.061756764270208597e-01 5.159448488944416988e-01
-7.487008253803309477e-02 -1.053353744757438010e-01 4.509005284734685648e-01
3.836933234424889060e-03 -1.265564535733390283e-01 5.151234379876896696e-01
-2.078179673495226740e-02 -1.182884260634198687e-01 4.928263250038152909e-01
-3.445113619521435189e-02 -9.911244853645256869e-02 4.551997058111801886e-01
-2.229518767787733516e-02 -5.494111219021952097e-02 4.379669242349931157e-01
-7.848819976501643370e-03 -1.233644540846886573e-01 5.010139354155878078e-01
-5.428453352996572695e-02 -4.482389200767740445e-02 4.361474692324943669e-01
-1.522993565084018903e-02 -8.932426070420411424e-02 4.476621014210585559e-01
-5.291235090713687639e-02 -1.007937271153150627e-01 4.441213333084665371e-01
-4.924743525485004991e-02 -1.151097050271217975e-01 4.970564829371117432e-01
-2.605369676258816481e-03 -1.201900648241762959e-01 4.878322269598722172e-01
-5.567124266000168797e-02 -1.123560062693854111e-01 5.292961083439544634e-01
-8.084053183643347823e-03 -1.162862109904259367e-01 4.787012248048196361e-01
-8.670570785967253793e-03 -9.499812239391511315e-02 4.525035986884546890e-01
-1.052986120980048540e-01 -1.039085459686295426e-01 4.711265771422317172e-01
-4.535431613389923761e-02 -9.647212062591944970e-02 4.446276150317109987e-01
-1.321710312857999475e-02 -1.077051361146318664e-01 4.652456642996701253e-01
-1.058530000328369580e-01 -1.000644304770579723e-01 4.668466230529288441e-01
-9.369199256700679046e-02 -8.683961044835430965e-02 4.557442004286689219e-01
-4.810129001485046601e-02 -1.159220161371442986e-01 5.081065431061053683e-01
-9.840305065781407290e-02 -1.072878891592115858e-01 5.017596322607406067e-01
-1.023998650718562775e-01 -9.715169086518893327e-02 4.601943806861040209e-01
-3.566325573710051738e-02 -1.169445391234366638e-01 4.966298447384888681e-01
-5.788054855138024396e-02 -6.789006258770288738e-02 4.285395661570891024e-01
-9.538671752700544904e-02 -1.019485823367007882e-01 4.559969287041910069e-01
-8.442407591248004411e-03 -1.249411111156695092e-01 5.193878722055995656e-01
-7.678873321067070101e-02 -1.111471235066283231e-01 4.815471105248863570e-01
1.836087160824703733e-03 -1.268304562691169590e-01 5.245490340407027441e-01
-1.074760579156414375e-01 -9.462276143770956272e-02 4.689416360221937974e-01
-9.922250169167722011e-02 -9.044671983483022759e-02 4.600150525079160224e-01
-4.775812767106921847e-02 -5.100069036821844315e-02 4.339587436063002124e-01
-9.705055455062899794e-02 -8.891085889298089295e-02 4.585134413073048143e-01
-9.385057590792952875e-02 -8.860317297673708792e-02 4.542574993233392533e-01
-1.446917356539648841e-02 -1.169921838077417342e-01 4.836306182191502101e-01
-1.110817500602851726e-01 -1.003906616527538570e-01 4.860545987497549847e-01
-8.685018404565533756e-02 -1.057572045598851734e-01 4.579822992983593188e-01
-8.699322090514914618e-02 -1.043187739654806712e-01 5.207810154357237487e-01
-2.424759952412390562e-02 -1.205032756108816161e-01 5.069916977780034584e-01
-9.226169330780531475e-02 -1.075801037370295032e-01 4.688645638476195421e-01
-7.991175914006481973e-02 -1.105120070949917321e-01 4.772089212716613682e-01
1.109994819511283268e-03 -1.267713652743604202e-01 5.231604084989067704e-01
-1.653216518192460183e-02 -6.858304256833037960e-02 4.401298905665089189e-01
2.800888976694336160e-03 -1.236551363677604876e-01 4.990568587135308376e-01
-4.946582176219748578e-02 -6.049326486676633724e-02 4.308505171601970662e-01
-1.043354989092372398e-01 -1.000347443824146365e-01 4.632051761374623711e-01
-6.451532274607531259e-02 -1.123077695968050516e-01 4.868524715914935852e-01
