1.146913174407146550e-03 -1.172504257559291718e-01 4.799395606919572566e-01
-3.680271584758446762e-02 -8.597443618174929747e-02 4.398489802131457793e-01
-6.505338791111819896e-02 -1.136630667872840228e-01 4.993078147516545329e-01
-4.324811582638977969e-02 -1.170405036361116397e-01 5.104577576655884297e-01
-4.825291097107760330e-02 -1.070040051014465865e-01 4.597525627032005846e-01
-7.866545945341756052e-02 -1.111791352113274262e-01 4.749964990759170669e-01
-3.481166180083922201e-02 -3.802727468064907163e-02 4.357753635546545157e-01
-2.694554352149156409e-02 -6.066744706552498062e-02 4.367888487299258493e-01
-9.386284091900486126e-02 -1.046470543675879356e-01 5.139976830536430175e-01
-5.672990101548114339e-02 -1.149954714989401133e-01 5.099831460614863143e-01
-6.450635147042707573e-02 -1.059520411283899344e-01 4.400040966264783804e-01
-4.155438133977724935e-02 -1.166259524760057120e-01 4.979910517438654316e-01
-6.233112263589113411e-02 -1.137402345051367197e-01 5.159665083225204452e-01
-9.110237092380842061e-02 -1.100546391721349132e-01 4.758883030242402890e-01
-5.045782304424825671e-02 -1.153299447017819557e-01 4.963928314736873459e-01
-5.259296882827513286e-02 -1.129530351464263921e-01 4.818012362632462797e-01
-6.442593151734589407e-02 -1.134230608884629066e-01 5.152025745716092286e-01
-4.194758550870993086e-02 -1.138288462879298302e-01 4.852755963584285959e-01
-4.194795963285496802e-03 -1.159374778744793472e-01 4.769380370810427094e-01
-9.149395326348966351e-02 -8.770301412643430328e-02 4.518553375572135211e-01
-1.003289101886818552e-01 -1.081957851836130857e-01 4.813208419575315533e-01
-3.782537782268027143e-03 -1.258100031601819269e-01 5.141572032759581523e-01
-5.465298414867274246e-02 -1.063712558795502083e-01 4.534987074579150401e-01
-2.572430373089010236e-02 -1.186137129134911539e-01 4.967272233840656082e-01
-4.669678644577396343e-02 -3.894982473549422897e-02 4.350634163973007285e-01
-8.373287937532293557e-02 -1.110184607429375719e-01 4.763937550987882852e-01
-3.710764626798872950e-02 -1.181298272994941723e-01 5.156954754694726972e-01
-2.421902748809247330e-02 -1.034610680462710736e-01 4.622505108648249372e-01
-4.362010622828781797e-02 -4.945293290413935866e-02 4.337764149578286488e-01
-1.100210131179226170e-01 -1.028470827340909055e-01 4.963596719600754104e-01
-5.023396796741445847e-02 -1.111708301667924809e-01 4.721790596121500649e-01
-1.017214367707804934e-01 -1.034527411189727630e-01 4.623811352727099644e-01
-2.406033229563675491e-02 -7.917509730726823847e-02 4.411746687752771123e-01
-2.278140661522168320e-03 -1.043064384389628951e-01 4.614047191198458742e-01
-5.501917437429635488e-02 -9.538121751133432635e-02 4.225161773963140854e-01
-2.446993110821971823e-02 -1.207592615818030291e-01 5.180221749616258364e-01
-4.995568905775302909e-02 -1.158409176090935966e-01 5.161400286036763596e-01
-1.492709364894390447e-02 -1.213919853144816707e-01 4.979064061506856542e-01
-5.386609440861473558e-02 -1.023405603682598364e-01 4.280482913167337200e-01
-7.512601048573801232e-02 -1.123006424645396489e-01 5.033242549562249035e-01
-5.897231249437176470e-02 -9.373366221115779495e-02 4.211140623306230402e-01
-1.453029760493093972e-02 -7.327539349551689951e-02 4.410285578422999953e-01
-7.302247042706411229e-02 -1.102507462438718777e-01 5.199825907456403495e-01
-8.955264978479829385e-02 -1.096489748416935028e-01 4.707859390790730125e-01
-4.637348857537244157e-02 -1.154355681958905144e-01 4.931935874094870442e-01
-5.013864586638443199e-02 -4.863895268773374414e-02 4.340358062083379820e-01
-1.759289186984761694e-02 -1.204513785119698532e-01 5.386455254607320775e-01
-2.680961010333841876e-02 -1.182467967122355218e-01 5.369638287608756722e-01
-1.292069194844003635e-02 -1.117769053335365692e-01 4.715027924573467755e-01
-8.713190051998272179e-02 -8.744065893673583223e-02 4.447250714796399107e-01
-1.067091647513240815e-02 -7.750968311851294534e-02 4.429980337966867299e-01
-9.902366023930554706e-02 -1.061578626341233428e-01 4.658485268515707434e-01
-6.196711893366596557e-02 -1.122183405996185351e-01 5.243610909550111554e-01
-1.028342922838183238e-01 -1.075676899267184877e-01 4.858794936131621833e-01
-4.029096559535513822e-02 -1.074010531189894257e-01 4.644835446509355537e-01
-2.369080400362719857e-02 -1.010009671477494209e-01 4.591089040444524261e-01
-1.128032409591125246e-01 -9.819281274191107856e-02 4.798134538797741988e-01
-4.322933747394006043e-02 -9.135892292172768936e-02 4.397069778344984137e-01
-7.437361102263555235e-02 -9.746261509093973041e-02 4.240195859771879183e-01
-4.302466508625093361e-02 -1.027801351671706193e-01 4.538158727410081528e-01
-3.132772735827473592e-02 -1.156001337352624420e-01 4.879499619293826695e-01
-3.808199373012293582e-02 -8.912908890545723217e-02 4.414706562750282393e-01
-7.317067868512426576e-02 -1.118618685093728249e-01 5.118991509187984512e-01
-1.046600573628096720e-01 -1.048430108037701758e-01 4.689986983275090116e-01
-1.050945526592600649e-03 -1.255535259191891961e-01 5.079132582349472624e-01
-7.249408443362498344e-02 -1.028503187865183882e-01 4.294030989941842735e-01
-6.931232716512930603e-02 -1.097510754833074392e-01 4.649173017815200204e-01
-4.527053504534161305e-02 -5.131914940324561192e-02 4.336043359954906973e-01
-9.788599001767334801e-03 -1.179997143850854968e-01 4.825850611678306756e-01
-2.642449812645388668e-02 -9.705764103965128231e-02 4.539880902290159836e-01
-6.249503847915185983e-02 -1.069448105758906420e-01 4.504730970107178045e-01
-6.492509365662964271e-02 -1.109579732776306560e-01 4.706988089682560550e-01
-3.110226727444360267e-02 -1.192639735964861752e-01 5.086755246802309172e-01
-1.031983181012165185e-01 -8.904600039050752924e-02 4.685297756112464240e-01
-1.870668053242517670e-02 -4.017757638446510515e-02 4.384842123768989408e-01
-2.928717683067050964e-02 -7.384198107925310506e-02 4.377087041310497861e-01
-9.241819993153510548e-02 -1.074739080485904025e-01 5.075965620431633907e-01
-4.680544461630263553e-02 -6.751210127928787552e-02 4.293230726036642575e-01
-3.597468227659085527e-02 -6.382473278835498753e-02 4.344902496785824630e-01
-6.549673108815655398e-02 -1.115264133386234813e-01 4.733838178871458968e-01
-8.366292385305687529e-02 -1.067566884029707286e-01 5.185506211627667339e-01
-6.763778042961463011e-02 -8.847401253477711613e-02 4.196678229464806398e-01
-4.922078457319700728e-02 -1.097195131014497144e-01 4.662816211757074836e-01
-9.266364237844421092e-02 -9.186289233266689558e-02 4.497168080162403658e-01
-3.833343760302503761e-02 -1.134112185960036573e-01 4.832933654946300894e-01
-2.174995797767097575e-02 -1.210687705295403205e-01 5.241480333370843736e-01
-1.959378352135401555e-02 -4.424457814128219396e-02 4.387357439290825445e-01
-3.405047384391923088e-02 -4.607398634036027202e-02 4.357739708428060021e-01
-6.364254334699499631e-03 -1.254111625115909290e-01 5.140552481921538686e-01
-5.288670913497202017e-03 -9.821013777614585882e-02 4.553190197318474630e-01
-4.940946914220349651e-02 -9.743193122651264138e-02 4.342210534659114440e-01
-2.617023981589614717e-02 -6.720801980277205101e-02 4.374912024121982435e-01
-1.067908842085584370e-01 -9.526490493453500241e-02 4.673642227572661345e-01
-5.333587963435346135e-02 -1.029293204589451227e-01 4.341772229348758172e-01
-9.388607002741412855e-02 -9.563669129604897290e-02 4.507427575495561167e-01
-2.111099113091896920e-02 -4.445009954579075967e-02 4.387125336773438633e-01
-2.170812652741732282e-02 -1.202218664711868640e-01 5.327610322108045082e-01
-7.986113169125114153e-02 -9.544357383037502252e-02 4.305635645267032463e-01
-5.115801322484424263e-02 -1.122008498600664123e-01 4.770837190410324724e-01
-4.500393835675740167e-02 -1.104763158233720288e-01 4.718607433046574928e-01
-1.692842569985825510e-02 -1.224837407829632158e-01 5.081294489101713108e-01
-5.045235140496007187e-02 -1.138096986857418946e-01 4.859822186868085203e-01
-5.429542360465201140e-02 -1.153099554127473975e-01 5.141267503966734376e-01
-2.343089207686662595e-02 -6.369604185975505373e-02 4.377453385771805650e-01
-9.008668298586273993e-02 -1.034959372206654127e-01 5.196667840985070841e-01
-2.262371593767030162e-02 -1.211740684607243296e-01 5.188964768739914302e-01
-4.182040952784533278e-02 -1.074194552097799960e-01 4.637038872030627146e-01
-1.065959994038410408e-01 -1.028827569097962719e-01 4.707676200783512122e-01
-1.038116926485280755e-01 -1.065255180689405751e-01 4.977983979586441676e-01
-3.484412091470222295e-02 -1.184105647321959109e-01 5.197168835810006549e-01
-4.249247156863840413e-02 -8.299793149155801353e-02 4.339841130954796844e-01
-4.576927112894327992e-02 -8.152366589295681476e-02 4.298712175296781068e-01
-1.217027726269143476e-02 -6.043786316659140873e-02 4.387407502985956609e-01
-9.228609092710980677e-02 -1.080718324752652781e-01 5.056645292774462064e-01
-5.344110240516318500e-02 -3.842413888773628383e-02 4.379051857190894848e-01
-6.593026450486973167e-02 -1.061240838034704786e-01 4.438942583216003990e-01
-6.902361392810027474e-02 -8.669314095066027459e-02 4.214202152728798723e-01
-3.431648071592262317e-02 -8.723494776440304799e-02 4.418258325007299869e-01
-2.144263945074567634e-02 -5.506390346681722114e-02 4.378069930425713685e-01
-1.021211470142222716e-01 -1.077960702304328194e-01 4.888739054516407223e-01
-1.836552652460272592e-02 -1.193051364177210583e-01 5.426013565301650576e-01
-2.373842580785545664e-03 -1.183541720940015501e-01 4.821026202079553569e-01
-4.318573043551260718e-03 -1.259102597771671050e-01 5.182614658473042590e-01
-5.595879102118601553e-03 -1.231474756589226449e-01 5.370473441746155263e-01
-2.027093388286552861e-02 -8.927150310808845690e-02 4.465895004331188467e-01
1.545285915868645915e-02 -1.251168058299953201e-01 5.377364523725627343e-01
-2.904827328542657072e-02 -8.427673691953188606e-02 4.421616866807695501e-01
-3.016606772204234385e-02 -5.652965110955518457e-02 4.360239750559058991e-01
-8.514809027457412305e-02 -9.112561690420484251e-02 4.400003580673693682e-01
-3.921901500815735964e-02 -1.146172915392722202e-01 5.390244465094886639e-01
-5.513410277879355476e-02 -1.152148945804616215e-01 5.118666450941549151e-01
-4.060066936407006472e-02 -1.112769004806765383e-01 4.763144247520549324e-01
-9.856905309080214728e-02 -1.087195492448132517e-01 4.861215572095592408e-01
-7.625603258126160966e-02 -1.105501689493416373e-01 5.155418721984762476e-01
-3.456659291648590815e-02 -8.706179724561818878e-02 4.415741894234433973e-01
-6.008210383794779230e-02 -1.050482731051444046e-01 4.409685244091580136e-01
-4.115917416639174042e-02 -3.324395551714970365e-02 4.350721157481208246e-01
-8.110613658913810864e-02 -1.091859125431406258e-01 5.144159539570324347e-01
-6.452567618661318727e-02 -1.138341263676536236e-01 5.087511186957628384e-01
-7.081882194594510405e-02 -1.068287780869524028e-01 4.511800162592035646e-01
-4.988981405444616740e-02 -9.886773414638251600e-02 4.360993343558062785e-01
-9.673174614126844872e-02 -1.056844633164329555e-01 5.089162037120575910e-01
4.577968429350808346e-03 -1.270807962080995335e-01 5.210084072523992749e-01
-9.556020631734726822e-02 -1.094619845693668020e-01 4.867898657438016752e-01
-1.102196276803171365e-01 -9.983007849942508727e-02 4.752716210247485695e-01
-6.242282216283000923e-02 -1.123114718458210204e-01 5.234929760775174357e-01
-1.030396960414481922e-01 -9.646376742166798413e-02 4.611465780804211989e-01
-7.564181794402377590e-02 -1.119210294130596334e-01 4.813587564994524781e-01
-7.479796410284350605e-02 -1.125046629198728498e-01 5.015901937116750142e-01
-3.621790469235502269e-02 -5.378383576136425842e-02 4.347478547813620753e-01
-4.697218076005205828e-02 -1.149880670765280333e-01 5.274068942318776987e-01
-2.597894994097076082e-02 -1.115708863755087848e-01 4.758054710552314659e-01
-2.377999560995718714e-02 -1.172160812609497199e-01 4.904909521752183199e-01
-6.897779295770159469e-02 -1.084410427567716745e-01 4.587570661419411167e-01
-9.391500107984507295e-02 -1.077528685308126177e-01 4.667322135762964619e-01
-4.255174541160851309e-02 -1.158075644821384281e-01 4.931910012962882339e-01
1.256859802936925036e-02 -1.259689616479122420e-01 5.175035167802247704e-01
-3.460005730163013410e-02 -4.118876779264105809e-02 4.357690269292607832e-01
-5.625910740191099324e-02 -7.070859661708228661e-02 4.262843073635720903e-01
-2.128425424640133234e-02 -1.170176505131260564e-01 4.882500608164501710e-01
1.978177479605583780e-03 -1.267906471430587656e-01 5.171669590892697954e-01
-8.375938109903732776e-02 -8.910723082552145236e-02 4.385782864050775109e-01
-1.838526271720650543e-02 -5.314370125804859096e-02 4.381648014706132077e-01
-8.950838802397310945e-02 -1.078387314585868839e-01 4.634813679379899409e-01
-5.489981392690642704e-03 -1.180910438879425040e-01 4.813739531130752369e-01
-2.367825418820593622e-02 -1.154424861743311992e-01 4.849698902745849249e-01
-3.654140423250318986e-02 -4.030282226776511073e-02 4.350769150152503650e-01
-5.446755659869982613e-03 -1.125420419991811777e-01 4.712331235024939113e-01
-7.841006879185230538e-02 -1.033867058092418773e-01 4.390027953029757568e-01
-3.874120507641248823e-02 -7.910625731706744102e-02 4.349826052574192192e-01
-7.178138146004081621e-02 -1.084536688154110751e-01 4.589869360796910436e-01
-4.983547228317971450e-02 -1.149117735513997818e-01 5.245838147005017493e-01
-2.376380366450912829e-02 -8.896412363639212562e-02 4.458454459334137976e-01
-3.878017181586147777e-02 -1.137973038123551578e-01 4.847058761060976662e-01
-9.664037475137181310e-02 -1.080160980610974514e-01 5.021280755823591679e-01
-2.114427633645255683e-02 -8.756971581239329783e-02 4.455477048577098920e-01
-4.039774091369324749e-02 -1.172924097389408532e-01 5.033205238830954498e-01
-3.339006207197760256e-02 -1.188193875471959537e-01 5.083380916579453013e-01
-1.816930501224617994e-02 -1.163725011867802750e-01 4.842516522148475056e-01
-9.255546355320676266e-02 -1.092742929853075390e-01 5.000827137319795446e-01
-1.069321488156702582e-01 -1.038315226352705817e-01 5.014271738963789193e-01
-4.127223669284409840e-02 -6.382173839308501184e-02 4.323587889446261490e-01
-6.448244074606331033e-02 -1.115664304341689866e-01 4.733827561559056374e-01
-1.037462736261935969e-01 -1.037391713227568540e-01 5.052626119388000658e-01
-3.570150989894690235e-02 -8.734952892389903634e-02 4.412583443341197009e-01
-9.014640562833242665e-02 -1.056158159258418217e-01 4.567365252832021882e-01
-7.279791478486223599e-02 -9.788455555535804931e-02 4.231192155549409750e-01
-7.183336700538045516e-02 -1.104930287693517699e-01 5.203567875011381183e-01
-1.130514379701180738e-02 -1.039692036516082496e-01 4.602159588937926316e-01
-6.877887465957345514e-02 -1.111163429986957440e-01 4.726668010724390245e-01
-3.964289324874109566e-02 -1.156996700430823755e-01 5.335752083837558279e-01
-5.228355757699295302e-03 -1.242876798617160577e-01 5.329098629271368237e-01
-4.272810183850547783e-02 -1.157909870655067786e-01 5.282246106187984402e-01
-2.248946918713572857e-02 -1.212796609884258942e-01 5.167456473284758323e-01
-9.493214237527147770e-02 -1.087202780508820105e-01 5.004956163488850640e-01
-1.597995957104709347e-02 -9.388609751663404279e-02 4.504426213091993203e-01
-3.730385352915603636e-02 -3.271642066537210070e-02 4.357802817700359155e-01
-5.133431293610856566e-02 -3.383383589871594849e-02 4.382649601077635571e-01
-6.872379192723728110e-03 -1.100908983960407900e-01 4.675138332219484494e-01
-3.790478136601246190e-02 -1.166461725436632457e-01 5.303583944891910873e-01
-5.569346852715262308e-03 -1.255782742543154196e-01 5.147763794403480420e-01
-9.742703568674764003e-02 -1.089833532032796204e-01 4.892832752599836077e-01
-5.822808394918398134e-02 -8.694980275338357045e-02 4.222268921430026856e-01
-1.221611461164468643e-03 -1.215648010835691240e-01 4.917440475884038986e-01
-2.236779683558999185e-02 -6.554467775546916897e-02 4.381093598804948197e-01
-2.883835068787624772e-02 -1.061669387788005264e-01 4.664613401031910134e-01
-8.041151324806941614e-02 -1.096059444361442425e-01 5.137564683821062017e-01
-2.740277736748585394e-02 -9.257842389114598336e-02 4.487351104668431123e-01
-5.601855623527726008e-02 -9.906067897532393196e-02 4.216003178829646481e-01
1.216516750808193173e-02 -1.265999315941099823e-01 5.312668791654674427e-01
-5.971063514405766659e-02 -1.074025683397867720e-01 4.548735097890717616e-01
-2.750337439367181794e-02 -9.716410101197685278e-02 4.536199155265595584e-01
-5.912242516508318946e-02 -1.068506181512460795e-01 4.516311292130020805e-01
-8.869707283375913298e-02 -1.095900902257363613e-01 4.696135879934857371e-01
-6.062187148901906908e-02 -1.137721019174700726e-01 4.914886884285248336e-01
-3.637046312053812680e-02 -4.644029379844900191e-02 4.349483927546668460e-01
-2.525282527655597908e-02 -7.190301427048617633e-02 4.384415324337098685e-01
-5.427694865834827714e-02 -4.244734043729395112e-02 4.389414115856036802e-01
-7.833510851010989928e-02 -1.066018902947042934e-01 4.530407126303943599e-01
-9.878240886473738103e-02 -1.072323002029883510e-01 5.022745243435654539e-01
-2.876151318454306730e-02 -1.189884642475910609e-01 5.007070781921355573e-01
-9.598762254039129582e-02 -1.083999867582539078e-01 4.717204039546901706e-01
-9.104030489126326009e-02 -1.103005485655189633e-01 4.817468842608059187e-01
6.977204770301239332e-03 -1.267458753789717785e-01 5.167123789233384334e-01
-3.054626908188152676e-02 -1.193683533000918368e-01 5.161163036159285289e-01
-7.888419232739414533e-02 -1.063330031679879939e-01 4.522712053373121321e-01
-1.081894913032448308e-01 -1.037763579481931486e-01 4.784006041928664521e-01
1.173888966435737875e-02 -1.261114837420291013e-01 5.352402503801539924e-01
-6.715447637441207540e-02 -1.133616172279745815e-01 4.969854789026164621e-01
-1.013269705601396384e-02 -1.240061260235217622e-01 5.285876278375848392e-01
-5.500844944823284066e-02 -7.012272510582885643e-02 4.261888817253687844e-01
-5.212458354194410975e-02 -1.129547521493550755e-01 5.306326682508504256e-01
-6.054574887608587391e-02 -9.467767442797717092e-02 4.208324471143596868e-01
-2.920765469550013968e-02 -5.877350968914944740e-02 4.362385957153267491e-01
-7.211767252778243653e-02 -1.118809670929498401e-01 4.792828572907649742e-01
-3.953835101235204930e-02 -1.155659777057738286e-01 5.345021682982530331e-01
-4.447335978224935954e-02 -1.028349789907010148e-01 4.528139639257374172e-01
-5.888924604397949986e-02 -5.907935988491099660e-02 4.333676930235947355e-01
-5.656345909967952501e-02 -1.122290133384686028e-01 5.294224187512154289e-01
-2.791686188071511310e-02 -1.165349050433302780e-01 4.900917749099409360e-01
-7.958406882413184003e-02 -1.098520455872895180e-01 5.138872850989425478e-01
-5.523446817529280989e-02 -5.744391708711663741e-02 4.313443129905662476e-01
-1.388490298555367444e-02 -1.229039388559375057e-01 5.291191001839433694e-01
-3.155265108480310304e-02 -1.165384375257697835e-01 5.396134211544437731e-01
-4.240759778627095633e-02 -5.842534361707979462e-02 4.324586973922082134e-01
-4.991633221358361683e-02 -8.673980530104925812e-02 4.267638575641510279e-01
-4.790357406561933373e-02 -7.258885094576547625e-02 4.282572912096303530e-01
-3.051734087500168613e-02 -1.194337000125484383e-01 5.104200411113023472e-01
9.255818866249956173e-03 -1.264862752997537310e-01 5.171185774662838686e-01
-5.424839098092763823e-02 -6.510013209823267699e-02 4.282775099502216243e-01
-5.023088146978493818e-02 -1.147544536784830815e-01 5.249896401594899009e-01
-6.286467480504855099e-02 -1.139948399191675066e-01 5.004833375169327470e-01
-1.616283044253496309e-02 -6.102057531807704438e-02 4.386099605683883573e-01
-4.249842041266952558e-02 -9.117196023814255756e-02 4.402641982033253520e-01
-2.038314225543422231e-02 -6.748326465139851960e-02 4.388791354289325874e-01
-8.227415355658261598e-02 -1.111633034734611641e-01 4.999788487366086387e-01
-6.860194742790404199e-02 -1.090594975571374942e-01 4.614985001413192678e-01
-3.100493424419773977e-02 -1.035010318864086482e-01 4.615570295890973340e-01
-9.123475977450307139e-02 -9.988778538779341520e-02 4.496114990238317954e-01
-7.110235756420375808e-02 -1.129664891607457811e-01 4.990999828221334145e-01
-7.982313309341113050e-02 -1.118716753047941243e-01 4.914433685004945263e-01
-1.766758457345005487e-02 -1.199353251490310052e-01 4.941772428541810758e-01
-4.853424921855633428e-02 -3.346571230262287283e-02 4.362453034752838410e-01
-7.773734174765747906e-03 -1.152374622503222340e-01 4.761508639146873612e-01
-5.144973476159103720e-02 -1.151664575125577600e-01 5.204046768837889969e-01
-3.526002536870792570e-02 -1.160074610447613397e-01 5.378354249441971158e-01
-2.243189750979021971e-02 -1.191132808468001320e-01 4.967082077630303738e-01
-4.019183961932426552e-02 -1.066900123972767955e-01 4.632910726350492059e-01
-9.272795121441124166e-02 -1.070836685943519911e-01 5.086880322642614027e-01
-3.666157580510177871e-02 -1.121909117472928014e-01 4.787377600086218377e-01
2.946232454594633222e-03 -1.268031283915635188e-01 5.256679579218263010e-01
-1.316287777539535721e-02 -1.239391904268611899e-01 5.153126006952140070e-01
-2.054508493784295078e-02 -1.097862866662860232e-01 4.710946468725602521e-01
-6.844933453743619160e-03 -1.202764363511409224e-01 4.885601971885212835e-01
-4.542620597062120569e-02 -9.452393082075098707e-02 4.406811359924320826e-01
-9.032847240898747576e-02 -8.822652742710006268e-02 4.490653090784233470e-01
-4.232064478330165719e-02 -1.172051029903565661e-01 5.103925663307907756e-01
-3.321552750509852714e-02 -3.866962941828774175e-02 4.363539147305377508e-01
-1.046450029756247485e-01 -1.013736331403412710e-01 4.638824918041747902e-01
-7.066619733280701809e-02 -1.101069814785565898e-01 5.230403197750527200e-01
-3.432769177046540721e-02 -9.093285300034602281e-02 4.448281276828152109e-01
-6.681782474085326551e-02 -9.885827735157327878e-02 4.204056643191276810e-01
-4.823263435551631423e-02 -9.740091490578062228e-02 4.388235338242018058e-01
-1.343386632778245139e-02 -1.007672676599675604e-01 4.567642068567146496e-01
-1.579705679566389270e-02 -1.136875510357039792e-01 4.766413287222200368e-01
-5.134073614346520292e-02 -1.157176759275638095e-01 5.136456299119049884e-01
-9.949784941077417788e-02 -1.078631624044283921e-01 4.980514985561154684e-01
-1.019722179798113609e-01 -9.170529145354791578e-02 4.634024817428020193e-01
4.048460862277726904e-03 -1.094603314811000150e-01 4.677749087936109995e-01
-2.796032000118982286e-02 -1.192750932461999619e-01 5.269541851777647112e-01
-1.366893934598610756e-02 -1.017095094538027766e-01 4.578255229789123248e-01
-1.499325726290159227e-02 -1.225666576813881220e-01 5.293552174590704373e-01
3.515657171838017930e-03 -1.249584485103890363e-01 5.034996561474570642e-01
8.494226989897404184e-03 -1.260769514266610603e-01 5.344593023327464110e-01
-3.954931111452104908e-02 -1.100901800301116312e-01 4.721594973649815286e-01
-8.374781035634677739e-02 -1.115276876110854326e-01 4.864187639446497791e-01
-2.383432033934106131e-02 -1.195909932942632453e-01 4.992848419990985054e-01
-6.608660115843463523e-02 -1.136164952287319757e-01 5.067408300057970605e-01
-1.628970848148473052e-02 -1.004044885117479774e-01 4.571995368514387148e-01
-1.407749020136393400e-02 -1.078886933331690556e-01 4.652235218149917695e-01
-4.307347085414955229e-02 -7.144652758129335646e-02 4.312940448651520486e-01
-1.823019328342855364e-02 -1.221298272743058522e-01 5.075746748831414523e-01
-1.021715032535663592e-01 -1.043397840549813577e-01 4.638874070910492531e-01
-6.419972650461086561e-02 -1.054524836046765168e-01 4.357741130170241228e-01
-3.135975511862494625e-02 -1.074694375766229310e-01 4.680242585125294896e-01
-2.244070364835832471e-03 -9.585734970058724935e-02 4.537975955164632036e-01
-4.493117615785060387e-02 -1.140153234410731659e-01 4.864970237128050101e-01
-5.467787992972800160e-02 -5.444953271227385982e-02 4.326986063248404735e-01
-8.019843968264729617e-02 -1.072994057678861857e-01 4.561023344480809039e-01
-5.951011846495958546e-02 -1.144883911749643712e-01 5.012986953771679799e-01
-3.386016200022391731e-02 -1.170518082297283824e-01 4.944639014609341077e-01
-4.141878396833728604e-02 -2.944861813943302348e-02 4.354964662981130052e-01
-4.133788917744479763e-02 -1.087749587618726810e-01 4.669858667344756742e-01
-1.719722857824009313e-02 -1.135650788264021549e-01 4.772377436946677043e-01
-5.649178590957178864e-02 -5.681284566914687750e-02 4.325294895719562493e-01
-6.699992465018091148e-02 -1.033720666760505058e-01 4.239201846032135124e-01
-1.006049938074313616e-01 -1.002952098958809352e-01 4.592154005030370523e-01
-9.226718145000692428e-02 -8.896696499464598618e-02 4.518280382358670355e-01
-3.264260810616131936e-02 -1.050980645263687174e-01 4.636962908773035741e-01
-2.477491288938848263e-02 -1.201273214075371104e-01 5.257570980529830962e-01
-1.386753170376731417e-02 -8.217202580765399500e-02 4.441288788275608024e-01
-3.897995962501712292e-02 -7.009450920923028516e-02 4.331410065964086953e-01
-1.159800198064409385e-02 -1.231827689565717643e-01 5.041037702118814634e-01
-4.950795812630199438e-02 -1.152653239001387581e-01 4.947229575352936060e-01
3.319138473359571281e-03 -1.266158647311202146e-01 5.146871175987732805e-01
-1.053773673807675490e-02 -1.233529740287875459e-01 5.328864118895192403e-01
-5.158223547390227565e-02 -6.758831211359574154e-02 4.275964472427428720e-01
-5.353074335507282400e-02 -1.133523468533734896e-01 5.278457740602358061e-01
-1.538931100530796861e-02 -1.227680942540529813e-01 5.254051767250939031e-01
-2.329496365943767994e-02 -1.051755136242358002e-01 4.644499626948286886e-01
-4.070490928925254298e-02 -1.156459615671523583e-01 4.917551914691137283e-01
-2.131866975412621129e-02 -6.961815140264146495e-02 4.390615667327244509e-01
-7.825230686129960866e-03 -1.023478274328600973e-01 4.586026513993999854e-01
-1.671048874426758757e-02 -1.163196357253204333e-01 4.832787244007106797e-01
-4.088488668542514248e-02 -1.003847501618362059e-01 4.513628589450301987e-01
-7.909923111288726105e-02 -1.035961965604348806e-01 4.418038994791270713e-01
-3.104609698392186284e-02 -5.571352033213688992e-02 4.358538434145597384e-01
-1.058730994999004943e-01 -1.059621208615960930e-01 4.965353633812242262e-01
-6.327249113376960665e-02 -1.111143390685036259e-01 4.711505250481641816e-01
-8.455017714140951671e-03 -1.247080016109019529e-01 5.251957547758622225e-01
-6.424377310515144712e-02 -1.055053239789803948e-01 4.350779901233516878e-01
-2.363232183197747777e-02 -5.768234845555676726e-02 4.371994802783562006e-01
-3.826846303555111323e-02 -1.071729983828775268e-01 4.651248765614675595e-01
-3.861468241286156178e-02 -1.164166289519142777e-01 4.944093618039613891e-01
-4.123594773757225523e-02 -1.113652457673595941e-01 4.765425641459302142e-01
-5.439092162612357839e-02 -1.025285149878055052e-01 4.239504510150592931e-01
-5.171807311316999750e-02 -1.014393241066989804e-01 4.356105688841535595e-01
-6.792276812118137885e-02 -1.132792974115384571e-01 5.093806365470052722e-01
-5.323790833894801594e-02 -1.017440998002704794e-01 4.413789303056628865e-01
-4.058654037764083608e-03 -1.092001045753533128e-01 4.664111600103973965e-01
-9.319042689929016299e-02 -1.064414109699522992e-01 4.614306745427727563e-01
-1.102244421431563051e-02 -1.018918356105386891e-01 4.579265941917552984e-01
2.036306367498856747e-03 -1.270043777759033710e-01 5.201968695443792701e-01
-3.303026191024143604e-02 -1.183090804012089520e-01 5.251332360746503447e-01
-4.630125372841478043e-02 -1.165359819910518763e-01 5.126317276145460067e-01
-2.206205173259966762e-02 -1.186946086891230295e-01 5.407770979514227028e-01
-1.024881725987823212e-02 -1.143369129191643963e-01 4.750427058933282543e-01
7.448777065015830569e-03 -1.265769608785094757e-01 5.294673368944905478e-01
-1.555120049600659457e-02 -1.228776282037551404e-01 5.089446398918399117e-01
-8.268480891042723213e-02 -1.029477000820428062e-01 4.443677207870917467e-01
-5.514703083213547130e-02 -1.025743648312163053e-01 4.383653056272505122e-01
-4.940528052035605272e-02 -8.576172778705451472e-02 4.271612054369964828e-01
-5.116999837501502724e-02 -9.853754262668146247e-02 4.276661246970387964e-01
-3.070078659902746726e-02 -8.652453996157899452e-02 4.427645804105369565e-01
-1.486854602823013335e-02 -1.009792491615621596e-01 4.573791475349058833e-01
-8.971890492998199629e-02 -1.056707243132853635e-01 4.565705899846524973e-01
-4.894632470935146584e-02 -9.777589710307707516e-02 4.369725996659292733e-01
-4.418984365578712548e-02 -1.161244358944514277e-01 4.953382250083155358e-01
-7.701268620623376304e-02 -8.790116409353362914e-02 4.284061713170178587e-01
-3.570049658414941977e-03 -1.259832499225728153e-01 5.158888674413659725e-01
-9.201662846802341478e-02 -1.046332509558815516e-01 5.154376744991344683e-01
-9.858295519055239320e-02 -1.052075675881752742e-01 5.082401783837883213e-01
-4.153490740769137657e-02 -9.423804893688475515e-02 4.438362506932854723e-01
-4.884387139961176433e-02 -7.632772215316709075e-02 4.273952069985793578e-01
-4.209070327049687504e-02 -1.158513896427494361e-01 4.932328117495781705e-01
-1.002123898940573410e-01 -1.035530136853618360e-01 4.611398075453055356e-01
-4.041074947592707828e-02 -4.633321190506669435e-02 4.343640152403935861e-01
-1.530499027360949713e-03 -1.234405701333577965e-01 4.978364941256020471e-01
-2.574789330165230469e-02 -1.043885052867593866e-01 4.637327458884791254e-01
-4.487955326229107339e-02 -1.161253137381616091e-01 5.235813611829363001e-01
-2.648203636247777742e-02 -6.344019436506044551e-02 4.371173016265766376e-01
-3.405718157092578469e-02 -1.087331700998536294e-01 4.699265943837422910e-01
-4.786820549085697013e-02 -6.288388060461050366e-02 4.297182564832727203e-01
-6.647796302800116665e-03 -1.025753993232142031e-01 4.590269733646744621e-01
-7.566545600265153770e-02 -1.124357539461231376e-01 4.992071775596311767e-01
-4.751340742610347251e-02 -1.003409711844100299e-01 4.451593731951569710e-01
-5.787294882358081510e-02 -1.148262574084169957e-01 5.119386267997617646e-01
-6.639714119896743261e-02 -1.109501256375120676e-01 4.709327759421227388e-01
-4.696471066330461935e-02 -9.634547967386913880e-02 4.403163264743065741e-01
-5.171255485568775068e-02 -5.631797071008957239e-02 4.318486414786348870e-01
-3.194211729351161249e-03 -1.231914387141613831e-01 4.972507914183734168e-01
-1.046391383166419553e-01 -8.954290274899597002e-02 4.702816813593028722e-01
-8.122523885617724537e-02 -1.086206089227873955e-01 5.158927872076874976e-01
-1.068348298789273121e-01 -9.461372727712534514e-02 4.679988401950931354e-01
-6.824859517020016864e-02 -1.077346545446788706e-01 4.556314256652532202e-01
-4.949372222030989921e-02 -8.475461436058759346e-02 4.270683302520912883e-01
-4.073963750741937256e-02 -1.146572166501333423e-01 5.362971633267255012e-01
-6.111043644946806061e-03 -1.215351631581595010e-01 4.924420308448834160e-01
9.467331029473901455e-04 -1.220652501462549944e-01 4.934466489309234927e-01
-2.298502328181322926e-02 -1.133110066128728832e-01 4.790919798227439852e-01
-1.399834442624880645e-02 -5.494797593844093914e-02 4.382957451949170413e-01
-2.266340273983962622e-02 -1.211221959239020818e-01 5.092071896644381201e-01
-3.852598910488734540e-02 -3.122328579883408214e-02 4.357215542948194575e-01
-8.978505029880781696e-02 -1.033120298743021442e-01 4.520061253315654781e-01
-6.351693626834503670e-02 -7.561929692363496269e-02 4.255557726653546036e-01
-2.786012645251139536e-02 -1.197184031239264534e-01 5.216434427797285167e-01
-3.211299803977934325e-02 -1.092313680660978031e-01 4.712492829294154806e-01
-9.050357607430328799e-02 -1.001789677952188984e-01 4.488521895669383976e-01
-5.581554205665282403e-02 -6.866146367296258046e-02 4.269605776441495193e-01
-5.398384612958313442e-03 -8.479484405673767822e-02 4.467873128631029145e-01
-8.529382919074383895e-02 -9.851145490265965365e-02 4.416986513550623106e-01
-6.381876173810249742e-02 -8.579604878367474985e-02 4.214373545189048498e-01
-3.908957106300946227e-02 -1.021748371813125250e-01 4.557613883002853972e-01
1.893911764987933101e-03 -1.267388329320804918e-01 5.163679933230301833e-01
-7.345920112320450390e-02 -1.108155105052846673e-01 4.719014831080355354e-01
-1.985339036272536217e-02 -7.495719047970669791e-02 4.404528012347363464e-01
-1.056717177435713140e-01 -1.061312849519544660e-01 4.819278461596179786e-01
-8.769915915499752052e-03 -6.208580426434139737e-02 4.389475913815554242e-01
-2.450128590515590274e-02 -1.088704362651049529e-01 4.703807219877947365e-01
-8.172983082098310426e-02 -9.896496351421442406e-02 4.365341121601672425e-01
-5.474587146588524855e-02 -1.048950599718108112e-01 4.485378149145111126e-01
-1.410754507545754211e-02 -6.071624603960285027e-02 4.388155917184307642e-01
-3.312705594557679989e-02 -1.031651159043095040e-01 4.604384761531795656e-01
-4.950228844508007542e-02 -8.624271908995739810e-02 4.270994021942194352e-01
-8.784726055923409993e-02 -9.675870256771273992e-02 4.428244020347107957e-01
-5.274404740591221580e-02 -5.700654685429591695e-02 4.315863655350984929e-01
-5.667652919170973469e-02 -1.050941456956308723e-01 4.280695798339045344e-01
2.975708756618066463e-03 -1.178252957719226612e-01 4.815896042641929498e-01
-3.745153047164957033e-02 -1.178182990908889366e-01 5.031048746295473384e-01
-2.704484847356021342e-03 -8.031200832723799088e-02 4.453892184349890759e-01
-8.197649188729318193e-02 -1.068076484159064116e-01 4.552219837625418042e-01
-5.094468992891371117e-02 -1.147061295418690952e-01 4.911350055945276072e-01
-9.551659220633314240e-02 -8.516230460477368369e-02 4.611120494696258065e-01
-9.195267362909093425e-03 -8.289004998221642662e-02 4.452856694763092094e-01
-5.394852342225254366e-02 -1.140756424260242763e-01 5.239979958520701864e-01
-2.750018579542551356e-02 -1.179659838351573287e-01 5.375189930090923385e-01
-4.817254103082423133e-02 -1.161909265080354747e-01 5.068158697512559208e-01
-2.229908774786051526e-02 -1.004605514060389615e-01 4.583471532496121159e-01
-8.132061041119294231e-02 -1.107017659332527881e-01 5.059877726444399482e-01
-8.454610816604202217e-02 -1.082738727640281118e-01 4.617064805562575702e-01
-2.980411432747019640e-02 -1.151582532387943475e-01 4.857273901810769678e-01
-4.417467179625824553e-02 -9.188251812959208342e-02 4.379037541706894410e-01
-2.169274742816260787e-02 -7.395278643193223256e-02 4.398377832157916445e-01
-7.402355185919351488e-02 -9.564931480409874509e-02 4.225643387802900386e-01
-7.683119907642214919e-02 -9.915648108744069822e-02 4.277044415819953316e-01
-4.044018643690523024e-02 -2.727461736262062203e-02 4.358530596147791591e-01
-1.628113646546832174e-02 -9.834008952807037074e-02 4.551496423404193803e-01
-3.631727843314117021e-02 -1.179544234470042002e-01 5.027533467263236577e-01
-1.547205337010250890e-02 -1.164012385288762386e-01 4.825878419689531018e-01
-5.407919018249666282e-02 -1.153786407305155415e-01 5.091357684380766191e-01
-9.219755820010983038e-02 -1.099844390034492997e-01 4.775434640809431142e-01
-2.770087791010504910e-02 -7.742133329886048687e-02 4.393705006132963553e-01
4.816277630077326136e-05 -1.266040692557808545e-01 5.242867727055919858e-01
-1.335917845813769378e-02 -5.358126577657826989e-02 4.382180280553488183e-01
-2.575154333003278409e-02 -1.198445784141148746e-01 5.263399732276365928e-01
-3.155447331626998891e-04 -1.117262204990379232e-01 4.699891315984139339e-01
-1.140621797584912001e-02 -1.141060919335095680e-01 4.749984259660793295e-01
-7.381954169485609174e-02 -1.072228622269234544e-01 4.537958185521369647e-01
8.214143765020895729e-03 -1.259216824609401542e-01 5.352551428189469274e-01
-2.200521628654036194e-02 -1.190744647864774852e-01 5.391032111731984822e-01
-4.498832898947962428e-02 -9.929874851032340077e-02 4.459541517236520480e-01
-1.157584114897368573e-02 -1.101172996000194249e-01 4.683775885626870195e-01
-4.906728122203235509e-02 -5.451003838744324093e-02 4.325672607983889195e-01
-2.153935713562574530e-03 -9.946220134050083594e-02 4.570039532647146574e-01
-5.123608188251475848e-02 -1.055852395388043319e-01 4.535055173661720063e-01
-7.732069385612744261e-02 -1.036728358303939806e-01 4.389121988431861632e-01
-9.864283272034883934e-03 -9.360591760739224443e-02 4.506879753372486919e-01
-7.841268188953440244e-02 -9.889268590674955839e-02 4.304778447997849589e-01
-1.045225397910443249e-01 -1.056674365075644523e-01 4.999017737227945957e-01
-4.191055729097939442e-02 -1.172572023148559656e-01 5.134041020484375606e-01
-3.796859409839210830e-02 -9.508566481872918197e-02 4.467386820858194052e-01
-1.782916822205707699e-02 -1.213256663950394582e-01 5.018539265418249240e-01
-5.445720826075595156e-02 -1.099538173517670275e-01 4.660920368855225870e-01
-5.332434274531360624e-02 -1.092059582063284046e-01 4.634408640121334688e-01
-5.143846722898406942e-02 -1.005169157740437025e-01 4.342885280334373155e-01
-8.094810946938907348e-02 -1.093530855382149197e-01 4.646912695554970552e-01
-2.220029433430234077e-03 -8.130554393196642859e-02 4.458475430713721432e-01
-5.765929682943732315e-02 -1.053047970489314061e-01 4.298289529128869191e-01
-4.252257238138062306e-02 -1.085960129792926249e-01 4.656374585702408586e-01
-1.251974773164302515e-02 -7.503430020968504532e-02 4.418731351388905937e-01
-1.573607150530366081e-02 -8.543870104450743130e-02 4.452587055123322091e-01
-6.874747328616673259e-02 -9.795743340451153192e-02 4.201041636084653086e-01
-2.015490190554533080e-03 -1.257844965010658234e-01 5.097524785190700181e-01
-4.840542915525331003e-02 -1.139886400856809784e-01 4.869083343060511271e-01
-4.115031244385052023e-02 -1.132964572728563379e-01 4.833221806519685249e-01
-2.105436019412720849e-02 -1.216934828593389389e-01 5.150593790054585064e-01
-8.011803273128584313e-02 -1.085221004715264254e-01 4.610287999844897566e-01
4.335441655409472995e-03 -1.257576488210069565e-01 5.083902129933987046e-01
-2.463466641843465449e-02 -1.196038257793261284e-01 5.313102822552357996e-01
-2.083494561607735981e-03 -1.251337489451075924e-01 5.065265625735489996e-01
-7.850104699564791622e-02 -1.066091222309302339e-01 4.531478878068301852e-01
-1.548188604665319545e-02 -1.215840464328965809e-01 4.995588182234265706e-01
-7.877385848373236188e-02 -1.087814758026106055e-01 4.617417347189722854e-01
-5.432745178186505070e-02 -1.038533238839933620e-01 4.322910245780585692e-01
-5.303452178915414594e-02 -6.232130056475736896e-02 4.294785809489064521e-01
-1.424148508137945343e-02 -1.084503768942879226e-01 4.662635567204058695e-01
-7.529149485338693104e-02 -1.069939242627917092e-01 5.269776271247057498e-01
-3.628218633233407098e-02 -1.020391443632021750e-01 4.575690249953866529e-01
-5.598925277077845819e-02 -9.557885950477927606e-02 4.217026747081393245e-01
-6.608991830146082602e-02 -1.133771262237558974e-01 5.125264009349975725e-01
