7.277155697646945851e-03 -1.251380476142526510e-01 5.068276510791738243e-01
-1.102360193864324461e-01 -9.792948168697442057e-02 4.742713417748848359e-01
-7.264046973159878073e-02 -1.090912631460737581e-01 5.237051275450543830e-01
-1.848881309275302726e-02 -1.215595631029688234e-01 5.045804612167720249e-01
-8.483020983503523904e-02 -9.247918585515929601e-02 4.383891923228122600e-01
-4.334382354543015597e-02 -1.168252816485883944e-01 5.127252665433359446e-01
-3.811329818623632876e-03 -1.109030473044787246e-01 4.685640090037241356e-01
-4.025958691388991512e-02 -6.198795346883816115e-02 4.331475584696591885e-01
-4.674491076054252542e-03 -1.258319841435513731e-01 5.193793646448441326e-01
-2.513319831701365387e-02 -7.905713731191860161e-02 4.410975262741136937e-01
-3.700158991650395746e-02 -6.198265370927577567e-02 4.343706186275348990e-01
-1.066446996770401973e-01 -9.699630024927376193e-02 4.658930820995959010e-01
-1.866797317862621108e-03 -1.263336114441392100e-01 5.171926008356796389e-01
-8.169175344259971272e-02 -9.063942222441803698e-02 4.335165952333123185e-01
-5.209354672211918835e-02 -1.131553608773081254e-01 4.845978304452418506e-01
-1.875654998974622678e-02 -9.554580828532655001e-02 4.526057868515421800e-01
-5.639111697796766326e-02 -1.123780068131158549e-01 4.815239721058918732e-01
-4.277052683266761857e-02 -1.155940236377228231e-01 4.935547024281616846e-01
-1.864518337165851566e-02 -1.203488637598034011e-01 4.976475465338790483e-01
-2.915645387475384459e-02 -1.109830119717804958e-01 4.754345005457187856e-01
-1.762341427262222038e-02 -6.369920326498602903e-02 4.387829648105461833e-01
-9.556537330731552926e-02 -1.026344492875498615e-01 4.563315078530247315e-01
-4.202649134289057620e-02 -3.659409824507334208e-02 4.347205080836170077e-01
-4.016808473332605933e-02 -8.668840027951651983e-02 4.385533766156541335e-01
5.045863423340351747e-03 -1.234355350513019617e-01 4.988226979942635420e-01
-6.327403894322417011e-03 -1.111110226423731862e-01 4.691470489332922322e-01
-3.460431244805396711e-02 -9.542540010811643991e-02 4.492104380677735542e-01
-3.524967514872542201e-02 -3.643542206535499428e-02 4.357363133287910917e-01
-8.090123712697723513e-02 -1.042468209478793345e-01 4.484569627795981228e-01
-7.668651998644461509e-02 -1.047951879566397931e-01 4.475587195961660547e-01
-3.574256845750337086e-02 -8.314397735669407097e-02 4.393133617863511642e-01
-7.622059299781508424e-02 -9.952501317563058891e-02 4.284822886019028498e-01
-3.626965458302911643e-02 -3.026017518088637906e-02 4.363501796027164925e-01
-6.326994992230530745e-02 -1.100350941221961837e-01 4.685159930186761357e-01
-5.414719041391528875e-02 -1.081260479147476139e-01 4.617101917289740953e-01
-7.382117535151359877e-02 -1.120885071592355592e-01 4.932310920689091382e-01
-2.151710402402182837e-02 -1.191883960212698490e-01 4.965582490990886333e-01
2.426543866527807597e-03 -8.925953645063591790e-02 4.502681690861115582e-01
5.062740236881288491e-04 -1.060242573955505474e-01 4.636129075905454089e-01
-6.949143759661570441e-02 -1.122519555950162451e-01 5.128658701732339287e-01
-8.073567339109080643e-02 -9.214961060561843720e-02 4.309569831409277296e-01
-3.579586514721881663e-02 -5.331178710785003383e-02 4.349439660094950311e-01
-8.862937890173944178e-02 -1.101359368853052356e-01 4.943412395463295805e-01
-4.787453034636027227e-02 -9.400647786868514266e-02 4.344276831539857775e-01
-1.350353451586026009e-02 -1.226573930901387333e-01 5.324313184253940401e-01
-1.889474129745041114e-02 -1.197864727773607224e-01 4.954626446945099016e-01
-6.748951015095062955e-02 -1.049124938608077123e-01 4.409274680042686856e-01
-2.296666760378527142e-02 -1.177954519049645016e-01 5.433573631448831431e-01
1.083766382385224943e-03 -1.053776160010661406e-01 4.630150420388233767e-01
-2.705212391748500200e-02 -6.891589774649933831e-02 4.375950419008540759e-01
-8.384708996821127469e-02 -1.103970620170745265e-01 5.003919392441408265e-01
-5.438816476446481363e-02 -5.637736190583703122e-02 4.316871396587811383e-01
5.956942845727113134e-03 -1.209034213586145934e-01 4.912252588060363467e-01
-6.561396086856630117e-02 -1.085123366358871771e-01 4.617671480941308859e-01
-6.452833383458216401e-03 -8.486739645679468313e-02 4.467093650077743061e-01
-3.160125008521438156e-02 -5.732706543874085958e-02 4.358609947457950384e-01
-9.890211540297054460e-02 -1.079326190392355111e-01 4.784592108989371706e-01
-2.000625112349933843e-02 -9.243229647137700400e-02 4.494728061078637205e-01
-5.475640792243276905e-02 -7.824064871453478842e-02 4.246762597238629700e-01
-3.964754221943440210e-02 -6.725578065238962955e-02 4.330441758078080738e-01
-8.834010116713439387e-02 -9.237650828110946510e-02 4.436168252176364568e-01
-9.709963318344233540e-02 -1.037527179152341605e-01 4.602736344674000502e-01
-8.747063554920213313e-02 -1.027914094096543385e-01 4.487560166445060950e-01
-3.560102331816247800e-02 -1.136812010189837130e-01 4.838000410065724233e-01
-2.406516750522551609e-02 -1.208979306043660717e-01 5.137598442500177498e-01
1.348100163347128871e-02 -1.257284962504468806e-01 5.170282917889562624e-01
-2.566929027810928993e-02 -1.183865399232224558e-01 5.375622020063670625e-01
-5.758714982803841975e-02 -7.981692034359112731e-02 4.237638325568263697e-01
-1.481708865252850428e-02 -5.293905841599010065e-02 4.383356752420143887e-01
-4.492761687895575201e-02 -3.817599140278424980e-02 4.349766888212988070e-01
-4.809664284691488045e-02 -1.158957073585126230e-01 5.046690060416082479e-01
-4.670120267307848599e-02 -8.375036860412832240e-02 4.296041490745930447e-01
-9.761762257371731782e-03 -7.541539974073592500e-02 4.424887523873087258e-01
-8.990347850902430382e-02 -1.099041516445888739e-01 4.952347560024370487e-01
-2.527348923883689178e-03 -1.220068115841276279e-01 4.935499182939641072e-01
-7.683355167869190816e-02 -1.118204831539953703e-01 4.949358863145251752e-01
-2.512915214033930103e-02 -1.062701264044148275e-01 4.664484318790208528e-01
-4.814252043961883554e-02 -7.837541025543764972e-02 4.282581306964227119e-01
-1.537641870847701424e-02 -1.214472421876246350e-01 5.367944379231838203e-01
-4.768855957825631625e-02 -9.646226796019290173e-02 4.411804708937410724e-01
-3.059455862453400177e-02 -1.176108955946601753e-01 4.958841560246790570e-01
9.010796656531757515e-04 -9.521133177874564757e-02 4.537351875802358991e-01
-6.086309230878136217e-02 -1.105654364552055013e-01 4.705742500485811664e-01
-4.174268323734724000e-03 -1.185589010764372259e-01 4.829294318942165543e-01
-8.642998581113960077e-02 -1.066247864039279042e-01 4.589063561840421857e-01
-4.692501147519206883e-02 -5.577748994881626121e-02 4.323804961429703608e-01
-8.299137000600062541e-02 -9.839925648024627769e-02 4.389394052540289692e-01
-4.772576757299220457e-02 -1.152524208422939234e-01 5.242327917781328672e-01
-4.317379941169648822e-02 -8.791920198223975025e-02 4.365885039045254157e-01
-6.637553667700354931e-02 -1.057711949911602500e-01 4.484765045403165118e-01
-8.265777524726454495e-02 -1.103205376659189829e-01 5.033962807168108622e-01
-2.424205586924805395e-02 -1.204698534332731552e-01 5.227392156801714540e-01
-5.179221626143463986e-02 -8.593237535308183295e-02 4.255874974895940688e-01
-5.500910371970565982e-02 -4.206036641407153581e-02 4.409991559205814204e-01
-5.612423358634999193e-02 -1.081631715539379257e-01 4.613941218724414428e-01
-6.464523121380659487e-02 -1.125691601315872287e-01 4.874219567001492615e-01
-3.424157714046754258e-02 -1.175684067156076151e-01 4.986735520405208844e-01
-2.202126394377936641e-02 -1.161339059389329825e-01 4.864104448295285543e-01
-1.910162603824519523e-02 -1.209635457516214097e-01 5.327665260079295084e-01
-6.925163476336922141e-02 -1.036391242842644306e-01 4.345684077448631610e-01
4.990737581861675459e-03 -1.260567149674846066e-01 5.107141945090557522e-01
-6.171018535443566211e-02 -1.139898994373794855e-01 5.097348724430068589e-01
-5.427791469088476956e-02 -5.829810893430271979e-02 4.309568205328880852e-01
-2.084060875271400229e-02 -1.027714780830462499e-01 4.609729038693434755e-01
-4.808517021488671606e-02 -7.604908763339092437e-02 4.282329103475499554e-01
-5.319739434853416882e-02 -7.337468021009153907e-02 4.261636177117081870e-01
-4.935501819763154358e-02 -3.465931794441578367e-02 4.369777695178414523e-01
-7.009175190634782393e-02 -1.055867721599660913e-01 4.485719218363727889e-01
-2.124093419685463974e-02 -1.125633989740409541e-01 4.774808629408106020e-01
-3.113712489621471569e-02 -4.841252738715656062e-02 4.367238796956994795e-01
-1.051234834411555463e-01 -1.028044331612369550e-01 4.676195466093808761e-01
-2.838694426832080037e-02 -8.507884044055230577e-02 4.430042529262884221e-01
-4.677009660074688685e-02 -9.015361017806661215e-02 4.319928850559739963e-01
-4.303825021683724272e-02 -1.112377069169164789e-01 4.772441727056927485e-01
-5.162748033855200230e-02 -6.458398346902240184e-02 4.285475657073880562e-01
1.189512838552885324e-02 -1.266382219279859889e-01 5.275952572743600744e-01
-4.450478995251572201e-02 -7.568844760477162759e-02 4.309922531510658184e-01
-7.523790208098710131e-02 -9.327476520234630197e-02 4.236676287752093040e-01
-2.399947071570253561e-03 -9.245556604902768760e-02 4.514341487298426658e-01
-3.873358473916890810e-02 -1.136185340458160525e-01 4.850038555516373862e-01
-5.742693047310741539e-02 -1.133396869415636971e-01 4.877046060409961914e-01
-4.088903999178461826e-03 -1.253655407954555323e-01 5.289517482444732188e-01
-6.029846688306352009e-02 -1.115537945200693187e-01 4.757231514198187461e-01
-3.012464401199543493e-02 -1.194334483275677483e-01 5.117667995316902418e-01
-4.006650606511405477e-02 -5.342382800066942244e-02 4.339348358963469598e-01
-4.878234201358475075e-02 -1.143543052028130058e-01 4.901185850159538449e-01
-6.520327720970708896e-02 -9.053986028081800752e-02 4.199866236807060504e-01
-9.119404484246673714e-02 -1.046955942554688435e-01 5.151911155689746780e-01
2.291279497761687135e-03 -1.255719611531151969e-01 5.068125966016864270e-01
-1.540947807650895965e-02 -1.231217526843649546e-01 5.119452667769665011e-01
-6.637764905085019596e-02 -9.219784812178896671e-02 4.196535162183157031e-01
-3.294566157055293931e-02 -5.039829589151696709e-02 4.359853167744964231e-01
-1.400783451225388193e-02 -6.534495518775960965e-02 4.395176844676446093e-01
-9.464367583672023132e-02 -1.006735251378251678e-01 4.530947101778403652e-01
-1.076143781879084979e-02 -1.243066742865057001e-01 5.131824376614925187e-01
-2.499930606669586303e-02 -1.192695346647965199e-01 5.332888703189754276e-01
-2.539236920135192702e-03 -1.208160918701353392e-01 4.895591603721021756e-01
6.040806022254706885e-03 -1.268410464947108685e-01 5.251255256097414614e-01
-5.329311636780972167e-02 -1.125193164186947120e-01 4.817635749379016730e-01
-1.900198321745507832e-02 -4.355821715316869625e-02 4.386729014761730494e-01
-3.273653799155084448e-02 -1.185469814841292185e-01 5.037185487301195641e-01
-8.147355476631229498e-02 -8.974386071561731015e-02 4.336086826103331959e-01
-5.277378948029531891e-02 -3.404361362678402086e-02 4.386500813947238342e-01
-3.951610499262569326e-02 -3.793313115472903008e-02 4.348220557564734801e-01
-7.018083131346532222e-02 -8.635403346844608419e-02 4.216217884022699369e-01
9.431258960410653439e-03 -1.266154393025360758e-01 5.205123453477346063e-01
-8.665246767368571523e-02 -1.076239019385810264e-01 4.632300957484816184e-01
-1.092434039291868830e-01 -1.037865959552271844e-01 4.904769045774840519e-01
-5.222848549209253149e-02 -1.153695339179044155e-01 5.082025470139628354e-01
-4.018913712116985865e-02 -7.952379369915903162e-02 4.346552872986754190e-01
-5.933354401889383289e-02 -8.703834494009941858e-02 4.220773756416018041e-01
-9.778845926638204955e-03 -1.114078815073596546e-01 4.701437426766236771e-01
-8.044587425552078563e-02 -1.093373853886534797e-01 5.135618884652238814e-01
-3.513194158568087172e-02 -8.384980023608371025e-02 4.399829537473646801e-01
-2.669563019351823066e-02 -1.060855407630624109e-01 4.663811393077545997e-01
-7.926623917697246668e-02 -1.112712074293244480e-01 4.821326362908515129e-01
-5.514364946839528381e-02 -8.284691941790420233e-02 4.236494174231595911e-01
-2.961454575977849613e-02 -5.056359891655173161e-02 4.371155294045374617e-01
-2.443913758932804089e-02 -9.618693524026594721e-02 4.536259502786689213e-01
-1.030924999088689425e-01 -9.660312820876539031e-02 4.605236807918045017e-01
-8.170471167870131668e-02 -9.100156379216092772e-02 4.333426634389008214e-01
4.370892045341452301e-03 -1.132641588506710650e-01 4.734742549672491529e-01
-4.276185476517679190e-02 -3.336505626514803952e-02 4.349620568045913793e-01
-9.213598470198036683e-02 -1.069563907027702154e-01 4.646911146482760602e-01
-9.049894799190724703e-02 -1.042457152190535696e-01 4.553490815323908980e-01
-3.847113834890246008e-03 -1.259791605668645065e-01 5.201949543515275165e-01
-9.567853600220994903e-02 -1.087729885376132882e-01 4.789333409725685109e-01
-6.914181981479194938e-02 -1.047092657116514419e-01 4.405100147976847569e-01
2.324559384904798486e-03 -1.270660487013408890e-01 5.198062728696627444e-01
-8.265885790221283447e-02 -1.109550593499573912e-01 4.969524723012336276e-01
-3.373354100573916492e-02 -1.170368027908796627e-01 4.951337451385116051e-01
-1.665659670458470576e-02 -5.912594447482985571e-02 4.384102542881151976e-01
-8.542331260482120825e-02 -1.106603341549597108e-01 4.925477788736351004e-01
5.917301596859622301e-03 -1.253416713631894663e-01 5.073009498540738127e-01
-2.771244708230918147e-02 -4.007595565084608874e-02 4.379491210956724667e-01
-3.591677724887617357e-02 -1.087659011285300598e-01 4.705935969313739808e-01
-9.482140278468050715e-03 -1.241941567081557701e-01 5.289241627875159724e-01
-4.111099370068719422e-02 -1.172336001610796014e-01 5.131474228495095380e-01
-1.545179856047659145e-02 -4.783774564389658285e-02 4.382731522318554229e-01
-1.877543086534563983e-03 -1.125837834938625548e-01 4.713923330540286671e-01
-1.485465183483713862e-02 -1.084350050989812131e-01 4.666766397115058029e-01
-6.587435723342853489e-03 -8.965651264994660419e-02 4.490564158004285433e-01
-2.104746304554909291e-03 -1.199609376264026694e-01 4.868580977392691911e-01
-4.116667803262429731e-02 -1.169090297102292619e-01 5.210056902595133765e-01
-8.910087923101316087e-02 -1.100734341176012182e-01 4.808413004444577754e-01
6.911469464724740407e-03 -1.220302151465390561e-01 4.949642625885801173e-01
-8.126059835930971725e-03 -1.250608941499083970e-01 5.191794642418011696e-01
-4.926353370966146672e-02 -1.083233152022145263e-01 4.637684988518081530e-01
-3.824445106936536637e-02 -9.871510775023341344e-02 4.516265148633083482e-01
-8.184754389943801889e-02 -1.102558648984469231e-01 5.056793343162028220e-01
-6.524762009057057111e-02 -1.116954998682739009e-01 4.788259916823587869e-01
-9.568180322547760464e-02 -1.089229064237791367e-01 4.911496303955222853e-01
-2.792704771822142676e-02 -1.093513316301716193e-01 4.722348683487782584e-01
-9.794804323649935682e-03 -1.059197578508271065e-01 4.624390959132805845e-01
-2.599169197196631118e-03 -1.249022283804103323e-01 5.329836291774261436e-01
-6.068465002453607426e-02 -9.952324846523905033e-02 4.217609413514676331e-01
-4.537786918260191399e-02 -1.127448858875740034e-01 4.832188688760952200e-01
-1.032504376448703381e-01 -1.060686218126020014e-01 4.771473186404190936e-01
-4.629760386530313437e-02 -9.059677973693737452e-02 4.331482933979976524e-01
-1.122132721065759002e-02 -1.201052604028833432e-01 4.898070249695110623e-01
-2.102238484634005866e-02 -1.216119362667893999e-01 5.165223398251591602e-01
-5.820148537076436784e-02 -1.137069431990469087e-01 4.920922278386099524e-01
-4.632962868738784573e-02 -9.499341209523613772e-02 4.413901300982120968e-01
-1.244536251490722251e-02 -8.788777590668753192e-02 4.470200466574079656e-01
-5.069870780061341148e-02 -4.852099437969670942e-02 4.341771211370898942e-01
-6.603621280734756072e-02 -1.031536033414091197e-01 4.256377284570209141e-01
-6.059733369921144197e-02 -9.094432768040711101e-02 4.208041820352945162e-01
-5.291463564294448391e-02 -7.838844718437287806e-02 4.253655790697639105e-01
-1.475781764914857117e-02 -1.225311908587906062e-01 5.303009235242860386e-01
-5.903050268565110392e-02 -1.040925170421699436e-01 4.273602010587325140e-01
-2.587905904963917411e-02 -1.044580591688097498e-01 4.641651645649008673e-01
-3.371125613375716701e-02 -8.552324641765304825e-02 4.414834535654882930e-01
-5.523566756579326859e-02 -1.022665755506711460e-01 4.359774725804144158e-01
-3.650196335933468539e-02 -1.012190025182873460e-01 4.569716757659799122e-01
-1.144378044826126727e-02 -7.990231292099345128e-02 4.437796100698980228e-01
-7.837176608153453850e-02 -1.115845018652420056e-01 4.992432232312797868e-01
-2.845790952214632269e-02 -3.526206367299233174e-02 4.377710533198470033e-01
-6.863569982739786690e-02 -1.109195418728012306e-01 5.214389104379439921e-01
-3.857892804032482525e-02 -1.167262261533390244e-01 5.276110341220587863e-01
-5.134663078452604557e-02 -1.154722370623698369e-01 5.072973248280099323e-01
-1.035605355102798553e-01 -1.037925448658920252e-01 5.043350400078295825e-01
-2.934257571180402899e-03 -1.261421150458482687e-01 5.197966516510582613e-01
-9.638488330005501314e-02 -1.087459380470818665e-01 4.913556554638945362e-01
-9.057185120174914006e-02 -1.095183512957994126e-01 4.753363800741873813e-01
-3.203844749623096632e-03 -8.536380597046609731e-02 4.475992048778898447e-01
-8.798115706837944527e-02 -9.385556544525539002e-02 4.423940818030075439e-01
7.069949852222656012e-04 -1.129049721863437661e-01 4.723214368699418242e-01
-5.509709939281564640e-03 -7.301062757914714152e-02 4.423485235092106671e-01
-3.036061435506456213e-02 -1.187167350548695849e-01 5.259054337315900440e-01
2.050578183915032458e-04 -1.266256883172232062e-01 5.242962133805046943e-01
-3.416553367494426507e-02 -1.047225471109368283e-01 4.633079355810844624e-01
-7.442084302255556894e-02 -9.269756666558318092e-02 4.227467221760998206e-01
6.946843625039733367e-04 -1.267850118319215624e-01 5.192055429752601148e-01
-2.314177353530130765e-02 -1.143516495151933876e-01 4.824662221835568365e-01
-7.660626999695471784e-02 -1.113833763177055070e-01 5.065931328198723937e-01
-1.743905517744350972e-02 -8.674583914681316399e-02 4.458182543721042612e-01
-4.286112349380916120e-02 -9.759517510188568667e-02 4.468423930379147868e-01
-1.640729276761730346e-02 -1.064926602265409833e-01 4.641528357712906838e-01
-6.990698316075950880e-02 -1.127879606715026378e-01 5.033115799539560342e-01
-5.550406572598991228e-02 -1.108493960180798737e-01 5.332636528887487737e-01
-6.000842183050730111e-02 -1.061476159616776410e-01 4.510857752903144058e-01
-7.329222611377783636e-02 -1.010954972855684503e-01 4.279983949700263413e-01
-2.181321843803283797e-02 -1.157139227170867063e-01 4.849970262877446592e-01
-1.783702515895674301e-02 -9.532879800968151185e-02 4.522773322377460770e-01
-7.872144342484520274e-02 -1.111555944861415818e-01 5.041002693374256882e-01
-1.230000617055698048e-02 -1.169001366232574612e-01 4.816263570467557154e-01
-3.601873672319316766e-02 -1.120331160650018948e-01 4.788811144432466027e-01
-2.837510622494704426e-02 -1.080121283997375059e-01 4.698836530619883711e-01
-3.341350030408544308e-02 -1.160804843409257159e-01 5.393005636581327256e-01
-6.337382282166556524e-02 -1.036012847889484223e-01 4.231596622776458427e-01
-3.574821057859150358e-02 -8.745826161311373581e-02 4.418749027245459371e-01
-1.097211475241121649e-02 -1.022058574364634737e-01 4.584055685118318402e-01
-3.811006335083251539e-02 -7.591335978571403520e-02 4.344345204475315581e-01
-2.405304610977248778e-02 -1.078138386296315782e-01 4.688243124912645499e-01
-3.251290248592072357e-02 -1.182398441758684970e-01 5.009619354438515915e-01
-8.560533675674830700e-02 -9.196040941102230637e-02 4.400413196440978725e-01
-8.335880096213427182e-02 -1.069208085846479472e-01 5.176377952271028482e-01
-9.416662818545099012e-02 -1.092846816397675391e-01 4.909068354162371972e-01
-5.592612793988286507e-02 -1.024937427266325168e-01 4.362135443141652025e-01
-6.801030647101757864e-02 -1.048116743671454326e-01 4.403135641763639141e-01
-6.041343985587721566e-02 -1.139384298400867301e-01 5.151424327139103587e-01
-4.494802734652494913e-02 -3.297754055315687410e-02 4.350171858208257136e-01
-8.650108489623707653e-02 -9.107546393476007029e-02 4.417582340877122538e-01
-4.710917169906894339e-03 -9.538806780714004230e-02 4.531774579702443906e-01
-7.132550769856935147e-02 -1.122013026074740877e-01 4.912577967554560554e-01
-1.911784422610031398e-02 -1.127257527130985232e-01 4.767342176843507584e-01
-1.126997879027776123e-01 -9.789784747568919254e-02 4.818528172120805086e-01
-4.377815714759705074e-02 -1.155477480327801176e-01 4.937719925974904389e-01
-8.525945898846298832e-02 -1.038149102123045869e-01 4.500968917983365070e-01
-8.963624674026279826e-02 -1.040608695904647746e-01 5.183595686368341893e-01
-5.052826423284757784e-02 -9.906504728399696813e-02 4.416066499710840088e-01
-2.990687104177664271e-02 -1.177913433103044138e-01 4.962290607712792623e-01
-9.822089258292227010e-03 -1.245704501464891256e-01 5.137107271575136469e-01
-1.059507107888814220e-01 -9.835531610393438706e-02 4.650921642739558326e-01
-2.852576457794168269e-02 -6.192754152534842710e-02 4.366242613482207990e-01
-6.889570002676749516e-02 -9.396630356151999819e-02 4.196278160797939361e-01
-3.682864223700003242e-02 -1.175605279386063989e-01 5.238843058025793864e-01
-3.945500913445990077e-02 -1.172553942446050851e-01 5.209444214229125292e-01
-4.974943748023528955e-02 -1.155449738840143292e-01 5.011154968390767461e-01
-6.551155560735547057e-02 -1.131250305680336216e-01 4.960335541941593429e-01
-3.094874088216685928e-02 -1.150246388248044593e-01 4.864770405100223294e-01
-4.640760588934841890e-02 -1.151814484309183068e-01 5.261805626511437683e-01
-6.153189018032909768e-02 -1.140004533065142739e-01 5.074993624087474897e-01
-8.843336044550027808e-02 -9.910435513227036641e-02 4.447760886429980576e-01
-3.704814974435169384e-02 -3.932031006098379855e-02 4.350392583378853151e-01
-5.008821246837868307e-02 -1.152073631308090373e-01 5.206861892483880538e-01
-6.559066538822320991e-02 -1.119676198012350271e-01 4.823201761765034679e-01
3.896630244072450504e-03 -1.214495686136549124e-01 4.921094418754921596e-01
-8.281431192195544758e-03 -1.067169895180234973e-01 4.633762741322963730e-01
-2.897378159671688477e-02 -8.271989421547436272e-02 4.417101447402195236e-01
-5.595388533954050864e-02 -7.737415131463172557e-02 4.243745919812077494e-01
-3.868538435570054862e-02 -4.897312061446997683e-02 4.346436201250207243e-01
-5.259658790428439062e-02 -9.955252769217586006e-02 4.301460766040664518e-01
-1.447379031362283283e-02 -1.162843639867447848e-01 4.817455508467043401e-01
-4.776510394200751686e-02 -6.437264319727104001e-02 4.295005128876903111e-01
-5.181907831069547388e-02 -9.993763508473650636e-02 4.349215847204052077e-01
-1.188111137592930133e-02 -7.136391798607230608e-02 4.410245416740204427e-01
-9.489835846196949601e-03 -9.163456836343392142e-02 4.495828102032725648e-01
-5.141482639923863895e-02 -9.605605744840739479e-02 4.265183078730887534e-01
-1.073236453340625507e-01 -9.564622733891796347e-02 4.675268002981473048e-01
-2.044476240517853483e-02 -1.075135449815031174e-01 4.671229155503682784e-01
-6.062479701944398225e-02 -1.095737302211624298e-01 4.666013196670089624e-01
7.398339570328026429e-03 -1.242310448431483555e-01 5.024979977326869962e-01
-2.880370707540527361e-02 -1.038829310409418866e-01 4.632806756662394276e-01
-3.287562807102634155e-02 -1.168171526322990539e-01 5.362704096826238498e-01
-3.567225102113923130e-02 -8.843542080650197701e-02 4.427128490435663366e-01
-4.167785206121826791e-02 -1.084655952978102050e-01 4.673412493498163012e-01
-3.040756617641312415e-02 -6.105859874609326221e-02 4.361983997207835584e-01
-1.150620686596067095e-02 -1.240736618442690870e-01 5.222337015325470011e-01
-5.281266991852315990e-02 -1.152909393356382206e-01 5.094775041087522549e-01
1.085226760203281300e-02 -1.266552888106635966e-01 5.292934587934092772e-01
-7.679393590659966407e-02 -1.073398183634616948e-01 4.581629343086514039e-01
-3.658235406279795876e-02 -1.175285621279412995e-01 5.248891482217715732e-01
-2.737364148432755787e-02 -6.557303725418595075e-02 4.371837985911317115e-01
-2.656551554799655226e-02 -6.492014391055976608e-02 4.373108459741903986e-01
-5.775776312427687714e-02 -5.799901685259530038e-02 4.326639501904090968e-01
-8.149398060535929800e-02 -9.830606470365534089e-02 4.360683587312548237e-01
-6.505256733739266106e-02 -1.088492981687058797e-01 4.634005759478135866e-01
-5.425849501893392074e-02 -4.187708435216898339e-02 4.389112546056291864e-01
-7.726038070598782725e-02 -1.080915358214626920e-01 4.612493053505535290e-01
-4.306737191379680918e-02 -1.165598649069592985e-01 5.015453704189750672e-01
7.057102476189012694e-03 -1.258745345205360688e-01 5.106139406178350493e-01
-4.526734498906118814e-02 -9.803044352437484399e-02 4.453143354707417845e-01
-5.708312919694377707e-02 -1.127274981050139097e-01 5.263608216159664233e-01
-4.571193084924725369e-02 -1.148535651808468838e-01 5.288886752027329718e-01
-6.054130939484275026e-02 -9.670506740382203703e-02 4.218963591990081419e-01
-4.910039615476247815e-02 -9.779922594131146285e-02 4.397751103205701506e-01
-5.703509531079761080e-02 -1.059013443048288095e-01 4.525081776602377648e-01
-4.702761328803524432e-02 -6.463735874921733293e-02 4.298287502293065554e-01
-1.309082740694291966e-02 -1.151627682425396954e-01 4.783777952104172893e-01
-1.079663501050196067e-01 -1.027009407444187811e-01 4.759068685394668985e-01
-8.326748004580349083e-02 -1.060387763843900905e-01 4.555963847528107236e-01
7.224181151206978888e-03 -1.262090502509876366e-01 5.331376234081852683e-01
-8.474050220053737370e-02 -1.108935040202289751e-01 4.864762091545282163e-01
-1.023189996828105346e-02 -1.235887238219399997e-01 5.051832003467122689e-01
-1.062510343194104229e-01 -9.993461930595538834e-02 4.666091438188623153e-01
-9.534489431899492717e-02 -9.668737373446574523e-02 4.521036003085457389e-01
-8.768303911953422014e-02 -1.064618832089521960e-01 5.141132020768355293e-01
-2.316759324939119541e-02 -1.122502919281730543e-01 4.773633534664716849e-01
-3.483320111445822181e-02 -4.590814081568726779e-02 4.355644090407858604e-01
-4.643715752356582238e-02 -7.261006583856714769e-02 4.295019033758608051e-01
-7.799447130525664906e-02 -1.098716739702949863e-01 4.700104229737859241e-01
-5.031701278039330677e-02 -2.803409240467107794e-02 4.371629661336021710e-01
-7.114942744907133687e-02 -9.731474496519125494e-02 4.221403039916396538e-01
-5.841640074082070366e-02 -1.133178091468109994e-01 4.884864406230278733e-01
-6.941826662333866471e-02 -9.633464679288551713e-02 4.202391027507883514e-01
-6.412486166379287311e-02 -1.119166711368680123e-01 5.223570169845059841e-01
-3.851793816474437249e-02 -1.158919675970893765e-01 5.338003308861748453e-01
-4.831822001697039931e-02 -5.113681831530283300e-02 4.335384835274180837e-01
-1.070134975549848072e-01 -1.051250877068762718e-01 4.839584331145740381e-01
-4.690485363919285472e-02 -8.929753313034993756e-02 4.312530076636863496e-01
1.289108790761755736e-03 -9.937309399413898903e-02 4.574575229263390108e-01
-9.939989304698604311e-02 -1.079723581229291157e-01 4.833441192995327484e-01
-4.624876259921006927e-02 -1.159790669878463520e-01 5.201308730722628004e-01
-6.838476233925452896e-02 -1.118524880670073024e-01 5.183618503599457528e-01
-7.105940261194089447e-02 -1.100156344451408696e-01 5.220941071993642213e-01
-7.681819576206764047e-03 -5.975857450720643144e-02 4.384986304918802036e-01
-1.642419593030250771e-02 -5.355542565776593572e-02 4.383272419227439709e-01
-5.406793717394312027e-02 -9.599470087353280390e-02 4.236949042506165108e-01
-4.218682410268190935e-02 -1.169452422411180054e-01 5.071540351042487238e-01
-8.172860691289068891e-02 -1.089532883240023342e-01 5.133466578542749126e-01
-6.831061254069815958e-02 -1.091177884913864526e-01 4.648373271609510526e-01
-1.435219122034834052e-02 -1.203996758756968044e-01 5.420922986762549689e-01
-5.826691965150752883e-02 -6.099223422246404652e-02 4.316983348464993875e-01
-4.107884263870568292e-02 -9.454472920166756555e-02 4.451212249988589775e-01
-5.415690641535478300e-02 -4.555379814417025164e-02 4.356306299860007725e-01
-6.707893689608947566e-03 -1.229804073002735559e-01 5.371525571775164209e-01
-8.237615999110634024e-02 -1.104652295554479080e-01 5.025753461292340463e-01
-2.500742159784333923e-02 -5.970291253072160936e-02 4.371701598755303175e-01
-5.487262193247322006e-02 -1.150137462204954136e-01 5.091908894247697548e-01
-1.124236471418796346e-01 -9.684699750183563272e-02 4.784770485200270929e-01
-3.851599694072412039e-02 -1.086378592736535753e-01 4.693146510810914385e-01
-4.691494043536049985e-02 -7.518088315274663869e-02 4.290850878012580916e-01
9.805539223211741026e-03 -1.266498280219761352e-01 5.304696238254332785e-01
7.523189925665030309e-05 -1.235721498330715484e-01 4.984617758836301649e-01
-6.454529614454036779e-02 -1.054085651730370804e-01 4.432219286923273494e-01
-3.552258815827719768e-02 -1.059807751364764683e-01 4.650284089689769029e-01
-8.218685979331979974e-02 -1.097929090200620572e-01 4.700225982567721728e-01
-4.401158229521335424e-02 -1.009662460986692073e-01 4.509880844680103640e-01
-2.054768512833415883e-02 -6.865364373052237901e-02 4.391572838130705092e-01
-2.350696172238275067e-02 -1.107824882810903439e-01 4.742819094363061039e-01
3.221116924451116782e-03 -1.262852319392217260e-01 5.308642307315799558e-01
-3.356085085960178183e-02 -1.160017437345071678e-01 5.395097148365595174e-01
-6.164371719977596725e-02 -1.055575409607482223e-01 4.466890416622452675e-01
-4.165624124721765270e-02 -1.171275671462844170e-01 5.140148166006769381e-01
-4.037818717879090163e-02 -6.179658042805026563e-02 4.331102791801745289e-01
-8.310780185210024651e-02 -9.318098730139517949e-02 4.350720117008752830e-01
-7.854845317911232638e-02 -1.081648468616922820e-01 5.199672987597400153e-01
-2.827203666401799983e-04 -9.423130066743244659e-02 4.529158984841315516e-01
-6.528265477598335642e-02 -1.047615937594768842e-01 4.377966707076297315e-01
-3.733205901667948495e-02 -1.169845235878246986e-01 4.980850987249886286e-01
-1.113132136994681234e-02 -1.242521017694692420e-01 5.204523427451696049e-01
-1.339963735321446706e-02 -1.235271119889001651e-01 5.112447486639488670e-01
-6.092092006942891741e-02 -1.042275215279490491e-01 4.281123771107528397e-01
-1.842038964223441724e-02 -1.211581181768995041e-01 5.020969039965041958e-01
-1.616634326711976349e-02 -5.372823931035844436e-02 4.383392078451550100e-01
-1.096760070545172144e-03 -1.243681071144805000e-01 5.359780761721333331e-01
-9.346336382585413230e-03 -1.222561039236998853e-01 4.963433939902583414e-01
-9.047187236525915111e-04 -1.089791137956758749e-01 4.665795412471832604e-01
-6.425124277136985695e-02 -1.032803854717790903e-01 4.229525189508959726e-01
7.523893980625465626e-03 -1.242892206275100220e-01 5.027501985106462845e-01
-9.864998885009795826e-02 -8.974705860369154575e-02 4.594017959323578593e-01
-4.031055319822409583e-02 -3.116801832085907761e-02 4.353641160032503121e-01
6.504069023811879027e-03 -1.212252602066840462e-01 4.924587934480199047e-01
-3.080973960150271487e-02 -4.215097989312095034e-02 4.371566902731259252e-01
-4.295646328901581157e-02 -5.533726278471139126e-02 4.332268531736535588e-01
-9.157832131259978359e-02 -1.097644722578242082e-01 4.861624868334700200e-01
-2.219836128021960425e-03 -1.088497074690845667e-01 4.663491851174291214e-01
-7.417172880521460954e-02 -1.112335180312443161e-01 4.787487081957423896e-01
-8.886945898997389293e-02 -1.075856024037704778e-01 4.645474082019175333e-01
-7.628238310323839921e-02 -1.116293757748098581e-01 4.885722229478471346e-01
-1.076158027180070947e-01 -1.044590706605472985e-01 4.978109037360017308e-01
-4.807468246448253803e-03 -1.191241367285181402e-01 4.844534349847319232e-01
-8.627447664169188291e-02 -1.055048367780250795e-01 5.183435411444723417e-01
-4.299932603720918456e-02 -7.821156979219039129e-02 4.325379392281979984e-01
-8.413268681293237239e-02 -1.106863970569150063e-01 4.977264244796968939e-01
-1.445561763172176217e-02 -8.287478405888445976e-02 4.444776368298658520e-01
-2.981110481337613527e-02 -1.162501124786700507e-01 4.905310922679443353e-01
-1.199955573744582518e-02 -7.602049777971904565e-02 4.423586420827910204e-01
-2.745663813172560114e-02 -1.085413471762990550e-01 4.706879218241534768e-01
-2.604376300196936667e-02 -6.305958781541722014e-02 4.372661193385650180e-01
4.007633278620210265e-03 -1.270129045478976537e-01 5.190059919070066918e-01
-1.856914652874194771e-02 -6.465828744194551669e-02 4.388148060750425294e-01
-6.181843921434345551e-02 -1.108968200180640851e-01 4.722191534667459223e-01
3.179472070336548245e-03 -1.157032354385238021e-01 4.772779462967492448e-01
-2.058513644422818242e-02 -1.010911367468884381e-01 4.591189512894737756e-01
-3.295840710389485052e-03 -1.260788642304812579e-01 5.170180929243876067e-01
-6.808018442181176973e-03 -1.208281377857873401e-01 4.906458950990901235e-01
-8.210049126968774202e-02 -1.084371002839645132e-01 4.639447939683996602e-01
-8.907872855976851911e-02 -1.101689517835089810e-01 4.927252755646307492e-01
-7.099292153938871475e-02 -1.060140753516873036e-01 4.508389075931026335e-01
-9.313035668358633778e-02 -1.075303092530296017e-01 5.054890332145756116e-01
-2.366396279281049106e-02 -5.228220975394125974e-02 4.378632430945764153e-01
-7.658062571826487752e-02 -1.116261002797683394e-01 4.892342278911878117e-01
6.154809568033547951e-03 -1.245708670650792910e-01 5.032424357376689139e-01
-5.469989010677638042e-02 -1.023699695441399327e-01 4.346711213707751265e-01
-6.557923147324041212e-03 -9.529531681114428165e-02 4.528064637621180277e-01
-3.735526003301980081e-03 -9.198046599149166391e-02 4.508827939598401557e-01
-8.846250716663588143e-02 -1.079124346590338845e-01 5.087718739737301377e-01
-4.333997686548889811e-02 -5.562320602983093776e-02 4.330505388453757543e-01
-2.702166679345129746e-02 -9.385956242575704822e-02 4.505595211637331565e-01
-1.473120594035694404e-02 -1.181551677316276527e-01 4.861402487642242920e-01
-5.862540733766143791e-02 -1.142965769998142977e-01 5.015684682296038810e-01
-2.655325280765584439e-02 -1.178679446452065155e-01 5.390104639330459690e-01
-5.656315490294006043e-02 -1.079590169181390280e-01 4.606051523470766629e-01
-7.424644401559266950e-03 -1.244855882879517678e-01 5.304646887850485992e-01
-4.257796597658936033e-02 -5.199904557391324400e-02 4.337041019620457294e-01
-5.339082125296211456e-02 -2.855202934363586589e-02 4.415650950437848277e-01
-4.482097737602207949e-02 -1.148481239158485323e-01 5.302444598265440012e-01
-5.221716679158099061e-02 -6.792687066081334879e-02 4.273955029048956966e-01
-3.735633878285634507e-02 -3.394666149616288459e-02 4.356061279539617526e-01
-4.342662069564747623e-02 -1.151238814001762367e-01 5.305911398905629461e-01
-9.765984463188732978e-02 -9.158369089362475290e-02 4.563779083151467963e-01
-6.834818321118876772e-02 -1.129821965044937454e-01 5.012151337981617383e-01
-4.951303612217580058e-02 -9.645735121968507242e-02 4.347457929719996117e-01
-6.116987836612199081e-02 -1.106731986409202756e-01 4.711155128157665795e-01
-9.020939785319975757e-02 -9.770157685990470131e-02 4.463134207413958499e-01
-3.724390676653065169e-02 -1.040172479164283292e-01 4.609565078707079100e-01
-8.369407481651135183e-02 -9.281888915786538907e-02 4.361000579135926869e-01
-2.801430149798266045e-02 -1.192781271580677371e-01 5.023937862141529820e-01
-2.872086594329653977e-02 -1.002810286474991319e-01 4.580523108048801251e-01
-9.229070150837065389e-02 -1.096292488737601462e-01 4.937027186886583929e-01
-2.467958502988126107e-02 -3.941142270095665534e-02 4.386520439184397047e-01
-8.826791254603812142e-02 -1.046154219391580431e-01 5.184523932951213832e-01
-3.085513643037719397e-02 -4.039851113618665723e-02 4.372007107295928230e-01
-6.285019818948328618e-02 -9.425950534316031304e-02 4.205473731777157331e-01
1.360755202045973306e-02 -1.260311857340199737e-01 5.346689322837653302e-01
-1.225199523257275783e-02 -1.239486952583991469e-01 5.130355815888675286e-01
-1.022776714524318287e-01 -1.068805966343143038e-01 4.949083174818276198e-01
-4.674657390433953341e-02 -8.627525797645191341e-02 4.297706782022474026e-01
-8.812737798073146112e-02 -1.055164095381545541e-01 5.159699911307595865e-01
-5.400336335464559281e-03 -7.223413234665640448e-02 4.420858870756895209e-01
-3.139225304668491479e-02 -1.174687367256715409e-01 5.348731802249001577e-01
-5.975000497627123291e-02 -1.088970324011776375e-01 4.635122497779365913e-01
-1.657437256944400625e-02 -1.223833710184131923e-01 5.257246303022273803e-01
-5.148998045130104284e-02 -1.110717042725912346e-01 4.737463301054825604e-01
-3.381867633290457087e-02 -1.184062992857130570e-01 5.207608446500180399e-01
-7.060575890049984593e-02 -1.026151169485113174e-01 4.307387196364851900e-01
-4.215923578698950458e-02 -7.462088814485401400e-02 4.324131077034016890e-01
-1.089085508641232519e-01 -1.014977214797389143e-01 4.764657317699729222e-01
-8.875567110360128853e-02 -1.021138224579267728e-01 4.497451133301297310e-01
-5.217984280486157034e-02 -6.670901666074809111e-02 4.276693984816937188e-01
-4.291410465243410827e-02 -7.316411633009137216e-02 4.318291660063433013e-01
-3.913258606186967303e-02 -1.165728603253203266e-01 5.276446616483505547e-01
-4.818175589501216827e-02 -9.784455963838273318e-02 4.424517386257133533e-01
-3.785691856248049603e-02 -6.972815627468949284e-02 4.337955710625379102e-01
-1.037183993969943013e-02 -1.245521579862129830e-01 5.172610273596031094e-01
-7.664784818756074924e-02 -1.114847273472751171e-01 4.844700248161404876e-01
-5.308944963785282994e-02 -1.024866106813571986e-01 4.454554589707572232e-01
-8.570331871195865925e-02 -1.106710756399030687e-01 4.908352208600096356e-01
-8.314021031867855141e-03 -1.018982656121001640e-01 4.582828057830753976e-01
-8.287773894311316336e-02 -9.211182608615671452e-02 4.349461933048052176e-01
-1.340917619890929190e-02 -9.741549394422757691e-02 4.540887269376390201e-01
-2.536373028483926428e-02 -9.661243257159353448e-02 4.540685402228247791e-01
-7.460092676096034825e-03 -1.251313616186118249e-01 5.221033905932318531e-01
-1.646911239157265380e-02 -8.892748498985802996e-02 4.469430649465714889e-01
-6.757600728119804445e-02 -8.153216451716474578e-02 4.243547434757298786e-01
-9.238683787067347719e-02 -9.739996048623407454e-02 4.488650696340584778e-01
-8.528993063823021858e-02 -9.405603625575499616e-02 4.393681697532919039e-01
-5.757151522935582966e-02 -7.928762493306008852e-02 4.238760316694922259e-01
