-3.265010313302614542e-02 -1.084079782666054759e-01 4.699047004091524982e-01
-7.155421467568448546e-02 -9.637700993489221879e-02 4.217751069610353731e-01
-3.657849848453432334e-02 -1.180217359084239220e-01 5.067090167144091550e-01
-3.729124701147480681e-02 -1.043035073165189536e-01 4.612134726625556902e-01
-2.552617812231782607e-02 -1.039714924061035523e-01 4.634443121152335143e-01
-1.148306208873898018e-02 -9.815189215400708933e-02 4.547009278520746656e-01
-6.782660792329710253e-02 -1.128523544963003639e-01 4.926895506241584233e-01
-7.158602674071239125e-02 -1.062820251341536348e-01 4.512023985966794326e-01
-4.442541621730371204e-02 -7.415937450590193158e-02 4.308914602446750619e-01
-5.414649322247485491e-02 -4.839777854732561085e-02 4.350078562900385193e-01
-4.079739975377403433e-02 -1.173379940990626896e-01 5.170310012304886182e-01
-1.785219859751820126e-02 -1.116606325879686140e-01 4.739707280066112194e-01
-5.400192412710621420e-02 -1.124605448201674851e-01 5.304039281437846753e-01
-5.542544158168297153e-02 -1.033482385084996957e-01 4.442255771630674310e-01
-5.405468938002391116e-02 -1.136593672245960057e-01 4.876005673700454790e-01
-1.118586813026832966e-01 -9.968912319893662166e-02 4.864421005931238162e-01
-4.477971925432062267e-02 -7.612405621604113881e-02 4.307063830720346820e-01
-4.508319481438288062e-02 -1.144968041359453459e-01 4.894321670029438409e-01
-1.230627754765348941e-02 -1.079484562464810421e-01 4.651267353836471830e-01
-5.206330502147728939e-02 -8.147249738358144922e-02 4.252274180927385627e-01
-2.946501836534884747e-02 -1.170307589812911997e-01 5.396520581654035142e-01
-5.150774848210971230e-02 -1.145589685563351140e-01 4.919425371099299116e-01
-3.177354009733216605e-02 -8.501250572780368053e-02 4.419117856799408273e-01
-4.855679666304850428e-02 -1.115367506663773323e-01 4.763477229285870695e-01
-1.182593150430293755e-02 -1.212173499713109226e-01 4.940222537920653245e-01
-4.780831442081128618e-02 -9.172130991143337408e-02 4.304991681928075908e-01
-8.052479454306525619e-02 -1.115370482480800007e-01 4.901009453721582587e-01
-8.441427453394717562e-02 -9.282930290875758550e-02 4.378786016022430116e-01
-3.998144400036081347e-02 -1.158574687960685357e-01 5.318171738700077089e-01
-7.454317344762585729e-02 -1.119308743035368897e-01 4.885500982712249751e-01
-4.992744687482299909e-02 -5.905486551675050849e-02 4.310370966273536220e-01
-7.872434868534129715e-02 -1.015917288773462435e-01 4.370318453265308878e-01
-3.847071645060404221e-02 -1.177470922913916446e-01 5.179738042437681544e-01
-8.791391581733300209e-02 -1.100604567876961176e-01 4.750481431899296059e-01
-4.660347824998910954e-02 -5.383922127906554111e-02 4.332871261860581913e-01
-5.022009287412144279e-02 -7.523044724933414251e-02 4.269372661062144636e-01
-3.677712210235214996e-02 -4.873393796212040219e-02 4.349637467292217230e-01
-1.067538134390848409e-01 -9.904873161185198671e-02 4.672634341540617409e-01
-3.291388709897339476e-02 -1.174958156190481079e-01 5.326089287209864187e-01
-8.184159983987654430e-02 -1.093027436553203474e-01 4.665945779807174065e-01
-8.053136666371768504e-02 -1.108319788372621600e-01 4.761111257967048371e-01
2.328809457646536379e-03 -1.268444964261209174e-01 5.249351004132104537e-01
-9.335279927649468845e-02 -1.094837464065447491e-01 4.960045694465615163e-01
-3.516254735236429285e-02 -5.129407607621114251e-02 4.351998905036830734e-01
-5.195518351547399882e-02 -1.000288757196679257e-01 4.331487662118440607e-01
-5.939994652354739502e-02 -9.244778376220182114e-02 4.211539073220069707e-01
-3.561513925887106746e-02 -8.017944900490811544e-02 4.379785117402749117e-01
-5.163758265270026321e-02 -5.822958403270487443e-02 4.312659200769033974e-01
-5.336907112188504082e-02 -2.819082653994407078e-02 4.418272953554696070e-01
-3.627464632608622119e-02 -4.522723633584672248e-02 4.351419526777605129e-01
-2.342932141105375475e-03 -1.253875058937521381e-01 5.080556240464425555e-01
-6.508823174431881131e-02 -8.337057592667124206e-02 4.223694703655182514e-01
-5.618444993808523191e-02 -5.598674790979672050e-02 4.326893461020865361e-01
-6.923530284262982559e-02 -1.113775280481779928e-01 4.770955970060238860e-01
-6.902565696991222466e-02 -1.116989213458782493e-01 4.796701666164052691e-01
-9.298914109708468143e-03 -1.244096344052982028e-01 5.260470724197489067e-01
-4.309905460972997954e-02 -1.157581854760126455e-01 5.274915358670573262e-01
-7.898456512875659530e-02 -1.008021554344406961e-01 4.360611123994626026e-01
-7.079965534638675909e-03 -1.087063429944189752e-01 4.656901840725420905e-01
-9.604349367265449522e-02 -1.057022788407217251e-01 5.091428766050383192e-01
-8.474474083682700942e-02 -1.063821936655349187e-01 5.180675543091546320e-01
-9.566400885495207618e-02 -8.666857346255819883e-02 4.593810375821045233e-01
-1.828771462986065587e-03 -1.003939052839568774e-01 4.580182826843804955e-01
-7.516786873673697578e-02 -1.045368847121574268e-01 4.427658455290102713e-01
-8.093666997902401739e-02 -1.110220353306468899e-01 4.780972179933865585e-01
-8.438151735956740673e-02 -1.090983595710672965e-01 5.094467784898094598e-01
-8.193384925810057173e-02 -1.114218456660917012e-01 4.876270634862635567e-01
-8.209054759533889259e-04 -1.020836509171564599e-01 4.596078523573293717e-01
-4.795600196734809556e-03 -9.461175661044453344e-02 4.526091815058685963e-01
-9.320149036415691438e-03 -7.676950799355540533e-02 4.430717330907765761e-01
-6.654618727801213385e-02 -9.812242811368808437e-02 4.207581379947942790e-01
-3.610627601096275119e-02 -1.073257990787269273e-01 4.671743578021231302e-01
-3.858273156011235785e-03 -1.200414290381741911e-01 4.870870726403445650e-01
-1.038494968284996711e-01 -9.231438544032148641e-02 4.655401244464392185e-01
-8.540096488755707926e-02 -1.023075512383308100e-01 4.457392840737550155e-01
-3.223392710119038496e-03 -1.254700134527346189e-01 5.295737346813264024e-01
-4.889603287501242262e-02 -3.514560554566693862e-02 4.367729851072537084e-01
-6.115691262892325453e-02 -1.135765728066648328e-01 4.930712974776291224e-01
-1.729691730352509935e-02 -1.154246737445913662e-01 4.818240990392016476e-01
-2.567777985566367487e-04 -8.162169675384474410e-02 4.463002670704228625e-01
-4.892990991399957801e-02 -8.917765589825474293e-02 4.279283527120175679e-01
-5.358091680141542634e-02 -7.925350495723298971e-02 4.250259579650404462e-01
-1.519999806015211175e-02 -1.229289771867622255e-01 5.238554313224006442e-01
-5.006425076728868162e-03 -1.246138862676728076e-01 5.053939917593317510e-01
-5.551102936803877647e-02 -1.124378690097293521e-01 4.808600230381291918e-01
-3.049220488040722474e-02 -3.651500084537640661e-02 4.373165638835614932e-01
-4.223080698197034105e-02 -1.153026127387588584e-01 4.916692113977933487e-01
-4.298478595513272049e-02 -1.163941355408234374e-01 5.238204626059166369e-01
-4.402547622179561054e-02 -1.167827408137550455e-01 5.124697952311567661e-01
-2.891953567631316835e-02 -1.127579067320183120e-01 4.792374995133677484e-01
-2.252799244282216798e-02 -4.716184176596667499e-02 4.385967597176728683e-01
-5.700578515183961359e-02 -1.118678271919944095e-01 4.772151542891366338e-01
-8.622426502093324951e-02 -1.050975734962585895e-01 4.542395867379082630e-01
-5.857501994564715680e-02 -9.475075728513948636e-02 4.218043829341199813e-01
-7.412722352379594315e-02 -1.065506637053558470e-01 4.531417485558899561e-01
-1.554341710194825747e-02 -1.224907282167858324e-01 5.281795689175138309e-01
-9.077441285769800861e-02 -1.065848195577896590e-01 5.114724125774787744e-01
-5.286278268032850586e-02 -5.000473712785526159e-02 4.343762530294265622e-01
-1.613561840269638059e-02 -5.421987004288512935e-02 4.383462884301582707e-01
-2.093911483032300305e-02 -5.841816784619817404e-02 4.378759018131703762e-01
-8.707737394494026451e-02 -1.104225734978006024e-01 4.780862448767880801e-01
-3.354521429120720794e-02 -1.025659148666632908e-01 4.599015597556509460e-01
-8.798274928010163531e-02 -1.061995345293033355e-01 5.148595115101279873e-01
-6.317427845150704047e-02 -1.119867819833060413e-01 4.785872923129395051e-01
-3.250415671415031460e-02 -8.878917200043626168e-02 4.440839835046779260e-01
-6.091743113638027618e-02 -8.332652746050715764e-02 4.230608407325314180e-01
-9.315403645146562786e-03 -1.238069886514716056e-01 5.052544686952151753e-01
-5.037565981263913972e-02 -1.133616989188699492e-01 4.849849158045912989e-01
-7.306514668776957488e-02 -1.121688986604667121e-01 5.082769609233147579e-01
-5.426263901910074149e-03 -8.847838202721770851e-02 4.487021358437751628e-01
-2.857652493321410220e-02 -1.146814092838655263e-01 4.843133118757478872e-01
-4.232663611908395185e-02 -1.030305996263166657e-01 4.556099911955071580e-01
-4.997674521773087797e-02 -9.665094515318232993e-02 4.306409250184933812e-01
-8.894073645962620456e-02 -9.982875875417170086e-02 4.463949441556359088e-01
-3.084880181029683865e-02 -8.293604897661985276e-02 4.411823123320355311e-01
-9.355098552640904452e-02 -1.094928013087592134e-01 4.812091738063071222e-01
-9.241126824834265674e-02 -1.096182051260471413e-01 4.965899527847516537e-01
-3.531631418577060172e-02 -1.098573625887051958e-01 4.728592032073527518e-01
-6.362436060351718548e-02 -9.802477186737917902e-02 4.213208486649868134e-01
-6.339549974716751635e-02 -1.138179132286051137e-01 5.115845457847091327e-01
-4.044725081312715992e-02 -9.767374841783771355e-02 4.484533186338805488e-01
-1.042334798399426610e-01 -1.005088523291707281e-01 4.626089256144902406e-01
-2.772451133699041503e-02 -1.181198657782387557e-01 4.962941892511619768e-01
-7.430613104622832421e-02 -1.078179480563333931e-01 5.256828232661324707e-01
-4.980270885147290022e-02 -1.158123613902762444e-01 5.155219222315450267e-01
-7.910506345470039169e-02 -9.074749962605867248e-02 4.296548290036868445e-01
-1.447253529431234698e-02 -1.228303560520399434e-01 5.065434966132639216e-01
-9.724191254569097831e-02 -9.125974737226241751e-02 4.565264709982465030e-01
-8.801999776718236190e-02 -1.049670902276489542e-01 4.550311811807692397e-01
-4.769222608047786471e-02 -3.557003814015848725e-02 4.359734275285979122e-01
-6.601925691151301623e-02 -1.121713015634161204e-01 4.831400325922976524e-01
-3.238345327127440526e-02 -9.277071443195562817e-02 4.474094530139127168e-01
-1.027202470852391428e-02 -7.683724194693795917e-02 4.429325512073576387e-01
-5.799163775563310336e-02 -1.142181585971796670e-01 5.176610131772106937e-01
-2.955050204723787960e-02 -1.193924682457465913e-01 5.199570872042748038e-01
-3.809012029780498021e-02 -1.140156715553174438e-01 4.857859044309971730e-01
-6.199132989216534634e-02 -1.048122724701369274e-01 4.313565957937380846e-01
-6.803177833521091566e-02 -1.060717790553153822e-01 4.494870431647321474e-01
-1.091804262583765395e-01 -9.380842803448637135e-02 4.726836361084437721e-01
-1.972764074166582018e-02 -1.060340859654108070e-01 4.646286112059248574e-01
-4.014978699862516674e-04 -9.051173115908628386e-02 4.505868125300058757e-01
-5.309546320469402808e-02 -1.045524454593912272e-01 4.505346781591627603e-01
-5.029073772596768382e-02 -9.886949681235354670e-02 4.366115380412057267e-01
-3.629397228396914060e-02 -1.181173507678548035e-01 5.189057419175793218e-01
-5.736635892595025321e-02 -1.107546289873672235e-01 4.699680183914285436e-01
-1.103325890377849922e-01 -1.021185506635886447e-01 4.924034515252158628e-01
-1.450261447387236717e-02 -1.161324960340509999e-01 4.814643599175546518e-01
-4.867402603102181924e-02 -2.719354902695811024e-02 4.368339310331970649e-01
-6.453819891368210715e-02 -1.084185546638272712e-01 4.602597781510893160e-01
-1.002880045372163548e-01 -1.048095168312532660e-01 5.065109339312865444e-01
-6.643196220636944649e-02 -8.779474131365531953e-02 4.203243622758044418e-01
-2.332750015501634452e-02 -9.191872420098488872e-02 4.491271989388089803e-01
-5.678363170602414994e-02 -1.050314809615839617e-01 4.479818095332948058e-01
-2.699053408558193742e-02 -1.186958706459000923e-01 5.343349980724169113e-01
-5.103489323686651036e-02 -1.152851652440537306e-01 5.188050017891756571e-01
2.211506644499404168e-04 -1.266922642165703716e-01 5.192350220979675690e-01
-5.175397973811843993e-02 -3.874408615022759822e-02 4.369301169475046653e-01
-8.333803444789474046e-02 -1.108317990163215361e-01 4.991425132144926557e-01
-8.741314878331175875e-02 -1.097333605725366867e-01 4.717262008376899574e-01
-1.873228006249875316e-02 -1.076270258647594041e-01 4.666382739475077313e-01
-4.028133091629577944e-02 -9.172093075677484331e-02 4.429388852344344207e-01
-5.062708077387038236e-02 -9.967700245591346042e-02 4.402145694421830679e-01
-4.671604638692866684e-02 -1.126094474395982481e-01 4.815688282354539385e-01
-3.891069443935347982e-02 -6.919585851237552987e-02 4.333917344054631360e-01
-8.715642926720237882e-02 -9.413392679085806625e-02 4.415537763531394155e-01
-3.073594813009087115e-02 -9.530506739060445875e-02 4.506462919870919404e-01
8.917648486599863075e-03 -1.264665586268528263e-01 5.165155471364192286e-01
-4.461145326620485213e-02 -7.665491632292749380e-02 4.308976574834272877e-01
-3.080220425641253673e-02 -7.273092363453215192e-02 4.370929708307511596e-01
-7.972747289880471877e-02 -1.047244492838299429e-01 4.486284632009081008e-01
-3.063507222055592699e-02 -3.457941881088105740e-02 4.372716945159940694e-01
-7.025508398989520342e-02 -9.370647548434732355e-02 4.195139939450772126e-01
-9.087662717198392859e-02 -9.192219911539604993e-02 4.473422075031467382e-01
-2.783595915741018945e-02 -1.143180160000323436e-01 4.830107679576067237e-01
-4.919551617862685799e-02 -6.779567214496506899e-02 4.284129341113929179e-01
-1.289903802299730007e-02 -7.512302152740471528e-02 4.419289029325158547e-01
-5.740994981941391351e-02 -7.923012451875410811e-02 4.240318352759158693e-01
-9.491829896324802812e-03 -1.051843417050939006e-01 4.615807730739578951e-01
-1.000201881023653344e-01 -1.063612237531318810e-01 4.700985770788352336e-01
-3.949182417851739707e-02 -7.739608222546641436e-02 4.340530298533620268e-01
-4.942434713622109732e-02 -8.620927520744671446e-02 4.274817603742672723e-01
-9.409181390833631919e-02 -9.178197996799608571e-02 4.516732030305050105e-01
-9.508861914336239063e-02 -1.055633157576445630e-01 4.616563666563096024e-01
-5.149423763955526812e-02 -1.000644686860548693e-01 4.401134072660225494e-01
-7.268216551758122090e-02 -8.999054808312705045e-02 4.212036238274610156e-01
-1.039706966056262449e-01 -1.060163012518616776e-01 4.778162498348769160e-01
-1.344960563071566709e-02 -1.224621971137986043e-01 5.022390378573567959e-01
1.427394949958084996e-02 -1.255622437792082158e-01 5.364209527458936311e-01
-5.168843673938385702e-02 -5.553274953869290903e-02 4.321695051168054080e-01
4.166964303854935568e-03 -1.270790781399570024e-01 5.206933170660086319e-01
-1.934681103299814089e-02 -1.220256762744951068e-01 5.190247043336456700e-01
2.800290942342057235e-04 -1.267003955189714981e-01 5.198301281851053224e-01
-5.196911926315792712e-02 -7.527832463794409401e-02 4.263833863160578774e-01
-1.055144620682012258e-01 -1.044336330068381113e-01 5.012071234683632692e-01
-5.515634917747688770e-02 -1.146357661903267405e-01 5.182859927403780098e-01
-3.507495849786249759e-02 -5.109289738949693988e-02 4.352407882025363661e-01
-1.432854895091156041e-03 -1.252394324758686339e-01 5.327607280645364485e-01
6.398397915497295273e-04 -1.032888102282110560e-01 4.607954099581187402e-01
1.166061157112505652e-03 -1.221394666759525044e-01 4.938871278024249412e-01
-2.145993636449145675e-02 -1.057991162703360022e-01 4.649475521125887023e-01
-5.024578666892147438e-02 -9.109943548410837089e-02 4.269083886696716790e-01
-7.199496499150816187e-02 -1.098844342141163943e-01 4.681220672236898750e-01
-9.137034221278082791e-02 -8.718460347846236635e-02 4.518755538128155225e-01
-4.266409516711511946e-02 -1.155771562897405652e-01 5.292469380104821708e-01
-8.606910069420306564e-02 -1.071117814709097033e-01 5.143874522994223986e-01
-4.921624009369357511e-02 -1.135415155225879963e-01 4.859668606771795352e-01
-1.424626413460107835e-02 -1.092039487260356156e-01 4.678145908407315146e-01
-1.930844585882177111e-02 -4.674062607094500027e-02 4.386470138872907709e-01
-8.873276261679038934e-02 -9.101406827065786076e-02 4.451778448117149067e-01
-9.854858747888274595e-02 -8.838686531946281233e-02 4.614982142134866905e-01
-5.840685675025432400e-02 -1.069853696687007444e-01 4.555356429782229655e-01
-7.487399513835915621e-02 -9.122720947143235504e-02 4.233463945637735981e-01
-3.852733682183054342e-02 -6.552211959239122308e-02 4.336606625489330957e-01
-1.756225938478776782e-02 -1.204530350447963610e-01 5.386821333639220111e-01
-2.480045460703341267e-02 -1.187590710526676280e-01 4.971158654717940384e-01
-3.783351088838487336e-02 -7.745663746237770042e-02 4.352443913430609213e-01
-1.810154745411046012e-02 -1.225862480960772244e-01 5.157283043860146909e-01
-7.720128951488006153e-02 -1.115708899896517836e-01 5.044658825737273755e-01
-1.865146375368376130e-02 -1.212836176402569133e-01 5.308851186264271771e-01
-4.797712706031011937e-02 -1.038041986805159356e-01 4.528399752748005769e-01
-1.946272105756865350e-02 -1.206183160996578962e-01 5.001863678120065382e-01
-4.402097048252636910e-03 -9.798997622439563349e-02 4.554371043505774930e-01
-8.434839067274810254e-02 -8.779063669909639711e-02 4.402186922077245268e-01
2.885898675875698746e-03 -1.174136149939687818e-01 4.807955585554896105e-01
-1.597997784252198558e-02 -7.851539544632710199e-02 4.423987415254588829e-01
-2.737200872801600834e-02 -1.117628454099362095e-01 4.767160265525593466e-01
-4.662390027363574885e-02 -9.425721724750561747e-02 4.377787981269392614e-01
-7.566375409758616111e-02 -1.120403681608888175e-01 5.024448352203308987e-01
-3.734292509711590463e-02 -1.154291534635301097e-01 4.903813357683474150e-01
-7.118603515751859012e-02 -9.649361262837047315e-02 4.215804849626783590e-01
-6.941653547888690379e-02 -1.038814754428944442e-01 4.348319640404119113e-01
-3.984826055063907246e-02 -1.028323823471375825e-01 4.570540645833925386e-01
-8.946480892370161850e-03 -5.839147443441025653e-02 4.383640270202059930e-01
-5.348605558763094847e-02 -1.008128882793390690e-01 4.266938171950566683e-01
-7.906054605209379693e-02 -1.018495578933539120e-01 4.379321834965023141e-01
-4.335841271016735443e-02 -8.436024158087029878e-02 4.339049012154433949e-01
-3.708274777170041808e-02 -3.243900946875782898e-02 4.359092765618927112e-01
-5.878989030296757901e-02 -1.125004834632433309e-01 4.818347286728638101e-01
-7.057565441166653575e-02 -9.882286619710654862e-02 4.228883153432074216e-01
-1.719200876253874737e-03 -1.183787656893974388e-01 4.825023466342061584e-01
-7.814644985423330192e-02 -1.117846768120911993e-01 4.971117396045193759e-01
-8.572940079848141715e-02 -1.105283957622533592e-01 4.978613048406949071e-01
-8.136967667986604036e-02 -1.076177647013607797e-01 5.185036182160989160e-01
-5.950121371040291429e-03 -1.251962477783609973e-01 5.103154432598361323e-01
-5.813882968171606852e-02 -1.113791633080433580e-01 4.730889040544699053e-01
-8.240321246366427363e-03 -8.383686296190669129e-02 4.459631958977911537e-01
-4.758006117279230118e-02 -7.371404729714124693e-02 4.286679147492223341e-01
-3.571462185204371011e-03 -8.534866890033275533e-02 4.475144558210422119e-01
7.899744866024174458e-03 -1.261929679244956359e-01 5.130752350456418975e-01
-3.575056975822584610e-02 -1.105613344911194479e-01 4.743826803985934926e-01
-2.091458180588130766e-02 -1.165845208539859901e-01 4.869936528018505850e-01
-6.534004111538946336e-02 -9.397320778215148551e-02 4.197810790702665718e-01
-2.572398456709757211e-02 -7.850677551976256718e-02 4.406636326944588511e-01
-9.309866435949387675e-02 -1.052242922340484027e-01 4.592316453148915234e-01
-1.072559861043259101e-03 -1.264438766002327630e-01 5.240463105283086342e-01
-7.888786976328537870e-02 -1.099111161193627312e-01 5.137207502823907257e-01
-5.380240259889344095e-02 -3.975821563325288716e-02 4.388798171806552739e-01
-9.284221739284659325e-02 -9.680777206552693137e-02 4.493855068547816245e-01
-3.817177514497726437e-02 -1.175294901435253725e-01 5.027494893556799793e-01
-6.201214604428036820e-02 -6.616051517924696757e-02 4.302017436763851954e-01
-2.228289802508061010e-02 -6.815992611029826620e-02 4.386583615454985319e-01
-3.273342350542277762e-02 -1.170531494567468300e-01 5.354256184713683808e-01
-9.915314618826692739e-03 -6.978766120072302237e-02 4.408577773128393718e-01
-7.184786586562884325e-02 -9.717992491999363769e-02 4.225499844383307502e-01
-1.897980578864785772e-02 -1.189081868796420666e-01 5.433430398692146168e-01
-8.827243085459669791e-02 -1.105659644148204029e-01 4.886105965546710395e-01
-5.762851356302701317e-02 -1.144203024311581801e-01 4.977593882612816323e-01
-8.639096633326528996e-02 -9.623018506999322930e-02 4.419039829590475366e-01
-2.382935286765505006e-02 -6.719006266775132130e-02 4.380826573862696693e-01
-5.234871523780887381e-02 -9.142311669190661405e-02 4.251687896690437007e-01
-1.092596401187216071e-01 -1.016747480095636230e-01 4.778731574235443591e-01
-7.802270065357848512e-03 -1.196434477874668417e-01 4.870095156231802336e-01
-4.241441036316694752e-02 -1.163866244514847464e-01 5.247525515800043339e-01
-2.834432619754862978e-02 -1.061039888289379285e-01 4.666772029316630932e-01
6.921069350837596133e-04 -8.660186168422424891e-02 4.486147605292815088e-01
-6.500236304805770415e-02 -1.133012997536039512e-01 4.955360784278485253e-01
-3.881095768978268246e-02 -1.095075325641041430e-01 4.712850219468610602e-01
-4.883384918497153671e-02 -4.511741798497653777e-02 4.344415583770167011e-01
-4.522741478362213990e-02 -1.006860890118492363e-01 4.492477996025521225e-01
-1.104915976040153069e-01 -9.473301900005473564e-02 4.761175334210648313e-01
-2.310849291835213176e-02 -1.187739284684738023e-01 5.391515354713992680e-01
1.943050310509630363e-03 -1.232352192479703457e-01 4.971835176321542926e-01
-1.196381702496979345e-02 -1.062048940693283289e-01 4.629618876320739096e-01
-6.004680973563500390e-02 -9.904109391297515053e-02 4.218608202299946597e-01
-3.313318720316437132e-03 -1.158483329579785004e-01 4.768592967964385698e-01
-7.880011829654572086e-02 -1.072550899438881877e-01 4.575380827672220208e-01
-8.040777702597652621e-02 -1.114744800843119055e-01 4.946304328841225617e-01
-7.853542645749199413e-02 -1.097824191608605948e-01 5.150853282197624949e-01
-4.667187408252510689e-02 -1.094424269665643240e-01 4.677632373580548064e-01
-3.634102629799886020e-02 -1.167936582866549305e-01 5.314693920741552224e-01
-6.334465035169153935e-02 -1.079375897597191075e-01 4.580463895636058824e-01
-5.501583530132207051e-02 -4.648463000026665376e-02 4.370023986716240483e-01
-7.127468838801070961e-02 -1.032436918607338855e-01 4.336435538861524441e-01
-8.486815417869750244e-02 -8.827982661599341474e-02 4.407136826276705777e-01
-3.332373323332796927e-02 -5.436679546800866902e-02 4.355387559092646077e-01
-1.666546520637072343e-02 -1.195241114193905801e-01 5.435158580823502561e-01
-6.401094933005700705e-02 -1.124147772821087743e-01 4.841497648511817187e-01
-2.095857357293888848e-02 -1.003058971989441023e-01 4.582167494899050952e-01
2.111545187685316769e-03 -1.116924847268872673e-01 4.704976584417885910e-01
-7.214211310189005966e-02 -1.052432412919599991e-01 4.454304525303097728e-01
-9.918985312511931218e-02 -9.469525241506292212e-02 4.570567504463473041e-01
-8.109078033161193355e-02 -1.104235483000520213e-01 5.070316793343325745e-01
-1.253550510649719708e-02 -1.009061363208093171e-01 4.570897677109953539e-01
-3.876373072353475613e-02 -1.004435250131747309e-01 4.537171304342423883e-01
-4.745293427285859900e-02 -7.864487971032346758e-02 4.287525166298812307e-01
-3.187714265142384956e-03 -1.182763217686774448e-01 4.820999900421893969e-01
-8.766958352188899961e-02 -9.923084451013275409e-02 4.442173966433884402e-01
-3.761921768294033269e-02 -1.174328772069495180e-01 5.013444375934460462e-01
-3.195641776920732369e-02 -1.177077551840280956e-01 5.327321960217292762e-01
-6.804948584035053205e-02 -1.079632943650564725e-01 4.586272412835918355e-01
-6.120350574448327197e-02 -1.120456525327901409e-01 4.786870653633802375e-01
-4.891060444681094577e-02 -1.141453035417826778e-01 5.292233509119533830e-01
-3.844321422091154933e-02 -3.684875729740756667e-02 4.350342681128411826e-01
-8.364325878801644187e-02 -1.112120089861298317e-01 4.876536840524278715e-01
-9.399190410504331891e-03 -7.332300758132906382e-02 4.418981285362132416e-01
-3.948330939914009019e-02 -9.390163970704547280e-02 4.452566399113088713e-01
-5.458531399354417391e-02 -1.138462834512894289e-01 5.240502467233867367e-01
-1.137996386377562036e-02 -1.241419447889985511e-01 5.212137844709469059e-01
-5.133791900427832344e-02 -7.547678585702477516e-02 4.265563974232234878e-01
-3.754441831706117894e-02 -6.056967207549782128e-02 4.343263799502148359e-01
-2.026727204382499509e-02 -1.216374474486404816e-01 5.087864585340916568e-01
-8.446398827566521314e-03 -8.935291571867501337e-02 4.485311815727801021e-01
-4.972743627103654029e-02 -9.893829035409890116e-02 4.389898325096464604e-01
-6.194015041854459419e-02 -9.427712656631563604e-02 4.208000688692451474e-01
-6.986294973600871983e-02 -1.122564946496463489e-01 4.873050331166873805e-01
-6.613281212873090009e-02 -1.017805688382466683e-01 4.221017460854684100e-01
-4.217598546086800959e-02 -1.076813072930055681e-01 4.646874383294173350e-01
-1.359048224487615156e-02 -1.176957592881842096e-01 4.843206695431901410e-01
-5.954826779793039038e-02 -1.144019900907129184e-01 5.095362404600889406e-01
-3.236779959196155881e-02 -1.190107742454422635e-01 5.128550702530606520e-01
-9.676765790597854910e-02 -1.071885936682846485e-01 4.694049571913727625e-01
-4.708353888882304411e-02 -9.523133716210686883e-02 4.388179569165708283e-01
-8.680350782437114276e-02 -8.708422145247769752e-02 4.443768851064840431e-01
-4.960382760112161393e-02 -1.103603245353573098e-01 4.703043532989103492e-01
-1.568509755670869895e-03 -1.143303756972979673e-01 4.743496662768242889e-01
-2.229890835380398187e-02 -5.239801383427860476e-02 4.380851923314348917e-01
4.521643835037606439e-03 -1.204888547959023642e-01 4.892177109526221757e-01
-2.750788195616134246e-02 -7.333580881256174244e-02 4.383048601532336663e-01
-1.079574357263481110e-01 -1.049860981261817594e-01 4.884082732837475849e-01
-4.893112926842107385e-02 -1.154932261925610548e-01 5.208490631357250988e-01
2.067068003536460218e-03 -1.267711284041415920e-01 5.256890814607257933e-01
-6.050246247734054200e-02 -8.895478313418138383e-02 4.213458030454224068e-01
-6.233324587341883619e-03 -1.243191587318777519e-01 5.319953850185510369e-01
-4.019087596542222224e-02 -6.603772944795396893e-02 4.328192365810149544e-01
-8.359335878622288496e-02 -1.087531548931735537e-01 5.120650711584960879e-01
-6.193197181112120031e-02 -1.030537002962971099e-01 4.222509068438533575e-01
8.012925594972812940e-03 -1.260138676002835467e-01 5.346372863199652103e-01
-8.939272603244313720e-04 -1.264360407650513829e-01 5.245786913762132686e-01
-1.161115543085611962e-02 -9.980454183654072220e-02 4.561364539085655534e-01
-3.136539011635670893e-02 -1.175234047810162913e-01 5.347876027729113746e-01
3.587325930632100611e-03 -1.067912955576812289e-01 4.648539704521298943e-01
-7.154878792554110467e-02 -1.049188591356548794e-01 4.431478548596313183e-01
-1.105961610028776271e-01 -1.009869481487697535e-01 4.824733466747442301e-01
-4.379630069968569461e-02 -9.149905269455567425e-02 4.398586433028677800e-01
-5.001755744566797890e-02 -1.157010154326047480e-01 5.050527454993971599e-01
1.083619635368051302e-02 -1.265453440946292252e-01 5.324240242096314191e-01
-2.613468211925867868e-02 -1.134136025024711364e-01 4.800979629257121628e-01
-2.502632394460005405e-02 -9.074773704044684919e-02 4.476816547065379237e-01
-7.693628424408002764e-02 -1.096729443744791088e-01 4.675814168454540121e-01
-7.830508244396787443e-02 -1.117609548952797488e-01 4.964222467239449710e-01
-2.628356143178421991e-02 -1.160615291663772281e-01 4.883059543035201955e-01
-6.682138976235302286e-02 -1.073690556901737564e-01 4.560445717850267200e-01
-4.982644858463327470e-02 -1.153606760313634905e-01 4.977255408377669887e-01
-8.229725357725090062e-02 -1.053511409596472603e-01 4.521956922345741203e-01
-1.004311909931564495e-01 -1.049965108871160485e-01 5.057793335213968122e-01
-4.386029856805268717e-02 -8.421506959446416196e-02 4.331880417900002556e-01
-2.208034452766568373e-02 -1.209723313801210343e-01 5.056396374880320899e-01
-4.154144924458001709e-02 -1.142307964510249768e-01 5.364092275785018460e-01
-8.292413939441758974e-02 -1.075753556103129088e-01 4.601116658929857439e-01
-1.390917362712982761e-02 -1.200783112593874075e-01 5.435784838849788692e-01
-5.537109068243474541e-02 -4.647695385505952459e-02 4.384379624855982982e-01
-1.723343213106742766e-02 -4.644332116043112940e-02 4.384983870764558866e-01
-7.764299810026493477e-03 -1.191150531669490503e-01 4.851712439624960571e-01
-2.810372502024491986e-02 -9.092839338443793606e-02 4.472860556174729219e-01
-6.418241747566698352e-02 -1.134603490138668402e-01 4.973836105000392638e-01
-9.525541435790117750e-02 -1.018857760609500340e-01 4.541139858884404856e-01
-8.499108597586658986e-02 -9.275685987685144962e-02 4.389860211703574544e-01
2.433428325870226161e-04 -1.264244949668759110e-01 5.138851903951717759e-01
-3.835559556845716950e-02 -1.178274541005529252e-01 5.135494686265201780e-01
-5.727161147528207069e-02 -1.066773976083306569e-01 4.550182870328253748e-01
-3.643842712966493397e-02 -1.180870377566997781e-01 5.076146219560538908e-01
-3.798805097002967007e-02 -1.123468859822087801e-01 4.802792048011697568e-01
-6.170806629382270120e-02 -1.001414624891621002e-01 4.221423680451978910e-01
3.804059826196149949e-03 -1.049663911405498834e-01 4.629331358760904735e-01
-5.218048007067352390e-02 -1.122328769573861101e-01 4.790024206849265442e-01
-9.051563978868759630e-02 -1.099930175821991346e-01 4.953543980776468625e-01
-7.761904263821144123e-02 -1.103918967212786512e-01 5.127622517712751016e-01
-7.703018343748152530e-02 -1.115446010385913872e-01 5.051680128636836242e-01
-1.521121396633331666e-02 -9.613284830878773835e-02 4.529556693444964366e-01
-2.265630605557091004e-02 -1.039139973336190848e-01 4.628715341181079967e-01
-5.999759971369947320e-02 -1.121723233570370015e-01 5.264672865573962746e-01
-7.096968839154718656e-02 -1.096242568187480310e-01 5.240604362705135744e-01
-3.278468607234927279e-02 -1.189213344853000537e-01 5.105709618564971963e-01
-1.391074310678641276e-02 -1.067333043013209137e-01 4.637459941306620315e-01
-3.000773337111374561e-02 -1.184053851303111110e-01 5.302261367742592268e-01
-4.055883002010275684e-02 -8.580378463728689786e-02 4.373541487418560747e-01
-5.917965391885422061e-02 -1.100579372580393483e-01 4.677300662167958034e-01
-7.345652695758669859e-02 -1.039698207022379667e-01 4.389453177653295235e-01
-5.952220726452452787e-02 -1.072018369071269794e-01 4.562637426679159169e-01
-6.590603361949960715e-02 -1.084816192932982759e-01 4.607666053224204750e-01
-1.028571730886127245e-01 -9.532057222282797060e-02 4.616023562383021472e-01
-5.037710584833834243e-02 -1.151293899906176976e-01 5.219977105742062973e-01
-4.993694427196086749e-02 -1.044493983982421326e-01 4.530783554685854364e-01
-4.647051937739462429e-02 -9.502901377020304963e-02 4.403052479444076184e-01
-1.058311322190545398e-02 -9.916361250451809217e-02 4.556047395383335252e-01
-9.153327797057472792e-02 -9.051985874569522250e-02 4.490248836785727948e-01
-3.626579461785742198e-02 -1.152836539646683034e-01 5.399966051577407278e-01
-2.915973444072190307e-02 -1.195528872362015271e-01 5.184117084875691228e-01
-3.085885865209685511e-02 -9.107459766442092819e-02 4.463784603373441850e-01
-6.501731085740275473e-02 -1.134999705531934550e-01 5.006780200239818734e-01
-3.746622733642810538e-02 -1.174103099374049775e-01 5.009868453522867693e-01
-4.721928887220998294e-02 -4.828783272286936434e-02 4.338825505112763325e-01
-4.051010507145557521e-02 -6.636011756257817473e-02 4.326530533640666198e-01
-6.913118599849563117e-02 -1.126528201643409444e-01 4.920734049932054543e-01
-2.278637718489423189e-02 -1.127150514614954219e-01 4.781859524905028858e-01
-3.290563737131618760e-02 -5.115849959380917855e-02 4.359973836167331251e-01
-6.830930150019026703e-02 -1.068079271575725353e-01 4.537651367213633158e-01
-1.764270070908812924e-02 -9.546476740409837181e-02 4.523900999289986458e-01
-6.827417173882605050e-02 -1.117404804143549701e-01 4.798665342106386289e-01
-6.494675246164875737e-02 -8.122588328566419935e-02 4.239242056059528974e-01
-5.228803041998808521e-02 -3.495217732810960293e-02 4.382799813659885024e-01
-5.257247266706828459e-02 -1.025088199464053718e-01 4.453074144596502193e-01
-6.702310368104073823e-02 -1.034637926076998060e-01 4.281344270905562688e-01
-3.392997553427704732e-02 -1.163043808960132069e-01 5.376787225496312272e-01
-3.448300406665948115e-02 -6.588069543635881320e-02 4.351978637456416221e-01
-9.079245066115945728e-02 -8.822798414859057969e-02 4.497388303286406486e-01
-1.036332454434120975e-01 -1.054535847894908646e-01 5.008119014185805629e-01
-1.645953508872506979e-02 -7.911151877071731509e-02 4.425262260129440017e-01
-2.171602080198777734e-02 -9.640431065807526789e-02 4.538186149367174904e-01
-5.637223126863551148e-02 -1.126119234394362123e-01 4.820645783863790057e-01
-8.131690983712748511e-02 -1.113358745324802279e-01 4.966796708142786620e-01
-5.065397856619024280e-02 -1.135694126089054068e-01 4.860366784598641465e-01
-4.747004041071802710e-02 -1.144838951187889253e-01 5.291853504005100683e-01
-1.861108298921099538e-02 -1.210823876173359043e-01 5.329337733031834778e-01
-2.478161269820269418e-03 -8.244919267143613339e-02 4.463953335248364573e-01
-9.534827685058235025e-02 -1.069518593521738004e-01 4.668037709754382369e-01
-1.135635137461708626e-02 -1.235300724294744329e-01 5.066477071872292903e-01
-3.408160529687489365e-02 -1.172496791471840105e-01 5.322912786426368115e-01
-5.804126920711711463e-02 -1.042646448771444162e-01 4.266744619106241365e-01
-2.020216476681570283e-02 -1.174306119688725003e-01 5.470183343446272106e-01
-1.653977413190160783e-02 -4.656222885686472218e-02 4.384160383840223774e-01
-9.625174858582372095e-02 -1.084291274366812191e-01 4.988420488780628270e-01
-8.996240118919415774e-02 -9.026558752172371414e-02 4.470642407562391285e-01
-2.127737923695298058e-02 -1.215272126077846654e-01 5.117534028266472745e-01
-1.838525724416299745e-02 -7.984971674027224742e-02 4.425364348539835846e-01
-2.229367646201574002e-02 -1.092136005916314184e-01 4.708169065499009931e-01
-2.844044636028705136e-02 -8.202343709945807138e-02 4.415154125103948890e-01
-2.222870469685490208e-02 -9.413932827918597424e-02 4.515311547656748470e-01
-3.027169994172851375e-02 -1.144065978117087268e-01 4.839642799784860117e-01
1.604597825656959176e-03 -9.260048368863006696e-02 4.520772534488555205e-01
-2.221875695988129520e-02 -1.024453105142428683e-01 4.609486036167422807e-01
-2.975499352858662280e-02 -6.927069319229542388e-02 4.370615642804850931e-01
-3.687499127065641674e-02 -9.444068579819110687e-02 4.471853223817213174e-01
-5.528339148903681222e-02 -4.623403543182694891e-02 4.384670708259186811e-01
-1.562484173896877895e-02 -1.192429888659215370e-01 5.453201985710711686e-01
-1.430409256575394458e-02 -1.214556027646157693e-01 4.977271629703827194e-01
-4.684180386330633744e-02 -1.149210278308494954e-01 4.920332108471969779e-01
-8.340765664716230654e-02 -1.028053954946584470e-01 4.458824497408307996e-01
-1.030140657894559469e-01 -1.071801021619754879e-01 4.862457184661052034e-01
-1.716555755544184672e-02 -7.547814853627289600e-02 4.412502958826816091e-01
-1.203273562878784397e-02 -1.027545870832079489e-01 4.590559006469588366e-01
-5.917642836816413426e-02 -9.659660360891599018e-02 4.218227008915858001e-01
-3.388273140111219134e-02 -3.802229278108672228e-02 4.361929841498801141e-01
-7.853629411234672175e-02 -9.170230810526319720e-02 4.286837979612783678e-01
1.303955288578211979e-04 -1.075418888123382682e-01 4.651524760558718996e-01
-1.689844995603559386e-02 -1.204695528160871776e-01 4.960329602681853300e-01
6.494941644129934022e-03 -1.257243479495880056e-01 5.356865890621298476e-01
-2.631504624910233764e-02 -1.202424101010364649e-01 5.102335311598755752e-01
-4.727893693147861010e-02 -1.096386292284267649e-01 4.683235649461917061e-01
-2.294427683125929360e-02 -1.193048128221081694e-01 5.367720084916322021e-01
-3.336942283289767719e-02 -1.086348844911215750e-01 4.703371996181344161e-01
-3.985716860419596247e-02 -1.167666074563845774e-01 4.989919851816499441e-01
-5.140046330640477695e-02 -1.005840426445843289e-01 4.379374796944268677e-01
-3.558654577831694282e-02 -1.148876805205013008e-01 5.419269292413059214e-01
-5.197156563974315163e-02 -1.150253432991194952e-01 5.197861106458575575e-01
-1.052961488257536660e-01 -1.033907936467890337e-01 5.037437833984067526e-01
-3.178581982084777852e-02 -3.386953137446781920e-02 4.369927396038411627e-01
-6.467818472458804202e-02 -1.084551876229927492e-01 4.604568950453362675e-01
9.717493247126450170e-03 -1.267007162214688620e-01 5.288692622594245440e-01
-1.076690335103692997e-02 -1.139397729219104594e-01 4.746485454854582620e-01
-3.492394521656851797e-02 -1.155412570702833291e-01 5.402802501808251501e-01
-4.732298071014233443e-02 -1.158226284709455989e-01 4.975651686518635097e-01
-6.557320038223664327e-02 -1.106267899486942513e-01 5.261359796973757996e-01
-5.316854829180406999e-02 -3.155926808911315579e-02 4.394991160915669992e-01
-9.043148626504278476e-02 -1.012361993269680210e-01 4.509847545327136387e-01
-9.189124931061351531e-02 -1.086851438685938198e-01 5.029224568157619757e-01
-6.195401630680719834e-02 -8.275322157952913482e-02 4.230016025491044607e-01
-7.086589310358268334e-02 -1.126887992101297531e-01 5.054556599618797996e-01
-6.948763568523749767e-02 -1.099207836903890873e-01 4.678355163556458529e-01
-2.088572449975860737e-02 -1.019619266237872246e-01 4.601849806584310532e-01
-8.391120451601685737e-02 -1.103943241586509555e-01 5.016917143324360895e-01
-8.877195436405320439e-02 -1.104162286039175739e-01 4.850306007470827629e-01
-5.631606114773164001e-02 -1.143040960013306656e-01 5.196508493133884521e-01
-6.982591042383667901e-02 -1.122086017232693106e-01 5.136057327264961225e-01
-6.370528908063124995e-02 -1.125854177491121821e-01 4.855035978304859667e-01
-7.367842013757018582e-02 -9.274739488976424528e-02 4.223996621508982474e-01
-1.410328320345773795e-02 -1.228503689170088314e-01 5.060751532357642413e-01
-6.056829760654221240e-02 -1.140127750517857669e-01 4.980331902623252871e-01
-2.998278744370653018e-02 -1.186163160967480951e-01 5.281504353196878609e-01
-4.093595839817437167e-03 -8.660865031063902375e-02 4.480425052966380273e-01
