-7.902638795880444211e-02 -1.056914437115064331e-01 4.543278240554276537e-01
-5.109315897808955342e-02 -1.144745320953741291e-01 4.944386739436686939e-01
-6.308217444729995182e-02 -1.031838926511103316e-01 4.264440267699212139e-01
1.561976050743212226e-03 -1.105837673274342597e-01 4.687287833120543645e-01
3.846631885445288366e-03 -1.265576866358017472e-01 5.275377609431359804e-01
-3.950579584676131017e-02 -5.459056537076972110e-02 4.335678213358896138e-01
-4.948471666197738761e-02 -5.003087130701723562e-02 4.332217579116013351e-01
-3.188819036098491239e-02 -1.180569559640228944e-01 5.282445804700870440e-01
-8.990040667987728162e-02 -1.094047969797654757e-01 4.946391312333927037e-01
-1.720212419952054164e-02 -1.012927338688639073e-01 4.583055446796140964e-01
-3.978025664624351698e-02 -6.744231667086740545e-02 4.325589923226820233e-01
-9.806632946317343780e-02 -1.061949738312321784e-01 5.033093540750653849e-01
1.204691979700940954e-02 -1.254993409488910638e-01 5.372320905274581282e-01
-7.172422305971921930e-02 -1.053726281534207443e-01 4.507439834317366056e-01
-3.128291205499104943e-02 -1.172834280188800454e-01 5.355606429420081138e-01
-4.791041858599778130e-02 -1.076873639752113365e-01 4.632680925695316088e-01
-9.869740820809415338e-03 -9.525906209143451819e-02 4.520588657344040695e-01
-1.989984949964480540e-02 -1.174936538569836264e-01 5.471909000791628230e-01
-2.377281918075493244e-02 -1.189042736907685582e-01 4.972954414305938986e-01
-7.058840414389330742e-02 -1.123163459506227452e-01 5.027279963848241273e-01
-2.873155001825301175e-02 -1.000592104191833087e-01 4.578888840604654620e-01
-9.794700329520072621e-03 -6.786287283709308005e-02 4.402502511069847912e-01
-2.636615658136584606e-02 -4.776182924651273948e-02 4.377366707485093600e-01
-1.053623507142661120e-01 -1.040257359081585425e-01 4.729819811326448908e-01
-9.121187835435687341e-02 -1.030592242894000227e-01 4.539962531925527678e-01
-3.303316829571570357e-02 -1.173039776647065852e-01 4.962863194133106393e-01
-5.525515268148632059e-02 -8.093126451882114158e-02 4.232469262036437363e-01
-2.179402898101653191e-02 -9.616971335378284025e-02 4.535184660513662536e-01
-2.815847561926865944e-03 -1.257903920442788870e-01 5.279055735076688682e-01
-3.294601517080700953e-02 -1.129104888107254900e-01 4.808062046570760195e-01
-2.570027559992749816e-02 -1.189947596982957045e-01 5.340812718426243277e-01
-3.364719742812703057e-02 -1.185381979791323287e-01 5.156610690745192516e-01
-2.513007892278578195e-02 -1.151271429337830943e-01 4.855000137511109037e-01
-6.513084475614246138e-02 -1.131230975364241192e-01 5.089873400473238219e-01
-9.383377712505262813e-02 -8.360482410464301073e-02 4.575418252697068255e-01
-9.294600314808201813e-02 -1.087914394266842888e-01 4.784437006889498134e-01
-6.111758706109518546e-02 -1.061280811065606067e-01 4.545547519274280024e-01
-4.153667513298747727e-02 -1.165905007180280117e-01 5.220662953187030775e-01
-7.030592263727278302e-02 -1.058632675977265597e-01 4.530717039357483045e-01
-3.073990571387795814e-02 -3.453502385393397017e-02 4.370563595264937429e-01
-7.016946050128959611e-02 -1.122345859642461668e-01 5.086253689289869095e-01
-5.024762365380087970e-02 -1.098410152656788680e-01 4.701598222768715862e-01
-2.475267467189021936e-02 -9.971096626802386509e-02 4.576450406240360480e-01
-6.110093554646217617e-02 -1.137642009712771518e-01 5.123946982021696517e-01
-1.119888939872675654e-01 -9.793489342876672554e-02 4.771281032094280561e-01
-3.474466676872949022e-03 -1.254198615852968879e-01 5.086951415741416405e-01
-6.019302830554835657e-03 -9.462074960075682328e-02 4.522998405616245887e-01
-1.889176887342594591e-02 -1.223643690153373709e-01 5.152516008606522480e-01
-5.139905113582875218e-02 -9.652987998482630283e-02 4.278888931450235411e-01
-9.841179210375922137e-02 -8.791473710925561125e-02 4.595810959836231224e-01
-6.214675903586312083e-02 -1.077463299147557313e-01 4.600691343373843889e-01
-8.727967168401790099e-02 -9.896297648088303589e-02 4.433079836590307909e-01
-5.174928541582493602e-02 -5.837107601147946412e-02 4.304617941999133168e-01
-2.290535825256763067e-02 -9.960164205144174387e-02 4.575936259742365286e-01
-6.100487861437671466e-02 -1.120846104233612084e-01 5.241525156504873717e-01
-5.628119361392668746e-02 -1.020522750040458587e-01 4.217835704442441380e-01
-7.348171075487325288e-02 -1.040176351676993932e-01 4.442174112491469318e-01
-2.265719999587343172e-02 -1.124650290228257771e-01 4.778477925659802561e-01
-5.936409312702326663e-02 -6.780947723985891740e-02 4.275685178528284003e-01
-7.413395392495584352e-03 -1.148781104668820802e-01 4.755730393654647448e-01
-4.985510352458992489e-02 -6.842074416082143118e-02 4.273793061703848872e-01
-8.001825251244157333e-02 -1.098198245625521957e-01 4.733724828564736531e-01
-5.624620800781810620e-02 -1.137941476579358430e-01 5.209194719198003698e-01
-8.561834583960654943e-02 -9.472083074144047043e-02 4.400971297151682893e-01
-5.106215442517175740e-02 -1.148299227905742736e-01 5.203102176095659726e-01
-2.922249116222397011e-02 -8.627442391687822898e-02 4.433665343471627773e-01
-3.893790020268472762e-02 -9.222129939995710179e-02 4.442404702233695990e-01
-3.806254372944650050e-02 -9.336839780353978213e-02 4.458359876218467854e-01
-9.593391064986279970e-02 -1.070082829946214370e-01 4.702092392584170111e-01
-2.955604695959645339e-02 -4.747774264741865674e-02 4.370814804063673509e-01
-1.040028237404929667e-01 -1.046286159014896411e-01 4.727218857108049788e-01
-1.005268717047243521e-01 -1.070450651442868828e-01 4.804067736640242336e-01
-6.379006960127249493e-02 -1.007721320623659461e-01 4.212466298500687767e-01
-4.393260965754221953e-02 -8.621548757913068128e-02 4.340807403665396524e-01
-5.550359186582304316e-02 -1.144548265036033075e-01 5.025724546236314261e-01
-5.725765016666446022e-02 -1.137928696647803051e-01 4.950602595316774823e-01
-1.020583590679078889e-01 -1.051828354839472318e-01 4.709688063072376973e-01
3.739348903459877201e-04 -9.961445770166076075e-02 4.574715699238531830e-01
-7.023388177892310458e-02 -8.747812916744028555e-02 4.197754046462291444e-01
-1.599376527649339422e-02 -9.583480450718256938e-02 4.525805817515617391e-01
-2.218684791759767405e-06 -1.001060220514247978e-01 4.578591624387963743e-01
-6.695868083383371694e-02 -1.126168644124685841e-01 4.966617833099538637e-01
-2.412075065724654521e-02 -1.194766720712192309e-01 5.335455297715687717e-01
-7.517450514858325938e-02 -1.116966554217622698e-01 4.993456248009486842e-01
-5.343949084365114122e-02 -1.146044162424506713e-01 4.981779703256370984e-01
-4.570121130458996983e-02 -6.184542141214247751e-02 4.303518392110984858e-01
-1.991786170363012490e-02 -1.078799697376816857e-01 4.675525471072927708e-01
-5.297815806189049709e-02 -1.019205681577927403e-01 4.459166986731691318e-01
-6.280189688971990480e-02 -1.135144530618715925e-01 5.114891541832586874e-01
-3.200176954048680050e-02 -1.181736044792037893e-01 5.003343293670310388e-01
-1.262373950419844529e-02 -7.878311258490718061e-02 4.429689244795508851e-01
-1.446412797659253624e-02 -1.084958247884983129e-01 4.666043520585267390e-01
-5.099115194966263864e-02 -1.139485091762687530e-01 4.901563378792526127e-01
-4.605468114540834518e-02 -7.047516506153191085e-02 4.293613015894202634e-01
-7.152750868143602225e-02 -9.313118810662435187e-02 4.205336060490961758e-01
-5.428852136136069068e-02 -1.009470803878961542e-01 4.348408446119271797e-01
-7.562548821390869917e-03 -1.234041712712297123e-01 5.343637906936228310e-01
-8.133290230606766980e-02 -1.107472677379888609e-01 4.904761623495073053e-01
-6.342867683309516558e-02 -1.124807209056024604e-01 4.891614382295878527e-01
-2.158605165696014707e-03 -1.113466681587296780e-01 4.693952971473102642e-01
-5.432566169160131520e-02 -3.944999377053978740e-02 4.401178129511282289e-01
-7.176571333423677201e-02 -1.088782705729306882e-01 5.240361853269986936e-01
-8.762417568271897717e-02 -1.072252183151103377e-01 5.106156956676318748e-01
-6.576990887694786347e-02 -1.110006657232505273e-01 4.764263373351751429e-01
-4.787936400919947516e-02 -9.987318374789082298e-02 4.462248715284066747e-01
-4.030376928186918395e-02 -1.133705028305597440e-01 4.851134014284023688e-01
-7.009466624127948242e-02 -1.122627995835246972e-01 4.969993898970877511e-01
-9.117555354665199396e-02 -1.090576087147167722e-01 4.778987156288563298e-01
-6.858053501867181212e-02 -8.295015832368252129e-02 4.223671066376697425e-01
-6.354988369124442427e-02 -7.191562416757389664e-02 4.261540426660429537e-01
-2.538292627062583781e-02 -1.117831347048121732e-01 4.767567471707648274e-01
-1.027215529729024607e-02 -6.308512770231611277e-02 4.390102074945842481e-01
-3.615723215026237641e-02 -4.079000901004942864e-02 4.350165947888653406e-01
-2.224475805532911618e-02 -1.010494732187303679e-01 4.592311204999794394e-01
-5.280315188041336677e-02 -9.521264745438125232e-02 4.244247605071432283e-01
-8.049424258578867508e-02 -8.795525903500028830e-02 4.317083689231753785e-01
9.913556256679124587e-03 -1.261632334156473356e-01 5.163407875646554013e-01
-2.684795821017383483e-02 -3.774793087068346875e-02 4.379920926235645329e-01
-3.579321939840166000e-02 -9.941633198196746235e-02 4.547988429117826303e-01
4.718533638394393354e-03 -1.219277257108660750e-01 4.940068816489881498e-01
6.744499986027912251e-03 -1.266422690432239540e-01 5.162932553613045483e-01
-5.816321307897468623e-02 -1.134069750559770079e-01 5.208854392785451370e-01
-4.262463830760666178e-02 -1.004969983669281586e-01 4.517787949941454717e-01
-6.285649567930121084e-02 -1.106262105977490473e-01 4.729272631584214293e-01
-3.810033997583689436e-02 -1.066366054195240776e-01 4.655717821876193541e-01
-6.030776141322178457e-02 -1.135014673015141556e-01 5.167028381329670239e-01
-7.907981808810968238e-02 -9.560632099450426524e-02 4.297347628420052357e-01
-9.876878190592518203e-02 -9.951416366683939196e-02 4.570352249791339583e-01
-7.089254168159654645e-02 -1.121851453216901467e-01 4.976704768902694420e-01
-4.155680992862028494e-02 -4.093054869666772760e-02 4.341782850084937029e-01
-2.524494436458172425e-02 -8.945098655260022569e-02 4.464070055697942907e-01
-6.768025933244203873e-02 -7.812021370872081205e-02 4.260422830458040488e-01
-3.000917054026414413e-02 -5.305801052516765509e-02 4.362730432328512653e-01
-9.892921193281493941e-02 -1.050318445095392433e-01 5.056205046751952592e-01
3.040453437373637560e-03 -1.265089322174796638e-01 5.144279532598086124e-01
-3.229302652996741962e-02 -1.154922393669035180e-01 4.892003739736998646e-01
-5.686233704373244019e-02 -1.144453889617428749e-01 5.104196642928837679e-01
-1.922221924533146914e-02 -4.056804242699393187e-02 4.384388345918856511e-01
-5.749571169988744457e-02 -1.060984686370915198e-01 4.556566809502839432e-01
-1.835091512048490914e-02 -1.214108007200292716e-01 5.311045739444069103e-01
-7.754311641501780705e-02 -9.959154719870288996e-02 4.325210099530545915e-01
-2.426238447345322249e-02 -1.158907433795692277e-01 4.872229859239893268e-01
-9.820188166417401221e-03 -5.562865612896715495e-02 4.378998018534481229e-01
-7.899281925558448991e-02 -1.110350404744465669e-01 4.993950482532654167e-01
-8.060837081079040567e-02 -1.079869051988581047e-01 4.636217177547831136e-01
-1.538390074809054854e-02 -1.233112901172558895e-01 5.157142773743894626e-01
-8.871671330418934298e-02 -8.582350599005726666e-02 4.463680470620164376e-01
-7.637630293842151419e-02 -9.383827482307911805e-02 4.242721236122453110e-01
-2.366369657165411783e-02 -1.199023423609903577e-01 5.305533743368943123e-01
-1.656202354969321666e-02 -1.226367892617003102e-01 5.094409580391819903e-01
-2.754897192245753246e-02 -1.198172942571368721e-01 5.093288964754689729e-01
-1.659213358702096505e-02 -1.211617832697780284e-01 5.366938834947286852e-01
-1.294693790581425558e-02 -6.832645550480496988e-02 4.400746907240566386e-01
-2.393180801830240012e-02 -1.203322739747551134e-01 5.044186826650164379e-01
-1.400088120794501165e-02 -1.053282863887363974e-01 4.620717057683587647e-01
-2.390659374667587073e-02 -6.546411817333151750e-02 4.376237337485274770e-01
-8.894971372156759704e-02 -1.096184551915928285e-01 4.825926632684113815e-01
-9.187836925565411039e-02 -1.071069158849688868e-01 4.667021909833592441e-01
-2.756419985121090488e-02 -1.190923386333776757e-01 5.011459257277617318e-01
-2.528049037009475267e-02 -1.068435438439371415e-01 4.674522544486705011e-01
-5.231215495458298170e-02 -1.150664117365089584e-01 5.068594343997550045e-01
-6.453630708418328643e-02 -1.132167667907156422e-01 5.036663507246728066e-01
-2.597331511935086629e-02 -5.511229160637225177e-02 4.369166933119599250e-01
-3.318767892398456071e-02 -1.042032175269895361e-01 4.629740087323375164e-01
-4.011688508020014310e-02 -9.336282752027699749e-02 4.446618185494340403e-01
-7.263272512973507899e-02 -9.427828864646875529e-02 4.213491900199180518e-01
-4.876356784883185275e-02 -9.106457408078130755e-02 4.288593016333271390e-01
-6.481146918469721241e-02 -9.096302022452978919e-02 4.193875795690029662e-01
-4.863366610258589018e-02 -1.142292488782224308e-01 4.907439132444169072e-01
-1.426439263249176456e-02 -1.235298579532774221e-01 5.132866824532097416e-01
-7.450135979271092779e-02 -1.072465779715711942e-01 5.255441017867727993e-01
-7.058267114276647880e-02 -1.108740369580871465e-01 5.180839526183674826e-01
-4.081925476208853043e-02 -3.930990549954516827e-02 4.343518651983610535e-01
-1.216611677833239098e-02 -1.193039356287767805e-01 4.877188665228367470e-01
-7.385286935584133017e-02 -9.766909248741380278e-02 4.248401252611004875e-01
-2.637111180008899422e-02 -5.066697153778763202e-02 4.374315615742812025e-01
-2.806282762373998527e-02 -4.881289693200359381e-02 4.373837559058496027e-01
-8.309092735845209632e-02 -1.028700776349731755e-01 4.473663541592278747e-01
-4.781860472892879993e-02 -1.107689589260714425e-01 4.752405642553649279e-01
-6.058370329838707463e-02 -1.030120248397518312e-01 4.379692150356136460e-01
-9.665874546253670763e-02 -8.965103807455129803e-02 4.552619453601778887e-01
1.088765101737114091e-02 -1.266554864556562188e-01 5.287289657135116894e-01
-6.146062221355960697e-02 -1.081903321714569460e-01 4.623362439810211333e-01
-6.056289442545407381e-02 -1.075484694425638543e-01 4.595999406214271166e-01
-4.234702142905771155e-02 -1.165777849625764528e-01 5.039745106683694020e-01
-5.411271610597873094e-02 -1.007247378143558691e-01 4.307064574457106776e-01
5.642530098676947457e-03 -1.236590840294061466e-01 4.999880572586293259e-01
1.142165628855127714e-02 -1.265987047998423654e-01 5.248554603687971554e-01
-3.994599413474755889e-02 -1.155789693390052858e-01 4.931969811303193452e-01
-8.354609775750895806e-02 -1.078848636318259363e-01 5.132475937336917760e-01
-4.101283345332836644e-02 -9.928354564655669789e-02 4.510310253654680190e-01
-3.375262182564323782e-02 -3.538980365704408326e-02 4.361084800511216830e-01
-3.128410348408301039e-02 -1.036002160197250499e-01 4.624768474736178359e-01
-7.580280434771272113e-02 -1.110805641041221897e-01 5.079153033138503748e-01
-9.301672976269986792e-02 -9.026626611564773917e-02 4.494757282518361818e-01
-5.461197985869284399e-02 -4.096458563084461740e-02 4.400126244653345120e-01
-2.507873639092543516e-02 -1.184306892407187423e-01 5.381288598845520577e-01
-6.996503266374534680e-02 -1.031890269526030690e-01 4.370073933124696275e-01
1.368576265274273722e-03 -1.265697207748569253e-01 5.152679663659142095e-01
3.527609914756557954e-03 -1.243045400529318029e-01 5.015046384390308143e-01
-3.759864565300316541e-02 -9.818679020067155871e-02 4.516166042724693575e-01
-5.772763715935413931e-02 -1.068502416159506502e-01 4.578909783089568086e-01
-4.853916673666407167e-02 -1.157485459389241134e-01 5.150400061043373112e-01
-6.855513088770208430e-02 -1.124843408037881493e-01 4.977089598064994291e-01
-2.013597142432634393e-02 -1.182992261611469642e-01 4.914672950027303422e-01
-5.384808678384187669e-02 -6.182350153929112857e-02 4.288620853310068370e-01
-5.183029915817083388e-02 -9.178096217895576059e-02 4.250021190379973945e-01
-4.663780128614838927e-02 -7.535167013516963497e-02 4.288400579086708575e-01
2.121944510937251449e-03 -1.090917365249535614e-01 4.670496618896019525e-01
-6.726950706238625510e-02 -1.117468300098730383e-01 4.855148518419477033e-01
-5.404368958118870719e-02 -1.089319540077569037e-01 4.657069408713209735e-01
-5.710865573935924866e-02 -1.014802780471119464e-01 4.379609464278527708e-01
-5.385906707876480376e-02 -2.859790008516842341e-02 4.435885529396940696e-01
-7.083552534229166364e-02 -1.082449807023518340e-01 4.629992425227816844e-01
-9.176807856526530624e-03 -6.671795451039073954e-02 4.400565539979075513e-01
-4.030416049054022509e-02 -1.163887951603166937e-01 4.984899730003288232e-01
-6.820246636045729227e-02 -1.008052440774535319e-01 4.233151975294405234e-01
-5.798184604738400305e-02 -9.416785052758266938e-02 4.207079529797324025e-01
-6.568546563040338071e-02 -1.044759515646257880e-01 4.427366154145930266e-01
-9.983665824701117020e-02 -1.046674647293598243e-01 5.054426435732111145e-01
1.915641842700878308e-03 -1.186188975952463809e-01 4.838055261706316057e-01
-1.189874575311635971e-02 -9.698087753208324557e-02 4.535816538293898081e-01
-1.007072194949213267e-01 -9.116997922101102714e-02 4.596369767458099997e-01
-5.086771275800947012e-02 -1.077413024067742087e-01 4.627880982643067798e-01
-3.037275896680897980e-02 -1.183239041660650998e-01 4.997186294749673130e-01
-7.075444659380009105e-02 -8.516623390852220976e-02 4.214941854511352615e-01
-1.750120527404206566e-02 -1.226837957063787038e-01 5.172969561594655818e-01
-4.521509936372834770e-02 -1.152379003135276248e-01 5.262149588537985423e-01
-3.155953509148835823e-02 -4.984242049547935732e-02 4.362277472854338423e-01
-4.004306855016463024e-02 -4.998516137405683429e-02 4.339645051314385271e-01
-7.857541962556248427e-02 -1.077840347637207263e-01 4.622568016117970524e-01
-8.188081544742253914e-02 -1.021032813579897114e-01 4.449567544170308642e-01
-2.527699683875211240e-02 -1.170240472020448175e-01 4.916144279319606958e-01
-7.959229636343141678e-02 -1.109409592268329331e-01 4.894412206513414354e-01
-1.947947352323526823e-02 -6.759054938458523842e-02 4.389633861117854252e-01
-1.001365233703910285e-01 -1.072571088737496320e-01 4.836037950715691980e-01
-4.795791532961532488e-02 -1.000009284949973237e-01 4.464313555351575036e-01
-3.501791634084097660e-02 -1.030953801166687167e-01 4.606760111307321992e-01
-4.820387915057567502e-02 -8.370851243785236429e-02 4.278377191644389677e-01
-3.443257086923719873e-02 -5.848250463132910471e-02 4.349872543710184281e-01
-4.538387600579790043e-02 -1.162781940943205944e-01 5.135102176474639624e-01
-7.632400394097364760e-02 -1.064728620853935687e-01 5.258144130633842783e-01
-5.223322634792561953e-02 -1.093669041302419709e-01 4.674601404369595481e-01
-5.406917834669274642e-02 -3.257120486616314758e-02 4.424934806602581205e-01
-5.776123806943006533e-02 -8.557653964284060721e-02 4.217183651957698287e-01
-2.526565033566152349e-02 -8.232321727040288473e-02 4.422815241360715799e-01
-4.519261498932317100e-02 -1.025409274469428617e-01 4.537104627018844760e-01
-2.223544946434916590e-04 -9.592322082383693271e-02 4.541061386299418134e-01
-1.966350984048386222e-02 -1.196066032153513259e-01 5.396906692600927924e-01
-3.010122181947012462e-02 -1.044123465233689763e-01 4.640832381920396710e-01
-4.016886628579895147e-02 -3.469908870634418746e-02 4.347268647995135571e-01
-3.508567731146546020e-02 -1.182391340361986093e-01 5.173133175414279528e-01
-3.371141096790921526e-02 -9.983973076598123830e-02 4.561288809108568487e-01
-1.669702076753486544e-02 -9.397185633964399987e-02 4.506788504794780326e-01
-2.517980019245782963e-02 -5.351752397661299621e-02 4.372299408791003872e-01
-8.479783872381288501e-02 -1.058207112809320671e-01 4.570039984534883248e-01
-9.402849903262255893e-02 -9.035635815506087853e-02 4.508865031264053802e-01
-3.833088618520218149e-02 -1.121279301991271182e-01 4.804545068859558676e-01
-1.420765700972311148e-02 -1.230809770182890311e-01 5.259456752713175254e-01
-7.332062639419090200e-02 -1.114087852283458108e-01 4.884872261455864284e-01
-7.080039362623551102e-02 -1.088602048443896159e-01 4.659476162007471500e-01
-6.993520409516837399e-02 -8.689222826935276422e-02 4.199972015842934336e-01
-3.849750203138987970e-02 -1.069729150655809313e-01 4.661034570352146078e-01
-8.975448046076849040e-02 -9.053918958058396194e-02 4.451665998493888887e-01
-4.564328482352265903e-02 -4.023659937355698879e-02 4.344902458078565011e-01
-5.999140099566230289e-02 -1.130914818077075612e-01 4.911579478959810507e-01
-5.419546767900095680e-02 -3.204861089405152547e-02 4.433773567703689911e-01
-5.598191246579926200e-02 -6.494491622651037133e-02 4.276955580162617454e-01
-1.004713679759210859e-01 -1.071864021089593694e-01 4.864440751559396259e-01
-1.358443345009052727e-02 -1.231877299769817413e-01 5.270610214868379773e-01
-4.172566765797321858e-02 -4.510482457395625228e-02 4.339440259408487988e-01
-1.444537650468568496e-02 -1.141016246087886293e-01 4.767956986240575179e-01
-4.490948241941058322e-02 -8.778573035767782418e-02 4.335559321023456092e-01
-1.389050105937821196e-02 -1.235975954541003591e-01 5.187184489140814758e-01
-3.417312395981280532e-02 -1.148988968444272785e-01 4.877729567956176626e-01
-4.539692520872896236e-02 -1.019931694489294022e-01 4.525192939674817505e-01
-5.806630372623094311e-02 -8.486801850977646056e-02 4.218688388425566593e-01
-4.846606064070344694e-02 -8.254792940088108433e-02 4.276138885246105192e-01
-9.713152168493294214e-02 -1.080231685258003366e-01 4.843710072071703010e-01
-6.311041402316348858e-02 -1.117456462486200314e-01 4.823905291141096785e-01
-1.352348709875515927e-02 -1.139458293950791068e-01 4.758863150036279910e-01
-3.275159046582939992e-02 -1.183465414843532931e-01 5.226918665858691915e-01
-5.641619738155446984e-02 -1.141511891072764240e-01 4.975315739111927926e-01
-5.493721182268376108e-02 -4.636080328895438030e-02 4.354955709155274857e-01
-5.440958605984194674e-02 -4.217197897266427437e-02 4.386584999787174199e-01
-6.154164765046017151e-03 -8.416461994562593474e-02 4.463215462006209777e-01
-8.281428224818883355e-02 -9.779756253042408420e-02 4.379609343628453888e-01
-8.896558253395261961e-02 -1.035871166704701307e-01 5.189831855826041451e-01
-4.217661183787661805e-02 -1.166025277979398922e-01 5.038348100351706105e-01
-8.351737146768063724e-02 -9.763827160627365498e-02 4.391132853646279033e-01
-5.161200293876162110e-02 -5.511070469265166166e-02 4.316462255086607192e-01
-1.038012991843567379e-01 -1.057475503332209604e-01 4.958356860175845426e-01
-2.507550408817067755e-02 -9.598999746902672769e-02 4.533551853050822866e-01
-2.058370075267607763e-02 -1.199241710592797439e-01 5.368580560003445301e-01
-3.627265341385148972e-02 -1.151686750228513856e-01 4.896892153392506386e-01
-9.392922402460450113e-03 -9.760269438558942523e-02 4.541515914010239574e-01
-1.949628260206344096e-02 -9.266431045073694750e-02 4.495519914638544945e-01
-2.661080063317374910e-03 -8.564715562035007945e-02 4.476798262666401573e-01
-3.234761992516874823e-02 -9.958700282312180074e-02 4.561305877149846033e-01
-3.558120416382085788e-02 -3.836494605994966028e-02 4.352725203067879245e-01
-5.450286488645113281e-02 -1.033104112041011574e-01 4.482194691894877403e-01
-9.732094785789784097e-02 -1.079278341864640112e-01 4.817602815170036190e-01
-1.002628773744556473e-01 -9.354817571256331121e-02 4.575009044093942823e-01
-1.867757897510542719e-02 -9.405298618626305174e-02 4.509116275316692457e-01
-1.061895086197995886e-01 -9.806984193162739116e-02 4.646055898110020288e-01
-8.984642920687201106e-02 -9.347598486199726331e-02 4.440573984480082337e-01
-7.771611360204661034e-02 -1.105600741179790375e-01 4.784995041445349595e-01
-8.753847028594924362e-02 -1.004160359700943805e-01 4.455337524198164645e-01
-6.944129483329353203e-02 -1.100766933106808176e-01 4.726751042899322575e-01
-3.782734573701908992e-02 -1.167641615266210436e-01 4.982296414534297391e-01
-6.061828967699993409e-02 -1.029003791511429594e-01 4.357712210268209763e-01
-1.094868235269528117e-01 -9.434433268598885203e-02 4.716071268243712256e-01
-5.545865084398890477e-02 -9.253545258006307117e-02 4.219789521150426603e-01
-9.527331693760303366e-02 -1.082040823623997838e-01 4.766012365223897818e-01
-9.725580284408917586e-02 -9.688228912032469109e-02 4.531369647261486167e-01
-5.464960061448721068e-02 -4.400324330677794771e-02 4.381325073439703566e-01
-1.353738941141003141e-02 -1.164359408660882028e-01 4.812255111848078859e-01
-7.060973379439751396e-02 -1.121343937766290794e-01 4.956645935678997694e-01
-6.381392554217603375e-02 -1.036481307295329946e-01 4.375711247086190303e-01
-3.753834214334761388e-02 -1.146664954901330941e-01 4.884542986037402335e-01
-1.972135569462259846e-02 -6.896362631542064803e-02 4.391573989768109421e-01
-3.631248158007623593e-03 -9.194377789658128575e-02 4.507715090157014548e-01
-2.328335199852222745e-02 -5.496166146183611295e-02 4.373150012917382257e-01
-6.107752017400274597e-02 -9.944924695188019081e-02 4.210356333124992689e-01
-5.764862809846109382e-02 -8.386153929184063383e-02 4.221078484435191180e-01
-2.230979088540577249e-02 -5.378574157554358998e-02 4.376119136216787275e-01
-7.136868373140738131e-02 -1.005763674944070568e-01 4.257466050929960000e-01
-5.244415087817353577e-02 -1.150057901589576909e-01 5.057263989148906846e-01
-2.081711649485946600e-02 -1.197610015864892241e-01 4.977751563434480442e-01
-7.951732400783284582e-02 -1.080490625965944140e-01 5.178344587611144467e-01
-1.849018049707767258e-02 -1.222331825620011775e-01 5.206244256268265369e-01
-2.468205271609749327e-02 -1.195504502005026032e-01 5.005248016545190692e-01
-9.211944143221072190e-02 -9.018542277356057790e-02 4.482604252140248158e-01
-1.526724252278015975e-02 -1.176928894915332535e-01 4.852733794053290528e-01
-3.432841344327944993e-02 -6.393683080547007958e-02 4.348704740166422500e-01
-1.689226962669092974e-02 -8.415393342218591144e-02 4.444897794665203516e-01
-4.448323681968362198e-02 -1.157522940351839585e-01 4.960186674367684234e-01
-1.156698281350285532e-02 -1.228502856555550582e-01 5.344770907803025883e-01
-6.682035124976140779e-03 -1.247833129313018208e-01 5.296945285546719173e-01
-9.328044234575647020e-02 -1.088747009887752609e-01 4.836596710109154484e-01
-5.305196988595615309e-02 -9.273121360875045960e-02 4.239568027806803752e-01
-8.693333803084591152e-03 -8.971099259047655983e-02 4.485375609897227500e-01
-4.443913689728287708e-02 -1.156290597571659612e-01 5.249767500336446346e-01
-3.058373416333808048e-02 -4.445523011535606334e-02 4.368795446529453175e-01
-1.809447559039025974e-02 -1.218822351085997596e-01 5.266986685494839948e-01
-2.146837748052568898e-02 -1.072244737759781574e-01 4.669704407986703942e-01
-4.849427692351430952e-02 -8.980753535141509925e-02 4.287792705231099899e-01
-1.018485013279221280e-01 -1.061824440954408644e-01 4.978300883035448599e-01
-5.791815906309322887e-02 -1.031369963507179632e-01 4.303749994419780456e-01
-4.823836256866325528e-02 -1.078653006364268530e-01 4.636412192747489946e-01
-2.341608997833200326e-02 -6.063612509670841116e-02 4.373062187093373909e-01
-6.459395811076303062e-02 -1.126686337176498187e-01 4.924138808622145480e-01
-2.362035338169555729e-02 -1.037428171257526871e-01 4.628002474648380549e-01
-1.930878328619224996e-02 -1.210178910372123884e-01 5.320574271771794095e-01
-4.900068261602384678e-02 -1.124865810038963576e-01 4.826487030407193846e-01
1.094863268191209604e-02 -1.265660065932198153e-01 5.242310216320638094e-01
-9.795025208475531542e-02 -1.073991405456426323e-01 4.975202540705068732e-01
-5.389775139005349019e-02 -9.984545167444935920e-02 4.390475215275930765e-01
-4.320671626439559487e-02 -5.194894572405604760e-02 4.333205754961313994e-01
-1.612923867345932710e-02 -1.220775031195254073e-01 5.041763759875607098e-01
-1.039987613977522568e-01 -9.695503408493004460e-02 4.598863461433488342e-01
-3.659476975301483720e-02 -4.310590891220202059e-02 4.348305265199344793e-01
-5.802584448751954560e-02 -5.655702569711673622e-02 4.331479269480293381e-01
-1.003711203061161544e-01 -1.043217178840654680e-01 5.056771419666228340e-01
-3.082038536634494705e-03 -1.079314652804974767e-01 4.651602083492438755e-01
-8.047192904274197076e-04 -1.157179882299085999e-01 4.768271876471623649e-01
-1.690925041410541729e-02 -7.162638300780480027e-02 4.401683967866653613e-01
-5.166824304095943288e-04 -1.241448559881674352e-01 5.005582632281919686e-01
-2.354039941382730927e-02 -1.144661391427772290e-01 4.829320873779746059e-01
-5.179025512250901020e-02 -1.149544736152490199e-01 5.003607206692746168e-01
-8.007718707282260318e-02 -9.919780636433726817e-02 4.356015213511642559e-01
-4.520071607734951757e-02 -1.152832971642267085e-01 4.940847278077306060e-01
-7.237874368690015714e-02 -1.118437902024343178e-01 4.941799972491723314e-01
-5.340329704197914473e-02 -3.303833413545930603e-02 4.391568133550862174e-01
-2.841585582186905226e-02 -1.189482092674494507e-01 5.278365858523871301e-01
-5.185461804316937595e-02 -1.149594012078572619e-01 5.009826110162088897e-01
-9.031593066661854075e-02 -1.059767436246149136e-01 4.611937951960674575e-01
-6.219655410187879471e-03 -1.184610718233900239e-01 4.827419781197112014e-01
-9.138886985881192193e-02 -8.501021898486435524e-02 4.519668201003785302e-01
-2.536577806162208445e-02 -1.132132303355088826e-01 4.796761095373757722e-01
-2.765057135471218897e-02 -3.505634936893339826e-02 4.378068570530241899e-01
-9.429601402363425866e-02 -1.087166671447740013e-01 4.846635848403735292e-01
-2.386382519392915222e-02 -1.153441469461073954e-01 4.853080165983968963e-01
-4.944896464857553159e-02 -9.242843300630806946e-02 4.282069023610499681e-01
-4.050444497090203988e-02 -9.142177750512885115e-02 4.428052978890812952e-01
-6.175015343771972538e-03 -9.960660745470212296e-02 4.564727221874636531e-01
-8.210966849124962108e-02 -8.878857879011602117e-02 4.341596527436185626e-01
-1.462442229389016718e-02 -1.184383955929674964e-01 4.864834815648839128e-01
-4.583409526736076378e-02 -1.112071607608501461e-01 4.778477785539357314e-01
-4.011802943302578833e-02 -9.140665129944085254e-02 4.429898623803466551e-01
-8.528592239728348401e-02 -1.090063611080014788e-01 4.699882575245979410e-01
-5.377206108991688244e-02 -3.257568248089716401e-02 4.410630003199041971e-01
-5.362791086713045163e-03 -1.049233638116533057e-01 4.617936445071827434e-01
-5.277604403590856891e-02 -4.830733573113075996e-02 4.342459166669076498e-01
-4.261286673989606727e-02 -3.920703397155419351e-02 4.344343938200972421e-01
-6.259077642784345585e-02 -6.924957591331708240e-02 4.273422538952457161e-01
-4.001068447111297277e-02 -3.735198879935744398e-02 4.345476980891698204e-01
-3.739693879506716945e-02 -1.083098317428937141e-01 4.698438615408261354e-01
-5.260867205962728443e-02 -5.832722475858430344e-02 4.304187591957862602e-01
-4.469730460590806004e-02 -1.163941199657977932e-01 5.127548231383429744e-01
-5.355045179490004748e-02 -8.116804957789926223e-02 4.238639090188000558e-01
-9.467616602939447901e-02 -8.833655520427929897e-02 4.537479954020469108e-01
-8.093162269941552023e-02 -1.096485641700790242e-01 5.084512800957530221e-01
-1.444829587535019152e-02 -9.962497983964291315e-02 4.558568694735382065e-01
-5.883533313406714288e-02 -1.132904928094262686e-01 4.918779125148327047e-01
-4.323709442396751063e-02 -7.179526432470904884e-02 4.311069651757067356e-01
-4.044934604350874235e-02 -1.166753063957349790e-01 5.008168271709736441e-01
-6.732398679224634030e-02 -1.125870162068590558e-01 5.115927510221003338e-01
-2.709935824953616304e-02 -1.186562292917813788e-01 5.339800493561481787e-01
-2.911019606249510422e-02 -7.216610078675433915e-02 4.372864038142664223e-01
-1.079800666987009751e-02 -8.726963814840855982e-02 4.468142313148315559e-01
-8.400509426260625856e-02 -9.935382877564451209e-02 4.411398697670017022e-01
-7.583477806187578774e-02 -1.114909387881909547e-01 4.949267138903154506e-01
-5.341218696555409540e-02 -2.596929926937243879e-02 4.422495639432471592e-01
-4.307553952798669206e-02 -1.164437030234145853e-01 5.198165219696176953e-01
-3.304841724094892408e-02 -1.177367480441728620e-01 5.286903838896004348e-01
-4.244953406777633373e-04 -1.263550435875430145e-01 5.269638446671174314e-01
-1.514488902583121729e-02 -1.227237564721920110e-01 5.271897246990807639e-01
-3.129864772077057405e-02 -8.272069461348971475e-02 4.407945297358409897e-01
-1.880656427507245224e-02 -7.036944144321193029e-02 4.396017454098108401e-01
-3.177813304090858215e-02 -8.045044760069339218e-02 4.393921606315851491e-01
-5.106965708502760742e-02 -8.826330168379735441e-02 4.256777458447711937e-01
-1.965528259493579816e-02 -1.221350923076314349e-01 5.145743905303642451e-01
-5.269104227688102549e-02 -7.826101952598864264e-02 4.247843450348924299e-01
-4.727599916788337991e-02 -1.003665543736003279e-01 4.481496487893053549e-01
-1.654072554079914423e-02 -1.093776015040067856e-01 4.688526959615094136e-01
-4.836910119912755240e-02 -1.017984381010612338e-01 4.499752457846609155e-01
-7.007824065264368907e-02 -8.917649905635854912e-02 4.188152532485677204e-01
-5.226119811122000025e-02 -1.005680174446043768e-01 4.435953456643828563e-01
-1.583836036828138727e-02 -9.700491405951434942e-02 4.536737588368857099e-01
-1.056935504555688021e-01 -1.010290466362841338e-01 4.660031112920399177e-01
-9.266914216974082852e-02 -1.079516072506230689e-01 4.707514871978623616e-01
-7.064056893308474916e-02 -1.094597821575390012e-01 5.233286339991058966e-01
-1.736906135285305394e-02 -1.189088584516534292e-01 4.902893263110912891e-01
-9.122596017694425963e-02 -9.777088483606607983e-02 4.475324358582489781e-01
-3.601677118241781994e-02 -1.180381140289573222e-01 5.180411565850622235e-01
-6.369087727470001958e-02 -1.110036310482410138e-01 4.753550653211972010e-01
-6.906994694594371931e-02 -1.043558446285492713e-01 4.444198933745305835e-01
-5.170021711002754233e-02 -9.918082152391481665e-02 4.419118418982857510e-01
-1.009915520077170614e-01 -1.048848241849318491e-01 4.674952451617960247e-01
-8.209688166043728474e-02 -1.083766275036026627e-01 4.655786461065111181e-01
-6.599908464994388990e-02 -1.042677171109153839e-01 4.410793495589251934e-01
-5.150131155769625824e-02 -9.885026035562542723e-02 4.392292176297750705e-01
-3.622411162033244321e-03 -1.167939947191047045e-01 4.786576431392352005e-01
8.707064773543091163e-03 -1.265287452758681874e-01 5.315038579729106649e-01
-3.678848736030726138e-03 -1.252954095652721034e-01 5.082400344814361759e-01
-4.741064411577036036e-02 -1.158097796344726149e-01 5.053630559484405538e-01
-4.658166860827543665e-02 -9.100224409269049020e-02 4.338215042697174395e-01
-4.098711673539300049e-02 -1.111293887373727973e-01 4.778513396217274334e-01
-3.169536345371094799e-02 -1.179309721744517675e-01 5.300781288448446205e-01
-1.431802837648210071e-02 -1.228574444266703203e-01 5.064444264475226332e-01
-4.655899984599383423e-02 -9.696699547952183917e-02 4.433206246191854771e-01
-7.927423233307148709e-02 -1.093336701211953255e-01 4.699256796359619348e-01
-5.492335682519895040e-02 -1.019796589511338114e-01 4.309132784043761544e-01
-7.146925856674493649e-02 -1.036792069975091546e-01 4.408851230678754174e-01
-5.222261612296769107e-02 -2.650815257361999189e-02 4.387203281452088377e-01
-2.415196499783863610e-02 -6.479058058333356240e-02 4.375181886996450387e-01
-7.292414596374700853e-02 -9.840711742715012311e-02 4.248601327064802646e-01
-1.232204563859583095e-02 -9.593570350849835171e-02 4.526728260905585888e-01
-7.715763956123386502e-02 -1.006902228157315060e-01 4.337930509515884325e-01
-9.241179919771669304e-02 -8.311153377410097909e-02 4.556471273234767305e-01
-1.105318584906169604e-01 -1.016716411260550207e-01 4.980833187611654056e-01
-5.059231283230845866e-02 -1.139986865116430353e-01 4.902131435553161443e-01
-3.467852158214231734e-02 -7.419239733196972275e-02 4.355500672626569925e-01
-3.583953798924598144e-02 -4.583439974125320254e-02 4.349353067622695468e-01
-9.284463344393811823e-02 -1.030991365109237418e-01 4.554584375803066854e-01
-5.088904933623521198e-02 -1.103683168269628673e-01 4.723263570330234473e-01
-9.669506888814922985e-02 -8.795532864162174114e-02 4.569991853392386671e-01
-1.804275787361396891e-02 -1.130189701060334700e-01 4.766778494415454537e-01
-5.144974660768985436e-02 -1.146896083279806133e-01 5.211753114921254815e-01
-3.350800090204367199e-02 -4.107546006246951681e-02 4.359742660590116836e-01
-3.610615178444451928e-02 -8.113402096473354419e-02 4.380053962333714246e-01
-2.807142386512884169e-02 -1.075478272516276340e-01 4.691851905450227789e-01
-1.093321378879091171e-01 -9.637863804374507959e-02 4.710765878547903407e-01
-6.763500863232878302e-02 -1.088544428064880526e-01 4.658553131582407469e-01
-1.449219005609712028e-02 -1.224924171517747795e-01 5.040486964317323348e-01
-4.268092833762029276e-02 -1.025104501199144980e-01 4.553495477659136315e-01
-1.036745557442145804e-01 -9.650113916368288636e-02 4.598090802105646024e-01
-3.446187776787826978e-02 -4.329751527634270736e-02 4.355716291629258552e-01
-8.424760762881794082e-03 -9.105639162172379786e-02 4.493247683732345399e-01
-2.418853511799310893e-02 -9.114577425858158555e-02 4.482462014989761490e-01
-4.875749404116901109e-02 -9.746797359803445471e-02 4.419305897859512888e-01
-7.089191124243547637e-02 -1.112301893347421855e-01 4.826023300358985302e-01
-8.458511703390750314e-03 -5.914589131415266127e-02 4.382685974331975154e-01
-5.600911665939101690e-03 -1.190790619392517319e-01 4.844519184684283886e-01
-1.304547040874501525e-02 -1.227128840466984033e-01 5.330979209725312806e-01
-8.107257811207703446e-02 -1.104944516787979697e-01 5.004494601182045699e-01
-5.368811022946307770e-02 -1.144215751195013370e-01 4.968610090376186506e-01
-4.701601828891915913e-02 -1.103361990657928393e-01 4.737395432352571323e-01
-1.092184721181145013e-01 -1.026165744405245078e-01 4.989779157119422215e-01
-2.601750868885681009e-02 -1.158642956281066699e-01 4.881312254946469364e-01
-2.088813948589577849e-02 -1.042244608525307453e-01 4.625582934786315881e-01
-9.306367631131469420e-02 -1.085575704104196626e-01 4.754131640622465405e-01
-1.312378183129228430e-02 -7.241764679377793446e-02 4.409233128134722457e-01
-4.969069888351831249e-02 -9.672501447371446848e-02 4.369392198496098167e-01
1.031588622475700708e-03 -1.235953752372308534e-01 4.984971938317026008e-01
-7.362319870712670522e-02 -1.116516437225062580e-01 5.058958192710345525e-01
-4.597674817644548106e-02 -3.902271967196236507e-02 4.346546880688726966e-01
-3.713564820672900658e-03 -1.037747327102203770e-01 4.607851146373380113e-01
-2.463802141473163398e-02 -1.196122603929051786e-01 5.008451708270652558e-01
