-3.020273205946067893e-02 -1.162844022215309275e-01 4.906500538051066229e-01
-1.574006764636382699e-02 -6.577498951542501415e-02 4.391532785795968508e-01
-9.842866342655065548e-02 -1.072490953699207356e-01 4.725073802233765718e-01
-5.418070910129249573e-02 -1.011425066727390104e-01 4.372129836869571018e-01
-3.722940886249213183e-02 -6.694707626132638534e-02 4.336464214995983113e-01
-7.265188282144816045e-02 -1.101439325731698310e-01 4.712303415067574108e-01
-8.768043935100097719e-02 -1.093320744064376904e-01 4.706510822207743971e-01
-3.923767955352680525e-02 -2.815383985008144269e-02 4.358198737502245179e-01
-5.554431048026605561e-04 -1.225089245398420235e-01 4.949689709833007822e-01
-5.471987248471421594e-02 -4.362912166192323832e-02 4.389471941756605822e-01
-1.080393004262050899e-01 -9.431199732165061744e-02 4.682575306966375583e-01
-5.036486400760621651e-02 -8.699157326104098309e-02 4.259178925221953627e-01
-5.545891807197687179e-02 -1.053467654652605195e-01 4.512615755396136574e-01
-7.863327289087514160e-02 -1.108941292083303470e-01 5.056763057194025857e-01
2.512032333289097689e-03 -1.261918357714441330e-01 5.310554768588910957e-01
-5.304919830355322996e-02 -1.015762486109076518e-01 4.434010533400322140e-01
-4.356447913815277712e-02 -1.163074985321963656e-01 5.219642500362497994e-01
-3.603817737822989642e-02 -6.829107737019113333e-02 4.341066273945445309e-01
7.494179851907784885e-03 -1.259860491991236231e-01 5.346636958501025383e-01
-2.242303971118924169e-02 -1.178429732115010287e-01 4.919361623627652169e-01
-6.756882656739647552e-02 -9.699231647283917956e-02 4.196985080063588280e-01
-1.105268617580172294e-02 -1.087703654541395254e-01 4.659975405870432907e-01
-1.408248888083492127e-02 -1.172455230060013565e-01 4.833396220939790155e-01
-2.597066963164469319e-02 -1.023210661795259518e-01 4.610751588443329774e-01
-3.149272891731461771e-02 -4.337287738276313781e-02 4.365870821171974336e-01
-1.044699564285392207e-01 -9.587169011974651378e-02 4.617987603661300455e-01
-6.990582108613577206e-02 -8.673903392098014642e-02 4.204091313976417998e-01
-7.133651883313353592e-02 -1.124984255413514628e-01 5.007582963175706281e-01
-3.540832749416780723e-02 -1.175786013997934532e-01 5.261532639402509703e-01
-9.140126947178461858e-02 -1.058007514225270396e-01 4.598855292417870499e-01
-4.805725552671472056e-02 -1.158991560514807811e-01 5.056110310751205095e-01
-2.209978329930826352e-02 -1.213155473573665072e-01 5.113292410247340936e-01
-8.501292481616440355e-02 -1.089532072483652692e-01 5.075981377469258593e-01
-8.327335638590047107e-02 -9.325667789813199549e-02 4.348371024206473812e-01
-8.217322564638900040e-02 -1.110495200716634934e-01 4.833688106620759317e-01
-5.947974374517640828e-02 -1.096329968417812106e-01 4.666219922388553654e-01
-1.048123440585356225e-01 -1.050116217169525246e-01 4.992732622541413146e-01
-1.460339666012226353e-02 -1.167913890548895328e-01 4.826989392780660637e-01
-1.186759449289128722e-02 -9.089953891037740041e-02 4.485691578085664322e-01
-8.912005325816529933e-02 -1.084157677639472073e-01 4.674696959449262668e-01
-1.028584796240947508e-01 -8.727091491636097820e-02 4.683671289876730204e-01
-4.472331099667819360e-02 -5.525401404266661737e-02 4.324797068187944404e-01
-9.707197595060106099e-02 -1.025922234639002617e-01 4.572643554778118014e-01
-1.143941090220630848e-02 -1.041451345676452506e-01 4.603711873925952491e-01
-7.690820126528388756e-02 -1.026450078124365867e-01 4.377219137355598533e-01
-5.548561700214735964e-02 -5.912712994833839442e-02 4.299891928698190147e-01
-5.504581279130238425e-02 -1.090418600993081494e-01 4.646037820625096293e-01
-3.325858859127430595e-02 -3.918516456985933483e-02 4.361003421326007379e-01
-9.645743791268580891e-02 -1.076391142356947633e-01 5.010668582778577962e-01
-3.433373007432263119e-02 -3.602321255600359623e-02 4.358356327322162604e-01
4.496072231112427202e-03 -1.254928521305952172e-01 5.074267145651121247e-01
-1.812501097304682757e-02 -1.020223608799432635e-01 4.592044770554388755e-01
-3.659963507119836507e-02 -1.106873864548637704e-01 4.748093364848050557e-01
-7.319972865672784434e-02 -1.037167884264554585e-01 4.388805732631509970e-01
-3.205407009849831068e-02 -6.490530587530400630e-02 4.357425212750002941e-01
-5.474116860319975381e-02 -5.511241366826916122e-02 4.316899175859673088e-01
-3.895047474249944963e-02 -1.142907564097423029e-01 5.406275602339364328e-01
-6.889857507692889738e-02 -1.123886234622387265e-01 4.907225034454512080e-01
-2.339290126102211084e-02 -1.208181328195440385e-01 5.078352083290577079e-01
-5.054714993386146861e-03 -1.232471165475474140e-01 5.366876869523098392e-01
-9.537783084215584184e-02 -1.089009364027519466e-01 4.876494260509819934e-01
-9.090452401670928717e-02 -1.094960664775881110e-01 4.960025367979986610e-01
-8.665944707773927391e-02 -1.104135492150944281e-01 4.814697186808804541e-01
-5.873076308720518585e-02 -1.037739708124422455e-01 4.329272778379636422e-01
-1.107765410953680252e-01 -1.011712059671517339e-01 4.835419820515090006e-01
-7.590619974745349378e-03 -1.252486871509059796e-01 5.148865179488617549e-01
-8.181002108734311551e-02 -1.110093286240654981e-01 4.951902982521702024e-01
-1.895063047596956540e-02 -1.210744110960464415e-01 5.020363972262982255e-01
-2.543768624327977929e-02 -1.203468667986465346e-01 5.081500084247698723e-01
-3.438675420214364065e-02 -5.134866938916351348e-02 4.350763674487453381e-01
-8.932825237233101012e-02 -1.100393498115670859e-01 4.849444108693647393e-01
-1.048465657218961428e-01 -9.051206076540940781e-02 4.674547489112591547e-01
-2.963611568282843722e-02 -1.192967818414129300e-01 5.055312476015716427e-01
-6.477742730916306868e-02 -1.033236070442078713e-01 4.250241222053252055e-01
-1.108496894907184255e-02 -1.203433065600015284e-01 4.902870558243544452e-01
-6.198728031739600408e-02 -1.041483918810887921e-01 4.379781407880570798e-01
4.858546575709202578e-03 -1.268924911420138413e-01 5.179666221322335451e-01
-3.908667340296888976e-02 -1.111473693641158306e-01 4.767289009555296109e-01
-2.440282586996903036e-02 -5.004188651014125633e-02 4.378042977823311532e-01
-7.866432828931273213e-02 -1.026899857872004135e-01 4.401284202347080510e-01
-5.032191341194411360e-03 -1.110291155987851164e-01 4.686611104724023313e-01
-9.218342310371037407e-02 -1.074700532072367931e-01 5.054492231111022971e-01
-1.054553712545110850e-01 -1.061032387896202883e-01 4.846099661738782483e-01
1.457326936565728898e-02 -1.254218883077629909e-01 5.365445064199559910e-01
-4.399410488158997379e-02 -4.201841289294792198e-02 4.342098437082537732e-01
-7.528989156431230637e-03 -7.771687938968964426e-02 4.434948814992502597e-01
1.463141036456051813e-02 -1.255291915293154925e-01 5.360724672701809856e-01
-9.282055902604847974e-02 -1.093102844884699526e-01 4.801319513355028490e-01
-9.622029899900932937e-02 -1.017875736088619115e-01 4.546009293071225366e-01
-2.082801441725386747e-03 -9.465080403071263193e-02 4.528420801824252773e-01
-3.766979281539567515e-02 -1.120751505083412980e-01 4.793276867992289914e-01
-5.320276050599934831e-02 -1.016089283313411917e-01 4.333501166512432334e-01
-7.690062355139337669e-02 -1.115896549811291605e-01 5.015439416306717302e-01
-5.350364159585035972e-02 -3.647463470266557733e-02 4.384969422561613150e-01
-2.511214407546599400e-02 -1.139764353560112214e-01 4.812281444774710315e-01
-1.497162578902221791e-02 -1.229776142372570602e-01 5.244806975968397955e-01
-3.277059322807940323e-02 -1.028096042768700674e-01 4.603350957525115805e-01
-8.793262653699115972e-02 -1.033805494786004947e-01 4.505142519842026960e-01
-2.253715324027641409e-02 -1.212481544418594487e-01 5.120755842608548658e-01
-5.332749056503628682e-02 -1.012544067611548804e-01 4.319268398927259556e-01
-5.055140002051799336e-02 -1.155284847926299208e-01 5.066330231437271570e-01
-4.580042745560392731e-02 -1.163556565558989675e-01 5.154290681225489612e-01
-8.997572183937856127e-02 -8.756400184143632581e-02 4.473861455356657468e-01
-1.445159921118166144e-02 -1.007552563425303110e-01 4.568989514007826269e-01
-4.458225502117790090e-02 -1.114116945436207651e-01 4.776069666782866152e-01
-3.627944625263031242e-02 -1.177037052764342423e-01 5.229583355941709311e-01
-3.050899356657379644e-02 -6.712748193020223741e-02 4.362294895640630998e-01
-3.214144794211330064e-02 -1.184693026424126910e-01 5.237298698903826155e-01
-5.109985115065431710e-02 -9.757275373051355061e-02 4.298252520489299067e-01
-5.636606033739563482e-02 -1.082544316346414764e-01 4.615811045082015562e-01
-3.608804536973982818e-02 -1.036032613219473320e-01 4.606309533346506502e-01
-8.806824856318751227e-02 -1.090152266725118863e-01 5.034115816625384099e-01
-5.870681200497944452e-02 -6.208295047600515676e-02 4.310987804903917420e-01
-8.182381341316166679e-02 -1.054518586616696174e-01 4.528174436889532140e-01
-3.633864005137411868e-02 -5.239060274734332751e-02 4.344738286886243306e-01
-8.609334995855104367e-02 -1.100734009948008268e-01 4.757039937445374789e-01
-8.628134520489338932e-02 -1.067608748792475831e-01 4.590817192924562251e-01
-5.815823060185620896e-02 -7.206622706348903007e-02 4.251294068507336377e-01
-2.992099187236451144e-02 -1.162354660018603686e-01 5.419478657329679372e-01
-6.716931242897086762e-02 -1.114475557806882400e-01 4.781979867368864601e-01
-4.232354791928719107e-02 -9.905240943615727101e-02 4.488908088270991414e-01
-3.716411669292887104e-02 -1.164924147261039988e-01 5.319858198205258404e-01
-5.553761622718027258e-02 -7.602303032948729000e-02 4.240516427520573117e-01
-3.717433093323579789e-03 -1.244995918749512848e-01 5.334665489731751364e-01
-4.578364593581501357e-02 -7.589698367793143441e-02 4.292475096886443353e-01
-4.459403285190761956e-02 -1.112607208053757873e-01 4.769434173813612565e-01
3.149221920582152834e-03 -1.210689501129467438e-01 4.905091731866786930e-01
-7.830670337352182986e-02 -9.813270131822514342e-02 4.297574286369202357e-01
-1.588617038925655561e-02 -4.609921937975982459e-02 4.381532072961090152e-01
-3.374343810907612373e-02 -1.122708318345017470e-01 4.786088624460226870e-01
-8.305660608758319574e-02 -9.977483943564538493e-02 4.397775641827157966e-01
-6.632992279128659130e-02 -1.131712868055250593e-01 5.074255564264353868e-01
-1.246038067011865508e-02 -1.181336402764491950e-01 4.842893920786992545e-01
-4.409280406358140336e-02 -3.894619545399727323e-02 4.345714328554359240e-01
-8.706200757638399290e-02 -1.093436202705614230e-01 5.022962512578074135e-01
-5.933708384709134032e-02 -1.129890948839826353e-01 4.866790571583817782e-01
-4.011289862640016884e-02 -1.103212285156807970e-01 4.741828976637363913e-01
-4.148632923505155695e-02 -1.168131051426995748e-01 5.021446631056998289e-01
-3.983727398860917313e-02 -1.118070178388796548e-01 4.789845682906713753e-01
-6.929252804926612497e-02 -1.087579297822221097e-01 4.630232133759928925e-01
-3.696084493674055282e-02 -1.180082596169858417e-01 5.137074646031397629e-01
-3.530408640234561357e-02 -1.183358017614604407e-01 5.095309747766729735e-01
-7.076069019098137070e-02 -1.116116038753560830e-01 5.149112787396444846e-01
-9.906037826652955292e-02 -1.067830039458642355e-01 4.712420371866553603e-01
-5.683046828791170346e-02 -6.179488629704840696e-02 4.298306428604564688e-01
-6.420003223233578839e-03 -1.227961060254622455e-01 4.967212487010204680e-01
-2.379417599500378844e-02 -1.121379858214432979e-01 4.769561170111007997e-01
-8.559882469752180811e-02 -9.693072016563711313e-02 4.408828744402540356e-01
-6.242093415641266491e-02 -1.138025572636383598e-01 5.111949589925256499e-01
-3.676224398225018397e-02 -9.490189569137570669e-02 4.473460595463528700e-01
-1.034666332101720210e-01 -1.032620811732516686e-01 5.051533033563195829e-01
-6.520210573475336557e-02 -1.036640646214499334e-01 4.287611324184391060e-01
-4.467220766115448383e-02 -5.441622296857571983e-02 4.328248013865943489e-01
-5.355872268308698586e-02 -5.200507262528537844e-02 4.331785617083901974e-01
-1.637990721676498701e-02 -5.674389644196596583e-02 4.380162606549418691e-01
-7.302306872569107321e-02 -1.023904236660473505e-01 4.328558026125123304e-01
-4.121904704474958769e-02 -3.737340919292630320e-02 4.344552299066822831e-01
-6.700367060811161270e-03 -7.638721466461352583e-02 4.431615203902564692e-01
-7.946358977292834053e-03 -1.143420637346640178e-01 4.744890656971628706e-01
-9.209101746439860361e-03 -1.062609956546772677e-01 4.625469696925211815e-01
-4.994145758231970794e-02 -9.542223011180815673e-02 4.281512574089736400e-01
-3.269564354640933784e-02 -1.188271621415400853e-01 5.090885413221190037e-01
-5.229588771830386701e-02 -5.541107314521483140e-02 4.315841112544905878e-01
-7.323816969658968057e-02 -1.118229288006124394e-01 4.891372822468890713e-01
-9.144071115422862384e-02 -1.047244865677455644e-01 4.567189241971441604e-01
-7.417307414871204818e-02 -1.039546530869203816e-01 4.405561823907875318e-01
-2.606293993373195311e-02 -6.041582974489837637e-02 4.367153306539213742e-01
-5.417503181169414789e-02 -1.121815531803184024e-01 5.303035641600017946e-01
-5.993571294628400291e-03 -7.548672276627037270e-02 4.429634427068385727e-01
2.480141965896607431e-04 -1.063821734497071986e-01 4.637667738940216000e-01
-6.546091148698397755e-02 -1.133254449849546847e-01 5.025109848708523286e-01
-1.031361792656699805e-01 -8.837160855517268987e-02 4.672248865981037391e-01
-4.474812918222315083e-02 -1.123585416661793263e-01 4.816071811195786756e-01
-9.896666481927651748e-02 -1.049710151978013317e-01 4.634961123596710308e-01
-5.604171202727879081e-02 -1.136792280310154890e-01 5.224246225722704029e-01
-3.384745683476803740e-02 -1.162029074496115089e-01 4.918706363681623062e-01
-4.127663017712810550e-02 -1.083042803968730927e-01 4.667912542871583970e-01
-2.903805599013956767e-02 -7.947660967446645852e-02 4.396825584595956404e-01
-2.560095690326694845e-02 -1.127721738491940240e-01 4.784412325096080720e-01
-3.997929047639690175e-02 -4.490487912721122243e-02 4.341678391222679179e-01
-7.963972149243779552e-02 -9.612104810788633935e-02 4.306493981413363481e-01
-7.985512815248865803e-02 -1.102066349403923035e-01 5.084356482766684282e-01
5.226554770537271584e-03 -1.235671814127002194e-01 4.992650561230141393e-01
-7.189528655322158235e-02 -1.087467561106501002e-01 5.246599803585423327e-01
-6.242172836846403283e-02 -1.124151225351381067e-01 4.847105774506536569e-01
-5.517801869494912137e-02 -5.461861343656519707e-02 4.320090198073354149e-01
-5.141236974942977461e-03 -1.174810136509566033e-01 4.800513111011741607e-01
-9.679777756997021143e-02 -1.073694101320900318e-01 5.017475265194982770e-01
-1.029786889200800110e-01 -8.710216098584734612e-02 4.688193585582728362e-01
-7.051602931209416392e-02 -9.455415857894582110e-02 4.197961649365495318e-01
-7.504491030244904437e-02 -1.030903869730498551e-01 4.376894656056852240e-01
-1.885564875424937392e-02 -1.197430424240807367e-01 4.949052997637392592e-01
-4.230841336359950078e-02 -1.157988506885817975e-01 5.276476196238077954e-01
-1.037279021926581501e-01 -8.819918642967151945e-02 4.684851457298938038e-01
-4.457757884427088896e-02 -1.074587937178904246e-01 4.633703015013599935e-01
-5.407763365444843984e-02 -1.020877106419182667e-01 4.331038493880350893e-01
-4.917687569249907381e-02 -7.515838967060328724e-02 4.267506435004982390e-01
-2.131658838539813791e-02 -6.039751565047301457e-02 4.376612829855504039e-01
-1.070309691608484076e-01 -1.042091344912350198e-01 4.772892646307734799e-01
-3.951810452599559265e-02 -4.217856230615996821e-02 4.343550044980200586e-01
-1.605524995573182588e-04 -1.146492010041949422e-01 4.749785948948331837e-01
-1.537618228576868862e-02 -1.172021992458217865e-01 4.841713904225994902e-01
-1.092050091507159038e-01 -1.038800869579783737e-01 4.957491344191695126e-01
-8.064916509894083652e-03 -8.652888972776892618e-02 4.468824701441206360e-01
-3.542459721150340024e-02 -1.183294301935832182e-01 5.130578207581784067e-01
4.452616836944676276e-03 -1.261376971763456256e-01 5.109764804651559800e-01
-9.963633766991146501e-02 -9.145254622546479528e-02 4.583832538931764677e-01
-2.139031387921083716e-02 -9.677340733358201497e-02 4.539432301422700600e-01
-3.867994510617878828e-02 -1.003199023955331226e-01 4.535452566546205322e-01
-3.572576690232758152e-03 -1.177722339369021293e-01 4.807458680399704920e-01
-7.741754645762868869e-02 -1.026127714289387233e-01 4.380257734387315582e-01
1.140095695618911428e-02 -1.263956754170725560e-01 5.203591915089842423e-01
-1.991763810786960701e-02 -1.067171697468892733e-01 4.653321143873189736e-01
-5.431168272103981814e-02 -6.987944729255282650e-02 4.256790977368674622e-01
-6.023600012630612316e-02 -6.705034292077577396e-02 4.284540124700744745e-01
-4.019694017020784133e-02 -1.070831502444824362e-01 4.645642392011374300e-01
-5.245255257838254276e-02 -2.894105261263294968e-02 4.386166831612113848e-01
-2.332594637610184429e-02 -1.187168743637433133e-01 4.960271986952061174e-01
-2.377512193890707684e-02 -1.187177229406317369e-01 4.962892357650510178e-01
-8.914920742687468258e-02 -1.089279688622911690e-01 5.021810929125143375e-01
-5.356790288643034983e-03 -1.238783172535906640e-01 5.342129506932919991e-01
-6.746373706234097545e-02 -1.124256710301881901e-01 4.890486258356360194e-01
-5.084350474309714402e-02 -1.082723301094737911e-01 4.630411571942397164e-01
-4.532587928368954008e-03 -1.237522662113643979e-01 5.002353626309890000e-01
-7.344318842824182347e-02 -1.112474657630420083e-01 4.790589976694758501e-01
-8.374999401609772853e-02 -1.101347944635343301e-01 4.735855298881934128e-01
-3.293636053485625437e-02 -1.188061981673272927e-01 5.136298238792704751e-01
-6.320694686461394984e-02 -1.086129087327413062e-01 4.621048182699546980e-01
-7.861510817326403111e-02 -9.907095745498843697e-02 4.322304980322174695e-01
-1.020582294046243430e-04 -1.048714462479984483e-01 4.621265800260690448e-01
-8.559180064115640141e-02 -8.609533890293223635e-02 4.424686872193187015e-01
-2.563898801918194220e-02 -1.195490615011137459e-01 5.291079676033358936e-01
-3.565253459822306792e-02 -6.562463824719357020e-02 4.342752904652748547e-01
-6.927282455717639897e-02 -7.785989983267387060e-02 4.273252472985488160e-01
-9.266077499520476712e-02 -1.080531953035277493e-01 5.029399832766427991e-01
-4.554085740276653943e-02 -1.146772681954368600e-01 4.906572373736127202e-01
2.603402758832101642e-03 -1.128811290880287754e-01 4.724072691748855690e-01
-2.583081715198738346e-02 -1.099816803402531851e-01 4.729322216300926862e-01
-5.839159753658617474e-02 -1.031234463226599202e-01 4.217513881393742947e-01
-4.387873069038219359e-02 -8.826486461712711173e-02 4.348735714521678175e-01
-5.152760061553755128e-02 -6.964913086892428329e-02 4.265675589750361207e-01
-1.867173841126063341e-02 -6.788727569274825846e-02 4.391260780154170873e-01
-4.673264369601818659e-03 -1.258631120750098864e-01 5.192682464202491577e-01
-6.645926049516191758e-02 -1.125500263024903080e-01 4.894611480969277562e-01
-9.789517142314888010e-02 -8.590464012869965249e-02 4.620975220810044082e-01
-4.710514928611025942e-02 -4.085323635538120474e-02 4.344480722256786054e-01
-1.687450744144378817e-02 -8.808312105454643715e-02 4.462228160535600119e-01
-8.563558349783342849e-02 -1.082314096778112522e-01 5.102883467652460370e-01
-7.195230198364502283e-02 -1.112607300775944746e-01 4.787116220287651047e-01
-9.838052760931974283e-02 -9.364365598912738342e-02 4.551755171648569354e-01
-3.236880902574308660e-02 -3.765084827032853104e-02 4.365187399350664577e-01
-3.593665888282059073e-02 -3.747936969745136598e-02 4.351969684049241671e-01
-2.055094995112085113e-02 -1.200330369543558678e-01 4.982572356581441153e-01
-5.873753649312632441e-02 -8.010484728966701939e-02 4.229286383405662098e-01
-2.920177354834530004e-02 -6.847238621464357688e-02 4.366603174514355756e-01
-2.550981107619696570e-02 -7.671414043699692487e-02 4.395040350119117090e-01
-1.769786163452694060e-03 -9.560463104739291840e-02 4.535578452704028818e-01
-1.018079676002144607e-01 -1.071009108771999868e-01 4.809565796693481832e-01
9.056063998451233631e-04 -1.258057821489822758e-01 5.324186836503362885e-01
-5.048284093848418030e-02 -7.710631846892060381e-02 4.258104686605254097e-01
-3.527546525333562222e-02 -1.082630830291244073e-01 4.692930830384783869e-01
-1.718255657888860186e-02 -1.077919121114335049e-01 4.661312398997325412e-01
-9.820925133685196040e-02 -9.400115055016228238e-02 4.547633446334754526e-01
-6.841003956408568676e-02 -1.006420603749374199e-01 4.221754510015655604e-01
-1.014336004563485549e-01 -1.062472960602363625e-01 4.998879512534635805e-01
-4.122706771159414391e-02 -1.169260224762204425e-01 5.199814394048025701e-01
-2.671559694926753381e-02 -1.200634525923720552e-01 5.086129531691998551e-01
-6.628524905683989832e-02 -1.131716453241763121e-01 5.085329685078813222e-01
4.543529446917397331e-03 -1.265793462768638189e-01 5.149460986842533394e-01
-6.357091184102578452e-02 -7.946473995923418465e-02 4.236665251903691809e-01
-5.277632153555051470e-02 -5.543378825061833631e-02 4.315599017808355864e-01
-2.358332100442796578e-02 -9.507282748686114726e-02 4.522109791213121954e-01
-1.042032805641340994e-02 -6.043674003703607828e-02 4.385315953189105609e-01
-2.486883493440510823e-02 -1.079189407658537186e-01 4.689298768929318073e-01
-9.652884171974329686e-02 -9.564288793794796517e-02 4.526882512783960699e-01
-1.004631249667808507e-01 -1.052632476265266681e-01 5.036645793772013269e-01
1.512295708784125231e-03 -1.007045094418956982e-01 4.584550761932269514e-01
-6.508560659715023622e-02 -1.120004225866544079e-01 4.829251502187318357e-01
-5.835894994180423206e-02 -9.850718849759611262e-02 4.204648420303507828e-01
-5.122621288202904022e-02 -1.095397591299073076e-01 4.668004179054377478e-01
-1.594953114163669833e-02 -9.675173109978284225e-02 4.533646823367976086e-01
-9.293761316717430443e-02 -1.093959820330189930e-01 4.848693500813679447e-01
-7.569145383419263740e-02 -1.021625034836689261e-01 4.344885721889648056e-01
-3.688242885608015997e-02 -8.959320366899981014e-02 4.426234711525573462e-01
-5.345019730949292225e-02 -9.086278815884230031e-02 4.233974634071749343e-01
-2.450185995353130336e-02 -1.127709634081903861e-01 4.783170437187400093e-01
-4.992217389682044454e-02 -4.546460336929331741e-02 4.342574086917858067e-01
-4.221125221112466408e-02 -1.016883231883835559e-01 4.532579413072442276e-01
-8.086326284127436093e-02 -9.394588094596467709e-02 4.312561221957885160e-01
-1.812964891601737127e-02 -1.178996516656852511e-01 4.883003413658159042e-01
-1.545272786863874717e-02 -1.182568655236796717e-01 4.866112922716459011e-01
-1.536286328272756622e-02 -1.190721746352100124e-01 4.886024317422217322e-01
-8.611564093576422330e-02 -1.050386101934420446e-01 5.192655546600328798e-01
-8.906470564363028197e-02 -1.098083597971012265e-01 4.773283206603692874e-01
-7.814374020137232826e-03 -9.426031008275866097e-02 4.515532736681424630e-01
-3.042333295396645529e-02 -3.782617073601593494e-02 4.371064741843301293e-01
-6.232499410342316748e-02 -1.138063221622725996e-01 5.057765553770038336e-01
-7.529710430605303373e-02 -1.109120284594291156e-01 4.766585575707216749e-01
-1.915143774593667039e-02 -1.213987696562295743e-01 5.042229866799292637e-01
-5.812502325720575458e-02 -1.100431543993538874e-01 4.678671251347747972e-01
-5.616493952127656758e-02 -1.029117135620069290e-01 4.217967459620257098e-01
-1.074049150235968295e-02 -9.008684053948776138e-02 4.482976691854950180e-01
-5.507593230744552149e-02 -1.107037330007985126e-01 4.705012096948595901e-01
-5.032537969898277092e-02 -1.082818122531734734e-01 4.631809171611016018e-01
-3.408638994320564546e-03 -1.223972738095937818e-01 4.946734762949665520e-01
-7.415667540379722658e-03 -1.065263034410799253e-01 4.630938233515357050e-01
-2.418822623379615969e-02 -1.207178647496636170e-01 5.196406783401615881e-01
-1.042858959296465438e-01 -1.041338650129085414e-01 4.672306854974007106e-01
-1.694139212421561999e-02 -7.339942232811502709e-02 4.404850808321724154e-01
-5.358304451123260120e-02 -2.691864651693499921e-02 4.433190800327218017e-01
-8.149011750184093072e-02 -1.016839551095661959e-01 4.414607846226348276e-01
-3.433667698787135764e-02 -1.044191597594095050e-01 4.624582895965014817e-01
-4.001554071108629623e-02 -9.698294700194297346e-02 4.476885932485683006e-01
-6.006335369150906517e-02 -1.133857928236628315e-01 5.199911642509987830e-01
-8.162332345061044936e-02 -1.109666408342655369e-01 4.810634243866434012e-01
-8.802645137305185885e-02 -1.054659539163271820e-01 5.155346777667457747e-01
-3.991830138293534641e-03 -1.237424303774764256e-01 4.999948165758857921e-01
-1.021872322726039006e-01 -8.700415790335506994e-02 4.676158714665489269e-01
-8.356782404643720019e-02 -1.009812624117983337e-01 4.416323593219830812e-01
-6.441913902625931443e-02 -1.111327173585890116e-01 4.736232711988218047e-01
-2.350288193499184067e-02 -1.036663736254658102e-01 4.624463502844298191e-01
-3.503591914917528194e-02 -7.753782809896829498e-02 4.366202595096148054e-01
-4.896367099819844831e-02 -1.158318704154496920e-01 5.086875886859868467e-01
-6.250775142617626123e-02 -8.393551594039959374e-02 4.215161718579438221e-01
-7.819830290548356044e-02 -1.100922081765399879e-01 4.715247472819955599e-01
-2.211651015271712088e-03 -1.040421638063679655e-01 4.610854566226233464e-01
-7.840459131617003030e-02 -1.112962267055282034e-01 5.015085404740564634e-01
-1.028606212791798452e-01 -1.064497405958503146e-01 4.781163113843591717e-01
-8.013327676381318265e-02 -1.101897082774166425e-01 4.726037551882530940e-01
-8.212807939275999780e-02 -9.486240193277301058e-02 4.339802539561195549e-01
-3.483031628679295749e-02 -1.173656388094405922e-01 5.287052440745065862e-01
-3.104605960649078900e-02 -1.060115640268186471e-01 4.659874988768022974e-01
-7.924897861099483576e-02 -1.105759536360487738e-01 5.071004943614151328e-01
-8.695196700337934348e-02 -8.861912752075207234e-02 4.426618999352657791e-01
-4.997234187335086730e-02 -1.117044038296886449e-01 4.772168563846932998e-01
-1.001077560446821287e-02 -9.376429640723284165e-02 4.507262678518317855e-01
-2.179791524524339608e-02 -1.136956552225771855e-01 4.800273164341337662e-01
-3.958321984414409772e-02 -6.881067762952161604e-02 4.324870043155910060e-01
-2.068875214653410899e-02 -6.109879143382569017e-02 4.378435892814301345e-01
-1.678920412656103103e-02 -1.230028186595132356e-01 5.138220773215921300e-01
-7.027143650435714595e-02 -1.054855586512088578e-01 4.482374711106592025e-01
-4.688460423776671937e-02 -8.403453597283212784e-02 4.286396294470053436e-01
-3.755909300993839212e-02 -1.179159934900438772e-01 5.109267852920553743e-01
-3.625738502517838330e-02 -6.692166484415912331e-02 4.340473516821962696e-01
-5.810669524136305442e-02 -1.125390940538629897e-01 5.256651000609500191e-01
-1.584529595094684787e-02 -1.145357574028083303e-01 4.785617673147452567e-01
-4.818549820352758389e-02 -1.098956831231271136e-01 4.696856913098084729e-01
-9.298518474867810413e-02 -1.044976147193222571e-01 5.134238013075037577e-01
-2.537643622467249810e-02 -9.425133238677424474e-02 4.511408132411019456e-01
-1.084765880130345245e-03 -1.146467572491080694e-01 4.748311836585925039e-01
-4.513421131221739130e-02 -2.946245110204834955e-02 4.354695507793905906e-01
-2.724334602673490063e-02 -1.190864286438790692e-01 5.297369429644669392e-01
-1.896010455727175498e-02 -1.192836095801557417e-01 5.420923006566013003e-01
-1.808698057798410058e-02 -1.030003189826227544e-01 4.601743960037217307e-01
-4.868082511953843172e-02 -1.155670328740480840e-01 5.186405106170546286e-01
-6.573015124561679134e-02 -1.074315136093135087e-01 4.569464048625284658e-01
-2.015432199687372181e-02 -1.196598661520437701e-01 4.963521429939661278e-01
-6.185247351770065127e-02 -1.138823153309836411e-01 5.071051080867627903e-01
-4.575655565966208621e-02 -1.163458365044034160e-01 5.074910384592762336e-01
-1.810411940666016919e-02 -5.627317766845801872e-02 4.377651173412187013e-01
-2.608146686646860279e-02 -1.201367816417395484e-01 5.210921918371793637e-01
-8.490230016917374445e-02 -9.162819874074711046e-02 4.382569309893266096e-01
-6.006287706359388079e-02 -1.124760364556754849e-01 5.241595909092731098e-01
-6.529212692750811786e-02 -1.125315502519868144e-01 5.181849220374071807e-01
-2.051464930591914357e-02 -1.006747501200392220e-01 4.583451174083087998e-01
-5.746032256439156938e-02 -6.477705609379427742e-02 4.290531830142304548e-01
-1.023842848321780963e-01 -1.054531705165301370e-01 5.007132478600704317e-01
-6.142403168137545305e-02 -1.123860592590771174e-01 4.835426815866227246e-01
5.212376998960974173e-03 -1.264485508255189794e-01 5.294112114189127860e-01
-3.885193631400244482e-03 -1.214392491438813365e-01 4.915091579003493805e-01
-6.564266112033498302e-02 -1.109902225514582952e-01 5.236616818922495975e-01
-4.918249267987657297e-02 -6.663700320959674295e-02 4.279482261291502332e-01
-6.010229648229931804e-02 -1.137207066458393312e-01 4.952006022099083027e-01
-1.354717952537230156e-03 -9.301419570046816354e-02 4.517496621440619808e-01
-7.802360296499147307e-02 -1.105263770961688735e-01 5.094334483075033670e-01
-2.519759916008752765e-02 -4.453340921059070062e-02 4.381603385819375363e-01
-4.141911349887462263e-02 -1.056439497458707966e-01 4.614398083894094005e-01
-1.070966203867278060e-01 -1.056298640167672998e-01 4.887960218283183833e-01
-2.159171510208766909e-02 -1.210266043727945551e-01 5.248878077161095446e-01
-1.009470837217365663e-01 -1.061187304254166408e-01 4.712643508551593863e-01
-2.489525171812181567e-02 -1.150642331691687920e-01 4.847912612992163472e-01
-1.057413929214061632e-01 -1.060965222145208858e-01 4.892606741008342364e-01
-5.503120929617562329e-02 -4.564248522504035094e-02 4.376851067186875999e-01
-6.332384934700215073e-02 -1.121497577502387072e-01 4.829702995101448071e-01
-5.554574795575252522e-02 -1.026006669029823209e-01 4.233160493946762082e-01
-3.162137973691210580e-02 -1.070724702698492986e-01 4.676376003873711773e-01
-8.627900847346248181e-02 -1.050769497528292878e-01 5.189836701456622681e-01
-4.237737814461354363e-02 -1.102573521138034557e-01 4.732702099255245987e-01
-1.611754646889789269e-02 -1.224140300740130943e-01 5.061538045131386276e-01
-6.593589944153785409e-02 -1.117747009313133921e-01 4.810321066154518155e-01
-1.626199295701137582e-02 -8.333159917548967066e-02 4.440715665676553403e-01
-8.454704504548889166e-02 -1.107943147865018546e-01 4.840821682121936864e-01
-1.070032843568946013e-01 -1.043403346210142468e-01 4.781469704899330431e-01
-5.226840509262682677e-02 -1.151659822074144746e-01 5.030712102764558491e-01
-7.593798221810216242e-02 -1.076773277849586569e-01 5.237744965717932022e-01
-6.858463535290813817e-02 -1.052690387035787184e-01 4.464498106653106979e-01
-2.795097043294669792e-02 -8.191088036984492393e-02 4.412597377626657491e-01
-6.291886599966842186e-02 -1.128155743877625183e-01 4.887644031017254198e-01
-2.096312392268601804e-02 -1.214237501264364971e-01 5.222861927323240172e-01
-1.993261803357852455e-02 -1.204791503464709701e-01 5.351706057386620419e-01
-6.570183169401362655e-02 -1.110845417200380936e-01 4.737202774355062651e-01
-1.586958896951509712e-02 -1.201735654690061772e-01 5.417263371763295643e-01
-2.954318172667379228e-02 -1.087092320009069024e-01 4.708021050478631842e-01
-4.409261431740049350e-03 -1.252857580628286560e-01 5.294106332812745785e-01
-3.271482324490439936e-02 -3.733289575398598265e-02 4.363998844376621444e-01
-1.013022257927462672e-01 -1.071856949344996007e-01 4.930615067199431434e-01
-5.094893809534103285e-02 -1.096253798610397345e-01 4.672353600809001639e-01
-1.272497464337011067e-02 -1.232766139427490804e-01 5.293963953843698889e-01
-5.851340805421631486e-02 -1.062389665631633950e-01 4.529206201755900385e-01
-2.443638493172458487e-02 -8.379668216410210424e-02 4.429307514325092066e-01
-9.747363903375214078e-02 -1.032133117472334299e-01 4.589880485423263323e-01
-1.025885417488097695e-01 -8.981529521696982044e-02 4.645484825137412566e-01
-3.174729471042921081e-02 -1.187954471304262793e-01 5.047277840660827630e-01
-2.961008891411556765e-02 -3.981706959088619074e-02 4.372863022258423049e-01
-9.883036744415814312e-02 -1.057693233459936349e-01 4.661672293901814035e-01
-9.590607151226379634e-02 -1.057709434028295120e-01 5.078413537410484402e-01
-3.782146426456327315e-02 -1.168557759658986617e-01 4.976599688834097979e-01
-9.024577863164275071e-02 -1.098253818942879628e-01 4.827550792152476844e-01
-8.124964368086931565e-02 -1.111268256539397620e-01 4.839819675968579649e-01
2.840524496369141623e-03 -1.271127571652367894e-01 5.197079050265144273e-01
-6.726994497425033137e-02 -1.130399158565015133e-01 5.068860062262501298e-01
-7.179180452229089182e-02 -8.805306266526671810e-02 4.204933615460286211e-01
-3.342029834759905477e-02 -1.177770718475379536e-01 5.279500003476741421e-01
-6.513765482205649548e-02 -1.093227617536814689e-01 4.654396155818044667e-01
-7.505627096318061298e-02 -9.880901809582878781e-02 4.258301548473912290e-01
-5.947955978084861622e-02 -1.063653017545975188e-01 4.526870988076545088e-01
-5.246262926709301111e-02 -3.213695477825763425e-02 4.386864719120880385e-01
-3.851622408917211148e-03 -1.178588989469138010e-01 4.809496741998680602e-01
-1.930131393500694736e-02 -1.075048937157603440e-01 4.664273027099879454e-01
-5.627545545992462817e-02 -1.144496252171135348e-01 5.161973027298859540e-01
-3.818535680357004053e-02 -1.175406499495344897e-01 5.044383253470274830e-01
-3.639590172948204555e-02 -9.482132534217968534e-02 4.474508331599161837e-01
1.858359604243020602e-03 -1.218252588884951304e-01 4.927532481673653764e-01
-7.887931434086151161e-02 -1.086168439814907960e-01 5.174085457020057843e-01
-1.238903456055151075e-03 -1.259982398473726284e-01 5.288537955946148728e-01
-5.476289441192805363e-02 -4.617856334562837894e-02 4.357615721707444600e-01
-5.587751969348815628e-02 -4.973016594415827912e-02 4.347458758357631847e-01
-3.517518967386941420e-02 -1.183492752801644787e-01 5.156494497460961668e-01
-1.258637962386385117e-02 -1.182846678526889850e-01 4.847684247826798409e-01
-9.638782281791778705e-02 -9.838125949709794482e-02 4.522581575547023336e-01
-7.492928659248711439e-03 -1.028900157339736193e-01 4.591508995166435070e-01
-5.155411381832321338e-03 -1.257236964889799913e-01 5.209421955861648357e-01
-2.271531094327377404e-02 -7.450458630403401783e-02 4.395623068527872435e-01
-6.292964873616888749e-03 -1.248264789288101861e-01 5.073928349571101837e-01
-7.531107011170343202e-02 -1.094688282041108435e-01 5.187494184777924344e-01
-5.195643222250906357e-02 -1.122208907548729873e-01 4.797773942330366692e-01
2.765077061237857566e-03 -1.255683974994325769e-01 5.070074305767983125e-01
-4.637486539691792337e-02 -1.027730592239851776e-01 4.521845352091807824e-01
-1.960989392641578413e-02 -1.202593016447735252e-01 5.367391803238579229e-01
-1.149909451343400502e-02 -1.199495841844416405e-01 4.892276757968021528e-01
-3.617108971807015544e-02 -1.153852100875745607e-01 5.392405019652852793e-01
-1.411915293070498643e-02 -1.190463645617971106e-01 4.876285840314946718e-01
-6.678534881438867588e-02 -9.205801546035848049e-02 4.188188775987810031e-01
-9.000997377782145314e-02 -1.097359446913705322e-01 4.950941792173957356e-01
-7.072541036921872748e-02 -1.045314996323881418e-01 4.419308527056373115e-01
-2.228625207001970823e-02 -1.201386899272705588e-01 5.006364950182757845e-01
-4.541507534280044694e-02 -1.033375401047340186e-01 4.540133847704468928e-01
-8.566975775881784105e-02 -1.105741519567129960e-01 4.810472356490234080e-01
-7.193800689241286461e-02 -1.098261755029519698e-01 4.688309729965680628e-01
-9.320322057378853386e-02 -1.078946749341480604e-01 4.689367995984974891e-01
-1.074532477289975169e-01 -9.230698891424057861e-02 4.694443839896993986e-01
-2.501020365455671607e-02 -1.163000121848080104e-01 4.886461392672457049e-01
-1.066826640286249878e-01 -1.022455304531029868e-01 5.035866853955361933e-01
-1.597524873475504939e-02 -1.099494580705590863e-01 4.694964021866094295e-01
-1.509348291129612718e-02 -1.226474059630458108e-01 5.285392927647077910e-01
-1.704678690224432566e-02 -8.649564314574004209e-02 4.454614960070033547e-01
-1.421240815033057540e-02 -1.230815048654151367e-01 5.078459141825063528e-01
-7.901711750998191564e-02 -1.019770642364978136e-01 4.378222149817274089e-01
-8.987517675856136756e-02 -9.826154948159436520e-02 4.454707909188214132e-01
-2.483377539717417787e-02 -1.136625799845200763e-01 4.802258274434542118e-01
-1.356646177421269236e-02 -9.945500508945097351e-02 4.555597339715938277e-01
-3.662455677791582459e-02 -4.507275483723738319e-02 4.346663183773847861e-01
-5.523974772690103119e-02 -1.053731777039143142e-01 4.515811349311605882e-01
-8.926790577644956592e-02 -1.072827250084300160e-01 5.093285890240996094e-01
-2.758145206291772941e-02 -9.845877096308763843e-02 4.556769246069016788e-01
-1.036676907606386006e-01 -1.060103658373507673e-01 4.776499066280250339e-01
-5.567620534640054658e-02 -5.990612948601033161e-02 4.297641896236823467e-01
-7.139736056869758207e-02 -1.086969807627320428e-01 4.627747627448914325e-01
-6.067927232005540517e-02 -1.133931539075937606e-01 4.920721794420279127e-01
-1.022086677863965343e-01 -9.662501725473815473e-02 4.583522571041250271e-01
-5.383682293783926404e-02 -7.988061230032417193e-02 4.239409509837860357e-01
-1.666498688203337658e-02 -1.157225991116012237e-01 4.817839643049645071e-01
-7.918833498198596388e-02 -1.113560246628879646e-01 4.969701984767561087e-01
-6.758550032345242431e-02 -1.041300871296116509e-01 4.358792108656930897e-01
-8.955969343919828463e-02 -1.038556254560497744e-01 4.532751130639472992e-01
-4.419667109936401689e-02 -1.057692907322764636e-01 4.601441597825742247e-01
-4.952023089104676951e-02 -9.938250141855521635e-02 4.429809736707832069e-01
-5.729949269071966250e-02 -8.570165398219377340e-02 4.217321912304422549e-01
-1.062539979565831419e-02 -1.226859484939231137e-01 5.363066133492013776e-01
-3.532596790901235129e-02 -1.177660261023985439e-01 5.013835840803539945e-01
-9.144424036116775845e-02 -1.097133252711987167e-01 4.870643454445854337e-01
-5.827062896039725964e-02 -5.608456408658317460e-02 4.339791428185575950e-01
-2.932338791925367949e-02 -4.426933826186739418e-02 4.372449571125981982e-01
-1.724598380402774314e-02 -1.229023375018590825e-01 5.147029253090157352e-01
-4.213170692811275125e-02 -1.170095017176446955e-01 5.129067710184277429e-01
-4.867674518027323080e-04 -1.020160213446467956e-01 4.593812082548663911e-01
-7.166081534246111773e-02 -1.050570570840819590e-01 4.459223926650279779e-01
-6.416729789370415049e-02 -1.047022807823033974e-01 4.388155639970847122e-01
-1.454323296582297684e-02 -1.196819507350408568e-01 4.901072312719828572e-01
-5.319424827137645556e-02 -1.097424043406896449e-01 4.670122699542724187e-01
