-5.021391185487014686e-02 -8.437864568255418196e-02 4.255770455911614958e-01
-8.039646734420663465e-02 -1.105376382850875583e-01 5.060691745673460140e-01
-1.011360314976464392e-01 -1.041773771932096582e-01 4.625371242640744507e-01
-5.362028770816289203e-02 -1.142450104032617930e-01 5.223731072514421481e-01
-3.290635646888755150e-02 -9.718123948739555706e-02 4.513485042920890589e-01
-3.104850579980639180e-02 -1.180619325560223060e-01 4.976499423148249557e-01
-7.352784334002629429e-02 -1.028246888710648288e-01 4.338990593622202852e-01
-2.024152976898929007e-02 -1.220007090725494514e-01 5.132732885732149697e-01
-2.385308125010054438e-03 -1.175044360044320696e-01 4.800051173062192533e-01
-7.529494795001663576e-02 -1.077114171593246128e-01 4.579027082747423316e-01
-1.006372196050264733e-01 -1.055810058584142758e-01 4.666343041614815501e-01
-2.980875609354658590e-02 -1.186271035157304143e-01 5.282926244976740016e-01
-2.300812049276072802e-02 -5.497814037078523064e-02 4.372688666011352310e-01
-7.713252453081678728e-02 -8.880484118387711734e-02 4.264985600005951616e-01
-2.526249245460324491e-02 -1.201820486641951569e-01 5.045030996231002485e-01
-1.821059872317673869e-02 -1.105045056330131586e-01 4.714098858837756922e-01
-5.526729541435559251e-02 -7.837657177256118768e-02 4.234174617394693696e-01
-5.404200046215897058e-02 -4.066841137354437752e-02 4.389243101523301327e-01
-2.852087488000570187e-02 -1.187107804177223308e-01 4.993253603974854848e-01
-6.361165005014553231e-02 -1.055802755023663858e-01 4.428839021609696225e-01
-7.135294990888317590e-02 -1.112532482561364444e-01 4.769619755771888903e-01
-4.593403799485634015e-02 -9.394003665821694382e-02 4.383495962330500872e-01
-1.050146243196556639e-01 -1.051449017485143189e-01 4.745838221883681429e-01
-6.063933550944190787e-02 -1.114668848947271695e-01 4.737153218940856614e-01
-2.961645428115971743e-02 -1.167244129222121118e-01 5.408617683548748722e-01
-6.156500734605622333e-02 -1.140350826048032173e-01 5.083347710939130071e-01
-2.675694148212317408e-02 -1.121830653239912490e-01 4.771084156284954303e-01
-6.339436122513386618e-02 -1.113075725115505593e-01 4.732598097919862856e-01
-6.500559652025083603e-03 -1.235925078324211640e-01 5.001289553898751183e-01
-3.971499843935265978e-02 -8.815410796527342607e-02 4.392964537760334354e-01
-2.793898264750688254e-02 -1.018118722983737123e-01 4.598016611401258835e-01
-5.113690195727258608e-02 -9.832904445347789846e-02 4.301707974893728137e-01
-5.605940896822454722e-02 -1.127711564169298769e-01 4.829025836306082287e-01
-3.377832778728484531e-02 -9.349577988556656560e-02 4.470185778935174548e-01
-8.817562569201112255e-02 -1.078834155458733568e-01 5.086920601660416263e-01
-2.957379245891921839e-03 -8.771798042461649569e-02 4.485530763117419051e-01
-2.925576722121817248e-03 -9.363188194424694466e-02 4.519106678500742769e-01
-5.542104165422142431e-02 -1.112234386273992653e-01 5.319281787820002716e-01
1.072129424150559084e-03 -8.537028048352549026e-02 4.477604485145553204e-01
-3.863605625180160930e-02 -6.281737579415830330e-02 4.331310695396737298e-01
-6.960924698633738639e-02 -1.128000745608613020e-01 4.983721627298052237e-01
-6.653367172172582056e-02 -1.031924442578361495e-01 4.257604028183580858e-01
-2.602483125396556907e-02 -1.197646798810457630e-01 5.260928942583696921e-01
-1.548882841837973326e-02 -1.128360194601566030e-01 4.744144787915710038e-01
-8.514968613260241737e-02 -1.004967399927378796e-01 4.418770672723703052e-01
-4.047437535025132788e-03 -8.547886232029898446e-02 4.471602910944612042e-01
-6.653079581210750645e-03 -1.254333197026982483e-01 5.196196059488789043e-01
-2.733402292417390703e-02 -1.164662305004659226e-01 4.897899371337331442e-01
-9.225645425927514465e-02 -1.011335581314587451e-01 4.514375565959026226e-01
-3.679623862581776761e-02 -1.162762602889219621e-01 5.340083519016436409e-01
-4.412451606464787290e-02 -1.139894437864748394e-01 4.867365833145433363e-01
-7.186382553930145689e-02 -1.125553611715125052e-01 5.013265911360847982e-01
-5.404214345333707009e-02 -7.372539372347146347e-02 4.248484874486563312e-01
-8.359067240167740442e-02 -1.095348457112333834e-01 5.069076174934867840e-01
-9.874287100113791210e-03 -8.784534568678038779e-02 4.470825522145109865e-01
-6.185560084408561754e-02 -1.038269799563828616e-01 4.214524552358325238e-01
-4.848083686660297625e-02 -1.147690384075618630e-01 5.257235771514812139e-01
-5.429840455867128435e-02 -1.127294592402870166e-01 5.288230282919340608e-01
-5.569936463234247820e-02 -1.023730596234338208e-01 4.359047314900975079e-01
-2.184900393253621370e-02 -1.203932455827020354e-01 5.013291543242680559e-01
-5.690253612660047672e-02 -1.139125895087637758e-01 4.918023627690177313e-01
-3.652701397177442189e-02 -1.148231959955772902e-01 5.411226546939800208e-01
-3.775765711329221591e-02 -1.179062115181074843e-01 5.092450841360829372e-01
-6.597589486254405722e-02 -1.130525718315338046e-01 4.937472900307858792e-01
-2.328260622332167795e-02 -8.879734228859306744e-02 4.455423111981418050e-01
-7.656178127989043958e-02 -1.082457499893237085e-01 4.603494806306526188e-01
-4.198606999754771890e-02 -5.044455438928129726e-02 4.333395059642751179e-01
-1.003220177401464436e-01 -1.078242327017735064e-01 4.819321020762854513e-01
-4.363565876456477338e-02 -1.090890889832789312e-01 4.678624446608488641e-01
-6.186789380404565664e-02 -1.103031367546178226e-01 4.685300713710034426e-01
-3.213244632491786545e-02 -5.278540885804628574e-02 4.354925831596767050e-01
-3.954817370100775775e-02 -8.737228580770803332e-02 4.386559702182388776e-01
-1.696549686655787759e-02 -1.216266781317220935e-01 5.328589987545359064e-01
-2.749445660906602376e-02 -6.644391867477712765e-02 4.367340489241038348e-01
-4.334218487714691648e-02 -1.152940005888163505e-01 5.294826251298407893e-01
-1.150925691513068026e-02 -1.007610758447603089e-01 4.566209167434491234e-01
-4.595423164055639081e-02 -3.721016054162178122e-02 4.347722504146843692e-01
-4.671618972006046783e-02 -7.678117639654083448e-02 4.281938878043684560e-01
-8.411047587563741379e-02 -1.083473671213083939e-01 5.121027162708448044e-01
-1.486914311057042741e-02 -1.227908551373601692e-01 5.273984535840086085e-01
-1.177353880753874253e-02 -9.241565634506647420e-02 4.492920881648189702e-01
-9.256191938753349779e-02 -1.077397211802215843e-01 5.045054529483200545e-01
-5.134576138467313727e-02 -1.134298958128215074e-01 4.851577400680897600e-01
-3.993637330246958828e-02 -1.160813253237775178e-01 5.298425334986437418e-01
1.031959632030518548e-02 -1.265044667969445202e-01 5.229162789807226819e-01
-4.102411938785708451e-02 -9.798443734588584142e-02 4.477526318143008610e-01
-4.802953915599223605e-02 -9.050109858342715585e-02 4.282145018945259785e-01
-5.267753114517444851e-02 -1.005415552723366579e-01 4.383749636498721070e-01
-9.048376547822190030e-02 -1.096956297446032152e-01 4.959573233723715280e-01
-4.752161106556118675e-02 -1.042007455223232237e-01 4.534668389548891509e-01
-6.345516304699715116e-02 -1.135390526029024377e-01 4.981277835719717384e-01
-3.569723605511825916e-03 -1.248857425876208488e-01 5.058480910010039189e-01
-3.345295815247020799e-02 -6.249376505408606175e-02 4.349362987200604547e-01
-4.161702596425038286e-02 -1.116448950236891974e-01 4.782598386612235131e-01
4.333087820508891956e-04 -1.032834455664234374e-01 4.604881709455276306e-01
-2.141285216849322937e-02 -1.196776507456018823e-01 5.369005667720778696e-01
-3.586546113968854237e-03 -1.256956446264838045e-01 5.116511562842117611e-01
-5.422417891725737210e-02 -8.054340085175051844e-02 4.233831579200968420e-01
-3.503461583846543409e-02 -5.867034312992292638e-02 4.346002561786314056e-01
-1.515880800936865794e-02 -1.228461169119831747e-01 5.256427421455034388e-01
-1.492825807262535345e-02 -7.529998575477558909e-02 4.412185542881744138e-01
-5.249426023554233656e-02 -1.074956820315290384e-01 4.596412885590085984e-01
-7.683587389265306156e-02 -1.081922945420791260e-01 5.217039768600849614e-01
-8.775406781650248178e-02 -1.103324582418033772e-01 4.926369957475521533e-01
-3.840277722927577797e-02 -1.170174406877467627e-01 4.989710742788320830e-01
-1.011217732535146657e-01 -1.009081372603570226e-01 4.588516901934129866e-01
-3.816251553839274807e-02 -1.156490964921613046e-01 5.356228134574845257e-01
-1.042963898123893535e-01 -9.046592856115945325e-02 4.666579369472847461e-01
-8.431414107268007940e-02 -9.459299767668953585e-02 4.371801248026803699e-01
9.244842809187175242e-03 -1.267322235914775108e-01 5.270107702341524369e-01
-5.857805433053340366e-03 -7.391754109241488457e-02 4.423409450382343455e-01
-1.038604112962916159e-01 -1.059847277302276847e-01 4.765683772974321775e-01
-1.072014654385793422e-02 -1.168098931727910156e-01 4.801127010147049901e-01
-2.702931812007014489e-02 -3.315257279820655462e-02 4.379136281051734803e-01
-2.153096358282212755e-02 -1.086535835952771450e-01 4.691692593090160956e-01
-9.425437262594979493e-02 -9.121501438240484094e-02 4.511215409633216322e-01
-5.438438993813742017e-02 -5.139633646890260504e-02 4.335546758414409174e-01
-2.402601751253539281e-02 -1.190900834597982405e-01 5.363262585279522376e-01
-5.142580793913432285e-02 -1.000701626713674380e-01 4.343487304023038176e-01
-3.830132399053083614e-02 -1.130323033700289109e-01 4.822694517978698414e-01
-9.385376547309894069e-02 -8.696200341068849315e-02 4.545040426378237908e-01
-3.879337348965911092e-02 -1.057633403031531943e-01 4.625423298958729057e-01
-1.504302831805170299e-02 -1.090694993086741699e-01 4.674587046887249686e-01
-1.029886484158357152e-01 -8.712586125293006467e-02 4.689000504580694284e-01
-1.048042746487369697e-01 -1.053187063740414625e-01 4.750725991691839289e-01
-6.137517602639489846e-03 -1.255692574440791520e-01 5.154621727492544325e-01
-3.944905322918760421e-02 -1.152979174708572974e-01 4.903509789256245144e-01
-3.236165850568557129e-02 -9.148611505657230913e-02 4.456913078348668789e-01
-3.240834973262967343e-03 -1.134200446926312972e-01 4.724979152791071169e-01
-6.128438422303291583e-02 -1.094791696538220532e-01 4.651188027732569563e-01
-5.736959036020890246e-02 -1.071960540193842432e-01 4.565202841035301828e-01
-2.580593148704394407e-02 -1.203666599329320241e-01 5.190545115502084306e-01
-5.021897411348676815e-02 -6.487901358724024181e-02 4.278358284674735890e-01
-1.087148132887204646e-02 -1.242864521357704283e-01 5.224387603346418718e-01
-7.722672326991426861e-02 -1.059191592563092643e-01 4.512686432682582738e-01
-8.893964471913311243e-02 -1.089325911115457401e-01 4.682570490096272797e-01
-2.910259138191218561e-03 -1.261897287702965498e-01 5.215192461238329358e-01
3.025080191629806077e-04 -9.603653742907890256e-02 4.540772561955944142e-01
-3.069719628218325544e-02 -9.053405715580357949e-02 4.453641251620588104e-01
-1.144448025697092711e-02 -1.235354495983198714e-01 5.062740052616405695e-01
-4.667208475709017784e-02 -4.321854488514317166e-02 4.340255126410412223e-01
-2.349169798661735614e-02 -5.296300956280648037e-02 4.374706933037791345e-01
-1.734106081316658804e-02 -1.228290358896355211e-01 5.130021035185807765e-01
-1.837301201716380616e-02 -1.225561666241672815e-01 5.155672266340253218e-01
-3.494244913491445503e-02 -1.182111283980184224e-01 5.204248545100319534e-01
-4.586864684349550164e-02 -1.163584233112636146e-01 5.060721322463109795e-01
-7.939278397657321268e-03 -1.046496926001198452e-01 4.607065222349367994e-01
-3.459106348506293255e-02 -1.106877256976244867e-01 4.743682148254521058e-01
-5.530342461272280685e-02 -5.662723408046260731e-02 4.309396250373110915e-01
-6.028656756631627089e-02 -9.325955706980341986e-02 4.198893508819983023e-01
-9.214816314287653520e-02 -8.751803591516779668e-02 4.515101264855310159e-01
3.099071860372113081e-03 -1.161768320283651651e-01 4.778158716645488080e-01
-4.265001105936089276e-02 -1.160237474515060374e-01 4.948848319914638805e-01
-2.209611892427960564e-02 -1.011344475586212349e-01 4.589351524061848764e-01
5.305260977237324059e-03 -1.262876628785470079e-01 5.315293564906357071e-01
-4.192199917467793330e-02 -1.171056627460212995e-01 5.152013408354922941e-01
-5.539523616316926330e-02 -8.391500746831710711e-02 4.222349479634472935e-01
-8.365689814863519480e-02 -1.109913414430643980e-01 4.914676799497138537e-01
-4.875390026536891019e-02 -1.049882247606614555e-01 4.546677212268167012e-01
-8.099061996474370140e-02 -1.113034224232512248e-01 4.921465708671468042e-01
-8.298790807218042742e-02 -1.107194518187051696e-01 4.987764812676879211e-01
-2.028886154895644632e-03 -8.285762893604362023e-02 4.463601825087278319e-01
-6.577309938854027094e-02 -1.107391595255975275e-01 5.246744565025432960e-01
3.821904706068096234e-04 -1.249878524605395891e-01 5.040130958467072819e-01
-3.565441668919053925e-02 -7.643083260407668167e-02 4.354812982344978822e-01
-3.486941575422945749e-02 -1.083284439814003047e-01 4.690830205627398719e-01
-3.723472188901419400e-02 -1.107150048244739671e-01 4.746187798438042948e-01
-2.211166304718552647e-02 -1.214428772727786238e-01 5.131808821174813628e-01
-3.351069431998564274e-02 -4.301715394628882749e-02 4.357959335922333421e-01
-8.984903193307021418e-02 -9.599117524508438137e-02 4.440817267757543041e-01
-2.317189773272397904e-02 -8.073009195695957096e-02 4.417198166734654374e-01
-6.928641447146790221e-03 -1.236874802934525008e-01 5.012713791071014002e-01
-8.229683089087116987e-02 -1.111115090546555967e-01 4.945749639700139366e-01
-3.016840953336425921e-02 -1.143828710167584389e-01 4.834936383080828959e-01
-3.326781622745492335e-03 -8.605919293023389649e-02 4.476227298244060959e-01
-5.586008905058786195e-02 -1.145485141032985821e-01 4.970474949300734413e-01
-4.013142369049128161e-02 -1.159254234296606401e-01 5.306678762729184484e-01
-4.077070583536010484e-02 -8.445659587830470216e-02 4.355213228184368623e-01
-2.380804411374734877e-03 -1.167500529270875387e-01 4.781982120852044660e-01
-1.744064916306029348e-02 -1.227599776935331954e-01 5.169549499789558578e-01
-5.509331971024149927e-02 -1.135419092748950337e-01 4.872223872913843401e-01
-5.651822657645400733e-03 -1.241069225466977372e-01 5.024776354600870576e-01
-4.486657927836852633e-02 -7.349226372319105083e-02 4.295624476534435909e-01
-8.678502595148974985e-02 -1.074823561019518231e-01 5.118414338544673425e-01
-9.199402434679650187e-02 -8.425364832920220759e-02 4.543753729750621417e-01
-9.296093409328289037e-02 -1.077092249920597877e-01 5.042716060972197711e-01
-3.318997380144909914e-02 -6.880027824162268657e-02 4.351303414413928983e-01
-8.702602048849035488e-02 -1.105955463977623815e-01 4.838986015115435135e-01
-3.362827727321026500e-02 -6.805164296801791135e-02 4.349181428398620763e-01
-5.600140902965243528e-02 -5.781493650293334507e-02 4.308493639593896085e-01
-8.019847707961633154e-02 -1.113871611058262073e-01 4.850095127908680692e-01
-1.003892165774205730e-01 -9.919077327190300997e-02 4.578496337397927607e-01
-7.482234455805601703e-02 -1.085399811691411809e-01 5.227691790391207904e-01
-9.292346418622297877e-02 -1.051780792892531430e-01 5.119352392790488260e-01
-3.814606287181275535e-02 -6.430577485672281379e-02 4.332010169171712777e-01
5.440158864796281954e-03 -1.223830720181282722e-01 4.952314795032776717e-01
-8.418000555629240669e-03 -5.929371519162607296e-02 4.382502523867761179e-01
-7.264466940173149034e-02 -1.096970965784801050e-01 5.210200523926724614e-01
-6.602634193065108625e-02 -1.121344226809193739e-01 4.832338558287809782e-01
-8.360472635252154394e-02 -9.724809058990155353e-02 4.382458211312399987e-01
-5.456291376798643594e-02 -6.940159355289979293e-02 4.256139535498257853e-01
-2.097083078439153196e-03 -9.809545645047841600e-02 4.556402334720753844e-01
-1.126484898726648476e-01 -9.820393968295007547e-02 4.812676524958170443e-01
-1.206589770811676392e-02 -1.224730238925366282e-01 4.995596819185075810e-01
-8.959276341958620493e-02 -1.092170772998375256e-01 4.702590531952365316e-01
-1.398698598850199246e-02 -1.222611782953249709e-01 5.012794493639868287e-01
-8.697381739686120550e-02 -1.099623089998181397e-01 4.984899608386692549e-01
-9.258996981513024915e-02 -1.086604198496291113e-01 5.005380455027207409e-01
-3.814045863449101736e-02 -1.027861648786469323e-01 4.575863053450222040e-01
-3.875255807168834221e-02 -1.139417100565328494e-01 4.854485402602055633e-01
-6.799692685701966277e-02 -7.807998573577919210e-02 4.266222969283353650e-01
-8.422353608371488387e-02 -1.086307343534460984e-01 5.106016446304999512e-01
-4.573005518126220525e-02 -1.161722693815930990e-01 5.006458398952284838e-01
-5.826751434375267158e-02 -1.075159550879788428e-01 4.572839346447536979e-01
-9.888021683575154257e-04 -1.265322826183748472e-01 5.176923732246316856e-01
-1.008065192315746594e-01 -1.039165939358802776e-01 4.618842396263411199e-01
6.872021835422300641e-03 -1.267807491877055992e-01 5.266853390338224195e-01
-8.365111900010820806e-03 -1.224925024396164713e-01 4.962471018179147597e-01
-4.736614027895980072e-02 -1.146100000164710503e-01 5.279269852019436993e-01
-2.862986297174848187e-03 -1.261973825257090842e-01 5.171132402835038055e-01
7.380851070677805527e-03 -1.259147786242579004e-01 5.107982929546993622e-01
-7.708975365539165459e-02 -1.017004038466791244e-01 4.338389786576957730e-01
-3.367813594463724136e-02 -1.138894575695877515e-01 4.831629297976224868e-01
-7.013007942283291940e-02 -1.126218910325641892e-01 4.948009414005677953e-01
-6.944330613943527908e-02 -1.126748045849321478e-01 5.095789994083926855e-01
-7.884094768964405864e-02 -1.024108796082250916e-01 4.377340366338458022e-01
-2.032111044309317660e-02 -1.123173671428304293e-01 4.758765426227943296e-01
-2.714783107675806245e-02 -7.042021913815470213e-02 4.373093810381492585e-01
-5.470548496290754403e-02 -1.030143335083866796e-01 4.291522319995251800e-01
-8.305281832873000203e-02 -1.106904241970852326e-01 4.767603312884064470e-01
-5.515225690095406502e-02 -1.114203763483316567e-01 4.737116856723866953e-01
-1.121327615929049344e-02 -7.875922901959861444e-02 4.430699838067140295e-01
-1.672984858453900256e-02 -1.219311961217078577e-01 5.307964766697041981e-01
-2.431340071142882447e-02 -1.162508681703200569e-01 4.878078094531285713e-01
-7.390436265701549878e-02 -1.069347169978684259e-01 4.542201963984756619e-01
-4.622246883558006614e-02 -1.146461257210822648e-01 4.902671374633454926e-01
-1.039638078556840151e-01 -1.066699490623287949e-01 4.820620470696038162e-01
-2.906160519477744841e-02 -8.505707880438706514e-02 4.422132087845627724e-01
-3.091722339254967741e-02 -8.375421840480606894e-02 4.409369513911897687e-01
-7.053625216121352237e-02 -1.049807903838498452e-01 4.431781676268730652e-01
-9.440855404546808979e-03 -8.205773208825319076e-02 4.446589345154053352e-01
4.966534916735752293e-03 -1.269907618541343264e-01 5.208743512117323116e-01
-5.516987329660680978e-02 -1.122884082054317195e-01 4.797993191272532654e-01
-2.323465515200500570e-02 -1.197927890289836733e-01 5.330709708089488297e-01
-8.145749569662194545e-02 -1.063101031778426742e-01 4.543606066690737966e-01
4.992822245333611991e-03 -1.268315318916859447e-01 5.251030935714083858e-01
-1.835005813285485801e-02 -7.801481999162415693e-02 4.413603695028521234e-01
-5.135767178694039536e-02 -1.007929971360490562e-01 4.429118379546793105e-01
-4.252993356840298333e-02 -8.509697501445397105e-02 4.342699842827394408e-01
-1.952988951648770496e-02 -5.440278939305431827e-02 4.376841355011515389e-01
-6.628011487336296637e-02 -9.421903475787318794e-02 4.185855667102131861e-01
-3.264690367325563669e-02 -1.177590447339268293e-01 4.971777808307586977e-01
-6.684041587914553439e-02 -9.198792304514441520e-02 4.184862727852904363e-01
-9.478936610353276560e-02 -1.020391716538066457e-01 4.529945456057700159e-01
-2.061601386490520549e-02 -8.615793139689476021e-02 4.446480274580427716e-01
2.565521583424401099e-03 -1.159384256497856119e-01 4.773088104390064701e-01
-5.967863840981803281e-02 -1.067565824811456954e-01 4.534266810899510447e-01
-4.383141295254298908e-02 -9.049535561288671315e-02 4.365214092541074287e-01
-7.611437218762499846e-02 -9.410485529426051987e-02 4.241210695173522893e-01
-5.424373087922640391e-02 -1.029067710059811125e-01 4.313223029177867818e-01
-1.313292421790139552e-02 -1.214007362407680812e-01 4.957494762297052215e-01
1.234791075250135824e-03 -1.265540346935022376e-01 5.139964855231635710e-01
-4.166192254087681263e-02 -1.166326692228780437e-01 5.000025814900709298e-01
-7.299065140908386762e-02 -1.077668041575082503e-01 4.576432130054222114e-01
-2.345837835521975487e-02 -1.201491249319478066e-01 5.290045933062870187e-01
-1.884199772381900048e-02 -1.013294846622152801e-01 4.585846017522128837e-01
-1.287242101274480542e-02 -9.976422627659342623e-02 4.556910375912281985e-01
-8.584309613384090432e-02 -1.099954027427460512e-01 4.720608121210407293e-01
-3.802648476599188726e-02 -8.356913093490096756e-02 4.370462950076614006e-01
-3.460677731979252408e-02 -7.478829071949461005e-02 4.352661025014382679e-01
-5.396004056331121790e-02 -1.151594544304744561e-01 5.112011834854253145e-01
-5.257841159878775400e-02 -5.659971666208434699e-02 4.310493277948816426e-01
-4.298255802809018006e-02 -3.392840939679447193e-02 4.345810238529170810e-01
-8.544354755321378891e-02 -1.106898715661678578e-01 4.923651129459796771e-01
-8.974793974148018161e-02 -1.074792783455254946e-01 5.082566164378349294e-01
-2.004081014539652386e-02 -1.180739737327127226e-01 5.450744623502855601e-01
-3.690481523093833149e-02 -1.021830682635160442e-01 4.574673982218931956e-01
-4.879168352457399077e-02 -7.256597779875020859e-02 4.268541379321404428e-01
-9.133769679871095448e-02 -1.093028672448202454e-01 4.979342469869205146e-01
-1.099412042227630032e-01 -1.027605009205201370e-01 4.837389572380130232e-01
-6.833602876394001546e-02 -1.047747846456451859e-01 4.385661719653623503e-01
-5.382587233657829678e-02 -1.016283330983397543e-01 4.280969398964579176e-01
-5.808464962931578213e-02 -1.141497962048644704e-01 4.954644034101242656e-01
-7.023234303560439706e-02 -1.117478091587024158e-01 5.156531214285989817e-01
-9.730083165527701750e-02 -1.058238574358437850e-01 5.063590758112604950e-01
-2.260483893349301068e-02 -7.313348230668488548e-02 4.391150632149223298e-01
-1.107639634373310117e-01 -1.009720637573595647e-01 4.814908965082213554e-01
-3.583641129959231481e-02 -1.183116131795258069e-01 5.100382434784027641e-01
-1.098736078440114144e-01 -9.432227737193513151e-02 4.728277768108131163e-01
-2.085459238785963842e-02 -7.022536825718596332e-02 4.389441641203448707e-01
-4.103251684915720787e-02 -7.880517836593407821e-02 4.327211215916322296e-01
-1.055544249579443428e-01 -9.662604044367180400e-02 4.625681815653042150e-01
-3.082679935091945864e-02 -1.181464359616600235e-01 5.307771642014116331e-01
-9.806366278602839104e-03 -1.247077298439352305e-01 5.184356999344401640e-01
-1.105907455913556214e-01 -1.020396920890126874e-01 4.956762606277227978e-01
-6.328614636289241202e-02 -1.061472911500946220e-01 4.487896051343383541e-01
-1.029160176699954118e-02 -1.076235009968042611e-01 4.640849761957760999e-01
-2.843415029996072818e-02 -1.150677549537689193e-01 4.851768949707239709e-01
-9.235261379460979470e-02 -1.096389391008229797e-01 4.823949848198287871e-01
-8.313743568660754424e-02 -1.098447081076273646e-01 5.059269409672187967e-01
-1.653612986763533868e-02 -9.512590211516860905e-02 4.515194858293180569e-01
-9.754587148986945677e-02 -1.030435960156157738e-01 4.579954833692470029e-01
-2.945019578636599508e-02 -1.013105961346631029e-01 4.587445705176185773e-01
-5.429716693095987951e-02 -1.114892001412845640e-01 4.742700930391365310e-01
-4.117185388123915241e-02 -1.169737602512766622e-01 5.026359662326778110e-01
-4.928570741461883731e-02 -1.158610759212886365e-01 5.148296607198955543e-01
-5.397283766617607531e-02 -3.461409190742902736e-02 4.415380024383637747e-01
-2.556220056122769646e-02 -9.607532328455598014e-02 4.529766567175314007e-01
-3.008059376048751593e-02 -1.015865095364768406e-01 4.589660469319052361e-01
-9.227671416296422124e-02 -9.984874547156602498e-02 4.505244877109231827e-01
-5.337708797630055096e-02 -3.884390915632108393e-02 4.371216088371061015e-01
-8.985362190614436251e-02 -9.407330235504213212e-02 4.441278247347685837e-01
-2.623681200818907960e-02 -7.400971146780149779e-02 4.383050017818072019e-01
-7.899391473118107243e-02 -1.102056374152166757e-01 4.707003217075194645e-01
-1.554016497897401337e-03 -1.263922131441901076e-01 5.162666895930612121e-01
-2.636420654680014103e-02 -7.841840068151094412e-02 4.398448468395690369e-01
-5.761531433112741796e-02 -1.086012506881498252e-01 4.618690699364465524e-01
-3.285213136276012025e-02 -3.984444786077571271e-02 4.361351953836695161e-01
-9.676374584623685660e-02 -9.589151747852539542e-02 4.527490429402403760e-01
-2.511591465660882594e-02 -1.169743872089593212e-01 4.906741810491423994e-01
-2.735375038135236941e-02 -9.931219044221194225e-02 4.565282871541075926e-01
-6.882656096433545367e-02 -1.112461474661624039e-01 4.756572311013860799e-01
-9.180035009748030439e-02 -1.069221275576278385e-01 5.079411630645478404e-01
-5.384008154100122095e-02 -1.151772274231534776e-01 5.102149018363948407e-01
-6.615491920529271985e-02 -1.131112218039575512e-01 4.957821913494842581e-01
-7.067934774464201819e-02 -1.030363053966320136e-01 4.317522877069071008e-01
-3.195844455163701636e-02 -1.124113706839608290e-01 4.784541464191572890e-01
-6.807382207142848030e-02 -1.121348316863568506e-01 5.169225968534066906e-01
2.692189422717055150e-03 -1.255298276996930917e-01 5.065303826316883695e-01
-8.093786206873194999e-02 -1.018143589990967157e-01 4.395973439430742591e-01
-1.015990443421943296e-03 -1.060812305480885176e-01 4.631667956745015857e-01
-4.292597074258589634e-02 -1.005852305658401918e-01 4.502029989605073057e-01
-3.560624945289533189e-02 -6.117971563421493314e-02 4.342745343963673177e-01
-3.257616552414826366e-02 -1.173613333291268213e-01 5.338135005298171309e-01
-9.494931800185776871e-02 -1.091873219313586191e-01 4.859226133270071468e-01
-2.702439354657699272e-02 -7.634071838763750728e-02 4.388306331204943067e-01
-1.274934431158710954e-02 -9.399719441379181251e-02 4.504540147220720270e-01
-4.294877093221054036e-03 -7.734282042968140813e-02 4.438544976954165167e-01
-6.946076423361202679e-02 -1.020676150732611753e-01 4.244767040167131689e-01
-7.475787048717287553e-02 -9.146505837212498546e-02 4.222259234422859886e-01
-1.012341440451206553e-01 -8.923838588704835484e-02 4.630116327037995805e-01
-4.544581136882573646e-02 -8.750301246507362352e-02 4.312259161861072276e-01
-9.531649697558569612e-02 -1.087907329299038495e-01 4.752316548077277214e-01
-9.956595387929811913e-02 -1.057246179685414900e-01 5.038088263394474575e-01
-7.429027992384482082e-02 -9.711513284008772839e-02 4.235248350475046553e-01
-5.938033165449082412e-02 -1.141682713692351303e-01 4.988126100446639843e-01
-8.356823531996217247e-02 -1.046995498093668681e-01 4.502975728481314888e-01
-6.663195332932790593e-02 -1.055622415251474544e-01 4.450605527644720394e-01
-1.651475346296932961e-02 -1.157787238792110929e-01 4.816800011051547425e-01
-9.848053816793053694e-02 -1.064150449694816203e-01 4.673273115476761497e-01
-8.186473216965071964e-02 -9.834909675604124046e-02 4.360172106494004107e-01
-6.613202450946793765e-02 -8.496039205069366718e-02 4.203717017440511405e-01
-2.499196561738080413e-02 -9.343921776479152674e-02 4.499955647011205095e-01
-2.098900761658853073e-02 -5.249364241649523422e-02 4.378267354921208110e-01
-4.605470220152587529e-02 -7.708878185394800464e-02 4.287019698590600614e-01
-4.270693550339026145e-02 -1.140190476287734483e-01 4.865314128879330569e-01
3.304734404647559094e-03 -1.189673969465226827e-01 4.845337793442586194e-01
-1.468668983609918918e-02 -7.088877355382702805e-02 4.402035322099928649e-01
-4.778596464547786582e-02 -4.355781786410116430e-02 4.339954678848180203e-01
-1.543804460308126000e-02 -1.231845501880018123e-01 5.119562895112286238e-01
-2.708973721446520516e-02 -1.194739704473617853e-01 5.265563412689506784e-01
-1.924511637011184703e-02 -1.105002220325883716e-01 4.718431395265971773e-01
2.928403632692106601e-04 -1.156992605148236680e-01 4.766527447079654256e-01
-5.347641757248792344e-02 -4.885595951619971927e-02 4.341956064631057322e-01
-1.780555577798031714e-03 -1.251207115964901584e-01 5.329482491986824444e-01
-3.537336500229069924e-02 -1.118919519009459879e-01 4.776357327972939326e-01
-2.524777478510207077e-02 -9.221371314536300212e-02 4.485910413149473142e-01
-7.026205886330290362e-02 -1.112002155635233441e-01 5.181968103014428229e-01
-2.137392228153849744e-02 -1.198919645659557165e-01 4.982493911709402479e-01
-1.011339330367390030e-02 -1.245838091537430636e-01 5.202131942317416158e-01
-7.647931775583481639e-02 -9.972792635904671743e-02 4.286428771188112719e-01
-5.271960997568941876e-02 -8.671880430629620717e-02 4.235245966583998101e-01
-3.897237310938134192e-02 -1.165467975290328528e-01 4.959882968453852570e-01
-1.386344199125838159e-02 -1.139993947695833454e-01 4.759650296759910248e-01
-5.305591031579028061e-02 -1.126773670547965706e-01 5.298990695687653130e-01
-4.781031335826355089e-02 -5.289907106370241030e-02 4.327752820104341924e-01
-1.219799421532519884e-02 -1.222117224598547741e-01 4.985040392545823651e-01
-5.322782729554094427e-02 -1.137571243852890934e-01 4.877433053313546263e-01
-1.789190755996868804e-03 -1.096568930386752488e-01 4.669734713430904738e-01
-4.278623007179893634e-02 -9.972706252093704871e-02 4.489211404365929803e-01
-2.406443746641457465e-02 -4.969388062658568889e-02 4.378327363482445445e-01
-1.985257443286702825e-02 -1.022979688716306457e-01 4.598282678208013285e-01
-1.067530088351728440e-01 -1.043456506400752548e-01 4.752681557340384666e-01
-9.822960924854325093e-02 -1.080358514348994520e-01 4.951170636723799534e-01
-1.038152045637628397e-02 -1.029399226026166958e-01 4.587679912092432755e-01
-4.750286292608850436e-02 -3.295727548256689732e-02 4.355503828925110232e-01
-5.784588207013223460e-02 -1.141182196720134240e-01 5.175630231209776833e-01
-1.757146627226166893e-02 -4.298927103003278433e-02 4.382604044694993206e-01
-1.645504675172083237e-02 -5.778380833342232348e-02 4.380243472736877197e-01
-3.756493456530322905e-02 -1.107424132942664702e-01 4.747566680197405908e-01
-6.052553899858637010e-02 -7.610811123912032683e-02 4.238568214705775161e-01
-2.110213689029099421e-02 -5.157314722031434290e-02 4.379228049684173452e-01
-4.287683474729059308e-02 -9.476144381939162475e-02 4.430007004811020166e-01
-4.775954931060370778e-02 -5.681059294209200167e-02 4.311990744269056930e-01
-9.335483154201829059e-02 -1.094947861858019816e-01 4.840636255033741175e-01
-9.063035761856938488e-02 -1.052690231039128399e-01 4.566682022165989840e-01
-1.872105546102080867e-02 -6.490373985538243351e-02 4.384814887217765578e-01
-1.725044469583494281e-03 -1.190862449746852292e-01 4.841660247496304414e-01
-6.395231943831955479e-02 -1.133734780559073618e-01 4.961157670195663338e-01
-7.485794339155861510e-02 -1.121339501643132813e-01 4.967401435275641264e-01
-5.248943807276996998e-02 -1.153596898284234562e-01 5.090074091990179905e-01
-1.347955914055452495e-02 -6.437042461828215711e-02 4.390869589818470198e-01
-1.638560062058758843e-02 -1.228832630918790941e-01 5.110490060197613316e-01
-5.397389555330451422e-02 -1.110750408070625278e-01 4.718019747180413614e-01
-4.157560400173112430e-02 -5.260573719332463372e-02 4.332102753556008601e-01
-1.212996310894459695e-02 -1.227774564713350197e-01 5.016744230091072509e-01
3.745230909245702601e-04 -1.145534320292402319e-01 4.747619005670393189e-01
-2.888529393696625397e-02 -1.022070954152384248e-01 4.601648497838584095e-01
-1.310587404308573636e-02 -1.232092765659421330e-01 5.065905018340857158e-01
1.487011272466927814e-03 -1.017832580912977763e-01 4.592961055684626759e-01
-1.326117800189900373e-02 -1.075037685263904030e-01 4.642078740760649525e-01
-9.587964724776650016e-02 -9.200336776357405377e-02 4.527807964656949680e-01
-7.360039567892495693e-02 -9.087917115159327430e-02 4.208938200758413073e-01
-3.373378581681286958e-02 -3.958907904698028696e-02 4.358073868840393605e-01
-3.968972541582783259e-02 -1.170570265693436501e-01 5.229327874459440695e-01
-4.485395080819305769e-02 -5.173112469364866267e-02 4.331298205104088805e-01
-8.302931982335936059e-03 -6.061624954986662844e-02 4.384901812502982610e-01
-9.862799292242291349e-03 -9.711153841080370774e-02 4.534563572875240367e-01
-2.688721587264290142e-02 -3.242221567641617036e-02 4.379538731393553541e-01
-6.221172179816929215e-02 -9.721443182379543857e-02 4.202803077836756440e-01
-4.886229437590335761e-02 -1.154492126831039439e-01 5.204401754647346445e-01
-4.213058663448549651e-02 -1.103768488066437375e-01 4.730921846879431736e-01
-7.424164285998131885e-02 -1.105432308343009817e-01 5.163063442150070959e-01
-8.155944493919964344e-02 -1.008422494921311086e-01 4.384522146336067849e-01
-6.574872713473682573e-02 -7.979513979016696068e-02 4.242811990385562115e-01
-4.305146119632213136e-02 -9.708729325493041518e-02 4.453016146820482080e-01
-5.445426921612053078e-02 -1.085748974300656811e-01 4.620249018817269016e-01
-1.640527033091696354e-02 -5.305718671207618892e-02 4.381140064188999705e-01
-1.715406307671649144e-02 -1.215602038433348520e-01 5.020910639691834598e-01
-4.277195938784975060e-02 -9.779013322412778708e-02 4.461602505911813066e-01
-3.659012456858207890e-02 -1.032468486562694576e-01 4.593837638723602956e-01
-5.493396974054842036e-02 -1.033346384678878738e-01 4.291022227170064873e-01
-8.718705375236929234e-02 -1.080886916283592819e-01 4.639970025910635787e-01
-3.091656721242067030e-02 -8.974097040687543936e-02 4.446039838695601265e-01
-6.843946614466248080e-02 -1.048483406637231025e-01 4.396269810188966898e-01
-1.355159837906831991e-02 -7.689936167366291653e-02 4.419208562791784312e-01
-1.937737116329177334e-02 -1.202431957470661977e-01 5.371729841563531727e-01
-6.786272293318958149e-02 -1.128600730882652337e-01 4.941206918070475407e-01
-3.858531012892280759e-02 -1.114512376801081450e-01 4.771380414430092531e-01
-1.026070882847047033e-01 -1.015958658263971942e-01 4.605564820766784861e-01
-3.043021726765404375e-02 -1.153875774843472479e-01 4.870793653339104967e-01
-4.777323826496628068e-02 -1.129514937901217181e-01 4.827067743446032400e-01
-1.103011750959236176e-01 -9.619907673601198195e-02 4.736325129753555796e-01
-6.606221251627251989e-02 -1.052283390353817294e-01 4.415359797204541081e-01
-6.604013585439688638e-02 -1.050371842326369431e-01 4.390818168807225641e-01
-8.777688925952004118e-02 -1.097716091073033112e-01 4.987259289796736605e-01
-7.190974840064369433e-02 -1.012133664939410260e-01 4.254599194588157274e-01
-7.879617212429592364e-04 -1.200561389562439518e-01 4.869139500494543693e-01
-8.568407531850177894e-02 -1.091563627605675463e-01 5.062462700345927713e-01
-6.021267415823082850e-03 -9.496088201384553229e-02 4.523192238697696932e-01
-5.980859158146360072e-02 -6.645682220594174849e-02 4.286755956426866465e-01
-9.217404845882336273e-02 -1.081454343094724602e-01 4.678814009789722395e-01
-2.042364436887776288e-02 -1.175394215825012467e-01 5.464675764300901406e-01
-3.539403871997347240e-02 -5.509661346575545765e-02 4.345385200472599019e-01
-1.750817460586093569e-02 -5.080261835596749931e-02 4.381723660933000697e-01
-3.124148625953129116e-02 -1.035234524233961256e-01 4.615068794932742358e-01
-3.268305406445658895e-02 -1.042059994743517043e-01 4.622233914936867971e-01
-9.137233967483673891e-02 -9.796189144819730799e-02 4.468825324448232883e-01
1.993722839333354410e-03 -1.092823909451227649e-01 4.670043531171108042e-01
-5.124141278204052963e-02 -4.353340300870609664e-02 4.349982509560393340e-01
3.671720129217106911e-03 -1.026505442611961721e-01 4.602972473397737296e-01
-9.144597582173685790e-02 -1.073874410164320919e-01 4.643666017807216995e-01
-5.052173317830747912e-02 -9.527770232703534903e-02 4.257429684340958143e-01
-7.375275809822889883e-02 -9.782863666637918454e-02 4.237555778522805738e-01
-4.128299935303021695e-02 -1.094254473965061980e-01 4.698021907267393438e-01
2.688700406836956949e-03 -1.219836025010504754e-01 4.931305347094485092e-01
-2.318389276326855014e-02 -1.059654647564470670e-01 4.653364919507225750e-01
-3.286617123526085205e-02 -1.110943252339534892e-01 4.752767294738866610e-01
-4.259360408461614761e-02 -6.475964222672650483e-02 4.309870187251634288e-01
-4.050898616875601987e-02 -1.089030443574967033e-01 4.683638801452550959e-01
-2.976340671243304231e-02 -7.789857034471095454e-02 4.385754346327756514e-01
-6.753197913011968478e-02 -1.041641587152872944e-01 4.343280232651772210e-01
-3.730258601076718444e-02 -1.008706081173916663e-01 4.549924077251761845e-01
-1.059323758185032327e-01 -1.050623249410684024e-01 4.767056977966113718e-01
-4.458720028678814923e-02 -1.022757096639967250e-01 4.519767673346684056e-01
-7.792823067122445213e-02 -1.117228898763456407e-01 4.952569144981902594e-01
-4.356767403445244852e-02 -3.708684182015422465e-02 4.344464706313045932e-01
-5.297676377009748888e-02 -8.192694029909480813e-02 4.235890549225198032e-01
-2.415380847131907982e-02 -1.196142143404327757e-01 4.994182259167647131e-01
-4.141467718734013342e-02 -1.154040802116833020e-01 5.318586083097021078e-01
-8.298132213857208062e-02 -9.879531878486361163e-02 4.384854725384131902e-01
-7.466568008908343324e-02 -1.104997516371098443e-01 4.723736368816633946e-01
-9.070003852702636371e-02 -1.093669015059347410e-01 4.721209778054746842e-01
-6.812666824704900759e-02 -1.101363734625042529e-01 4.685788843499443801e-01
-6.790604132239630442e-02 -1.073296735186058393e-01 4.554857351327040171e-01
-5.339187000954898066e-02 -1.122292764550322647e-01 5.308115676946945083e-01
-7.697691625278679783e-02 -1.106686866684852277e-01 5.108145816766632707e-01
-2.693331961102777075e-02 -8.448641309102859764e-02 4.424882217184537558e-01
7.095171112404570837e-03 -1.222465814348827617e-01 4.953991781618583001e-01
-1.101126824260351411e-01 -9.502552530149160903e-02 4.734755628848583697e-01
-4.681594272919474553e-02 -1.015370373974254503e-01 4.489379409545612987e-01
-9.736984582235672092e-02 -1.084400398182047143e-01 4.770678178656222457e-01
-5.454757512792578200e-02 -1.031836910863091206e-01 4.302451158478113324e-01
-4.383943789102702840e-03 -1.180301753159963274e-01 4.811863243359260078e-01
-3.825608290181953947e-02 -4.362632852402818784e-02 4.343441869524850008e-01
-7.569462691034684054e-02 -1.108807531920655842e-01 4.749470705879780263e-01
-4.378857431109441437e-04 -1.149176519343725472e-01 4.752520453703804049e-01
-5.009265516047867184e-02 -1.155712542522963487e-01 5.026501774165824665e-01
-6.506085190065460933e-02 -1.091684478469294034e-01 4.637719658935918754e-01
-7.962813920899343423e-02 -1.059859058839155432e-01 4.526417128897501918e-01
