-2.644541348583706944e-02 -1.196668679305954996e-01 5.256070144762239327e-01
-7.380840072852890010e-02 -1.073029699136923837e-01 4.575937770460011822e-01
-8.779178165889263419e-02 -1.057059994323041041e-01 5.156216161580874369e-01
2.137762662590081842e-03 -1.255020501319597803e-01 5.064348867074841554e-01
-5.755201767759095255e-02 -1.127614336491347541e-01 4.845254812734829941e-01
-4.543781317395694658e-02 -9.045788105047718186e-02 4.349334738474625595e-01
-2.639348065234374888e-02 -1.178081861406103104e-01 5.395195474764515886e-01
-3.930939747310269877e-02 -1.097901041249139537e-01 4.728580026190846164e-01
-3.004620579685592097e-02 -1.176676262891030583e-01 5.355133508181190161e-01
-3.003285722133720859e-02 -1.079121025033306092e-01 4.698379535780629057e-01
-6.137335674947546477e-02 -1.139706416929068961e-01 5.083001125174687607e-01
-3.413854824557684825e-02 -1.010420372895982216e-01 4.577069749407689514e-01
-1.119283612053489502e-01 -9.893919061583436592e-02 4.825897490753544572e-01
-3.282937383922369251e-02 -5.376505514445990147e-02 4.355469568197347652e-01
-6.630662739121770399e-02 -1.033185595717707461e-01 4.283735426222038956e-01
-6.348008368622058695e-02 -1.074308867822444530e-01 4.571875394581015883e-01
-2.695692646196665154e-03 -9.538040819076530619e-02 4.534976841583925888e-01
-2.986093253535439251e-02 -1.167767694310280491e-01 5.402780836751265303e-01
-5.562615157705591562e-02 -1.142435924833238164e-01 4.953152718968440449e-01
-2.611075623590072489e-02 -8.896563846266433706e-02 4.458156466032201504e-01
-6.474774011897806159e-02 -9.740895186467063427e-02 4.209553228718656559e-01
-6.770577567872548830e-02 -1.084548277566482616e-01 4.621292745555268255e-01
-8.439693334935934044e-02 -1.101090036690045154e-01 5.010965471216120015e-01
-7.744544558095595686e-03 -1.205014644942453694e-01 4.899231282549129096e-01
-4.715684235164580018e-02 -9.546658592654382047e-02 4.407609342250959905e-01
-7.976607082821202122e-02 -1.103208831416104263e-01 4.740111951213150099e-01
-4.705497305957269394e-02 -1.158001698028888055e-01 5.200021609226552766e-01
-4.493484634476233031e-02 -5.037860227777563732e-02 4.336755997837525856e-01
-2.261681901168765760e-02 -4.572646352770225187e-02 4.385939646922747959e-01
-4.966710381151616394e-02 -1.149002044637386782e-01 5.236846664218623992e-01
-9.868599730307656831e-03 -1.245767456931859557e-01 5.210060764148367607e-01
-5.760585069683612364e-02 -1.133855242110938105e-01 5.227455788337652676e-01
-3.515778225418528941e-02 -4.929532717353279914e-02 4.352462653870412534e-01
-6.167900436162265104e-02 -1.037182225781416306e-01 4.248382637252355321e-01
-5.737279402243647408e-02 -1.037498996184095662e-01 4.270062826934480360e-01
-6.171339450587003811e-02 -1.058681235003709475e-01 4.489301286423331705e-01
-9.198456761709389307e-02 -1.087952131904364184e-01 5.004742845923312311e-01
-7.369698829030361942e-02 -1.115315900102106933e-01 5.108118023737079350e-01
-5.352396740649282419e-02 -3.192937999387049364e-02 4.406202461697474870e-01
-4.863462332224752216e-02 -1.102447456229055101e-01 4.713553638090740017e-01
-2.603712098690616830e-02 -1.120227105475044976e-01 4.772569655608650541e-01
-4.812571024828217470e-02 -1.090323491591555782e-01 4.663452396311577597e-01
-6.882026956700575127e-02 -1.115751956601759159e-01 5.186704601245121227e-01
-2.140517494148121147e-02 -7.847733177365226465e-02 4.415296437877503366e-01
-1.098925763660700411e-01 -9.500524301891369316e-02 4.740677904870486126e-01
-3.171791399507212228e-02 -1.190373275428487643e-01 5.142952787534048609e-01
-7.432432262982251181e-02 -1.117705894851738768e-01 4.901904288200957804e-01
-8.057941371051295654e-02 -1.105798677381187867e-01 5.046633519876515539e-01
-1.413035630785641587e-02 -1.230631699641128313e-01 5.078871506820923365e-01
-1.129891290661767661e-01 -9.758167406569090430e-02 4.852391464687840772e-01
-4.221800027632399699e-02 -2.763795729921260380e-02 4.356995874224492971e-01
-4.181581427467424145e-02 -1.124228671474265945e-01 4.816967620071919698e-01
-3.791935543730896863e-02 -1.015228544007251293e-01 4.566239260683710444e-01
-9.877628153309517267e-02 -9.582254388943857448e-02 4.558645038521914605e-01
-1.908049434015253801e-02 -4.540840278138465885e-02 4.386614919953870095e-01
-3.637499098145665494e-02 -8.833516495577944938e-02 4.423504464830804173e-01
-6.496310915751035697e-02 -1.112485256505200693e-01 5.238064652027520918e-01
-4.703912567893987068e-02 -3.605200959454894077e-02 4.354909634037548161e-01
-6.630066584834332089e-02 -1.095460795761916822e-01 4.672523370173289337e-01
-7.233780176678462903e-02 -1.117425760679139624e-01 4.856146418355323791e-01
-3.894649070385877709e-02 -1.141360067658314242e-01 5.411406628949390063e-01
-6.354393302723307380e-02 -1.115874706453398035e-01 4.772017642717577002e-01
-5.240171083327779811e-02 -1.148788186521484678e-01 4.976162165326188380e-01
-6.822870500710245811e-02 -1.111816853530962906e-01 5.206818739867821177e-01
6.495959034199577133e-03 -1.230756113006070407e-01 4.981531250124972554e-01
-1.001272745195301850e-01 -1.065802016851280232e-01 5.010881270213267680e-01
-2.731370260247818413e-02 -1.200097061587641067e-01 5.168562093858748430e-01
-2.018761167445955879e-02 -7.892501221700419511e-02 4.419233565531797692e-01
-7.102231953203334835e-02 -1.124075342329815402e-01 5.069815915369789705e-01
-1.035167212273090803e-01 -9.027098030685490326e-02 4.664396210169529655e-01
-4.303749348753591053e-02 -1.106590159885272456e-01 4.751397326053060644e-01
-3.551268819504018598e-02 -1.178963105842360803e-01 5.028891050278538888e-01
-5.406663326873163006e-02 -1.076512077872171791e-01 4.607208962529771856e-01
-2.647545528418065314e-02 -1.199329297172551517e-01 5.222437801850445815e-01
-1.216562793624339708e-02 -8.073669528442550813e-02 4.439380581749700072e-01
-1.364866421720589348e-02 -8.742778408215300112e-02 4.466665173384837817e-01
-8.415345890099709680e-02 -9.526828342078715040e-02 4.383728633873602565e-01
-2.271063681226453967e-02 -9.156123736627667931e-02 4.489638590286171294e-01
-5.612466476417413141e-02 -5.250150238488027893e-02 4.339104404892840661e-01
-5.698340351772542695e-02 -1.100681890542267866e-01 4.682179645792922118e-01
-8.471524432669058635e-02 -9.470942000096414792e-02 4.389231486376444780e-01
-7.195148233711258501e-02 -1.070203827284325893e-01 4.562507998589332425e-01
-1.064493547000188028e-01 -1.016024549122720028e-01 4.690139041406038989e-01
-5.448151874009871110e-02 -1.147937444470948920e-01 5.007593880111733675e-01
-2.460873951272864527e-02 -1.154599437380561255e-01 4.861163333048783564e-01
-9.713531771223091194e-02 -1.046569129966948286e-01 5.099921119797630187e-01
-5.173081967015050187e-02 -1.152014840341320928e-01 5.168894831187621497e-01
-9.238939578901432526e-02 -9.489122524036744388e-02 4.486348975849486220e-01
-7.648806408159339321e-02 -1.082238559089437058e-01 5.222517602082589194e-01
-6.768587602909129086e-02 -1.102665067557128675e-01 4.709211308083859904e-01
-3.484436523245205281e-02 -6.438275309498345256e-02 4.350027565547315844e-01
8.784577353377141795e-03 -1.224007530586961462e-01 4.967155164454966632e-01
-3.285125593128354615e-02 -1.181666982617874395e-01 5.011300302321013422e-01
-3.396369383956456683e-02 -1.124026137512854767e-01 4.793978124371533478e-01
-6.700115141961329734e-02 -8.108714373281365739e-02 4.243232216058664408e-01
-1.903619207420270253e-03 -1.230133516829702289e-01 4.967534458865193736e-01
-7.906416721888437360e-02 -1.085919066641068825e-01 5.177500322408390421e-01
-5.157747574080833591e-02 -1.026202096989057705e-01 4.481311065837552676e-01
-1.189109057467601510e-02 -1.100483946364783638e-01 4.685721836028787779e-01
-6.251655343304265977e-02 -1.044987883578853000e-01 4.400511019759113518e-01
-4.249384080294255767e-02 -1.105570114904495249e-01 4.748251369660714816e-01
9.408798437594715139e-04 -1.265807757659594412e-01 5.149206712417341292e-01
-5.435601829511766542e-02 -1.008967585124783684e-01 4.397676862296119316e-01
-7.977043741191437720e-02 -1.017944442782800357e-01 4.390689558866119335e-01
-9.105319663926410290e-02 -1.049778775701014771e-01 4.577941039396637435e-01
-3.778353555589844884e-03 -1.154560421485309879e-01 4.762475216765546526e-01
-2.005839413014349343e-02 -8.709413622534691035e-02 4.456926391304040225e-01
-8.994047057342353935e-02 -1.071234319538405949e-01 4.639196209503411161e-01
-1.236665724652299264e-02 -1.225054570678744403e-01 5.351585445943418673e-01
4.430898040682190210e-03 -1.231702064889390186e-01 4.977122843680402697e-01
-1.054117001548306037e-01 -1.061567968280101720e-01 4.866175663138995744e-01
-3.889057448820872065e-02 -1.123458326772965726e-01 4.809655307569785654e-01
-9.563894865547678537e-03 -8.818392812751849053e-02 4.476689922212233053e-01
-1.935528529654123239e-02 -1.220245383853671428e-01 5.104820995586475396e-01
-8.594166956464886764e-03 -1.249237439145637063e-01 5.144440822221237886e-01
-2.182967761121995184e-02 -1.208696729496077371e-01 5.257255961502880215e-01
-1.019982068120448004e-01 -1.072164610015174102e-01 4.880663678179663068e-01
5.425649271191214720e-03 -1.265751159231734424e-01 5.151305331141050603e-01
-2.244330644260177088e-02 -9.467417691470837726e-02 4.521378173197964090e-01
-1.757905606650045707e-02 -1.094793877740010274e-01 4.695332125596234363e-01
-1.324910882277841387e-02 -1.232837096132138321e-01 5.263452878849049776e-01
-2.731939455306876471e-03 -1.180948232071480919e-01 4.817539331474227082e-01
-8.709321895918580025e-02 -9.239870406878597509e-02 4.418358909603796736e-01
-4.497838156517905417e-02 -1.164970765371083489e-01 5.154318182665306169e-01
-1.709446778782014106e-02 -5.069332480235623495e-02 4.384461892260669291e-01
-1.922916322895989669e-02 -9.440713015781863893e-02 4.514416218419395888e-01
-3.655138617930771966e-02 -8.210053587791821261e-02 4.383225068492858090e-01
-2.909990797014869526e-02 -1.195971262143367270e-01 5.137321915969800257e-01
-2.595975484706621733e-02 -4.786928827366050687e-02 4.380025764773205488e-01
-3.704439338091967959e-02 -9.995231152809164188e-02 4.545854268498239481e-01
-4.158926675321875099e-02 -4.663334603969858383e-02 4.342182922469927653e-01
-3.177446843284387895e-02 -8.938905699922942982e-02 4.447988635288696591e-01
-8.199846441123818941e-02 -1.103755771438943017e-01 4.754002088707902085e-01
-6.433071953392303921e-02 -1.135334692877256885e-01 5.052352571709687323e-01
-2.268914843855890720e-02 -5.695778376671734727e-02 4.373905743665637558e-01
-8.957703604640372685e-02 -1.099849474069967831e-01 4.846717550018924681e-01
-5.770934658986360405e-02 -9.980247345634593592e-02 4.211358307416509517e-01
-9.454687142213413775e-02 -1.025504990749973727e-01 4.553457991192301768e-01
-4.732539415940142935e-02 -1.160599417751654733e-01 5.162933981340128708e-01
-2.952611236717617160e-02 -9.583446718379773355e-02 4.519311098535249149e-01
-6.498372437659645506e-02 -1.134087312834972938e-01 5.079966237165823850e-01
-6.208037561453373654e-02 -1.038933968741038300e-01 4.370136420390119403e-01
-8.394982670788236206e-03 -1.035293013862233907e-01 4.598422168543720434e-01
-4.650431162426352238e-02 -6.001145237122434972e-02 4.307508375515908816e-01
-3.582526685642241360e-02 -5.902328225394140593e-02 4.348958288148835338e-01
-2.575494984879335078e-02 -1.029051738111133873e-01 4.621157743605736612e-01
-3.682607462413383520e-02 -1.099315805020949915e-01 4.732405127712956960e-01
-6.071320758096793169e-02 -7.352761750439577859e-02 4.256236594588530542e-01
-1.777252062182496303e-02 -1.120791424554824500e-01 4.747453715287138776e-01
1.509406350755011436e-03 -1.145389394228287505e-01 4.752239032335562330e-01
-5.355148487285887188e-02 -3.448137231524176644e-02 4.396076393152948403e-01
-6.521336120983900475e-02 -1.079114709250611343e-01 4.594121490060826263e-01
-7.622530191142827538e-02 -1.046722017109357750e-01 4.471517356464012605e-01
-6.098747012583020238e-02 -1.126122665416553481e-01 4.854185861027664473e-01
-1.056823330585745790e-01 -1.045555093084505754e-01 4.751490221688330351e-01
-1.087168764610119825e-02 -8.666290703435799991e-02 4.466997077378183634e-01
-4.784657196333461093e-02 -1.152790039411983464e-01 5.237342527168918904e-01
-9.005565272179105740e-03 -1.244445820990822682e-01 5.272183806491055336e-01
-3.258022653053310735e-02 -7.337193103981093367e-02 4.364057955114287179e-01
-9.356891655108326433e-02 -1.026719169525618230e-01 4.547617011330701287e-01
-5.174872546303337789e-02 -1.140562404056605639e-01 4.899614832011615628e-01
-5.391325640091798599e-02 -1.148629859375438211e-01 5.000632696410598488e-01
-3.837944054275101852e-02 -1.176090183885797197e-01 5.188436338665322056e-01
-8.320998671553912762e-02 -1.099115069547438456e-01 4.720931506252216692e-01
5.226361122488948352e-03 -1.225500166343754804e-01 4.959735318726977149e-01
-5.769790798749047100e-02 -1.107414106114283370e-01 4.709895787577697002e-01
-5.300845108405521922e-02 -1.148928151476449055e-01 4.984170382976870761e-01
-5.354578381306888957e-02 -2.564061018769513839e-02 4.436423535174780497e-01
-5.666869304361109305e-02 -1.127484366376749203e-01 4.842642024494548947e-01
-6.552378153085406526e-03 -1.015386848630216304e-01 4.582519895468448179e-01
-4.094046474059318680e-02 -5.794689136902422127e-02 4.331923037609699545e-01
-1.006775126863085207e-01 -9.368220905814123034e-02 4.592305630993490650e-01
-3.046225742806099937e-02 -1.062578641828927639e-01 4.669115978898037977e-01
-7.790114228322900236e-02 -1.033070363342401543e-01 4.419281026798470569e-01
-9.207247403990970192e-02 -8.708469003181851242e-02 4.524451514914859529e-01
-6.624398689505475724e-02 -1.043674590955289833e-01 4.357481100418045261e-01
-4.195910929076739765e-02 -1.078519784169805762e-01 4.654834114188483585e-01
-1.022979779534001765e-01 -8.878721541171046006e-02 4.660554771266332552e-01
-6.015050399477100962e-02 -1.051301096841673610e-01 4.474114330826002850e-01
1.285627069986320509e-02 -1.258384812808332753e-01 5.175102777598088455e-01
-3.435026104613314590e-02 -1.108272799784519314e-01 4.753273730029567989e-01
-4.975572495464384085e-03 -1.052158026439310862e-01 4.622199816985911314e-01
-7.847138841423240141e-02 -1.085501065528156617e-01 4.638176771392958364e-01
-2.797837999305402557e-02 -1.165606228580460257e-01 4.910261270291927382e-01
-2.380468718368984257e-02 -6.651531724892949249e-02 4.379756351009612692e-01
-4.753969357920981298e-03 -1.134809586845035856e-01 4.730107063595323513e-01
-7.063083362053836078e-02 -1.061326289269551304e-01 4.520309208651365762e-01
-7.701816778802560853e-03 -1.142996495583480515e-01 4.745933371961640335e-01
-2.663874791956572993e-02 -1.056897042982912066e-01 4.658603558793927846e-01
-5.669654793846914259e-02 -1.026027036548513016e-01 4.360945891681070052e-01
-4.657772711071656024e-02 -6.215796939528871190e-02 4.304289030838686081e-01
-5.862920870510084786e-03 -1.095384385152020773e-01 4.667851828168010364e-01
-3.869115218612634299e-02 -3.264611479619788231e-02 4.354744244564825451e-01
-2.639624875569382065e-02 -6.905667620717900745e-02 4.377541112154978431e-01
-6.543947142149084129e-02 -9.463523676492242853e-02 4.198761870481052538e-01
-6.653116956346435962e-02 -1.124914646373391947e-01 4.891749015555456048e-01
-6.128417243067726949e-02 -1.037877263655708621e-01 4.374185785012738026e-01
-8.541515648969504049e-02 -9.014854093833538085e-02 4.403368181251693381e-01
-9.853730555698977933e-03 -1.216078747574831642e-01 4.942141746971066563e-01
-7.680697747815216914e-02 -1.035293471792290837e-01 4.412274384155510099e-01
-9.530449944789236294e-02 -1.089253872294583120e-01 4.915222589086422622e-01
-1.815831007093396052e-02 -1.141784996892390436e-01 4.795450451259871127e-01
-9.205250130838645017e-02 -1.095335816053293609e-01 4.840858949483557438e-01
-8.054544949287441302e-02 -1.096823203464803859e-01 4.695947088215589593e-01
-8.923548784043860982e-02 -1.012917635794606946e-01 4.494601000389079615e-01
-1.159640065006114704e-02 -1.239973937168744739e-01 5.230748668305047477e-01
2.765229598740806625e-03 -1.143502522517318432e-01 4.750583209553100872e-01
-2.741200387892689036e-02 -1.193508522891002094e-01 5.267327787642445136e-01
-5.832707125787210678e-02 -1.020605524586585683e-01 4.220002564061637873e-01
-5.450996165174142732e-02 -6.273273861937178619e-02 4.290576814312240805e-01
-5.696351426096174508e-02 -1.113989579236276534e-01 5.307981422791012704e-01
-6.181192784451535610e-02 -1.082470980124479315e-01 4.605693157817369876e-01
-3.266048648990673570e-02 -6.036417015785123380e-02 4.357297982292678284e-01
-6.537989886128314776e-02 -1.055965455306151352e-01 4.474553525372408913e-01
-4.728602256077966970e-02 -1.098433474746272759e-01 4.703126676044575571e-01
-9.981061041239563253e-03 -1.180344104100504998e-01 4.829505159167035155e-01
-8.312435584129512084e-03 -1.206675034160793608e-01 4.906532525839729098e-01
-6.072650538714321339e-02 -7.779718408074386138e-02 4.240196274707116464e-01
-5.885476742080625323e-02 -9.688879292063876103e-02 4.214705701391768256e-01
-1.442580425503924013e-02 -1.213826799427205061e-01 5.382470751295407307e-01
-1.031664723828788072e-01 -1.068611488676250859e-01 4.867009217012467914e-01
-6.284615945653032609e-02 -1.041142266293477170e-01 4.352643924797358621e-01
-7.124961919730070370e-02 -1.121317604666234174e-01 4.913249351846882829e-01
-4.398961702435714993e-02 -5.612604511493653192e-02 4.326871939602283668e-01
3.223888780107308019e-04 -1.158942967929502826e-01 4.772796859491389987e-01
-1.000591468287645447e-02 -1.242232770447756485e-01 5.262415439983756382e-01
-5.684688630862390346e-03 -9.857912078120718846e-02 4.557458639907654430e-01
-3.339014901187034590e-02 -1.134921877045726585e-01 4.824989894704742044e-01
-1.030397082742190995e-01 -1.064859127574407510e-01 4.953953252540368446e-01
-7.490952154407030938e-02 -1.083892609269822976e-01 5.234170100429413885e-01
-9.376764329865266978e-02 -1.042841789104312772e-01 5.139299857564620932e-01
-2.650583660563092872e-02 -7.054871283791658287e-02 4.379791963278318323e-01
-3.559395640170840563e-02 -1.045920243373295172e-01 4.627657990502207497e-01
-5.114547916533355304e-02 -1.016856648487276249e-01 4.461251301286824344e-01
-2.006389665280903199e-03 -1.263107915249011559e-01 5.238365131751748782e-01
-2.295424761762802912e-02 -1.079503047158230505e-01 4.688290873190715247e-01
-7.421781220974125841e-03 -8.712645492622721199e-02 4.475611078921118979e-01
-7.103993887280671098e-03 -1.250726483969355207e-01 5.246785837420230303e-01
-7.435494335636136376e-02 -1.088747532439398730e-01 5.223330350147942225e-01
9.555024901793765166e-03 -1.266010210726495888e-01 5.239923552902213677e-01
-1.040918692485779187e-02 -1.093000118786169456e-01 4.669430611909067830e-01
-3.646011311771697738e-02 -1.003699466341190644e-01 4.556960205175949463e-01
-6.366949681808989348e-02 -1.071132821553693742e-01 4.560357922045905066e-01
-1.845448174704105229e-02 -1.218047374208644645e-01 5.257387508540248833e-01
-7.007397416517839595e-02 -1.036992373517090504e-01 4.367300303713632648e-01
-5.051703282344027768e-02 -4.048901025611164467e-02 4.358096108348138431e-01
-1.416962290639717237e-02 -1.191392332039078183e-01 4.882062996578394043e-01
-9.742164480076592747e-02 -9.812487123686393364e-02 4.546847891761647276e-01
-7.398754175721108939e-02 -1.045417866890065578e-01 4.444194600257179717e-01
-1.754980877698790465e-02 -1.223656395767518668e-01 5.223713309657143089e-01
-3.974642927855877653e-03 -1.068252646908942893e-01 4.639485123030437363e-01
-5.765504346040089406e-02 -1.137450115223617442e-01 4.925581771931126784e-01
-4.626704441048043286e-03 -1.131857326849652207e-01 4.725118008212393361e-01
-2.134918169222951162e-02 -1.161865074081717270e-01 4.861673137602007255e-01
-9.471302987631159687e-02 -1.081541552586555155e-01 4.722492953135128957e-01
-1.828298716592452466e-02 -1.135974205302571621e-01 4.782890723584302672e-01
-1.061326472914442438e-02 -1.223072669251738104e-01 4.978229167995614768e-01
-1.020997113038192849e-01 -1.047043217804330129e-01 4.671894347264181624e-01
-2.803668586078304076e-02 -9.792616001922671565e-02 4.550886055023370957e-01
-1.292761504165174796e-02 -1.168315708499047950e-01 4.818564873714307750e-01
-7.432403899412186321e-02 -1.051046253502664063e-01 4.482983364282495109e-01
-1.047858912292012751e-01 -9.975619915022221340e-02 4.632062512932330622e-01
-3.269017855501047537e-02 -4.334354447404747956e-02 4.364216870842424489e-01
-8.942934525507709176e-02 -1.099600654222912532e-01 4.826781760683747646e-01
-3.920951828688468144e-02 -6.194625349827254795e-02 4.336181823165599636e-01
-9.547333816368983039e-02 -1.001202843927590097e-01 4.531558499783019944e-01
-7.966993416208746626e-02 -1.100179230427288934e-01 5.104840686317394516e-01
-6.036593934557065583e-02 -1.040234334414788797e-01 4.407893461094224419e-01
-6.275080848979687487e-02 -8.916218758130889377e-02 4.205095887931549203e-01
9.184243913212618293e-03 -1.266878953384154571e-01 5.295466019609147423e-01
-2.951988980064614368e-02 -1.096488892719091196e-01 4.729600952815218862e-01
-9.144156301628346417e-02 -8.954405475833013273e-02 4.490115761026499674e-01
-1.097798788620464316e-01 -9.635759583370333281e-02 4.736977458609178404e-01
9.998679456576533425e-03 -1.266895813822021821e-01 5.253445243987479030e-01
-2.425476481904754664e-02 -4.749988161018035143e-02 4.382960126729327222e-01
-1.978554192639255319e-02 -1.169884376346700949e-01 4.875689107961355684e-01
-5.280198549269966152e-03 -1.149890915144904657e-01 4.755524739887378449e-01
-4.725285012785716832e-02 -8.623553183456471316e-02 4.292831904483946914e-01
-3.800878348688270514e-02 -5.815657444157403683e-02 4.342499621819788103e-01
3.859412572472712896e-03 -1.240457080258531852e-01 5.005848260364927915e-01
-1.007801327170124578e-01 -1.068845058893483912e-01 4.759556562067518426e-01
-6.416474605678811061e-04 -1.147059284655630867e-01 4.751922751627400410e-01
-5.510148433477451979e-02 -1.127462267399254453e-01 4.838875417594905581e-01
-4.267343447189490824e-02 -9.644116553473100484e-02 4.459808715351020192e-01
-8.403485569115012876e-02 -1.108611226726561871e-01 4.884844045054995143e-01
-5.887710623072436172e-02 -1.039677124423377952e-01 4.325340511141908539e-01
-2.542735300488941502e-02 -1.203076641184631923e-01 5.209761828887500279e-01
-1.197981027693699810e-02 -1.241902303980983863e-01 5.157584871495468626e-01
-7.010618490641452871e-02 -9.619746060933689891e-02 4.206849987729394669e-01
-5.270648405493310977e-03 -1.219277997464063013e-01 4.936754576511924175e-01
-5.756869899287976079e-03 -1.242730497747119578e-01 5.039714148031609886e-01
-1.329660774723591399e-02 -1.152939909109060163e-01 4.787843168639342450e-01
-5.868048766046445042e-02 -1.121366566492458250e-01 5.272583908351970994e-01
-9.940387230334567226e-02 -1.059699179070129615e-01 5.037019977834852336e-01
-8.856185065534066814e-02 -1.099085122260646946e-01 4.781544800256902761e-01
-1.865838899360284034e-02 -1.195520132578247741e-01 4.941695431531946681e-01
-2.270895300379881243e-02 -9.142842913849136277e-02 4.488273377887364024e-01
-7.509606556263752342e-02 -1.116076786331377385e-01 4.879036306969999903e-01
-3.945223940110538507e-02 -1.107552283821900407e-01 4.759352691292076942e-01
6.794913169137186543e-03 -1.258392787460928253e-01 5.351725838548134773e-01
-5.893204905978286640e-02 -1.141091121088366328e-01 4.988404185357848686e-01
-5.697291362209686710e-02 -8.262978343456037211e-02 4.231148522672522061e-01
-6.428243964547331046e-02 -1.029605489539690416e-01 4.227027192342558970e-01
-5.369785219509706775e-02 -1.151180798436494956e-01 5.130179898684877893e-01
-4.451433505308414335e-02 -1.078392651772187155e-01 4.645625866555863626e-01
-2.863012675888174791e-02 -1.192901754335985304e-01 5.236122481007244867e-01
4.557210772129839139e-03 -1.270026656782143604e-01 5.194477700396229469e-01
-7.194523928860843687e-02 -1.111090093095211118e-01 4.780709970560072519e-01
-4.823620848258194926e-02 -1.022127114717043816e-01 4.502961195867243305e-01
-1.543441317787430309e-02 -9.106469590267775305e-02 4.484074766372521115e-01
-1.216594631960917980e-02 -1.232298986261865098e-01 5.057578836272811351e-01
-6.232966700776568225e-02 -1.120993717658874678e-01 4.821257115906981694e-01
-1.288891234090703414e-02 -1.237736354587239962e-01 5.205250233479447042e-01
-9.100317592305055825e-02 -1.065546562154427029e-01 5.105263958789801881e-01
-2.811229396471588704e-02 -7.021046529499280764e-02 4.375555102287139175e-01
-7.839214290463020554e-03 -1.247848636541543932e-01 5.262704030523548404e-01
-8.877601344595223432e-02 -1.070621174050314928e-01 4.629700584522444262e-01
-7.801089415259117310e-02 -1.109582795240452446e-01 5.071606845564189392e-01
-3.379048709548536367e-02 -7.485748328216015879e-02 4.364949950366070475e-01
-7.616926275240498700e-02 -1.027595879215182223e-01 4.381780822437617573e-01
-6.310387844081223607e-02 -1.111526539323809265e-01 4.739531875382786974e-01
-5.208911043621483605e-02 -9.280055543738431612e-02 4.253759891558944184e-01
-9.798292935061088393e-02 -1.078263879666838676e-01 4.757954607945067416e-01
1.010077877847943145e-02 -1.265409231093078402e-01 5.202366796078284894e-01
-2.965814945618018995e-03 -8.586512101221704940e-02 4.478996483395302763e-01
-7.791873651959289881e-02 -1.074860200004580935e-01 5.227827910050334426e-01
-3.728003744225763527e-02 -1.028683594487774661e-01 4.592037365325270515e-01
-4.716445814089101352e-02 -1.111366354254582772e-01 4.758865028810990161e-01
-3.632495166218695226e-02 -1.163660865402181693e-01 5.341721442822335852e-01
-1.825482384256139901e-02 -1.224434450129813223e-01 5.119710934507740729e-01
-2.426969021284435327e-02 -7.929490874076906837e-02 4.413794978482117326e-01
-5.781647153471898386e-04 -8.117316879721993284e-02 4.460419268467064047e-01
-2.946133421363110114e-02 -5.370519332261741718e-02 4.366200368806366638e-01
-4.186615110939810591e-03 -1.068369702973223090e-01 4.639403033060869319e-01
-2.432319206678180273e-02 -1.161776297890684539e-01 4.881087708151337079e-01
-3.293457926604398400e-02 -6.731990476234481213e-02 4.358298248114457207e-01
-5.450022904697962578e-02 -1.011014963366022035e-01 4.251384236616809753e-01
-2.395486041137844663e-02 -1.200055655240221258e-01 5.287815021190699349e-01
-2.664198741853637115e-02 -6.995853681654332079e-02 4.378491586776209199e-01
-6.151845658161343711e-02 -1.046631805333052972e-01 4.430754944602416923e-01
-6.872629316142386813e-02 -1.116453995452017789e-01 4.820801109894798375e-01
-3.933853342837962189e-03 -9.092715774822521246e-02 4.502745960595319064e-01
-1.084285162679605452e-01 -1.000647437505707005e-01 4.714875331777746426e-01
-4.438867823119975464e-02 -7.553709288809699884e-02 4.310818080712519595e-01
-1.067763466588286525e-01 -9.213431496635635098e-02 4.695106467951788431e-01
-8.079670955035173074e-02 -9.100260404971560746e-02 4.315345601903045059e-01
-5.256124645275183499e-02 -8.438354678990521440e-02 4.248996138801467426e-01
-5.702689744968736374e-02 -1.128445554751186242e-01 5.256804251228625047e-01
-7.694400566477278824e-03 -1.248861346005590012e-01 5.113901950334925894e-01
-2.066264578604721722e-02 -4.342363410236227406e-02 4.387489509071847982e-01
-2.859876395781169728e-02 -1.196076210367330722e-01 5.196986274629836755e-01
-8.349666732352972742e-02 -1.109590187594450966e-01 4.839877715984681195e-01
-8.800848373058131613e-02 -1.085155007674313415e-01 5.066599571128505008e-01
-3.873043327419103954e-02 -4.948793560572309347e-02 4.346093998963274085e-01
1.366887511419280195e-03 -1.268810712486863612e-01 5.218373800419956465e-01
-3.081791039568422888e-02 -3.517728035793393770e-02 4.371900520146037028e-01
-2.564059895156921981e-02 -4.546901222903385054e-02 4.382177590198453876e-01
-4.761165056315119770e-02 -9.815927402941050650e-02 4.434764049698257660e-01
-4.294113470666011123e-02 -2.968009581415537515e-02 4.353976678781065202e-01
-7.421298260910259847e-02 -1.085584903925606304e-01 4.630575745994602865e-01
5.579557994437661303e-03 -1.242620844015832338e-01 5.019792806200411572e-01
-3.716278473972080276e-02 -1.165286789115521221e-01 5.316482242389352075e-01
-5.064811282981684926e-02 -5.706764920761183552e-02 4.315049854073696456e-01
-6.119974239295002810e-02 -1.037849816213387288e-01 4.366691596061260117e-01
-5.074895787413058468e-02 -1.155586958001365155e-01 5.147652725082294545e-01
-9.312685641400450520e-02 -9.758258652416554324e-02 4.503195971387071728e-01
-5.830174226283250938e-02 -1.066482859853874199e-01 4.556647222532378416e-01
-6.828025531734120690e-02 -1.013331926210292028e-01 4.236436151192105593e-01
-2.083498667219993092e-02 -8.250360240694656899e-02 4.433119335935094552e-01
-8.009671959830719223e-02 -1.046732999899834121e-01 4.498600913894063025e-01
-9.237559176176253495e-02 -8.924027590197869397e-02 4.508138786051946734e-01
-4.920060841525431689e-02 -9.530272989474654344e-02 4.332733318965599767e-01
-6.670617521453046928e-02 -1.037824303942753434e-01 4.326926640273051072e-01
-2.312480994899124634e-02 -1.201622963581430448e-01 5.020946132169598064e-01
-4.117201565937583796e-02 -1.153703731423865869e-01 4.920547887466212300e-01
-9.135014305250538716e-03 -1.243069952466494682e-01 5.085973124006634150e-01
-2.149597220998626657e-02 -1.191016843093248567e-01 4.962367415624258093e-01
-2.069630160537686697e-02 -9.137602166804860426e-02 4.486068502822352366e-01
-1.885223932250726375e-02 -1.221570099737458032e-01 5.198997206408271232e-01
1.830523939468066625e-03 -1.083841863958657642e-01 4.663072962457644466e-01
-8.088244095435818959e-02 -9.544528435339975914e-02 4.328422544418314422e-01
-6.504999121398535866e-02 -1.078171375349212535e-01 4.590002088875115849e-01
-3.805910421519129866e-02 -8.950246032080313996e-02 4.424807676613346508e-01
1.034251973408393567e-02 -1.266866619441145703e-01 5.272569405685605393e-01
-2.619159720891176338e-02 -1.200764725371310654e-01 5.065719045892086436e-01
-2.355833378530400660e-02 -1.036689029610568247e-01 4.627550977973212132e-01
-4.530391964710354935e-02 -1.157352611569395229e-01 5.242527898008271237e-01
-4.646263805892743987e-02 -1.049381958690359801e-01 4.571480388291112584e-01
-5.809565051948238634e-02 -1.035068307992245973e-01 4.250505884231872145e-01
-1.817652947035436339e-02 -9.259278157566454281e-02 4.493941029014969502e-01
-3.045164581246662117e-02 -1.192691610844590216e-01 5.096458827079767273e-01
-4.914455355280414328e-02 -5.003498034983394627e-02 4.335749258342107004e-01
6.051473818711022509e-03 -1.260194298362118659e-01 5.337451270362389977e-01
-3.040913336650478277e-02 -3.944092803864619051e-02 4.372922079269859763e-01
-5.986891814816826946e-02 -1.105520325913570828e-01 4.706503703120454851e-01
-7.260942865374103716e-02 -9.149181376801356069e-02 4.204204228742166594e-01
-9.614114617767197113e-02 -1.040189153035870617e-01 4.600653732443781840e-01
-5.902743769532797780e-02 -1.120391102748009710e-01 4.804713918064850153e-01
-7.907135541961632375e-02 -1.082723171018051406e-01 4.628751830757144026e-01
-1.104370447092731661e-01 -9.305968129224628793e-02 4.756884036422104889e-01
-2.513071604906020814e-02 -1.178704212234050752e-01 4.943435656528762379e-01
-5.138767362730023436e-02 -1.046510068181057823e-01 4.531443277586474361e-01
-2.268124908355984709e-02 -6.853960436166085801e-02 4.386018295087699137e-01
2.193029655484501732e-03 -1.247934631963116409e-01 5.026178767145171866e-01
3.156955799783329759e-03 -1.263398532182229694e-01 5.301887095265394034e-01
-7.290840356731266569e-02 -1.096599119967997110e-01 4.686566550604102654e-01
-1.013168461708282078e-02 -1.239945844466820851e-01 5.079341027495655192e-01
-2.861195763505523793e-02 -7.448100927068129762e-02 4.383588060349236648e-01
-5.314772311151137740e-02 -1.151972595869018151e-01 5.112725447216122099e-01
-4.691614211061842510e-02 -4.038896114841836887e-02 4.347618718563821538e-01
-7.839925143102655092e-02 -1.032014539603979403e-01 4.425223919006213702e-01
-3.853312912555489911e-02 -9.213684012247672084e-02 4.443867818804623226e-01
-3.470705075347025464e-02 -1.160883401350370075e-01 5.376041947098083584e-01
-5.665528582888997716e-02 -1.023715780499956096e-01 4.370025617297362830e-01
-1.027347979710986903e-01 -1.069818499293281877e-01 4.860644573470171981e-01
-3.042785835567634808e-02 -1.193077902509047661e-01 5.105468490135303128e-01
-2.547945359438732668e-02 -1.133949385798814630e-01 4.800521770336371730e-01
-5.469668500523980348e-02 -9.391662637912899514e-02 4.231922449473587977e-01
-1.217151835082749649e-02 -1.080011237169698352e-01 4.652284486406021435e-01
-8.793906831001883917e-02 -1.045158691728034911e-01 4.545733515628397892e-01
-6.399500014462704278e-02 -1.105675571860619821e-01 4.715812370050244118e-01
-1.025615197266537409e-01 -1.070545298467460299e-01 4.868829964899171747e-01
-9.050203892133366901e-02 -1.029342609280805704e-01 4.533284753575089199e-01
-4.431917113675776232e-02 -9.156118194131961097e-02 4.397542713327836084e-01
-4.687532604984377682e-02 -1.102192550431381202e-01 4.721166621841652589e-01
-1.104975017663958475e-01 -1.018563883833880218e-01 4.917889107354606049e-01
3.847760488034612271e-03 -1.082503691121507461e-01 4.665169176576737797e-01
-3.080806378989884090e-02 -1.178372525527232872e-01 4.969740143524506992e-01
-2.946617964092812861e-02 -3.718319127115223693e-02 4.375227881596370216e-01
-5.539131530790363661e-02 -8.799964173279786750e-02 4.226485460169400743e-01
-4.657297384910891874e-02 -9.439857697261781755e-02 4.398722097492220873e-01
-8.501011795495486134e-02 -1.103385170828558720e-01 4.777506542831861935e-01
-8.031583489239750573e-02 -1.096291500989547141e-01 4.692512967199345963e-01
-4.121040575389958716e-02 -7.841749515667956194e-02 4.334565227760190376e-01
-5.575513405233172709e-02 -1.136049673223880757e-01 5.234358259453899542e-01
-1.546442856176943360e-02 -6.496570542518005642e-02 4.392461346786157850e-01
-3.041860733512731507e-02 -8.600301767606022274e-02 4.429362921505572981e-01
-6.926217783957282215e-02 -1.034508489959449912e-01 4.344205174894358312e-01
-1.852011037026589368e-02 -1.223270993874533974e-01 5.184969138947294054e-01
-1.961991020484826070e-02 -1.221311074181357231e-01 5.134565361953364881e-01
-6.737168866102030695e-02 -8.021515005195850589e-02 4.251956026629594154e-01
-4.220076068427214278e-02 -1.168680725729508429e-01 5.063309724624058816e-01
-2.990059391145813428e-02 -1.067413236048418701e-01 4.678836866323103916e-01
-4.282461293159431359e-02 -2.666605704341006716e-02 4.359340592448298080e-01
-5.812652795236103453e-02 -1.039640154550869056e-01 4.443788575172681887e-01
-4.051438258181482704e-02 -9.219903779269872368e-02 4.434739515878785010e-01
-3.886846969783196160e-02 -1.163415059953338965e-01 5.299028283864568589e-01
-5.110497918279598151e-02 -9.385318674459194876e-02 4.264487882640755623e-01
-6.567432044273750769e-02 -1.115996201078092998e-01 4.791141610479440760e-01
-2.781766883088514219e-02 -4.579228698107755402e-02 4.377718482232433872e-01
-9.344483924509364159e-02 -1.034311875914771944e-01 4.562280937742165809e-01
-3.210246785333169955e-02 -1.060309954911509006e-01 4.660866413117962237e-01
-1.194349005948971976e-02 -1.138899067786610236e-01 4.749719343021117091e-01
-3.426032295066792216e-02 -1.173011601207997467e-01 5.308530588288008500e-01
-2.933694573752872181e-02 -1.119222281045888084e-01 4.775775758523417291e-01
-4.021679677542365494e-02 -1.008943714738587266e-01 4.538777107258444299e-01
-6.655783329258482817e-02 -1.130366914195573835e-01 5.116596217101579969e-01
-1.805442704658762054e-02 -9.028918195249957535e-02 4.477144730176851883e-01
-4.645464475388655368e-02 -1.087607661891026312e-01 4.659383187440918617e-01
-1.008078521614289447e-04 -1.260209288334576960e-01 5.303208936017731467e-01
-5.223374405998228859e-02 -7.954019518097774077e-02 4.253522145715185054e-01
-1.668798354397402206e-02 -6.969917008816399473e-02 4.400294682573829275e-01
-3.440616224687961106e-02 -1.148908796697380996e-01 5.424221806183269212e-01
-2.185168473761949642e-02 -1.107759845361079992e-01 4.737830246334341910e-01
-3.918876828925280803e-02 -1.170163089840960957e-01 5.244255577377703315e-01
-1.400540883517748664e-02 -6.312409580779901330e-02 4.390691411046502846e-01
-5.867974545502958883e-02 -1.111682909407337161e-01 4.733446581058141645e-01
-3.492096492931791307e-02 -8.132809179094199759e-02 4.389271414484859912e-01
-7.195963667920370066e-02 -1.024007504319428413e-01 4.321611710944716078e-01
-1.830919850111895064e-02 -6.502015725409522606e-02 4.389057793202244540e-01
-1.198984874084049398e-02 -1.180909670952252633e-01 4.841899689869595402e-01
-5.196733139174347649e-02 -3.640604506237974519e-02 4.375933639910503103e-01
-2.393822925203642482e-02 -8.039797209963629732e-02 4.419224297163589221e-01
-3.757128611587290390e-02 -1.177180444656970859e-01 5.061444718698857592e-01
-6.362215987900830816e-02 -1.044174258174120629e-01 4.319527188923150685e-01
-8.877230998190069333e-02 -9.459292988053362439e-02 4.430636265967466958e-01
-8.144990434034297955e-02 -9.560406642820197531e-02 4.339011923862451381e-01
-1.093192008472371052e-01 -1.032443941493774442e-01 4.847360864184556140e-01
-7.896079456083719694e-02 -1.003791178218406688e-01 4.356404237066757723e-01
-4.546531417937121206e-02 -3.777558915460853955e-02 4.350013493968584166e-01
-3.946383080054758491e-02 -4.930105261767795538e-02 4.344816327466818895e-01
-6.831113331181926096e-02 -1.113535408265448473e-01 5.199897250895026968e-01
-4.787843080243066318e-02 -8.333061795973301100e-02 4.285811860989290900e-01
-7.443568118685210677e-02 -1.075585710366347980e-01 5.257287226288426263e-01
-9.281521548252842646e-02 -1.045332082269430501e-01 5.140717957892725343e-01
-5.921288564853598863e-02 -1.036088470290373320e-01 4.401265852553382651e-01
-1.552814354322336679e-02 -7.396550879326793670e-02 4.411246420349771435e-01
-8.414490665134205516e-02 -1.098552964782910923e-01 5.040679155848818427e-01
-8.019085642619909471e-02 -1.102143911319100889e-01 5.083968568524941389e-01
-7.737803490619750424e-02 -1.098165267089426661e-01 4.703185256837227879e-01
-3.060043570991569789e-02 -3.353707307387596842e-02 4.372360792429132448e-01
-4.819172964308793272e-02 -7.275349349707638247e-02 4.282656483900664224e-01
-6.176203793950822002e-02 -1.123922016252130035e-01 4.842946155481366310e-01
-5.729530108588158643e-02 -8.532949638221630495e-02 4.225303702106120163e-01
-1.305921721202631504e-03 -1.243499877156686306e-01 5.017904933454785388e-01
-4.687549377599833922e-02 -4.611423585661374169e-02 4.340403413225369378e-01
-4.055078551456958724e-02 -9.662750670594690006e-02 4.474693098564775373e-01
-1.032373441890560434e-01 -1.053457430435817965e-01 4.726865547533489198e-01
-6.344660176411329178e-02 -7.668027387413785256e-02 4.250613825213560570e-01
-1.012461153863913055e-01 -1.054910129695406235e-01 5.024702943293828383e-01
