-1.768328143384377896e-02 -1.223378523515149807e-01 5.078664234539763678e-01
-3.688481883204750705e-02 -1.181981721486407150e-01 5.055194739076512844e-01
-5.823065888220804731e-02 -1.143956107375419667e-01 5.191483189434741297e-01
-6.774515555759536012e-02 -1.136685586075062843e-01 4.967828651472998014e-01
-7.699901263181126165e-02 -1.122412242756919837e-01 5.038176483678822315e-01
-3.914048782144191607e-02 -8.002319650763160819e-02 4.346437594052172670e-01
-6.931868705273531994e-02 -1.111720394674546725e-01 5.215585825098572048e-01
-8.817634851378855498e-02 -1.104012900379304774e-01 4.704095674855708342e-01
-8.200883102505172884e-02 -1.066038844338400293e-01 4.522510159643439165e-01
-7.663328079152872951e-02 -1.113711199066236557e-01 4.721169404393359414e-01
-2.965654624482044061e-02 -1.054402827248891450e-01 4.645117856736541428e-01
-1.054478710799549995e-01 -1.057645894490145816e-01 4.744972542979832841e-01
-8.444283783735992421e-02 -1.098544966458249450e-01 5.083820516464406802e-01
-1.083265977162406746e-01 -1.043913381577202398e-01 4.797645454607986637e-01
-7.635786986174863955e-02 -1.051592928116274056e-01 4.407458708719124707e-01
-4.775374565936257171e-02 -1.013300391242363818e-01 4.451551821218555083e-01
-5.527749276908632686e-02 -1.153162313268586009e-01 4.998692060830888240e-01
-1.854174229670342566e-02 -1.203305125889361782e-01 4.969144439515539857e-01
-4.223856982543076899e-02 -1.016692398881279269e-01 4.513008475496863570e-01
-3.676058284915206809e-02 -4.112302478390673921e-02 4.349860900376210648e-01
-4.002585759923289049e-02 -1.158101192467057561e-01 5.328787296387232919e-01
-4.827817502152550316e-02 -9.609592410205662627e-02 4.309288239857873570e-01
-5.559740958055338356e-02 -1.108243964169366297e-01 4.672101502039581744e-01
-6.315872194314535448e-02 -1.133571489905505630e-01 4.858812364199420752e-01
-1.083691603747108552e-02 -6.094074914114119834e-02 4.387834980850592870e-01
-1.632918877102516181e-02 -1.202093843594223554e-01 5.414644161161301650e-01
-8.830528744738352920e-02 -1.052162191905649385e-01 4.526691242596799780e-01
-3.613688629299255384e-02 -1.180507320603416677e-01 5.225656959779977351e-01
-4.102633271042067237e-02 -7.564476310268965220e-02 4.325835444668055807e-01
-3.404684472351551111e-02 -1.187571925614588075e-01 5.066511521516035010e-01
-8.837139279844928585e-02 -1.102470903978482186e-01 5.010087014965199925e-01
-5.203133881485307033e-02 -6.483948404850950475e-02 4.286471791086944871e-01
-3.181242799900153850e-02 -8.814913191750956001e-02 4.430978134752792119e-01
-9.869713711081244678e-02 -1.071987248563375378e-01 4.671222103110198587e-01
-1.002303506255558530e-01 -1.079901789049012156e-01 4.741314116957355274e-01
-6.400478850801682995e-02 -1.046808790254064592e-01 4.223160030873658877e-01
-1.482339455183148517e-02 -1.227315469686533767e-01 5.277707626470177216e-01
-3.993535894674382636e-02 -8.891804969520492041e-02 4.393423655959077800e-01
-6.113028538632904463e-02 -1.059434861814817497e-01 4.342313141368068230e-01
-1.063578609768264099e-01 -1.008906272810567994e-01 4.671923001383812002e-01
-5.569540136296123600e-02 -1.086319056016204904e-01 4.591741883962034976e-01
-5.847680929272834616e-02 -1.149969121592141763e-01 5.054722313096172703e-01
-9.127113224676133840e-02 -1.098768146110511018e-01 4.707699134431956312e-01
-2.433322357323174090e-02 -1.203454255098434927e-01 5.251420361845235973e-01
-7.473937180151565829e-02 -1.038720747069024064e-01 4.336113758384025352e-01
-2.949205189275240762e-03 -1.102717030230794121e-01 4.676226467976223877e-01
-1.373194705477452301e-02 -1.233638523043994045e-01 5.237152714030731682e-01
-7.741484703528410394e-02 -9.955332899728472351e-02 4.290456451089072476e-01
-2.478686475979459750e-02 -5.619441773839781856e-02 4.372176004328030552e-01
-5.618973431920905315e-02 -5.352534303221200690e-02 4.344565885170030284e-01
-9.845098029834757625e-02 -1.069615972994961972e-01 5.045043259031126714e-01
-3.417394908074208176e-02 -3.918793601570087770e-02 4.359530554330549035e-01
-2.651895980729983976e-02 -1.202997964229868960e-01 5.086306444405778171e-01
-4.171958710704280066e-02 -9.394897761086494492e-02 4.426449359964604313e-01
-5.747406761452664159e-02 -1.072661184975229054e-01 4.517698743052225852e-01
-7.896756650658386112e-02 -1.122363260965778264e-01 4.998735779428954418e-01
-7.476760973467140928e-04 -9.027830632802705257e-02 4.502641199402637739e-01
-9.275231488736837560e-02 -1.103573043021488925e-01 4.765188193128089278e-01
-3.846344711596657445e-02 -1.073571030067323184e-01 4.645509122351614284e-01
-3.827383256994086602e-02 -1.179640212043548547e-01 5.058644142859509696e-01
-2.404314702602999843e-02 -1.129609022113092359e-01 4.780703487922519646e-01
-2.184165136759984999e-02 -1.194829377622473460e-01 5.375580457671483847e-01
-5.747981450321278107e-02 -8.155074205225322503e-02 4.234317146035979085e-01
-2.399907041896368401e-02 -9.838324610142074045e-02 4.555173685637148862e-01
-4.289599370936322820e-02 -2.988212147560169799e-02 4.354430286491007274e-01
-7.111301492433597798e-04 -1.203293097615279889e-01 4.874166774111113321e-01
-7.824436620355411376e-02 -1.113049416653686952e-01 4.716241044634328916e-01
-5.531688632433595654e-02 -8.854191632888488983e-02 4.223196483012800484e-01
-4.602631606852944368e-02 -1.166841243652661231e-01 5.044307486843703225e-01
-3.778966503308500702e-02 -1.144356865881210605e-01 4.856709775479945423e-01
-4.552093923312125479e-02 -6.722265556975702550e-02 4.299337258851316790e-01
-6.795330092025950175e-02 -1.129818250944827213e-01 4.855485488514483805e-01
-8.324569108845818188e-02 -1.117991281884212623e-01 4.789999088920946502e-01
-9.116099967488840161e-02 -1.108544225022036617e-01 4.869108472654197217e-01
-2.595171548047653376e-02 -8.909603832079880659e-02 4.453370931433346391e-01
-3.318825849317682012e-04 -1.264439301320156306e-01 5.256293232379343205e-01
-9.492086998028582967e-02 -1.056827949207209266e-01 5.115701086338692027e-01
-7.394503902429494513e-02 -1.040464536543074525e-01 4.336465339912138894e-01
-5.422257931659931612e-02 -3.389586585476071084e-02 4.438157311082064349e-01
-8.984559468062315590e-02 -1.087082336134347627e-01 4.647694109788967354e-01
-7.175655195003279030e-02 -1.015426003272145994e-01 4.250231212099478406e-01
-3.828140863042941294e-02 -7.861565868410812230e-02 4.346218059640593601e-01
-7.359859809966423638e-02 -1.126397924513037052e-01 4.843811240592172940e-01
-3.126960803400709310e-02 -1.127807366575592635e-01 4.786113872878229869e-01
2.370066491267422241e-03 -1.256836264377248491e-01 5.064165633769242003e-01
2.143494734923707956e-03 -1.207283052371388582e-01 4.889496855693219457e-01
-8.616591874172219168e-02 -1.075548102880149598e-01 4.573576050460055331e-01
-1.974726004651749731e-02 -5.318697397887862943e-02 4.380655468236824834e-01
-7.961526296204137626e-03 -1.173202681045343587e-01 4.799939641854338301e-01
-2.834591306464814484e-02 -1.095589450557048344e-01 4.716141157926985183e-01
-1.385396611406836294e-03 -1.223380965115920260e-01 4.940645314955102174e-01
1.084705425758751215e-02 -1.265697245494180612e-01 5.215804142685090961e-01
-3.166709718175483163e-02 -3.422360283367205380e-02 4.369717995439835190e-01
-3.682145271717111173e-02 -1.148346638672224362e-01 5.414886652803138078e-01
-8.753416960244719824e-02 -1.111553106652798245e-01 4.764274820830485258e-01
-5.708545471189994946e-02 -1.151991043030389378e-01 5.118790726670782165e-01
-6.145518071205712668e-02 -1.140016476809708190e-01 4.910204755397605259e-01
-5.432455252888804959e-02 -4.618914430613503541e-02 4.359985524137387491e-01
-1.862659985473123433e-02 -7.964595090443915559e-02 4.421778054152420423e-01
-2.422255534164574620e-02 -1.176187236397719937e-01 5.429861746006592327e-01
-1.094620679650086109e-01 -1.038292560456225422e-01 4.920926696727865868e-01
-2.156118068272315155e-03 -1.215552747696951319e-01 4.913851588628763145e-01
-3.107088920164822674e-02 -7.088158485367088146e-02 4.365342602931425731e-01
-1.025890953019654300e-01 -1.081453071704634866e-01 4.861834466475070671e-01
-1.636911006915083011e-02 -5.892144759321992636e-02 4.383824113750222629e-01
-6.511116943416651870e-02 -1.133601013669773006e-01 5.166874718861050875e-01
-8.181079614898423280e-02 -1.116745202609013971e-01 4.759315418812829490e-01
-3.823669439249711283e-02 -1.160575693329102265e-01 4.915101269587296429e-01
8.242965786314527046e-03 -1.267922470983987027e-01 5.180740112791593077e-01
-3.121325769803138389e-02 -8.864563056453889089e-02 4.436300418639507193e-01
-2.101703858659118712e-02 -1.216189394401228641e-01 5.099723576693857563e-01
-5.412184387799483243e-02 -3.211430618064930326e-02 4.442273575052778645e-01
-2.654400763963144384e-04 -1.254688563936281753e-01 5.069644501709853479e-01
-5.730808114969208888e-02 -1.144181346258707072e-01 5.203511716094179063e-01
-1.275448724373353521e-02 -1.077128475517309392e-01 4.644462521712809933e-01
-7.575084818332705749e-02 -1.119264887655446600e-01 4.759264993545287425e-01
-8.229754988800462231e-03 -1.251232375148308984e-01 5.165760237427921009e-01
-1.414357227334136179e-02 -1.213990629943195731e-01 5.384804970540144620e-01
-5.507402236934697687e-02 -1.139103507779044011e-01 4.856136174112060111e-01
-8.482398039601404816e-02 -1.094939549463804784e-01 4.646062492249704579e-01
-7.064728151328437955e-02 -1.121564233813083650e-01 4.771486883261483736e-01
-4.808785967317817656e-02 -7.277304731283146255e-02 4.279143730808294688e-01
-5.644548254727706216e-02 -1.068985056461437128e-01 4.508187377200194579e-01
-6.397560948490702004e-02 -1.104439902627332576e-01 4.655684855754623208e-01
-6.558888370041864035e-02 -1.131579838889981565e-01 4.856577678306103207e-01
-1.995676427989467178e-02 -1.171198784263725312e-01 5.482319385163756387e-01
-3.308510429807316744e-02 -6.549530052942947878e-02 4.354873614880666044e-01
-6.911876280893917979e-02 -1.001011747925038414e-01 4.212106745411745568e-01
-6.247517224799099822e-02 -1.140134180274339909e-01 4.922391235459452341e-01
-2.828330311018978707e-02 -1.122092540322154192e-01 4.768951083486735465e-01
-1.416283596584999235e-02 -1.114540838837128484e-01 4.712101677741937777e-01
-2.420609830371449767e-03 -1.262267414160238854e-01 5.219457302437235935e-01
-7.640330298353584237e-02 -1.124008391588477429e-01 4.813541084766959632e-01
-9.505405498051233693e-02 -1.028475864768227666e-01 4.536735733308400187e-01
-5.889294287845579096e-02 -1.135198222583342076e-01 4.838464590401240217e-01
-4.268337836041448397e-02 -3.824365135943640082e-02 4.346939844873078940e-01
-3.012788763653814761e-02 -5.662496904726766617e-02 4.360036941691325385e-01
-1.614916739653905406e-02 -1.030742493693464212e-01 4.597928713840471193e-01
-6.032898072536435619e-02 -9.365722652102409507e-02 4.203240951516118429e-01
-4.323644492100233577e-02 -1.122476487537790169e-01 4.783048431570909309e-01
-5.799662829198205458e-03 -9.370987030745051016e-02 4.514826532895115374e-01
-6.399093799682206707e-02 -1.131266598203193308e-01 4.841671828709571135e-01
6.770271221196095743e-03 -1.259808103091791531e-01 5.342818638162177836e-01
-5.662728962794491561e-02 -1.060743393188122996e-01 4.287374156736447617e-01
-6.416399802837943755e-02 -1.142008875338486606e-01 5.080033050058938571e-01
-3.936118284509367710e-02 -1.125745033030287195e-01 4.796038777200146708e-01
-5.031897947743116384e-02 -5.426677750661360738e-02 4.326857539643111372e-01
-6.381918850514804731e-02 -1.139717446141697704e-01 4.942258839601711418e-01
-6.911775234806478985e-02 -8.454873292478082281e-02 4.235479080987982758e-01
-1.122047475016404172e-01 -9.922205528913520534e-02 4.787886554698429498e-01
-4.303170076682269474e-02 -8.620254232279567219e-02 4.337993327192483650e-01
-2.823150843595909759e-02 -1.156082231383066677e-01 4.860924108774053454e-01
-6.124717122688733140e-02 -1.126180828768478664e-01 5.244524934180342379e-01
-1.466831183178668799e-02 -1.204168760235862778e-01 5.419371289284057314e-01
-8.800008361928475520e-02 -1.045193627862572167e-01 4.503992878021080837e-01
-1.858366645846841816e-02 -9.447817443602540832e-02 4.510016445061275636e-01
-4.250187087434888905e-02 -7.899755796730367763e-02 4.322769309243272851e-01
-2.816281083183185679e-02 -4.850589393831397644e-02 4.375892684288418821e-01
-4.800455068974015388e-02 -6.386707749943963675e-02 4.294596963322259708e-01
-2.092850846500031795e-02 -1.182603540294749067e-01 4.915958097716552899e-01
-2.796032229212858100e-02 -5.097370754198687903e-02 4.374271501563246622e-01
-9.845514336906906194e-02 -1.002591852936966510e-01 4.572762518137151733e-01
-8.208881532790503199e-02 -1.086348379557334765e-01 4.595410128381964832e-01
-7.895414649479046143e-02 -1.039879187506828340e-01 4.401184107923115651e-01
-3.644072434590558962e-02 -1.183867528199388508e-01 5.163694374987889413e-01
-8.687385097974908987e-02 -1.051623108439437987e-01 5.199433993824094102e-01
-9.979761198048617277e-02 -1.088515700305359296e-01 4.905376765958059382e-01
-6.088047614036529859e-02 -1.038794702450402674e-01 4.217682555838869751e-01
-7.415520554936459730e-02 -1.062044014626771921e-01 4.445508061650987330e-01
-7.766657325388731659e-02 -1.044072654459924088e-01 4.392243537954319543e-01
-6.030050619070063955e-02 -1.069518045039898196e-01 4.473120913639224150e-01
-1.091616212534164826e-01 -1.044012490506174562e-01 4.965110757485786674e-01
-8.041473688876217552e-02 -1.096314660336196595e-01 4.631884359747616697e-01
-5.851299680725654401e-02 -1.065715496947216706e-01 4.476442868073305936e-01
-5.100923801063303453e-02 -1.159100791258565327e-01 5.005784868094290685e-01
-9.048510027193638894e-02 -1.109885295735420080e-01 4.888835815866551804e-01
-6.874805822592237881e-02 -9.721826032864505640e-02 4.194372150540729982e-01
-8.700057401631958176e-02 -1.108026104087258545e-01 4.720229023604226581e-01
-2.102580003301028275e-02 -4.837823129303545772e-02 4.385378435330543612e-01
-7.058204929542032102e-02 -1.129882394835761417e-01 4.888087176381338828e-01
1.351279664825290674e-03 -1.123063205601633752e-01 4.710268602150445849e-01
-6.205170676947244918e-02 -1.139883012517303867e-01 4.915209301162033473e-01
-5.884697515913465266e-02 -1.080477895286173634e-01 4.553055204875799400e-01
-4.767740742975198204e-02 -1.112541162998213623e-01 4.717827609741725436e-01
-2.812139943322030516e-02 -1.131140832256606749e-01 4.790062723424573510e-01
-4.377713883930493821e-02 -1.165295477025175414e-01 5.231570523701669639e-01
-6.822732634294853549e-02 -8.620181178659146182e-02 4.220208968965106222e-01
1.087604611751043096e-03 -1.014357446010279024e-01 4.590466476929536133e-01
-1.635754790889573651e-02 -5.846419832734649907e-02 4.383428688490220160e-01
-2.921918529232193917e-02 -1.193057069756864458e-01 5.019766314495952564e-01
-7.663055017601194674e-02 -1.058824610525900406e-01 4.444358043619188736e-01
-1.603118219604891120e-02 -4.504122565304845283e-02 4.383011303660042102e-01
4.638885211300510653e-03 -1.074392251917390545e-01 4.654906592221637052e-01
-3.496490101442419757e-02 -3.603820447969456608e-02 4.358498465020518298e-01
-5.080868757787590506e-02 -1.158560712849331931e-01 5.166393673223177441e-01
-4.559486251232933163e-02 -1.029594629875786177e-01 4.508889751330419915e-01
-7.337070258297767600e-02 -1.046076050324388912e-01 4.359920009627206716e-01
-4.191602072713683513e-02 -4.582933963301635133e-02 4.341570124404219855e-01
-1.243664758718139585e-02 -5.392242977853316244e-02 4.382084466603499151e-01
-6.462070590240646603e-03 -1.239610082298379795e-01 5.330359392085646242e-01
-8.033990154895048752e-02 -1.117556496783243536e-01 5.016354779100065109e-01
-4.179515373941553036e-02 -1.169732559226915047e-01 5.223737221532099850e-01
-5.496735990999536414e-02 -7.637714243597394648e-02 4.247691188344018265e-01
-8.102291929567589923e-02 -1.076866391417850566e-01 5.200527852308782784e-01
-2.558853615649830590e-02 -1.023782891643818110e-01 4.605934522345873083e-01
-5.061690266454439008e-02 -1.081498114162472574e-01 4.600477847024792011e-01
-1.028561584006123034e-02 -9.746955498464701662e-02 4.538665794719678459e-01
-7.395938138776415177e-03 -1.245083684855715356e-01 5.068923916364822535e-01
-5.699883926665096773e-02 -1.112688546307979975e-01 5.322435013214330546e-01
-4.757958670585271665e-02 -1.112017584504214340e-01 4.716052548319528137e-01
1.059193315148319360e-02 -1.265582328164803760e-01 5.197606347445972164e-01
-2.304836461564918962e-02 -6.191858044654287296e-02 4.376310745161918758e-01
-4.202755366778197776e-02 -1.174364778999914816e-01 5.111584663661500327e-01
-6.599445694077840652e-02 -7.911968725270324132e-02 4.266853544497530293e-01
-1.007385383337662671e-01 -9.054376772217571923e-02 4.634829851094492414e-01
-6.600550463406773538e-02 -1.126034015965074048e-01 4.789804188199929813e-01
-5.827851808847023252e-02 -1.056468411912338534e-01 4.244252787665254156e-01
-8.382030295805473208e-02 -1.090944561972228138e-01 5.125439213301088426e-01
-5.999687309350280190e-02 -9.128315202097372905e-02 4.206650647269998822e-01
-3.786456170867549126e-02 -8.696475289894162186e-02 4.391217117242600665e-01
-3.070819255426584377e-02 -1.192678262523098193e-01 5.205199915533023081e-01
6.245389506963799561e-03 -1.256901853290954274e-01 5.085313708151419920e-01
-4.702434424435156246e-02 -4.139557785511491228e-02 4.347313839063965402e-01
-9.869383232508484316e-02 -1.081790846191369171e-01 4.721690347611186001e-01
-1.991501554088209031e-02 -1.221069247719653444e-01 5.137467236611306109e-01
-5.843203936965144646e-02 -1.138130289895401270e-01 4.860182328060833612e-01
-8.304932936534568932e-02 -1.104060680126834892e-01 4.673198113313626889e-01
-6.022957809220422232e-02 -6.530178532265670799e-02 4.306832376886358116e-01
-5.187009590552643656e-02 -8.677431124379364480e-02 4.247500097948105346e-01
-8.638603505928457021e-03 -8.672291541832860551e-02 4.468971506272419458e-01
-3.827687936645562256e-02 -1.153097951006104849e-01 5.381786516296027667e-01
-7.950413215700603831e-02 -1.102115936866618351e-01 4.654207266744020410e-01
-8.587654961977173040e-02 -1.066957675336240863e-01 4.550604696662507442e-01
-5.589441650225082658e-02 -1.045207966469917787e-01 4.358750871985344055e-01
-8.969922166077561043e-02 -1.087027695472279343e-01 4.646252042092180456e-01
-2.658322194071548877e-02 -1.169799160697338331e-01 4.905879641322740681e-01
-4.079580228936315056e-02 -1.029156504281087264e-01 4.546629553629200071e-01
-2.267505796875468951e-02 -7.672030964697741651e-02 4.402515471777140865e-01
-4.843377681787940786e-02 -1.041741712527947117e-01 4.508482765916535517e-01
-1.175064352788657632e-04 -1.263972937678821962e-01 5.141180196535538593e-01
-3.476661698905757908e-02 -5.273301120425399197e-02 4.351157489925793764e-01
-1.882557815072029295e-02 -6.381343540880855814e-02 4.386169457494795698e-01
-2.315760036719888629e-02 -7.667730442612451236e-02 4.401480755213678098e-01
-4.467702068196226922e-02 -9.463912404275291734e-02 4.406139155708552746e-01
-4.665708720744807941e-02 -6.326154558306627818e-02 4.300756913913660884e-01
-7.679672124612667294e-02 -1.039532894299662336e-01 4.363618594877921586e-01
-9.393748099461006473e-02 -9.469973510189090560e-02 4.510831435727500338e-01
-5.354006791891299799e-02 -7.906122244611431260e-02 4.248184488202053077e-01
-4.414218422912705164e-02 -1.171042886976990521e-01 5.102283012732792278e-01
-1.031086215493968034e-01 -1.050971135795364941e-01 5.033790188006563859e-01
-4.207463789260852682e-02 -1.006000418699378174e-01 4.496626492183440904e-01
-3.279140887843536717e-02 -9.823315979808018572e-02 4.522693170861646350e-01
-1.024320568708702861e-01 -1.079780360291252433e-01 4.808077024997887139e-01
-2.141031810830352003e-02 -1.084067514296660484e-01 4.685497826993770265e-01
-4.603613162279289461e-02 -5.088299471953129649e-02 4.336086749218376890e-01
-8.689155423826772084e-02 -9.735223453112881731e-02 4.421052595955975439e-01
-2.357326562956338356e-02 -1.181811599502808063e-01 4.935720494128993385e-01
-1.685939844177648458e-02 -1.213684723233817569e-01 5.348026423498535298e-01
-1.445974601991549188e-02 -1.204409004346027046e-01 4.925214019722148340e-01
-9.344099325827659452e-02 -1.104177702146542234e-01 4.837085187565092204e-01
-6.809141243061289650e-02 -9.453010927342504754e-02 4.188719085862244174e-01
2.422201386848608397e-03 -9.271063438634000176e-02 4.521141073911407737e-01
-3.013392408560495311e-02 -1.170712809752920136e-01 4.923295464274215494e-01
-5.124639383554235178e-02 -5.048335183940960702e-02 4.340186594055872038e-01
-8.357667446113309362e-02 -1.120393456664287579e-01 4.850210754321743201e-01
-5.797876196928819503e-02 -1.150630925644593600e-01 5.060227153168601610e-01
-6.938425519841311118e-02 -9.098891326666348756e-02 4.192637033445434924e-01
-9.221235891439075183e-02 -1.036711381249729030e-01 4.533273750078399278e-01
-6.340567010532473236e-02 -1.089176049432066667e-01 4.578333273648079182e-01
-8.041926642170155182e-02 -1.048874396343672383e-01 4.461016568297671014e-01
-6.614182708757462836e-02 -1.135779853884875540e-01 5.130979053386810484e-01
-9.211083484003881883e-02 -1.013155032944534628e-01 4.515662883652082349e-01
-8.245682488361966156e-02 -9.959268088427299104e-02 4.381923783423300467e-01
-7.972587817403820054e-02 -9.874469628698681611e-02 4.323981939809602437e-01
-3.604714867595456597e-03 -1.131645065088573293e-01 4.720640267548183999e-01
-7.556989536212954661e-02 -1.031104092728677007e-01 4.323481760725911283e-01
-5.626096567559632500e-02 -7.834804170988864114e-02 4.241372357828256945e-01
-7.520317045706285432e-03 -1.236074369104075005e-01 5.011438362121501955e-01
-5.836244106661135633e-02 -1.138239435771122854e-01 4.860528458664112317e-01
-3.484096506853431863e-02 -9.053474127260421889e-02 4.437720764083561975e-01
-4.573098378449842044e-02 -1.113841564424342540e-01 4.735201898800291409e-01
-7.622054728060086159e-02 -9.417474250342842967e-02 4.255760540883992138e-01
-4.701296889025803616e-02 -1.163987216117612078e-01 4.987800083816281149e-01
-1.039574624913530004e-02 -1.218827001658849968e-01 4.951962304242140123e-01
-9.572869286939952871e-02 -1.098775568338463543e-01 4.803772933344727658e-01
-5.735042559402055845e-02 -1.148138283165969498e-01 5.165614287563683460e-01
6.393364799131362984e-03 -1.264517619027354933e-01 5.302082787856484680e-01
-2.795484308066188348e-02 -9.061411971848891411e-02 4.461871297657291624e-01
-5.164376240496689613e-02 -1.155694010993744414e-01 5.180603181483084407e-01
-9.782109992778399710e-02 -1.093916359442136804e-01 4.786922357384744697e-01
-8.166848875392621054e-02 -1.092125584218523043e-01 4.617323271873703394e-01
-6.491247685395241940e-02 -1.132092080996290745e-01 4.856774762713743643e-01
-4.577899075755349767e-02 -8.693411118264281201e-02 4.297808386580984075e-01
-9.584933692056389620e-02 -1.071325401327976323e-01 4.634957014515140861e-01
-3.225263805069920192e-02 -9.984579607950931635e-02 4.549792898190433976e-01
-3.045309567538396350e-02 -1.130203949111425882e-01 4.792322582225953531e-01
-3.146616471488361891e-05 -1.113548142779740568e-01 4.692510122238365833e-01
-4.491059282580704866e-03 -1.039544341523425813e-01 4.605848203130026852e-01
-1.491682963342636642e-02 -9.689126515209890711e-02 4.533498179037568909e-01
-4.462166235423357073e-03 -1.257666262134741753e-01 5.147943927335725256e-01
-2.445350079552294220e-02 -1.195932215171264246e-01 5.321772885641862239e-01
-8.483810484515516559e-02 -9.538996216916513504e-02 4.387757436151925594e-01
1.534421575679492580e-03 -1.188973962335634210e-01 4.838361466327217864e-01
-9.089212503079457939e-02 -1.107517274520565809e-01 4.944720052515558795e-01
-9.268199013829272331e-03 -1.111619565710805224e-01 4.693520871444159526e-01
-7.518438432505032687e-02 -1.081340590972911936e-01 4.555299793246901929e-01
-1.188434399104636337e-02 -1.212995067151265149e-01 5.407706989548022314e-01
-7.619600122378301921e-02 -1.038912656603476758e-01 4.353544603812289360e-01
-7.140711773612017088e-02 -1.045079264186005302e-01 4.329844454252877450e-01
3.847947372150518734e-03 -1.136526255293436871e-01 4.737077403757641303e-01
-2.561189393439017303e-02 -8.607637720163323347e-02 4.436962745402756592e-01
-3.106336222978762357e-02 -1.186764596918012116e-01 5.264221483651482236e-01
-2.260438443592710511e-02 -1.212793148327660775e-01 5.106972807724884378e-01
-5.342834272491051723e-03 -1.255093246412319063e-01 5.127712149576071354e-01
-2.708501037100036202e-02 -1.201570095893028378e-01 5.194152302099040996e-01
-5.460957162733905135e-03 -1.182467599043221240e-01 4.814677232691910169e-01
-4.790366679246278042e-02 -1.134215951346250612e-01 4.817793154368957276e-01
-5.515680028825886705e-02 -1.135468057972102152e-01 5.261813643084125580e-01
-5.084154383154627921e-02 -1.152938728456544409e-01 5.224327704572301334e-01
-5.534278369602892850e-02 -1.086684701138651843e-01 4.595080328586790830e-01
-7.849866018366234710e-02 -8.973415095365090688e-02 4.296274121565413773e-01
-8.988847171228282751e-02 -1.049330182090161545e-01 4.534756697519869428e-01
-8.139522866389610478e-02 -1.102758706749939199e-01 4.661839771507649277e-01
7.612185761830736128e-03 -1.233796100184585826e-01 4.990025268313797446e-01
-4.750249383644630785e-02 -4.260633459815574287e-02 4.346189862299991158e-01
-4.334780732447823803e-02 -8.901790386172947489e-02 4.346909417226762495e-01
-6.337445151153064948e-02 -1.138838688168897495e-01 5.152679009220477724e-01
-7.549761913631274080e-02 -1.002149990095960730e-01 4.262093665453522973e-01
-1.041843769486747034e-01 -1.062173222324519217e-01 4.736352876837197079e-01
-7.122866320976999066e-02 -1.090045695897357420e-01 4.586626785518299609e-01
-1.097110408529977515e-01 -1.028835435262528963e-01 4.821260650021323979e-01
-5.502966157846072431e-02 -1.050126940736394177e-01 4.452367222319876250e-01
-2.586988590335730781e-02 -7.256427326449788051e-02 4.382770193755580190e-01
-9.468387668542560531e-02 -8.835532733689682727e-02 4.569670680053883882e-01
-1.861682031924688507e-02 -8.665653414795429499e-02 4.453884565013558894e-01
-1.860760476099217881e-02 -1.189205320412358574e-01 4.916733016624702524e-01
-8.828072086455257539e-02 -9.537188528827111877e-02 4.430053804594158429e-01
-6.661296686656213717e-02 -1.123682072128076026e-01 4.765051334033804098e-01
-1.392228509677047657e-02 -1.222310852721468222e-01 5.345542627314409101e-01
-1.050055328689959988e-01 -1.048325156794373270e-01 5.021388588472297521e-01
-4.579378893074667611e-02 -1.029243091460230186e-01 4.506672210180830418e-01
4.452324291536222806e-03 -1.263170838534402318e-01 5.111748637632769210e-01
-5.303851268325120161e-02 -2.377567870933981753e-02 4.419704601999469573e-01
-9.131684306077025859e-02 -1.009981693148971904e-01 4.505500263042667153e-01
8.472125146674565344e-03 -1.239135972559210208e-01 5.012537233864288178e-01
-1.050384724395793390e-01 -1.048828576188225170e-01 4.695646014089518983e-01
-4.847693050376068041e-02 -8.023974756702399735e-02 4.274014717940987085e-01
-2.767500125862359939e-02 -6.872341845308350960e-02 4.372008620597099826e-01
-7.332771171647704811e-02 -1.117522377897819247e-01 5.143656926352064840e-01
-3.009438266635342668e-02 -1.186441830600258318e-01 5.287653305011164040e-01
-1.194528117148556043e-02 -1.214626015545447746e-01 4.947551593165742112e-01
2.519279361736622563e-03 -8.642629970500631531e-02 4.486039547383607884e-01
-2.265769393927845321e-02 -8.130866161507495360e-02 4.422358485933932104e-01
-6.774490620616401351e-03 -1.205461054112149238e-01 4.891642648506421276e-01
9.357572601801937909e-03 -1.267149034997569756e-01 5.196892184368349099e-01
-6.917512259567827962e-05 -1.050077448539886160e-01 4.622295804971165434e-01
-3.648629350850722541e-02 -1.158072870925733605e-01 4.899750218315967465e-01
-4.819063709733360790e-02 -7.971332032140378276e-02 4.276069088563442810e-01
-5.887166240185794097e-02 -1.055623640815617076e-01 4.354499294098556628e-01
-1.100671246849473789e-01 -1.029363136170083348e-01 4.854970604019934743e-01
-2.229629542488251875e-02 -1.212937263161877194e-01 5.193605299979895396e-01
-1.031663704383828095e-01 -9.780081478186165855e-02 4.610359793585319110e-01
-5.701708555216301183e-02 -1.113367412316263461e-01 4.690089460769765739e-01
-2.617775039610819535e-03 -1.141722733684509827e-01 4.737257392063964345e-01
-4.484227650505710761e-02 -1.069203134968838703e-01 4.601486143295921427e-01
-1.988200968643185837e-02 -1.136613357483371445e-01 4.789229295453977797e-01
-5.189452688255474094e-02 -1.139118686317047852e-01 4.846385644621178934e-01
-9.415148955774797768e-02 -9.364829325091733603e-02 4.514077795599782394e-01
-2.698068084953608725e-02 -6.905202726365790300e-02 4.374176188731951909e-01
-1.063192956179997428e-01 -1.017114339986508326e-01 4.676236886090853750e-01
-5.383803290422242011e-02 -1.126996111380486332e-01 4.778971169722579515e-01
-6.998487439615654060e-02 -8.288776894673670348e-02 4.251868191179521972e-01
-2.546926992644637025e-02 -7.451007758368322076e-02 4.388678471352794874e-01
-5.610737407986488012e-02 -8.950470990051134779e-02 4.218607197348252513e-01
-2.041093680472283109e-02 -9.371668768077076606e-02 4.504334196713494221e-01
-4.147727891337751882e-02 -9.775765676237058166e-02 4.464312834882613878e-01
-9.113677870705803180e-04 -1.210119095081815532e-01 4.895594620152692311e-01
-5.495827965856420888e-02 -1.103664699351242090e-01 4.657721328441763453e-01
-9.577329341295409693e-02 -9.771786896820296164e-02 4.528039137588281693e-01
-5.229898400765002620e-02 -1.061700865340943212e-01 4.522015628812779964e-01
-4.861988588454697890e-02 -1.160118232254394866e-01 4.979054989016422073e-01
-5.522523211394925885e-02 -6.702195603917734945e-02 4.275838041890278052e-01
-4.041820270996605846e-02 -1.082820572107646151e-01 4.651152612230871619e-01
-9.528926797055314174e-03 -5.832288253000884187e-02 4.383371756045122969e-01
-1.911674607588973937e-02 -1.205321017113712562e-01 5.361090759608178047e-01
-9.064491889921023199e-03 -1.186495379111424386e-01 4.837913599139388454e-01
-9.659529422595822951e-03 -1.142884484997948452e-01 4.746211483939185016e-01
-3.686525160210559621e-02 -1.174147048784385805e-01 5.272346913037826432e-01
-8.771995754592773475e-02 -1.034037898312304971e-01 4.484921405932781879e-01
-3.167199402998154001e-02 -4.735040585723399031e-02 4.365088881649712982e-01
-3.007473502981141203e-02 -5.328764460005426529e-02 4.364751770181379276e-01
-1.787734417423781502e-02 -1.208459053392810095e-01 4.985075983194636184e-01
-3.850792883151846896e-02 -1.048101082529464823e-01 4.597693095810224673e-01
-4.756914039954170809e-02 -1.152201874028557782e-01 5.263892410449021453e-01
-2.190285545269876274e-03 -1.166042353420538163e-01 4.777948173464879877e-01
-4.560132475469966251e-02 -9.420419257315003347e-02 4.361149542762350340e-01
-6.973965038990134757e-02 -1.027138162896125417e-01 4.244056832389902501e-01
-6.849182662127315316e-03 -1.085642267465159044e-01 4.652222666784788241e-01
-8.665897472982569960e-02 -1.115420756252615830e-01 4.902293211185688726e-01
-5.857526560560274986e-02 -1.109265334069394204e-01 4.676869120874543873e-01
-9.216739049588809629e-02 -1.101002565834903191e-01 4.982956644567979043e-01
-6.364479934770697622e-02 -7.457113852040017643e-02 4.261449565906695325e-01
-5.723443472485739703e-03 -1.237557506861880485e-01 5.342883191737457516e-01
-1.210815453778935590e-02 -1.172934905797362037e-01 4.821742281770285410e-01
-7.428654854290137055e-02 -1.110823593172305251e-01 4.701508564721987304e-01
-5.985176940762201858e-02 -1.056510436024275384e-01 4.234303872197532348e-01
-2.648403152267322230e-02 -7.866398534168961287e-02 4.400219391363672794e-01
-4.725131083909009377e-02 -7.549009177993458442e-02 4.283117561431306619e-01
-7.119066018506271798e-02 -1.127957242490354728e-01 5.106694616054232583e-01
-1.921807673895585197e-02 -1.219814479202777774e-01 5.078465608325717362e-01
-6.024113679180576053e-02 -1.093614889805298862e-01 4.600512574366539820e-01
-1.009666102617893906e-02 -1.209140293109626646e-01 4.913885921633663889e-01
-2.113214078742253754e-02 -9.177294781396125312e-02 4.486127342366847404e-01
-6.451977661312885415e-02 -1.113192288837274030e-01 4.698995046205606263e-01
-3.379062374407480751e-02 -1.184774968892876035e-01 5.227614335794658063e-01
-6.571449867245979237e-02 -9.759407562346615606e-02 4.196530859282090464e-01
-2.898102766104069736e-02 -4.252959017139728432e-02 4.375835006950422601e-01
-8.297432553821011691e-02 -1.114400385137657989e-01 4.999005838090266329e-01
-3.305547604749509150e-02 -1.159791749603669431e-01 4.892388651808193267e-01
-3.106103334421652165e-02 -1.188349383535494685e-01 5.246297075044776825e-01
-1.700001961598691241e-02 -1.230337047469519107e-01 5.144292249630909586e-01
-7.728697642059612072e-02 -1.119766042568203918e-01 4.768342684107635954e-01
-1.763610878521684744e-02 -1.219913970532441744e-01 5.265843763700600588e-01
-6.507753651358370861e-02 -1.058680340096791045e-01 4.318905827591913438e-01
2.957063792491446391e-04 -1.147304005001543031e-01 4.749469872832872142e-01
-6.679102956105874289e-02 -1.092913199639061611e-01 4.597750370111421958e-01
-8.585726143718037592e-03 -1.043549224751334353e-01 4.602876743374190172e-01
-2.451045035922158610e-02 -7.858737402684862206e-02 4.406620246908808936e-01
-3.661888451296729102e-02 -9.724065967348079209e-02 4.488634164678625416e-01
-6.601448536633913733e-02 -1.013819188661281012e-01 4.207065522320241890e-01
-4.633177063697088705e-02 -9.516679178314302323e-02 4.361422187818078666e-01
-4.743629038938795839e-02 -1.025071661537523687e-01 4.480340120783338764e-01
-7.681281323006200479e-02 -1.122465767875996390e-01 5.041380416244134466e-01
-2.938986115841156835e-02 -1.168409952842432015e-01 4.911518766809263026e-01
-5.177239419291773670e-02 -1.062744274050464593e-01 4.529827435537561175e-01
-3.733871321838808099e-02 -5.844472194252198910e-02 4.343432867284687249e-01
-7.610896674464069644e-02 -8.810925163992273934e-02 4.278124024193545871e-01
-1.013879924525208504e-01 -1.047361065370593924e-01 4.629554357205884485e-01
-3.219350618065629915e-02 -1.040827139638257209e-01 4.615340730305679262e-01
9.972637025367211278e-03 -1.267571480401708806e-01 5.262975595723677902e-01
-6.663695660549387619e-03 -7.976532463596076872e-02 4.444814209852480102e-01
-9.419789072508309713e-02 -9.342691506514548550e-02 4.514776833299505854e-01
-2.203725648567077255e-02 -1.202297806575163414e-01 4.998458321797576986e-01
-6.156752606787931070e-02 -1.141345373082955778e-01 4.933510102982524570e-01
-6.552479757261617244e-02 -1.063755003493297158e-01 4.365072584696935154e-01
-1.695335894268338271e-03 -1.142897626582653897e-01 4.738886732457550099e-01
-6.123294131392684886e-02 -1.057477718908450132e-01 4.366546136954426172e-01
-6.108015128353906642e-02 -1.145105158844439974e-01 4.989552702643837989e-01
-4.421922786186410076e-02 -5.320038530684770284e-02 4.335419321351174360e-01
-7.661131809443590124e-03 -6.740180668619678850e-02 4.403908645500692054e-01
-4.391667787969577748e-03 -9.268398046904396947e-02 4.509976674284632003e-01
-1.054059299656379817e-01 -9.910760723471710720e-02 4.642106611346819012e-01
-8.217388650166201902e-02 -1.122387371781027043e-01 4.851371640721959810e-01
-1.621502650056732414e-02 -1.224269015701345692e-01 5.265284505990092123e-01
-3.797304550028784975e-02 -3.616458574709607854e-02 4.351749106030494141e-01
-6.566168364593678863e-02 -1.069735571032252447e-01 4.452240714992172221e-01
-1.055483281498341558e-01 -1.062319110863367000e-01 4.783326921417047628e-01
-2.043109346604988011e-02 -1.121920412190859362e-01 4.754590724036950045e-01
-1.444779497666410888e-02 -1.221125462270454404e-01 5.343946627816422712e-01
-5.355877801712635028e-02 -2.599066969150747725e-02 4.444663638714270726e-01
-1.643201613514825785e-02 -1.231174793536422146e-01 5.160830103918496725e-01
-1.088949289826488670e-01 -1.010353586473978493e-01 4.732828265811885315e-01
-8.436016740396733160e-02 -1.119319829271103184e-01 4.827142825320709374e-01
-1.426768122889621529e-02 -1.236746663501701315e-01 5.156643253929148463e-01
-5.431155858487361765e-02 -1.054604706986391888e-01 4.483564544101292237e-01
-4.485878593053142793e-02 -9.910916553854089150e-02 4.448813363990295477e-01
5.478624381985501904e-03 -1.270763718795492880e-01 5.216570491611137728e-01
-9.082453475500915085e-02 -1.051424163781014970e-01 5.159432804681618467e-01
-7.656904299608154052e-02 -1.096015940655166859e-01 4.620932608763583804e-01
-1.322572838024781844e-02 -1.228064119980352142e-01 5.037067050747230379e-01
1.344951240937093673e-03 -1.251404773255417602e-01 5.043588903696275549e-01
-8.606224941265153139e-02 -1.082446230610713683e-01 4.598563641731224227e-01
-8.599688580719958009e-02 -1.111010254692795934e-01 4.981710276138668902e-01
-5.906893796982760035e-03 -9.149397732273872874e-02 4.499863555671146376e-01
-2.101732618469631664e-02 -1.042866154923163674e-01 4.624338195738842416e-01
-4.903639463537690785e-02 -9.766504568646290629e-02 4.317345407216288677e-01
-4.788420499555561677e-02 -1.119552140813281221e-01 4.749796201292761921e-01
-7.368069798422316463e-02 -1.129562196427447290e-01 5.030502854560119363e-01
4.124139170169491102e-03 -1.259316627817151923e-01 5.087904534716577443e-01
-6.818167403696734352e-02 -1.047396036556573762e-01 4.293908601681530879e-01
-7.528945958692809248e-02 -1.121254337714176486e-01 5.088369488817949815e-01
-7.742160049915292053e-02 -1.058629747725564479e-01 4.452578935559560747e-01
5.806262553054641548e-05 -1.099555823040019586e-01 4.675123797736995823e-01
-5.031774367314426760e-02 -1.037325315533297876e-01 4.479677506404410869e-01
-1.812817419506158184e-02 -1.225969135805639459e-01 5.127932866822579872e-01
-4.902007606762361774e-02 -1.163218497493545278e-01 5.098784709123157510e-01
-1.045478683224154715e-02 -1.071636565756868970e-01 4.636376819696984564e-01
-2.237821549069809318e-02 -9.328052087628677103e-02 4.501524768374997043e-01
-1.018087451545854061e-01 -8.856955227239585171e-02 4.679321659365366370e-01
5.576903957538082920e-03 -1.252878841896340190e-01 5.059572805221517200e-01
-4.689980696484007811e-02 -1.001579611256181307e-01 4.442903472072552984e-01
-8.388979042823273280e-02 -1.041016211175520151e-01 4.461080179048286798e-01
-2.051521893670922581e-02 -1.214487964817344418e-01 5.240882511767829266e-01
-1.824924835714147875e-02 -1.151492068614206055e-01 4.814598236654373808e-01
-4.598381492634932843e-02 -7.194033620742795732e-02 4.293800408190298623e-01
-4.550143344972639586e-02 -3.532598872316464883e-02 4.350569604840929250e-01
-5.607766211603102541e-02 -6.443578170389892279e-02 4.291482781839878746e-01
-1.048321713307088093e-01 -1.071352811956550743e-01 4.936441030380716022e-01
-9.206920014506925209e-02 -8.534639901072464674e-02 4.557725073054968989e-01
-3.922580106928254956e-02 -1.042771013186661322e-01 4.582149378873163204e-01
