-1.102092959939127148e-02 -1.167984645219738021e-01 4.804341797751354726e-01
-2.800139617004466716e-02 -1.201116845510727116e-01 5.130641810005077685e-01
-5.043793383941650582e-02 -1.161359026696604096e-01 5.143306434704386643e-01
8.760648530654021812e-03 -1.239248568360793029e-01 5.013505385513982171e-01
-1.037730325919247604e-01 -9.249763000283875436e-02 4.666881948202242225e-01
-2.009042201859060142e-02 -4.372871935145580119e-02 4.387927844879943029e-01
-1.048622025175928729e-01 -1.061501089535747538e-01 4.743935814611022206e-01
-3.052105876917118876e-02 -1.121150245310281596e-01 4.768778838636118511e-01
-9.215736876942308420e-02 -1.091840697271835720e-01 4.680052330170250685e-01
-3.449404449348792562e-02 -1.174134390151840707e-01 4.952633891747715289e-01
-1.795072910977336608e-02 -5.386421858028908605e-02 4.381857962430050213e-01
-1.099868934787913421e-01 -9.465095853036974149e-02 4.754794819475917644e-01
-1.868058387259980899e-02 -1.222304829041416518e-01 5.200301941033818043e-01
-6.912846917080461839e-02 -1.117026710015090463e-01 5.201300218445191748e-01
-7.942294312146011559e-02 -9.927101288421744107e-02 4.321422818671027399e-01
-3.959288651061874942e-02 -1.110689215880071856e-01 4.740199003591716864e-01
-9.635457032888834761e-02 -1.086165725306802582e-01 5.022221650485610978e-01
1.422113980873978417e-02 -1.255992530364493653e-01 5.366706684783879577e-01
-1.826631028489903580e-02 -1.191602276250441350e-01 4.920147525514113607e-01
-8.357156184948148769e-02 -1.118701012027521619e-01 4.950059655259768099e-01
-1.027067797292750134e-01 -9.622092098067770716e-02 4.617851768321760697e-01
-1.038097611852326768e-01 -1.041934553276585851e-01 4.657169151928062245e-01
-8.327966781489665182e-02 -1.122198402706472697e-01 4.833825684369781883e-01
-2.907821408727605597e-02 -4.813013442293458122e-02 4.374013792583936189e-01
-6.548482305751484461e-03 -8.679831175694129042e-02 4.473676341835119974e-01
-8.579857261216880526e-02 -9.333208963408759495e-02 4.407853194060783464e-01
-4.570958723563307846e-02 -6.832161049672254294e-02 4.296739184043003035e-01
-2.036798066410478933e-02 -4.478127530539406653e-02 4.387384656331138610e-01
-1.417291753562952353e-02 -1.215363914069336193e-01 4.974016382256513102e-01
-2.033769686360944323e-02 -1.206428426076071453e-01 5.323836713446370439e-01
-6.231726155809191869e-02 -1.129666302837026015e-01 4.792068199111163551e-01
-1.023737648355207974e-01 -1.063764842296769098e-01 4.683129019763168643e-01
-9.824187149937216312e-02 -1.094108819512969594e-01 4.881643876900467194e-01
-4.946992620298731880e-02 -8.033086722051917261e-02 4.266516052103851431e-01
-4.108382548496392755e-02 -1.138160648436555566e-01 4.838364143677174045e-01
-7.581220321600265488e-02 -1.108944077442599735e-01 4.678942972882757512e-01
-7.079832273345385008e-02 -1.134739561743277197e-01 5.023311355471796746e-01
-5.755397394551776263e-02 -1.076134852603997938e-01 4.525985097864546058e-01
-4.895849608786961848e-02 -1.149629908402507728e-01 4.893223477000580579e-01
-6.606413679501886571e-02 -1.128899177442469620e-01 4.812710090836778698e-01
-8.293628830946060682e-02 -1.090581625308441882e-01 4.609746843792793536e-01
-5.771663792083719935e-02 -1.074181120655147703e-01 4.512949335191234757e-01
-6.349690196856069835e-02 -8.197100632278232768e-02 4.237578098088317646e-01
-1.019693469134399233e-01 -1.074832011059465298e-01 4.994328979205087116e-01
-1.565859179811409166e-02 -1.227379770276959131e-01 5.072152201318722575e-01
-1.024538069219636666e-01 -1.045437746531408529e-01 5.061258305317748452e-01
-6.973409588250831237e-02 -1.124470133650949666e-01 5.161607978877692515e-01
-3.289432577827219872e-02 -1.170518257000949108e-01 4.931465052155021289e-01
-3.927508127546266298e-02 -3.186205178985004882e-02 4.355019846815475493e-01
-6.711908628844760749e-02 -1.136308159830795722e-01 4.918121972033194789e-01
-2.204107427671508912e-02 -1.032594712941816012e-01 4.614187856918440800e-01
3.848629423639750779e-04 -1.267120405907171121e-01 5.204756644685815115e-01
-8.464455746331120412e-02 -9.720893093217915226e-02 4.399614547683202148e-01
-6.698661389806424837e-02 -1.091992071726652219e-01 4.586227041225475753e-01
-2.032622788959424082e-02 -1.127086024172159751e-01 4.765529306744296090e-01
-6.876117743962743833e-02 -1.136845065688392026e-01 5.056059472880554129e-01
-5.550730157539132681e-02 -1.039555288779133863e-01 4.392238413841562661e-01
2.816377008463043317e-03 -1.185550227473766149e-01 4.831161941531351700e-01
-4.449920090044475612e-02 -3.743339907329570893e-02 4.348846519217499651e-01
-2.275551758815724454e-03 -1.249305880677274855e-01 5.051405333758336447e-01
-6.991218670868808160e-02 -1.135350907734735126e-01 5.042914652800487563e-01
-6.516773912809019353e-02 -7.454104790020731064e-02 4.280552887300975162e-01
-2.818554682278486337e-02 -1.191023983051424512e-01 4.998577826457813456e-01
-5.112384197422824295e-02 -1.153295870509177673e-01 5.220171767760519721e-01
-4.986432163290070024e-02 -1.007011391680694007e-01 4.365749190395351587e-01
-4.938603120083445014e-02 -1.163102910299253084e-01 5.072986425298793289e-01
-4.408291030293822604e-02 -4.429531458921225767e-02 4.343258188776304429e-01
-6.258874897746798116e-02 -1.075882382034892143e-01 4.487085028029910161e-01
-3.474823516439697751e-02 -7.770298825505106421e-02 4.365557690898798637e-01
-9.059093969979452321e-02 -1.073463204005096205e-01 5.112627976967986099e-01
-6.879631678328765321e-02 -1.115502640488874597e-01 5.210262883456422411e-01
-9.120082666164405771e-02 -1.000175005437629883e-01 4.487185261545341142e-01
-4.479723704314390181e-02 -8.226947740054958713e-02 4.303763137032441399e-01
-5.017650845686193878e-02 -1.015823632059393022e-01 4.433488328838645076e-01
9.080202669140941766e-04 -1.137117775088015426e-01 4.732714772828581773e-01
2.956495524726948047e-03 -1.109400586076113443e-01 4.691560651838586060e-01
-9.582172263484897007e-03 -8.700624838313290865e-02 4.468554539034959028e-01
-2.759447343740586631e-02 -7.742536245524521410e-02 4.392348081891710443e-01
-4.588359186593437417e-02 -1.154799141766724851e-01 5.270830575744617219e-01
-5.092040440218157521e-02 -6.167426123740172433e-02 4.300796627870838162e-01
-7.559443967111080520e-02 -1.127108270917938915e-01 4.873065632908219480e-01
-3.894574619445646119e-02 -7.034307155914948373e-02 4.330118867254187376e-01
-1.112689186833067390e-01 -1.012618701325183335e-01 4.864525860878332053e-01
-7.066532021480362996e-03 -6.170677236669522281e-02 4.388589330588114623e-01
-5.125594165634400623e-02 -1.044821407129312013e-01 4.484891622669527900e-01
-2.699365687835260721e-02 -1.159993407210374167e-01 4.869521437041370859e-01
-4.992305810455434367e-02 -3.985662856071702648e-02 4.360561181458557090e-01
-2.330726904169911490e-02 -9.787567773131761184e-02 4.548987309864691020e-01
-3.022316139303340976e-02 -1.027645691908530279e-01 4.600262517112405081e-01
-8.459302775624009951e-02 -9.333053066821542232e-02 4.388654715278341722e-01
-6.087273255875906564e-02 -9.458039412700382231e-02 4.201663940053478319e-01
-9.628666508104420652e-03 -1.247957582591354697e-01 5.156319769641102280e-01
-6.705106186551028358e-02 -1.129840911423055372e-01 5.169788849319160162e-01
3.128622170765114896e-03 -1.234754981721228606e-01 4.975549000550552603e-01
-5.754230600528999900e-02 -7.608762776815035378e-02 4.245924107755005283e-01
-8.260261466258057850e-02 -1.121090398876959521e-01 4.923221850717049985e-01
-8.211067401366164975e-02 -9.404469769584046512e-02 4.339195468267725841e-01
-3.678603693939479918e-02 -1.050567972509979520e-01 4.611561709883562066e-01
-5.962245874189772699e-02 -8.834057048965579528e-02 4.218040660471081282e-01
-8.714830806048352863e-02 -1.115733853787947427e-01 4.912396208824333921e-01
-5.886940293882503630e-04 -1.236164974864317340e-01 4.981197433919876127e-01
-6.547050541608107066e-02 -1.050331126584871239e-01 4.238086459697512631e-01
-8.192757190088291452e-02 -1.057124776960156748e-01 4.487274286041313398e-01
-9.431312314258585849e-02 -1.092786431968002653e-01 4.706702223056295487e-01
-3.301516801793576150e-02 -1.173269986725959113e-01 5.344586211707028633e-01
-7.942230657525711779e-02 -1.113817991285471487e-01 5.076456890901462904e-01
3.025052340751818551e-03 -1.187520490537881945e-01 4.836612841686185882e-01
-1.016137409567427485e-01 -1.085264362050773201e-01 4.907393728696776702e-01
-7.483561125148073014e-04 -1.265327198329656289e-01 5.182799193738338861e-01
-2.055178923145764558e-02 -1.218055957698753328e-01 5.113510821621860547e-01
-1.480294602917885810e-02 -5.290860163414581874e-02 4.383854984999185356e-01
-6.792751268434185641e-02 -1.066236185032246875e-01 4.404760509605862295e-01
-8.671001133370466463e-02 -9.327087988468761581e-02 4.421377676093170006e-01
-7.441845787300335746e-02 -1.130741458511682340e-01 4.988106497276189044e-01
-1.166990944512462554e-02 -1.193265492722820065e-01 4.869585155985683977e-01
-1.927006106832619692e-02 -1.201380465900103861e-01 4.970628953843474473e-01
-4.823079862159486420e-02 -8.560218618004684921e-02 4.276942444722900416e-01
-9.358817482046269398e-02 -1.069686663060888387e-01 4.609005346935071135e-01
2.310709681911059070e-03 -1.109449041046523532e-01 4.689907321216744140e-01
-5.134214370352806200e-02 -1.154206416552312486e-01 5.206234142221045635e-01
-2.507751593165481480e-03 -1.259739491188904825e-01 5.134697268584725860e-01
-3.915463865864272919e-02 -1.074813584113866183e-01 4.642062545398861761e-01
-7.402241829995587219e-02 -1.044054999748906393e-01 4.344165725283126722e-01
-1.737054278170955483e-03 -9.435624516692166230e-02 4.526863785259516160e-01
-5.635334692988241273e-02 -8.769036895844307955e-02 4.222871241731479541e-01
-2.171396771255472077e-02 -1.144921650203299390e-01 4.812692505844928248e-01
-8.177189995140753120e-02 -1.108567257262757511e-01 4.681686000909487388e-01
-4.813047603767291183e-02 -1.078309095608410012e-01 4.601837571284099759e-01
-4.542211547035763380e-02 -7.197723341401790487e-02 4.297467642587159964e-01
-9.702496150837844335e-02 -1.097161765944462547e-01 4.875814867943458197e-01
-7.172690151833537725e-03 -6.165948173617612216e-02 4.388543453432283692e-01
-3.974724539440669530e-02 -3.902016663859998735e-02 4.347516140616432545e-01
-4.024361491070625740e-02 -1.121678873814253852e-01 4.781319775933688399e-01
-4.202303777614432856e-02 -4.105923498163498164e-02 4.345388683608090163e-01
-1.942440806532896511e-02 -1.176398345435560877e-01 4.885983000455878522e-01
-9.558531937273856416e-02 -1.098650210038524949e-01 4.751191045313175043e-01
-6.451817330722223187e-02 -1.138376695349088419e-01 5.144220263109664515e-01
-9.331667608281977999e-02 -1.073557484004921125e-01 5.090282443990340466e-01
-6.698891143673370296e-02 -9.573334825016610594e-02 4.190187170678012496e-01
-6.954157377926468639e-03 -1.082364298561484112e-01 4.648052130439667140e-01
-5.012898578294337770e-02 -9.891431039877213172e-02 4.281813174571594827e-01
-4.627580501262246876e-02 -8.930009088575933951e-02 4.299359664211041543e-01
-5.067810114197737748e-02 -3.901858708063175168e-02 4.365854428538689103e-01
-2.343105276151070948e-02 -6.757751352735914818e-02 4.380361042291806006e-01
-5.297432056374103138e-02 -3.488170434053930458e-02 4.386785405215322675e-01
-3.168758650154943155e-03 -1.181432560150087185e-01 4.812245798597173940e-01
-5.253688750865163209e-02 -1.068621661171433312e-01 4.538734323331496401e-01
3.410607687529758347e-03 -1.229514028159629097e-01 4.959209944733722342e-01
-4.917606621859423738e-02 -8.191590906978726827e-02 4.269057081307429669e-01
-2.519291771015047532e-02 -3.976354640675098390e-02 4.385371319583483141e-01
-9.620886057177796546e-02 -1.099372403308665619e-01 4.839504684826183567e-01
-9.958375167934765959e-02 -1.055904777731682953e-01 5.070930395701598314e-01
-2.545553226057221605e-02 -1.191934621164556229e-01 5.337052494537372072e-01
-1.872968550173872287e-02 -1.207897852905720909e-01 5.351356863493279548e-01
-9.202863923602873364e-02 -8.577378144599413778e-02 4.554781378197931274e-01
-7.323957917472807833e-02 -9.361285588595831542e-02 4.215757279880782415e-01
-7.000270298349012266e-02 -9.476306174791125636e-02 4.186519360206364393e-01
-9.065413986720553818e-02 -1.091219173105487800e-01 4.664878044257366185e-01
-2.308023062041112891e-02 -1.038803724307954812e-01 4.623368113142489744e-01
-9.436274915556641663e-02 -1.103164672657322848e-01 4.804309726052592988e-01
-7.422144142737090167e-02 -1.048483094646736613e-01 4.370254571098505791e-01
-7.232583027621984628e-02 -1.116349945191185689e-01 4.726578391814457714e-01
-1.080188367498332441e-01 -1.058819144598902445e-01 4.943986764803091627e-01
-3.556692534850784682e-02 -1.059434138630633432e-01 4.634198434082468787e-01
-3.956174232900328686e-02 -1.179448658517553705e-01 5.107369935236693026e-01
-4.915004605974520463e-02 -9.768985660691818784e-02 4.299475964911319559e-01
-6.723447090558647143e-02 -1.045943996026410944e-01 4.244880308055354323e-01
-7.271485340269362441e-03 -7.697080631268919670e-02 4.433512192376909966e-01
-8.526856051690609450e-03 -1.224723290073117254e-01 4.961100168122462573e-01
-3.180916638602454549e-02 -6.381551092232046196e-02 4.359663148945613353e-01
-4.235601273730649902e-02 -1.130362271104999872e-01 4.812710760015442291e-01
-6.562152827681277945e-02 -1.026528669223070733e-01 4.211400256252234020e-01
-5.827200321657169391e-02 -1.127601666428577343e-01 4.770611415182719472e-01
-3.854507444622413265e-02 -1.149079256173683034e-01 5.391831953459654825e-01
7.197882489984036916e-03 -1.247989754277784025e-01 5.039663923908185295e-01
-8.049273480887925158e-02 -1.046862032173773716e-01 4.449104513171265318e-01
-2.908803155445493366e-02 -1.187678567454362455e-01 5.299378338293171398e-01
-4.782965742920924912e-02 -5.733015474413389462e-02 4.318289332232770339e-01
-1.010197487510001296e-02 -7.541074084356083618e-02 4.423575513908800660e-01
-1.070467684821559962e-01 -1.060555801258803443e-01 4.832938526759593123e-01
-9.295765451659152023e-02 -1.106628320358874901e-01 4.848052139600331767e-01
-1.528941505432493062e-02 -1.035970588337784548e-01 4.600749335244680438e-01
-6.494409115927794740e-02 -7.739848239843685751e-02 4.270054214537592485e-01
-8.437250451617145375e-02 -1.097246976341861163e-01 5.095598398020868558e-01
-3.127542341612663673e-02 -1.012717875599988132e-01 4.574336935435409091e-01
-1.247988265679106368e-02 -7.949911204560733413e-02 4.432319538911994039e-01
-7.980015253224932714e-02 -1.124906186502463157e-01 4.856959027956325725e-01
-4.677372191136601465e-02 -9.522757627176679784e-02 4.344030232320281737e-01
-7.390266838404826837e-03 -1.252486519843080126e-01 5.150705975525745606e-01
-5.580216383110800371e-02 -1.130443858503673710e-01 5.280424637204501614e-01
-3.098129298906641613e-02 -3.301228041741811892e-02 4.371457650783229787e-01
-8.041641883563907522e-02 -1.120233979409046843e-01 5.001077993510874009e-01
-3.724195565263913044e-02 -1.067066801531596082e-01 4.638882371730820853e-01
-4.625644905964272635e-02 -1.167177679083903907e-01 5.047369613293171131e-01
7.546091728539078888e-04 -1.257888179379516302e-01 5.323315835578605881e-01
-6.007106364505449686e-02 -1.025383795587316016e-01 4.216182967821783811e-01
-1.019712610406274256e-01 -1.084604958727610202e-01 4.851832897970648206e-01
-5.959740818520843642e-02 -1.149173324455176615e-01 5.098918557992023759e-01
-9.267860957949833334e-02 -1.041914088691352491e-01 4.538119554130350397e-01
-7.070863322288600816e-02 -9.609924473042393001e-02 4.201275860203165791e-01
-4.627123919383167167e-02 -1.144233527027308933e-01 4.870816371724927540e-01
-1.103599576854333297e-02 -1.077107869671379836e-01 4.642854000140146375e-01
-7.305371804238881828e-02 -1.128264996492142902e-01 4.850291111474829275e-01
-6.824203927055401409e-02 -1.067171029103042984e-01 4.428596891973747285e-01
-2.337996630157554434e-02 -6.300111953837690681e-02 4.376654220919709015e-01
-6.395671549922075927e-02 -1.141146122824615028e-01 4.958050864411897574e-01
-1.219965411241590719e-02 -1.159552123345782559e-01 4.792980315016885373e-01
3.540356735924936153e-03 -1.204560879760404046e-01 4.881991893382215397e-01
-7.150961484023266035e-02 -1.084968168849795855e-01 4.555527923399480539e-01
-7.099688889534375158e-02 -1.116290184086628084e-01 4.723043935024666684e-01
-1.105217699911068864e-02 -1.114522306602810653e-01 4.702972070091293033e-01
-2.340082139756181207e-02 -7.592838771009412235e-02 4.398263188342999563e-01
-1.994376345324357092e-02 -1.134505340699474285e-01 4.783194786119128739e-01
-1.728105314923537514e-03 -1.244309733880393509e-01 5.018503186033956842e-01
-8.379003774369134239e-02 -1.070277575176498686e-01 5.186953964734305478e-01
-1.101035502435130792e-01 -1.027994442550657084e-01 4.948191115249603311e-01
-7.560161214635402471e-02 -1.099732150138430509e-01 4.627627309336349581e-01
5.818200089285380239e-03 -1.254407957818783614e-01 5.068468656935133376e-01
-5.223764558142167391e-02 -1.159203349387279702e-01 5.076126930197344400e-01
-5.645414934131503387e-02 -9.746168260521527460e-02 4.211516766991827421e-01
-8.719656999859445867e-02 -1.044054685664893428e-01 4.488886952257623575e-01
-8.417593520262429962e-02 -9.606885633285958126e-02 4.380228913224230025e-01
-6.096033454753148340e-02 -1.080220031539663866e-01 4.530011277018305416e-01
-8.005048690900806729e-02 -1.113244567265860990e-01 5.070521783273855831e-01
-1.097479594591364432e-01 -1.024014470362218376e-01 4.790209466183277809e-01
-2.637258994291142439e-02 -9.876379086750587677e-02 4.557235565467160909e-01
-4.209446878096827910e-02 -1.172963288965633843e-01 5.039384007203864257e-01
-2.623774176583399190e-02 -9.157443985274482667e-02 4.475336393254319423e-01
1.205992987340063181e-02 -1.259433516969963029e-01 5.360726593456025535e-01
-9.266671341027070408e-02 -8.692918510958581868e-02 4.553043309604376532e-01
1.025736938675597676e-02 -1.255630629090396244e-01 5.374978783186108444e-01
-1.582820267463060440e-02 -9.424094980598045346e-02 4.505703811197344644e-01
-1.016015361179549437e-01 -1.083475035940356102e-01 4.930004035425984976e-01
-5.365461758416976978e-03 -1.082814412856271113e-01 4.650425628207291995e-01
-1.077452115821358608e-01 -1.061122186212453550e-01 4.893191301665108517e-01
-5.195807039884766526e-02 -9.934700350528857804e-02 4.251687839120587009e-01
-2.526584330957174288e-02 -1.202279811089445316e-01 5.240799159753518621e-01
-6.581155261017432312e-02 -1.141065880365871588e-01 5.017091287579731329e-01
-5.307270177729892652e-02 -5.375100082273988333e-02 4.331148940163299654e-01
-9.864348575459740143e-02 -9.696170939136988798e-02 4.561405476637740986e-01
-6.208418565095784325e-02 -1.065950589828389833e-01 4.302172800301038436e-01
-6.452426575093687944e-02 -1.103055295519023010e-01 4.642598835968140270e-01
-6.980943354835232248e-03 -9.465130300856150480e-02 4.519299684098509462e-01
-3.420691944374195520e-02 -1.188097211199793807e-01 5.177764051726773120e-01
-8.514791493713215476e-02 -1.117082122532467164e-01 4.783208334304357434e-01
-4.759767337315413266e-02 -9.508977621918197898e-02 4.309480959961800584e-01
-1.066317065409065901e-01 -1.062398758429046047e-01 4.828565049593321890e-01
-5.548692878591991035e-02 -1.062824469093522906e-01 4.286378047689237136e-01
-7.500551949137845842e-02 -1.050755003621630657e-01 4.385261853613057204e-01
-4.480571150358817617e-02 -7.375967754624895845e-02 4.301014740675768722e-01
-5.879547886693033826e-02 -1.078103042061087924e-01 4.523402791106321819e-01
7.680797013170783533e-03 -1.268889349227232677e-01 5.184375237239108314e-01
-1.080870469667227357e-01 -1.058821510973242258e-01 4.912875679316415223e-01
-1.896126708486750578e-02 -1.112247346840585377e-01 4.730331246957344415e-01
-1.399341750714580210e-02 -1.102632496938572709e-01 4.691714374138245547e-01
-6.199714204665273537e-02 -1.127145127824899368e-01 4.764137618077756153e-01
-1.031010888775726192e-02 -1.196750163716393534e-01 4.873714271891508854e-01
-5.310378665290910877e-02 -3.030510644353298991e-02 4.401161301034904882e-01
-1.055308597901193080e-01 -1.067584818128514551e-01 4.817009901347276135e-01
-3.512617439932898961e-02 -1.185233494447624492e-01 5.046629386271742623e-01
-2.712646545407482179e-02 -1.140501265696907685e-01 4.809004394612495514e-01
-7.611584861412820646e-02 -9.070480082228526975e-02 4.258580655746931343e-01
-5.328315275301045290e-02 -1.123890904799627055e-01 4.745639241849325951e-01
-8.289252232851745950e-02 -9.717688548378776436e-02 4.366107412592669101e-01
-2.221680652622231439e-02 -9.172637525854962504e-02 4.484817304362329060e-01
-1.003030120831947397e-01 -1.088128046130932280e-01 4.802983629333079096e-01
-9.275928090241257473e-02 -1.104961833759806333e-01 4.953051646341123382e-01
-9.210776771726181603e-03 -1.134985083235763720e-01 4.729945691941816466e-01
-5.091813709676953209e-02 -1.143566881265857260e-01 4.863451836700724007e-01
-1.869226607969247389e-02 -7.036340509001327848e-02 4.397051691939606877e-01
-5.016369232036388404e-02 -4.030124190690418523e-02 4.360082348940464425e-01
-9.072692153186209807e-02 -9.131478094641436172e-02 4.481580252563586164e-01
-8.932619249254090954e-02 -1.102213502384434690e-01 5.010881544757274098e-01
-4.782931144126161688e-02 -1.165591214188418656e-01 5.126412849253654258e-01
-7.465427664615944051e-03 -1.244430319382724415e-01 5.306811662930602802e-01
-4.675547005941522311e-02 -1.148586779203198405e-01 5.294266618835868909e-01
-7.360847825736425987e-02 -1.128168646688079563e-01 4.858382929177835208e-01
-1.003213192431737233e-02 -7.616366531381622840e-02 4.425964571356150179e-01
-9.628023246135711255e-02 -1.092287142112243620e-01 4.725425719036924765e-01
-1.923609414254104366e-02 -1.032470357751840567e-01 4.607716403622745260e-01
-8.124600540540513616e-02 -1.121474714775654719e-01 4.966284543740221991e-01
-7.012424783927174998e-02 -1.127951885787711883e-01 4.821805996199863276e-01
-6.954900917997759724e-02 -1.031430136033314182e-01 4.244243809673026724e-01
-5.921644360991840106e-02 -1.144119724396625987e-01 4.920125539934955272e-01
-3.796467879368323195e-02 -8.265232845331377254e-02 4.365991704941441509e-01
2.696789332997634025e-03 -1.214979369179360197e-01 4.913355388187393702e-01
-6.081698354383693189e-02 -1.122528086959502097e-01 4.731908261026768203e-01
-5.525724939480143594e-02 -9.569678028207524723e-02 4.219108063688277732e-01
2.805991851605971373e-03 -1.264385008944353406e-01 5.300258282947697408e-01
-3.395598285241478026e-02 -7.922290132578635458e-02 4.376643046810115845e-01
-9.067335592020266122e-02 -9.825476509548627946e-02 4.466585941722832631e-01
-6.719241605521139582e-02 -1.138151776277577382e-01 4.964576760833303570e-01
-8.135913915220732706e-02 -1.103755628358563806e-01 5.101538678786199377e-01
-6.791392995798241350e-02 -1.135193662208009296e-01 4.914350808650819191e-01
-6.609108143806095848e-02 -1.114607590178384594e-01 5.239210456236436109e-01
-9.797143814370211368e-02 -1.094169368460906622e-01 4.919363546374105334e-01
-9.242527728040703106e-02 -1.107593461643606864e-01 4.854062768343699874e-01
-6.549903876264202840e-02 -1.053822279025699582e-01 4.263755289225487077e-01
-6.932797117507091822e-02 -1.102904908758663982e-01 5.249275203053931360e-01
-3.521329236679494878e-02 -1.158725340440722451e-01 4.894444024401806148e-01
-5.638500108614461631e-02 -1.152974302895932168e-01 5.027714294532684702e-01
-2.665851096344464682e-02 -3.927451690772849890e-02 4.381981156776989517e-01
-5.091132141471282901e-02 -1.159674922165183364e-01 5.159361613193812479e-01
-4.449135783406499289e-02 -3.035408764341528121e-02 4.355352081700892275e-01
-3.104915183900132727e-02 -6.477618675612313581e-02 4.361803316170654865e-01
6.455600805752589356e-03 -1.269902447048990024e-01 5.230181411665206781e-01
-1.084685159788346676e-01 -1.050590161185093879e-01 4.974568909557211538e-01
-8.852849791854729145e-02 -1.101896570068079950e-01 4.690248811540383422e-01
-7.197148214409790357e-02 -9.470804446958416833e-02 4.208964153080279602e-01
-5.790698115421148012e-02 -1.135576309381084448e-01 4.832498247262134172e-01
-2.607173828998179260e-02 -1.190866361495789283e-01 5.333917778704272417e-01
-8.036621097535229241e-02 -1.105711378130718875e-01 4.665173720710965033e-01
-6.748520292862661418e-02 -9.857530079481942320e-02 4.197690746816508667e-01
-8.969466666322133130e-02 -8.955574413064035233e-02 4.477288232833677162e-01
-9.263599985286465055e-02 -1.106943803072396454e-01 4.822801848739201036e-01
-1.580771464493653175e-02 -1.230726589667869991e-01 5.197884012225517658e-01
-5.387736553260478317e-02 -2.965598505483185710e-02 4.443784197796177837e-01
-7.158089308228569869e-02 -1.043930704761841105e-01 4.310755091427226904e-01
-5.431606181367499425e-02 -4.194076752213509590e-02 4.398559058057917581e-01
-7.875946024266185230e-02 -1.114678477446628679e-01 5.081218395210768124e-01
-2.690432927345474262e-02 -1.021958210193303213e-01 4.600757792647882649e-01
-5.380825623863549206e-02 -3.289433372828694246e-02 4.424596479683037265e-01
-7.634583051247817442e-02 -8.903567431649539454e-02 4.275476722516325379e-01
-1.559118596750081603e-02 -1.224988748572185537e-01 5.056395536177691330e-01
-1.308604606396754312e-03 -9.010713402274198036e-02 4.501215061192328504e-01
-4.125452222169167377e-02 -5.067733526865417226e-02 4.339615822574396375e-01
-2.207028215292158868e-02 -5.665628586136339101e-02 4.375508343329986838e-01
-1.870673656566288617e-02 -1.201074212644553940e-01 4.961550523939131652e-01
-1.741588703858625714e-02 -1.217170738688813231e-01 5.032360377712444821e-01
-1.079203499035889802e-01 -1.050979628507973107e-01 4.804831426838441777e-01
-2.513786908767554409e-02 -6.040013663134811278e-02 4.371011556140703136e-01
-7.719891500268342976e-02 -9.213980760666118375e-02 4.270828705275643289e-01
-9.184901450780187659e-02 -1.065354493531102120e-01 4.582948086799183973e-01
-5.356299835940413201e-02 -7.803618285602424709e-02 4.250465694592123200e-01
-6.241027823614164749e-02 -1.128401704518716825e-01 5.225975430753226902e-01
-5.588679596146300943e-02 -6.767468733934192682e-02 4.277931467687335898e-01
-2.101442427896308557e-02 -1.168948896392873749e-01 4.872991180962479296e-01
-5.737826678398082192e-02 -1.144707346847092383e-01 4.907852574028762627e-01
-1.021107462331918014e-01 -1.034700131613005003e-01 4.619697008119796888e-01
-5.839428117945406893e-02 -1.057019587260148441e-01 4.412548990319477560e-01
-5.371819074971436597e-02 -3.500607333823376605e-02 4.411025690814313061e-01
-7.009144706523935675e-02 -1.109389989244616709e-01 5.218136618383790726e-01
-9.928844103501276164e-02 -9.849625500604997086e-02 4.575518712284693534e-01
-5.296294030144334947e-02 -8.346901689828031823e-02 4.242552355265387098e-01
-6.842986914952761679e-02 -1.135638307184401175e-01 5.095648359561298912e-01
-7.535757249774985289e-02 -1.123285927592746064e-01 4.781601280740844784e-01
-6.683694885163019017e-02 -1.134110703622473321e-01 4.882006572460835803e-01
-1.259657807195155299e-03 -1.200532543232992189e-01 4.865281000258079858e-01
-3.419564011980687906e-02 -7.980363607116791602e-02 4.378055786871635213e-01
-4.465109233906753433e-02 -9.623567697262740139e-02 4.420219655641315915e-01
-5.612308011487374126e-02 -1.116241264786564102e-01 4.694929648241818465e-01
-9.274564130431359188e-02 -9.515608997473755382e-02 4.497452806412752802e-01
-6.701091489805524604e-02 -1.048565522958172791e-01 4.258794723794520620e-01
-1.586117543140712002e-02 -1.143961837268256121e-01 4.781318347423653692e-01
-8.072592233896219716e-02 -1.106448550314250018e-01 5.098154175933440335e-01
-5.331313842399168501e-02 -1.128715535374895801e-01 4.782291340803662139e-01
-1.346682277914200247e-02 -9.889915419619314807e-02 4.550477048240041400e-01
-1.811225268650717979e-02 -1.071885150629657696e-01 4.652648410303071858e-01
-3.765847097473992711e-02 -1.144318051407051673e-01 5.422376502136039278e-01
-3.315961204640301141e-02 -1.099269900569558589e-01 4.718290314405850228e-01
-3.380209561336952606e-02 -1.002749024807818162e-01 4.549324223211572149e-01
-7.074403362405679019e-02 -8.397900788272771866e-02 4.247609950954979174e-01
-3.457959684549924417e-02 -1.052722773797696298e-01 4.625915983755646832e-01
-8.103000634853532724e-02 -9.252390860625545055e-02 4.326536369608435240e-01
-4.918546543422674944e-02 -1.065990074537186416e-01 4.559581536633690590e-01
-8.932839886400562035e-02 -1.033084305946849746e-01 4.505524239122118968e-01
-5.165991929078901646e-02 -1.112847744037938208e-01 4.691955156454073461e-01
-6.046010180780773957e-02 -1.147942235314570736e-01 5.030491807132044801e-01
-9.408720050616943553e-02 -1.103632813193033413e-01 4.795168675269387837e-01
-1.437605357836255898e-02 -1.056836612264933500e-01 4.622723183028769611e-01
-9.912099602531206088e-02 -9.977560934250377656e-02 4.580022518064421067e-01
-8.791289354421513713e-02 -1.112829758056792240e-01 4.769149725227223580e-01
-8.340460557390919072e-02 -1.080553501236453384e-01 5.162322325581945037e-01
1.228716408466767711e-03 -1.232989699584749466e-01 4.970366673615374542e-01
-5.636133840180135995e-02 -1.147091058021469379e-01 5.196515871819009647e-01
-8.660454210244704354e-02 -1.113982152997535779e-01 4.954042855597191042e-01
-4.649211908031008339e-02 -9.700542759195389386e-02 4.399425524794524645e-01
-3.598321560382551632e-02 -8.753201942109083145e-02 4.408038978723492485e-01
-6.498197448373957408e-02 -7.843296300998005288e-02 4.265309972575480613e-01
-2.380256569848993378e-02 -1.192743039525038934e-01 5.359499614483783647e-01
-1.975708169091788813e-02 -8.855186458824663986e-02 4.461195198653281069e-01
-3.344918499448789467e-02 -1.190816892349788325e-01 5.117681447703125164e-01
2.587009240433152911e-03 -1.094073376821322469e-01 4.672607847805488324e-01
-1.005086572890489388e-01 -9.804405902998702960e-02 4.580067820932495759e-01
-2.814905834389437242e-02 -8.226240505555111604e-02 4.411898290557171864e-01
-7.205596477611238282e-02 -9.463859562940636627e-02 4.209859200821296499e-01
-4.961471381303177164e-02 -3.881347241560603734e-02 4.362615485262451576e-01
-2.002553386397294688e-02 -1.202880164043150235e-01 4.984730169603213690e-01
-6.259095227410357842e-02 -7.343338827529800883e-02 4.264374907795713820e-01
-6.227244740153438374e-02 -1.119572605494432022e-01 5.260131129265321892e-01
-7.750011081663459034e-02 -1.045604758390524108e-01 4.388807794328086209e-01
-3.527044615030797137e-02 -1.149646484859897094e-01 5.423324843951737861e-01
-1.650812747094338416e-03 -1.258944312877075533e-01 5.283729127254961355e-01
-8.830326126489243532e-02 -1.111112044760326212e-01 4.960453704309038536e-01
-5.924383530703501016e-02 -6.877608560710812835e-02 4.284888864909325301e-01
-6.757220489597769164e-02 -1.090465535897684746e-01 4.579445355862586386e-01
-5.545305842730134660e-02 -5.583689905350070620e-02 4.323943845645343287e-01
-3.146330881604510188e-02 -1.056482810438245240e-01 4.642059428724724657e-01
-7.446139169848037601e-03 -9.740801204125294765e-02 4.540235953964990578e-01
-4.155810606974098126e-02 -8.527498642202789580e-02 4.352242960052178367e-01
-8.452052108500769656e-02 -1.118784221028762266e-01 4.915701358379840902e-01
-5.322055429614529209e-02 -9.353725108806501543e-02 4.236642251068575282e-01
-7.752872233407977209e-02 -1.064346101662264898e-01 4.485855801203012527e-01
-1.440212265369037251e-02 -7.814547091750358165e-02 4.423427888123651619e-01
-3.216362381890075506e-02 -1.181104355854179222e-01 5.295603835618117872e-01
-2.532427094654183738e-02 -5.765714230612139363e-02 4.369847347901375523e-01
-1.809895442086553036e-02 -1.170233845574147058e-01 4.858432233904177999e-01
-9.196041585308510277e-03 -1.151507511158889330e-01 4.760781359053635198e-01
-9.102895721382175953e-02 -1.066888015220628788e-01 5.124143390232455131e-01
-2.704305567725268436e-02 -1.099762700321420122e-01 4.723327125127751991e-01
-3.136172466328498304e-02 -3.738793987149456599e-02 4.370655320407382249e-01
-7.790211825703961812e-02 -1.063392167770525892e-01 4.483194665227576703e-01
-1.375855907424538595e-02 -1.222461749200696723e-01 5.346989718220999110e-01
-3.906137788212526302e-02 -1.013851063460663032e-01 4.530782392544365766e-01
-7.769523674639867983e-02 -1.121391197456724220e-01 4.772461429751725936e-01
-6.228181222553562379e-02 -1.064838665290062381e-01 4.289236939689216599e-01
-1.379143570123612418e-02 -1.237007151496158780e-01 5.135750291332323858e-01
-2.893838591797703516e-02 -7.433677871921033631e-02 4.377851441675956745e-01
-3.773902574890657807e-02 -1.172071278042135234e-01 5.273258158056955969e-01
-5.135200556445167208e-03 -1.179823348904727176e-01 4.808603805393961150e-01
-3.723193515647339052e-02 -1.162400086523567577e-01 5.347653645380086029e-01
-4.210060335009489091e-02 -7.404404254902476057e-02 4.318143620491481927e-01
-3.320060201874948380e-02 -4.158973374912001281e-02 4.362564451941964849e-01
-3.054584465712855898e-02 -5.541754219745528842e-02 4.359873430699924834e-01
-9.917875142620287410e-02 -1.091911495880665828e-01 4.872847523338613152e-01
-2.191944672407611719e-02 -1.215360771409276092e-01 5.156593319830394817e-01
-1.028410629509347862e-03 -1.051112512972460084e-01 4.622222456479088692e-01
-5.317436777026016831e-02 -2.893440316073802449e-02 4.410566690274158597e-01
-4.519703783548593978e-03 -9.498373697469460197e-02 4.526745216397475291e-01
-3.207406425068039940e-02 -9.307494951482250811e-02 4.468797655483320308e-01
-2.916296832598620076e-02 -1.116406404424868798e-01 4.756829683967983002e-01
-2.925872437346636531e-02 -6.905787955024475511e-02 4.368810256402450576e-01
-6.689908853351785555e-03 -6.818738454860587272e-02 4.406326734510743193e-01
-5.457904158256764865e-02 -8.547928749800298709e-02 4.232404187302880039e-01
-1.628735641921009308e-02 -1.192381683212315191e-01 5.447864965900168777e-01
-2.278813359734422825e-02 -1.199303156469087861e-01 5.331097710440388937e-01
-2.592216595297709356e-02 -1.102590207162775088e-01 4.727922423035585409e-01
-9.294511263239561838e-02 -1.002573305404557413e-01 4.509704655063645484e-01
-4.105617788700019477e-02 -1.169203951712893264e-01 4.973565107784540529e-01
-3.529553184133395194e-02 -1.112703381857803181e-01 4.746287098312212960e-01
1.004312668588668543e-02 -1.255358088804195416e-01 5.375854396739904173e-01
-9.866615527741391667e-02 -9.486712399071867141e-02 4.571331761713882114e-01
-2.411266946771769767e-02 -1.203611670374962750e-01 5.257098557583218534e-01
-1.065692117552017454e-01 -1.051868844540087972e-01 4.999790495483185659e-01
-3.370821623138370304e-03 -8.468754433611487553e-02 4.470728598660605457e-01
-3.342325643803747276e-02 -6.885910928985497503e-02 4.354131896213087605e-01
-2.454059959964454210e-02 -1.200549374797647562e-01 5.279925547243512485e-01
-1.078521032358428500e-01 -1.027636729149803280e-01 4.736964280742247402e-01
-9.471487666969569119e-02 -1.102943207869198639e-01 4.856299048680285946e-01
-3.410027949994531155e-02 -5.799297522431964141e-02 4.352768603661804070e-01
-4.759537534769677641e-02 -9.537429838974358087e-02 4.317381605754480600e-01
-2.169088014570444423e-02 -8.322509792171761678e-02 4.432178005495485129e-01
-6.532104137324638848e-02 -1.120623939302221178e-01 5.224834286102684189e-01
-1.014719642109246089e-01 -1.059410878664463762e-01 5.035776900441261139e-01
-7.505136301701122344e-03 -1.243399280919621902e-01 5.309905353269602779e-01
-2.270611769891864307e-02 -5.927525393346089189e-02 4.374897814062171930e-01
-9.709292861846610667e-02 -1.086737248886712609e-01 5.013827486208002338e-01
-4.742829520346441424e-02 -3.714735481441194809e-02 4.359742770638423415e-01
-4.817214242953531816e-02 -6.710724876432662411e-02 4.287540205313683517e-01
-4.156833404615117161e-02 -1.121712644261381869e-01 4.780139669705473771e-01
-5.675753947226974683e-02 -1.153097619088313264e-01 5.121699289946018974e-01
-1.259760955468148570e-02 -1.206207068778748642e-01 5.426613012918293233e-01
-6.175692217763381620e-02 -1.064272795143220568e-01 4.282804055320655889e-01
-1.030461203958582816e-01 -1.026678436799026289e-01 4.620092350754038679e-01
-1.105912365046009954e-02 -1.138700278063304039e-01 4.742595089790376250e-01
-5.275940187336317783e-02 -7.824784109944829535e-02 4.253222036164260311e-01
-8.184554016594213985e-03 -1.234950202963106258e-01 5.010750252874395239e-01
-5.639653014325951563e-02 -1.063228664451227323e-01 4.307185307450681067e-01
-3.111356153757326160e-02 -6.455842969831897260e-02 4.361533164488555214e-01
-8.854036337285632607e-02 -1.104218987958558579e-01 4.700897594217689490e-01
-5.610639158763627149e-02 -1.152519389196442201e-01 4.982523561803080536e-01
-1.966814141774987298e-02 -8.869173965787625902e-02 4.462012042666586575e-01
-9.182351930893177527e-02 -1.097795260684937130e-01 4.701432260354282411e-01
-4.881453330917364525e-02 -1.163166753084135668e-01 5.038942104641684905e-01
-7.103974089237216627e-02 -1.022090600856213893e-01 4.249060838881227320e-01
-1.344383951460968816e-03 -8.178752878546054206e-02 4.461537671921676496e-01
-4.472228161001558233e-02 -4.799357891536980975e-02 4.338678993263941908e-01
-5.419643990271338224e-02 -9.779531825821319302e-02 4.227465921223658163e-01
-2.939737801667784839e-02 -1.171755310816262052e-01 4.922732161142551188e-01
-3.623915574252033200e-02 -1.166700141764870635e-01 4.930907769541078012e-01
-9.743716885390333454e-03 -6.275672444326343968e-02 4.390860658122430760e-01
-9.063105848194115757e-03 -1.247050885570060719e-01 5.224610265863089964e-01
-1.062325652716962360e-01 -1.069506636336496619e-01 4.857380491771312592e-01
-8.403626717563653439e-03 -8.309066938904587085e-02 4.454389318388359276e-01
-7.593553836158821457e-02 -1.115719856956501888e-01 4.724875671579939485e-01
-6.187622029922833222e-02 -1.063849244257515508e-01 4.332182527800871874e-01
-4.889778789099705203e-02 -1.163941670466103195e-01 5.114147757857107068e-01
-9.135292432106423277e-02 -1.108289933212850548e-01 4.779907304110135868e-01
-1.016494435661573770e-01 -1.070392770853879766e-01 5.008412957122294618e-01
-4.206791713608069860e-03 -1.068210388543626571e-01 4.636263424293464164e-01
5.038697764556437225e-03 -1.262710580124583593e-01 5.318627150633044032e-01
-1.117018955741389818e-01 -9.651547516914035785e-02 4.782912967632451107e-01
-4.060560278410815099e-02 -1.176942646435942819e-01 5.144386601424134620e-01
-2.112780209482551658e-02 -1.207073999011153143e-01 5.016097321305237333e-01
-4.585699990118553490e-03 -1.241726376337603938e-01 5.018186994155248160e-01
-5.884326735493732030e-02 -9.928269190664433530e-02 4.214839754675309136e-01
-7.877712736285623352e-02 -1.093171685818926930e-01 4.607318141812983270e-01
-2.500761677667432889e-02 -4.804378130714189593e-02 4.381685336804443942e-01
-4.581232219236684722e-02 -6.437090601359703179e-02 4.303174440720054506e-01
-1.115205564885039455e-02 -9.848101547462689842e-02 4.547038460754717071e-01
