4.257840620441240981e-02 3.342353483935642244e-02 4.938706939909926485e-01
-2.556402444815549652e-02 3.308241652462141219e-02 4.488750553748024896e-01
5.685394294057350383e-03 4.031893888675009557e-02 4.563080599028004891e-01
1.593876472884037804e-02 7.486892150395398071e-02 4.972625776064152903e-01
2.490492530631186266e-02 4.150591485801637115e-02 5.214569942967618443e-01
1.157993853734461814e-02 6.506653247561514086e-02 4.668541705033986688e-01
4.068983567856093719e-02 3.231784137743200225e-02 5.012878604399325644e-01
1.336243084620221053e-02 5.301905695297001730e-02 5.262244898438163121e-01
2.290207864837439170e-02 1.791144311117289986e-02 4.515449278185526549e-01
9.023330369840272536e-03 5.819773345767993017e-02 4.633233592939499657e-01
2.135806273096978528e-02 7.343409557023670986e-02 4.937515948315817083e-01
-5.678181310034720146e-03 4.993516252742682265e-02 4.572415964762706619e-01
7.825611054745435294e-03 5.938444935475933190e-02 4.632373737520766310e-01
-3.148314840791839597e-02 3.894764977139655859e-02 4.514355270751662097e-01
6.416721252823714451e-03 2.325020405689417341e-02 4.493879961626115471e-01
-3.097409553653288766e-02 2.708160953655834244e-02 4.466208773068226501e-01
-2.809951847999485677e-02 9.281503767960700216e-03 4.403493322230430107e-01
2.379654975438982509e-02 2.095066991871512296e-02 4.534192524513856459e-01
2.510470991182428557e-02 5.090625959759511460e-02 4.686151892338452640e-01
1.149491873924045164e-02 7.943298614170463123e-02 4.803667855289259769e-01
-3.952079389802388987e-04 -1.080599223245676081e-03 4.386000915127283850e-01
3.266966722955412517e-02 5.160682764290992069e-02 5.081346649359702594e-01
-1.539324908450097860e-02 -5.829813446810770336e-03 4.367913724852950375e-01
3.674254771823667193e-02 3.431388559808742217e-02 5.087759832219307388e-01
4.117292587880419519e-02 3.872588818732930482e-02 4.840165376645701456e-01
2.415217754425330599e-02 6.818370568504918128e-02 4.981308141134440093e-01
2.821225459324914336e-02 6.519148272772372354e-02 4.854475460413325560e-01
2.907957568191568698e-02 3.100981566557286379e-03 5.323438614006796854e-01
1.877183889683832138e-02 6.010507023692084755e-02 5.195539015632330004e-01
-1.575463517732934859e-02 5.303849897373008604e-02 4.579142580650419347e-01
2.412746325280366519e-02 5.970013930475555342e-02 5.134487018515261347e-01
4.120819493595387351e-02 3.931705427975379363e-02 4.943877441696438169e-01
3.996075119692320265e-02 2.459045468025104070e-02 4.665906916268928728e-01
-4.056351393622800033e-02 3.363802232515752944e-02 4.497420208712503698e-01
9.301225408942882800e-03 7.649279571783380860e-02 4.756398186542384887e-01
3.366829802227950391e-02 5.179942061442696644e-02 4.781283096744453065e-01
-1.110749199040201619e-02 4.074024650383509943e-02 4.536927259757152497e-01
4.353327403235485171e-02 2.825932977509359317e-02 4.949475400893002530e-01
-2.033976126401846468e-02 1.411398906924682221e-02 4.413679555950811850e-01
2.072047652333734724e-02 7.204869310175962549e-02 4.790641952885312249e-01
1.004992689342104790e-02 1.206687477849026184e-02 4.455729626225697904e-01
2.430860167203215128e-02 4.290943379690004972e-02 5.210480781022626129e-01
-2.824124384112502648e-02 4.942589871964159914e-02 4.576164815322719126e-01
1.919000864055998151e-02 6.884118447444539934e-02 4.732101511025704754e-01
1.057750471020183283e-02 6.725334719675833683e-02 5.088159777768753722e-01
-1.375854893964474635e-02 3.006688968717559710e-02 4.485070442858715145e-01
1.651439911149698084e-02 7.163607620833047085e-02 4.733536822012314182e-01
-4.298910345867043570e-02 3.444300997902950690e-02 4.504123638727940415e-01
1.779278116632680706e-02 7.464534734224634316e-02 4.979473168904093860e-01
1.159189253304233891e-02 6.948266181807165320e-02 5.068313529296726294e-01
8.052849101044031593e-03 7.899573128845026326e-02 4.790005442716324113e-01
2.856489006573552716e-02 3.683633393515760995e-02 5.195160278310119173e-01
-3.706961435356865425e-02 3.379143873813806459e-02 4.493897894708278051e-01
-2.001189954117276511e-03 5.923121096005736635e-02 4.605003967845747725e-01
3.634897023708535957e-02 4.922686544323060659e-02 4.996400430265151571e-01
2.130983034097171103e-02 7.206711211190817978e-02 4.801104667516660207e-01
4.038753309245025902e-02 4.151031475768387352e-02 4.951528854747122010e-01
2.632315397183634595e-02 6.634087663946289237e-02 4.803860449991483317e-01
2.801302015064010414e-02 5.141676085498485260e-02 4.712146253802768636e-01
-6.266950616598156512e-03 6.043318428400980269e-02 4.607696986500162684e-01
1.501207266947561514e-02 5.152736942040250095e-02 4.633949909913953613e-01
3.719845131046625730e-02 1.840667226689706934e-02 4.606847676324408170e-01
-5.196518902261217793e-03 1.090982287431768380e-02 4.422507145429661612e-01
6.395023492307657861e-03 7.539302635472398817e-02 4.813935124303321267e-01
-1.584298439697394770e-02 2.421720271646434636e-02 4.457461916323608997e-01
1.897917709018874521e-02 3.264514303851837745e-02 5.312963260498633211e-01
1.712134851206873962e-02 7.536654306523687952e-02 4.950902892747163220e-01
2.188515359592581311e-02 4.748699909724189705e-02 4.649352615930754662e-01
2.415070562153496386e-02 4.410413674452262622e-02 5.203058534561834092e-01
5.664169083344353268e-03 7.480604944871378781e-02 4.795757123109250508e-01
2.362334372080463277e-02 3.908179117995267543e-02 4.619997190941816934e-01
-2.614600872683442434e-02 9.022330271079102154e-04 4.379595069551210362e-01
2.225116560612122249e-02 4.349490939704812875e-02 4.633867883729407833e-01
5.949167248760977092e-03 6.149883051082237484e-02 5.290482152443437558e-01
2.648180281915565176e-02 6.757820384044069262e-02 4.832977412694887676e-01
5.264532541132757246e-03 1.540684108875426100e-03 4.405135789731330909e-01
1.881537346488225057e-02 1.422554072506025148e-02 4.486214359796955597e-01
-1.017706524548046831e-02 9.749724866914435614e-03 4.410188745616347994e-01
2.532210249500767285e-02 3.987294160650391162e-02 4.632766759076358265e-01
6.577822352256163137e-04 2.353100175888422560e-02 4.483663714180409765e-01
1.128577175169387728e-02 1.047133597487335394e-02 4.451703842389589938e-01
4.555443201645920093e-02 2.270267176891413441e-02 4.796421530576452374e-01
-2.255133946461668898e-03 5.659987516392515211e-02 5.241721732096433772e-01
1.230169833453904731e-02 7.878984429321360394e-02 4.821562968950406924e-01
1.825804763182608051e-02 3.967080405995501019e-02 5.317579530651452835e-01
5.345220314022635505e-03 5.268870482424520968e-02 4.603526606263241838e-01
4.166316787823124562e-02 2.917992479128480796e-02 5.000940474134325520e-01
4.217298277875826396e-02 3.562967471129635522e-02 4.842443635039121452e-01
3.023160512389017063e-02 5.931377913865875512e-02 5.013776037030391874e-01
2.544186697362587832e-02 6.779200323008210960e-02 4.811470696189910634e-01
-3.948176903533392491e-03 5.892028537491952184e-02 5.329015331879959350e-01
2.754101380632912113e-02 6.415043610951053077e-02 4.976784444185214373e-01
-5.346979882543548626e-03 5.983657973749573894e-02 4.603098741693674723e-01
3.829217028523569655e-02 4.628248838326420866e-02 4.837431512950495227e-01
4.585751741616363869e-02 2.317979623377485615e-02 4.852286667932437791e-01
7.255414728033900487e-03 5.810491888069266309e-02 4.626441508110302192e-01
-2.181658914042935906e-03 4.608651854078248816e-02 4.565482518534981216e-01
-2.647244910069230378e-02 8.696771617793735282e-03 4.398158076565251151e-01
-6.565704230749535263e-04 6.897458690478162902e-02 4.682662296848194017e-01
4.362717928557430930e-04 4.974078552596206126e-02 5.391991256182925296e-01
2.580329964553064286e-03 7.077825995157056849e-02 4.718174926858997309e-01
4.285202008801640428e-02 3.174314963082389834e-02 4.787938991215288653e-01
1.540224572957160989e-02 7.543104488287559473e-02 4.775975048730371486e-01
3.316235893709164329e-02 2.774552100809563049e-02 4.622354470994960440e-01
3.506243007089191246e-03 4.049141707298274662e-02 4.558665944493417999e-01
-5.348428267885436613e-03 2.500273668342154962e-02 4.477897638732670771e-01
-3.381767433453840288e-02 3.605584265852386765e-03 4.394407380821045983e-01
-2.160463150106052901e-02 3.831146366987570745e-02 4.514675134031123083e-01
-2.322811715553169121e-02 1.128608522877320823e-02 4.403617306512368490e-01
2.297132801748028724e-02 6.997922238302130282e-02 4.973187210964890026e-01
-1.193413982360276744e-02 2.057979899562033949e-03 4.381802332717378845e-01
-3.859470460980126295e-03 4.615824080607293378e-02 4.563074491901080165e-01
4.563093282167134113e-02 2.269095744105980791e-02 4.916361173632944892e-01
3.583782249018452326e-02 1.984938639926565884e-02 4.603192553250812225e-01
3.641616309125472739e-02 5.040979391820717831e-02 4.926911256318114440e-01
3.095591982612568537e-03 4.888699986470063097e-02 5.385043662288935273e-01
2.242280157905312057e-02 4.988356603902407982e-02 4.662741697809004160e-01
-1.054174593760594074e-02 6.178993542962780451e-03 4.397348795377070130e-01
4.603831663314921635e-02 2.195547620314422521e-02 4.814953055582481545e-01
-1.448307998458522048e-03 3.674260479455346978e-02 4.533655996448445191e-01
-7.527968860997314576e-03 2.071079551890653292e-02 4.456654337594166404e-01
-2.226326233798072568e-02 5.581393892318435579e-02 4.600055764612053788e-01
3.336384997538197755e-02 4.758036836446959128e-02 4.744131723374690468e-01
3.393840893735006192e-02 5.556737852377992976e-02 4.888401400992877233e-01
3.917016321422214786e-02 2.756417611490134117e-02 5.075726365124021422e-01
2.827639712255830898e-02 3.300691695489852556e-02 5.250025636902022619e-01
1.320674652435303680e-02 6.313362849956645484e-02 5.210065521779978504e-01
3.416743746869155968e-02 4.555217071446562155e-02 5.094392381560038929e-01
3.889014023701679867e-02 3.755942270932250554e-02 4.746307327436952717e-01
2.133611233526332834e-02 3.036437450085756763e-03 5.324319581098592158e-01
1.831445451448095521e-02 4.783293914881277253e-02 4.632416648296491246e-01
2.516428885086994388e-02 5.963041376818383615e-02 5.122109385469847398e-01
-8.124649527184413592e-03 3.422231239359442567e-02 4.513180631940153509e-01
-3.968289547200116660e-03 2.027735803431683290e-02 4.461443902866957245e-01
-4.234732805121962929e-02 3.712614638459119792e-02 4.522637963661076399e-01
-1.321735263316967286e-02 2.991894203425842641e-02 4.485090162543575731e-01
3.453789624518107879e-03 9.920620130709384074e-03 4.433795237852080628e-01
-6.354292448741159782e-03 4.582531826765690736e-02 4.558849917717978650e-01
3.950253507238069006e-02 2.529432379864296129e-02 5.081386374293719310e-01
-4.965755790837887013e-04 4.717445970389074622e-02 4.571671874966594662e-01
-9.434342160728944118e-03 4.638019292459599069e-02 4.557790791733590807e-01
7.602091807573410978e-03 7.698806207189655415e-02 4.808994524705269002e-01
2.408121033936631156e-02 7.025947366229380597e-02 4.837343463662970855e-01
8.576199689348740912e-03 6.156047555294488771e-02 5.276518099538515250e-01
1.049856155512588797e-02 5.973378252931418192e-02 5.270947303078964419e-01
9.521738046673463782e-03 5.676986065774126955e-02 4.630738137887680517e-01
1.310800108630182786e-02 2.278550158559377453e-02 4.506907133828135237e-01
8.502555183980124720e-03 6.362911977024418575e-02 5.162860736579257814e-01
-2.351772256785744641e-02 2.342292729221922762e-02 4.449270758838790862e-01
2.061373907494956983e-02 4.859629772002652115e-02 5.219871219121210437e-01
2.827014027722276474e-02 4.563390345051164532e-02 5.165510575527215709e-01
3.423611103377219300e-02 4.768459036968577397e-02 4.754534169341074201e-01
4.465514265832840751e-02 2.673600274089665829e-02 4.818122308186996161e-01
3.316764064116863725e-02 3.403736244505697200e-02 5.145070995190073049e-01
1.119700793659120924e-02 6.291298265781822274e-02 5.213429507620659376e-01
3.338989676937908352e-02 5.652310417152557609e-02 4.891558668496571727e-01
-2.638290764736414898e-02 1.387101574145047783e-02 4.414841328563802181e-01
-3.437557623443766169e-02 2.171826591415046415e-02 4.450142953512897237e-01
2.603682139851035138e-02 6.585004773881884821e-02 4.787626085390111474e-01
-1.348953998267074343e-02 2.593082171435155334e-02 4.467081493303463602e-01
3.988958982756751759e-02 3.709576001791030364e-02 4.761613975856205938e-01
7.288809791826910724e-03 -1.301552962928325275e-03 4.399461148224725338e-01
-4.099350931756359437e-03 5.670165818844494915e-02 4.594965921713650148e-01
-1.169857090382217697e-02 2.737530591221492074e-02 4.476320272394385125e-01
3.373358049052310043e-02 4.192196061816196029e-02 5.114557941999410273e-01
3.300609726025043392e-03 5.124916351197007780e-02 5.369046501689341833e-01
3.032398754516954162e-02 3.961555378662983545e-02 5.168052735160110212e-01
2.116870817241786606e-02 4.363514140527172125e-02 4.629111661269463274e-01
8.031363910291161590e-03 6.847104728742615942e-02 5.046060443589112099e-01
2.334251169343056626e-02 4.478669317691121032e-02 5.206910330669330955e-01
3.691198540549937845e-02 4.961721701950560365e-02 4.921124560811399595e-01
3.738680492886427981e-02 4.461126505672820264e-02 5.036989236902538192e-01
-7.000581629663187554e-04 1.371940347036057148e-02 4.441432403010739383e-01
3.326712112578852909e-02 4.860147117122211313e-02 4.751530648786218003e-01
1.597862737005500966e-02 6.900005693732506884e-02 5.080321223280794829e-01
-1.120825818888076912e-02 5.570123216618306367e-02 4.588583667833380786e-01
4.280148358998829561e-02 3.447720655990216265e-02 4.884020131655575914e-01
6.182042118476947443e-03 4.139262730568373655e-02 4.568443545356369873e-01
4.320036277483842863e-02 3.253240459640976273e-02 4.857137825379955753e-01
8.420946805820856557e-03 7.894370778576564884e-02 4.781639951632439267e-01
3.109111669044310397e-02 5.737521822698509605e-02 4.777979815385778872e-01
2.157810852804279214e-02 3.586664295490064880e-02 4.592747802238791865e-01
2.544976536044084303e-02 1.448662774261498185e-02 4.514235297898998578e-01
3.193311371946098293e-02 3.549805519213376781e-02 5.156475414700474325e-01
7.787967504066421222e-03 2.586120296593595949e-02 4.507607780351304272e-01
2.134971283088631360e-03 4.054615014949940893e-02 4.556104108314239509e-01
-1.813655901537426784e-02 5.999326803448420259e-02 4.646163112442087684e-01
4.769826779940346262e-03 5.941358054176407166e-02 5.317680759154678194e-01
3.675998168934642429e-02 4.426531405295128924e-02 5.054447925050707946e-01
-2.816180438512826817e-02 4.880487241786417470e-03 4.388713984956609804e-01
-4.251761660842782314e-02 3.264578003093734915e-02 4.497387651248593854e-01
2.934227317848809441e-02 5.296622438448607417e-02 4.733500023471030604e-01
4.293317237651966822e-02 3.084462408263150685e-02 4.948641364520585673e-01
-1.659440129612323178e-02 3.897040913907241777e-02 4.522757476177115543e-01
3.041249756035147023e-03 6.127668387362084079e-02 5.305695202682213507e-01
7.873779867230933788e-03 6.494088891392244163e-03 4.428473454596707493e-01
6.710670771420223016e-03 7.574185534116797958e-02 4.772874637146326537e-01
4.474955941965588768e-02 2.588385841994048781e-02 4.916166661578243446e-01
2.766765427200419333e-02 6.505420451363101708e-02 4.814907698965009697e-01
1.393928156644168304e-02 4.023128837443946254e-02 5.342334742802181680e-01
-3.000590159109838700e-02 1.308307488836252426e-02 4.419587980191140852e-01
3.189263688608457575e-02 2.866489279101370330e-02 4.617661326101919483e-01
3.225483104963721565e-02 3.034061876797022883e-02 4.629056101052682615e-01
1.488221925533517176e-02 1.765276368456988529e-02 4.489423445799597956e-01
1.761081514595961434e-02 1.508864917055149565e-02 4.484718965500514298e-01
3.922464786572720657e-02 3.648648299536474959e-02 5.040192904851730216e-01
3.380666188420279432e-03 4.461482589862003634e-02 4.572747596023588046e-01
2.353927180357484952e-02 4.563149836136769916e-02 5.202693903909864082e-01
9.874027944895627518e-03 4.935937628917549252e-02 5.310636876948983121e-01
3.177646034792258600e-02 5.941480389770199128e-02 4.902852298029538036e-01
-2.314078946687564940e-04 3.281024300168383211e-03 4.401618011021716237e-01
1.708930544519195530e-02 7.491098696653750166e-02 4.785931612208250696e-01
-1.731884435743213935e-02 6.019316818262197138e-02 4.642330168681110814e-01
7.938990617624087226e-03 -4.732598672762444898e-04 4.403485865110696174e-01
2.103585166160910902e-02 5.088251474076724984e-02 5.208158232374325847e-01
-2.530580271826981739e-02 4.310904028545914368e-02 4.534087991332843570e-01
2.776337183610048248e-02 6.569669410323468461e-02 4.831606576149367061e-01
-2.457479478173382748e-02 7.682249572913716837e-03 4.391951445432485390e-01
3.055678665616788636e-02 4.343309593579203903e-02 5.151722615218828905e-01
1.055435254323965587e-02 5.729698729729869322e-02 5.272198807784278518e-01
2.996907555147683942e-03 5.972163123712839056e-02 5.175704370720514147e-01
-9.726318288753834501e-03 3.215443402954580587e-02 4.501165176994634254e-01
8.209464452770865589e-03 6.982599659401794723e-02 5.010700970721621017e-01
3.630978049971678168e-02 3.173571602274638526e-02 4.669143468304115530e-01
2.969967562446481496e-02 3.059724255719691727e-02 5.246056479462654076e-01
-1.063649114580728083e-02 -6.022560285452309078e-03 4.366624912583818019e-01
1.159475773609200400e-02 6.635711417026779468e-02 5.104132401550315334e-01
-8.600657665897975049e-03 4.030072889022415228e-02 4.537955467692253997e-01
3.535108195117798308e-02 4.918533991824276114e-02 4.795579341338597201e-01
-1.509269832798696472e-03 6.186139577094396796e-02 4.621637889621709183e-01
4.355230418946676868e-02 3.105923482719469275e-02 4.844400823798705735e-01
1.479707000913034649e-02 6.583376580325893401e-02 4.688288118876789423e-01
-1.100827209893292385e-02 7.950657148769735977e-03 4.402660409208867254e-01
1.637300538912102397e-03 5.961541164188949304e-02 4.612772594739623644e-01
-3.898656434118429742e-02 2.466060990772465239e-02 4.467480219390736473e-01
2.155069199049014159e-02 4.759088681705686552e-02 4.648010215906367981e-01
-1.682467259212239771e-03 6.855810844659229741e-02 4.672836280811105691e-01
6.687439473723520798e-04 5.896657874959338602e-02 5.247513023719820868e-01
2.092327628435552977e-02 5.951036699960352699e-02 5.176083427972274498e-01
3.039660182189918292e-02 6.054823696709422942e-02 4.970415850468029584e-01
7.667909970301242661e-03 2.152808775363387189e-02 4.489393486201455619e-01
-3.561002624450140819e-02 4.407657089987743887e-02 4.560226413380530364e-01
3.431495037580239299e-02 2.776136234033453956e-02 5.186776476529965096e-01
1.509039311265931819e-02 6.799962773143740369e-02 5.103457742435905109e-01
-4.083615601523594985e-02 2.181668559742368924e-02 4.462677955633653770e-01
3.620428174596040938e-02 4.562899890222938543e-02 5.057096568370623713e-01
2.889360842873592641e-02 7.503847679138446990e-03 5.295357306687997756e-01
2.779656311914101979e-02 6.071184747604132376e-02 5.064755129957273505e-01
2.179874052529579692e-03 6.074304486576338757e-02 5.337005018060575479e-01
2.345698360548936767e-02 1.970906061758483444e-02 4.526627162614200173e-01
9.990125088448367427e-03 6.857268607477878808e-02 5.070432261322525003e-01
4.030754091269182771e-02 4.126474985584569627e-02 4.965015972665717259e-01
3.604063208099746868e-03 7.035317401450219554e-02 4.695460292501651978e-01
1.549389423692260938e-02 5.521839704207980037e-02 5.240224952124999946e-01
1.310028739874295224e-02 7.457613909586847944e-02 4.983384884500468015e-01
1.255922945519365522e-03 5.312605297941486171e-02 5.373831044606300900e-01
-2.875631778604220354e-02 4.452759155120512152e-02 4.544963475385501162e-01
3.094445552120065127e-02 5.958536595892242188e-02 4.969819948465575843e-01
-3.315491855601278293e-02 2.656119100976819455e-02 4.465922128812823133e-01
-1.962647338030941001e-03 2.423515113275723915e-02 4.481404034564471228e-01
2.358245133735827233e-03 6.083733490182546833e-02 4.618987340654726603e-01
-2.279010911240188925e-04 4.725066991475379563e-02 4.572342565454576846e-01
2.771414782070897101e-02 5.018297299099597208e-02 5.155165651220373624e-01
3.626054569526672433e-02 4.824501588574402894e-02 4.805563089931720322e-01
3.375967386669954245e-02 4.988353888200524472e-02 5.073096511519411544e-01
1.740647078402868253e-02 2.361607780783005900e-02 4.522343210502722810e-01
2.509545006871326950e-02 6.975519684314467062e-02 4.892009040217781823e-01
9.958581290635218353e-03 2.739509766805403677e-03 4.418128974623597438e-01
1.781485079290099499e-02 1.746545556463124579e-02 4.495161692943687171e-01
-2.526710305209063645e-02 1.076781464394421274e-02 4.402933122875072880e-01
3.032345567385477322e-02 5.747759725833952865e-02 4.769328731098375074e-01
-3.423315793777866045e-03 5.850331579440008062e-02 4.601040732115759813e-01
1.546430357544116216e-02 6.038276408164119230e-02 5.228902493043610100e-01
1.722048247615832681e-02 7.381345106999655237e-02 4.768317583839045137e-01
-1.836163078547978916e-02 -3.089595309476427659e-04 4.373146504030786530e-01
3.696972728091125343e-02 4.961172011552465733e-02 4.913178208764920063e-01
1.439915045033807357e-03 6.967189702579983102e-02 4.687250110613094822e-01
9.087300293135985516e-03 6.419362956038887624e-02 5.119821781456220799e-01
1.893730582515852634e-02 5.208814412748572625e-02 5.220691459138474544e-01
1.346898506244148183e-02 4.663577395518425650e-02 4.608708232681360539e-01
-2.697671689529781980e-02 4.573786522817896438e-02 4.550861282330785906e-01
3.457728269479719285e-02 3.676814873097419833e-02 5.122971619898485374e-01
1.502357498404749934e-02 6.894569287245512490e-02 5.090039693588439551e-01
3.526107457545171048e-02 3.271978750944896236e-02 5.124501498591412796e-01
-2.880750927752493556e-02 2.912362560024035416e-02 4.472568086881081317e-01
4.004518259032041616e-02 4.129453896354074588e-02 4.806733199900220521e-01
2.411552561539468537e-02 6.989939760557509207e-02 4.932272719048673704e-01
-4.057809957219454811e-02 2.275124782366866674e-02 4.464960741928448718e-01
3.085885209539121835e-02 6.084966885252695440e-02 4.863524642424929545e-01
2.199816596775659369e-02 6.742854082230230472e-02 4.746410310344978400e-01
3.792132751918739220e-02 4.791320952244477321e-02 4.868832433287686445e-01
3.731093894873060979e-02 3.365149619287582244e-02 5.078631567761557886e-01
2.359980923950687204e-02 5.703063429774139076e-02 4.704091874194413214e-01
4.224798441105217378e-02 3.350450430044141226e-02 4.955575132324538945e-01
2.312273174289672037e-02 6.484016771058929984e-02 4.741049659024971774e-01
3.930721999928289689e-02 4.359213919478343441e-02 4.985042257729257464e-01
-1.692113627983977617e-02 5.876629538574797140e-02 4.616300997245924576e-01
-1.887701531409769970e-02 2.294583783378956535e-02 4.449253408665966303e-01
3.917289789733336552e-02 3.313288596443696166e-02 4.713444793265655908e-01
1.883309788781411826e-03 6.437738234573597840e-02 4.642957562461989540e-01
1.852384797055480620e-02 8.428078081961165591e-03 4.461029979739865037e-01
1.070589194895269283e-02 7.110932291192285926e-02 5.016285906212560874e-01
1.179187938657884002e-02 7.596933018172752350e-02 4.884026610913031474e-01
-1.086266187445092055e-02 4.740354517005668233e-02 4.559970200969867826e-01
2.156316416813076897e-02 6.649215782445107303e-02 4.736430074268133672e-01
3.375134353956782407e-02 2.453392212848347700e-02 4.610073300204060032e-01
2.125910897695367299e-02 4.128661505735969212e-02 5.261895153993522145e-01
2.297992004781971784e-02 6.060008378205519047e-02 4.717429583483698785e-01
3.565445844905602846e-02 5.119836237359216835e-02 4.954442355563168920e-01
1.114865125488796564e-02 4.508253859475452874e-02 5.336049752087312914e-01
3.559106999070175970e-02 5.236015800185745556e-02 4.902100097540463830e-01
-4.959628374642872060e-03 5.562906926691501414e-02 5.265513249808508878e-01
-9.248605043553112526e-03 1.784911630908725746e-02 4.442558439310343998e-01
-2.560711884434687530e-02 4.003796104843405923e-02 4.519168514239970125e-01
1.225067623489872054e-02 6.591982828304077113e-02 5.113026056385461260e-01
1.618501445627922204e-03 5.428048928251964084e-02 4.597236246403948456e-01
3.984028902994459637e-02 4.325633144066480529e-02 4.864096923440385800e-01
2.287849194221651394e-02 7.245264000337782451e-02 4.903626438631680795e-01
-3.869948756006238739e-03 1.437351183208734201e-02 4.438103009379280595e-01
4.082290096040788047e-02 2.513255047018757987e-02 5.053844806456092575e-01
1.335219618811432814e-02 7.474350309014382576e-02 4.754262628438367666e-01
2.660907367584160535e-02 6.340422280908086794e-02 5.032728053838957383e-01
1.311575058872187574e-02 7.543944949633210606e-02 4.902462133605289263e-01
1.830862658712259505e-02 7.052467859989347554e-02 5.042399239716601755e-01
3.421931114274384678e-02 5.152650198928884068e-02 4.794666579445804322e-01
-3.239302434265702024e-02 3.384858841412619057e-02 4.492297212227885916e-01
-1.553589495431476758e-02 4.659283570020352622e-02 4.553707863452581273e-01
-7.819906175049944758e-03 2.798106994651683097e-02 4.485816687121571555e-01
-2.334622193936947837e-02 9.420819624386426658e-04 4.375349885701815267e-01
2.461033866191917122e-02 7.039324307446744033e-02 4.882263228912044895e-01
-9.420935798388478666e-03 3.186903145105946661e-02 4.500429689914174913e-01
2.421902609498934045e-02 4.683548749590645682e-02 5.195063910833486176e-01
-9.703083389341819569e-04 5.903271456841054782e-02 5.362509369960954952e-01
1.684337063920307576e-02 6.760213503899170639e-02 4.707218872795347342e-01
-8.271835440938398593e-03 5.355039982968986395e-02 4.582119684027642359e-01
2.166307681763314161e-02 7.185954678442581234e-02 4.806844714892788972e-01
7.747741615201335016e-03 6.406806824799118893e-02 5.109231905938709239e-01
-6.891538099794002059e-03 2.546772754024750549e-02 4.476829427572903697e-01
2.859610206362479465e-02 6.321629537977503654e-02 4.962182906104827818e-01
1.668471561745934334e-02 6.928706091080234775e-02 5.070904605180197589e-01
6.372568622099462551e-03 4.829786547819724107e-02 4.593091812320581058e-01
-2.037244173738243097e-02 5.463807335288688172e-02 4.590948227328965348e-01
3.520232206438839856e-02 5.282736467420347248e-02 4.922450300925690359e-01
2.847189773810235996e-02 5.976761903565307177e-02 4.763104787289852426e-01
4.722393491567824717e-03 6.452058182211081738e-02 4.645911867249823968e-01
1.688905783415642001e-02 6.224869569102804701e-02 4.682852826316380446e-01
2.749002986431776582e-02 4.395240107888816888e-02 4.667183930523858271e-01
2.704548956618875802e-02 6.373287567294312617e-02 4.778981546466580244e-01
-1.157612730665717217e-02 4.517365990111373020e-02 4.551937713564033205e-01
2.218935089075491779e-02 1.304622780061098428e-02 4.493744863117861144e-01
3.506220351417398823e-02 5.027857812293251571e-02 4.803329317027825174e-01
4.222377247728570371e-02 3.501406853748743192e-02 4.939612964330294398e-01
3.296064274914522335e-02 5.615012052159740197e-02 4.962532629477289237e-01
9.474807633923061634e-03 4.997694317406236458e-02 5.311452611028807391e-01
3.779138621077873794e-02 3.650111378796857403e-02 4.717205943741489826e-01
-3.696950902358758784e-02 3.756107731019617257e-02 4.510061281034258851e-01
3.551425883596365934e-02 2.265300068726656610e-02 4.614303934448356070e-01
-1.577752297685527244e-02 4.528629716416449069e-02 4.548244712642981469e-01
-7.092169779462800458e-03 2.994486799816042932e-02 4.495719333118824990e-01
3.182371878369878032e-02 5.564448056555047761e-02 4.775717481548185095e-01
2.508073649334011807e-02 5.667999129166506438e-03 5.316200428691714164e-01
2.483032773710312779e-02 6.828173798490072555e-02 4.954678645670196890e-01
-2.727515303275395570e-02 4.315333775809873651e-02 4.535221840802138860e-01
2.288418274774148622e-02 6.801649494410121066e-02 5.011682334655878091e-01
3.442559846250467515e-02 2.843651952820442502e-02 5.177170467082203853e-01
3.691428069998020645e-02 4.542377055299588046e-02 4.782051424054374333e-01
1.884955118430233639e-02 6.038849364421807614e-02 4.684792791803736867e-01
-4.474812431143158388e-03 5.401945799756063121e-02 4.586334869896497302e-01
5.854556069784614195e-03 2.774429251825954665e-02 4.511474713503013101e-01
1.720613264141769225e-02 6.018494094659278260e-02 4.675679387317504543e-01
2.183374559500805487e-02 3.098803822191407292e-02 4.571041007718903426e-01
3.302342640696600412e-02 5.496999577024358485e-02 5.001516553014748734e-01
1.635979653007563553e-02 7.023942942116882804e-02 5.060023574041262462e-01
1.058858075757261770e-02 4.661821828662585793e-02 5.325495065399182826e-01
-2.222358352595904529e-02 1.032311380618227727e-02 4.399944226618054954e-01
1.864894453067360292e-02 6.074615653325259046e-02 4.685304902167815588e-01
3.416129711143435499e-02 2.963753206662443629e-02 4.639391624137734760e-01
2.103494215791856803e-02 6.592571656088390408e-02 4.728934548655154280e-01
4.114573477004798002e-02 3.849456268732808634e-02 4.965476000196133999e-01
-4.145637326510352022e-02 -1.274115688226536668e-03 4.407296656211330266e-01
2.171526758028869547e-02 6.867648175488334783e-02 5.023399656908719146e-01
1.399269733587270650e-03 5.275361330319677799e-02 5.378143649276211358e-01
3.236415508741903591e-02 2.135451387162957959e-02 5.229834881299971761e-01
3.809634195991568051e-02 1.805637696183252580e-02 5.180284279157415517e-01
-9.651495172115298962e-04 5.852360080204541126e-02 5.261040805460702741e-01
4.330158885928362539e-02 3.008803107498105034e-02 4.938829286840613064e-01
2.720859439963602480e-02 6.684896165832460158e-02 4.898359987525799930e-01
-1.417159450421011727e-02 -4.118649637345040727e-03 4.368242914924249654e-01
9.692599674353614275e-03 3.884244523371520319e-02 4.567036913746579940e-01
-2.138998529279079186e-02 3.013679774754767990e-02 4.477524673057344806e-01
2.613484062206409414e-02 4.277596420087977080e-02 4.652439053084924114e-01
-1.157826149652673971e-03 2.458255988775451262e-02 4.484412925601918287e-01
2.985863017297515562e-02 5.403330490630853938e-02 5.108286456722261892e-01
3.440835248631204241e-02 2.928091803413181843e-02 4.639397917791761583e-01
-2.175443113888445371e-02 3.058962705221636783e-02 4.479177036120341460e-01
3.040068943826976233e-02 3.975191034560912606e-02 4.665760232523876172e-01
-7.518025111279726114e-03 1.811574048826243219e-02 4.446546935749506324e-01
1.099481337732326376e-02 6.282664205026040893e-02 5.216023539993178693e-01
3.222295759396569953e-02 5.861623334540802532e-02 4.905146911765533302e-01
2.015348653028255568e-02 2.709512238910893878e-02 4.546535755855737881e-01
5.565454216657628531e-03 5.408667407368804303e-02 4.608427922355027850e-01
-1.386672289859561258e-02 3.137866605906750993e-03 4.382292170752019600e-01
-2.519283036530329048e-02 2.897439031745491569e-03 4.381223009233108368e-01
2.640274841941830583e-02 4.083523270397618199e-02 4.644643705203019279e-01
2.644841463985802416e-02 3.819597841213102224e-02 4.631952345611897170e-01
-3.972496277705372426e-03 5.212665387453038757e-02 4.580934681680822185e-01
5.173390748790121854e-04 3.758091698061367253e-03 4.404541528591644495e-01
3.366505335001816757e-02 4.337494366153030884e-02 5.108246555297515368e-01
2.372856482070801604e-02 6.517126846805335050e-02 4.748179523921035594e-01
1.266805884419762787e-02 7.133772768699712941e-02 5.039259796599155905e-01
1.771779969637045024e-02 5.608990738384163344e-02 4.661521463047396119e-01
5.156539991299945690e-03 4.334609523655851698e-02 5.366329581745330479e-01
5.074233113610494318e-03 6.013247429428268676e-02 5.315378434736981461e-01
2.652363653610570471e-02 1.685410223411373462e-02 4.529959267696065939e-01
1.353117718590536069e-02 9.709449387842100654e-03 4.453478799925593701e-01
2.175568469946966010e-02 1.572272508687187764e-02 4.501808001227503575e-01
3.056867808621057184e-02 3.199047609662947905e-02 5.224240221195945999e-01
1.076513878019863708e-02 5.324527855158611711e-02 5.284590256236598727e-01
2.243431277166396676e-02 4.158443935875777431e-02 4.625809973300286648e-01
1.119814971439130925e-02 1.561432275057122662e-05 4.411498920915872257e-01
3.561654011531670966e-02 4.972086492670601404e-02 5.018669004831316505e-01
4.180272518760590889e-02 3.308350394284254037e-02 4.767905556713064597e-01
4.214485993843968686e-02 3.453907663047850463e-02 4.796207910326926172e-01
1.269689113556561263e-02 4.433634721920000354e-02 4.597689776251522864e-01
1.976556325711530462e-02 6.180697266688694319e-02 4.695918696531491965e-01
3.478851535540174178e-02 5.234478871638736236e-02 4.822853514202335989e-01
2.378315745012554369e-02 1.113201271879354914e-02 4.492027586920205318e-01
2.286821937415284972e-02 6.859302647292520039e-02 4.775006857814440564e-01
2.946632916166333493e-02 5.901590458152746604e-02 5.044382558910344150e-01
2.930602617145152550e-02 6.364426028283624859e-02 4.881993129022791367e-01
-4.245933360152471560e-03 5.590399986486035283e-02 5.393289485523818927e-01
-1.723976344551442913e-02 3.543015860512686160e-02 4.506037518867083702e-01
-4.469537961965615661e-03 5.593624354336878407e-02 5.260471192931156503e-01
1.488323386781904151e-02 7.100662846895242075e-02 5.050567516424052661e-01
5.731245540699577388e-03 8.691461539995112145e-03 4.433233197032770967e-01
3.255504454537250930e-04 3.705053302207728105e-02 4.538500010857184908e-01
1.670565675607718972e-02 1.304932090073021404e-02 4.474324468775772168e-01
3.718577029484762542e-02 1.954890578225969289e-02 4.612164138287254134e-01
3.633407889730015661e-02 2.666453326965942047e-02 5.141225194312672997e-01
3.587029557604321656e-02 4.943383899577558777e-02 4.813868191585040646e-01
-1.656559772386029944e-02 3.312344521188837626e-02 4.496325302852529071e-01
3.608872451087553196e-02 2.581767004697801265e-02 5.159823737737900817e-01
6.296183341911830780e-03 7.084636261325755191e-02 4.697176407463751202e-01
2.067283203496542154e-02 6.456576408977660053e-02 4.718509615959969317e-01
4.233974460739291235e-02 3.106290695767039908e-02 4.974434539742049188e-01
1.979328562637149361e-03 2.305450003097970005e-02 4.484345273834239309e-01
2.604297037261545100e-02 6.184498041137682922e-02 4.751354684415586838e-01
1.158622486538086679e-02 6.437425356773882057e-02 5.144904314904197307e-01
6.958292996801583585e-03 6.332226089733809793e-02 5.136190901390225161e-01
-2.346585768362344920e-02 3.417547956674679959e-03 4.379372967215359735e-01
1.328779569828342222e-02 7.428607747091335589e-02 4.988863643229390910e-01
4.765979660111192319e-04 6.891340648313036554e-02 4.670916488939558242e-01
1.268643024763092472e-02 6.970235655088966031e-02 5.071079329131361613e-01
3.100935846820391736e-02 4.548691983745671574e-02 5.134999529812775965e-01
2.463910761071252606e-02 6.524249195950994340e-02 5.024999200629520768e-01
9.899704798849927670e-03 3.652193189086187786e-02 4.557719260733810174e-01
2.438313414591916292e-02 1.420872959920567100e-02 4.507328639163738493e-01
2.040287930332991898e-02 4.928620988449921442e-02 5.219063042581676415e-01
3.168181306601701441e-02 3.440832282075753645e-02 5.163650662518024514e-01
3.286788464228160289e-02 5.596016470312063784e-02 4.975642101375683524e-01
-3.517536261770724815e-03 5.932172143229629685e-02 5.349727611589906173e-01
-2.666411714516241441e-02 4.543324714504597822e-02 4.548687531900365011e-01
3.055216525104048619e-02 5.283305474633646914e-02 4.746335717556076084e-01
3.429443622709058698e-02 1.941438651264463383e-02 5.220594816570095498e-01
5.768948275625428168e-03 1.166772037438252967e-02 4.445564593692707400e-01
2.582516631856667660e-02 1.889505058073500526e-02 4.535273678673897302e-01
-2.211081423063681467e-02 9.547023953776668723e-03 4.397104491974913598e-01
3.837484460843057499e-02 2.029363724220095699e-02 4.625613637700192737e-01
1.283733218064177228e-02 6.592750033687695688e-02 5.116526907583726080e-01
3.264837255985013342e-02 5.658528818585159548e-02 4.967367161875134163e-01
2.523075049208008125e-02 5.161062098978100310e-02 4.690854062390989454e-01
2.677254471397241820e-02 3.420490383114778432e-02 4.613176900314991946e-01
4.600710994544938287e-02 2.212241171353441019e-02 4.818469033566803450e-01
6.920581247411756315e-03 5.942455448103930310e-02 5.300564461998394927e-01
1.155514391432299441e-02 6.963629553052610999e-02 5.065099496662246459e-01
1.104322514873681306e-02 4.826888592857174476e-02 5.305239687944298677e-01
3.723174012912889436e-02 3.217945045581022817e-02 5.089821694559840681e-01
-7.187069865712877176e-03 2.875246855644579894e-02 4.490312284906657347e-01
3.887499332821668652e-02 4.570365281211270087e-02 4.931918030181167700e-01
1.022364873517531657e-02 4.632148645871717041e-02 4.596781857263523841e-01
1.720963232373588780e-02 2.675668248189489590e-02 4.535519711869513970e-01
1.297031033960825176e-02 7.787456732321233754e-02 4.825185116450604328e-01
3.589404300911369639e-02 2.687996591346016040e-02 5.152210265189655081e-01
-2.634977942579611737e-02 2.216926021040504114e-03 4.381916390652118576e-01
2.312797327935363703e-02 6.771739173430242620e-02 5.011882753409984126e-01
3.422893546665469605e-02 5.388213642875056691e-02 4.957134467329141203e-01
2.278860282821070296e-02 4.446933787074495298e-02 5.215597667521435499e-01
1.562740815215652758e-03 5.883904572268328081e-02 5.213583361552726059e-01
2.538803012307695728e-02 6.040726154441142248e-02 5.110449328353997567e-01
4.974630471157124451e-03 4.177593125293328075e-02 4.566983922670636020e-01
5.294076092357621541e-03 6.316623021377457126e-02 4.640583201277954095e-01
2.123249466108688074e-02 6.256119211835557692e-02 5.138472991488407526e-01
2.718659157890124592e-02 6.688815690883934129e-02 4.892425921282262391e-01
3.067900665451386497e-02 2.399010117236834508e-02 5.240259777873694791e-01
1.009965018397342325e-02 6.975993457757352634e-02 4.689193856091711798e-01
3.567124106918263815e-02 3.877023662779474633e-02 4.700556401865487177e-01
2.959916450390354462e-02 6.246864129377738967e-02 4.943674434304007326e-01
1.575018652002408912e-02 7.583383292420037280e-02 4.891588194222072916e-01
-3.765169746091231312e-02 2.677938246353995383e-02 4.470938398904544808e-01
-1.450324234629481353e-02 3.103500131841471776e-02 4.488841317630027916e-01
