4.363049677252901076e-02 2.357114080471055945e-02 4.987139092811951890e-01
1.414086749157181244e-02 6.209523417244289245e-02 5.227988774096159474e-01
1.745764761277123975e-02 6.653197434467043869e-02 5.102046742881441999e-01
-2.775198578044749207e-03 5.721601402607450620e-02 4.596215234324207977e-01
4.540622180411877512e-02 2.142044968261796328e-02 4.771940383524408413e-01
2.384044237533647012e-02 1.884116123363637277e-02 4.524832125997930166e-01
1.661345711453441829e-02 4.727402540502242956e-02 4.622315808365806133e-01
-2.088555915910132732e-02 3.837505655504927504e-02 4.514959930250958542e-01
-6.635968500310947954e-03 5.020248807588570394e-03 4.398408541858699339e-01
-2.567588955702805598e-02 4.516982092485603145e-02 4.545345414960901276e-01
5.354063718354985790e-04 4.969705704537694113e-02 5.389395062024513461e-01
4.050148349474714388e-02 3.422470338896619474e-02 5.007467724060946646e-01
2.965686300161799599e-02 2.473930915737756683e-02 4.583668157417784550e-01
1.702799309477134523e-02 5.085413755806506703e-02 4.639275636514838541e-01
2.862666960623328968e-02 3.064922169093456383e-02 5.254837054383818540e-01
4.118927511920877915e-02 2.360119783768382593e-02 5.051960824111980664e-01
2.653666539131140784e-02 6.665654729425431191e-02 4.926182758577424270e-01
2.741147889449567498e-02 3.809055148576406119e-02 4.638271684570403619e-01
2.715570306596649247e-02 6.405286636933764377e-02 4.988940687554057063e-01
8.015694306350065398e-03 -1.241409769578735115e-03 4.401022120006376492e-01
2.199422248133638125e-02 3.323720965026822488e-02 4.582443648152344506e-01
4.014907413769418926e-02 4.164359571046220843e-02 4.857859503945558544e-01
1.166807295474058676e-02 7.365396396952414437e-02 4.732276334358652137e-01
2.540964617868134157e-02 2.905561768916380128e-02 4.580887246707086580e-01
3.018299215724111820e-02 2.110341756589597870e-02 5.249051853775451582e-01
4.294670892240027432e-02 2.928765317003503496e-02 4.958920072037324434e-01
2.707052342441362489e-02 5.485604898322826717e-02 4.723572921459756047e-01
1.306565211382562999e-02 1.944416062787166551e-03 4.421516579993556850e-01
3.572755693678220101e-02 3.791920504565516464e-02 4.696999909749178248e-01
4.370463257740912072e-02 3.030019979369480421e-02 4.858195966580591829e-01
4.404132999643308594e-02 2.755401271463973900e-02 4.924766430261559580e-01
4.034277961683386399e-02 4.076465192509499263e-02 4.844181298311572292e-01
8.557696349335099095e-03 -8.047446866156870819e-04 4.403536829835130173e-01
1.814930373906354158e-02 7.628199051214035187e-02 4.860606721466758651e-01
4.175818339004096214e-02 2.389616648106209634e-02 4.697734832513215109e-01
2.364130998017735519e-02 5.280753506120495350e-02 5.184187855281466861e-01
-3.788948851480450353e-02 2.117683762740428521e-02 4.454050378824201961e-01
-3.234818952314165441e-02 3.002006827849112991e-02 4.476144160941353811e-01
-5.452375580758318796e-03 2.656810376388370892e-02 4.483991788972684356e-01
-5.287959703397486153e-03 5.939201524328405896e-02 5.333624086850332624e-01
-6.574042565797979208e-03 3.344127399573676440e-02 4.511371302647088077e-01
-2.680623005784764021e-02 2.008514892061356860e-02 4.435668996506755835e-01
8.641996437847045825e-03 4.238988420269300395e-02 4.577868880017052500e-01
-1.096259575126047082e-02 3.398117079754325864e-02 4.507394749915929477e-01
3.997045767270943073e-02 2.821730510055998550e-02 5.049430095900042659e-01
2.149345522048541970e-03 4.857665262022734659e-02 4.580660515436101865e-01
1.355785628691738402e-02 6.905770423237188316e-02 5.094402375782959291e-01
4.189839749695775661e-02 2.267859541451648989e-02 4.692513177047494821e-01
-3.880181430438420925e-03 5.175468018572465523e-02 4.578527837678073587e-01
4.369624949079125437e-02 2.366086730875900310e-02 4.984079343378581273e-01
1.316552056968674396e-02 1.356420517537181361e-02 4.468560940218748168e-01
3.910111331700331927e-02 4.217270737394950009e-02 4.797803217162721068e-01
1.502749696649767486e-02 6.319552437294565991e-03 4.443156081151117265e-01
1.266447576910786042e-02 6.282475415592692070e-02 5.233524414333775576e-01
3.888346736002913639e-02 2.616302503641465549e-02 5.086764099596973177e-01
-3.667053249298098117e-02 3.611734184498599509e-02 4.502498905427899656e-01
3.537325768152828342e-02 3.476258214112876166e-02 5.112304565443958060e-01
4.713927028690478513e-03 6.118944455233794183e-02 4.627477422678893948e-01
-1.482794725070010755e-02 7.652531151799757403e-03 4.395040937494103517e-01
-2.169724337715554438e-02 1.282984723505538500e-02 4.408654090932494496e-01
3.961331548703195954e-02 4.338600549451618327e-02 4.940260748289690418e-01
2.879036251682733430e-02 5.856243197109090026e-02 5.065737206081887267e-01
-2.370303061800314859e-02 2.203819255475790440e-02 4.443301029913762634e-01
4.048566614800191976e-02 3.648740424312540975e-02 4.771316217725097841e-01
-2.825662634986932792e-02 3.499459125960258793e-02 4.495926646652179670e-01
2.198446404284278705e-02 5.836180719345802903e-02 4.698130811840171006e-01
-4.168543928519054254e-02 3.883647954891307486e-02 4.535104234751281549e-01
-1.220258853418831543e-02 2.920874723039842621e-02 4.483050999757743904e-01
3.365988132213120973e-03 4.697913256847646712e-02 4.579450040221295093e-01
6.914659655158875151e-03 4.697087482410421122e-02 5.358550448702821267e-01
-8.559625170475072820e-04 4.737515471925659444e-02 4.570781411242436643e-01
4.000911661991039120e-02 4.232637269076190700e-02 4.869958360544226483e-01
2.194566923987700813e-02 7.214561913760460243e-02 4.832588737757459452e-01
3.428156993316514023e-02 5.368674994270474649e-02 4.942699520015377268e-01
7.309357384173417738e-03 2.459293191174603821e-02 4.500973191126510509e-01
1.529565531481051274e-02 2.895005872755287632e-02 4.539014479305747973e-01
4.527310448671633368e-03 3.065514025151687763e-02 4.520428034452508848e-01
-6.184267292913946806e-03 2.913428773844254846e-02 4.493012764215710830e-01
1.219509095909109692e-02 3.227821991992078920e-02 4.544656320155111007e-01
-1.441461830333129988e-02 3.820482691908474310e-02 4.521767681117780380e-01
2.124740732479373298e-02 2.452639941511777083e-02 4.538829730084131264e-01
-2.031992692288775177e-03 2.389404527541882060e-03 4.395291668102312421e-01
1.438263148649730240e-02 1.184652234568266474e-02 4.464047908401655995e-01
2.441977001094371852e-02 3.235584498747663684e-02 4.590776232961780723e-01
1.120956206273973459e-02 6.866971404848200289e-02 5.084166057244260406e-01
1.465778298593519401e-02 7.490100405822899821e-02 4.982223667782992860e-01
3.228688512881873474e-02 3.432745200893791426e-02 4.650999609710730343e-01
1.820072934976378967e-02 3.605421939751154992e-02 4.579813007434485606e-01
2.112760706855037682e-02 6.312764308000669289e-02 5.130646779583899475e-01
1.503651302511463048e-02 6.974133706956700540e-02 4.709529024161297484e-01
-2.891592461419215804e-02 1.204014992982863769e-02 4.414176755610427216e-01
-2.103303639256524221e-02 -1.045695848154132128e-03 4.371275992241696606e-01
3.762168343310751811e-02 4.584170645880471934e-02 5.017043812923658308e-01
-1.287723468849249694e-02 2.169068182446340018e-02 4.450872905445576455e-01
9.957186978487510449e-04 5.259464882665700752e-02 5.386806882979943145e-01
2.493199015720689790e-02 1.600047702458911453e-02 4.517889761493027456e-01
3.654526439828009732e-02 3.520023205076727030e-02 5.084142711743716569e-01
4.001808785050910144e-02 3.808527369627558862e-02 4.777076773312475266e-01
2.283425962144393015e-02 5.713973431065884345e-02 5.169137871183490107e-01
2.850457212217484895e-02 6.252670160895784646e-02 4.983013014693181142e-01
2.967331416216497167e-02 3.268786362785108812e-02 5.233617618311611208e-01
3.697261268156350200e-02 4.697144743952565149e-02 5.021722753754980229e-01
8.957751909121789910e-03 6.331799158458250795e-03 4.429843717619656451e-01
2.467866538415229571e-02 6.490035205435130961e-02 4.760801500589834645e-01
2.679485850377009634e-02 6.619891303831372531e-02 4.930293472102510455e-01
6.154433592438670123e-03 5.369330402422745063e-02 5.320066634470879130e-01
-2.529831094273114062e-02 4.156930687942038405e-02 4.524783529604050614e-01
2.077783376534984502e-02 7.364031823137150157e-02 4.838084951498545228e-01
2.591119002319372533e-02 6.829651849826573473e-02 4.867033039552698392e-01
-1.024143870280175977e-02 3.452668584919367512e-02 4.510879970189203281e-01
4.024105628128908652e-02 2.305042711956450593e-02 5.075210919995637449e-01
3.675275240071854740e-03 2.743774641974410997e-02 4.505424187466063324e-01
-2.282778695423626908e-02 1.488642981852723347e-02 4.416178418978826126e-01
-2.794874638744320600e-02 2.676206436360041574e-02 4.462887518558287803e-01
8.715994940183076703e-03 7.499977363090325200e-02 4.922030237073455883e-01
-2.583238538334504952e-02 3.785609844223201959e-02 4.508648838708152473e-01
3.301348625610090598e-02 2.869206897267005674e-02 5.205560996618744385e-01
3.187977546439151044e-02 5.296202332826281667e-02 5.078078779333976556e-01
2.719047086979120911e-02 3.019321499932565989e-02 4.596541525310148257e-01
1.589023727727904844e-02 7.615961041843362367e-02 4.899612678193988047e-01
3.385239262976737912e-02 2.136670715383470059e-02 4.596130271327272809e-01
3.311594008932255973e-02 3.891105756206351268e-02 5.137668775042587566e-01
3.830114358984158807e-02 2.838695275433747445e-02 5.086767863376864263e-01
-4.631733496112443518e-03 1.685055835931634910e-02 4.446183159275376440e-01
2.681460055277431684e-02 6.243329901573005380e-02 4.766871524819670247e-01
-2.530769528995968284e-02 3.432500009300940708e-02 4.493353479016491403e-01
2.292974672879376230e-02 2.923126043911128749e-02 4.568915645510835954e-01
-1.022898703575633901e-02 3.993854426103048832e-02 4.534052791268343152e-01
1.746504934975454462e-02 6.800827160309068364e-02 5.079375164910304719e-01
4.002290240541037103e-02 2.683726354804137279e-02 4.682000094326433937e-01
2.645268049387592552e-02 6.311081982577250449e-02 5.043669745699748130e-01
-3.302098005671921105e-02 2.732149275404996414e-02 4.467336567404398551e-01
5.811682197309372272e-03 3.842062068722540413e-02 4.555424203126968719e-01
-1.257884784556467621e-02 -1.663524715788301670e-03 4.372022020285741828e-01
-2.452928079166233344e-02 3.401819951748968202e-02 4.492112562169667256e-01
2.297837680623862622e-02 4.101128790794300594e-02 5.246272432875555003e-01
-1.021885592166306596e-02 2.776365871184343671e-03 4.386465600843201806e-01
3.123497568113873385e-02 3.542857097559697077e-02 5.161062934293543236e-01
3.215422151082622526e-02 5.522495018636475878e-02 4.788056094006279406e-01
4.524938678031345529e-02 2.490535940497928119e-02 4.849921770172795910e-01
9.465180136204204286e-03 7.527745585800613148e-02 4.911424075652240928e-01
-2.297820855036600968e-02 3.716569686743661366e-02 4.507330744764788677e-01
3.759006975412876317e-02 2.998343941859059336e-02 4.672893446019658059e-01
2.963801663639781259e-02 4.376823840696316553e-02 4.681507321180932713e-01
2.339839540940225407e-02 5.634327528126636953e-02 5.168868017756637068e-01
2.873465636645610236e-02 2.928368515754270485e-02 4.601191512929921901e-01
-6.190684888018724644e-03 4.606293544231070819e-02 4.558694445755421820e-01
-1.258951601454983207e-02 4.280144216586459494e-02 4.541903226399905402e-01
2.302457789370804600e-02 4.662147264346037934e-02 4.652273234807152713e-01
2.426864503614808641e-02 6.711202678779955300e-02 4.992595473844577691e-01
2.176650569697483398e-02 7.276642148809725485e-02 4.927474838579171679e-01
3.322024883302056308e-02 5.604711463170658492e-02 4.926716431377236027e-01
3.345185825247409817e-02 3.834158714518669936e-02 5.133922618173551999e-01
2.656848814484853716e-02 4.957889214629103425e-02 5.168684965673967513e-01
1.765704719824434665e-02 6.347545765109283145e-02 5.166821963090502123e-01
2.829643735937339283e-02 6.490554605342781225e-02 4.885157893703491738e-01
9.049499950932043957e-04 5.954637683394908149e-02 5.208870218824246390e-01
4.068372140848913049e-02 3.974639406058216168e-02 4.844663046297382758e-01
1.943168040312038408e-02 6.913163948816022919e-02 5.047105440068420101e-01
4.387309972651925322e-02 2.537504332309800659e-02 4.964696781976069007e-01
2.018462253547582269e-02 3.842747998686076027e-02 4.599389140982544921e-01
9.437420943494546563e-03 1.597486041642267457e-02 4.470273049152910794e-01
1.736539035625573463e-02 7.062162464724117128e-02 5.047736930907048558e-01
3.175618689235482073e-02 5.151559374211080872e-02 5.094640410631537941e-01
4.049232603122590590e-02 3.981253195230322062e-02 4.815991276785348552e-01
2.680834908189221391e-02 2.781082857819141413e-02 4.582425008324084170e-01
1.696927054544348362e-02 4.012622453773002223e-02 4.593285448305920449e-01
1.240785958677765102e-02 6.349225614661453687e-02 5.223093630929915854e-01
3.983706174401421309e-03 6.509336885146216334e-02 4.646284170764373722e-01
3.299204771742719061e-02 1.941541110138944592e-02 5.230501254672256239e-01
2.625603218804397482e-02 2.348546940296436861e-02 4.559249000847839794e-01
1.122232703743451451e-02 6.126100903223863359e-02 4.651819396437504306e-01
3.036728420451511451e-02 3.406484261127529223e-02 5.198137242626289511e-01
1.116340529359666905e-02 5.925239390375992843e-02 5.262165379533489951e-01
3.381016077058236063e-02 5.028966670283548102e-02 5.062151805998827969e-01
8.877669938902477825e-03 3.804330553861854508e-02 4.561153885041763778e-01
-3.442342204913818871e-02 1.999142349161904877e-02 4.444667961751196938e-01
3.924026520061170420e-02 4.375627670275691883e-02 4.965633070653552306e-01
1.536209399581205462e-02 1.863509139169462411e-02 4.494434824380145188e-01
2.292791758253989731e-02 4.832580630338234595e-02 5.200109589023967915e-01
-4.177387863081752362e-02 3.692163769061275469e-02 4.517992833285589538e-01
-1.273088447524402603e-02 4.948139060114050553e-02 4.565034506458373054e-01
-4.935448610643579370e-03 5.893404008736059796e-02 5.304850098921405355e-01
3.322883912109454718e-02 5.481509347122719145e-02 4.978584587383652615e-01
-2.217704175308355102e-03 6.039798757246089139e-02 4.607030746868214233e-01
3.058575478785933999e-02 6.083580476058976505e-02 4.858495510555877472e-01
-7.174192331668370962e-03 5.827422818601909332e-02 4.594878349161582443e-01
3.715628898761967613e-02 4.129507941582132718e-02 5.063598859334320634e-01
3.493588830544222534e-02 2.736613665227956294e-02 4.634651946442386872e-01
-3.505555201246182695e-02 3.324182919745272830e-02 4.489957678203019276e-01
-2.064945919225677148e-02 4.159419694370986194e-03 4.380882673185601539e-01
1.764114610550378617e-02 7.048303407056039083e-02 4.732827583712997943e-01
3.116621225249158189e-02 5.854755423936408576e-02 4.976757021909482548e-01
3.468158380823774950e-02 5.281040956785210128e-02 4.947050734691473828e-01
7.408368172246703257e-03 3.505047711683277611e-02 4.545329402725535317e-01
1.599850786798578256e-02 4.640723250695730911e-02 5.270326736075673368e-01
2.766504615374240986e-02 3.975891025767710335e-02 4.648361513354196117e-01
-3.191452040840530441e-02 3.429784503438213644e-02 4.493096539297014025e-01
1.449225651968469395e-03 1.320530053014004612e-02 4.443206092603621538e-01
1.760618842295320896e-02 5.330830034581866134e-02 5.225559096104257506e-01
-1.003688730208433799e-02 6.052307373468408802e-02 4.613441200180806168e-01
3.181230394148103213e-02 5.776107460251850290e-02 4.813639983162141811e-01
-8.856620223880653110e-05 5.188126205262701129e-02 4.584931252229744736e-01
2.191716421027531045e-02 5.549261065010888810e-02 4.684645681665273731e-01
1.210326319358137268e-02 7.550567208849510992e-02 4.928385720362546407e-01
3.967324243701476905e-02 2.370401644112407266e-02 5.083654722987884789e-01
1.543658362638962445e-02 4.441040744244143662e-02 4.606777012347730849e-01
8.334241428359012369e-03 6.682505565106505729e-02 5.087186862872805637e-01
1.350005314900863673e-02 4.418918697571829618e-02 4.599514906635552847e-01
2.110091687222950124e-02 5.296117623115350476e-02 5.201689793326931266e-01
-8.323898538978399819e-03 5.613294125106261384e-02 5.323905041936578542e-01
1.152137643553400453e-02 6.465164663302135073e-02 5.178171362805649158e-01
1.977439378676400586e-02 7.446733408829414591e-02 4.836883676161654044e-01
-3.511117280080742337e-02 3.840647544207871633e-02 4.512261386955901954e-01
-7.315576552916851043e-03 5.540126840229182836e-02 4.586333463814553646e-01
2.431831213272519360e-02 5.650092744213356527e-02 5.156097525195001419e-01
-2.401884151119584691e-03 6.338199807763907068e-02 4.631034898134333555e-01
3.504585726743637830e-02 2.760865892035050187e-02 4.637000287501213958e-01
-1.677512811141954052e-02 6.220735596689957667e-03 4.387200637470009545e-01
2.295490649034023084e-02 6.863480233959948218e-02 4.992695648138113507e-01
1.005402959037175227e-02 5.411520107790674522e-02 5.285248159529566392e-01
1.366567377564168254e-02 7.645002487980623318e-02 4.874422386533789897e-01
-2.585229893165978329e-02 4.523860511247937422e-02 4.545854252812510654e-01
-7.676726692577837130e-03 3.207702283009156163e-02 4.503723705327373206e-01
2.830036364965733686e-02 3.585842830425022693e-02 4.632158292388934284e-01
2.852205358593769280e-02 5.238996348592887820e-02 4.722559046275296435e-01
1.387697013043103292e-02 7.652926331672933735e-02 4.790972029387166597e-01
-9.617689763758745930e-03 3.555202127273675988e-02 4.516384766150254859e-01
6.288675760540577211e-03 1.333592928938458558e-02 4.453279590246103647e-01
4.874616885434956276e-03 6.273867685731461530e-02 5.168629870278192984e-01
3.215222227522264442e-02 4.795593645493451129e-02 4.735472863519767373e-01
2.099775612056192439e-02 3.831102911938213951e-02 5.298680212521553745e-01
4.322204188912889301e-03 4.325589557569751997e-02 5.365633136482287346e-01
-2.665744222640775707e-02 2.294770819927626632e-02 4.446571076806793421e-01
2.552139789398440509e-02 6.489759397677211106e-02 5.010925330895109608e-01
2.412344618661204504e-02 1.630295821574727702e-02 4.514962723883138018e-01
-2.079753010488933664e-03 5.104817483382160376e-02 5.390938372750324614e-01
1.501469495265888784e-02 3.962180595692266910e-02 5.333867686569028210e-01
4.062501914686064697e-02 1.925425932004324464e-02 4.649386807254857201e-01
6.886398288445648615e-03 2.468479951350720583e-02 4.500513812415920523e-01
2.251021680313888135e-02 6.108678276591106987e-02 4.717228497918951047e-01
-1.760270082486259380e-02 4.922829140225420258e-02 4.563438227671068326e-01
2.282416964027708661e-02 2.960378470635800785e-02 4.570141374301038839e-01
-5.072430131994813685e-03 5.964692694461580513e-02 5.354759034513074667e-01
2.446863717591401741e-02 3.999993479835101812e-02 5.234323134332846683e-01
1.433209240774109723e-02 6.591148037076492716e-02 5.135957631361078857e-01
2.360213834231287763e-02 4.252052633672690624e-02 5.221917606537537226e-01
3.382470814742182669e-02 4.528434616533037055e-02 5.096796411238689872e-01
9.315196139424927746e-04 5.987414629736310945e-02 5.236579009075642555e-01
1.093187247670159359e-02 7.651617857412196244e-02 4.876294844063371881e-01
2.368274367208475506e-02 6.011615389957410127e-02 4.722209539506992404e-01
1.514668959141936798e-02 9.993065273180548255e-03 4.458451266422754911e-01
-3.418346803721596799e-02 1.451036218304793245e-03 4.391271096552115671e-01
2.686410053401289827e-02 4.808305144308445966e-02 4.685407304480574409e-01
-2.516449668666812661e-02 3.171142451103084459e-02 4.482121982876424715e-01
-1.823870927806825470e-02 4.889274979478867855e-02 4.561621423453045554e-01
3.940571148796138262e-02 2.968039007312849031e-02 5.052145886678200970e-01
2.773040287349560346e-02 3.045663642780815569e-02 5.263549471877247976e-01
1.390046963603009875e-02 4.530144785640754374e-02 5.305711252920862764e-01
6.926096304324853153e-03 2.007116153236948586e-02 4.481839920075909034e-01
2.902510160915983128e-02 2.761362454885410780e-02 5.252133971091458298e-01
-2.526055548088055464e-02 1.949662110436821416e-02 4.433511290520263937e-01
1.742837452313957675e-02 6.406838481316783074e-02 5.160838013023018034e-01
1.097986022063860735e-03 6.698904834776036807e-03 4.416253832602115015e-01
9.657752182288061732e-03 4.635708207474063119e-02 5.339517515834069084e-01
1.444910422189380796e-02 2.859873722224293147e-02 4.534743585151204126e-01
2.793495002125564314e-02 6.506267774016484540e-02 4.843477967965305608e-01
7.172216557045752762e-03 6.329500725849580844e-02 4.645517368522703583e-01
-3.895202559539029212e-03 5.944587830406408008e-02 5.379373702013817704e-01
7.907884542867260266e-03 3.388729490332607203e-02 4.541534352193424828e-01
-1.376981408056643721e-02 1.819137839037589244e-02 4.436110936707364227e-01
3.483838231841073635e-02 3.480895422122247396e-02 5.124286265154293085e-01
2.727886292235737198e-02 5.997242603534880256e-02 5.088520646742216158e-01
1.124747847924079461e-02 4.803610468670665989e-02 4.606061257398841868e-01
1.502563467223647954e-02 2.583502439203404916e-02 4.524385419023432275e-01
2.877320369327087540e-02 5.780474876521761451e-02 4.756490320327634858e-01
6.276278335919494196e-03 7.166222949013907606e-02 4.707715203172153084e-01
2.450432114627470667e-02 5.531847688841456251e-02 4.704844344220041608e-01
3.710644253738318993e-02 4.536087400346029003e-02 4.788976734191429663e-01
3.426630352387741857e-02 3.859138009403247083e-02 5.118386741352238811e-01
4.250340358707616062e-02 3.187142646101618487e-02 4.779515217029788876e-01
2.359780911825677154e-03 3.505970673695604778e-02 4.534105639015272859e-01
-1.670069561841588598e-02 5.713586951979045259e-02 4.596632671201496545e-01
2.009376290101551506e-04 2.266665018478758800e-02 4.478998303220742550e-01
-2.182249461460757881e-03 6.906955011673175659e-02 4.691256851091127333e-01
4.265555961945050045e-02 3.075357104112531534e-02 4.773884889066439818e-01
3.504645036738576053e-02 2.264325179605433669e-02 5.195870947808026719e-01
-2.568378302683607672e-02 7.328225304249305280e-03 4.392187761545109370e-01
2.863732884011531421e-03 5.221082152032123502e-02 4.593913713441721836e-01
-3.217468148949219342e-02 1.847556378551062570e-02 4.437281032299740247e-01
1.000508183381560411e-02 4.406863866004893937e-02 4.587426707679353455e-01
5.990528647055088501e-03 5.164726836869799192e-02 5.331388615705470180e-01
-1.408338640096210188e-02 4.868360227690389508e-02 4.561841085671229368e-01
1.540452761744329560e-02 3.583468675422332023e-02 5.328680350437079438e-01
-3.149341170368447074e-02 1.329715863222856106e-02 4.422265441524902974e-01
1.447426542106419224e-02 7.554218775890922388e-02 4.958605852807392300e-01
-3.889146879777034133e-02 3.334054880544458366e-02 4.492689011264309751e-01
1.755835442884060016e-02 1.052450950809574390e-02 4.466378971029327793e-01
2.627377043229477127e-02 5.853421633179225342e-02 5.114535288255814827e-01
3.149627450494882352e-02 4.511612999220176307e-02 4.705367972077322269e-01
-2.943584956791139504e-02 2.378960642299911277e-02 4.450868004215539631e-01
-1.259244287597016849e-02 1.643880264211132480e-02 4.431134343731383818e-01
4.405655398425419034e-03 3.227844238674094229e-02 4.526927194411706767e-01
2.816102555955882561e-02 6.496304021916085580e-02 4.869417086728112798e-01
2.567691144163816719e-02 5.162315072418805634e-02 5.170331562179073526e-01
-1.132642469741558695e-02 3.100234979606067767e-02 4.492661410294011004e-01
-4.059585867642030374e-03 6.060795547061512134e-02 5.361735990484406411e-01
8.615365236968311122e-03 5.626912176290028988e-02 4.625203540299590577e-01
2.385301792242259383e-02 3.565555895936965702e-02 4.603605697206635261e-01
-1.133499999283587092e-02 -6.613495445458127467e-03 4.365838057945202189e-01
2.624125213401441725e-02 6.378575877080631951e-02 5.028516552781907567e-01
2.412009760283023718e-02 6.340271712910604263e-02 5.087728300567451178e-01
1.837696245997788580e-02 7.310701094283293677e-02 4.772804828419960899e-01
3.946722594588007033e-02 4.401087288453126717e-02 4.899619889054518951e-01
-3.859845804752753962e-02 2.750433232780166021e-02 4.473610475982993107e-01
4.265503579285569169e-02 2.363524430243824082e-02 4.714483652167905658e-01
3.461038575709774606e-02 4.417259737822892135e-02 5.090743600135526625e-01
3.251842905271572215e-02 3.737863279148222889e-02 5.145570160326145004e-01
1.559080541181491475e-02 7.676883558356845105e-02 4.831069735867656867e-01
2.281430392880097469e-02 5.709826245881360202e-02 5.169737060725456690e-01
8.928251303953083085e-03 5.940036768729097666e-02 5.278614768535879742e-01
3.402713550869031212e-02 5.439598916634522802e-02 4.933690592546041143e-01
3.732754671114433404e-02 1.909420863377259830e-02 5.182408800934757975e-01
7.036149583917771996e-03 2.682610859579551144e-02 4.509754741884495766e-01
2.354814810761766269e-02 4.306378079167282741e-02 5.218276225924968204e-01
2.155621179613615920e-02 3.628423683782622255e-02 5.301384801014062953e-01
1.474389402196838936e-02 4.509419763500155387e-02 5.295969233329878012e-01
-6.576467441043467275e-03 6.214994102888107830e-02 4.621115082686675368e-01
6.488609252769578922e-03 7.191461182326738810e-02 4.709176756948793008e-01
-1.338792641950934184e-02 4.397545264608917343e-02 4.544948880644773537e-01
1.618048833542132942e-02 4.255809397105513037e-02 4.601292337455141768e-01
3.343179229454441848e-02 5.584300857524773093e-02 4.847243656574480308e-01
2.546738775453103593e-02 4.287751897986378374e-02 5.197992674483672415e-01
-2.198138418810165542e-02 2.838633351855623238e-02 4.468436368503589939e-01
1.720775199570269767e-02 2.786816915214954116e-02 4.540375737309951809e-01
-1.240586986938316781e-02 6.014046893325847298e-02 4.616201990710805947e-01
-3.032643834241883704e-03 6.871633927554751664e-02 4.687407339746439972e-01
1.502440585341066961e-02 4.001465777728602236e-02 5.334200807626172658e-01
-2.821948236693777937e-02 8.792970746199880311e-03 4.401305505979688504e-01
1.864489906679821229e-02 9.963214704218691792e-03 4.468091839503846030e-01
1.079679942343314200e-02 4.207995679827145064e-02 5.350781736378958930e-01
4.249069965413372618e-02 2.736315723099590896e-02 4.987330441215641064e-01
3.444485801235363381e-02 4.196747588385976030e-02 4.713839184151559225e-01
2.514032464089174801e-02 6.780228974487280402e-02 4.809369655598955129e-01
4.074037582720107381e-02 2.291816384947041249e-02 5.065320450608811198e-01
2.652160719445425738e-02 1.007806056949683317e-02 4.501590405439661602e-01
4.096177426192208759e-02 3.226053206738816598e-02 5.000684151151026935e-01
1.664782666663807906e-02 4.056591721628766828e-02 4.594161737002712131e-01
1.402236585850410999e-03 4.930565736235378860e-02 4.580634191787890108e-01
1.648738578155650725e-02 7.422702792781538106e-02 4.766738390839734274e-01
-3.123109486954770211e-02 3.405786496701864591e-02 4.491834620976977721e-01
2.614660127636780039e-03 5.234617872835312102e-02 5.363256552122921406e-01
1.914373774066754560e-02 7.470385281375878372e-02 4.951086808778654147e-01
3.565496492893075603e-02 5.066569884745029256e-02 4.832958364985633914e-01
-2.678620435432625332e-04 5.957781236602803510e-02 5.246715381064084305e-01
2.023276959456805912e-02 7.484290987137932893e-02 4.901618460461822924e-01
1.946490251294794721e-02 6.988381379907093738e-03 4.458657265461979380e-01
2.241425133306512024e-02 2.914041041519010306e-02 4.565845612215443938e-01
2.491641525897421439e-02 4.474781435760243758e-02 5.191607685854539023e-01
-1.067109046363546448e-02 9.462517142017129110e-03 4.407958346152500706e-01
1.867557151829643547e-02 5.018765442071317084e-02 5.228380544260121665e-01
2.971965249096627723e-02 4.173226214476319362e-02 4.671708912423168658e-01
2.490186385692092982e-02 1.693117321878026202e-02 4.521638036047839204e-01
5.748092320227495347e-03 1.452803511311412735e-02 4.457009349084251060e-01
-3.140139796738315031e-02 3.237775508777082645e-02 4.484924582535125825e-01
-4.962844618551448019e-03 4.648873450465244167e-02 4.561474890853269848e-01
3.046849331658490340e-02 5.986899940526085179e-02 4.973034511194637242e-01
4.682192465537984849e-03 3.620039381357998548e-02 4.543638358256512633e-01
2.141838359394803229e-02 5.066402703313328815e-03 5.316974963539156107e-01
1.617353318544921537e-02 1.893739629750317011e-02 4.497471465774719457e-01
1.358638184190583131e-02 5.015156739593468888e-02 4.622885793069648197e-01
3.132374214509752591e-02 4.631336026843075465e-02 4.712732916549169371e-01
-4.996252370631202450e-03 5.951683215401257221e-02 5.380927180527049769e-01
3.264896382631097410e-02 2.846348310656400885e-02 5.215275048118326318e-01
9.310596542922053645e-03 4.687311703750332570e-02 5.337577511439191014e-01
3.095623622762281105e-02 5.709268322749843499e-02 4.777207235430236398e-01
2.194076915774405973e-02 4.050295041631086362e-02 5.268329271749404574e-01
4.531332169460971365e-02 2.458702796189697962e-02 4.843741473713931156e-01
4.100932066655482017e-02 3.942282645612611020e-02 4.942437587699048951e-01
-6.405831340135811729e-03 5.797516644169195543e-02 5.358122898642563303e-01
3.412455929756481182e-02 3.743915869268143320e-02 4.681527594036608564e-01
3.867449107174449757e-02 2.350098633060340031e-02 4.647447757690386649e-01
3.356495538615143770e-02 4.374300024843713608e-02 4.715876266034215170e-01
1.657262111136061089e-02 5.158888574250794501e-02 5.240116066754838542e-01
4.152577071062860808e-02 3.740995682180157239e-02 4.854139317092221462e-01
2.017562971630001631e-02 6.683135406908449760e-02 5.070522423225001241e-01
7.539581016531010128e-03 6.572329091969497661e-02 5.094596406336139305e-01
1.523114704010595198e-02 6.388601581984840183e-02 5.186202128855709192e-01
4.187007384077573446e-02 3.747005318042968131e-02 4.906650464829199754e-01
2.141553058330991632e-02 7.247752437551950588e-02 4.824699740056786479e-01
2.715301296548820048e-02 3.906837417991300410e-02 4.641564114107624150e-01
1.107800377321409291e-03 3.362772545694706766e-02 4.525586696868093006e-01
3.612464714883906192e-02 2.287482052532113092e-02 5.181460323056692463e-01
6.449198822898251880e-03 1.428896017649929073e-02 4.457453034215285714e-01
4.030072470868192869e-02 2.973351500236663669e-02 5.028435267784236995e-01
2.994666797690308940e-02 2.279550212399342538e-02 5.245851897753820436e-01
4.310122687542373293e-02 3.167920116695868010e-02 4.827577253638607457e-01
5.566602058871481830e-03 4.827341312177648933e-03 4.417030472810060671e-01
1.233196104363096582e-02 7.574920626000733459e-02 4.891665864048088119e-01
3.388433120779367480e-02 4.078782646958086650e-02 4.698435394388959518e-01
4.240231498028990825e-02 3.553856684743573330e-02 4.899437483258064496e-01
-1.734575599497920062e-02 1.103395268197419031e-02 4.402025079709440680e-01
2.669430611566477735e-02 4.315901276647832185e-02 5.181890017310442076e-01
1.553318832648537332e-02 7.413200365516796342e-02 4.997936798408677550e-01
4.215579615670883573e-02 2.853163077550364274e-02 4.988729994091771758e-01
4.240519230617593310e-02 2.592055170876874162e-02 5.001467594633678404e-01
3.679523925286712349e-02 4.324011941976951129e-02 4.762067033928995552e-01
-9.346426282369812988e-03 4.017572862237208525e-02 4.535839713665665296e-01
3.478447738605287137e-02 5.348623462634481684e-02 4.873730597813290544e-01
8.374825276982871339e-03 4.552908771591249182e-02 5.359458196498608773e-01
1.334350221555945758e-02 6.774967289024132200e-02 5.108093724856055395e-01
-1.017649977930472696e-02 4.092369033875124101e-02 4.537757839047130148e-01
-3.816977855602242398e-02 2.061701365911381562e-02 4.453049063236871330e-01
2.074331825430267978e-02 6.439304867818849976e-02 5.115561257288235852e-01
-7.750328801447590489e-03 6.945024726752638267e-03 4.404008341057376597e-01
3.384217368446271884e-02 3.727428353907717706e-02 5.131737579109253433e-01
2.419459844291375200e-02 5.281505725560316222e-02 4.689900664974919753e-01
2.496947898871384672e-02 6.174165475953394960e-02 4.742495867797832387e-01
1.602323888726642567e-02 5.152062428816910761e-02 5.244793392629558682e-01
5.531297662967749398e-03 5.615469525129140188e-02 5.312900815966017376e-01
-5.293088996736670243e-03 1.929220226417314998e-02 4.454582820675899724e-01
4.460149264830038165e-03 5.361922819865476419e-02 5.333761198351180122e-01
2.130026057147169083e-02 5.653732605140265877e-02 4.684353463113425931e-01
4.434820209455207773e-02 2.650991436754977434e-02 4.800234350459544608e-01
-1.765468249893047820e-02 3.163935524105234570e-02 4.487837480263285883e-01
2.474461933131100883e-02 3.754890938651734428e-02 5.257070736888483919e-01
3.709141189848066261e-02 2.271474425466970398e-02 5.162803016289312374e-01
9.706299477094414152e-03 3.773534815084261806e-02 4.561840941089842505e-01
-2.264520909621255129e-02 4.731004055716393070e-02 4.556557364581925729e-01
3.678588776747943739e-03 3.343880282869220871e-02 4.530222774901364602e-01
4.531630802745493375e-02 2.479555115266428300e-02 4.858909164909813172e-01
4.283942217008935432e-02 2.931235163899663376e-02 4.965333544789759523e-01
2.014342578273727730e-02 2.340410779319195347e-02 4.530317447001832587e-01
3.256693522564568788e-02 5.674663750577401550e-02 4.950801029088131577e-01
2.995859178905597650e-02 3.306326271583314574e-02 5.222187970010522262e-01
1.070209746879244306e-02 3.272279450053700023e-02 4.543075634873159352e-01
-1.865281326188839711e-02 5.465388181277020668e-02 4.587772242640779097e-01
1.034638006383107982e-02 6.256221893660782185e-02 5.256426310804057644e-01
-4.119260255324456305e-02 3.857221868094366096e-02 4.531235365671537063e-01
-3.290158877460553494e-02 2.460510541831238338e-02 4.457229038911373342e-01
3.660513127278383367e-03 6.132871068477045717e-02 5.180223410365704106e-01
4.709061348931101523e-03 5.256839273005800561e-02 5.336955204110708229e-01
-3.979450490392879430e-02 4.048898139771500704e-02 4.543686053648386403e-01
1.862870611608594823e-02 4.801571301042263651e-02 5.235237804723900101e-01
-1.273034659396890880e-02 -3.802097381754102230e-03 4.368561771714580266e-01
2.067164242291489110e-02 4.672761581658934488e-02 5.222178963578879562e-01
-5.805896711779734605e-03 5.883331007060072643e-02 5.329882670873746786e-01
3.357936473112876734e-03 6.099311304774371334e-02 5.212384635445657111e-01
-3.695079703418450295e-02 2.495029396415127804e-02 4.463416104199856571e-01
3.235189415025836734e-02 5.432367970847727656e-02 4.781813808285902967e-01
7.913747944399069853e-03 4.771603021705887737e-02 5.342051904978263321e-01
-4.125379361793988370e-02 3.959181804227575319e-02 4.540669892368437988e-01
1.870463084688134270e-02 1.265570230899548676e-02 4.479735194056411185e-01
-1.877295513337285532e-02 4.254090374230831695e-02 4.534442941231520141e-01
3.367663766044948215e-02 4.008676913632980288e-02 5.124414570021014192e-01
1.944287344502099169e-02 5.668380754435037305e-02 4.673660300877574558e-01
1.237287564882521250e-02 4.539969723059145840e-02 5.323885802167865888e-01
1.053566407935681466e-03 5.961694101615744312e-02 5.192861433990243469e-01
4.336732243918187124e-02 2.793670761618363349e-02 4.957146854981683282e-01
8.779575844391779987e-03 5.334479165829960484e-02 5.300338197150172848e-01
3.473932658618783531e-02 3.062895869909623703e-02 5.149612046592876302e-01
-1.689557527322894590e-02 1.614140415392510339e-03 4.376754717155444951e-01
1.221353603461829227e-03 1.031587677987165150e-02 4.431108401790511131e-01
-2.923950891096813165e-02 5.416640145682459495e-03 4.391519345437656097e-01
3.655396565633153155e-02 4.885531396690681594e-02 4.974721792115516239e-01
2.602796773914688860e-02 6.814388689361841611e-02 4.863128329935024752e-01
3.550015684342596595e-02 3.419596940023324899e-02 4.675373833607260332e-01
2.268303063627006774e-02 3.040028566615374239e-02 4.573168533065488650e-01
3.509189863391703329e-02 3.941617488388310386e-02 4.700381369287978672e-01
-3.787230133078053201e-02 1.631102167123169413e-03 4.402110851467552211e-01
1.702999288750018519e-02 6.145497484098483287e-02 5.201577250234454830e-01
1.003297997760659380e-02 6.956608377492076722e-02 4.686290397776189942e-01
-2.990503977067365642e-03 5.443908201341070979e-02 4.587643485146532529e-01
2.991657832791201274e-02 2.885017958045674180e-02 4.606002951572923942e-01
3.025194403513008917e-02 5.862638550078169003e-02 4.777900336289293004e-01
-9.682113175323605464e-03 2.342809941613056141e-02 4.463239541309438896e-01
4.048971798033063757e-02 3.788823451140817256e-02 4.784748612162010306e-01
-2.875429126151755541e-02 2.433482309282215469e-02 4.452454903499153405e-01
-2.344211731026687312e-02 3.858554084855601862e-02 4.513288706627183733e-01
3.246073463409102772e-02 5.678458732357822419e-02 4.956423227360703954e-01
2.944271252352796339e-02 4.401639842118508505e-02 5.157687655243545777e-01
3.362534212283554980e-02 3.913694692930526353e-02 5.127976232868420858e-01
1.757157899149960900e-02 6.727426237749496718e-02 4.709293828266339910e-01
2.897453901111853025e-02 5.079867707594123288e-02 4.717883152055875051e-01
-1.806048568872505034e-02 5.258020940271804916e-02 4.576312364262453136e-01
-4.558016997989186754e-03 2.630045516951472206e-02 4.484605866146192943e-01
2.801528162143674533e-02 3.449034965603463287e-02 5.239660828673010640e-01
3.154296037399378222e-02 5.466281206942998766e-02 5.051757903002891403e-01
1.828071792520036612e-02 6.418857236314313985e-02 5.147622393316149125e-01
3.011182091787429488e-02 5.921481810525607709e-02 4.782207778115957209e-01
-1.526746072752652519e-02 -2.610499027272632569e-03 4.369101730255941507e-01
4.064307369761668842e-02 3.959187032871973322e-02 4.829922682407610801e-01
-2.983061198955447996e-03 6.089906132517790976e-02 5.357848128089263140e-01
-2.568921784766363750e-02 4.009619203055298647e-02 4.518359585750178486e-01
-2.422365502828896511e-02 3.920354884821865976e-02 4.515204667632388147e-01
4.312679347235060662e-02 3.292941237895136153e-02 4.891831976116844394e-01
-1.869189850202731748e-02 3.883863250950438106e-02 4.519144556885150155e-01
-1.421213601000795648e-02 1.425655497552443841e-02 4.420106512174499236e-01
3.864392283098529168e-02 3.747208339182065556e-02 5.045894324231893213e-01
2.625613705609218182e-02 6.779043233326441376e-02 4.894513729073627917e-01
