3.451397219044983339e-02 1.570720743237015438e-02 5.233549612316134025e-01
2.146465063645305871e-02 6.854547127173912791e-02 5.023889918467575599e-01
-2.740715509652243143e-02 2.170100415746734415e-02 4.441536769062620071e-01
4.136752178240311884e-02 3.585763956328783669e-02 4.965223625202894731e-01
1.647650377423804519e-02 5.136750828648870004e-02 5.241049631552127108e-01
-2.161379022717289933e-02 7.312402539118011482e-03 4.389856881472913863e-01
2.828479666455744473e-02 1.086121446759563854e-02 4.515803662489303316e-01
3.968095422914662274e-02 2.840490867360917493e-02 5.053578541895645815e-01
2.922712854463847126e-02 3.126408167299780244e-02 4.614081446921844964e-01
-3.158343931092203599e-02 4.441394086836675248e-02 4.548358134152264420e-01
-2.205263806026351234e-02 5.420916420479173631e-02 4.587123800392285400e-01
9.734013416814391723e-03 6.258138602815406862e-04 4.410566191394257873e-01
1.589491697712481014e-02 6.057617970306285182e-02 5.219388653089920282e-01
-2.329475603992549673e-02 2.828283153782265580e-02 4.467526211222007659e-01
2.552249032080022503e-02 2.711798319881872713e-02 5.272525090642087298e-01
-3.683861594894331792e-03 1.834252780197206251e-02 4.453770814631282660e-01
-3.405472678471773221e-03 3.728367200847993584e-02 4.531537655017736643e-01
2.148550853562304110e-03 5.623699473090040812e-02 4.603648132572417673e-01
3.130313814164229110e-03 5.990990498148208998e-02 5.321672146672040693e-01
1.389046170083846343e-02 6.199185396236467534e-03 4.439677892336807430e-01
-8.900722650968974706e-03 4.262463160351042529e-02 4.544795402074203738e-01
2.907062946334400960e-02 5.655204423351111592e-02 4.753592414739186145e-01
-4.530376179128868010e-03 3.306499723073518665e-02 4.512534436758459111e-01
-1.494012857315421029e-02 4.294705936055243783e-02 4.539376838547186654e-01
3.283680582023579264e-02 5.375933096851050891e-02 5.021652428537760615e-01
4.342291898371396230e-02 2.860130881586061061e-02 4.784089945071918204e-01
2.041797844216514807e-02 6.860448654891694586e-02 5.040506080983028214e-01
3.629042598429219058e-02 2.418939605896404735e-02 5.167255924997289362e-01
2.983848043327703720e-03 6.135340087516154284e-02 5.175815636849749879e-01
-4.131354703340094775e-02 3.465811788206826782e-02 4.500908673937782378e-01
3.864978734438769166e-03 3.083831196892871784e-03 4.407578914448060936e-01
9.317713701180512995e-03 5.893029779570128912e-02 4.635764849830476542e-01
3.209152572974647427e-02 3.406800319508732772e-02 4.648571412219299481e-01
-3.892264088083789708e-04 5.487771340621871302e-02 4.591943036429299019e-01
3.170029087538640822e-02 5.839927069846646834e-02 4.938183332356523847e-01
1.346059394502106474e-05 1.529776424109983990e-02 4.448684889609275661e-01
3.031346466309644411e-02 4.653897636588954362e-02 4.705115379497842865e-01
-7.900952050743381000e-03 2.934074662018609780e-02 4.491165177568905431e-01
4.525105081097400249e-03 4.738050082695185322e-02 5.373408389287224196e-01
-1.191122455380142983e-02 3.418504765233398857e-02 4.506718714035389262e-01
1.194585741213697108e-02 6.086989162227011280e-02 5.253214432929909083e-01
-3.111919120273103426e-02 2.371782100285324546e-02 4.452100782318944572e-01
3.958351284411477239e-02 4.328393686327946382e-02 4.872331786146877342e-01
-8.422009934137813375e-03 4.258937284389226197e-02 4.545195805681072621e-01
1.114096104353087119e-02 7.437071409411878664e-02 4.738744449752467225e-01
7.921494435989847802e-03 6.251184369438550492e-02 5.282150528624817154e-01
-1.226699268024557254e-02 1.082732050525207074e-02 4.410093252790300289e-01
-1.785152154794321724e-02 3.723384765309722955e-02 4.512561316499050790e-01
-2.013761758292178031e-02 3.355783564456332052e-02 4.493528899434107715e-01
1.340035368716307324e-02 5.861878062704969222e-02 4.650643231504867359e-01
4.602639880388791765e-03 6.343195201157207641e-02 5.149852606535634258e-01
9.724692123444544575e-03 7.250248497241998380e-02 4.996229223144407761e-01
2.563165348289550213e-02 6.633206141101392894e-02 4.970613637060323775e-01
1.762864593095075059e-03 6.045522511912390651e-02 5.203868354334438839e-01
2.249466411194125590e-02 2.644062247919761605e-02 4.553541198483487262e-01
2.980450008772890166e-02 2.165137440214104370e-02 5.250123266387205501e-01
1.711514634277622876e-02 3.427664961704757207e-02 4.568630021948311137e-01
2.738617979427973928e-02 4.319753211325274428e-02 5.174642306696108918e-01
-2.066604390987188816e-02 5.110486797406999827e-03 4.382833881770327733e-01
-1.367943347932608876e-02 5.192649506305526547e-02 4.572962894744707074e-01
-3.512672256938004223e-02 2.381066923174208344e-02 4.456696295006942199e-01
1.196616000846057945e-02 5.294032866767284934e-02 5.272562406554233139e-01
1.657042653605920318e-02 5.843828309310872271e-02 4.665229989780994013e-01
-2.156486951299638535e-02 -8.708876808830347260e-04 4.371484662645507280e-01
-5.813243564535802710e-03 5.959319547101419451e-02 5.347175936751988878e-01
2.333536210416267687e-02 3.021527075838527365e-02 5.287939572341819883e-01
1.150730797936437566e-02 7.205515477272976532e-02 5.032195564475013816e-01
-3.251735668480622288e-02 4.188233134073515024e-02 4.529893525992902958e-01
2.807766326817481145e-02 7.193343959361379880e-03 5.303160570100297067e-01
1.795474272838477187e-02 3.063347661632032787e-02 4.554999826693330034e-01
3.590864563091664477e-04 3.308686427906644412e-02 4.521578375495641233e-01
1.600156594965032597e-02 5.956878827055632486e-02 5.225857715995180230e-01
2.895200571232162817e-03 4.463337247565347943e-02 4.570682019008251440e-01
7.008159631009042677e-03 7.332491216520548027e-02 4.717863028989215946e-01
2.533903532910732753e-02 6.695731902407345282e-02 4.799059150979653188e-01
-2.101556341114231910e-02 7.383079844911110551e-03 4.390247382225370143e-01
2.347023468116879105e-02 6.570951511492123531e-02 5.037286391451207823e-01
-4.507797252839808137e-03 1.887110205891088383e-02 4.454294539418872101e-01
9.747493023278693512e-04 6.246493398142526771e-02 4.626334604032678044e-01
2.557886464040408370e-02 2.652243963567190929e-02 4.570025953090798287e-01
6.666857353843036460e-03 6.982131801585343689e-02 5.011031592644940025e-01
1.804686650973268830e-02 4.464666734880458343e-02 4.618402449412661870e-01
-9.323073947450624330e-03 1.878668386784549879e-02 4.445545068548802381e-01
5.526945658458692207e-03 2.419372662258118672e-02 4.495637918139008815e-01
5.588432379628163055e-03 4.736583236695497690e-02 5.367260986353894481e-01
2.466243914261340500e-02 4.234941648135624043e-02 4.641463764966089478e-01
5.873676116791617594e-03 2.354883106984800856e-02 4.493637366230842090e-01
2.102925772714602654e-03 5.981440472174363171e-02 5.329314746000534120e-01
2.015625783918320937e-02 7.178229953575189504e-02 4.780895201766641178e-01
1.397292636263576006e-02 7.465034286768040817e-02 4.750744732509821211e-01
2.404013905731379810e-02 1.150140190675445415e-02 4.494525194529606082e-01
3.170145211283558612e-02 3.058917029823739198e-02 5.215091208221848129e-01
1.553362301912832380e-02 1.387803304075472567e-02 4.474956669412946675e-01
2.326234568197859537e-02 7.159441768317624522e-02 4.896896995017814835e-01
8.318540594343967406e-03 2.361411540192548397e-02 4.498944863712827091e-01
3.605393098526583906e-02 3.970767187272108978e-02 4.717756842643912041e-01
-6.555171024817997745e-03 5.660890269341834619e-02 5.375339523287016030e-01
1.583394502042373767e-02 3.739159437565525712e-02 4.577860922516395203e-01
3.218516527441361158e-02 5.792935461148283893e-02 4.919312288709055681e-01
2.549577463032862146e-02 2.710696564486172501e-03 5.328129160816527099e-01
1.015314321258755162e-02 4.827243889326580939e-02 5.311914374256746507e-01
2.138898013186093031e-02 2.997631885392239640e-02 4.564641518090550854e-01
7.099326865978001534e-03 5.057227224316792474e-02 5.327358360875192878e-01
-1.592257266830521961e-02 4.400825703634071023e-02 4.541826327997610657e-01
7.468609760631130315e-03 5.812354609406495537e-02 5.289020176247470895e-01
1.459380894717920638e-02 5.659768694615729956e-02 5.240371859122732179e-01
-3.335741092645887196e-03 6.030617963010779375e-02 5.372701592326291076e-01
5.076582113441774693e-03 5.892198495471792641e-02 4.620286637887878745e-01
1.240807167383522688e-02 6.023905775379705119e-02 5.250821451299712006e-01
2.866498513208146429e-02 6.376857036879915452e-02 4.852809816987768143e-01
2.762852829596930057e-02 6.528311157583613356e-02 4.833326299497437417e-01
9.998400783113901152e-03 6.217333872638104719e-02 4.650186541618223646e-01
4.172435867684329974e-02 3.172250725607940469e-02 4.758834552997618927e-01
4.392204371617091513e-03 5.802119214327659119e-02 5.312173350625705170e-01
3.798974016144027188e-02 4.631593101534565993e-02 4.835389526016139472e-01
3.753555743991584398e-02 4.111506307553377398e-02 4.757651189530439639e-01
9.842921237656317504e-03 7.643084989148478392e-02 4.880497022905200266e-01
8.577914877196213955e-03 6.369328439396505781e-02 4.651023133411815169e-01
-1.605935493314265133e-02 5.855064374042497077e-02 4.607420904135596240e-01
3.260963109470963947e-03 7.047091107114901443e-02 4.688990400868482955e-01
-1.879979120748696830e-02 1.054410233308983140e-02 4.399747136436433226e-01
2.754723676488983475e-02 4.354522195800899359e-02 5.172696426406082626e-01
6.235062816249266511e-03 1.294498144379634293e-02 4.451519707063893438e-01
-2.550933816937368120e-02 1.429752555409031546e-02 4.414090754217884216e-01
1.020402649434311824e-02 6.825909183490427856e-02 5.085597924707105921e-01
3.209387323555942806e-02 4.823650387909367981e-02 5.105285702324078301e-01
4.257540366481575751e-03 4.674813052611559439e-02 5.372354947151951610e-01
2.695305987642974965e-02 2.249452843095921944e-02 4.558404266438196850e-01
1.614032232966424590e-02 6.215529776899177822e-02 4.678465569509550059e-01
-2.499506931935463472e-02 4.351475280693972020e-02 4.534657957121583927e-01
2.615163808589035174e-02 5.619328024378225650e-02 4.722841591276766837e-01
2.139262950063932495e-02 2.930400726711613474e-02 4.561471070531295524e-01
-6.871797060279327338e-04 3.171610176656079055e-02 4.513766264699973774e-01
2.757078499665166146e-02 6.555513094094471416e-02 4.849888554985687938e-01
2.803100393950127070e-02 2.966280881746970535e-02 4.599073261098825527e-01
-1.260690394531039336e-02 2.592937277480526076e-02 4.468079640489426296e-01
3.202772682787445591e-02 4.456323721035451019e-02 5.120924325812493683e-01
-1.898272879292371013e-02 3.552220691221370796e-02 4.503626427306172686e-01
-2.254123215080659770e-02 3.140184389408991195e-02 4.481201227707923285e-01
3.168855264458021737e-02 4.273953025465458688e-02 5.137011953840885381e-01
1.426144765555161474e-02 7.730700843764559682e-02 4.827772619854319158e-01
-1.133204123605388754e-02 6.100177627588541929e-02 4.619954352230056793e-01
3.491752070703670746e-02 1.669746764712949985e-02 5.226046611922284812e-01
-2.296652587000072576e-02 5.883187564634122235e-02 4.654747166533010350e-01
3.820198226321366158e-02 2.661523024623955319e-02 5.097425301937174025e-01
9.622927236837750670e-03 1.653438487213914482e-02 4.472915106599172907e-01
1.464706858080688442e-02 7.350264519990556966e-02 4.740035362221323156e-01
-2.440852855725548706e-02 3.942307306808530420e-02 4.515709563599228926e-01
6.749989527357204422e-03 4.293660626438968592e-02 4.574938777890665276e-01
1.668456386264260266e-02 7.649317186444673511e-02 4.880765962863745644e-01
3.353279593902238828e-03 5.874914026953068774e-02 5.319808503032175118e-01
-3.522282789225632954e-02 1.825670011471703519e-03 4.393267287286763412e-01
6.916971682514806014e-03 2.583357141317141684e-02 4.505253346286557381e-01
3.064099188832122497e-02 2.077317828815149550e-02 5.245269545401491929e-01
2.793368593035863018e-02 3.244753517237362883e-02 4.611888656647464835e-01
-2.255643430904617081e-02 1.639603752509477888e-02 4.421534093921967168e-01
3.176890080046237963e-02 4.410923770334328892e-02 5.127343820306162758e-01
1.864843970126203732e-02 4.359826265827990849e-02 4.616514623986220922e-01
1.017422276771276501e-02 7.444718041061018643e-02 4.977555356415401255e-01
1.696900555246368125e-02 7.293227991815147415e-02 4.752932547918087280e-01
3.103244675212975950e-02 4.479370392862300904e-02 5.134188215636978914e-01
4.316961128217242788e-02 3.183536430707677861e-02 4.854569038674367842e-01
-3.006927231269684777e-03 1.199997069480408796e-04 4.385888527115738289e-01
4.374949123291821396e-02 2.929628434472797763e-02 4.824572566716171518e-01
1.706653878739807645e-02 6.040520160969946317e-02 5.207965647741326087e-01
2.683338226839637394e-02 5.418246384452601178e-02 5.140828868688855913e-01
2.124939332750960114e-02 7.185412195183177309e-02 4.803575665483134083e-01
2.195426147053114105e-02 1.288659475026468493e-02 4.492399598264710248e-01
4.233069104817291373e-02 3.282456423149755081e-02 4.786850954567922756e-01
4.047404447253103582e-02 2.696582026994536960e-02 4.693271451835877572e-01
3.628705219207682253e-03 1.142563599482503828e-02 4.440043994329486154e-01
7.972410637798531957e-03 5.881852355501289431e-02 4.630411535422652158e-01
-7.116745643492170849e-03 4.699864448570291453e-02 4.560225751476384981e-01
3.380019301001417620e-02 5.500754206135587826e-02 4.854698302307805524e-01
2.109585232608753025e-02 6.186665398477067535e-02 5.146547601760343982e-01
5.337282599546782497e-03 1.903227227716269496e-02 4.474388480786809508e-01
2.095073697258309844e-02 7.174259596563135888e-02 4.975702476846001754e-01
3.322887187786077723e-02 4.141579463590844973e-02 5.122030519806510807e-01
-3.722726281527181935e-02 3.113290047830691298e-02 4.481813284076583415e-01
1.183172544727167149e-03 3.466013351112317425e-02 4.529803011474209939e-01
4.369121483663143679e-02 3.002376907446615076e-02 4.910254144580933344e-01
1.284297156961886933e-02 7.801562617899886198e-02 4.830338208309559733e-01
3.440675569939341538e-02 2.577978225243926849e-02 4.622483378499702700e-01
2.492312487726868961e-02 6.947423250263379257e-02 4.858336765324002271e-01
3.173149016333025318e-02 5.602000584995341093e-02 4.788730485052708485e-01
1.874465422864233718e-02 3.910266536787036784e-02 5.315055252662107543e-01
8.714961905118849897e-03 6.505040553681350202e-02 5.116785326133816980e-01
9.454397173288737327e-03 7.877222690721573384e-02 4.769584072018867582e-01
2.427259332648340137e-02 1.175728965853260581e-02 4.496453684201354162e-01
2.545870092771515547e-02 5.441519066019093881e-02 4.708823001960524279e-01
9.165405243318087633e-03 5.834647043940580091e-02 5.275694308927539877e-01
1.030646468035341899e-03 3.296089594036936271e-02 4.522472541407220881e-01
-1.389283802107831034e-02 -4.465495311932280234e-03 4.367674416739159016e-01
4.490520565314843476e-02 2.638781893187440095e-02 4.880173464319188525e-01
3.759961244524838431e-02 2.166124704018889888e-02 5.159391994188381458e-01
2.706766723321075291e-02 2.132675584103526506e-02 4.553550938376605961e-01
1.994852341457202874e-02 6.254877640823147678e-02 4.702920160409825301e-01
1.995861924986060826e-02 4.299991560406908608e-02 5.256143903435209763e-01
1.105917647009735383e-02 7.200516633467478333e-02 5.025471526208739048e-01
4.725343174190630574e-03 4.572791445489815532e-02 4.579539013537443082e-01
-3.226368471969352780e-02 1.110456477376484813e-03 4.388088869298107375e-01
2.317737471994700191e-02 6.963537876627243217e-02 4.800334915625346088e-01
1.122167687529532568e-02 7.959762538460406212e-02 4.806345578161353438e-01
-2.690719033571111266e-02 1.287757149592212366e-02 4.412020659764708808e-01
3.316639517849166024e-02 5.376557202086199028e-02 5.009723345016734442e-01
4.005480531093542212e-02 4.069690755421283973e-02 4.809761219870325455e-01
2.162370092541411257e-02 4.668795443254111777e-02 4.645293281112758965e-01
-4.274586316234363359e-02 3.350032393790643853e-02 4.498686577534061759e-01
1.010472345753108368e-02 3.210512611834978082e-03 4.419900275371616560e-01
3.452567142523169097e-02 5.141426551258215794e-02 5.012724087368669590e-01
3.464287263249975213e-02 4.754913040655324441e-02 5.069675252187666459e-01
3.130852966790471231e-02 3.881629242583550798e-02 4.667750042519501763e-01
1.831301163861127554e-02 2.169467194307371505e-02 4.515340338883202520e-01
1.184058096473788839e-02 3.025863122919422200e-03 4.422673674857445780e-01
8.091332408652692973e-03 7.111201428775404398e-02 4.998862077765575118e-01
1.771255103124699457e-02 4.212118326115472239e-02 5.307776196641171840e-01
2.905981012892513635e-03 3.713148464899830581e-02 4.543401595017915739e-01
3.770280235393070473e-02 3.721765676606501871e-02 5.065466870693524637e-01
1.480596612898096333e-02 7.131398226018667574e-02 4.717193832570290568e-01
9.471852535586019334e-03 7.373904749134084502e-02 4.981354037256350287e-01
4.212399383115624646e-03 1.599390523357108879e-02 4.459807208033668147e-01
1.914829600263573059e-02 4.301784119282860835e-02 5.269424136967684191e-01
3.380413830897668198e-02 3.147081012628989705e-02 5.162305792468362409e-01
-2.759148812661890368e-03 5.351597848116489836e-02 5.399952699394888755e-01
2.542318640283638964e-02 2.982189162086079301e-02 5.275876450738494761e-01
2.863495194025556662e-02 4.580296241015258812e-02 4.686188383601318508e-01
2.960234367799745303e-02 5.004265737363315647e-02 5.127045962279529467e-01
-4.072309274521001415e-02 2.989602336050058845e-02 4.483917341049240002e-01
3.082957584467476211e-02 5.528761509694858634e-02 5.060776825947249646e-01
1.763654759238767952e-02 6.541985855348102230e-02 5.125615302724845224e-01
-6.675608292915533384e-03 1.747428266950157294e-02 4.445076255329815651e-01
2.209592987424034705e-02 6.951194989726804108e-02 4.992482374402291700e-01
3.078110987398352191e-02 5.411690288830017792e-02 5.089596183044033939e-01
4.371149595658275350e-02 2.931149857466366221e-02 4.917562869535644365e-01
-1.341463566204229713e-02 4.823254609263215309e-02 4.559526631433818422e-01
-3.121005198963178184e-02 4.606292067143719776e-02 4.560293828882682199e-01
1.752659271627745458e-02 1.884511904512106359e-02 4.500143550042661755e-01
5.002462935561299492e-03 4.583919922047657858e-02 4.580669551852861732e-01
3.816956970902683072e-02 4.653424055603679055e-02 4.935056710032380556e-01
3.305240826658035515e-03 6.139797875190952658e-02 5.218135055925255950e-01
-1.309237066458404652e-02 5.197363835761361489e-02 4.573616003461005164e-01
-8.798822700859604273e-03 5.356587246085642989e-02 4.579742668192617328e-01
2.720132480929008875e-02 4.405973873769156168e-02 5.174368534967518363e-01
4.841182244244299562e-03 6.230449862693467067e-02 5.196931308988225195e-01
2.859361285859784996e-02 6.443101125571606969e-02 4.903809083474034436e-01
-3.187383949757699453e-02 1.770453812310562522e-02 4.434463116041303388e-01
2.131620398414571516e-02 5.022226021788631783e-02 5.206391143026080082e-01
1.556274978496998557e-02 6.771733922629782909e-02 5.102541772160283928e-01
8.228344395310126930e-03 7.151419696550441463e-02 4.696168500204568330e-01
1.665046321917422814e-02 7.520257921779241461e-02 4.787717179079880037e-01
1.869417516700007040e-02 6.222892718396460382e-02 5.173386521821103923e-01
2.887189745863268098e-02 8.775901575684877387e-03 4.511361302719372746e-01
3.548600482398052425e-02 2.788156751076258794e-02 5.147682850437211854e-01
1.786464271211439525e-02 5.930746600344118102e-02 5.207613245606639296e-01
1.238285989650024510e-02 6.271711895218522181e-02 4.661896714254071261e-01
-5.515571103237533468e-03 4.160340006186559469e-02 4.544752555114963677e-01
1.600730326415865726e-02 6.795065249217002723e-02 5.094518343083873635e-01
-4.801221572702133594e-03 5.823379060508223487e-02 5.271959445905451958e-01
9.530793804498912877e-03 3.671859884340212404e-02 4.557063008655327652e-01
1.456158199546873921e-02 7.605467884364115749e-02 4.913305683728295681e-01
-1.269476394866796490e-02 -6.129004785547291674e-03 4.366501219523515331e-01
4.730024710326201712e-03 4.833639476585230299e-02 4.587491501325942078e-01
3.298244236871510776e-02 4.622337094216160541e-02 5.102959052760727143e-01
1.271312971991725438e-02 7.641904535296677181e-02 4.877390371646515566e-01
1.428346506229393256e-02 7.729117365259843830e-02 4.827540663508981256e-01
-5.239428403818680718e-03 5.871918179361168555e-02 5.292046881173358974e-01
1.590584786787747548e-02 3.637799920951102078e-02 5.325884321375791153e-01
-1.255199738428279879e-02 4.641536794447214537e-02 4.553635155266352319e-01
1.026950399261300495e-02 7.220531887124841119e-02 5.005236577615976845e-01
-2.032585807331548783e-02 1.827723088730598758e-02 4.428914527502199605e-01
-1.109607382308244738e-02 3.276264374640165677e-02 4.501411419638121636e-01
3.840959210247143346e-02 3.322880746750159209e-02 4.703159954227555395e-01
1.348436702084063795e-03 5.244046771166298304e-02 5.381821901485785986e-01
1.747357305101951246e-03 6.129289553856590717e-02 5.332222079000519255e-01
2.989065034639867488e-02 3.569364843545600602e-02 5.183869389383788384e-01
2.819566391625391577e-02 2.561793168724795650e-02 5.254004036359730678e-01
-7.182871339650460929e-03 5.789099345494486126e-02 5.321091690195151047e-01
4.572248032038764287e-02 2.352311740736721252e-02 4.883276306668349331e-01
-5.647750262331107350e-04 6.148208655602236533e-02 5.274920742379110017e-01
4.357468154362872242e-02 2.568512956042559234e-02 4.755347585760136830e-01
3.995454633411338330e-02 4.268870370763477862e-02 4.921542316027321951e-01
3.206161134203990015e-02 5.656031312631786684e-02 4.806709734338600604e-01
3.432145128815155752e-04 3.345557672777288438e-02 4.523075514233174110e-01
1.582168760205160743e-02 7.548562616037603201e-02 4.965497773393341974e-01
1.073819666176351051e-02 7.928738940756499542e-02 4.812769104332212944e-01
-2.270288033180113338e-02 2.210461623420291108e-02 4.443390178944225943e-01
3.163817943833732715e-02 2.893773005007494251e-02 4.618142272265419734e-01
2.837745852449108028e-02 1.858062354117797493e-02 4.548668731784195618e-01
-3.835804559393558855e-02 4.189938028966834482e-02 4.550171052121866899e-01
-9.980743265763961439e-03 6.038872656924801352e-02 4.610922926213635864e-01
3.263737152170887584e-02 2.709604958151978077e-02 4.616134884950561235e-01
3.663059708055164260e-02 2.897266034394098064e-02 5.117487079718606724e-01
9.191097550243575165e-03 2.379170717968272925e-02 4.501724305707088813e-01
1.280201865570912770e-02 5.909624430383275673e-02 5.249556265856042403e-01
2.115786554688038265e-02 5.444259298146453263e-02 4.675069471845739733e-01
-5.417093950373906737e-03 4.623026638515591313e-02 4.559614395872461645e-01
2.630865299995715362e-02 6.675456834377299642e-02 4.928240988063743444e-01
-1.143865223211266643e-02 4.232915737182289806e-02 4.541190311753967590e-01
1.266410187852676054e-03 -4.911056428253688169e-04 4.390789489949317725e-01
3.644014938146728638e-02 2.537797075328012547e-02 5.150140647684602335e-01
3.051654860976678318e-02 3.254592900709366715e-02 5.217893403902268412e-01
2.569100823269766104e-02 2.293189397017708631e-02 4.553786045227755652e-01
1.144550972039487524e-02 6.414693348533676009e-02 5.204751323065333057e-01
-3.806177597424418094e-03 -1.254926968253641719e-03 4.380487930841266975e-01
-4.066521542016325944e-03 3.509414508234962038e-02 4.522236971915358783e-01
7.662751958752551940e-03 6.451432309009207111e-02 5.184282242009309316e-01
1.833201164167685276e-02 4.746368002121672397e-02 4.631005324314486082e-01
4.576398964113902179e-03 5.569342398220454571e-02 4.609266172617531021e-01
-6.192412372093810194e-03 3.105485429689477418e-03 4.392179363995699637e-01
-2.355963719485041491e-02 1.491264242739891339e-02 4.416124184215435289e-01
-3.871999230354123030e-03 1.656468253285981254e-02 4.446361897826452969e-01
-1.540707817363107593e-02 4.965970735128333313e-02 4.564925945171561250e-01
3.997610306889077397e-02 2.406617687754556215e-02 5.074045686160307822e-01
3.512524325033435091e-02 4.595971573269990590e-02 4.757053861963791985e-01
2.421398594330435167e-02 2.196896405935876151e-02 4.541487761134372358e-01
1.197985323043705870e-03 3.267696908746333534e-02 4.521646990825905488e-01
3.299529788381937861e-02 4.213148763964182780e-02 4.699349064890964156e-01
3.031645768800387761e-02 6.130161379955213763e-02 4.881433798296652138e-01
3.747687928634809568e-02 4.042096592970037539e-02 4.749619950773070198e-01
3.970239305774643512e-02 2.886192675925844386e-02 5.049801379163294524e-01
1.008360588695877795e-02 7.955237650702388918e-02 4.782131468080694781e-01
2.354276381489487854e-02 2.511411725185193865e-03 5.327902670407480556e-01
-2.399901433304268972e-02 4.524360904683476930e-02 4.544323816234402402e-01
2.091674346892245101e-02 6.119401023758076763e-02 5.157261672292332566e-01
-4.361933962408493307e-03 5.434106641837350982e-02 5.399873893436966110e-01
1.805458170762627018e-02 3.329067735638337883e-02 4.567167670490386855e-01
3.773645817503816502e-02 4.421029108423370213e-02 5.025013641773393713e-01
3.030689715560081973e-02 6.054676921725684474e-02 4.948467628579650279e-01
-2.306961917438494353e-02 4.568308782802906615e-02 4.546392647361040540e-01
1.298743168766264625e-02 2.340894673307602342e-02 4.508971931381244302e-01
3.234441079198106112e-02 5.381284059156830196e-02 5.038668640176726665e-01
-8.311706085150007139e-03 3.690798101843308088e-02 4.524169272638592920e-01
1.464091300220360554e-02 4.417138701877976192e-02 5.315800055650309330e-01
-2.601602258101824716e-02 4.190974234963051187e-02 4.525712227795603004e-01
-2.793681168442050354e-03 5.870748011322002302e-02 5.254800376975937715e-01
-2.268551157910301402e-02 5.869068911643738479e-02 4.635623443971624846e-01
-3.995086524250591326e-02 2.097182957915879470e-02 4.457132845294329848e-01
1.124424224768163019e-02 6.523639493140860612e-02 5.165217651789977271e-01
3.489954419031127825e-02 5.019598918678472299e-02 5.026630513357067676e-01
1.368884465085404983e-02 7.040201043233895728e-02 4.706291130713279869e-01
-1.010186337806698309e-02 4.626189612627221170e-02 4.555240276159733259e-01
1.464971017659368741e-02 2.538853729067764783e-02 4.521180127323516373e-01
2.085003200741914267e-02 5.191713694638892818e-02 5.204092362659255011e-01
2.951029109957934923e-02 6.267361011434724460e-02 4.880096159152115809e-01
9.695810179211306404e-03 4.094174733635017743e-02 5.350551923390292064e-01
2.286801721209035659e-02 4.847179764068330898e-02 5.199357388332666030e-01
3.985842437410859473e-02 3.050105744560773977e-02 4.709720712508055906e-01
1.847923405771073613e-02 4.467444009673270100e-02 5.257517406867349141e-01
1.101633939775798279e-02 5.435796491028757615e-02 5.274601777296955563e-01
3.356628097932820576e-02 2.926498698189504422e-02 5.186734183873092929e-01
-3.557274232872907616e-02 3.420231528983764049e-03 4.395820413375448044e-01
3.406449370301772861e-02 5.432014204874197755e-02 4.926748982538018407e-01
-8.425845713125516487e-03 4.184243147935384072e-02 4.542590148923121851e-01
3.174599253063591087e-02 5.367908728183931610e-02 5.063908020074606720e-01
2.376930561924347346e-02 5.862758263231492017e-02 5.143787368253099901e-01
1.972005257500642969e-02 7.436965589392195708e-02 4.947001967276413170e-01
1.889464188621811994e-02 7.534405988630042683e-02 4.847305809671850763e-01
3.215710746310056906e-02 4.305534001011256107e-02 5.128016920050281202e-01
-2.008883700620464619e-02 4.091796339550143879e-02 4.526025630324392868e-01
-4.046645320054616246e-02 2.598530414233318764e-02 4.472437766533602366e-01
-2.523588473038716057e-02 7.074973834601093990e-03 4.390464728344580236e-01
1.585012552810642975e-02 7.119080223978678512e-02 5.047894813062773212e-01
3.483065480186627733e-02 5.331127988316188698e-02 4.895054019271489754e-01
-1.667689065367993634e-02 1.856289461596317275e-02 4.433702221018135381e-01
3.438678306933620060e-02 2.854094571221184665e-02 5.172987884979475259e-01
-3.056915877601264556e-02 4.444306223221003438e-02 4.546264924233298088e-01
2.579535289979546786e-02 3.736155857282750115e-03 5.324461993762419354e-01
3.155644404093904676e-02 5.910282134175886409e-02 4.882564558446090275e-01
3.399416150266446751e-02 2.549255867210049875e-02 5.204750440243718357e-01
1.727349836274420444e-02 7.343491936501318762e-02 5.007575498282346160e-01
-3.889842485310197190e-02 2.648489732026729909e-02 4.470896255151442511e-01
-1.321297265761289808e-02 2.052628923952453961e-03 4.379420256665436106e-01
1.134399184654408255e-02 7.227913773577877843e-02 5.022244083213460719e-01
1.115962894508917835e-02 7.300197302919654574e-02 4.721033335613879500e-01
-1.328528924563641966e-02 4.347716218335578864e-02 4.543012293723999173e-01
4.074307359098363474e-02 3.924029424557281404e-02 4.839522547213495063e-01
2.873728965377996165e-03 4.970276513734919743e-02 4.586044841378620895e-01
1.564297113113123638e-02 7.018822694871844348e-02 5.066902650463325219e-01
-5.623827228792257354e-03 3.951016265642569303e-02 4.537386786229804514e-01
1.382703056147542922e-02 7.336626376058261179e-02 5.012545136311666871e-01
2.642273824672773316e-02 6.103414648040755841e-02 5.085739883660899130e-01
4.235713717564757938e-03 1.121552488833383460e-02 4.440402357234397579e-01
2.453480636922822367e-02 2.807354267896725736e-02 5.279823589464641698e-01
2.250485685532058883e-02 5.496430665428256312e-02 5.187745574620303834e-01
2.286917186041612440e-02 6.758055179958556702e-02 4.765318877173888024e-01
1.176559416708361679e-02 6.712960175631590976e-02 4.678548986099256846e-01
-2.548357947258803741e-03 1.028457580319699569e-02 4.423939747198649131e-01
1.981675023742191996e-02 7.192843821730912635e-02 4.990175473010579066e-01
-5.238927978486533979e-03 5.911380580883465047e-02 5.301085170260857460e-01
-4.447918625210868677e-03 6.082370421729901833e-02 5.323739210863528415e-01
-2.889116521541643806e-02 8.837839583383780631e-03 4.402811404732732137e-01
3.924377093709654346e-02 3.716349093091823874e-02 4.753354190355000841e-01
2.986040042125319427e-02 3.005205839246939334e-02 5.241597711296084317e-01
-7.447861329859967530e-03 6.603465961352380717e-03 4.403052982311284613e-01
5.275738387109455904e-03 2.359105136433078953e-02 4.492621656267184460e-01
4.063105325788166772e-02 3.877327956015395871e-02 4.976623330118036259e-01
4.058771189023256676e-02 3.919189508490746043e-02 4.809164498009164679e-01
1.024637204891234304e-02 5.432839554256673614e-02 5.281682134939744699e-01
3.983531299568823791e-02 2.594349202425119683e-02 5.066551402161139084e-01
2.171210236578805311e-02 7.160473536895181623e-02 4.811626366166321667e-01
1.330227642731766913e-02 6.799440385815770649e-02 4.690993505532124463e-01
-1.312511888562524140e-02 4.516974799839799937e-02 4.548860644845668655e-01
3.620715362053440051e-02 5.052492298185779634e-02 4.915219264558416401e-01
1.526375324800559839e-02 4.473742546193267694e-02 5.297334608212959095e-01
4.209024351834899508e-02 2.697709777076455137e-02 4.998871292405395739e-01
2.224320350217124168e-02 5.994293616697998067e-02 4.709060417711877777e-01
2.064543143601430333e-02 5.022467832315012648e-02 4.653878071298218622e-01
-9.523413723627258479e-03 2.838232864535218669e-02 4.483986437617494825e-01
-3.984035987387722286e-03 5.769316461535348856e-02 5.396017281242180275e-01
4.327477110802823573e-02 2.514189018568545667e-02 4.980587674503429430e-01
-1.361210683642450313e-02 3.545152616278291619e-02 4.509987361742804901e-01
4.208704767591951029e-02 3.580554776716951548e-02 4.873899281472796052e-01
2.956468784932187246e-02 3.329449838589127603e-02 5.227330743653141321e-01
-2.867389565666653151e-02 4.844194637995474784e-02 4.569088800200690748e-01
3.760240724269715146e-02 4.470119846687838072e-02 5.024576717335795806e-01
-3.600309304455340254e-02 -2.501120670521123773e-05 4.395850845763333292e-01
4.202852888439539275e-02 2.903532668398550037e-02 4.987455399942817835e-01
-1.857514848589033457e-02 2.314776756119284878e-02 4.449700756883159802e-01
2.651951269478720896e-02 3.827126915623477177e-02 4.633644426578302777e-01
-1.899911677628301349e-03 5.832184594479061096e-02 5.222891444075206113e-01
3.053658985950140348e-02 1.984673577088850657e-02 4.567420606259873228e-01
5.280209768382311021e-03 6.344459107437451506e-02 5.172096809164664633e-01
1.958446109706218907e-04 6.214802818645602522e-02 5.276893666705538832e-01
3.772881751884016310e-02 3.201180477316710460e-02 4.684095446781593175e-01
2.757527411701268458e-02 5.286435160187995252e-02 4.717700433702711194e-01
1.213384808399886952e-02 6.268278167047806881e-02 5.243349367866614319e-01
2.173066591883754048e-02 6.990543030736900976e-02 4.778378486701152505e-01
2.642464413502872145e-02 2.606623110120661474e-02 4.572347519618281675e-01
-9.001346855985250042e-03 1.118448075391311955e-02 4.417010040207524635e-01
-2.087006145824277931e-02 5.703986941957554790e-02 4.604449978235648500e-01
8.652471468263870508e-03 2.476013700688054625e-02 4.504562193231094192e-01
-3.478174927238422004e-03 5.688455386448418999e-02 4.593946931645975229e-01
3.233247168143728312e-02 5.710878350490058292e-02 4.823153491815118654e-01
8.012955998154052892e-03 4.403603223130748978e-02 4.581801822954809089e-01
2.366297228783331708e-02 3.864116762947628070e-02 5.261736531022858099e-01
3.458468625383230577e-02 2.252742601797088837e-02 4.607364813932461889e-01
-3.102721575012696090e-02 1.909575367136502611e-02 4.436886851448619273e-01
4.108051683230352219e-02 3.818979889684048779e-02 4.837666123590108058e-01
-2.368546884597343832e-02 5.746216706978456851e-03 4.384140524384405047e-01
4.091536255749200768e-02 3.696484750507733619e-02 4.980450744761731330e-01
-1.598838829490920391e-02 3.736482463941966092e-02 4.515548450713482986e-01
1.916600708887436499e-02 7.387070976173559789e-02 4.797642931314587411e-01
-1.937764888867288607e-02 4.203928368751390365e-02 4.531481604741672276e-01
8.888932786238873916e-04 6.969834079601260057e-02 4.679753782194964740e-01
1.787748320032500615e-02 5.355902735121952085e-02 4.653347502888043885e-01
-1.953150827742407281e-02 3.312810797765436410e-02 4.492258310666604193e-01
2.380306843550795276e-02 6.017610013077444309e-02 4.724107152200371362e-01
4.452393629974087108e-02 2.481560922607326664e-02 4.938259580561125128e-01
7.749561067335043220e-03 1.569946405547950619e-02 4.465694118788564593e-01
1.494849496989976260e-02 6.446851964010656688e-02 5.180997578184332042e-01
1.402125427961297549e-02 5.940361213310355742e-02 5.240721398318849422e-01
1.422719421945957928e-02 4.124354119433144145e-02 5.337610502292506887e-01
-4.045852046278770701e-03 2.491514354522019609e-02 4.479662796565130889e-01
-2.931690611852011061e-02 3.342744431347598882e-02 4.488833364476959020e-01
1.633121841111688510e-02 4.073638927167777535e-02 4.593771631255111343e-01
9.129796254236932640e-04 6.256015347644273972e-02 5.286804580380608520e-01
-1.276601960361747369e-02 5.193732592922226804e-02 4.573744166136308187e-01
-8.341746566624088505e-03 5.951682101590696078e-02 4.599455315258602628e-01
-1.876981062608975431e-02 -9.475073801606948010e-04 4.371416211510942285e-01
3.541115198927255459e-02 1.365145406233115970e-02 5.234991078512559737e-01
4.044138168468991434e-02 4.036981491390073673e-02 4.850157129054367133e-01
-2.364966443931167811e-02 4.802047385027145843e-02 4.560977966315098442e-01
1.120580549388692018e-02 4.435914691221617273e-02 4.592351774459221270e-01
-3.390039364038062442e-02 1.716993320267929182e-02 4.436065885102526973e-01
2.165830822927232099e-02 5.800869821661788772e-02 5.175262136274173530e-01
1.413413937286005576e-02 3.988977049044328815e-02 4.583091511164277820e-01
-4.044228160326088749e-03 3.077750093489733246e-02 4.503510106199307139e-01
2.197493640595640438e-02 6.776921910262305448e-02 5.027336500265172647e-01
3.920166528527080363e-02 2.555441462092299110e-02 5.082155228764932975e-01
2.913285110361655411e-02 2.274611178469308076e-02 4.571471549219043862e-01
-1.095595903996889747e-02 3.448776780415858251e-02 4.509442091401464903e-01
1.997852562661571463e-03 6.063620658606245356e-02 5.224781836425614889e-01
-4.859437792670512866e-03 5.810495839528131631e-03 4.403433089475601858e-01
-1.714190979195365575e-02 7.398999156874152411e-03 4.390305721019887586e-01
6.009153420718865712e-03 5.819197513949179307e-02 4.621284126247530710e-01
2.790715411760154221e-03 5.905645839881190629e-02 4.613319112579621351e-01
-8.643790224024318347e-03 5.399739736113329941e-02 4.580979517274501589e-01
2.368128412706738822e-02 6.153766793580549982e-02 4.730536207596823250e-01
2.594293247141737577e-02 3.408819961851121405e-02 5.267474664098936721e-01
2.435573372757729102e-02 1.453925222128554101e-02 4.508884437012389834e-01
-2.256342094104978740e-02 4.476596535214935613e-02 4.540671083708616163e-01
3.951653488648976253e-02 2.067533825978744647e-02 4.641516755277078632e-01
2.728420444682023299e-02 6.522345387081025792e-02 4.816726182342527252e-01
-2.830389883720324518e-02 3.626077785100845219e-02 4.501069016975017267e-01
-2.426015240310210649e-03 5.892971836266606284e-02 5.254017947027020963e-01
1.985678671826310998e-02 9.344273365106868512e-03 4.470180532320550126e-01
3.957910993409989586e-02 4.326823268474558337e-02 4.940289638975647879e-01
-4.234481864892751177e-03 3.549989789810928387e-02 4.523625955375623064e-01
2.924143004452108008e-02 3.596310933071270033e-02 4.639055309198811261e-01
-9.548316152797197906e-03 4.363320726366607533e-02 4.547215637835845814e-01
1.099964958816062720e-03 3.361699551747544118e-02 4.525342471587373017e-01
2.711457903240789211e-02 2.099001997955767321e-02 4.552224634811159465e-01
2.069987862992692107e-02 5.261730616877290795e-02 5.204037073840090954e-01
-6.398944441574962519e-03 3.348952791672921148e-02 4.511617324324083689e-01
-2.220015984679883300e-02 8.969803188861117868e-03 4.394754368001461686e-01
3.504053319256961174e-02 5.160394251080167166e-02 4.830172291262601614e-01
3.753227581238350458e-02 4.813729883788415986e-02 4.904742690113230719e-01
8.928552979231453926e-03 1.350837300501365155e-02 4.459227408182259156e-01
-6.152201152097549336e-03 5.916759909131089762e-02 5.332262042150546222e-01
1.529726652153428311e-02 5.730733174357503096e-02 4.654658852998440066e-01
