1.176358962030588616e-02 6.576522808567439315e-02 5.126187700459828855e-01
-2.061160644398815633e-02 3.524801655477110413e-02 4.500469752250316757e-01
2.058592346053454009e-02 1.327901467826986606e-02 4.488945862245817819e-01
-2.511199493869673352e-02 4.099711518053150011e-02 4.521897065229430468e-01
2.511511372294916375e-02 3.180819572306113618e-02 5.277760654031745657e-01
3.737191213975523535e-02 4.494198971098983808e-02 4.792102001197162675e-01
5.248982544238570136e-03 2.282930537630689996e-02 4.489383678744947592e-01
4.252167474943405190e-02 2.621493978999816718e-02 4.730912478655677211e-01
1.237642848130795711e-02 7.050239145764738979e-02 5.070946889980854078e-01
5.651935385968318362e-03 6.099481810934838377e-02 4.629281676906109033e-01
2.052787111024983666e-02 5.072764960117446924e-03 5.316628956206221890e-01
1.355713956029614385e-02 3.967305845446775919e-02 5.338373512870808746e-01
2.246004717214996477e-02 3.877762563344114982e-02 5.278355446094228354e-01
-3.193054878184808931e-02 1.290380251974029661e-02 4.421701798532273187e-01
-4.038790408143141247e-02 2.144590806278862116e-02 4.459182254727879768e-01
4.346638398023451588e-02 2.597692953142725567e-02 4.969249452550151824e-01
-2.920747832111914716e-02 4.917306997368151023e-02 4.574292024892466779e-01
3.417614957216916910e-02 5.442374240929646195e-02 4.871002922433291249e-01
-4.176085431659298970e-03 3.652032089857693703e-02 4.527479242232950729e-01
2.352731837652274199e-02 5.002700078925916005e-02 5.188676341860453123e-01
2.881050425027427420e-02 6.379534498698087586e-02 4.884682101618104677e-01
7.104958051807694179e-03 7.516764626226395130e-02 4.736293781317776341e-01
4.128257982236506474e-02 3.659999897779403488e-02 4.797647823054527194e-01
2.157794576863988900e-02 3.051791407070362019e-02 4.568003750646983940e-01
-1.389674976746943166e-02 5.935264914805125219e-02 4.611267573430664624e-01
-2.391135937071141998e-03 4.428551638402063173e-02 4.558131107886548294e-01
2.427369374886335918e-02 4.099159397055345683e-02 5.225639816803088200e-01
-3.008642918514867551e-02 4.931335797041518781e-02 4.577840611075321697e-01
-2.595537328146655873e-02 1.149180478963755629e-02 4.405581919261875590e-01
-2.154793504757260194e-03 6.638623831907464190e-02 4.650521325432754871e-01
1.296892615189805358e-02 7.284782648760512735e-02 5.024795475601545602e-01
3.183142064683018579e-02 5.851724617393281452e-02 4.876696050359213275e-01
3.132193473770986114e-02 5.933581991461687327e-02 4.919409261557796675e-01
7.282837831174030982e-03 6.991689241630751062e-02 4.681621769959496970e-01
2.215155704183153010e-02 4.337265251526306598e-02 5.231096852085913573e-01
2.208755075516690564e-02 3.270898749843290793e-02 5.295328338211560126e-01
9.517448792440983893e-03 5.543180730182301064e-02 5.282224832118083135e-01
3.329810905482839811e-02 4.085380548112915733e-02 5.123681429879337612e-01
3.132476157329346089e-02 4.247433735326663906e-02 5.143265978149746953e-01
4.106861323918842288e-02 3.336808943277463912e-02 4.992005811276652438e-01
1.737847271848908318e-02 7.481760247759081106e-02 4.788296399734732200e-01
3.338718047232276664e-02 4.437250858271076653e-02 4.719822088624498480e-01
-3.221786711237620976e-02 3.943159248331839367e-02 4.515269486867525828e-01
3.454121456260364487e-02 2.649785888863586542e-02 5.188233387254339579e-01
6.683711333268716609e-03 2.414346781629778116e-02 4.497623752014896503e-01
-1.418287079178631727e-02 1.755428170067107121e-02 4.432640183227979369e-01
-2.709576087169999342e-02 2.050352132888039539e-02 4.436875950208835628e-01
1.485555604202408453e-02 7.727405658203008454e-02 4.856532788705703596e-01
2.640143507707777212e-02 3.829458681819775112e-02 4.632995333283865813e-01
3.066111475582932247e-02 2.414653117263755935e-02 4.587714761411549880e-01
3.354237667816267754e-02 5.342552683141762321e-02 5.001001121401109639e-01
-1.869295982887752942e-03 5.491658207122211005e-02 5.400557160226712172e-01
3.231617054799347521e-02 1.786237998268756788e-02 4.570496562768161519e-01
3.048866146030745905e-02 5.200403731868714213e-02 4.743911111888081122e-01
8.141260802740897182e-03 5.693870793097355332e-02 4.625214402656355750e-01
7.667348280980217437e-03 5.067477979180980835e-02 5.320847552168987971e-01
-4.765524332901161647e-03 3.266074290186388174e-02 4.510251095757441542e-01
8.377623154626366239e-03 7.472651136679928086e-02 4.947952903616079090e-01
-2.657191140859273184e-03 -7.261954388096038965e-04 4.383324035870297397e-01
2.014695040322705619e-02 3.762519884620565275e-02 5.307965595496656475e-01
1.251679719426027418e-02 7.762780291705452529e-02 4.851556800944646919e-01
8.950675122337962628e-03 4.553572450308553121e-02 4.589053312307138088e-01
2.968464579107339338e-02 5.867595310445927748e-02 4.772307686414895556e-01
1.947029560827418307e-02 1.243552148625874480e-02 4.481648149117492541e-01
-1.750860134239058327e-02 3.434912333888166802e-02 4.499804637384303141e-01
-4.383219658899524529e-02 3.500227376916182492e-02 4.506134386366732469e-01
-8.668453451149851427e-03 4.969486253889410926e-02 4.568353453918155838e-01
-1.320245212255037257e-02 5.344608314182514031e-02 4.578275070996045693e-01
-5.416018623245595631e-03 5.802863487874970749e-02 5.392881043828572363e-01
-2.852601363857431432e-02 4.958265779024595421e-02 4.574322900660690583e-01
-1.576805929119912651e-03 5.643486418650420222e-02 5.367247127823100428e-01
-1.271960038186349500e-02 2.380156469083073625e-03 4.381150294590192562e-01
3.762704657154269938e-02 1.919575150187653040e-02 5.176620008103228754e-01
2.945814847878302015e-02 6.264086869148693948e-02 4.915702280741763852e-01
-1.583784069625466390e-02 3.030288696392687692e-02 4.482718647547159763e-01
2.831408457506537531e-03 5.754757003482165179e-02 4.609230431897390901e-01
-3.853102074566800567e-02 2.936705219127721048e-02 4.477970283542446750e-01
1.374084124133735652e-03 2.894078382295001833e-02 4.506563803553172987e-01
9.031141166048618774e-03 7.287557863392184199e-02 4.711327091919256249e-01
3.105404320908484658e-02 5.998889045101850337e-02 4.906055802280229194e-01
2.836543145435143840e-02 3.009636833047762278e-02 5.256726248952471314e-01
3.200960905557156955e-02 5.097159188904788751e-02 5.092125094850302736e-01
-1.494087684263436210e-02 5.424661780868911265e-02 4.580706687480284867e-01
1.736427910418512563e-02 6.996328690737500799e-02 4.726395247285739010e-01
-1.381322188135957092e-02 6.131407250992843005e-02 4.649362457592763342e-01
3.358528917826258953e-03 4.932562367428966477e-02 5.376231832801348087e-01
5.676352278708001950e-03 6.278486507985567289e-02 5.285579475902812963e-01
-8.991072006499397501e-03 1.095479670898441733e-03 4.382711059977919543e-01
1.516386419953064807e-02 1.930516129655376542e-02 4.496616928170291128e-01
7.345370071836315913e-03 6.849391928405028362e-02 5.058510201154341468e-01
3.161166525407432121e-02 2.966539554626358016e-02 5.222865577411746063e-01
-3.012976424444113212e-04 6.414609897384773718e-02 4.636458955442294694e-01
2.542883279411134109e-02 2.060987142856295778e-02 4.541518719169129192e-01
3.856338405802515242e-03 5.682042250232854919e-02 4.610256669257646878e-01
-7.426029602859623990e-03 5.808265402196526039e-02 4.593107073403647211e-01
3.835243799857764729e-02 1.847710942800532066e-02 4.617070672767580319e-01
-2.845258366301520181e-02 -9.225875768883260580e-04 4.379833407328009853e-01
-6.277367022797100855e-03 5.828859513571428563e-02 5.374462528634467162e-01
-2.136990199338021854e-02 6.537499431527244928e-03 4.387256870519710139e-01
2.367213818154416047e-02 5.200392666024045846e-02 5.183530304365487895e-01
1.552683827998228849e-02 7.456558047109498877e-02 4.992322485948613719e-01
3.676743156491699138e-02 4.849847015480929224e-02 4.833242679995630176e-01
-1.049402801655465421e-02 2.795023041051195728e-02 4.480192288369527209e-01
-1.916006842402548371e-04 3.411203059999162734e-02 4.524524162206806088e-01
4.162747898917818629e-02 2.596021070231236891e-02 5.023604771241358957e-01
-2.124195488222715283e-02 2.338256811107662300e-02 4.448257745530245777e-01
-4.186157419856438057e-03 5.779605808797949607e-02 5.395697656761582195e-01
3.380830460655243064e-02 3.686304210203959764e-02 5.130972041733942168e-01
-3.158471575874095827e-02 2.329184386707195895e-02 4.451044497562928193e-01
3.436445117205367411e-02 3.553766180840695760e-02 5.126722501123238684e-01
1.695804298611686481e-02 7.628917017848729776e-02 4.835680463329811718e-01
1.577436077886215995e-02 7.545572607485247218e-02 4.967753721978953041e-01
1.989044564888290886e-02 3.503562153438606608e-02 4.581476823916096341e-01
2.538758566183359211e-02 1.289592543862751184e-02 4.507541909119281986e-01
3.758348493059882056e-02 3.835724965534195730e-02 4.733840641552332640e-01
-2.215058512023718520e-02 9.654839813916561014e-03 4.396655541314617999e-01
1.292206419839694691e-02 5.914945603616415110e-02 4.650276196132577256e-01
2.403943311926697718e-02 6.688426724730926753e-02 4.998306937722217791e-01
-1.608302217086680485e-03 6.885366017025867924e-02 4.668051646215704009e-01
8.801586790379782588e-03 5.537996062251166612e-02 4.622638542486948166e-01
-5.043855623392972526e-03 5.527664534673143448e-02 5.400191474399721470e-01
2.100473124330128408e-02 5.843708498713665045e-02 5.178838687378521932e-01
2.524861625581043684e-02 6.567440482179090488e-02 4.776945451222769368e-01
2.099139437739460518e-02 6.936686856723291161e-02 5.017333298620628712e-01
3.764321024661612669e-02 4.380600584523660496e-02 4.786346633876288892e-01
2.592687599308253835e-02 6.775891530047005451e-02 4.830757826861177273e-01
3.427515838807367043e-02 5.080490281418727216e-02 4.796987032092551173e-01
5.128766757692956001e-03 5.563175618539314277e-02 5.317286595984707098e-01
1.404034329657115159e-02 2.686365951488565908e-03 4.425814806841160687e-01
2.211988816393388804e-02 2.380559194007363794e-02 4.539090142422598229e-01
2.760042368499226323e-02 6.312115652525913945e-02 5.001609124573158649e-01
-1.980338230842576194e-02 3.156117200943965584e-02 4.484770552758217677e-01
-5.026379959120189610e-03 6.048134336497724278e-02 5.324659740800384844e-01
-2.394063756515308478e-02 1.566003240680822681e-02 4.418729076203898876e-01
-3.738544960149628449e-02 2.450137224719158707e-02 4.462318395387535053e-01
3.669430250768781349e-02 3.511116484955990880e-02 5.079231922464613191e-01
3.527107844681087040e-02 3.647567672501587921e-02 5.100428764591578012e-01
1.233295887054477319e-03 5.587036809135998566e-02 5.346623066445103101e-01
3.642402974288196094e-02 4.513255408088145959e-02 4.775105103074955282e-01
2.428544884187193095e-02 6.614250703834126388e-02 4.768305101383991662e-01
3.409424047729470858e-02 2.791422329646104511e-02 5.185676997079710082e-01
-1.531286063281616511e-02 3.787121074743279858e-02 4.518599225269913089e-01
4.111604518058801366e-02 2.460598547200029684e-02 4.690715729023745006e-01
3.588508400624044331e-02 4.957755302525358038e-02 4.995301143145572387e-01
-2.814804506583729396e-02 -7.867855534055001598e-04 4.379563282562645155e-01
3.669364426763054715e-02 1.800802734576901001e-02 4.602006775624506996e-01
2.627526993744696768e-02 4.527733656244960214e-02 4.666593277985502386e-01
2.122686790862678662e-03 7.364273482738294824e-04 4.396430703512903548e-01
2.005702959938490335e-02 6.180199355138431272e-02 5.160488222167111116e-01
3.345936525750706214e-02 5.146866031420895687e-02 4.781122040150963537e-01
2.963253807290874842e-02 2.443552920080577923e-02 5.243080801756638820e-01
-2.738378037039011694e-03 5.125671986230486560e-02 5.389927791095852072e-01
3.184084055548270370e-02 5.408046619681537021e-02 5.049529634743440409e-01
-1.725158855891917309e-03 6.667378933922739337e-03 4.411139006672847862e-01
2.698272541638185862e-02 6.545157158362843730e-02 4.940611686360398269e-01
4.301778266117804034e-02 2.486601579251967314e-02 4.732822604874504235e-01
-1.169145851559123903e-03 2.550990459357111925e-02 4.487591875824461507e-01
-2.570454290770561936e-03 1.172172701887910090e-02 4.429643063846913087e-01
-4.487712479887522032e-02 3.150248455021231048e-02 4.496511817566329894e-01
2.906363248205451333e-02 6.075730933721614629e-02 5.009497570926170207e-01
2.968950231403770512e-02 1.896552267599115396e-02 4.557878128629757608e-01
-2.553284667414125811e-02 4.094605382700986645e-02 4.521320844210873213e-01
3.044875779340326660e-02 5.940550958956618277e-02 4.981906251111591910e-01
3.072593859564983279e-02 5.127186105478213907e-02 4.742090744232181909e-01
2.131430723735775606e-02 3.992689686544532296e-02 4.612501566774108164e-01
1.444567933249187464e-03 1.429651081362082188e-02 4.447358183729995251e-01
-1.101060144679673683e-02 -5.168694699061028401e-04 4.375142628542727508e-01
8.610345293996344782e-04 5.906435641857763624e-02 5.337089802563969032e-01
2.029765557609077703e-02 5.730284382076396982e-02 4.680826490401444051e-01
7.424060804833817334e-03 4.643603205743710577e-02 5.359326658488168249e-01
1.465422611147196644e-02 3.763317194296757900e-02 4.575057282010485671e-01
2.266767842333028242e-03 6.124205633025115586e-02 5.164441892821027835e-01
-5.921552719371028957e-03 1.940542045108796868e-02 4.453680177178598876e-01
1.588467102300759881e-02 7.720583172928904836e-02 4.852697784719672280e-01
1.321397625955910912e-02 4.377849516406551872e-02 5.332627426020222217e-01
3.379447653191650774e-02 5.476724192847780975e-02 4.845314286492125033e-01
-7.373623118160425177e-03 5.911463505509016725e-02 4.596250522548463446e-01
1.178096254136955928e-02 9.980115197681957082e-03 4.450525605230416515e-01
-3.439978541683472862e-02 3.802603141346438259e-02 4.509533274238218814e-01
2.760717699811802289e-02 6.363502533088989666e-02 4.794003923788529575e-01
1.003193721773495278e-02 6.215494899375166582e-02 5.264081708493725253e-01
1.674862771937375705e-02 7.553238534308177876e-02 4.958693582155684898e-01
1.831779079386098089e-02 1.563354135558966268e-02 4.489107134491962525e-01
3.918709411633413374e-03 -8.290495609574871638e-04 4.394425418697406882e-01
3.696957432629032619e-02 4.646616431379087947e-02 5.024243282531226651e-01
2.673698324581738270e-02 6.198635266102863611e-02 5.057053416091770170e-01
2.575019813443096828e-02 4.052302892383918137e-02 5.210152862619455982e-01
1.499040776352711032e-02 3.712691726851440749e-02 4.574030760277862928e-01
-3.426142509742399755e-02 4.012636446492541531e-02 4.520492006335055657e-01
5.792063683930641360e-03 6.725254413496609129e-02 5.056900215775659291e-01
-1.438163192187161959e-02 4.741801011751347467e-02 4.555777860952160419e-01
3.357681057568590727e-02 2.740312865591550823e-02 5.203593591501336491e-01
-9.656129044863659069e-03 2.096220930111586042e-02 4.453406962338167241e-01
2.127057555265654543e-02 5.670384127726077646e-03 5.314777017229722622e-01
-2.680297606550558973e-02 1.620202438041448440e-03 4.381048003482363451e-01
-6.524681585315396035e-03 6.304065126124205887e-02 4.627319136012520429e-01
3.122607129786748176e-02 2.060497354670032602e-02 5.240060142232499940e-01
2.297478477192588589e-02 3.498623607826350200e-03 5.323856543186400447e-01
2.162810300341391073e-02 3.701336376418455643e-02 4.599333161237149636e-01
1.283524866294581852e-02 4.672734666971913031e-02 5.295858472377884540e-01
5.641886713027815647e-04 1.955471933411586857e-02 4.466983390948046639e-01
1.030222493250117048e-02 4.447084092646778897e-02 5.352526701134698861e-01
5.174621973730249985e-03 4.827333092064238496e-02 5.361682311710337379e-01
3.488201015147872341e-02 4.813962583487661068e-02 4.773940547649346833e-01
1.975516415464835876e-02 4.361187974869124712e-02 4.622067032957656307e-01
-1.509494021402086467e-02 4.439091623511643575e-02 4.543815122960569997e-01
-2.215685247276324207e-03 6.727211603299983189e-02 4.656454713186053973e-01
2.642086687798926234e-02 5.968324895195942226e-02 4.744849318647066938e-01
1.364411387215929729e-03 6.537713499115442237e-04 4.394770707397125387e-01
-1.226740909183571780e-04 4.521687166442923955e-02 4.565402885492282348e-01
8.103053791172735651e-03 3.296887514930526425e-02 4.537786725805867394e-01
2.693641152784656198e-02 6.503071264868370838e-02 4.956624765617386741e-01
-3.286893219458023041e-02 2.364010748168804757e-02 4.453548649701786211e-01
4.510071916781036028e-02 2.457386301723561012e-02 4.816961727610028499e-01
2.976286637592044301e-02 5.698558775074759851e-03 5.310010139269537577e-01
-2.931997111190699432e-02 3.722082645270741175e-02 4.504932352343834490e-01
2.364239763696436916e-02 3.323319487733502470e-02 5.286633760063346177e-01
-3.839492166666461353e-03 6.144330641344526722e-02 5.314012524811537741e-01
3.809936552755868039e-02 4.365178167130894654e-02 4.793912210031495702e-01
-2.282524700990955224e-02 4.890505308070439150e-02 4.563445806011178218e-01
3.591392561201128125e-02 2.227997929268506205e-02 4.616706368512015768e-01
1.542310307302270818e-02 4.962599873867633293e-02 4.627036072532892952e-01
3.304354898357948767e-02 1.897331517724837671e-02 5.231348783386380319e-01
-5.941475877945487025e-03 5.804365591834784177e-02 5.384279917091828738e-01
3.180134699609967613e-02 1.808302655920643667e-02 4.567956476420342304e-01
2.977946928190247644e-02 3.801822048998731995e-02 5.171324654715914182e-01
-1.461371513646984518e-02 3.135532215285738444e-02 4.489433229318701701e-01
2.168215235444230504e-02 7.226847111453030270e-02 4.831584743911313540e-01
7.462335915436873503e-03 7.639459452544687668e-02 4.746835044698340944e-01
3.141023237037932070e-02 5.935879645288567180e-02 4.906539793408618566e-01
-1.399348971903433513e-02 7.190440874236416098e-03 4.394838251894270242e-01
1.707628753871185540e-02 6.773565490763161501e-02 5.086832949933732806e-01
1.751216245621363410e-02 2.523781944008535519e-02 4.529662109889199817e-01
-3.359625494618568436e-02 4.102664709497101658e-02 4.526017894636284455e-01
-1.618946017400374471e-02 4.811611420635672487e-02 4.558189624594459755e-01
-4.122992709518512322e-02 2.288651524984111271e-02 4.465025331684157051e-01
3.859314552490523964e-02 4.524905143874650981e-02 4.962576402945662046e-01
3.857445369783114170e-02 2.968225664068136621e-02 5.069263765718360348e-01
3.501563059573988002e-02 1.396016223892848108e-02 5.236666517326347137e-01
1.694229896311129357e-02 6.161101418232578508e-02 4.680068965373354040e-01
2.090547853129970726e-02 6.234713537213643075e-02 5.142152318318402582e-01
-2.545857481981100151e-02 4.332476087177964535e-02 4.533544876561353965e-01
-1.107639172203062593e-02 5.037526182981674067e-02 4.568958628906521491e-01
7.839079187970599688e-03 8.256585685457066420e-03 4.435354545699060069e-01
3.251155273272091778e-02 2.116538527564063021e-02 4.586359106640367500e-01
3.963637374006709346e-02 3.177484918635888056e-02 5.031047249717878200e-01
-1.383764773246939223e-02 9.738966859570496321e-03 4.403048737614350117e-01
-1.203622420607363894e-02 2.223785379182718208e-02 4.454224805585970115e-01
-9.337250718885449496e-03 5.639772248131075250e-02 4.588030674150694876e-01
3.959559941603277983e-02 4.209926284320239520e-02 4.819907522457471116e-01
2.815361978228625439e-02 6.486474240219508580e-02 4.883424944927581279e-01
1.834649286707768293e-02 6.845352073374422197e-02 4.722678194992434020e-01
-2.302273808240200975e-03 3.226001565479795496e-02 4.512646610116560764e-01
3.254202010983268945e-02 2.419751289609850531e-02 4.600491841569597784e-01
-1.697959347934441254e-02 5.160044300658445104e-02 4.571682485158105602e-01
-1.784891072812622853e-02 1.368563013977963649e-02 4.411591245608652012e-01
2.406019553024086460e-02 6.543308804101706511e-02 5.030054693901608864e-01
-1.536805682702542877e-02 4.379507713426219334e-02 4.541517022984563057e-01
4.196162228751802725e-02 3.283492678006241089e-02 4.775073868650070441e-01
8.107319253490157668e-03 4.861128760690862360e-02 5.331672832366768366e-01
3.070296910577468771e-02 2.348501394315466104e-02 5.235668072228539804e-01
4.752440411667715678e-03 5.662386234046144079e-02 4.612343405063328849e-01
-2.499298846129523535e-02 1.381375611694402560e-02 4.412190411141156954e-01
2.838467272114801945e-02 6.426069832296471551e-02 4.862691704948636784e-01
2.469141496529460994e-02 6.400067251193453099e-02 5.062834884677377412e-01
4.145949860011135385e-02 3.404256459730356510e-02 4.774117047978868600e-01
8.925486109263898113e-03 6.130271333620933988e-02 5.273789449629379122e-01
-1.778492034927389026e-02 5.791402355980877076e-02 4.604774741053510034e-01
4.101099532345298809e-02 3.669837771207956623e-02 4.974934955729026775e-01
1.383757662427743951e-02 3.387078285920080284e-02 4.556343655305249429e-01
4.254276182172665732e-02 3.388857802297876032e-02 4.858686253349914219e-01
1.919483416027090161e-02 3.488451120857204851e-02 5.309781853485366909e-01
-1.329697753360172333e-02 2.726799878780736958e-02 4.472341837416392019e-01
3.372539686473504522e-02 2.404256966203577664e-02 5.209382951243770599e-01
2.187072379599520194e-02 5.237830318367079491e-02 4.671027685349675718e-01
3.790886536493768416e-02 2.096291391877268956e-02 5.157950088554225099e-01
-1.203345518803694732e-02 2.380532471899839478e-02 4.460331005567639284e-01
-3.020263080198285280e-02 4.353899429590848968e-02 4.537761112524760776e-01
3.149402644914633259e-02 5.508623879794388029e-02 5.039141409693044249e-01
7.840571465808257590e-03 5.180528424238570878e-02 5.314068332058079491e-01
2.332742458616135495e-02 5.066862629006583379e-02 4.673668868774816243e-01
-1.582743137157927721e-02 4.537676647020176535e-02 4.546711656499551335e-01
4.744475479067987271e-03 1.179662738116617378e-02 4.443735612324794526e-01
3.437158883893988437e-03 2.222511350216167456e-02 4.483388971406013224e-01
3.508358529640450557e-02 2.914478034756911445e-02 4.646248812315193488e-01
3.430055946922409144e-02 5.387472190661008603e-02 4.854390690822951160e-01
5.427874746851609269e-03 4.974613836142587064e-02 4.593693104946380279e-01
3.272762513044812083e-02 5.599221215666747020e-02 4.959064205351911836e-01
4.282642733381370609e-02 3.372109947910104794e-02 4.897131562191720522e-01
2.900951488762338118e-02 6.330480658656394144e-02 4.869311190836010383e-01
1.919687926231766761e-02 3.844295751615860873e-02 4.594319841923997227e-01
4.142363366001929059e-02 3.487629555985456015e-02 4.970637321133226094e-01
3.017803925596096795e-02 6.143452350662438610e-02 4.913914986505683591e-01
4.011339660631953186e-02 2.300793543753380799e-02 5.076342620553874196e-01
7.514026272115714548e-03 7.079655942620204090e-02 5.000392401282895971e-01
3.070614056604166822e-02 3.577700154506118640e-02 5.164281101325295387e-01
-2.098099837995644201e-02 5.890885779269436351e-02 4.627990880121850559e-01
-1.522429125194757829e-02 6.014226356986501071e-02 4.622432386672011284e-01
3.431969706707878320e-02 3.057247736947997854e-02 4.646996040108685166e-01
1.773608725544157608e-03 3.178799719675878301e-03 4.404246076825940048e-01
2.198317865146966199e-02 7.260640678498202216e-02 4.916456150378833989e-01
-2.022515477072119559e-03 5.206584395525420961e-02 4.581490276826348240e-01
1.173472658328588748e-02 6.730324660930963807e-03 4.436864339971465787e-01
3.423807547629685588e-02 4.922282525270392506e-02 5.060092338186810146e-01
-1.817172558333023796e-02 1.503692530788286463e-02 4.416852513937974956e-01
-1.430140564160115035e-02 1.454972846663442343e-02 4.420846769284517142e-01
2.656768641498280861e-02 4.608286389481151130e-02 4.672592631509108196e-01
3.957040173713115283e-02 3.199493161020405818e-02 5.032152205030510084e-01
1.803460345039040180e-02 6.019471669060751789e-02 5.198227802866174363e-01
-1.987314563360090616e-02 3.425860951876535943e-02 4.496821107359564862e-01
3.636520648599287503e-02 4.138953036433060811e-02 4.738432019723155530e-01
-1.970256894419111435e-02 4.133800053784397049e-02 4.527960792530127399e-01
5.232916823311721533e-03 6.017696670619382404e-02 4.624470958391349029e-01
3.259347857213688165e-02 1.736191851759288918e-02 5.241880691904200473e-01
3.100010340128115521e-02 5.990485630510815340e-02 4.856240213264800820e-01
3.131659602641777285e-02 3.800138374291581189e-02 4.663562482307653800e-01
3.808991495979448250e-02 3.513807981374389433e-02 4.713532678931065534e-01
3.489745016364916019e-02 5.150870814487229499e-02 4.976221675907095410e-01
1.329736126382847529e-03 3.891500741049916390e-02 4.547290141029526334e-01
-3.646828733042724313e-02 2.142861496240263189e-02 4.451412316588945206e-01
1.779582382161006004e-02 2.864541797464580444e-02 4.545560144381290968e-01
9.481892341184725015e-03 7.402804595942928667e-02 4.979338835229144000e-01
7.146400548281181542e-03 7.447430571252044995e-02 4.726891716532421461e-01
4.057575318494194977e-02 3.928528840363447461e-02 4.966937322322624304e-01
7.333206565785022231e-03 4.106153701259232514e-02 4.569075761969861316e-01
3.171895701861887629e-02 5.743592641833972917e-02 4.810100777818154816e-01
-4.827407654667343478e-03 1.012492644495177271e-02 4.419694570900042918e-01
2.293514224122406020e-02 6.394559114631261088e-02 5.094813439782799325e-01
2.936939901164640696e-02 8.977735436414684481e-03 5.279861303768292879e-01
-1.289944174234944948e-03 3.012017648263013922e-02 4.505968056427996360e-01
3.048023206616110384e-02 4.212873153777731139e-02 4.679079872749287161e-01
4.859787847000448038e-03 4.200881604190409568e-02 4.566665810226048783e-01
-4.563737888205094545e-03 5.951998030688344932e-02 5.386678192250865527e-01
2.526650978079222898e-02 1.911389860558872222e-02 4.533668444305160028e-01
8.340509850889745239e-03 7.020881275556867251e-02 4.685063542251263757e-01
6.377818740800109132e-03 7.629283700265863943e-02 4.756544895876450574e-01
2.448903996316455223e-02 6.891077993777318389e-02 4.931489309368021212e-01
1.665212837402231180e-02 7.685959724281722638e-02 4.852779753474742441e-01
-1.617384707419947196e-03 3.968454360889579063e-02 4.544281727611438337e-01
3.348776046693462821e-02 4.664280560485192101e-02 4.739858911936899455e-01
7.201619243109313312e-03 2.012884752319345216e-05 4.403508697956813323e-01
2.600033951173259805e-02 9.402062799949081895e-03 5.284578835819261355e-01
-1.581400910562955064e-02 6.081543979517787385e-02 4.645624171948638526e-01
4.817647319114580669e-03 6.029648165964159034e-02 5.307871901674716675e-01
2.201632765403879408e-02 6.783874782014108484e-02 5.023903965032929797e-01
-4.437499020976676256e-02 3.267748027549317175e-02 4.499109649024268798e-01
1.482040065853072568e-02 7.370362027661683801e-02 4.743811236918212826e-01
-1.889801171784687150e-02 6.035546276639885271e-02 4.677375979233361347e-01
4.505261924238549570e-02 2.380964165885431430e-02 4.921759127075604479e-01
-2.598110935105406305e-02 2.604843462105115720e-02 4.459351810900765156e-01
3.554152761406656480e-02 5.175105194531881558e-02 4.907284617781103031e-01
2.699425736316558855e-02 5.756696550192613032e-02 5.111544244193266806e-01
4.165605229543290627e-02 3.690264259855636358e-02 4.864519459889198871e-01
4.371906849394437133e-02 2.610863753406492127e-02 4.962197571795528006e-01
4.821444736308105883e-03 7.098849353302813525e-02 4.696669078968744304e-01
-1.077971230197747980e-02 1.886234127190075313e-02 4.443231086658145368e-01
2.903319675630239641e-02 5.844631001204339538e-02 5.054863823297052194e-01
2.807270433135649820e-02 2.160853999166894093e-02 4.560328014704632671e-01
3.922245799829839931e-03 5.235836003196236293e-02 4.597081960974123693e-01
3.906595040016505593e-02 3.164636066761873645e-02 4.703711171034684058e-01
-8.644488460873896857e-03 2.391326272239540501e-02 4.466680003192898818e-01
4.262200003162624345e-02 3.138872580092251507e-02 4.782368734837146862e-01
1.410514053949954091e-02 4.571613774608861147e-02 5.295359288658709751e-01
4.267171610112503732e-02 3.277933226552588036e-02 4.927439098376902860e-01
3.088473501774327210e-02 4.533009735584345862e-02 5.132209785678487624e-01
2.185507323523586121e-02 5.672035963235938505e-02 4.690166073342214026e-01
5.711601292162605051e-03 4.684646481457315631e-02 5.369226270776570331e-01
2.010225935632708322e-02 1.713118755474898197e-02 4.500500413355475460e-01
5.015284416793921486e-03 4.938536948752310536e-03 4.416272041064534526e-01
6.865925880419902066e-03 5.972468288529610148e-02 4.628785578915803889e-01
-4.979002897139187325e-03 4.229317079690701753e-03 4.397612979450411519e-01
2.051643432523597016e-02 7.093529086860800303e-02 4.996256568572098877e-01
-6.588000075609288901e-03 5.863699051966789200e-02 4.595529942137766000e-01
5.222489493916274497e-03 2.452884045639631277e-02 4.496317237445657256e-01
1.946343660061712610e-02 4.320003444946707988e-02 4.618673093992730072e-01
3.712845892147462884e-02 4.595011872828981547e-02 4.799637890020455044e-01
2.067698694890946279e-02 2.113060469836222643e-02 4.520216500508691948e-01
4.030873048708701056e-02 3.728974244427774032e-02 4.776799106725661548e-01
-1.814268655355717047e-02 6.054485373200759607e-02 4.674049455061636271e-01
-2.308088803177079512e-02 9.971402993601790124e-03 4.397914449005332349e-01
2.494630205667930020e-02 4.548025354643254331e-02 4.658778949974684558e-01
-3.596136966784260758e-02 3.215007809890845988e-03 4.395960115074281083e-01
3.313395638954658162e-02 2.551336459580745217e-02 4.611587438293174857e-01
-3.097139693487580350e-04 5.823989759989880305e-02 4.602111227663781001e-01
-3.777294687298949488e-02 3.887413875425134446e-02 4.521702871313705296e-01
4.233444319300341124e-02 2.424487010629834335e-02 5.019378762306488939e-01
-4.173114705874932800e-02 -3.070940362305694862e-04 4.410969325433785615e-01
4.902952212373310262e-03 6.284143604109326819e-02 5.186686319379087973e-01
-3.041366806584939238e-03 5.653424952163771389e-02 5.393557702438449564e-01
8.483578359996404514e-03 2.514584767155742320e-02 4.505704750782429380e-01
2.638332718363809587e-03 6.113354285548373152e-02 5.209074177930844707e-01
2.016275020972554607e-02 7.431089110170475964e-02 4.850646042205484232e-01
2.011061689498011215e-02 7.178088864338739994e-02 4.780492921189809508e-01
3.068754690988655109e-03 5.916396173296969291e-02 5.320680942775440903e-01
2.123498824172306843e-02 3.174999392429531109e-02 5.298319358079032204e-01
1.455168345440580394e-02 3.671545561573973798e-02 5.331411989416467989e-01
3.257104240979822717e-03 6.200818093583395502e-02 5.167374690598571796e-01
4.498751131009550049e-03 5.777573631494375972e-02 5.311692098379826588e-01
2.990299548450591274e-02 5.466303763422886847e-02 5.099023737155494729e-01
-1.321408702497257719e-02 2.716444457660679296e-02 4.472055752032441100e-01
2.467015843599962982e-02 4.245269217835105635e-02 5.209808511759173033e-01
2.387046434710279191e-02 5.843705823927638349e-02 4.715181145379377381e-01
3.380851547200068932e-04 3.192384425633564005e-02 4.516586902839944129e-01
3.298868456943427480e-02 5.422794495004608362e-02 4.804735601114885624e-01
3.950987773343576925e-02 4.333004110158115985e-02 4.865412920640867500e-01
2.990774630339286880e-02 5.991170271202174435e-02 4.998176441896591271e-01
1.016356842706769327e-02 6.531671203364179668e-02 5.160415504900024430e-01
2.902593675721949068e-02 3.393796817463064913e-02 4.626838262649551892e-01
1.358805662367562617e-02 6.436397027198875742e-02 4.674741840560336370e-01
-3.389628407681453959e-02 4.199028965465260305e-04 4.390247420349528973e-01
-2.146857014061486629e-02 5.315267719832415111e-02 4.579822315659034526e-01
1.405884867371674785e-02 7.481758127324304730e-02 4.986842966547870848e-01
4.552097421263141125e-02 2.187377052847484099e-02 4.790442383107468838e-01
-5.334357081086160864e-03 5.990400626247444765e-02 4.600704858178603640e-01
-2.235605278880815894e-02 5.296822410471135195e-02 4.580212588669005380e-01
3.297966747171946628e-02 3.222776082717396240e-02 5.168399127964314888e-01
3.369636752573355876e-02 2.808995749261890620e-02 5.194051573874894911e-01
-4.380125201599449278e-03 2.253876503846585083e-02 4.469159268678621899e-01
3.783168019155670747e-02 3.878572036391407518e-02 4.742011212574512857e-01
5.871865257723976259e-03 1.734917472352801721e-02 4.468509995369848165e-01
-1.058663969442458046e-02 2.033674871428276659e-02 4.449354194708742827e-01
-6.691386232207432658e-03 3.634388558414132497e-02 4.523856908737679539e-01
2.989199068610806295e-02 4.783547737025334312e-02 4.710441115063298545e-01
9.421134511952903093e-03 6.311909249040033310e-02 5.246220898082439854e-01
-3.553871692925111153e-02 3.140101207691323171e-02 4.482063494499753942e-01
-4.176272821055394824e-02 1.064398659737718052e-03 4.415572521273269935e-01
-1.965917636042588401e-02 1.673099332891103339e-02 4.422846805321307695e-01
-3.312120249285820713e-03 1.081646209811171905e-02 4.424689240332090323e-01
-2.437265875971344337e-02 1.095675445950648752e-05 4.374885143985329239e-01
3.851808674336601457e-02 4.583274174813006807e-02 4.875846827837118092e-01
4.164450373963483193e-02 3.373591232910846255e-02 4.970269339606375736e-01
4.466613544690024341e-03 8.213961787164394956e-03 4.428470452528632806e-01
-3.324489579156946623e-02 1.680258541589512919e-02 4.433725393618549449e-01
2.823609372643156451e-02 6.094954708272842109e-02 4.770587750080580447e-01
3.614321394150095401e-02 4.069514767122916349e-02 4.728593741904238423e-01
4.132130898871601288e-02 3.880848910962883536e-02 4.905711718641128094e-01
-2.177492946436532587e-02 4.286802224426385088e-02 4.532685982970104388e-01
-2.433018589957408259e-02 -1.662390687382064164e-04 4.374553117659597534e-01
-1.096359805573775617e-02 4.724778486049815984e-02 4.557467228282902072e-01
4.269722010990226191e-02 3.249727859121494256e-02 4.818552821162757072e-01
3.812065412246826157e-02 2.030226543608612544e-02 5.159644333383898163e-01
-2.692802576960746583e-02 1.203456331181861419e-02 4.409864703977381395e-01
3.812085428117405195e-02 4.076806207928990872e-02 4.766610062587910979e-01
2.544193662269994896e-02 5.009071642829067417e-02 5.174240718867344491e-01
-2.027170765234322797e-02 2.580623839659493962e-02 4.458754655986967297e-01
3.946829134305028519e-02 4.238665125154656571e-02 4.975937158704494823e-01
-2.328551950838333301e-02 4.101040034797643480e-02 4.523477591807560372e-01
3.671642839238658390e-02 4.898518764127525460e-02 4.941143006979446528e-01
-1.792094509426894050e-02 2.964825394038610173e-02 4.477775499097274570e-01
-5.703060616445859883e-03 5.789653382066647230e-02 5.391065230121693252e-01
-8.466442114197827648e-03 4.023323365516478373e-02 4.536392560123580497e-01
1.691965210787383170e-02 6.429896818366573341e-02 4.692005367794458426e-01
8.135827750082607127e-03 2.465333216783741066e-02 4.502822750636194526e-01
4.333396926061196947e-02 2.842364073666470842e-02 4.944791683529991544e-01
-1.670505543189925585e-02 1.610448167060773636e-03 4.376528304228372024e-01
2.731019022938989058e-02 5.782954103596314732e-02 5.105366472750585416e-01
9.823305145064886376e-03 7.640443394477880457e-02 4.754250566414662815e-01
-1.694525999604834174e-02 4.066549669061542832e-02 4.528117085764296057e-01
-3.889725580673967370e-02 2.305413237034570004e-02 4.461006300479645748e-01
3.226775777013685814e-02 5.613001776973457202e-02 4.984276546463851099e-01
3.786142984134778511e-02 2.513823559033990379e-02 4.649704808960261060e-01
3.271597618613656527e-02 3.836896926354586845e-02 4.675702571371061489e-01
4.080617341385455593e-02 3.312978140575686264e-02 4.999218136533487011e-01
-1.379364417448461153e-02 3.918715858348569697e-02 4.526143020589761257e-01
1.346360277925948146e-02 7.699441826744142514e-02 4.864229276784886036e-01
2.923413814801054458e-02 3.690570011727638614e-03 5.320676324621538278e-01
-6.445262979962408309e-03 4.289110175595858138e-02 4.547993220849488871e-01
2.104376323478897304e-02 7.148373042720500281e-02 4.791591387175489491e-01
3.616373687245170304e-02 2.614741773358216642e-02 5.147931467526123406e-01
1.563893802252384196e-02 6.080459216499552871e-02 5.219606027246923574e-01
-1.855317903840414395e-02 6.047684771722747904e-02 4.678805017526468379e-01
4.095849923023324457e-02 3.166810781305384043e-02 4.998886116409051450e-01
-5.895810831065331596e-03 2.296404394911655614e-02 4.467843794706072846e-01
-2.407258758178339522e-02 -1.449083322774632858e-03 4.372226991196160872e-01
3.644020142911032906e-02 3.716576277704101289e-02 4.702290114993007974e-01
2.281853166677533934e-02 1.244367632957773043e-02 4.493740609526008511e-01
5.241043092571779152e-03 1.461903117018453942e-02 4.456193593248548024e-01
5.686259887225600211e-03 7.653329516079443451e-02 4.782932993908456387e-01
-1.569490088147744433e-02 2.512660282647850851e-02 4.460441097483673345e-01
2.664207014947952284e-02 5.658962242684547478e-02 5.124137783410014357e-01
2.424819180359308324e-02 5.893129475352493901e-02 5.134441404532030795e-01
4.133099219982710321e-02 3.519381426862347451e-02 4.972673862704407033e-01
1.569812802565651380e-02 3.706578099261956249e-02 5.326745711542226758e-01
1.887321789149832424e-02 7.524455137867464005e-02 4.842395980111098286e-01
-3.399373368306334020e-02 4.412257160992771876e-02 4.552006895996628666e-01
2.684220212136651657e-02 5.294415790177538217e-02 4.712234663982783900e-01
2.090689935857276832e-02 1.444758108038683188e-02 4.494644865061063754e-01
2.728065969102757421e-02 4.239975169861830845e-02 5.180629309294376705e-01
3.510042716249003880e-02 4.163527023792022025e-02 4.721695871952747980e-01
1.911426909732736115e-02 7.481248268418247416e-02 4.830111555697522152e-01
2.722151051935406060e-02 6.198570559099579602e-02 5.044335841851270708e-01
2.682497848741785887e-02 1.024821522708383066e-03 5.335217284602232768e-01
4.281297027456091100e-03 6.218852592931321116e-02 5.190489380270814079e-01
3.444672803225793528e-02 4.757075803159684785e-02 4.760366131497207887e-01
4.299851236791629727e-02 2.973674902296877948e-02 4.777810913268429327e-01
-1.485434554213659747e-02 4.757379861346945626e-02 4.556286378641172252e-01
6.630661724677193621e-03 6.947573337761896173e-02 5.022808614158477125e-01
-2.219430146210527033e-02 5.522567259409822543e-02 4.593079282730674895e-01
-4.152320196081800419e-02 2.450441118299553911e-02 4.470100662638077926e-01
3.882733086804434491e-02 4.363673290878371941e-02 4.808822781033020854e-01
