1.443618769762211942e-02 3.985362868076453013e-02 4.585640683078355817e-01
3.150333097456728404e-02 5.847932660396540361e-02 4.872696273266130529e-01
-2.124428215238514592e-02 -1.627672818534513753e-03 4.369583438224618477e-01
-5.669075243056601737e-03 6.119531053857158592e-02 5.311385799968257881e-01
3.046413980952564216e-02 4.364904042482736085e-02 5.146688947671964609e-01
6.256042804204687072e-03 6.398195546490040297e-02 4.647579286499540219e-01
-3.199571779248883835e-02 2.168191140549627360e-03 4.388703572204548653e-01
-2.119084529582004536e-02 6.363895130755877101e-03 4.386270419165597123e-01
7.691791612401078539e-03 5.384431007888930421e-02 5.304523833420018430e-01
2.142071320274324155e-03 5.878501806034307914e-02 4.612370732305618448e-01
1.640409942630368170e-02 5.415110906962902759e-02 5.231986458613405722e-01
2.946208469181434836e-02 5.853035265984404129e-02 4.776807014361192372e-01
2.000447656519340617e-02 7.447305418511229735e-02 4.881429866137667606e-01
-2.251561130682554202e-02 1.682484964622498261e-02 4.422561709588110901e-01
-3.211030926601275010e-02 3.075608007919670983e-02 4.477322608943948845e-01
3.092687198061838671e-02 5.880276581777448691e-02 4.950511588878867553e-01
1.763579896655720694e-02 4.893766595044201501e-02 5.238492765829119158e-01
-1.622414831552252811e-03 1.945111874251363032e-02 4.462485363797764060e-01
1.492054173331179220e-02 4.423836547192044888e-02 5.310161597439700953e-01
1.945485136780178426e-02 5.526586124337750511e-02 4.672601858284666232e-01
9.956985904165870441e-03 3.303649685312037843e-02 4.543552032773776617e-01
3.072931454264325735e-02 4.974828105811655160e-02 5.113235681959941159e-01
-2.477246220273959104e-02 1.392859337188884911e-02 4.412000915389157063e-01
3.480750933156566418e-02 3.824934724556559168e-02 4.695900310321056148e-01
1.103932754141494221e-02 3.633596372145880132e-02 4.560276148859018219e-01
3.060122985078721561e-02 5.991262714076359824e-02 4.848186757422844329e-01
-7.270066961484265844e-03 5.318148330987488692e-04 4.382530638822157987e-01
9.855303454706032529e-03 4.262777091039123001e-02 4.583204265124870558e-01
4.406867618005551324e-02 2.798751707144858311e-02 4.849955028005458191e-01
1.161049701876244386e-02 4.514312619307971758e-02 5.333653172124953601e-01
-2.410038181457858225e-02 9.189276842467175577e-03 4.394693723356583037e-01
2.430931163545266629e-02 5.229042802015273356e-02 5.179598534663971687e-01
1.531111230114197072e-02 2.967027574343947260e-02 4.543503872552788203e-01
2.915974728793670201e-02 6.024907466727510291e-02 4.786223738744468381e-01
2.866582031778435596e-02 6.289760117343727586e-02 4.832992052581461251e-01
-2.868660572823570135e-02 5.965092431655124802e-03 4.391522903674477951e-01
1.277981460955913279e-02 4.245382813795628429e-02 4.591791562712513319e-01
1.590109244880201500e-02 4.162273959136306156e-02 5.324582076807133912e-01
-1.467575954796808586e-02 2.657895268195834687e-02 4.467037824597686058e-01
-5.070429255392008318e-03 5.773827818840818193e-02 5.239858446495841982e-01
2.919726899448511770e-02 4.968990110881075367e-02 5.132731329285623589e-01
3.189434040538102061e-02 5.543184468718954233e-02 5.010692772144154095e-01
-3.918997581279790032e-02 2.482628055191454103e-02 4.465301947165132845e-01
1.562062887117805950e-02 6.809757166691426944e-02 5.096465168544036528e-01
1.531414043185120623e-02 4.996636400670972228e-02 5.254757747936887879e-01
-7.713071808041125493e-03 5.977018487164246358e-02 5.386670368372004081e-01
3.571326984993194315e-02 3.854125189253172767e-02 4.707226610599108407e-01
-1.181019494099628392e-02 2.699757264363319281e-02 4.473864994750912927e-01
4.323841088514470549e-02 2.525074314402830228e-02 4.748445225082384979e-01
2.470423611262873714e-02 5.565825662581154465e-02 4.714090451127469494e-01
2.027163601674573934e-02 1.100477704114148636e-02 4.479614272003754616e-01
-3.572626562951703583e-02 3.679212017144180974e-02 4.503366083791305319e-01
3.439229390839952660e-02 5.236729958466704304e-02 4.956079372810641148e-01
1.501184691697017397e-02 5.101922403008794793e-02 4.633896016315406374e-01
-8.495120939083666833e-03 2.898203698483969165e-02 4.488529601957997883e-01
2.777495333558709090e-02 3.092069706848244587e-02 4.605997630686162747e-01
3.146656554384052312e-02 4.433854202399049177e-02 4.704812360482726330e-01
1.098108401231382564e-02 7.742964088886927776e-02 4.864841118118572449e-01
4.423358500070852239e-02 2.605717005896326932e-02 4.800370067730418966e-01
1.900817635206710973e-05 6.221992809504854616e-02 4.624379760260983185e-01
2.754335967029511792e-02 6.509335345751719737e-02 4.876563061514334607e-01
1.021602002033676973e-02 2.516811256865240237e-02 4.510646561012934264e-01
2.591812781815579052e-04 3.656856515318041012e-02 4.536161397149134356e-01
9.347344944029107108e-03 2.818938768695387898e-02 4.521503732353934213e-01
2.681474948262006081e-02 6.246250075975138399e-02 5.036370456341818791e-01
-7.065717625532671672e-03 6.053759576355946526e-02 5.332689910485726159e-01
-7.828720546182634660e-03 5.691798379905372435e-02 5.403426704601781427e-01
2.872992466228808939e-02 6.174269614726946021e-02 4.978504259350597372e-01
-6.146241585780519781e-04 6.209171814082986574e-02 5.264980458624936022e-01
-1.327293834899542259e-02 4.092103696565517479e-02 4.533467851897419743e-01
1.774913570704203525e-02 7.498963337527901618e-02 4.804402002013586359e-01
3.510792921623520114e-03 7.125155258635208766e-02 4.708462481382293396e-01
-3.900987416153255116e-02 1.639911652082050222e-03 4.407042347060433629e-01
3.462726643204947635e-02 2.352366143870042794e-02 5.195282500964707451e-01
2.369830589000056914e-02 6.139286145102736125e-02 5.117246005993083546e-01
3.082255445628610813e-02 3.303923507391123837e-02 4.637419402178173944e-01
2.592240068411672330e-02 3.350173333641441598e-02 4.607727030237853683e-01
-2.699663127856907503e-03 2.267093012665037828e-03 4.393738117228733753e-01
1.991564405521625836e-02 3.960201806665434449e-02 4.606225456994568201e-01
9.842804099319408737e-03 6.363526491959589637e-02 5.253750978644387004e-01
2.247248184280385697e-02 3.347011182688511277e-02 4.587910649297026744e-01
4.182313270347057244e-03 4.761215484193902919e-02 4.585095964673012170e-01
-2.086269683923614240e-02 5.985138838271182593e-02 4.673237105771957389e-01
-1.840789173815299273e-02 5.829518755914503414e-02 4.609270950200365369e-01
1.985649897149430881e-02 3.177923821001098215e-02 5.305126514062545873e-01
-2.016061967331141819e-04 6.086024091339564679e-02 5.239506345162628920e-01
-5.517795653360344811e-03 1.717138681852640320e-02 4.445739526441362388e-01
2.527645970386090818e-02 4.502614826293506456e-02 4.662462906176021438e-01
-8.630566493794978103e-03 4.921054732801596887e-02 4.566862259433648874e-01
-2.697328710797837481e-02 1.030219045337909742e-02 4.402869220187123345e-01
8.710932662380144881e-03 4.835939843794524046e-02 5.322790129158954109e-01
2.155417711399463046e-02 4.580728173000215425e-02 4.644539020140113217e-01
-6.091834872480366564e-03 3.344374928844683764e-02 4.511980385135791471e-01
2.204646718883319575e-02 6.601142447880312125e-02 4.746523780083728994e-01
1.155117774507508598e-02 5.945474252283679956e-02 5.257482624197171717e-01
2.781648508188531467e-03 5.358076487257484866e-02 5.345286993757314420e-01
2.382296497273627203e-02 6.008561212064216644e-02 5.129160361507600907e-01
2.064088690028257830e-02 5.792269334909257855e-02 5.186225772571135817e-01
-3.376023438985087388e-02 4.189295257476545464e-02 4.531885451897886830e-01
-3.598805475661324971e-02 3.322930067114857923e-03 4.395652197474104184e-01
1.485065813119113530e-03 6.302635476834222983e-02 5.318527459100689248e-01
-4.359829089506675470e-03 2.231457480944744332e-02 4.468492001224472210e-01
8.808679836744104374e-03 4.921943858375562447e-02 4.603936750954503720e-01
3.601030711583132204e-02 4.577674647920008250e-02 5.047852811740465295e-01
-1.797642866322596636e-02 6.036263522948116106e-02 4.642657820279500469e-01
-1.329503185584932946e-03 3.727150961419383596e-02 4.535820095929092299e-01
8.210380489413211108e-03 5.385634447304198796e-02 4.617912249385947576e-01
1.228827962316316781e-02 4.294589008262641311e-02 4.592406908568391066e-01
6.940932527400553269e-03 6.175548160610341147e-02 4.639409782149750971e-01
2.442161513738964895e-02 5.641898243409461389e-02 4.715281663234460741e-01
7.055020236827802549e-03 1.248771669710111581e-02 4.451626790349801355e-01
1.928481195816848792e-02 7.491557293703918208e-02 4.864617051300985096e-01
3.573632831470388571e-02 5.101421423623692802e-02 4.870983072254825852e-01
-1.631671236854335613e-02 1.561798460991945317e-02 4.421440357716802105e-01
2.320526978195086229e-02 6.524881015827684039e-02 4.754007193572409862e-01
2.824878054985208078e-03 5.830532544942585577e-02 4.613228203104102199e-01
1.013862935380495205e-03 5.710015885099962302e-02 5.342052406461056391e-01
2.419360728336869548e-02 6.982093548679621509e-02 4.883592544087355103e-01
4.387952184576974883e-03 3.039642674808759170e-03 4.408535001370400552e-01
-8.265042538268147290e-03 4.133211356969088146e-02 4.540892929016838164e-01
1.424906715913547631e-02 6.475217943974249935e-02 4.684086628284787612e-01
2.425719065079103010e-02 1.795409769080899900e-02 4.524216826645940381e-01
2.496096775017229638e-02 6.360947482230230876e-02 4.763539507977925802e-01
-4.350668680279790035e-02 3.561127428339064954e-02 4.509325156267428580e-01
-2.652490538995997543e-02 4.479634645936942522e-02 4.542090059426988624e-01
4.174425987765553216e-03 6.362167443969750369e-02 5.232737741076558535e-01
9.983810974100053304e-03 1.922215670035480606e-02 4.485289102512116655e-01
8.420848078739669174e-03 4.809393581110358445e-02 5.333158545873684098e-01
2.277667325257758460e-02 6.880343037621100555e-02 4.984686087156184331e-01
-2.355045260176141103e-05 2.325514170837570185e-02 4.481041213197665130e-01
-7.272100412507334806e-03 3.990788956986215941e-02 4.536917120214848387e-01
3.989041567112111553e-02 3.092440380128247054e-02 4.719654686659086051e-01
2.748119303987892406e-02 6.496317701964851588e-02 4.849687595938023676e-01
-1.960262376816251581e-02 5.762588403200479686e-02 4.605312486250554560e-01
2.665092507623659582e-02 6.357468897317836154e-02 5.013518995461467842e-01
2.317531252348686149e-02 6.980932822491228706e-02 4.940849483698584454e-01
-6.347571440359729353e-04 1.117979831681313423e-02 4.431149174009307301e-01
-3.087377433364333484e-02 1.247938306772422047e-02 4.417752336092091725e-01
2.998867616664441238e-02 6.114922846722747191e-02 4.899643481044047011e-01
3.441667634608668730e-02 3.149095429457896694e-02 4.656329442986898992e-01
3.844845031993733130e-03 4.871980245645776003e-02 5.368120088054693095e-01
1.373215186927208981e-02 4.968384091907900729e-02 4.623733978864539851e-01
1.203708078497214146e-02 6.524056855614521200e-02 5.190283989503948758e-01
-2.359278324618219527e-02 5.783123775874156325e-02 4.623159586690098188e-01
6.708570032770483013e-03 4.493746566077174570e-02 5.367409142608385864e-01
3.432042997035914672e-02 4.347139717146002169e-02 4.731607470533102378e-01
2.846275065089391015e-02 5.589561711486015771e-02 5.107392011088514039e-01
3.809504113970051120e-02 2.592567722141002687e-02 4.659362890655654454e-01
5.640826655144886952e-03 5.563810335481090413e-02 5.313528992966409792e-01
-5.643048997502954703e-03 6.370072413872955933e-03 4.404375316974274424e-01
-7.392771173942744994e-03 3.315487605033557578e-02 4.508719152028565214e-01
2.937096670420115754e-02 6.175827814459210890e-02 4.934747576295541727e-01
-3.108191204999545543e-02 4.321637376854065016e-02 4.535936425104419856e-01
-3.959676066488082569e-02 4.311426079438129399e-04 4.409808870948842552e-01
-3.914505753027318867e-03 5.534834799480321810e-02 5.415254863813423469e-01
2.144879605818071633e-02 3.681390710644515118e-02 4.599643855532763448e-01
2.385122505398195800e-02 3.626287402872448162e-02 4.609356937102317975e-01
1.430809854605383236e-02 4.506519466626214554e-02 4.607400039646281087e-01
2.071277095977147945e-02 7.036148156629530581e-02 4.777859056508244606e-01
2.361255428962989733e-02 4.653355845149378250e-02 4.658862079472632645e-01
2.034305915521918834e-02 2.865007453770535700e-02 4.555373206027000244e-01
-2.131733199389049954e-02 2.314756756254288811e-02 4.446864677788933684e-01
-1.480034619095506321e-02 5.578200613054778989e-03 4.387959524318837401e-01
2.036171188480621896e-02 5.112339354745932402e-02 5.211151902987255502e-01
3.650616675177505242e-03 2.947437604037504016e-02 4.514100915455249718e-01
1.184463704442932294e-02 5.686635337031244186e-02 4.641812739575680857e-01
-3.574207881410600834e-02 1.882975826759719293e-02 4.442365969856985064e-01
1.647821594759679362e-02 7.351860399524182133e-02 5.015709963672315697e-01
1.729029232052450588e-03 2.089273006436023067e-02 4.475076742917670769e-01
1.903296901637567887e-02 4.199208857737746214e-02 5.290989134085639645e-01
-2.851269647659787371e-03 1.268004804186317891e-02 4.432969447640149885e-01
-2.420100047498265766e-02 2.525726365355752262e-02 4.455350745251273059e-01
-2.899999157596961849e-02 3.962191916083368515e-02 4.515560742666625549e-01
2.247726383295597929e-02 3.278100625753889441e-02 4.584855548694437011e-01
3.070924278324508455e-02 4.774974549250487338e-02 4.723833180552391986e-01
3.768806933258574826e-02 4.689248829519633566e-02 4.860528523155988601e-01
3.824530983287047908e-02 4.415077914245316149e-02 4.810176030919018353e-01
9.950912737712966361e-03 7.325835013641726623e-02 4.722030847357743810e-01
-1.569209855924747973e-02 3.372627615862303085e-02 4.499102341182322773e-01
2.714997290365197408e-02 5.890425310520292640e-02 4.754439629922115884e-01
1.256905959231000361e-02 1.192131098970063662e-02 4.460900398774720332e-01
-2.344869825874979635e-02 4.604991786973416934e-02 4.547818869853712531e-01
-3.846717697599340291e-02 -7.732679636200466122e-04 4.403903111208570254e-01
-3.949360837297639926e-02 -5.712191832891683283e-04 4.406309195048975225e-01
2.500293156780145770e-02 3.561740919812249329e-02 5.267099359825836435e-01
1.348603734972457502e-02 7.568292254854039336e-02 4.972848740789698740e-01
5.137257937826243855e-03 7.619384006007155763e-02 4.776417555563768347e-01
1.659941959058636521e-02 3.838819570798378961e-02 4.586311669828342374e-01
3.968169966590208431e-02 4.042271082618879158e-02 4.985033325583058672e-01
3.164510754678164645e-02 5.181302630673402521e-02 5.088031822076884980e-01
2.202189065313553754e-02 7.249863995134130101e-02 4.867307866082925538e-01
3.296746182664040542e-02 1.716927293318593062e-02 5.239294460138828047e-01
6.579332055939413060e-03 7.157456484136720531e-02 4.701036161163572591e-01
2.715229923984110311e-02 4.366126433433004453e-03 5.323678815974098866e-01
2.802143682582440565e-02 2.741655220254701764e-02 5.255896691318909797e-01
2.030276407954792126e-02 7.324741204473948775e-02 4.945824105876667764e-01
1.670768635806002024e-04 5.172248513682589643e-02 4.585341425257069559e-01
3.508453443836619112e-02 3.377145792129500335e-02 5.116542472671071762e-01
-4.893285964439763117e-03 3.797388761886726777e-02 4.532666782282179230e-01
1.171586015616786491e-02 5.119663170200364904e-02 4.622506356830567431e-01
3.269657856472571456e-02 2.875601752465080721e-02 5.204182875727376700e-01
1.126838070052421474e-02 7.541363768426655179e-02 4.982203415210642028e-01
-6.809525784174635249e-03 1.660598414804775186e-02 4.441396457687163402e-01
1.112484024287079855e-02 5.294063704842108531e-02 4.626282326626259267e-01
-3.007217842109623750e-03 6.235264489651385494e-02 5.346936607286242316e-01
1.625207280806269944e-02 2.432621475119805393e-02 4.522758928689846192e-01
3.496716080606318555e-02 4.864747660342994690e-02 4.793674881543968924e-01
1.610885182568125296e-02 7.613680285199876663e-02 4.933446080160218683e-01
1.096761723825943891e-02 2.274410655512842938e-02 4.502258107115011398e-01
1.451797819553717582e-02 7.717851877327173982e-02 4.834238391385451417e-01
-1.497924607565640116e-02 6.110599000693596461e-02 4.643668057397259408e-01
3.511034574875192965e-02 2.023065265482319047e-02 4.602627004424836854e-01
7.367169175968166922e-03 7.947925627140507709e-02 4.782007016358088558e-01
3.624546419329584962e-02 2.771627668350930968e-02 5.126767936115464996e-01
2.640888503258354697e-02 5.369293962698914319e-02 4.718036021635464428e-01
9.156674650621201075e-03 1.358227510782358469e-02 4.460414987531282627e-01
1.385226889110058313e-02 7.131514686867110320e-02 5.062656833718776062e-01
1.494691417169241587e-02 4.502981037146333576e-02 4.609451312655790112e-01
2.409037949956499211e-02 5.796154052377236465e-02 5.144064694799853621e-01
1.841776451027505451e-02 5.163726514599301098e-02 5.224621185018553104e-01
3.526855211580243871e-02 2.379583248937948425e-02 4.621737448500318757e-01
2.520109536065946038e-02 6.843001939062560990e-02 4.903946668856307145e-01
-1.006007110558055154e-02 -4.426908410955151217e-03 4.368915662343348383e-01
-1.069169586181189548e-02 5.649700716906420200e-02 4.588506124480790649e-01
1.842023360525074996e-02 6.068780280509181169e-02 5.189400529331498202e-01
2.150935611908034312e-02 3.432493713131461871e-02 4.587543828626567399e-01
-4.488486269782375991e-03 4.023965140512703736e-02 4.541462557730730487e-01
4.954563798866964269e-03 6.138547285918714846e-02 4.631076173041352440e-01
7.500147130554284808e-03 7.746165825393026838e-02 4.818732788757160157e-01
-2.061997818979741451e-02 6.001653657606233205e-02 4.680664972849327699e-01
-1.034075550739690583e-02 5.715351242882932975e-02 4.591013074457592769e-01
3.775557872727119436e-03 5.413634784587437881e-02 5.335009003228586844e-01
1.433911829901417419e-02 7.589036834167171841e-02 4.779645780045922998e-01
1.556130797427391146e-02 6.574035888881188394e-02 4.695789884005270864e-01
-6.933657180278723561e-03 2.038614873184320733e-02 4.455854094999892046e-01
4.023155838952102714e-02 4.098565117040661038e-02 4.899574106674383089e-01
-1.393702535112136681e-02 5.888396535263097642e-02 4.605043799589182973e-01
1.395097188984151249e-02 4.497025839764479116e-02 4.605830259900344226e-01
-2.334357390132136417e-02 5.569981202611345994e-03 4.383046862863376192e-01
1.815716060319935016e-02 1.851553395294198295e-02 4.501085997595313248e-01
7.400208184361302399e-03 1.883124817474743015e-02 4.478104192777217496e-01
2.368568438692730815e-02 5.257324497712535100e-02 4.689756639613966716e-01
1.202906457580781366e-02 7.048684851212490277e-02 5.086691855394940287e-01
1.091697401150460399e-02 2.836489990728250851e-02 4.525920496926514325e-01
-5.693476047587955544e-04 6.336373412758485035e-02 4.631719604251560707e-01
3.750335410675290776e-02 3.020735313282699869e-02 4.677301881055352939e-01
-1.212906664925417731e-02 1.404253021036661400e-02 4.422428404624148546e-01
3.930603085553764989e-03 5.095165069582274775e-02 4.594573467403932909e-01
-1.406194231244114849e-02 1.019390188147144619e-02 4.404109760078024904e-01
-5.688037296726191315e-03 5.046672017329783405e-02 4.572541870998260705e-01
3.639567930658818562e-02 4.938131289139836844e-02 4.855974885306643674e-01
9.914616632769050059e-03 5.035641176634817612e-02 5.300672874080494257e-01
1.613372457579007394e-02 3.606546042738173474e-02 5.325178900982046049e-01
1.368514665196461297e-02 5.957795093418964683e-02 4.658731193620204158e-01
2.370096134440202382e-02 4.087939631946431451e-02 4.632001939119977374e-01
2.810589620760436252e-02 2.184531902498091857e-03 5.331401248801903581e-01
1.323529901340680763e-02 7.562478186688258164e-02 4.974897660751741446e-01
2.042344529090801830e-02 7.038717904112092028e-02 4.773489230157796914e-01
-3.193955997506713745e-02 2.976435647132638640e-02 4.473682828035431269e-01
-3.644644706062915868e-03 -1.110616566610688524e-03 4.381015138345228932e-01
9.656960403257593140e-03 6.169080493330409559e-02 5.267264832650624395e-01
1.179180939694366402e-02 4.175809684069439059e-02 4.585566637439116300e-01
9.493912813588994970e-03 6.721976192911681414e-02 5.109166857882938562e-01
7.329114398490634008e-03 7.761255423372197260e-02 4.816049817393476262e-01
2.267902812649319824e-02 2.126628496604492796e-02 4.531483792817408984e-01
4.192319364555834038e-02 2.378693561729488745e-02 4.706348628400677248e-01
-3.747701320953621823e-02 2.771756132792129942e-02 4.470111523284346911e-01
1.816646006028903998e-02 3.983463582990628971e-02 4.598225116537952295e-01
4.213421653585395360e-02 3.407055697175784270e-02 4.840682344526824332e-01
-1.852906542773401222e-02 4.054101375989090095e-02 4.525680666649282147e-01
4.150034233938085931e-02 2.640142031143413379e-02 5.017922354112684946e-01
-1.717260747607347524e-02 1.092388379696350789e-02 4.401314983578685225e-01
-3.421444745644502961e-02 1.559647447385402539e-03 4.390830422332993588e-01
-4.391609600839629229e-05 5.347927526716677454e-02 5.377966746521485319e-01
-8.462432080257854816e-03 -1.224658798457651555e-03 4.375885230194744846e-01
4.207196641906701950e-02 3.387085638540866112e-02 4.821166637648220954e-01
-1.457608271596142445e-02 1.343626269558753986e-02 4.415919671953042469e-01
3.617851625178515607e-02 4.393226975345090185e-02 5.058491212952372917e-01
7.963181338665475603e-03 -2.688352951519309281e-05 4.405157717567035891e-01
3.038552555991316101e-02 5.951496755570610808e-02 4.817351666965293822e-01
9.010058874883087460e-03 6.499099876680823618e-02 4.660564053040935906e-01
2.586071769628657535e-02 6.354601518350390388e-02 5.040022399597331448e-01
2.209328776064864094e-02 6.670895720955741237e-02 5.037106882906486893e-01
-1.804166274955462668e-02 3.628524453335108327e-03 4.380080839258528869e-01
7.137572049983743720e-03 7.885695491824251321e-03 4.432752030713421054e-01
-7.829920232510620762e-03 2.222332772030863324e-03 4.387234169065405420e-01
2.170821921327000317e-02 7.136649207705712816e-02 4.821809057224617501e-01
-3.679501988359509812e-02 4.064771968950921244e-02 4.532298259435811327e-01
1.460993639561678804e-02 7.536531422033494743e-02 4.984360459302109581e-01
-1.534758712631462650e-02 1.413729727497702341e-03 4.376350577864642211e-01
1.299429597605788501e-02 4.279194825934054709e-03 4.429882127848130402e-01
-3.097588079542538952e-02 3.902771775100773860e-02 4.512612198950154418e-01
1.875171026569311811e-02 5.095844149213924618e-02 5.224460802846268015e-01
-2.996447387580392085e-02 1.041783417171919524e-02 4.410321610842196094e-01
5.443080739203964846e-03 6.307856867697619885e-02 4.640960247954822315e-01
-2.662247740566201989e-02 1.733586133845141722e-02 4.424429728776912985e-01
4.526455186024028882e-02 2.382680960853995542e-02 4.899760085190151826e-01
-1.413117005520410190e-02 1.495575369936804309e-02 4.422474468582509588e-01
-8.281211449272355557e-03 6.175240535516696855e-02 4.618208384384461240e-01
1.893402596730091314e-02 7.508543024545419331e-02 4.857637757534764011e-01
1.777969492744370383e-02 7.527846225158268956e-02 4.816609963714569842e-01
4.127710431515639600e-02 2.601428680715629077e-02 4.708783890015613705e-01
3.001500029559508662e-02 2.471747261842621377e-02 5.240370886993107602e-01
-2.535041837634001687e-03 3.510790757029325082e-02 4.524304154550891632e-01
3.122316939846486034e-02 5.361375382582661553e-02 5.071884626112629357e-01
1.326436942412703365e-02 6.526957554131514183e-02 5.181238400209232653e-01
-4.970546955758606972e-03 4.035211667542861619e-02 4.541265508399409678e-01
3.029117828037047877e-02 5.486158774015137407e-02 4.764958286797461029e-01
1.600728181007562978e-02 7.657532178018375962e-03 4.451864574181650935e-01
3.971863449244359551e-02 4.244339813291417296e-02 4.925417340328960836e-01
2.044806004545048420e-02 6.779919595369142404e-02 5.051171478986207219e-01
2.015591346375435883e-02 6.607230407837925978e-02 5.089573264434560373e-01
-8.550061928642462700e-03 2.953611316372030393e-02 4.490916515775304485e-01
3.853013132712070771e-02 3.998808407001550047e-02 4.774524884422587379e-01
2.789027905979820851e-02 5.016489474411599259e-02 4.711296817670899695e-01
3.776684968053643787e-02 3.791631382940563455e-02 4.739439579269307257e-01
-1.199487361283504278e-02 3.183916981159159304e-02 4.495477694565392923e-01
-2.018685686813470603e-02 3.226591325680045613e-02 4.487252531151580404e-01
-6.506709373299801071e-03 5.475414406687296315e-02 5.409110954995483000e-01
2.953319376150121897e-02 8.367193211957840368e-03 5.287622818340369513e-01
3.963265420159518132e-02 4.019230178639842527e-02 4.799322195113203682e-01
-4.133521933941305265e-02 3.083176363142482029e-02 4.486083254760811490e-01
2.012272584912355375e-02 7.455337445769734395e-02 4.915075368593805893e-01
-1.962551248122350669e-02 2.187412651415483050e-02 4.443004038924785459e-01
-7.611557990928037240e-03 4.087603704205593214e-02 4.539910350934798777e-01
-3.684517223661167018e-02 1.906010619130048267e-02 4.444941712735238637e-01
4.116612196787982486e-02 3.697925600059991796e-02 4.831482215666095259e-01
2.205117506129578714e-02 1.712997176558178278e-02 4.509186128413488204e-01
1.860287060086083730e-02 6.299477378818957307e-02 5.162467339040945902e-01
2.467368175075740355e-02 6.287169607237780289e-02 4.753630206446286532e-01
1.397048301190917038e-02 4.293590912051012398e-02 4.597715078099212649e-01
2.241663029616789218e-02 7.015791412580250908e-02 4.957633532569435397e-01
-1.121011752511858698e-03 1.115173054954447449e-02 4.430116140725872120e-01
-1.107906295630605234e-02 3.118216470282941452e-02 4.493699352519486823e-01
1.078098832118434998e-02 3.546463520027900301e-02 4.555933022185496561e-01
2.614900979756979923e-02 5.349594283480586104e-02 4.714850349153296150e-01
1.412205547709247805e-02 6.651476829881020070e-02 5.136467250514064053e-01
4.282180768506232971e-02 2.391901337380805334e-02 4.726213783645312194e-01
8.679615833519305559e-03 7.687199899245922979e-03 4.435044912243086279e-01
2.881468410805153660e-02 4.857226656575577839e-02 5.144296135160887351e-01
3.466790280415468078e-02 3.643765044821493243e-02 4.684680279811062609e-01
1.421439244001452586e-02 5.733171642094491566e-02 4.653430877106169428e-01
4.460132349588382013e-03 6.840813948060912864e-02 5.041555090638113468e-01
4.955334430837938717e-04 6.316313621533102551e-02 5.290892272612831571e-01
7.964102535109157319e-03 1.255821953217205710e-02 4.453776870512689556e-01
-2.908816156616383930e-02 1.981594634227630547e-02 4.435544379852931485e-01
2.079211235942951888e-03 4.612875709499735660e-02 5.379025937611017216e-01
4.102034930708126081e-02 3.664842659195736985e-02 4.958518604908991878e-01
4.078694975485862989e-02 3.732113948804141601e-02 4.796791030468036676e-01
7.475872232870070175e-03 7.616818321415161352e-02 4.748567387027790021e-01
-4.178412779922395515e-02 2.736254217789092780e-02 4.477146684833803736e-01
-3.649963116483462972e-02 3.838297470026254959e-02 4.511520071132348875e-01
2.851470877179525243e-02 2.444406841483572068e-02 4.577602868675946235e-01
3.226500485307697008e-02 5.719115916574369490e-02 4.870951082258057063e-01
2.835308855496485730e-02 2.509123184106868201e-02 5.251125179214609640e-01
-1.927008085887725250e-02 9.522827914605409838e-03 4.395769598294598235e-01
-3.848171202905770888e-02 2.538733124902665256e-02 4.465548216704579576e-01
-2.327188655037323167e-02 2.121598705330230913e-02 4.439253379971053737e-01
2.218281341935919582e-02 2.673405565841365308e-02 4.555020658060220939e-01
3.376586128700284628e-02 4.775827011785485632e-02 4.758866352796149446e-01
2.837650223275840419e-02 3.805135543191673353e-02 4.647734307544371668e-01
4.068651353215838734e-02 3.661132788877039662e-02 4.978437490794114240e-01
3.461159482856208253e-02 4.520471188624668180e-02 4.750288258171937450e-01
3.879774501890968091e-02 3.136851225522118564e-02 4.701174403801709478e-01
2.933653272296361803e-02 3.420976195427560818e-02 4.633188199575755672e-01
-6.074365109712360697e-03 5.709949264977821903e-02 5.408542150731249221e-01
-1.905111249739820448e-02 6.005303004806555878e-02 4.644282592130153375e-01
4.160753837658852372e-02 3.621109111254861707e-02 4.864989246415091229e-01
3.852398898479800216e-02 3.324362673111544431e-02 4.711485035736400206e-01
2.278879977666643103e-02 6.688964841749450718e-02 5.019429575943838984e-01
1.086639055947008319e-02 7.577913741100379685e-02 4.935876295961630911e-01
3.784989581542805986e-02 2.332272327793852296e-02 5.125159855058853964e-01
3.256177491695529808e-02 5.610646144739692143e-02 4.832216404113220398e-01
1.215490460659171025e-02 1.633127733508224922e-03 4.419051541350257351e-01
1.983485415527498977e-02 7.100943388487575281e-02 4.772569380039091147e-01
8.423430971843613377e-03 6.731937804584740836e-02 5.100591481889779066e-01
1.630331482618084006e-03 2.495370134842725060e-02 4.491250020287745892e-01
2.133160023113260528e-02 4.687658545209241745e-02 5.214280744538958290e-01
3.692094033452723856e-02 4.799237257301942894e-02 4.844188047927571183e-01
-2.225036941874538546e-03 1.928339403674287147e-02 4.460589978641874009e-01
-2.325440121307495098e-02 4.994252776296308205e-02 4.567188936507354802e-01
4.033088907382705035e-02 3.576135453948394577e-02 4.770611931520358229e-01
3.269571048493794679e-02 3.408561580193498336e-02 5.144691922679116569e-01
1.250099680687143805e-02 3.304352486454673055e-02 4.549793384291374587e-01
1.812442818905740660e-02 5.945790112602842431e-02 5.201992090487178588e-01
4.366779846251013508e-02 2.391084847732049753e-02 4.748328053728708142e-01
-8.453092066169860114e-03 1.650241332084186746e-02 4.438214485576208457e-01
2.488565550667323420e-02 7.225582308514021113e-04 5.336665081029819957e-01
1.103028591243306565e-02 5.701538925234732325e-02 4.639136305600007337e-01
-1.030295924788217181e-02 2.200639923989502686e-02 4.456347505994935898e-01
-3.029560780042139800e-02 1.789944228238428761e-02 4.431571363256751050e-01
-2.504173427740481739e-02 5.768923526424760140e-02 4.630016741089951204e-01
3.832853347628213669e-02 2.288785081268462224e-02 5.116228292150725165e-01
3.948753327600230262e-02 4.244335316172233308e-02 4.859606214022317294e-01
2.657518478363573439e-02 6.255412021190276395e-02 5.041984701534401037e-01
1.283238741722408927e-02 7.629455342201225954e-02 4.895855858199288368e-01
-1.964812049718215464e-02 3.167425728831901877e-02 4.485189861356574936e-01
1.275552941875719021e-03 2.245634917477708561e-02 4.480446805359061258e-01
3.598723806300566097e-02 4.892089039441974152e-02 4.996050217372143276e-01
2.253051226581101810e-02 3.280064203455808347e-02 5.292799285044621493e-01
3.366947820376894364e-03 5.672208947621622949e-02 5.325802113716046060e-01
1.674233086314704660e-02 7.136928595083920357e-02 5.042562561184718017e-01
1.975988165426084686e-02 7.191895820299627762e-02 4.786344869789452838e-01
-2.481400935312887829e-02 2.870604605698186609e-02 4.468508510029271519e-01
2.867060762699897430e-02 4.789859755243061623e-02 4.704775837480979495e-01
4.213206220570009375e-02 3.323019587940222175e-02 4.800707296534274526e-01
4.143167639787225659e-02 2.618964666691784432e-02 4.713299768201460460e-01
3.037464738125090352e-02 6.048258206597998538e-02 4.905540164528140457e-01
-1.576044188825144726e-03 5.235269358905483145e-02 5.404526608951577549e-01
-5.626281669865192299e-03 5.711902191056394268e-02 4.592763844998222766e-01
8.991374547372588122e-03 1.521018823390178978e-02 4.466674748690419583e-01
1.399670336030650955e-02 6.785818801899590191e-02 5.115931473311228217e-01
3.764719486045081664e-02 3.264567321648758486e-02 5.065588137654922773e-01
3.897750433465307918e-02 3.599584694772293980e-02 5.031453560151809556e-01
7.258436856955136247e-03 2.405149156392322358e-04 4.404637710379264437e-01
3.666157803930849592e-03 2.402901529853787924e-02 4.491617629692775671e-01
-1.845106420933898678e-02 6.196484625693491309e-03 4.386365635589348777e-01
1.171081102179330827e-02 7.555348164304011294e-02 4.973690948984250682e-01
-2.056526262688993661e-02 1.800767933593619419e-02 4.427270704023527625e-01
2.207447999681731894e-03 4.447661242637311607e-02 4.569366988441773136e-01
1.808975321704257844e-02 6.724973679010944061e-02 5.085766891283753921e-01
3.182371966308541328e-02 5.118502012878717311e-02 4.761079028699883864e-01
-4.918522148995756529e-03 3.432978962305104770e-02 4.517756025628759109e-01
1.585853461088668030e-03 6.321005436113145970e-02 5.257078817315797847e-01
3.071137191065416092e-02 5.761556645727276826e-02 5.006946257723547955e-01
-2.786726886752204091e-02 3.558289514088489036e-02 4.497330203244792046e-01
2.945335251818770317e-02 4.325279309044579440e-02 4.681611426040713231e-01
3.214578904891036287e-02 2.969241094327802755e-02 5.207114545292603758e-01
3.358329467758392611e-02 4.516242234076307122e-02 4.734656660555786045e-01
3.920853256086623273e-02 4.171655650679625960e-02 4.988826324146738433e-01
3.285268139664211662e-04 5.840947563746679005e-02 5.341061342608642848e-01
2.270465642070799983e-02 5.015173559707003514e-02 4.671077806358650553e-01
2.404830643215197933e-02 5.586055957790390936e-02 4.709596570483376432e-01
-2.620816152927377476e-02 2.380855812556903831e-02 4.448879509699677492e-01
9.393026749644069542e-03 6.540067869374466270e-02 5.178489516198483411e-01
1.984004376415775435e-04 8.699079128369636288e-03 4.422592819801793862e-01
2.865782806444851921e-02 3.824819513213725819e-02 5.181248363176864657e-01
-7.043293065812285259e-03 8.157827147680651869e-03 4.408969383541669895e-01
2.112751277909975800e-02 5.579962452793271743e-02 4.685120009822066334e-01
3.663364644286993231e-03 6.355973265926487259e-02 5.237865036772467731e-01
2.436239577943861371e-03 6.678697905571352733e-02 4.654853828041816133e-01
1.592874523397107972e-02 1.714347938726640957e-02 4.490164941021196343e-01
4.306427180703231022e-02 3.025488485005051881e-02 4.810020394110915420e-01
1.904411489529570303e-02 2.620917370460575102e-02 4.540295384754681196e-01
-2.314993477638364883e-02 2.628836731848981437e-02 4.459185889632065192e-01
-4.091838733975485670e-02 3.369499319963824291e-02 4.495033200857434519e-01
-1.781156627807550102e-02 1.576214422778518184e-02 4.420057871886663992e-01
2.877726536929123974e-02 6.079999439637370079e-02 4.783173083600350539e-01
2.930922182845472485e-02 5.638786599600546096e-02 5.077013520359723309e-01
1.708638682520519092e-02 1.663154110227550025e-02 4.490656777357387996e-01
3.041888077123140743e-02 2.912499603758524763e-02 5.234366585241292391e-01
4.468490262775778182e-02 2.286054545020978560e-02 4.767645740938073473e-01
-9.521857303087539331e-04 6.627758080594399470e-02 4.651117824035422843e-01
4.303318768019963325e-02 2.676400251747573789e-02 4.972469236990962327e-01
-1.201631509145796063e-02 2.343665554454109692e-02 4.458890897916672480e-01
-1.668673359931907921e-02 -8.941020004659752662e-04 4.371244594310388920e-01
2.197457827793178678e-02 6.988017704602944580e-02 4.791859078321211163e-01
-7.973700773629672708e-03 5.920113654707630929e-02 5.383704764213238514e-01
1.272586043265484107e-02 5.887361898136835026e-02 5.250272999953102815e-01
5.279161611759767073e-03 6.192339313576631504e-02 4.635040924758994652e-01
3.863166945297043936e-02 3.926532480081196264e-02 5.030984036923807912e-01
-1.706528567100461941e-02 1.696340804711272618e-02 4.426115525268474737e-01
-2.273121608437689289e-02 5.888630866365070216e-02 4.641230409814300906e-01
8.684777151090743511e-03 6.836791960769361687e-02 4.678419570216882928e-01
-3.010120535314026249e-02 4.646252860820464237e-02 4.558942105839393633e-01
2.286146437537688383e-02 6.147186829031411198e-02 5.127095669627326213e-01
2.760049204260831696e-02 3.267369830008326481e-02 4.613579113499552409e-01
2.210999028751670700e-03 6.191249529341637942e-02 5.198820582421069814e-01
1.625669585532924649e-02 6.232974846356479498e-02 5.199687515850055508e-01
-2.511610481213503651e-02 1.049872530288523988e-02 4.400092857354538922e-01
3.517054022980090761e-02 4.372459559103756416e-02 5.082791216510532673e-01
1.509635488154927128e-03 2.417915590580077545e-02 4.487861478084643752e-01
3.579804710350705660e-02 2.435014434154725294e-02 4.628805484300853590e-01
1.302962803807291778e-02 7.774960148215349920e-02 4.855925418780753233e-01
6.547111170988393139e-03 4.600594187550838265e-02 5.370176974537663739e-01
2.359980430589742051e-02 6.319144043832447544e-02 5.095386919573861029e-01
2.552138107657761154e-02 6.499461593872696286e-02 5.002473244769424232e-01
1.710625156395723101e-02 1.789945762213048311e-02 4.496046851946663980e-01
6.357808693151535684e-03 7.018451083244242605e-02 5.024157047029584877e-01
4.499756494934535611e-02 2.488665910931020520e-02 4.847661523478087320e-01
9.206925703903837480e-03 1.788458595902090581e-02 4.478016705975800260e-01
3.300274535144778754e-02 5.599009849593211685e-02 4.883211070531612852e-01
3.446140936152870815e-02 5.307310173089814509e-02 4.920779291510873898e-01
-1.755064438643526292e-02 1.079728839065544586e-02 4.400144987710465916e-01
2.824930506798277105e-02 6.210392949278426000e-02 4.794801402876692209e-01
3.179687120958472890e-02 3.842861590441307151e-02 5.149342757449171248e-01
-6.722969610804685990e-03 7.139485778389686142e-03 4.405815981879824261e-01
2.357137839334514859e-02 4.778083029637571894e-02 5.195381742986636686e-01
-3.656954047468066044e-02 3.674359599428014128e-02 4.503521753932843152e-01
-9.825104064154930802e-05 3.539942020408114176e-02 4.530607500706501090e-01
2.385674216200985021e-05 6.109115557065612767e-02 5.240632965747136218e-01
1.231376187414593912e-02 3.956468143495955880e-02 4.577573532890368835e-01
4.655406314678671095e-03 1.455660846198923719e-02 4.455130468080588102e-01
-5.796067399229287015e-03 -4.865525145247755548e-04 4.380823923855585167e-01
3.707734872809761995e-02 4.556682058802143803e-02 4.801051594091306218e-01
-5.146942269760161962e-03 3.042726072685977487e-02 4.500186399967447959e-01
-1.482405917189950038e-02 3.430484478802563186e-02 4.502940421003441829e-01
-2.922759970545133271e-02 4.631519832184638474e-02 4.556055117002482113e-01
2.132266350461690246e-02 9.259065254043734317e-03 4.476263612652519042e-01
4.807712758601439054e-03 1.729134294607559928e-03 4.404897810060703911e-01
