1.479307986577167722e-02 2.474394913778029184e-02 4.519153665057239477e-01
1.239709793395291429e-02 7.806540477178369741e-02 4.828575364477500909e-01
1.277491339746500768e-02 1.201522143157543639e-02 4.461269104254155238e-01
4.150074428675433469e-02 2.490590145330040181e-02 5.031299271582060362e-01
3.303492501137100801e-02 5.490208826095744482e-02 4.951417015456936466e-01
1.166285774545040843e-02 1.639108056033065919e-02 4.476982669380094038e-01
3.038847996315286598e-02 4.289783890169193009e-02 4.685704040774569257e-01
4.788770775565377030e-03 6.447754873729291680e-02 5.166381193841405040e-01
2.955902405455133192e-02 4.945151888741468327e-02 4.721977126038933714e-01
2.864222776999935521e-02 3.358973018758648621e-02 5.235582773760046882e-01
2.215255614800132333e-02 1.958033256448624485e-02 4.520193109312721225e-01
-4.290380175983970340e-03 4.634934591476257831e-02 4.561151904043355687e-01
2.345304080580002185e-02 6.816028034811963399e-02 4.789714861126139755e-01
1.264758716595706760e-03 6.277582029005929209e-02 5.249682348825913669e-01
-3.713605713658785917e-02 3.313254385345682645e-02 4.488555374342825810e-01
-2.331349184631331672e-02 1.726502235818572553e-02 4.423959907200817332e-01
2.156081341473531712e-02 4.407364282408344353e-02 4.635027933882822637e-01
-3.662369545590205000e-02 3.238628260032631184e-02 4.485293099484898849e-01
5.073405871345378244e-03 6.396804741661789306e-02 5.223481952528419292e-01
-7.312220872395743670e-03 9.378128002226295001e-03 4.412549870855518308e-01
1.199657305688886337e-02 7.614608741134280823e-02 4.910636032130490380e-01
2.322640750297442352e-02 6.788130363094141417e-02 4.989747232412610201e-01
6.045971676660182557e-03 6.649205406610267377e-02 4.659465490178664182e-01
-4.013996630198024551e-04 2.955992341700197992e-02 4.505313836819372364e-01
4.229041036457283770e-02 3.281225930887154973e-02 4.808592008827220488e-01
-2.697800519826419260e-02 4.339542405714694184e-02 4.533438309748001327e-01
3.208291516057797804e-02 5.378828955505395720e-02 4.782269415999456097e-01
2.788669687209541920e-02 2.689068731536427975e-02 4.585302746492858073e-01
3.505472979606463757e-02 3.313960621673749801e-02 4.669386951957948950e-01
-2.854777233617361923e-02 4.796361105672470454e-02 4.563198195556226189e-01
3.074346657466706795e-02 1.847608753666237294e-02 4.563744016337915599e-01
3.098944209860910598e-02 5.258830913747576663e-02 5.092315350412038866e-01
2.816980992127534819e-03 5.961372987446510868e-02 5.317073920652148900e-01
3.361731299469942341e-02 4.623557155570460347e-02 4.742935353119075992e-01
2.603470907305157137e-02 4.366755195482450308e-02 5.182499885344371560e-01
1.314095584342433662e-02 3.992935405289269740e-02 4.580672639926730572e-01
2.031474729026514978e-02 7.361600098946630144e-02 4.841972983352806348e-01
3.657170387829655062e-02 3.990683053368234562e-02 4.734397685255503641e-01
-5.790373517269733691e-03 4.062747725057862941e-03 4.395661266121383970e-01
3.076683444343953841e-02 3.227239229988745906e-02 5.210385361902365453e-01
3.368197378857702012e-02 4.332835418863541233e-02 5.100542782888646265e-01
-1.858749980035269422e-02 1.152073580695381176e-02 4.402525866613022365e-01
8.112155460547750344e-03 1.646960312482671773e-02 4.469469900515674055e-01
3.841651409088823327e-02 4.480719176971962453e-02 4.840602197094527881e-01
2.167225934398520765e-02 4.539164965889345288e-02 4.641826945876023625e-01
7.575562009496876470e-03 4.769132750835433643e-02 5.343027106844236984e-01
2.285164789422245227e-02 7.150457531178334991e-02 4.886919373062210137e-01
3.799613523310204494e-02 3.908098729748531175e-02 4.753383475270420155e-01
1.339767770423083010e-02 7.273063490365083705e-02 5.029834218457271966e-01
2.192659032973955785e-02 5.638154006521631234e-02 5.181128056812964733e-01
2.314692042313536147e-02 6.118969894506652574e-02 4.728445156146955375e-01
-4.256711621619682639e-02 3.744016627463254976e-02 4.522714865147697827e-01
1.390163167223166032e-02 6.376210359964171182e-02 4.675947050592214049e-01
-8.078105395655224216e-04 6.013063287509802513e-02 5.188312095678517810e-01
1.211273415973313644e-02 7.763856400403473801e-02 4.857064046550176317e-01
4.402130023033196116e-02 2.814888589540279901e-02 4.904946572438635410e-01
6.811644118581198191e-03 3.604285043776658815e-02 4.547948089966629137e-01
1.095703492046217441e-02 7.553215095794187095e-02 4.954340837813289711e-01
2.382598821576491915e-02 4.224792076365707812e-03 5.322507517665610033e-01
3.068304850216448457e-02 5.011677351770547212e-02 5.109230979438299514e-01
2.126898708555235648e-02 7.190730625615357474e-02 4.943523342307390989e-01
2.198514785831042970e-02 6.771807221174747093e-02 4.760623807813483266e-01
-9.897368747823966084e-03 6.185488704786181596e-02 4.620926904868772889e-01
6.189131418035119167e-03 6.144909983729009845e-02 4.634099848511226694e-01
-3.728851962873396507e-03 5.653022662918379820e-02 5.390098676933509081e-01
1.275078077100968640e-02 4.795933699423148705e-02 4.611772679684589260e-01
2.314733562073706744e-02 3.384168147876907839e-02 4.592171619756230116e-01
-2.136666979801125563e-02 5.921721922635428403e-02 4.631670641738582783e-01
2.687445304494707685e-02 4.285760213408104646e-02 5.179568312245605988e-01
3.510630107519811111e-02 5.090038308285819296e-02 4.834997502977363970e-01
-1.108054690309597315e-02 5.118409706057493874e-02 4.571158195818534331e-01
2.290776802919713973e-02 2.598432456040113137e-02 4.554439839595014750e-01
-2.783579840048385629e-02 8.994011979702389199e-04 4.380996208737114594e-01
4.308804904613183773e-02 2.953328936045761591e-02 4.797919137444200954e-01
1.585034501841296392e-02 5.052480210475394223e-02 5.245809884076355623e-01
1.159062008510458250e-02 5.580274412213245827e-02 5.259785193106952805e-01
1.881140967802381533e-02 6.581581782100941191e-02 4.715342632537158907e-01
-1.785707490844182926e-02 1.844677921994145042e-02 4.431038170321992542e-01
-1.916587381315956393e-02 5.700725044745561659e-02 4.596116786745183536e-01
2.930571119849904177e-02 3.391050897975506073e-02 4.630395030360424657e-01
-1.576912624695019430e-02 1.513522772794165597e-02 4.420117689424084007e-01
8.539261326880469988e-03 3.058168357659707057e-02 4.528949916078200966e-01
-5.496543401277648698e-03 5.749432639513696319e-02 5.227248773370719581e-01
4.278792590658381245e-02 3.264731512362661903e-02 4.881435660055393200e-01
3.925607014930686950e-02 3.846389265037568339e-02 4.773147945833787209e-01
6.116235113529118646e-03 5.223187224444495597e-02 5.322583606824280444e-01
2.009004655051716340e-02 4.689503782346603894e-02 5.223134316165118918e-01
-2.903023125281759681e-02 3.669431437415034830e-02 4.501582236413085303e-01
2.899917071481540251e-02 5.167371423329549657e-02 5.121929242790745906e-01
2.297567844006188215e-02 5.567716414960659221e-02 4.698300037767547122e-01
1.085982541614571861e-02 7.931605802256419535e-02 4.804694313200498224e-01
-7.631084802800225386e-03 4.858538818052183378e-02 4.564330953856761686e-01
-4.004618688010819910e-03 4.563744835515137072e-02 4.559322937043596702e-01
3.122773504020356569e-02 5.891438796820714502e-02 4.882810621660773065e-01
7.226250902372630645e-03 4.906595130207917765e-02 4.597378366461118970e-01
6.735343461053841345e-03 5.066017034820043813e-02 5.324321974249641709e-01
8.015404253285826619e-03 2.653003593317474623e-02 4.510625814285602608e-01
1.317395404705660328e-02 7.472568876164416805e-04 4.417788553097380944e-01
1.146539760144710610e-02 7.553399017923961845e-02 4.975720484722759851e-01
2.274090087166509913e-02 5.608394615627659147e-02 5.173636125135141484e-01
2.078526589175180850e-02 6.094340368427648286e-02 5.155905728527817589e-01
2.001497221955707978e-02 2.955751807970943487e-02 4.557399643882995566e-01
4.431128282088567932e-02 2.684471832152663523e-02 4.906394260499936100e-01
-3.414059882512187998e-03 5.589225270661352107e-02 5.395836635339853471e-01
-3.365385633863973713e-02 2.527224182352253920e-02 4.458998503710811523e-01
1.087589926076640116e-02 6.981984547403408126e-02 4.692050038501959786e-01
9.535955688878139033e-03 3.956934609748592735e-02 4.569261793683941364e-01
-5.261046464833131747e-04 4.943059211459249064e-02 4.576857091318378146e-01
2.636940769438365223e-02 4.300529480713631558e-02 4.658398060878067293e-01
3.202109264949382084e-02 5.759871022519466588e-02 4.895229659635991770e-01
1.466393255019504682e-02 5.454201397708692556e-02 5.240247604231431655e-01
1.915507225390844157e-02 6.585436776594634500e-02 4.718495559417987262e-01
2.673334392605386869e-03 4.039184605737483613e-02 4.555598382193885021e-01
6.013609795002736874e-03 5.132957913798971705e-02 5.327623751822110343e-01
2.109062585611738011e-02 7.349396297350066498e-02 4.866869612755104213e-01
3.647030231916848636e-02 2.421182646335811456e-02 4.633534315357889510e-01
1.018128362493374989e-02 6.481465118519355584e-02 5.201803271085244651e-01
2.651671520652305533e-02 6.582560107980556241e-02 4.821041838045455608e-01
2.723012407879689747e-02 2.459431203351708159e-02 4.570726583541200316e-01
1.333278267031075270e-02 7.065976884659978807e-02 5.078651040103409064e-01
3.234230683576024695e-02 4.637514036786757193e-02 4.728952778252858979e-01
4.227799245904609315e-02 3.243963025548081414e-02 4.796123790207787452e-01
3.998742200599232632e-02 3.747106535222345658e-02 4.778141773232022493e-01
-1.732093908242455377e-02 4.228105487747770008e-02 4.533505879702954267e-01
-1.786138426955362173e-03 5.549513181657033528e-02 5.372882835640421240e-01
8.220357253562644156e-03 3.971452757071683437e-02 4.566401246951331538e-01
2.217135819445778186e-02 4.446323685070967952e-02 5.219234510496432167e-01
-2.131859060727643237e-02 3.811919202076180513e-02 4.512129017040060197e-01
1.819640080879677060e-02 5.521491241984635701e-02 5.214623814446182060e-01
2.335328756883692930e-02 4.802176447495429962e-02 4.663412880780812286e-01
4.556213059609080795e-02 2.318847897140962830e-02 4.890567252297349787e-01
4.262523827763765871e-02 2.686263321806574983e-02 4.745841058494214004e-01
4.008729566925624266e-02 4.136686284372734224e-02 4.912633184304518452e-01
3.114858741638096978e-02 3.305796935328354086e-02 5.190365665185044941e-01
1.442708684211830260e-02 1.894314680487589261e-02 4.493718663452907491e-01
3.818543626156684079e-02 4.161850178495469371e-02 4.782765940339426813e-01
-1.185235255455934118e-02 1.215235416534425281e-02 4.415361321689702523e-01
3.067450869051859680e-02 3.214283825000202599e-02 5.214313227545186447e-01
2.875787822339004318e-02 2.430972394207110698e-02 5.248096814310284630e-01
4.022671534232219459e-02 2.988753032558207068e-02 4.717138729285919041e-01
-3.057625815985758055e-02 3.925448674964621826e-02 4.513341119086567432e-01
3.109288009412924589e-02 5.078239953537834472e-02 5.101267668336644245e-01
2.634608344582372100e-02 5.331028907351194335e-02 4.713842120710919903e-01
2.433314699737498116e-02 5.152494669254983201e-02 5.178393884850484019e-01
-4.000453134249319295e-03 6.310466512435630726e-02 4.624565064510160473e-01
1.834610576479512103e-02 7.543692944427578262e-02 4.919265863757825707e-01
-2.629680187624132415e-02 2.199637592355757967e-02 4.441678696951183447e-01
1.545612906427682419e-02 9.188810161108465491e-03 4.456132257331395508e-01
3.471932325769526428e-02 4.302955516078976056e-02 4.732875401477090738e-01
2.232223950746997643e-02 7.156274130433230851e-02 4.915560175612417870e-01
4.408587679306379820e-02 2.842432795525067293e-02 4.885004063880026282e-01
-1.519213447130488351e-02 3.840841434161833268e-02 4.520625345111363158e-01
1.932658459913097135e-02 5.758451256494685755e-02 5.200743061372141707e-01
-2.677406563149234767e-02 1.792592565171293850e-03 4.380657283291203297e-01
1.240834396651594590e-02 5.650673033309860926e-02 5.252132475076152218e-01
2.333212703547458966e-02 5.967987982312038253e-02 4.721576999558154131e-01
3.389133341074525296e-02 3.944466692393078233e-02 5.114968714740874001e-01
4.337395873198900131e-02 2.800586736876342631e-02 4.936604287640617983e-01
-9.772934322673541147e-03 1.769011726074801866e-02 4.440126542468770254e-01
-1.182942930633225191e-03 6.833407038120757962e-03 4.412486862764265494e-01
2.341985969966030659e-02 3.701441862564430058e-02 4.610119453569908043e-01
2.248219159901291772e-02 1.863005853507959664e-02 4.517475062667187236e-01
2.989467040054663224e-02 4.706819662695865825e-02 5.133819526831776558e-01
6.917160197235131328e-03 5.292894608459214334e-02 5.312321469027191378e-01
1.477002459394402382e-02 6.536561280079676572e-02 5.160355821528626041e-01
-2.999460379260492429e-02 2.698331803041598143e-02 4.462754257256996149e-01
6.975334007069809716e-03 4.941691810966785531e-02 5.328772642193606579e-01
1.575183356218030906e-02 6.411708253162483329e-02 5.175933322690348115e-01
-2.322008214008269844e-03 5.160147183103629825e-02 5.399814866358849663e-01
1.361065068531800044e-02 6.538751835373467214e-02 4.681770417181626009e-01
3.944675016300752679e-02 4.249570420671735377e-02 4.859871343546038891e-01
2.989366699708706498e-02 5.048997120898529416e-03 5.313232312894617948e-01
3.666169206232811756e-02 2.550101768289907492e-02 5.132212703321389347e-01
3.139327967014188953e-02 5.431612302510361451e-02 4.772379913701373377e-01
2.196346961849656929e-02 1.988836536109777828e-02 4.520640821692687439e-01
3.708311428708534196e-02 4.821140684153434747e-02 4.923355856413079712e-01
-1.022339378390208116e-02 2.674147353144510145e-02 4.475223912547573457e-01
9.330407343958787431e-03 6.087297117281086078e-02 5.267118987688023113e-01
-1.653190613391725822e-02 1.680186242262176124e-02 4.425895327066063922e-01
2.726106994326537789e-02 6.221113385964016640e-02 5.024980358236124101e-01
1.924033167408299369e-02 7.477577926985776169e-02 4.852285358511453373e-01
2.402158706172137503e-02 4.619749488520590031e-02 4.658618072728356596e-01
1.946225539547565692e-02 3.462354754466288875e-02 4.578648793241196779e-01
-4.466521035517358358e-03 5.178463999082612984e-02 4.576635588526163922e-01
2.936324769588974717e-02 5.958860014960258578e-02 4.781943509878635590e-01
-1.133138353713363401e-03 3.658846749919449082e-02 4.532593167335287054e-01
-9.996565189674823382e-03 4.098344000462894599e-02 4.536957251515530420e-01
2.280985363220769738e-02 1.047398745184580093e-02 4.486465314792441039e-01
-5.637258517151456233e-03 5.998846929861276212e-02 5.379868131307738999e-01
4.168840712966211809e-02 2.160631560124996742e-02 4.686126342175507831e-01
-1.194808163908510010e-02 8.859853795724915645e-03 4.403166980255246998e-01
-1.300304734466717176e-02 1.774548390929294589e-02 4.434756902533462108e-01
1.600606682956423263e-02 5.199601828383351027e-02 5.239125114322965571e-01
-3.543193076861023832e-02 3.866321101827603635e-02 4.511706488386790226e-01
5.709265249833847013e-03 7.090894289705869380e-02 4.989725373843901246e-01
3.161495165058045287e-02 3.693086169220913956e-02 4.662365869710821675e-01
2.412367262287391789e-04 1.984442485114263841e-02 4.467380383297420154e-01
2.745393795217453831e-02 4.484318516845782476e-02 5.168614237351195628e-01
4.004868277639758029e-02 4.104979984092915063e-02 4.876382896109766052e-01
7.130096568491809880e-03 5.860860477267350321e-02 5.285234238333120782e-01
2.873788844291221001e-02 2.752559813231750946e-02 5.249907346934111763e-01
-9.219010672873104162e-03 3.105156803545494962e-02 4.495994604051612442e-01
7.754782988105573052e-03 5.014879102636184138e-02 5.317853158222345389e-01
7.890533005543222053e-03 7.776296934556396756e-02 4.817049676773465516e-01
6.349135644029378980e-03 5.909646620903472730e-02 5.291041479136086023e-01
2.236347196602435708e-02 6.588574891866019745e-02 5.052465021929459787e-01
3.535695128171485735e-02 5.112922179347734880e-02 4.851370977794218220e-01
9.833398897126357716e-03 5.964507890561049352e-03 4.429990285965472729e-01
2.185427306321439944e-02 4.200246849193331466e-02 4.626722662448459200e-01
3.213150066423040713e-02 3.442646434760024410e-02 4.652837128171588010e-01
2.782274159508586059e-02 4.782516015002474113e-02 5.156985781008220915e-01
3.667300684048508536e-02 1.990189059844627711e-02 4.612477843518101861e-01
9.586406401527807972e-03 4.277767711291473318e-02 5.354273909825130184e-01
2.681543919669646808e-02 5.638765095930352300e-02 5.120807463524513770e-01
2.587655048689528267e-02 6.420417256250583737e-02 5.017533512112751781e-01
2.086014028369167009e-02 5.770470735415472729e-02 5.182725774934068275e-01
-7.653817102869437186e-04 6.017076134797538084e-02 5.191726939372709460e-01
4.183474143247656318e-02 3.514966262201584674e-02 4.850942489713638839e-01
-1.533976765800938724e-02 2.875086907740472680e-02 4.475089232091744029e-01
2.392132787398570937e-02 6.521663087254897517e-02 5.034348712245158008e-01
-2.427728931524053210e-02 5.652777364086176287e-02 4.609886628248287543e-01
2.259742176455012408e-02 2.844871174347159831e-02 4.564620513989778305e-01
-1.444026597182496326e-02 2.082777616909080309e-03 4.378073214798672286e-01
4.126673011089287968e-02 3.493328261389591627e-02 4.960451714185045158e-01
-1.962221217292392517e-02 7.700457894602345289e-03 4.390375053665541150e-01
2.893282357654081496e-02 6.169895992881202496e-02 4.965672253744911613e-01
-1.471443966408161538e-02 6.109574772707986046e-02 4.634553779581672694e-01
1.681279777787627119e-02 7.113134997182600505e-02 4.735390485694879192e-01
-2.238929028727226073e-02 4.366833538405345133e-02 4.534555485914159023e-01
1.497469232833954778e-02 5.981054112220048763e-02 4.664692693202194818e-01
1.130530653596774869e-02 2.633006417868069202e-02 4.517418199343969931e-01
3.798701609395272599e-02 3.589058161439543509e-02 5.053104382421947927e-01
4.946932921445814854e-03 6.449637207852335075e-02 5.164063665332651043e-01
-2.177099065790602181e-03 4.625991451563958579e-02 4.564231971137061028e-01
1.579617263347756276e-02 3.558153091549400709e-02 5.323830841570716954e-01
3.550211456632124812e-02 2.739462814914782676e-02 5.143049634642661294e-01
1.945848367190607109e-02 6.210014397900515820e-02 5.160827556444208541e-01
-1.575325370425029528e-02 4.936744567679624690e-02 4.562344037089072768e-01
3.263878783020055657e-02 3.410903887934423062e-02 4.654715096050424661e-01
2.148831067007747619e-02 7.254999621876567772e-02 4.919463798950209354e-01
3.946856188900726981e-02 4.248552519779917602e-02 4.862674548474313907e-01
-3.664556644472097280e-02 1.826562475400374339e-03 4.396387319836064234e-01
4.012685650335327814e-02 2.469746119191904704e-02 4.675276681634472631e-01
-1.518911327130499297e-02 3.819498873345258255e-02 4.519657250752989741e-01
-1.999134194055309302e-02 5.836676853351186606e-02 4.613320500035371641e-01
1.697046873606378528e-02 7.136075936558365640e-02 5.037383379620463675e-01
-7.212394972165841328e-05 1.813733922144871585e-02 4.459812171435194039e-01
3.702411490727868654e-02 2.911462276287215059e-02 4.666544234362787202e-01
2.073057042080869369e-02 3.777753394645229357e-02 5.299021375222117136e-01
2.646763098384999000e-02 6.429249807646841841e-02 4.986074742395030790e-01
-3.914185538626662603e-02 2.106172727061495983e-02 4.454176340959064007e-01
3.237693237358669346e-02 2.843408435477926682e-02 4.622926328548374042e-01
5.770237525785158576e-03 5.171680583244386148e-02 5.327997107122863785e-01
8.688405656359574070e-04 5.946754715158003579e-02 5.331297847839916448e-01
-1.108569340576691636e-03 4.194664388672814104e-02 4.553524890554310756e-01
1.952423040177529018e-02 1.287517059979179090e-02 4.483950473589029539e-01
4.002322095013340075e-03 5.505899282350005391e-02 4.605978993901460039e-01
-1.857793613688924622e-02 5.367627485030676548e-02 4.578949697804575170e-01
-1.379289482915391392e-03 1.916783348469683346e-02 4.461395495496485175e-01
5.559586333590884125e-03 7.386424571176063159e-02 4.723636607133194221e-01
2.850665700081970663e-02 5.230353235071712181e-02 5.124829629849032564e-01
-2.179267495287037434e-02 -1.316192415442909124e-03 4.370042831907431369e-01
3.356990979425199251e-02 3.027283848009042558e-02 5.166099369823367038e-01
2.184091549755488512e-02 4.692581336225697813e-02 4.649373970878194484e-01
1.192150081975961590e-02 4.654268293107392818e-02 5.308564407902596205e-01
3.591632377734573639e-02 3.399463188802444302e-02 4.680919696773726546e-01
7.878316875640901593e-03 7.751402279057691136e-02 4.819168886634178639e-01
4.261184316206867440e-02 3.105009600713696388e-02 4.937178022949980649e-01
-1.850740485470053764e-02 5.101218727140256065e-02 4.568584215259700598e-01
5.774732698170266694e-03 4.222880139015702805e-02 4.570071976567293137e-01
3.229320792038060939e-02 5.655100013245328849e-02 4.941057057982728429e-01
-1.040462970544508980e-02 5.058675883650039923e-02 4.569490736585093971e-01
-2.165059638577639806e-02 5.933789774946524737e-02 4.648527849020808733e-01
1.095822545021611291e-02 1.537937372423378232e-02 4.471240121200608097e-01
3.688153359956094363e-02 4.831575359373542489e-02 4.851275447962937748e-01
-1.264031267674600896e-02 4.299608140001787843e-02 4.541213803153367756e-01
2.907455368324496706e-02 5.511109885777316225e-02 4.751208495712840874e-01
8.096785654689549541e-03 6.737137787476933648e-02 5.095576349424409957e-01
7.883578007420434519e-03 6.527918890114502160e-02 5.157950074309828326e-01
1.686462839544790662e-02 6.145763232532245463e-02 5.197421842199441144e-01
1.190902814861734965e-02 7.796927583599466693e-02 4.781569694598887810e-01
-3.530766422117877831e-03 6.223571548475251292e-02 5.298661475515170638e-01
-1.367181234399634897e-02 4.511576543660408140e-02 4.547100170395094731e-01
-2.061814011122137247e-02 6.682584051409452310e-03 4.387286549835538452e-01
2.907546883498878312e-02 5.985601759635018893e-02 4.778265355700496708e-01
-6.923565210293240735e-03 6.099356511840890727e-02 5.392039529084174942e-01
-1.633907145144863123e-03 5.777409593729097154e-02 4.597767202201072934e-01
1.892387020499672334e-02 6.671426985788557473e-02 4.721283493859916858e-01
-2.075963548733703035e-02 5.261827687804418452e-02 4.574586889910065568e-01
6.738557999032764555e-03 2.254590145054095190e-02 4.491215698295760173e-01
1.401238365332654889e-02 7.321484564003051532e-02 4.734374785518551398e-01
2.529250818873950146e-02 4.352651282216188355e-02 4.653791402744201777e-01
2.718560546752138429e-02 2.855354177489258585e-02 4.589697002193407482e-01
-2.323998160526836998e-02 5.278276179943224011e-02 4.578797491968316091e-01
-8.015416466818678365e-03 5.325836201946632792e-02 4.577623426635107906e-01
-8.696494758768611236e-03 5.795146134572778940e-02 5.309928563429254789e-01
-3.738124776150809209e-03 6.252745973407033975e-02 5.333378485083354326e-01
3.077285645650131019e-02 3.457807818159591706e-02 5.175112186880581611e-01
3.602396086165456091e-02 5.037316917243588044e-02 4.896500142529440769e-01
2.091903502896130460e-02 7.221672705443674123e-02 4.947280653339017897e-01
2.660669413453010251e-02 6.373660319992564827e-02 5.006314143999303079e-01
-5.346156945164394145e-03 6.181248693737136785e-02 4.613910233572781072e-01
-2.299681113425549803e-02 2.537214038825962026e-02 4.455296817167701540e-01
6.834813098601196998e-03 7.182783313099484757e-02 4.989946327454963804e-01
-1.637408882702861765e-02 1.680813122565568904e-02 4.426129825116494887e-01
2.421006351663855874e-02 6.356430420789907498e-02 4.751596255729157448e-01
-2.287267046832820033e-02 1.421174598409551126e-02 4.412658524897822843e-01
-2.659109784615306532e-02 2.620225409469722697e-02 4.459065965147386290e-01
2.599396700640895994e-02 5.573451420977838799e-02 4.723406128237579993e-01
3.439712207860387561e-02 5.115856547930149045e-02 5.011750482533158246e-01
2.489145650802536761e-02 1.239392218065063500e-02 4.503251392541868792e-01
4.202723235704595300e-02 2.859074052543390115e-02 4.984007934789921324e-01
7.013463389732556286e-03 7.549917081928650409e-02 4.739971290634219514e-01
-2.670918620076061234e-02 -8.176928131733108771e-04 4.376807839047798798e-01
-8.453448926777542421e-04 6.582802634855711155e-02 4.646386861533310375e-01
8.897192803992452423e-03 4.987100636172608903e-02 5.309402993979430718e-01
-1.898305693383452175e-02 7.183010385012639915e-03 4.388925851638358910e-01
2.956631382917844844e-02 3.418772716723914029e-02 4.633669220149704837e-01
3.026827454639890655e-02 5.909415840733579089e-02 4.803117522510709225e-01
-3.344030994288510906e-03 1.050074539851231746e-02 4.423168032465215060e-01
-4.070855732063874757e-04 4.662469995431468839e-02 4.568734100925954111e-01
2.136239874006792827e-02 6.541584188264316924e-02 5.085408628783780749e-01
4.373355582217552939e-02 2.487567667591112502e-02 4.964866957296568128e-01
2.843798258156960898e-02 6.120063630313372915e-02 5.007545059967610790e-01
3.089193040670381099e-02 2.060270282511876203e-02 4.574436785033091923e-01
2.877900796988256543e-02 4.047590657061490155e-02 5.175143919952667204e-01
8.549163419614667914e-03 4.916681573705012492e-02 4.601597829344128976e-01
4.024609661832379004e-02 3.930748974034822124e-02 4.806699977727013073e-01
4.186860118040509199e-02 3.549699330713017298e-02 4.924438678167938899e-01
4.113755083753040803e-02 2.713325240259821525e-02 5.019668306346654063e-01
3.158672986711046071e-02 5.691735726835250864e-02 4.974574969875493746e-01
3.832980014048405215e-02 4.490401047049768363e-02 4.968790704772006461e-01
2.658840074294846131e-02 5.593956246676198840e-02 4.729605924117927795e-01
-4.190695649710904358e-02 2.753733615130152246e-02 4.477613021239150171e-01
4.126966909012456941e-02 2.774656957566697460e-02 5.008916758556544169e-01
6.463598676332497905e-03 3.365520540494121304e-02 4.537055086401856618e-01
9.109462146696941515e-03 7.629334146686343743e-02 4.889584412380573730e-01
1.532148907909890341e-02 4.370438696032459547e-02 5.312546967644501406e-01
-4.359942575401926090e-02 -6.089893833456528488e-04 4.413127281026277826e-01
4.465763327247572120e-03 6.382028770490762171e-02 5.245141203001643104e-01
3.181075113311800789e-02 5.690777208418514033e-02 4.960865859915071230e-01
2.788512561062297945e-02 2.350156364187129879e-02 5.258594178340776359e-01
-8.391917183948547840e-03 3.123497505377310565e-03 4.389246887036770128e-01
8.796846551684311608e-03 4.516529416233370370e-02 4.587842705332384474e-01
4.087496075357757719e-02 3.727171064778933562e-02 4.804832389911322110e-01
1.424571220697059756e-02 3.574337675744540532e-02 4.566693690900486824e-01
-2.550565956430110234e-02 2.649988810910054379e-02 4.460021970030238481e-01
1.445752073508298208e-02 4.286517148221499068e-02 4.597736006871271930e-01
-2.190546968153643005e-03 4.694442353955696062e-02 4.566406925465389399e-01
3.719347668090445397e-02 3.979979509666079635e-02 5.062613777278029970e-01
4.822315969010988398e-03 7.131746731043113463e-02 4.699923313318877804e-01
4.257967308350681102e-02 2.659116391223579484e-02 4.982569088524962941e-01
-2.287839615307111010e-02 2.298795589700061703e-02 4.445775544633480125e-01
4.412840860005375065e-02 2.342698434801043436e-02 4.965854741528119010e-01
1.967016337281943597e-02 6.539777162382737208e-02 5.108096315555625822e-01
7.228877136480151705e-03 6.476463999761962465e-02 4.652341530537665859e-01
2.591558295559316313e-02 4.882907873457665443e-02 4.685695285735979043e-01
-3.563555082247382017e-02 1.919673335586160635e-03 4.393677254148446454e-01
3.143952653208319237e-02 4.184934238812170609e-02 5.140994254841243505e-01
4.134622568665824449e-02 3.430236586923966768e-02 4.962972196540166858e-01
-2.574448833838661674e-02 5.145587607301517485e-02 4.576497295049744563e-01
4.473277387421787515e-02 2.418668161955118967e-02 4.795947263620883305e-01
-3.972673897255346760e-03 6.268084235883672473e-02 5.321225545742815921e-01
-2.300025116327560071e-02 5.185029520533520481e-02 4.573466513336157946e-01
1.539100003287727746e-02 8.057088591174049394e-03 4.451502560168649203e-01
3.458600063835788607e-02 4.131535842227369859e-02 5.098244898164900896e-01
9.499705676041433552e-03 6.460028370457172875e-02 5.208811303121960723e-01
-3.726393940841515873e-02 6.822611211223681901e-04 4.399503072528291314e-01
2.597515823088546172e-02 6.744267024326261462e-02 4.874973630022880200e-01
-2.539673415489829972e-02 8.157652551606085073e-03 4.392920831317031483e-01
-6.493556802194496748e-03 5.874662353726069208e-02 4.595192988557196823e-01
-2.107444243196779018e-02 5.949896374697873774e-02 4.647232990477187520e-01
3.564004484386997657e-02 4.671870471369229255e-02 5.046072120171684050e-01
5.151037778220977914e-03 6.140715941080866769e-02 5.298628250302513942e-01
2.785951132907341088e-02 3.180790350031639097e-02 5.254608610918934941e-01
3.737971642618909129e-03 5.908800755465623555e-02 5.310266956273739236e-01
2.263146232110502254e-02 6.405439423619259387e-02 4.739334224601544632e-01
5.655028507607117241e-03 5.176450978350441434e-02 4.601102827599340972e-01
-1.962640641613455986e-02 4.652871470288622718e-02 4.548462211388504817e-01
9.804447685280473848e-03 6.263236199454877418e-02 4.652366645323203764e-01
2.292033759755007782e-02 7.141296526390768229e-02 4.883119173012631653e-01
3.647652268360173505e-02 4.173368372509512342e-02 5.066478940836552924e-01
4.606600148053001907e-03 5.554173852255332201e-03 4.417866825817959864e-01
-2.400697861876780609e-02 4.912169325512899531e-02 4.564244094957495834e-01
1.869265358297556717e-03 2.733359148031593716e-02 4.500967203692167184e-01
-2.952471733458307893e-02 2.875748099881831124e-02 4.469003822439556739e-01
2.263626279783690839e-02 3.665904146814535219e-02 5.285014925117941242e-01
1.765947265475289324e-02 4.346427075178870697e-02 5.281339236656568126e-01
1.291711506989471833e-02 6.752773067788926664e-02 5.126637259555559822e-01
3.486027527516988994e-02 4.491270400069898028e-02 5.077912851635809632e-01
1.805233153020504785e-02 4.771705930531579265e-02 5.239318264233443490e-01
1.896286401526201329e-02 7.505014966371992280e-02 4.854669873762891830e-01
-2.410442672171489963e-03 5.529411051235295915e-02 5.388092645056843377e-01
2.192980378435623739e-02 3.797427702465025479e-02 5.285068108184715063e-01
2.492794444063581479e-03 4.527379430712568514e-02 4.571656745913075803e-01
-1.332375389969075660e-02 2.196224537168477153e-02 4.450479859937641058e-01
1.118875741307347529e-02 3.242224408549269216e-02 4.542958965670282900e-01
5.695802120636933412e-03 4.320195020112135853e-02 5.362589255305576508e-01
3.920904107944166161e-02 2.921140315857836608e-02 4.690727845336875590e-01
2.734065225464595711e-02 3.668000376615093011e-02 4.632403078059154633e-01
-3.324488004386220302e-02 1.986335258861914380e-02 4.440783429528689097e-01
2.540181056839568505e-02 6.782179791594740437e-02 4.913396880183518722e-01
2.808262113717867672e-02 3.020728575328889345e-02 5.255309323061697624e-01
8.811435786144114490e-03 3.600724641666545878e-02 4.552591243757345141e-01
4.335882727693662897e-02 3.049070684393894587e-02 4.864948481270756075e-01
2.815098456549977590e-02 2.666880222731746186e-02 4.585753567861621804e-01
1.939160156909616912e-03 4.968456674569197984e-02 5.381394121384454055e-01
3.858779515103347157e-02 3.945663281785186105e-02 4.769458102891835916e-01
1.810135730751141064e-04 3.340471257588772253e-02 4.522310823346776809e-01
-1.331647650405100650e-02 3.722999473613096411e-02 4.517793463271698728e-01
3.639086443573825991e-02 4.536558695391666729e-02 4.783918373003915869e-01
-2.902746916200214106e-02 2.184265426022022338e-02 4.442123078213924270e-01
1.807288756908694786e-03 4.567386359460080814e-02 4.570772642359643978e-01
3.157578028053711211e-02 1.951545603522026814e-02 4.574018558248723609e-01
4.164613576668234340e-02 3.200235787024326151e-02 4.971563196778231442e-01
-9.061256354625566931e-03 4.883937415042245017e-02 4.564081064783827024e-01
3.126931667122798131e-02 3.724187885469184417e-02 4.661583291405113627e-01
-1.595438256366486784e-02 4.753997983885694528e-02 4.554636435082995427e-01
3.264250171628997610e-02 3.370265197660143874e-02 5.148180445856712639e-01
1.763638283709662719e-02 5.372237806291035173e-02 5.220719558656641279e-01
2.798744281404784429e-02 4.462435371264123624e-02 4.677311317488617726e-01
2.381311390388047775e-02 2.454360311265550709e-02 4.552374034181321250e-01
-2.419157596220946130e-02 1.911449685630474751e-02 4.430942021406705789e-01
2.778971428767377724e-02 2.383802590816114578e-02 5.258360895906549759e-01
3.892011876065827602e-02 2.413616665151711166e-02 5.090040703138223321e-01
2.449961978086081030e-02 3.983918602736710723e-02 4.630075912762924850e-01
9.380571469124548978e-03 5.176879916629563427e-02 5.295898413003151672e-01
2.837227879438674119e-02 5.939369324163383534e-03 5.312864001661562474e-01
5.973147280584427052e-03 8.874419692286627040e-04 4.404024599958408781e-01
9.048784479613382684e-03 4.981895096093501979e-02 4.605806284555138963e-01
3.239912399719005898e-03 6.361529237101198886e-02 5.263035395456681087e-01
3.623211822551106187e-02 2.959038675827154602e-02 4.661801693952357661e-01
1.224179613928652599e-02 1.270303140195085979e-03 4.417668259997198921e-01
9.908648518880673606e-03 5.504103087822353330e-02 4.626885234091406840e-01
8.940000074920032014e-03 7.534731873965563875e-02 4.941436986250966057e-01
3.308564227545124359e-02 3.952603892243527345e-02 5.126564052299660279e-01
1.196459090857981446e-02 3.740880268892056437e-02 4.566439627339987650e-01
-4.894245180392371372e-03 2.624893770912549093e-02 4.483243413341457817e-01
-1.028566392061381132e-02 5.705710405124781587e-02 4.589365075697133256e-01
-1.453286398571233991e-03 5.971640908946718174e-02 5.181796843942814146e-01
-1.350121945772643495e-02 4.621226644277150880e-02 4.550946483105804963e-01
3.457676274355428458e-02 4.465731385021495803e-02 4.744144028640001065e-01
2.976348791648252348e-03 6.545006334432917905e-02 4.645236233537839987e-01
-1.396423973606377962e-03 5.245278365420193156e-02 5.400303947163727081e-01
-3.040153433516352977e-02 3.950762243657979927e-02 4.514579537705729617e-01
2.123811277600112096e-02 7.332208011868367181e-02 4.903147277004861748e-01
-1.193035278953191204e-02 2.033081117043206501e-02 4.446588815102042180e-01
2.395810621827573761e-02 4.812961550385183584e-02 4.668224065650495302e-01
3.709003016011072629e-02 3.851219811195495668e-02 5.068440428880801596e-01
-2.959204572837024691e-02 1.848180627489473538e-02 4.431798237503642990e-01
3.567604938457130670e-02 3.921176860544599990e-02 4.711881007246508934e-01
1.998102086804292091e-02 6.606076717248729469e-02 4.726703584692054094e-01
4.505850006875132888e-03 1.173810200622577189e-02 4.442937687116705892e-01
3.756070937594573056e-02 4.673788961313343066e-02 4.961977466554694516e-01
1.942049695798571743e-02 7.390594192669847073e-02 4.820300648373965768e-01
3.329918351151501393e-02 3.694011106097019187e-02 4.675220882894626784e-01
-2.429773033014905742e-02 5.831714542941882073e-02 4.632062380273211377e-01
1.527832734735688064e-02 5.323035304493273917e-02 4.642400064999651077e-01
-3.047747906910135141e-02 3.246669648035119260e-02 4.483426192315724812e-01
-3.757295613403585643e-02 3.023733284469185337e-02 4.477149495540292401e-01
1.262519914668835952e-02 6.619433968602249363e-02 4.680215447215348434e-01
6.008670705432983539e-04 6.286554578405877114e-02 5.259199906674061342e-01
-2.426403347042966827e-02 5.310385436561181061e-02 4.582771238663089775e-01
2.758218270086923440e-02 5.533926656389683701e-02 4.735985091444953610e-01
2.926500623045405133e-02 1.819949723858076823e-02 4.553021869293561452e-01
-1.032637899718689446e-02 -2.395486675651065534e-03 4.371591501103203603e-01
2.978587648128680487e-02 4.941525385692666084e-02 5.124111929355611439e-01
7.535052836498915690e-03 2.631380663523055427e-02 4.508594017059781578e-01
7.158785591196721761e-03 5.908613410570535268e-02 5.284601549757604877e-01
-4.247000075830622071e-03 6.286322931153170979e-02 4.622576905315812779e-01
4.622160506822240583e-03 6.173397756142250115e-02 5.302564012267275695e-01
-3.621357869612059407e-03 5.385597879567227859e-03 4.403132596289370815e-01
1.112801882842213812e-02 5.490503677339677452e-02 4.631144603109617619e-01
4.528561839852057042e-02 2.416404454601813606e-02 4.877392856746392003e-01
3.048724973304637806e-02 6.020168785529118882e-02 4.879033759030688699e-01
2.555586019025644223e-02 6.724908160823765690e-02 4.925706445368094322e-01
4.596974236692905058e-03 6.805222398445009979e-02 5.047312696225350059e-01
1.882884137324662005e-02 7.483229531225144004e-02 4.836323576644317446e-01
2.213984917053551243e-02 6.948790632279101820e-02 4.982841862691033130e-01
2.014213366427467650e-02 7.314670051392994921e-02 4.821611830353874639e-01
3.129056405704882388e-02 5.219727113974070160e-02 4.759304398627485222e-01
2.903511205598491643e-02 4.428242485589272553e-02 5.157671196154818283e-01
-2.323789551086290900e-02 9.071042098204700962e-03 4.394175381696457383e-01
3.497865673516613750e-03 2.796686606655777660e-02 4.506949244282182354e-01
2.407950580521605113e-02 5.510340562700557360e-02 4.704748708063187235e-01
-1.847608100947913806e-02 -1.038208867266794504e-03 4.370731263051551574e-01
-2.037980921074667578e-02 5.648884591191866145e-02 4.595427184024775125e-01
4.108639780165796590e-02 2.328325993406993658e-02 5.049911704945717617e-01
-7.405932447493209642e-03 5.179319589038578267e-03 4.397428064006764226e-01
-3.948073606692578848e-03 4.279482867519464329e-02 4.550598032978453444e-01
4.120683378434054911e-02 3.760041162316282715e-02 4.874106745195658785e-01
3.414519226378989747e-03 3.852750093413185445e-04 4.397499324538413634e-01
-2.206330742563596126e-02 2.289133486170385340e-02 4.445482926936498158e-01
-2.384513999861229833e-05 2.982102660770657651e-02 4.507166998189026663e-01
4.213441625652490641e-02 3.496542566832806093e-02 4.891751828227239862e-01
-1.846160883233313732e-02 2.068047976237161537e-02 4.439006486151207409e-01
-2.466992635561107011e-02 3.539098324855591976e-02 4.496504083245724259e-01
2.931034855765042232e-02 1.927493984387113404e-02 4.558096176494199070e-01
4.613125280143693871e-04 6.313775756848959142e-02 5.265415793562612246e-01
4.498443225475416696e-02 2.421295686810362446e-02 4.813438623041083608e-01
