-1.163197277748581962e-02 1.457239694210512443e-02 4.424994384771762657e-01
2.787227352868658706e-02 3.852912490058085782e-02 4.645574101907031239e-01
3.620030232645549823e-02 4.989653737512615705e-02 4.859125968938218243e-01
7.865394466205840804e-03 4.894555928892021374e-02 5.322617294929831155e-01
-9.145276056087763700e-03 5.599835650245062191e-02 4.585122059528405902e-01
3.811653620211394311e-03 6.337794943607796827e-02 5.273557411661697891e-01
-1.466131792690635038e-02 6.515196324105145508e-03 4.391083432433010025e-01
2.384730388075304713e-02 6.597272639112856940e-02 5.011715905907110358e-01
3.099196453783169616e-02 5.814939551365470166e-02 4.967905652904817115e-01
2.537361378457111613e-02 2.351867111860275750e-02 4.555589520086821276e-01
4.242452734949712922e-02 3.324435769843766403e-02 4.922563957412298130e-01
2.220710304403518756e-03 4.776701519914742372e-02 4.578238972230653792e-01
4.137480024387601291e-02 3.641869297232330077e-02 4.839074799794975679e-01
4.207606683655715912e-02 3.187540895425011733e-02 4.953104900142544231e-01
1.438340487639621669e-02 6.864625144299406345e-02 5.097347274906195436e-01
-3.715058888701806838e-02 3.253129889530780028e-02 4.486113733236528622e-01
3.427247565007503216e-02 3.658574866944905302e-02 4.680793641770292224e-01
2.933921995713817399e-02 6.224803215013539892e-02 4.882289893072265241e-01
-2.361825968599954792e-02 1.423588211630089691e-03 4.375219841645314189e-01
-2.264274539351415760e-02 5.846644527015711773e-02 4.626180701597341627e-01
3.351442022740815790e-02 5.474028456584906915e-02 4.917870644571364913e-01
3.223600000839860202e-02 3.433409179296598168e-02 4.652761773395792666e-01
-2.614174055772438068e-02 3.479827374669825987e-03 4.382040133284746952e-01
3.719328856556854135e-02 2.539623754460295160e-02 5.118423099037818780e-01
4.606276857343872405e-03 4.302213800641766644e-02 5.364141576377987608e-01
3.058643818642242662e-02 5.965620122953528559e-02 4.826976443957591290e-01
2.738040436225222876e-02 6.511283831573340397e-02 4.848827480220139208e-01
1.260105461208520759e-02 1.613475004923889053e-02 4.477931271583027173e-01
1.679132581073335823e-02 5.656787911491636262e-02 5.221547516969829994e-01
1.694787664008508971e-02 5.325952281888794715e-02 5.226129725247081748e-01
-1.922803541917263506e-02 1.302471614651386916e-02 4.408091207424012503e-01
4.230555759791726489e-02 3.328699893539883298e-02 4.830883119848360940e-01
-5.833833921170324122e-03 4.432529637438919340e-02 4.552429402068408626e-01
3.355118068074323771e-03 5.105350983396796105e-02 4.591706586863802397e-01
3.243774067551046664e-02 2.007055364273981415e-02 4.582165314245256194e-01
1.898324460674093161e-02 7.504789378497564445e-02 4.854523369998242632e-01
-3.354110698789575240e-04 4.156994221323603855e-02 4.553615416358103851e-01
2.143714164566111469e-02 7.321282836778644776e-02 4.870320829820196096e-01
2.825502176115806535e-02 2.611162212973483499e-02 4.583261208507528051e-01
-3.129414212847921734e-02 3.228475977198386887e-02 4.482779559018889581e-01
2.891135436127131864e-02 5.584597700019729161e-02 4.752990605158334270e-01
4.151031109339303575e-03 5.195482634033552621e-02 5.338466181468117799e-01
5.473246045285648682e-03 6.644145455125805011e-02 5.082597476871184572e-01
-3.214248027223467682e-04 -1.475463144347166806e-03 4.384283827641090592e-01
8.652813959140630284e-03 5.991303069160049816e-02 5.272397368070839141e-01
-4.615037270560612870e-04 2.567827848121018858e-02 4.489377007846435674e-01
4.056079462361735638e-02 3.912032268734882967e-02 4.852116427187604386e-01
4.020432310281213395e-02 2.687613259717655523e-02 5.046226585066446724e-01
-2.213965437262318051e-02 2.915537536143588543e-02 4.470690319550247871e-01
2.573518125827615674e-02 6.654061140832041865e-02 4.941672895611266547e-01
-2.024149199434586641e-02 2.893669378953135120e-03 4.377912277279158992e-01
-1.809196438883623782e-03 5.945429503632182477e-02 5.203361509658692707e-01
2.235869700959966511e-02 3.445908408151505259e-02 4.590860576216160838e-01
4.436852203919083859e-02 2.715522367853898111e-02 4.860679047411860521e-01
3.001084373901740515e-02 3.005384239891232753e-02 5.235341796499231037e-01
-1.519431720250385628e-02 1.591072350961440047e-03 4.376610643079278939e-01
1.334633045238638877e-02 2.907053332877387875e-02 4.533596676642083212e-01
-5.523157286946596585e-03 5.856346525381216084e-02 5.392561893077753021e-01
1.483642832199585058e-02 6.859303289655141467e-02 5.093761832644793097e-01
2.000033158951221648e-02 7.334304105593272838e-02 4.951743724075258202e-01
-2.119509772831202482e-02 5.546621577608389086e-02 4.591980921377943337e-01
-2.353914617683781560e-02 1.414687346003546970e-03 4.375082478505197270e-01
1.893170743663572311e-02 6.226265805908799689e-02 4.696237561241613512e-01
-2.681255598435225863e-03 8.437989786654788091e-03 4.416291033801620358e-01
1.517293143309416704e-04 1.278425093577208009e-02 4.438692741350744320e-01
2.824881969550173400e-02 4.014973543082864943e-02 5.180500200876437811e-01
3.924676835269080150e-02 2.803727734594825202e-02 5.059634837132721552e-01
4.324982167742003059e-02 2.893885781233559301e-02 4.931637216199392659e-01
-3.342737002694870507e-02 2.790917893584567849e-02 4.467625403736732448e-01
-5.977666925432285026e-03 1.425946248261099510e-02 4.433275659998295870e-01
-3.206697891032043828e-03 5.367108774561045459e-02 4.583525397901906939e-01
2.568023014074808860e-02 3.145482866597046345e-02 4.595117732217357531e-01
-8.488912652294455796e-03 1.062942982563233260e-02 4.415273806647310728e-01
6.976353559184044796e-03 7.851611483931732194e-02 4.761369383558254897e-01
6.934162945825574770e-03 4.492297200579897787e-02 5.363226974442582007e-01
5.047991249434498166e-03 5.445478755899757495e-02 5.319327020184277943e-01
1.677299057066573146e-02 5.069767075147197516e-02 5.237017436733657494e-01
3.572768030082856122e-02 4.776825179262890464e-02 5.033561881675985283e-01
1.461985631893856358e-02 6.898326542547662810e-02 5.089802572464453556e-01
3.351215922562117422e-02 4.724716556351743479e-02 4.749200959530438526e-01
2.489244845988711208e-02 3.075803091929373706e-02 5.276677207173627870e-01
1.087416645053578164e-02 7.163651814645871641e-02 5.050439761876176492e-01
9.505342145706401763e-04 6.287069642721065943e-02 5.324624911626232304e-01
2.800544896080242596e-02 4.001996348709650764e-02 5.183115251672782975e-01
1.036052204868866426e-03 2.097025137991906027e-02 4.473415019956976657e-01
-6.426974262393363342e-03 2.181531521520695821e-02 4.461895309192426828e-01
3.402742380847730008e-02 4.543967277865879756e-02 5.088303001994350927e-01
-2.925664782580730816e-02 2.650773887486958941e-02 4.460485832736979517e-01
6.999547870961348242e-04 5.892720238317133291e-02 4.606664603877895225e-01
-2.201852552355549816e-02 5.725212849221365113e-02 4.607746643090537830e-01
6.871680609368331638e-03 3.343672388909977363e-03 4.413970974983966733e-01
1.115489769740867637e-02 5.312279833915120597e-02 5.273033278170717875e-01
1.155045643697914966e-02 2.096679051937835880e-02 4.495488946554268561e-01
3.376521888238435271e-02 3.607713773646518268e-02 4.673875230854983021e-01
1.511746808154762305e-02 4.422482981121941825e-02 4.605544484046477094e-01
-1.554161234998449950e-02 2.462162906957926500e-02 4.457947748311892888e-01
1.111686571533787929e-02 1.867878351508830276e-02 4.484958692876702679e-01
2.369035082531818770e-02 6.571623341887615488e-02 5.023069025031874357e-01
-1.919551639206187876e-02 4.550787928599610288e-02 4.544541574534972095e-01
1.690510079735629487e-02 1.895973314842401211e-02 4.499242332369359221e-01
-3.880195080963131510e-04 6.017183005801950840e-02 5.170280052474119925e-01
3.658954832018144337e-02 3.953236640247133338e-02 4.730962177768995858e-01
3.839658091444288213e-02 2.686468610340889129e-02 5.085346848287281007e-01
2.788603261253313342e-02 9.731080090198513180e-03 5.276487930158439976e-01
3.772440324865335148e-02 3.961449500265405016e-02 5.049969761144625924e-01
-7.190631925709949947e-03 5.758320030540164947e-02 4.591073620411383893e-01
-2.561553993270128740e-03 1.234712672141088756e-02 4.431837453991454567e-01
-2.840907529894923234e-02 3.540313002952056448e-02 4.496072919469512041e-01
1.606930970610167750e-02 7.700018374261541343e-02 4.852134909481459757e-01
-1.061835553305900265e-02 4.382780799809502664e-02 4.545771552436991825e-01
1.069896278968830716e-02 7.537383186751950293e-02 4.960294668453680833e-01
-3.745199951819104707e-03 4.181383132792681340e-02 4.547476386221751543e-01
2.891205029422376158e-02 6.217095305484143797e-02 4.947730365186662205e-01
3.853293335997039215e-02 4.540522527957530086e-02 4.914760399290588611e-01
2.438409657017509558e-02 3.774717940686575512e-02 4.618893735541113599e-01
2.970549193645170491e-02 4.676548062950910273e-02 4.704342726131206520e-01
1.924704184596507175e-02 6.639651197203598476e-02 5.089572482210722448e-01
7.929397357994666384e-03 4.284090060012549217e-02 5.357311911838255059e-01
3.425734243356493014e-02 2.707523082011320525e-02 4.629663943570179740e-01
2.945174785687412755e-02 2.711392263410217218e-02 5.244979119014000490e-01
9.786747280393489831e-03 1.634368925601000638e-02 4.472394250500409396e-01
7.399942246247709354e-04 3.462933179252417754e-02 4.528429364253802603e-01
9.996623583442805841e-03 6.956878327342708168e-02 5.080910440238485259e-01
3.043470952975478594e-02 5.590595473217441214e-02 5.045581703601564882e-01
2.197507912644486999e-02 2.908192430319692101e-02 4.564213065316418683e-01
1.907390826652243659e-02 7.531252547775738049e-02 4.887871636957158428e-01
7.863406667314656526e-03 6.361261553250244227e-02 5.242737876036356326e-01
1.314189104831756799e-02 3.967542270230480644e-02 4.579367854421686479e-01
3.693712990609285957e-02 4.822503359119715421e-02 4.934840894095528507e-01
2.835803054104258508e-02 6.348580849409853066e-02 4.931675675370556511e-01
2.009265492457516789e-02 4.225072243206896144e-02 5.265462741962276816e-01
-4.962642241723764884e-03 5.656699991295230379e-02 4.590457857551965559e-01
2.052434812135238776e-02 5.026584638271655581e-02 5.209117561268126195e-01
2.547822223550219242e-02 1.237485550185749884e-02 4.506287076110402356e-01
9.112883668410419469e-03 3.745584493132864817e-02 4.559096906716751940e-01
4.478426381438670167e-02 2.576125194289625650e-02 4.863573986173082009e-01
-1.402610345482999989e-02 8.910568854131417724e-04 4.375859934171086318e-01
-2.037787152985040887e-02 2.368410157855963330e-02 4.449327447342650288e-01
2.927129474799439190e-02 5.267244761457762214e-02 5.113599958351940922e-01
-5.239982134445808452e-03 5.805149087299620037e-02 5.395578703314499736e-01
-2.807516857939285418e-02 9.812700030962533473e-03 4.403407031946543482e-01
-2.971496109937598468e-02 1.103211101739363584e-02 4.411791759726872431e-01
1.639619224331778646e-02 3.426322451582222012e-02 5.319929416746039808e-01
3.410209941249341126e-02 2.318169586524731693e-02 5.201242927748666034e-01
2.301013882828944687e-02 7.109304538881240643e-02 4.905196959338433693e-01
3.595790796340866263e-02 4.162660784079616483e-02 5.078083313693743106e-01
3.143399518520018868e-03 6.331505112988543293e-02 4.632644212843370912e-01
3.375979606751895040e-02 5.067112605946975934e-02 4.790155967919885738e-01
3.490962947764799512e-02 4.050307626175838477e-02 5.097905795469193091e-01
2.497283212304131014e-02 6.618036592783672900e-02 4.785928295093006546e-01
3.969574349741960412e-02 2.393566789703325051e-02 4.664213556299823815e-01
-8.034858736328620230e-03 3.772397404523761266e-02 4.527131502903930516e-01
1.952875453870002789e-02 6.519193324426222902e-02 5.113199266885929406e-01
2.582334729262404302e-02 5.638158739502791006e-02 4.724784406014280735e-01
4.193873555206291404e-03 2.942243041559550187e-02 4.514210999846182126e-01
1.904390900470103246e-02 2.017351745144142783e-02 4.509326467445893827e-01
3.595538422021296587e-02 4.411933734974797516e-02 4.762010921143827180e-01
2.530615510889222541e-02 4.236655351102997652e-02 5.199863167838620903e-01
3.741482511596402882e-02 4.754854352971023962e-02 4.927218343613448126e-01
5.928343243030946043e-03 2.663764220465412308e-02 4.506406703759053278e-01
1.021561424800079658e-02 1.215406460535421555e-02 4.456134838439085311e-01
3.070209649655249867e-02 3.476608038271009754e-02 5.172625936205389463e-01
3.410048102651576374e-02 4.627744648502794128e-02 5.084028214718915306e-01
3.631147857515885230e-02 1.953876991795835960e-02 4.607667574103504471e-01
2.091515841188438737e-04 6.196933774099645104e-02 5.251578565634291706e-01
1.455709695270522228e-02 7.654220464254476997e-02 4.887371513964811620e-01
2.921710851223828856e-02 2.014082038955692169e-02 4.561222231723724985e-01
2.790536367643544832e-02 2.697026032871983545e-02 4.585601120151737153e-01
2.032674208256452994e-02 4.203300944276244788e-02 5.266414829521159913e-01
-1.228635730925938148e-02 6.051618833850205825e-02 4.614757454625879052e-01
-4.093190200142704516e-02 3.688717312032922802e-02 4.512855166628806924e-01
3.743788355520361044e-02 4.680599384308579969e-02 4.837209965176091364e-01
3.021584472837983426e-02 5.025610336425874458e-02 5.113619115906317125e-01
2.354138079871289507e-02 3.567090928646303449e-02 5.280324595611732841e-01
4.114990375309031390e-02 3.841172016581486520e-02 4.904942654929300705e-01
-3.490304033154070090e-02 4.173878362782941498e-02 4.534182040836343686e-01
7.943678006704018441e-03 6.960313997817482723e-02 4.681224074535467738e-01
-1.935577398969973509e-02 2.800096283231120337e-02 4.467935998748278625e-01
-3.573497062885178099e-02 1.902189985640272488e-02 4.442636812165987603e-01
7.049770856809991354e-03 5.171302841875332484e-02 4.604976873186897302e-01
1.694498364050836189e-02 7.634617808253237048e-02 4.900268121406629040e-01
7.421614295521438039e-03 6.694751612037573574e-02 5.094428063705848109e-01
3.507741928954323518e-02 3.016132146904370454e-02 4.653882554861782928e-01
-2.357547497722747507e-02 -1.409927178172483767e-03 4.371022014483733065e-01
-9.874445007212000885e-03 1.365403896251371312e-02 4.424503722763788449e-01
-2.444698346913663778e-02 5.088752121618132784e-02 4.571958970177385506e-01
6.098213525572934030e-03 9.249573644614216689e-03 4.435852078918476327e-01
3.863893338692679646e-02 2.823018660721212519e-02 5.072073209096965574e-01
3.425789886300414228e-02 2.570237083620309157e-02 4.622471721091033769e-01
6.371822955821475863e-03 4.373708667319653465e-02 5.361756009834637293e-01
2.069478058001695403e-02 6.478735334798572942e-02 5.106181328157046728e-01
4.029427023627687315e-02 3.399479655005322593e-02 5.002203195811426584e-01
1.471160613813809505e-02 7.638410959203652262e-02 4.926540656097200821e-01
-1.022659122020837252e-02 3.630919419216525890e-02 4.517940444173533243e-01
1.579273716120805499e-02 7.448661652059973548e-02 4.998874885205328855e-01
-1.672320870377665136e-02 1.542333244302995440e-02 4.419819931272570002e-01
4.376657800858087255e-02 2.893832218477571799e-02 4.907606490052861536e-01
4.040699023386366134e-02 3.914779172464750989e-02 4.961873286955425510e-01
1.408675585783029059e-02 9.164828634499019161e-03 4.452578936232240991e-01
-3.441087263066782559e-02 1.898105328683280524e-02 4.440215990662326750e-01
5.474284680022052825e-03 6.530273331055825616e-03 4.423478160662525638e-01
9.282425681772887675e-04 2.375563697523146514e-02 4.484344104044364343e-01
2.149223366713430561e-02 6.924809595491833447e-02 4.772976017600619736e-01
-1.628992189723942052e-02 5.081566284693827401e-02 4.567422507968396106e-01
1.879000041092050710e-02 4.533548589181420063e-02 5.247107791287233258e-01
2.374033327404622730e-03 5.518159523536298600e-02 5.336360674823641403e-01
1.076090770516897888e-02 5.044871454609874128e-02 5.288840368556129157e-01
2.540027543311272618e-02 2.825840622778189037e-02 4.578148457917557423e-01
-1.744526439480069760e-02 3.747530262896695691e-02 4.513271768800828365e-01
2.015755061915987939e-02 7.093320567229394191e-02 4.774566833460026638e-01
1.796806883700461863e-02 1.766660272699982145e-02 4.496279502165104747e-01
-1.092081325095595147e-03 6.911231328442700439e-02 4.666063463084513252e-01
-4.138926045518804241e-03 7.170927263512250766e-03 4.408962800182933961e-01
-3.914801036834827941e-02 4.034598680066891346e-02 4.537398623513138052e-01
-4.453850011311993526e-03 5.926505336276777225e-02 5.262868665613761321e-01
-6.702870160327652725e-03 2.187115222230266026e-02 4.461639499534468811e-01
-4.054765961603187113e-02 2.690015085903632239e-02 4.473286533199667958e-01
-2.319455450190279280e-02 2.456044961512209024e-02 4.451940353710746590e-01
2.538357056919134797e-02 3.680044750686077559e-02 5.249073837060217462e-01
-8.146127227519915637e-03 5.835079348252046605e-02 5.310246920405966575e-01
3.006284544080199336e-02 3.186399251201335603e-02 5.229003815876522854e-01
3.154109196444083996e-02 5.599892431889640781e-02 5.008410351915010272e-01
2.839593770821605481e-02 1.084082267712039964e-02 4.517061807266432027e-01
3.689331063485648543e-02 3.276289335136482739e-02 4.683010354945812970e-01
4.119590069413051059e-02 3.394596327070451697e-02 4.976436547574933367e-01
4.494243137862002219e-02 2.505648266262473084e-02 4.897353518668124406e-01
1.317687831124850217e-02 4.949971644035202484e-02 4.619325062657216874e-01
-1.866050272313034275e-02 7.978847621891126118e-04 4.374338243836042306e-01
-2.974540438626296912e-02 4.303952074232775954e-03 4.388457922784103071e-01
4.062265772356203966e-04 5.410006634654299790e-02 5.356805101104458178e-01
-1.023336630089020927e-02 4.580548886077654563e-02 4.552567743816886559e-01
1.486526985890262997e-02 1.258858999066179291e-02 4.468114356402388410e-01
-1.134714136383221245e-02 6.150038425642271461e-03 4.395074178268000842e-01
-9.935934694416141341e-03 3.430860114885206369e-02 4.509406025424835263e-01
1.257783026135561588e-02 5.775113750673445401e-02 4.645758964495767529e-01
3.949578070719513001e-02 4.211391859053757042e-02 4.844312665537092166e-01
4.098903753824642560e-02 2.754379482341596727e-02 5.019583083927264822e-01
7.485007049360988506e-03 1.942141323064937308e-02 4.480022744766795073e-01
1.919048550893267396e-02 7.505009442932887576e-02 4.919970536935232008e-01
1.101259435166018416e-02 7.601321459742407805e-02 4.900674261460463144e-01
3.398672262930754057e-02 2.801493861855616080e-02 5.178851434835137768e-01
1.160096736047542924e-02 7.554888375533985734e-02 4.963718500955618396e-01
-3.092392796092816726e-02 3.753221581420662645e-04 4.384683525116321867e-01
9.992240899171535295e-03 6.772048941453512327e-02 5.102480382069755072e-01
-2.128119539883955788e-02 8.820311540676376016e-03 4.393501891009148896e-01
1.414716280301652959e-02 6.850287884117696457e-02 4.699661071999768902e-01
-2.724443121723509054e-02 2.175182392905176607e-02 4.440693590190255557e-01
2.897631801705617335e-02 5.942551959908117659e-02 4.774101158950743162e-01
-7.000425707963618509e-03 8.873254579330197220e-03 4.411150138839666779e-01
3.714176575559179766e-02 3.897796633591876087e-02 4.736164236855884835e-01
3.431382156902852698e-02 5.064360645437106234e-02 4.807010764230806310e-01
5.538634622460646140e-03 6.407782347467218254e-02 5.207546521765995529e-01
-1.410578371660163761e-02 4.536481556413804461e-02 4.547375495718232186e-01
1.603719841754415454e-02 3.405834862682673159e-02 4.564584007244572583e-01
-1.871418812754797531e-02 2.686657981208049120e-02 4.463820673365551106e-01
1.318987528568973076e-02 6.971200101833746610e-02 5.092399208365602226e-01
3.259781662894569582e-02 5.591046869927667612e-02 4.944556524944517251e-01
2.734743472901890113e-02 2.477274467742337366e-02 5.259122732741077222e-01
-2.570447431073669825e-02 4.182856562321751737e-02 4.524118890363198475e-01
-1.906310339541677709e-02 2.027452160237284279e-02 4.436727208739383865e-01
-6.046591803618914067e-03 4.212365489330480856e-02 4.545210547029090997e-01
3.102561023082543723e-02 5.870805284020716441e-02 4.822503820055986101e-01
3.665072146170367251e-02 4.774055572546843235e-02 5.003107033330156383e-01
1.979637423173586860e-02 4.446984761508591261e-02 5.243150675374795844e-01
-4.206965620961903435e-02 2.771438125446303372e-02 4.478469018372010502e-01
-1.170453473438487751e-03 5.048939437927580515e-02 5.394010133347029168e-01
2.805719883959992625e-02 3.871110357644773348e-02 5.184068629507446735e-01
1.125657558207047819e-02 3.587056991916442311e-02 4.557639506523355477e-01
3.958940545203177425e-02 4.217711614316163593e-02 4.947132336492963134e-01
1.037004899666771861e-03 5.486510062401399324e-02 5.348204652793384639e-01
-2.213673453165738297e-02 4.630427978347707169e-02 4.547865289153262269e-01
2.926206580500861215e-02 3.668521277407206516e-02 4.644736110953589514e-01
3.620299801315570581e-02 3.816111600384036739e-02 4.711829427900166012e-01
6.931969077768955836e-03 -2.593746843162080158e-04 4.401953031876028599e-01
2.966679433836375696e-02 5.973923234562253382e-02 4.792920471761190626e-01
4.064306864491031013e-02 3.995970311156550603e-02 4.911844586415288205e-01
2.338092907703697571e-02 7.056450257453335262e-02 4.845916550326196393e-01
2.160184590848078512e-02 7.300860671051305484e-02 4.876959910169686996e-01
-1.104751403082314572e-02 3.794195614455071752e-02 4.524063816940510074e-01
-7.647242575048813530e-03 5.937012530086337170e-02 5.320545192799561729e-01
-6.457010169430041184e-03 2.567375604167227571e-02 4.477589402207473035e-01
1.387161533490452979e-02 6.558382503797592633e-02 5.162340905031354010e-01
-9.640833357316219709e-03 9.036959454032118116e-03 4.407532554209609987e-01
3.870921747246795080e-02 3.465442503090602339e-02 4.725783358342394158e-01
1.123879879299690722e-03 4.766573914942326406e-02 5.381300299126281494e-01
2.134555682058527498e-02 6.965440224048939644e-02 4.776105940720519749e-01
2.709224787955146624e-02 4.134538883889466582e-02 4.654615010018031129e-01
-1.493415128281046916e-02 3.872313847222199484e-02 4.522198264381180888e-01
-3.531484680427515212e-03 4.549946309435318192e-02 4.559524926028263869e-01
-1.432592951402070734e-02 3.817565626588769606e-02 4.520669202342531556e-01
4.355369568854806223e-02 2.818968252615098799e-02 4.800696186227666473e-01
-5.002526717174945493e-03 5.437567118830714114e-02 4.583840582727399249e-01
3.112652089888441262e-02 2.810228045007825970e-02 5.227227703413983573e-01
4.257032125591952293e-02 3.304932450289106705e-02 4.862054789783887832e-01
1.349925884559770826e-02 7.157741793364044702e-02 4.713647130241873096e-01
1.241585970028099423e-02 7.245164840145520979e-02 4.717238061190670573e-01
2.400637339220121000e-02 7.007184312490094547e-02 4.880179875023407110e-01
2.507082381356414910e-02 1.606544006826981369e-02 4.519566444892118562e-01
-9.210633306844673990e-05 6.058301572844095040e-02 5.230522145918024002e-01
3.908975880664329605e-02 3.704201679063066910e-02 4.754738711867594336e-01
3.256032586394453504e-02 1.891366251209188054e-02 4.577859285196496653e-01
-4.177403734509970747e-03 5.926321885625712715e-02 5.259474818692427833e-01
4.878572358638260005e-03 2.377636603641601967e-02 4.492351391099471125e-01
-4.040828045950978914e-03 4.960587050321388358e-02 4.571243632861254902e-01
4.058696395007230229e-02 3.744830261052441156e-02 4.972404527976000965e-01
-1.102121255428921247e-02 6.374895920680538099e-03 4.396344714537058773e-01
2.964031756437669404e-02 6.080529850048650015e-02 4.816094153102274400e-01
4.092992808899135332e-02 2.420300157896369819e-02 4.688033596753599652e-01
-1.350139843238401353e-02 6.266333190184392339e-03 4.392106050560148356e-01
3.070353319228315628e-02 3.304259856789435595e-02 4.635310792712216688e-01
-6.738859067409609833e-03 6.001125100043263466e-02 4.599278586051738782e-01
2.887191465249812697e-02 2.304551405049957286e-02 4.572217196829159169e-01
1.650119964575450307e-02 1.677630891039104746e-02 4.489161470131903808e-01
-1.316715762166215543e-03 2.204333290331353043e-02 4.473004568824917593e-01
2.446783372905061288e-02 3.736432633194937403e-02 4.617339931541212250e-01
-1.910839641592842336e-02 2.799431434168535293e-02 4.468120531308035770e-01
2.016195398825103291e-02 4.528394446171174481e-02 4.633353387127057132e-01
1.373183916918930755e-02 6.221718259663493178e-02 5.224502193631067604e-01
2.709133719125999401e-02 4.738974799698677381e-02 4.686025097332499612e-01
3.903859770612457675e-02 4.402731098527914305e-02 4.902103484169959557e-01
7.705267214046011837e-03 7.986628220396243746e-03 4.433865731824113143e-01
-3.041847588639145106e-04 5.210557359656266957e-02 4.584144973107213694e-01
-1.076423615919561844e-02 2.843403928425151939e-02 4.481436536090331324e-01
1.009876877910270178e-02 6.389961506426178328e-02 5.237271823884135369e-01
1.218074455339149438e-02 6.598271005194125682e-02 5.158264136199233185e-01
-3.845513764577749433e-02 -3.773939401189316603e-04 4.405196023527613858e-01
1.465993637109042763e-02 1.985583374602567161e-02 4.497854870345738276e-01
-1.388632933966003381e-03 6.032009278335220132e-02 5.347665663272629377e-01
-1.701368684289071218e-02 3.427280222865233122e-02 4.499306841598121887e-01
3.570805887124767555e-03 6.316665360037458654e-02 5.291377991917290968e-01
1.864100698472458736e-03 3.973242644196674223e-02 4.551367118221760211e-01
2.381907950501878021e-02 4.934302151066514291e-02 5.186632018513845921e-01
4.268330083262800861e-02 2.559912556732380634e-02 4.735496216413989101e-01
2.342767495373528769e-02 3.934606125726265030e-02 5.250818654033433397e-01
9.051619913158346145e-03 7.981190820584731227e-02 4.797437344573223794e-01
3.049920541547187364e-02 5.894775896310287810e-02 4.969807975863639871e-01
1.989514827299751661e-03 4.599223080219076720e-02 4.572135275712326252e-01
1.979271315081302524e-02 3.749052489776345809e-02 4.593363312049159042e-01
3.987798578608545141e-02 2.980023543129810965e-02 5.030136305033501287e-01
2.563057756481530031e-02 6.586485289159148271e-02 4.967923131899643630e-01
3.897848811930917923e-02 4.423258842691851767e-02 4.910405806706695242e-01
-2.582243425220190347e-02 2.653588334430924053e-02 4.460203328473623108e-01
9.513202518947680084e-03 3.422526006429305045e-02 4.546521229567185851e-01
3.395993631116506206e-02 2.983352558453414641e-02 5.160260485567813582e-01
-7.552625302550472833e-03 1.363644274896091578e-03 4.384569482503425930e-01
-2.221665924752156893e-02 5.751716971921624899e-02 4.612039589149486973e-01
3.850528826857435583e-02 1.881926933073824540e-02 5.164647212541055854e-01
2.580348828023758950e-02 5.675211297052980275e-02 4.726695107372366200e-01
2.151339573658223384e-02 4.364116983549077428e-02 4.632444254042150100e-01
3.291449340772787530e-02 5.358836702132153962e-02 5.009642198742367825e-01
-3.120834930987633621e-02 3.250460913236848798e-02 4.483650687645536759e-01
-3.327139603386283090e-02 2.949964497911233136e-02 4.472903082846539924e-01
6.863969186589638852e-03 4.617239897346549216e-02 4.586345647739770159e-01
-2.591946548355133790e-03 6.001687095820323198e-02 4.603514390565451309e-01
1.045539448935366156e-02 4.602520066367797591e-02 5.332141626343066543e-01
2.298076456564041373e-03 2.872950568716667319e-02 4.507439965141157856e-01
-1.915811418100090910e-02 2.763722806407842639e-02 4.466598671620925498e-01
-1.268336171033256250e-03 4.788112575658860087e-02 4.570758978293056329e-01
3.598292946054005431e-02 4.030025586212120786e-02 4.726646556348881867e-01
1.346150180089223519e-02 7.678970563950769657e-02 4.873438427744613000e-01
-3.266543495751728088e-03 1.989635446233816232e-02 4.460500363292039805e-01
1.268127620922119593e-02 5.835769907258091943e-02 5.247105322241102376e-01
3.624948156689402137e-03 5.901015358263766303e-02 4.615939723717357723e-01
3.423814702147554012e-02 5.368230043618799768e-02 4.899294445821706923e-01
3.726386458942924224e-02 2.217626762279895081e-02 4.628836524365606553e-01
2.783353712800932730e-02 5.549895606118755709e-02 5.115056378035219842e-01
1.152854330084298121e-02 7.552720954965709554e-02 4.965296530491579707e-01
3.740470248722394669e-02 2.298253980662873230e-02 4.634811204229966619e-01
2.804731381130111389e-02 5.584348790346860270e-02 5.109560693145102084e-01
1.248570011966914500e-02 7.418286925927922160e-02 4.739725560379852154e-01
3.257375275466161541e-02 2.783595753442590776e-02 5.212670127201508574e-01
1.056036328570806627e-02 7.643879692089178279e-02 4.884039435205885793e-01
2.193060001247760377e-02 6.202588716890657800e-02 5.128962651470138079e-01
2.252421633864922640e-02 2.886558899377681189e-02 5.288966196734833369e-01
5.004330220568301013e-04 6.013522714626740734e-02 4.609898256240620995e-01
-4.363921720656437769e-02 3.284949602762343018e-02 4.496378651387282765e-01
1.931195906183300753e-02 3.530516469182494455e-02 4.580969712920431314e-01
1.836200792386151817e-02 7.430971133563818443e-02 4.798978670692763404e-01
2.063515130362906028e-02 3.193700082921925587e-02 4.570840388370706053e-01
-4.289776037594367902e-02 2.300936252705735457e-02 4.466960435907058047e-01
3.918537077473419755e-02 4.014228910661381267e-02 5.008825507136359656e-01
1.040339883794493339e-02 3.395926232049113758e-02 4.547486288907955365e-01
2.357573799625557395e-02 3.407293580014465750e-02 4.595422426621220136e-01
1.661675126294938961e-03 1.053511544840727600e-02 4.432430176333985172e-01
-2.218975416809713247e-02 5.057140247696416402e-02 4.567153417539860372e-01
2.831988134979511809e-02 1.970291319258353491e-02 4.554093620419429889e-01
2.371067005823387572e-02 7.037754598467088618e-02 4.900151201297653358e-01
1.698847061637797501e-02 4.180429420969261622e-02 5.312439354179604445e-01
2.565831924956279986e-02 2.654032930292910333e-02 5.268591230515687895e-01
3.160505150118247779e-03 5.021612480982634574e-02 4.588562409821753119e-01
1.508511593412505125e-02 6.709324014318492069e-02 5.114664380086210160e-01
-2.558700214749399810e-03 1.086429813207790383e-02 4.425876757545066931e-01
-3.553856374382709932e-02 2.826856894417015265e-02 4.469975188232385710e-01
9.660948724366021090e-03 7.526126620460760197e-02 4.952451298041968819e-01
3.504233345619715140e-02 1.892337135306206702e-02 4.594918028572085311e-01
1.270828361061437234e-02 7.697180254154233070e-02 4.769107086835609466e-01
6.472145086957849236e-03 4.875871588208503804e-02 4.594260293041680931e-01
2.444173006998685491e-03 1.462827757044041395e-02 4.450479494870399622e-01
3.729377665299604683e-02 4.712082508342595177e-02 4.838495804929710542e-01
3.336701752631507367e-02 2.880422899531160860e-02 5.186488064026956168e-01
1.063470060159485073e-02 7.965145196369266545e-02 4.804923379017450591e-01
2.424898637010890548e-02 6.977132460946940118e-02 4.861284523795247337e-01
1.162619122339934689e-02 9.062828706095488705e-04 4.415144206423270434e-01
1.029430791470492719e-02 1.964540520022590303e-02 4.487035276987312304e-01
-1.892866793099830941e-02 3.990188427183435742e-03 4.380230760684937219e-01
4.331888711066295833e-02 2.536103169260627010e-02 4.971699067307779329e-01
8.067452056181274173e-03 4.152357817391927330e-02 5.355021321659679812e-01
3.199377596218954539e-02 5.755082423612101206e-02 4.849029602533203032e-01
1.182083269708994987e-02 3.041578788243613773e-02 4.535731872022165101e-01
1.728495131729064840e-02 4.856750866744954931e-02 4.632003680023739078e-01
-3.821116748904297700e-02 2.205907115090893073e-02 4.455299759802403003e-01
3.745987681170100114e-02 4.337974505868422842e-02 5.029205748480632954e-01
2.143184671996018267e-02 2.654396494426819811e-02 4.549283395490067439e-01
4.003168084251740311e-02 3.870481070307222465e-02 4.990957221811561095e-01
-3.000635787293972484e-02 3.268435921825822016e-02 4.484382436344467870e-01
1.435225777488928142e-02 2.863449710569678647e-02 4.534781051906405791e-01
2.154101971488180459e-02 1.390267735252013158e-02 4.495118273686307120e-01
-3.802153581480903488e-02 4.250575600896057404e-02 4.551297826639022492e-01
2.868541028503574994e-02 5.743461191920082309e-02 5.073349276903157401e-01
2.429035230807128493e-02 2.364381807247980388e-02 4.550444580212298362e-01
2.149620975468346726e-02 4.469170227100646015e-02 5.223789214213090393e-01
-5.008634220066697160e-03 5.976690424737791246e-02 5.374140286258139998e-01
3.060487790210807482e-02 5.586705312621965958e-02 5.040384199431738876e-01
-3.208048666267711291e-02 3.611563431950852443e-02 4.498846047086548228e-01
1.705491577704590714e-02 6.957547930004817638e-02 4.723834897179085557e-01
3.615379795250763667e-02 5.033916138640153609e-02 4.870645857359527375e-01
-8.631815844075088617e-03 2.123497861828723549e-02 4.455816766995787659e-01
8.296720994306984454e-03 4.543793321498566101e-02 4.587355659369236616e-01
-1.711129919326187868e-02 6.073027744058842603e-02 4.653480768889574626e-01
2.294267111209706902e-02 4.485668647475421489e-02 4.645431893360522091e-01
-1.618658575273837497e-03 6.051125448873771739e-02 5.249316140982388523e-01
-1.723258838710866811e-02 3.998616063281282967e-02 4.524203184006602152e-01
7.890653607550132675e-03 5.364763004443717787e-02 5.299468613247583226e-01
-2.843064139561075898e-02 2.686430783835771358e-02 4.461899734398433459e-01
3.753845027440477072e-02 3.782233651172924038e-02 5.059339080768164854e-01
3.240659329511933265e-03 6.273124568246644939e-02 5.227500923488528350e-01
3.762447925866810317e-02 2.336018563527596931e-02 5.130316220041298836e-01
-2.170527178512681940e-02 5.010777527990418340e-02 4.564554214713534286e-01
-1.396623009520546119e-02 4.787548931272760100e-02 4.556797779163271889e-01
9.455469468875274744e-03 2.760815356148949018e-02 4.518396354482435706e-01
3.400480724802138616e-02 4.918311875459675103e-02 4.774512711445532687e-01
-1.905048572052111394e-02 5.736271420417185518e-02 4.599747820806202592e-01
-2.850501630680614407e-02 2.788541093603463111e-02 4.465668896566766799e-01
2.328943826093629946e-02 6.938656201323992190e-02 4.947166436121246402e-01
3.481565301583657013e-02 4.811931620253662861e-02 5.050972279453623814e-01
3.034069037392865195e-02 5.301166188970769105e-02 4.752842077785454644e-01
8.065769785670110978e-03 6.533756844697777288e-02 5.165888605562751756e-01
-1.405246383451050178e-02 4.631926075914533092e-02 4.550615026687864773e-01
3.410547733994395009e-02 5.368883757276385338e-02 4.917385543376876500e-01
1.083316280106816354e-02 7.454447119285223522e-02 4.993085042186138911e-01
-2.888679854977592529e-03 6.382799517125987976e-02 4.631756302155455862e-01
3.850377316610566897e-02 3.619135856739071067e-02 4.736061941870002290e-01
7.748203571366185649e-03 1.132207395027205916e-03 4.408205262788394974e-01
2.983485266878865838e-02 6.039167196499786033e-02 4.957997295128689919e-01
3.276964066002378134e-02 4.251834546026866252e-02 5.116792073154848852e-01
-2.128907865688448725e-02 3.684695658150292930e-03 4.378964730017539386e-01
2.136658296851547123e-02 4.992924380906207937e-02 5.203743468404753436e-01
2.326767128977421176e-02 4.296521281969278849e-02 5.217785239135994679e-01
1.391374447866185367e-02 7.623328043425803280e-02 4.936502650914637580e-01
2.637185932267462063e-02 6.436019237158976947e-02 4.784672658834732695e-01
-9.635218793093890122e-03 5.772024239076000568e-02 5.340187227456792973e-01
1.273330608393898229e-02 3.158550984249412080e-02 4.542896856528352290e-01
1.225135458538621075e-02 7.612448365903876080e-02 4.912175901705247982e-01
-1.426030962594784790e-02 -7.206495487755456078e-03 4.366374046767160788e-01
1.231378302977623358e-02 6.001240411071805808e-02 5.247575665991155436e-01
4.280774879184748305e-02 2.336536552660989710e-02 5.007533876182915789e-01
1.040429712701837831e-02 7.038800800573521976e-02 5.072915312038371871e-01
3.119813025699253589e-02 2.441841672806752475e-02 4.593791554638769203e-01
2.890678484424372141e-02 5.898392289376371000e-02 5.036132881190366062e-01
2.056030210365720687e-02 7.030507614068129407e-02 4.772212169950752481e-01
9.531752339912834965e-03 6.304618874772643933e-02 4.652590525932782661e-01
1.992551791836221289e-02 3.511847579342985276e-02 4.582893109713321866e-01
1.674429853865050041e-02 4.457411833449750893e-02 4.612674491259879939e-01
3.184356292515499315e-02 4.313153452809918853e-02 4.698592425240694093e-01
-3.024674144447515867e-02 4.588056801158627018e-02 4.554683700910431288e-01
1.253113281565098203e-03 1.761900390744973455e-02 4.460263127031591224e-01
4.441959071873237061e-03 7.127566493352674448e-02 4.701558738919000557e-01
3.189643311048908497e-02 4.741704511481326101e-02 5.107502846750052727e-01
-2.176179900808717510e-02 5.881570235506605737e-02 4.626865375183734086e-01
2.119337198559265861e-02 4.662004492404219630e-02 5.212167567421613912e-01
2.783467400912494755e-02 4.463062489145978168e-02 4.675964994412857845e-01
4.331071321887453029e-02 2.567256339238158797e-02 4.970037239455512013e-01
-9.642274055915655076e-03 2.592538039331602345e-02 4.472779958190067906e-01
2.933435615168725544e-02 3.795775060711530091e-02 5.171965429349377752e-01
3.204937741220799385e-02 4.460724300425398386e-02 5.115591124905025655e-01
2.455331021689295158e-03 6.220180667572835359e-02 5.228159188205433461e-01
8.715772986114474902e-03 3.358781848304755180e-02 4.541926134047027386e-01
1.150308566342664665e-02 3.447081067270699184e-02 4.552257503951994133e-01
1.507515495483680718e-02 4.280998009429793499e-02 5.322380523194698565e-01
2.354499619291889473e-02 6.667720910099758647e-02 4.770310401607721906e-01
-1.061458533659124029e-02 8.769128276552684564e-03 4.405091434547248053e-01
3.785679773111828850e-02 3.900810316319408555e-02 5.048416527340394699e-01
-7.176185363786471288e-03 4.104008698415523293e-02 4.540046832163491253e-01
4.311038644168288698e-03 6.301146850362911167e-02 5.301137454187588860e-01
-1.878528325747640115e-02 2.126271336554795902e-02 4.441032644744537516e-01
2.597848106695971326e-02 6.373868995757933642e-02 5.029834460300434129e-01
1.864828982271497099e-02 6.741717748571270097e-02 5.074915916653820469e-01
-2.227622124914602209e-02 2.936304065913662026e-02 4.471472816315300025e-01
2.664411451757373039e-02 5.190259633509892306e-02 4.708377276418805324e-01
-2.816779164235072748e-03 6.894369283213866439e-02 4.677264051409745771e-01
