2.219867089372489985e-02 6.684999493593080100e-02 5.030030419416693377e-01
1.290146250285074438e-02 7.042747942485115542e-02 4.702204381390035492e-01
-1.082631784873577981e-02 3.571822789100735640e-02 4.514091062824003853e-01
4.508985553387092303e-03 6.484636806536468734e-02 4.643576296291050398e-01
-3.686078746621635621e-02 1.235440207079197515e-03 4.397264653241687027e-01
2.593300407979345391e-03 6.039320337462618371e-02 5.316920887798411988e-01
9.264534114871344692e-03 5.678922082572913921e-02 4.628524092935335510e-01
2.185587563537765357e-02 2.409850373907554411e-02 4.539113826459202361e-01
7.179806175631880949e-04 6.125010878816485038e-02 5.234417962455439888e-01
-1.244229371244088764e-03 3.739074472539718336e-02 4.535015290004656419e-01
2.439857676197687911e-02 1.692060927270955771e-03 5.331594634228922214e-01
-1.029038964479207091e-02 -2.322498908201310695e-03 4.371637033502440151e-01
5.703345868543372929e-03 5.539571941607952799e-02 4.610763693594074342e-01
1.915818840337937118e-02 4.384712504426405838e-02 4.620250160379675286e-01
-1.979578250505598797e-02 5.756390175161969769e-02 4.603752939358984331e-01
3.516475583743475936e-02 5.150318970587264289e-02 4.932430933562654829e-01
3.005817909778872241e-02 5.976727379276684099e-02 4.970585316824083222e-01
2.698078913284059077e-02 2.979393029221586581e-02 5.262533757551237645e-01
2.160291682772286920e-02 7.158256484682729015e-02 4.943193348231851858e-01
3.923033444898377242e-02 4.273269375251826513e-02 4.830844771256809778e-01
2.603956299651792247e-02 3.049907480788015268e-02 4.591672131140321911e-01
3.091075209025670109e-02 5.671578430561444173e-02 5.015337922849837371e-01
-2.700796205803979166e-02 3.854525476021006258e-02 4.509984742260386703e-01
-8.866442061487452703e-03 2.125290505101838992e-03 4.385564023425412850e-01
-2.276545268146623613e-02 6.712082555632895020e-03 4.386801021252296207e-01
2.530563209715474757e-02 5.173732399605600329e-02 4.694768348809522096e-01
3.550906538157845571e-02 4.313466794679143845e-02 4.743075254859457912e-01
3.815668977746872192e-02 4.508600112917042491e-02 4.823625035549596873e-01
2.911945064070534453e-02 6.278544591772233785e-02 4.895007816404562395e-01
-1.780545212357132964e-02 5.998685714541576036e-02 4.624516270781568461e-01
2.740631912839018927e-02 3.896610117283064167e-02 4.643554907555683120e-01
2.086753428658463805e-02 7.376181873963438829e-02 4.865275179900494518e-01
3.235798157277004067e-02 3.427079882004140793e-02 5.144564657658723394e-01
2.576789553902542398e-02 6.782778630630034722e-02 4.843708706923068319e-01
3.124113049692635660e-02 4.184879461976876575e-02 4.684534967966367813e-01
3.856802343192690385e-02 4.458996741570056543e-02 4.839854385074563448e-01
-2.328719570422359622e-02 2.044061095961333292e-03 4.375606890159830509e-01
2.506519096721529678e-03 3.001510081491451376e-02 4.512627063052361276e-01
1.454170243847119175e-02 7.628254387585738094e-02 4.931951345591190083e-01
-2.589758938499434060e-02 1.944595067278501697e-03 4.379575943123848458e-01
2.711886831303188944e-02 6.570265503124342321e-02 4.853068587843378801e-01
3.740365341724487258e-02 4.653978274743768295e-02 4.824772489874104009e-01
3.441318984179111279e-02 1.473554221248269541e-02 5.236649135436906022e-01
-2.130450873355942479e-02 3.580747432122974132e-03 4.378780827233276773e-01
2.976192260797497907e-02 5.683383475028265519e-02 5.049855970654025805e-01
9.223953260107694077e-03 7.853546333799210633e-02 4.765400504021222727e-01
3.087980392183123368e-02 1.702561776878073335e-02 4.557286982249505458e-01
2.228223894504125294e-02 7.159839989029312401e-02 4.917366448441601312e-01
8.442035600125600767e-03 1.675204352344104863e-02 4.470791423827140676e-01
3.173933836020572524e-02 3.070202657732012952e-02 5.205836127883340936e-01
2.738062710915194209e-02 6.564735766422045982e-02 4.893088172700590932e-01
1.947001693325186092e-02 7.377246546353050105e-03 4.460166194468710987e-01
3.176663151408554153e-02 5.817075787289493344e-02 4.908574841421673995e-01
2.959819193614085520e-02 6.174460869885364106e-02 4.861002655486924007e-01
2.885218856266860352e-02 6.035649347542667437e-02 5.012885169387201190e-01
9.228570645821183166e-03 4.908654699396232390e-02 4.602278389060233121e-01
1.027204595157981543e-02 5.105704855136694587e-02 5.289089710471155392e-01
-2.320732593314653314e-04 6.279770512234858493e-02 5.310932767918583597e-01
1.918298732155506239e-02 6.729176105698903010e-02 5.070191282907108299e-01
4.101664548411145667e-02 3.718783411095601121e-02 4.951473804072358265e-01
1.223385666099692168e-02 7.773958444027648240e-02 4.796165336533326218e-01
1.873699807617078966e-02 4.958880864746127021e-02 4.641583019488489947e-01
1.803675606966641948e-02 7.130703562055806799e-02 5.021695780059012293e-01
-3.982566225205426413e-02 3.617302783020242152e-04 4.409965700085930473e-01
3.101426411149947604e-02 4.923272608267717509e-02 5.107581215795350404e-01
-4.077677582897624303e-03 1.678001288264852411e-02 4.446205526529957153e-01
5.061784655314216681e-03 6.415108981999717574e-02 5.147810727969387434e-01
2.709006413833778618e-02 3.370858738835935675e-02 5.253295353862853512e-01
2.018791500051616769e-02 1.183211759626782988e-02 4.481698152464966833e-01
-2.249756631549833935e-02 5.755395324543768898e-02 4.613537680678744257e-01
5.476146938876888873e-03 7.024894484806312733e-02 4.996206771671913849e-01
4.117207757572925730e-02 2.710738203808998187e-02 4.712204571034928624e-01
-2.993652571543056751e-02 4.410565380193406243e-02 4.539866645328605177e-01
3.722258484990636357e-02 3.932205975655503338e-02 5.063440280098149282e-01
-2.153726823845309932e-02 4.214371520294416668e-02 4.528738453163679289e-01
1.440403510172887785e-02 6.191951414877936571e-02 4.668659627522011024e-01
-1.485887227853825363e-02 -7.636977569918792369e-03 4.366420321179032005e-01
2.901476350496558915e-02 3.608586549059526055e-02 5.189169571225427102e-01
1.457802420413160070e-02 5.389694292372496434e-03 4.437204159363417055e-01
-2.354711347363626361e-02 2.505621054788597507e-02 4.454074350639670721e-01
4.478628440166945029e-02 2.616403678831110899e-02 4.887259304477437061e-01
8.971058814034062884e-03 5.917381769811906611e-02 4.634607217363940213e-01
-2.767770278791088778e-02 1.428849930963921235e-03 4.381517671798278446e-01
1.836071692805795255e-02 5.220707736020344797e-02 4.650766834048794540e-01
4.393669875300258709e-03 4.470816975674832966e-02 5.364575041098419428e-01
-3.724277704039463677e-02 2.955793856454333457e-02 4.475027803532816706e-01
3.715375183145554899e-02 4.463722274306528709e-02 4.789073041236083794e-01
2.121451011588001284e-02 2.294172900360862133e-02 4.531405025795607888e-01
-2.541254722738366459e-02 4.023926274918770973e-02 4.517220089657568716e-01
2.364730451878475914e-02 4.937213183593520266e-02 4.670406133903223234e-01
3.285597979713435896e-02 4.141186819029679667e-02 4.695106581417307079e-01
3.436362852969606502e-02 4.888710066023190665e-02 5.052792180417705614e-01
1.505078567590460541e-02 6.081050454469746902e-02 5.220111921720357318e-01
2.506770486633392442e-02 1.979825431968210495e-02 4.535834273025797780e-01
3.962615176559534935e-02 2.295606523570050891e-02 5.081842671334410033e-01
3.948815825738932750e-02 4.169205212604226024e-02 4.816646887887974793e-01
1.868086692093032589e-02 7.231516721614615617e-02 4.768851764082476241e-01
3.717974170003721796e-02 4.053776820534105846e-02 5.057920330821257249e-01
3.252336722076079600e-02 5.163116761831318402e-02 5.066460508757620884e-01
-9.068047526017551652e-03 5.666578461587813698e-02 5.302223220198563070e-01
2.116964522945305807e-02 7.187235941637233616e-02 4.950370518019910349e-01
-1.001900337721644500e-03 6.176827473439484850e-02 4.616962879741774439e-01
2.880787281464472840e-02 4.830839308581006547e-02 4.705169267492240182e-01
1.410493317275986550e-02 6.499561561277110433e-02 5.175831302396672884e-01
1.621844765806745858e-02 3.618303069343552919e-02 5.320911403326468170e-01
1.399303047469242431e-02 7.570598705873951562e-02 4.761652135850204526e-01
2.331645233094700384e-02 3.857268852496104072e-02 4.616394528877942882e-01
-3.712287896266116410e-02 2.636858300377367247e-03 4.397312296378131369e-01
-5.760493534182698286e-04 6.007752513122027044e-02 5.223410671197203925e-01
2.959499916690200294e-02 6.193969904880650135e-02 4.910033854366931960e-01
3.583058653743097927e-02 4.899360876198399772e-02 5.008719750126647829e-01
1.938007511242142988e-02 7.390940985654738393e-02 4.954883695923523734e-01
2.462458489613922157e-03 5.983641082824771307e-02 5.317713763905077551e-01
4.069326246809001901e-02 2.771040940596640467e-02 4.706488764855399909e-01
2.395388632108257781e-02 2.522320801779068603e-02 4.555379344071419645e-01
4.592250945637991501e-03 5.522932643469825181e-02 4.606936489595599427e-01
1.059916494860143818e-02 7.689683074805586660e-02 4.871390557556714573e-01
2.641744242119765593e-02 3.788765104662533689e-02 5.217762149508844427e-01
-1.495824054534625712e-02 3.596903934650937107e-02 4.509497484510713305e-01
4.232547052858601222e-02 2.690213569072655991e-02 4.986296991949434876e-01
-2.026313523675796896e-02 3.155535093325832763e-02 4.483403449160542897e-01
2.725125296900155272e-02 6.580660952647525430e-02 4.901733515038235178e-01
4.288882609916479238e-03 5.020213062122656084e-02 5.350057375726313680e-01
7.276199322439299774e-03 6.645407211610313003e-02 4.660610037043241838e-01
-9.022017842125647225e-03 1.811775275044402375e-02 4.442843027931101529e-01
4.054740936357376785e-02 3.591744368898174000e-02 4.774202992510332977e-01
2.777313876547565785e-02 6.474289147183551196e-02 4.864440119499787163e-01
-9.356229643051328093e-04 5.594826879160026689e-02 5.356571296033190155e-01
2.702210804912445752e-02 2.442141467954081838e-02 5.263037558787553305e-01
3.601199014323586134e-02 1.953823400280945213e-02 4.604524574368277778e-01
-2.215749239092294764e-02 1.297783776670337862e-02 4.408163103106876868e-01
1.284575178411510865e-02 1.593967901191119946e-02 4.477220685878080531e-01
3.917220919050370953e-02 2.568369044621223937e-02 5.075837915621790319e-01
3.832311277929362821e-03 3.754028899325660695e-02 4.546103475725879473e-01
3.924333688534940856e-02 4.332288518645537045e-02 4.941240559970589974e-01
7.126075556248966103e-03 4.810653585268945959e-02 5.340563339941288845e-01
-1.895707776988203586e-02 4.282064754737235739e-03 4.380713512772231866e-01
2.191295183777764929e-03 3.196855060112273328e-02 4.519993370616705586e-01
-8.813674240632427687e-03 1.361587305467784614e-02 4.425977028321639861e-01
-5.584925138287238564e-03 6.081188452836174679e-02 5.309686722366847578e-01
2.485487588201160808e-02 4.806724392299600856e-02 4.672060383634401015e-01
-7.625764077901503110e-03 6.174671116146927125e-02 4.614632464055936079e-01
2.014504337811949541e-02 6.183549623483415580e-02 5.153724378113054838e-01
-2.258579589800061363e-03 5.904838751104322242e-02 5.215657011075325311e-01
-1.070988492067258269e-02 3.236234816636042455e-02 4.498998502343060646e-01
2.209686504804680984e-02 4.891073115490752327e-02 5.199014669213345430e-01
2.712366625969291067e-02 2.339716915319302662e-02 4.563545061098246980e-01
4.557849467818455430e-02 2.271672453688160231e-02 4.834302059820066999e-01
-2.457346879517151306e-02 2.873357590782830290e-02 4.468129547437229010e-01
1.197257009611312623e-02 3.709909926027805949e-02 4.564146256716423711e-01
2.834779274382028674e-02 6.415743024560897900e-02 4.901652012242692091e-01
1.126334917339236706e-02 4.645737113016403658e-02 4.599566530053262325e-01
1.525515300024521230e-02 4.626153533239232840e-02 4.612570279968258302e-01
2.937366593491031255e-02 4.655283525683292373e-02 5.140811751231847415e-01
3.701260467930055087e-02 4.835398772708761339e-02 4.924725174427954655e-01
3.774534155895924170e-02 2.772088187367666504e-02 5.094090609720681728e-01
2.773217864418234951e-02 9.170128128908217047e-03 5.282757965931956790e-01
4.443807661687612827e-03 3.420393852490522489e-03 4.409329434100617839e-01
2.271494658187433666e-02 4.097056454922762964e-02 5.243681162655727812e-01
1.719905246222023371e-02 5.476696346511759905e-03 4.444288395328866437e-01
-4.049560561355788207e-02 2.901900857675579828e-02 4.479250373369005889e-01
-2.335497475124829678e-02 2.596170916446193661e-02 4.457526197632757370e-01
2.710133739596417429e-02 2.288340748322484353e-02 4.561022592880817350e-01
2.430505552571132419e-02 2.431250762166380086e-02 4.552953897115236681e-01
-2.695149532999915540e-02 2.516139043844629886e-02 4.454534215720790113e-01
1.953869934922188370e-02 7.477388225601754035e-02 4.859183095642749528e-01
-3.167495841815007318e-02 4.114299593543004757e-04 4.385775529680547846e-01
-2.695375603794387953e-02 4.875998839967439491e-02 4.565523744046239285e-01
-3.752768131054346618e-02 2.275497744431947966e-03 4.399497819154610245e-01
3.038046295303932498e-02 3.693928504518978473e-02 5.161538043194839886e-01
1.458743661059615053e-02 4.503391756514834449e-02 5.295713861468661632e-01
6.643153233840207346e-03 7.264985255086658933e-02 4.974191944302183699e-01
3.028558166910449295e-02 5.190061131921759607e-02 5.103682225289819518e-01
3.096498238706938896e-02 5.891687065920976629e-02 4.821080858218907972e-01
3.435910017416072409e-02 2.620973607365952029e-02 5.188707615639943649e-01
2.903914664091838613e-02 4.626182863870090950e-02 5.147528197507728054e-01
4.057036551643131324e-03 6.855139101697078907e-02 4.666525523010092158e-01
3.517362082830216563e-02 3.102102309937685570e-02 4.658375052775335368e-01
8.729247009599368917e-03 7.142350994849860912e-02 5.019793133989958189e-01
1.325026818750986782e-02 6.701333219716087974e-02 4.685143034612753721e-01
-3.137155066234454531e-04 6.018966473136243278e-02 5.210870256869289951e-01
8.929099256380747598e-03 3.234483822348011017e-02 4.536465817064270212e-01
2.887774344639332334e-03 2.634013488554273752e-02 4.498457068228294831e-01
1.516903374371547306e-02 4.911278149158074258e-02 4.623710399105606661e-01
9.329329949006618869e-03 7.971393117932082384e-02 4.781378253265665679e-01
4.217322658093955977e-03 7.120736349698372769e-02 4.700252965517232595e-01
2.219836517573246445e-02 4.169925956126682015e-02 4.625504502542284180e-01
-1.062070097884533840e-02 6.066215162914104751e-03 4.395848313106735517e-01
-3.355574731318330256e-02 2.210449758990522262e-02 4.448132714438893243e-01
-3.547069776323391772e-03 5.603205253068811731e-02 4.589457967548241091e-01
-1.944777879041399010e-02 4.863188425900730888e-02 4.557684979373118894e-01
3.444107739249260142e-02 2.848255933572516052e-02 5.162340094978425942e-01
-3.711649987800608695e-03 5.906744798209409564e-02 5.251939717173328415e-01
2.400907335739405069e-02 6.370452300206425056e-02 5.078845703268117795e-01
3.177146059916671067e-02 5.801899572751280376e-02 4.851069153937511702e-01
2.630041436480104119e-02 5.467334312484730535e-02 5.138181963858453605e-01
-4.229478674473560393e-03 6.279833409523014054e-02 4.621167211616156734e-01
-1.992921391674045556e-02 2.587753117942957412e-02 4.458542775928135971e-01
-1.616686792682295662e-03 5.385597655287412827e-02 5.397008806981377083e-01
2.251067556623621846e-02 4.889412603994428008e-02 4.660040231399136812e-01
2.117763754630364037e-02 6.950866704395453066e-02 5.002506254727248081e-01
1.567463266144525011e-02 5.774703890388099836e-02 4.657928552471598538e-01
-1.141598311173488978e-02 2.240449997085703845e-02 4.455332851479603673e-01
2.716670368969249794e-02 2.414181364176073985e-02 5.262640751323508503e-01
9.585538767849776168e-03 6.394689486579807625e-02 5.227746610480017431e-01
1.026469157764383841e-02 7.726439274152802072e-02 4.863671403654686864e-01
2.131320253905414838e-02 2.182788679355498682e-02 4.526082877566298679e-01
-4.102199144552264205e-03 3.745810304918584938e-02 4.530189714504737619e-01
1.160102434133588288e-02 4.605900101234856880e-02 4.599254077528873164e-01
5.208660639237078574e-03 6.363402833301275846e-03 4.422047789009768137e-01
1.505064512062041261e-02 7.387004651566259072e-02 5.005882540559899452e-01
1.650225881893416582e-02 7.683202984081001496e-02 4.867783091183458533e-01
3.333390528467011782e-02 3.361086829135027931e-02 4.655533383839571826e-01
1.785413246895144537e-02 6.071101931893749248e-02 5.190811461868797272e-01
-1.212482198006714119e-02 1.663715732988620827e-02 4.431885490278102413e-01
3.913480461333343485e-02 4.372150316110138407e-02 4.874870518218203941e-01
-1.698864531110288664e-02 5.975328383448388209e-02 4.619622477013157202e-01
2.366422708050493900e-02 2.543178743990386070e-02 4.554830121812920574e-01
3.720793424946784028e-02 4.828941805343868465e-02 4.894390238794080195e-01
-2.501188651698890361e-02 2.613385494255308569e-02 4.458486015486221588e-01
-5.030968789872735172e-03 6.177040070055759419e-02 5.350140918197956452e-01
3.716402190477519074e-02 3.796221397813729498e-02 4.726001026519497383e-01
-3.126403934407373346e-03 4.461187566689248096e-02 4.556650224563775775e-01
-1.100990436237100564e-02 2.882723773520044774e-02 4.482506802006142044e-01
2.790006115535675554e-02 4.566974873590616546e-02 5.161191131212647942e-01
3.199145172410614718e-02 3.968705063510513664e-02 4.678000868122457745e-01
2.198915178879231810e-02 6.736609835467254059e-02 5.024925843099952161e-01
2.739858429986772800e-02 4.300271405640674477e-02 4.663475078711445398e-01
4.129005617072988715e-02 3.497511267060702395e-02 4.783154666659648613e-01
8.228336219508837479e-03 7.117271529621134463e-02 5.018211833956750523e-01
4.185276427967665747e-02 2.943277035153229332e-02 4.982621947727328693e-01
-1.975825470210190032e-02 5.003301556334571049e-02 4.563902953853984368e-01
1.566517283922391757e-02 3.632729393352692598e-02 4.572447192904013358e-01
4.033323559485374812e-03 7.934876058071425702e-04 4.399752220559743354e-01
-2.595368291857389625e-02 2.889207518102153774e-02 4.468929354638430662e-01
3.284573968363720814e-02 1.907614928049947839e-02 4.579776392061291612e-01
-8.988894733375971807e-03 3.798897799458058472e-02 4.526631732928387275e-01
-3.930804070710437921e-03 2.173351340006102195e-02 4.466267304639168212e-01
2.932855383034646199e-02 3.423397979380937012e-02 5.211057473831165465e-01
3.915086427407250824e-02 3.733162186391736359e-02 5.021008673090838759e-01
9.645052076500510232e-03 6.816286272618284070e-02 5.090509553104597407e-01
8.531141802147089101e-03 6.871243323594784791e-02 5.077167920372973597e-01
-1.410972548790879674e-02 4.408992854422872504e-02 4.542712251328049344e-01
-9.005976054214307261e-03 1.431952263828506836e-02 4.428382000318560885e-01
2.224800525517265162e-02 9.545604548939269976e-03 4.480089542218723686e-01
-2.968896048531164886e-02 1.046603281594356109e-02 4.409683160778969380e-01
4.058689078310711434e-02 3.851462668156763886e-02 4.814488680490582873e-01
1.739766599775856813e-03 6.081059525753611250e-02 4.613653747451608722e-01
3.662783317469262001e-02 3.240028001234587784e-02 5.088377681475438896e-01
-3.695008174213370352e-03 5.247644937013599964e-02 5.394886579764764933e-01
2.010974948438681506e-02 5.226050659012871497e-02 4.659671408174986817e-01
1.819071081656649033e-02 4.577309326570926096e-02 5.248470037095214202e-01
1.253218077979221037e-02 6.462639863483027325e-02 5.200959844193491222e-01
-3.415577466906418412e-03 2.429264703130735656e-02 4.477589683522090191e-01
3.414190436596495348e-02 4.527886743325063024e-02 4.740418651727637545e-01
5.366193541337137447e-03 7.771426058852060059e-02 4.788413690514262688e-01
7.459574082942382195e-03 7.099118917581088983e-02 4.685897944590021735e-01
3.755359148458278090e-02 3.399547134415453753e-02 4.696023904068654664e-01
1.006133560136708051e-03 6.198013410048114347e-02 5.243231101910532654e-01
3.020590505514527541e-02 5.555019655740691537e-02 4.763150292923400420e-01
2.564253763573105631e-03 1.094195592235225507e-02 4.435543191353435999e-01
-5.402763242130484596e-04 2.398848976572864888e-02 4.482023581343771990e-01
3.092293134085101827e-02 5.645043329458172138e-02 5.019830336214056166e-01
1.801908161215574899e-02 1.636794511116703224e-02 4.490448015571352203e-01
3.973601394403870196e-02 3.634451122107121290e-02 5.009255697669153795e-01
2.501546511529097183e-02 2.971490908957635096e-02 4.582092042433097423e-01
3.371694450773682350e-02 3.708134951994090239e-02 5.123742279759434526e-01
2.871675805036586968e-02 5.746787541459063425e-02 5.073192903308946233e-01
3.193512238526294289e-02 3.062994959043761553e-02 4.629709091617217886e-01
4.043466833466315136e-02 4.053024887182116176e-02 4.927439962095001014e-01
3.487545858682159633e-02 1.487193227716758666e-02 5.232327836900938500e-01
2.159142924455044465e-02 5.011755980423892448e-02 4.659782629218199301e-01
-3.957561985783334541e-02 3.703474906826405982e-02 4.510106783198043479e-01
-3.473400388585396598e-02 2.987253271631547247e-02 4.474832089484011011e-01
3.437858310411635865e-02 2.508149398130881183e-02 4.619196356247547430e-01
4.189579129623428010e-03 4.371335724299635350e-02 5.363420498615535381e-01
1.945307990108350628e-03 6.012509235489586074e-02 4.612478949590824717e-01
-1.392947848166518031e-02 1.116555066853014769e-02 4.407724084076512505e-01
3.606053300189641930e-02 5.028917265780095958e-02 4.907503697045703661e-01
3.485351727683327211e-02 2.156191055230916032e-02 5.193955156874779933e-01
2.414881839240669986e-02 5.750872937547214792e-02 5.142523644593299803e-01
4.013341504999812237e-02 3.850136849784784737e-02 4.989552151342720454e-01
8.091120680252382458e-03 6.547268644624061606e-02 5.112451345235057287e-01
1.315850810241850008e-02 6.634463541976619305e-02 5.142628739562137286e-01
-1.466641496354301535e-02 7.284135783183758907e-03 4.393413335635644734e-01
6.983600637165421517e-03 6.504353426754951040e-02 5.171988064532694329e-01
-6.317879363004295229e-03 6.075077958485708418e-02 5.358519107504279289e-01
1.671631783543821997e-02 7.100684017086586475e-02 5.044600017345129972e-01
1.715052154555572056e-02 6.490814609064604612e-02 5.143252716606636632e-01
8.092061650494801472e-03 4.814652142611609842e-02 5.331396493418125715e-01
2.652199912958526015e-02 4.379832536788886427e-02 4.661576971012825754e-01
1.451381564248165924e-02 7.528857174072441094e-02 4.980613892436823176e-01
2.837196363145725458e-02 5.483562776247818960e-02 4.739069177787294529e-01
-5.551694194277118511e-04 4.510259700859843568e-02 4.563270649929117018e-01
1.160726424392329731e-02 1.308101768088000549e-02 4.462667291339411646e-01
2.323719046527032012e-02 6.137202072169235800e-02 5.119317654479026425e-01
2.686516820528022514e-02 6.335357733569961514e-02 4.778647555911269551e-01
5.035042678460357329e-03 6.128671929670446994e-03 4.420752752228407356e-01
-2.698823176199615856e-02 2.536665127526304200e-02 4.455443631110039826e-01
1.817532511645506953e-03 1.869796651397730158e-02 4.465463711189940899e-01
2.942765581222221358e-02 6.572551297798693952e-03 5.306609490470239887e-01
-1.745518336772249393e-02 1.126471091293026333e-02 4.401973101912641240e-01
2.818197341464231259e-02 5.834674743226632432e-02 5.072428073943684446e-01
3.696553802407535894e-02 4.681186484152012606e-02 4.815172830501937562e-01
2.007634725705976717e-02 3.595808271521789418e-02 5.304258646516351039e-01
9.806614943430514222e-03 6.363751887228238924e-02 5.242344253389545905e-01
2.751477295045077001e-02 5.111118117912092501e-02 4.709407390619471112e-01
-2.574190509032827159e-02 5.803107003817707665e-02 4.648159418562746170e-01
-6.292209649485238157e-03 5.952576217597290581e-02 5.391212108462625219e-01
-1.336177838403165667e-02 1.302570647928362989e-02 4.416095123549497736e-01
2.626359147244202580e-02 5.268637646878494840e-02 5.147904408288153100e-01
1.135749165223082918e-02 7.873617192817228272e-02 4.786579880005690790e-01
1.703169779223210126e-02 4.485876768731335285e-02 4.614180039920013909e-01
4.076290188977411272e-02 2.723206264966437570e-02 4.704566830918178733e-01
3.546141895323879495e-02 4.566187042105079169e-02 5.057704526380718546e-01
-7.961606871064640101e-03 7.276850212562699718e-03 4.404108368824888875e-01
4.288230083876197474e-02 2.661878810811237756e-02 4.974402095582179939e-01
3.716868214914972185e-02 4.349062313853554324e-02 4.777949762457521787e-01
2.489445091641929314e-02 1.723373775202104163e-02 4.522949447948498847e-01
3.556069207669475263e-02 4.966591535826608839e-02 4.995536634268665233e-01
3.377292269570678768e-02 5.259328108611092956e-02 4.993921793468120152e-01
2.309820545939823139e-02 9.361487365471649405e-03 4.482591172158512660e-01
3.145149673903932953e-03 5.154250524828920405e-02 5.353683316738595543e-01
6.202147309779725178e-03 7.197239815223460679e-02 4.703079791355890271e-01
4.302577606957841416e-02 3.170094373388872983e-02 4.863053425557689602e-01
2.293867994436592922e-02 6.596982870496789775e-02 5.034453387337539665e-01
2.332901737601716929e-02 5.488830686561620847e-02 5.172560775655008491e-01
-1.947675632451397083e-03 6.262970972297277061e-02 4.622611410287812417e-01
3.755991614005818602e-03 6.365529995248063455e-02 5.158631002186918613e-01
-1.607082345057011044e-02 4.170210924532055663e-02 4.532297072686720107e-01
6.904098833176101901e-03 4.145337243024856816e-02 5.354739467326655733e-01
2.962343770115288474e-03 6.316683864971556206e-02 5.288878750490244585e-01
-7.270636941141046632e-03 5.965196827946568636e-02 5.331635084531244351e-01
3.622054881637929574e-02 3.157720341512919998e-02 4.670231233547613714e-01
3.017679629566352717e-02 6.089352292555880175e-02 4.880965255176233364e-01
2.200093331347335174e-02 1.557482761684702080e-02 4.502156414688010533e-01
4.307490209994246921e-02 2.863664681843967885e-02 4.774361776089036669e-01
-1.207402448129077724e-02 1.154981430651183354e-02 4.412562574641353819e-01
2.659743969131558514e-02 6.669884550103967469e-02 4.889347600077120770e-01
-1.488211681547778331e-02 3.122779281431117999e-03 4.379887173392072452e-01
-1.597342321485891586e-02 3.032324131313444970e-02 4.481830424612421870e-01
2.139484089070446682e-02 6.634074136907407160e-02 5.062961790187647804e-01
3.669589370813314266e-02 4.424774445483103252e-02 4.776038796606611458e-01
1.960294557617273115e-02 5.773235470023453664e-02 5.194631722986940980e-01
1.276335825184595797e-02 7.100701220400403024e-02 5.070726573665378378e-01
4.255057158362718361e-02 2.500740739042159669e-02 4.726095590155112713e-01
6.402992845317366163e-03 6.453428687667428498e-02 5.146764794914321373e-01
1.942473023785029618e-02 4.092759142541387701e-02 4.607691129093557381e-01
3.060618789444023713e-02 3.029697621265670104e-02 5.228288948326968999e-01
3.077374008919362552e-02 2.160358996663192324e-02 5.238268870025973856e-01
3.135599329327553447e-02 4.877978246972299731e-02 4.736176339530636104e-01
1.001592879520759975e-03 6.210567684162417862e-02 5.245411820848072670e-01
1.595966242151200531e-02 2.561775452176504389e-02 4.525991061158456397e-01
3.172360559308035066e-02 5.799554493057042237e-02 4.925420549881517895e-01
2.920330647129845345e-02 8.430249423628291203e-03 5.286925279366776476e-01
7.519214511984393876e-03 4.901717757608208687e-02 5.325202566181718167e-01
2.950759680605098689e-02 5.922231519304059499e-02 5.013584126917954853e-01
1.259860162981810139e-02 7.446367783242317795e-02 4.996689200606148629e-01
3.078957671828850412e-02 4.291386848981829094e-02 5.142458716799217511e-01
4.189631042821991697e-02 3.437463229545621030e-02 4.935454726330574804e-01
1.812266639912607502e-02 3.201712129804930307e-02 4.561242595726903160e-01
1.056213117024852556e-03 4.825945891777130847e-02 4.575368175995846998e-01
3.926091355315498854e-02 3.288229270894266199e-02 5.029824510584249841e-01
2.631668422801976964e-02 1.594828223027606670e-02 4.525422579086390562e-01
-1.597805016557544630e-02 4.261773999297747972e-02 4.535746428731324831e-01
2.431517528130109837e-02 4.786027274119511454e-02 5.184180395951549780e-01
7.203471430852488588e-03 7.555550746231129433e-02 4.739138704254695633e-01
1.391936993812815417e-02 7.403598570195614459e-02 4.740920859976393564e-01
3.958527442733764112e-02 4.261068576503587724e-02 4.882542316649918224e-01
-2.045383781989793676e-02 5.241557011211157857e-02 4.573452904022424770e-01
-1.932057383359959968e-02 1.124861662477110238e-02 4.401542491767717613e-01
2.098787709591612427e-03 9.413406401699549522e-04 4.396703957103618721e-01
2.011503790399199465e-02 3.759950950059322977e-02 5.304856864883129575e-01
2.381049272904294661e-02 6.098182307409254037e-03 5.314749789506689748e-01
-1.517014330047134797e-02 -5.278243494323142486e-03 4.367449861249972365e-01
6.468295208519193006e-03 -3.034315818702362950e-04 4.400680352792663563e-01
6.610752228360964808e-03 1.576108740370327221e-02 4.463107233639680982e-01
-1.103042345603732349e-02 -6.855439881966172468e-03 4.365202830219990782e-01
-1.082698853269455953e-03 6.069267176665815028e-02 5.343997394856933036e-01
4.303700501382814320e-02 3.166451772108268281e-02 4.863084101044334306e-01
4.019044761248308228e-02 3.995866586001718679e-02 4.831156383218313533e-01
1.111405085977321822e-03 6.132408404099053828e-02 5.160003329615663326e-01
-1.173153777330073616e-02 1.353584633000342458e-02 4.420787936530465867e-01
4.128420658572448665e-02 2.947699104973729861e-02 4.996241389316510295e-01
-2.012394389620931340e-02 1.768951089319224790e-02 4.425725699623638820e-01
-4.052690092304980785e-02 2.357975886992504794e-02 4.464311038418398714e-01
6.716324306591443284e-03 4.291354768391630881e-02 4.573884974903936196e-01
1.784068286830159736e-02 3.699388109565440036e-02 4.582068641629957750e-01
2.402651458598017986e-02 6.686944429583913108e-02 4.991155657316771466e-01
2.073099284782752016e-02 6.592508225535601007e-02 4.729518812790237114e-01
3.115109154744584788e-02 5.852682810851699002e-02 4.946136267425433886e-01
-2.933465405493261222e-02 2.183679016833180164e-02 4.442478638833959326e-01
-2.715325188584207655e-02 2.958253559004719521e-02 4.471641748000197425e-01
2.055746607667923234e-02 5.426582969659218131e-02 5.197233635011651032e-01
3.457711142154912265e-02 3.182226554892749609e-02 5.134228339853773582e-01
4.357910174999912734e-02 2.811458763604783931e-02 4.798270231752567727e-01
2.626738568951953248e-02 3.792045963863667490e-02 5.220520966394431861e-01
1.168611473908193199e-02 7.830810758461470567e-02 4.815382921057544952e-01
1.963387083014802442e-02 3.863520636640992850e-02 4.597650511088000047e-01
-1.421113794117549907e-02 1.625176500068560223e-02 4.426894275424479441e-01
1.411188927528346862e-02 2.811810824660425714e-02 4.531056021464415773e-01
8.072275329828721910e-03 4.643541257970645875e-02 4.589227826365216423e-01
1.396345125755378905e-02 6.368865372607414310e-02 5.199818462777806571e-01
-2.591232709837604231e-02 3.206541593720108746e-02 4.482011098263742332e-01
1.285894525341938106e-02 2.892269830249418611e-02 4.531171030080007323e-01
-1.997957139944531169e-02 5.366549511748702067e-02 4.579677876654665303e-01
1.680466294542110745e-02 6.106689855925660076e-02 4.677234553577817588e-01
-5.558071747029125556e-03 3.868531904064372029e-02 4.533265503471731184e-01
9.965268399811027383e-03 6.509960680332892158e-02 5.182021916334283995e-01
1.892415745498405785e-02 6.069601471849601915e-02 4.686407694918158229e-01
2.372060811795009133e-02 3.485049837795289179e-02 5.281757232315490436e-01
1.415944690297842555e-02 6.541398933550822414e-02 5.163052913336216854e-01
2.527012934380929929e-02 6.767574112040597445e-02 4.924877569060066018e-01
3.124584028160227317e-02 5.883385927781625141e-02 4.837318084007216634e-01
-4.088343454337408506e-02 2.481821193733440775e-02 4.468364027956433504e-01
3.490715510471049249e-02 5.264889579348703413e-02 4.883841147078241129e-01
-1.868233655964056036e-04 1.297796618529694496e-02 4.438603393566281641e-01
1.754599579426170675e-02 2.884471907108251271e-02 4.545298607394035462e-01
4.482077899018593187e-02 2.359844097646595154e-02 4.787981225498121329e-01
1.573950913677865660e-02 5.121407445895899413e-02 4.634715794327400329e-01
3.484389915537630666e-02 4.584577473629786182e-02 4.755297803211062102e-01
1.222978776573296900e-02 6.675761609295371990e-02 4.678553070874816866e-01
7.095754805788282576e-03 8.074912437719196021e-03 4.432749937501835880e-01
1.057839207297932987e-02 5.521836043791814030e-02 5.267099745685785983e-01
3.467726382936876101e-02 2.112749641024150304e-02 5.200348347549182959e-01
-4.503030981147047168e-05 6.991454897846131888e-02 4.684810470484684353e-01
2.288071335570095524e-02 5.648733622442851654e-02 4.698820800868648284e-01
-2.449565804904321395e-02 3.175650080845848766e-02 4.480793561104860490e-01
7.781823316985451988e-03 7.937369537928681829e-02 4.768825805255196282e-01
4.427269322436559393e-03 2.165150215500451052e-03 4.405082173572676396e-01
3.607979500813780771e-02 4.948928685036557001e-02 4.837611652908972992e-01
1.119292295595038234e-02 7.766573134017858149e-02 4.853856459190107886e-01
6.578115179099088689e-04 5.377580255825881173e-02 5.359271924089346051e-01
-4.151960560770290298e-02 1.336484498483424222e-03 4.416063991769955122e-01
5.180314481314521324e-03 4.309402705303725517e-02 5.360548882229555501e-01
2.596575267143995391e-02 4.223871746227353396e-02 4.650158504016418393e-01
3.238370167261834381e-02 2.140513562764086164e-02 4.586920620204455457e-01
2.594483954466403688e-02 6.626345560670043877e-02 4.808136162058994079e-01
3.677907020378087810e-02 2.341193319875374892e-02 5.155659312394379468e-01
1.741037502796191627e-02 6.951252661322705750e-02 5.056899128055242221e-01
7.905560705453189632e-03 6.261644276183971070e-02 5.274183035959864041e-01
-1.238991897621140315e-02 6.034147313476444924e-02 4.612945503488678489e-01
2.471925314488650910e-02 3.552003656723319580e-02 5.268491324055710745e-01
2.550866703810240887e-02 6.003764977692781918e-02 5.104564046347083162e-01
2.854880582519490201e-02 5.579509679535998162e-02 5.102221864016083241e-01
2.965503877342021491e-02 5.631666825844026947e-02 4.761392071637785550e-01
1.622833662539964125e-02 7.660034679674397606e-02 4.901995643316116036e-01
2.536111143164482273e-02 6.744474049160699425e-02 4.928684984695804183e-01
1.542787115374576537e-03 7.050495510294697843e-02 4.691642714783594847e-01
6.418231662724344089e-03 4.377948590693197389e-02 5.359068034677274550e-01
2.832450039301892195e-02 6.414112779961972377e-02 4.893611758864041539e-01
1.955011531233699987e-02 5.657972322864007059e-02 4.674385093552947956e-01
2.538509241747945178e-02 3.298472871675622864e-02 5.273346634768092400e-01
2.833832064053605840e-03 5.141026875770645516e-02 4.590202896867436877e-01
1.036075045794963151e-02 7.454019176351661669e-02 4.985365213985077926e-01
-2.410646842906517817e-02 2.936050826827168655e-02 4.470760445469431632e-01
3.226333101058249941e-02 5.639727636529511673e-02 4.953491413787008968e-01
1.546579519423132293e-02 4.060277209243909335e-02 5.327983552480138885e-01
4.261077805119781181e-02 2.759048922827716036e-02 4.750536094758089356e-01
-2.109503368966707260e-02 4.647873615259661556e-02 4.548045877110408752e-01
2.466032713808992763e-02 6.303449489091897395e-02 5.077143623339207545e-01
1.882699359973050504e-02 6.485660965314855864e-02 5.128327428019909817e-01
-7.311361443361449712e-03 6.032659168752344675e-02 4.601042271746892953e-01
1.592449148734985040e-02 6.041075148524131105e-02 5.213773941783218513e-01
2.855810405067426769e-02 2.288786877589411503e-02 4.568933974245520946e-01
-2.986036923457163761e-02 1.056901640624802706e-02 4.410470742060232929e-01
-1.144676122288692914e-02 4.038029255146386581e-02 4.532735921525290479e-01
1.282080655799483840e-02 1.920206324018203931e-02 4.490492121741979092e-01
1.401356868973597895e-02 7.444600995436526092e-02 4.746656052146752125e-01
7.420347213867439264e-03 6.511342144259479880e-02 5.176460087867948978e-01
-4.390853838129395864e-03 3.473039519982155671e-03 4.395270632672809707e-01
5.300855546102670179e-03 3.043715978337799971e-02 4.520236227418438224e-01
1.841330352808743034e-02 1.670053766055491079e-02 4.492749791603806719e-01
-2.030883381684525819e-04 3.893210799522641569e-02 4.543470125433699547e-01
4.320303672613287627e-02 2.770817313073316648e-02 4.953240850037893828e-01
1.999897114035636275e-02 5.347124928069022648e-02 4.664384587613433220e-01
2.320338944561471314e-02 3.859878813521475105e-02 5.262840330535284439e-01
1.097741496145064437e-03 2.724995858722855518e-02 4.498499221082475907e-01
-2.626598138245449243e-02 4.657867645999583944e-02 4.551786503608614143e-01
2.644583443482676627e-02 6.152522941961131864e-02 5.065630326375186732e-01
-2.630464550325415859e-02 4.829411345797560151e-02 4.562285779675427921e-01
3.225461847519066338e-02 3.949465325980629909e-02 4.679068370792279774e-01
4.174585198256246243e-02 2.408281870216065837e-02 5.031072842773099962e-01
3.731514400873511828e-02 4.461312226169446282e-02 5.023267313971851999e-01
2.612061836154668318e-02 6.374893119427063604e-02 4.773819867027555564e-01
1.509191620878172491e-02 7.575072558220487251e-02 4.964052293862717957e-01
4.300990686680585678e-02 3.247784154848872007e-02 4.902424665560583539e-01
2.783188695305786192e-02 3.802874124377109144e-02 4.641364368027829368e-01
-2.830839320733434181e-02 2.484434178043349456e-02 4.453126957456389756e-01
-1.720095963108413464e-02 6.073918747266249252e-02 4.657165031068149497e-01
-3.847091511785869639e-02 3.811601174008476950e-02 4.515692394000796472e-01
3.010179324519738145e-02 3.195546832584300612e-02 4.624272358275305361e-01
2.254513081668807484e-02 6.811592412888092807e-02 4.771472374060564126e-01
2.468042063465782782e-02 3.624022251241184461e-02 5.264681341583165031e-01
-3.272040997528985126e-03 5.844734695784113004e-02 5.216351523447767535e-01
-3.852449877719620053e-03 1.471636392916729312e-02 4.438532451114033384e-01
3.915053520399658371e-02 2.408984071671526131e-02 5.085344013094319493e-01
8.679443398721045991e-03 7.541501017382770677e-02 4.924529775411353172e-01
3.375382405209342157e-02 5.350317950404844675e-02 4.957012055382722937e-01
3.540966041636581241e-02 5.021926231587724859e-02 4.969051872094065736e-01
