2.541858336099980104e-02 5.178666124839549634e-02 5.173070370955302755e-01
1.537985841627817832e-02 7.604957505962764430e-02 4.949468435209178896e-01
4.104778590391633397e-02 2.692994186697327333e-02 5.033992894900717330e-01
1.420861350927375699e-02 1.134425582672780788e-03 4.421211419801767128e-01
-2.207956307954178285e-02 4.930069015366676799e-02 4.564082151024263512e-01
1.957931910054789768e-02 3.327007163844681453e-02 4.572029722882340885e-01
4.112696842805238506e-02 3.727582141952260480e-02 4.798482559141838411e-01
1.893215929097141065e-02 6.413456228694915107e-02 5.147168143132406781e-01
1.029420227642146961e-02 4.091912408319182959e-02 4.576062325686231502e-01
2.595128011986973238e-02 6.570383857642260461e-02 4.787950666786747744e-01
8.365813216703018099e-03 6.645086651475047568e-02 4.664250909240001408e-01
2.324488664109427769e-02 4.427907893469208711e-02 4.642737607056179883e-01
7.086720546423567330e-03 6.969223651087337601e-02 5.026948467579708257e-01
5.317837891758688332e-03 6.324840840744999637e-02 5.281450427841313244e-01
3.997103675183664995e-02 4.196704700048291270e-02 4.953498723787350122e-01
3.052619573921345683e-02 2.497267690082671104e-02 4.590929349375668100e-01
1.644609884490474960e-02 6.505116967495268299e-02 4.692607839200570452e-01
1.358561007254135283e-02 7.680497972009031615e-02 4.869064532348270635e-01
3.239429780699062261e-02 5.311507329770118191e-02 5.055758450171868867e-01
2.345400647418251910e-02 6.343514103483475879e-03 5.313636096377172269e-01
1.650963356750044519e-02 7.650138010640707142e-02 4.898718633800188682e-01
2.018179460582934792e-02 5.550687886023986106e-02 5.203790026794624657e-01
2.202912029710046501e-02 5.746681937606398782e-02 5.177210273584814670e-01
3.386842490344876833e-02 3.043691236072548767e-02 5.169615625033757711e-01
3.974397558230063909e-02 3.625610265576856284e-02 4.754379973106040436e-01
4.254359913345565763e-02 2.933539150096091744e-02 4.974001005831645839e-01
7.561310025083855038e-03 3.350326415682336467e-02 4.538974032319857965e-01
1.544469013236523733e-02 2.061625043575320698e-02 4.502981553715613705e-01
-3.769390460403636289e-02 3.235879019365911491e-02 4.487166144660403311e-01
3.542988767991683136e-02 1.822707948175321738e-02 4.593502480899623319e-01
1.936035958401940635e-02 7.010096530439333118e-02 5.030797342941835115e-01
2.039914780326618562e-02 7.157638399299301457e-02 4.988012662919321660e-01
3.886484064784161835e-02 4.230197749319351830e-02 5.010434224315742924e-01
8.805056177063173492e-03 7.912411122337539848e-02 4.803499660433468987e-01
3.884222352175765221e-03 2.945457983335558055e-02 4.514047943613369585e-01
-1.321047811969319058e-02 4.982622705863479218e-02 4.565329214559449289e-01
1.560010396781524519e-02 6.273662519202016785e-02 4.677767504250391895e-01
-2.326382345559472459e-02 1.194584827800221870e-03 4.375091785254517363e-01
-1.642223654472479413e-03 5.472074854816644240e-02 5.404723877895843964e-01
-2.336292289206198716e-03 4.790088709899835429e-02 4.569634875381271000e-01
5.649098975319920279e-03 6.442216018543073242e-02 5.121116135526277979e-01
3.567376315458353764e-02 4.246990179398114212e-02 4.737045900999309334e-01
5.210013505077415973e-03 4.213576821602781769e-02 4.568137449297117736e-01
2.774750374929946597e-02 5.992845215456081565e-02 4.758966332130009635e-01
4.080172409995850430e-02 3.902676447913844965e-02 4.835791706139760393e-01
3.794858857340305258e-02 4.626782188107790572e-02 4.998967800982087595e-01
-3.396349086672899309e-02 2.171779852394567500e-02 4.448663669015087141e-01
-1.386676971825714401e-03 6.067542286561757037e-02 5.263417438740095600e-01
2.442198908601370816e-02 6.171132058535625659e-02 5.106053463673774218e-01
2.666781499120875198e-02 4.462840549586661459e-02 5.178659243886134522e-01
4.272920211193755036e-02 3.356699638055251483e-02 4.864988761201965439e-01
2.300864503797464371e-03 4.377541979555810148e-02 4.566470372785517151e-01
3.908498314154875558e-02 1.931296599085555524e-02 4.628330622753638601e-01
3.288569855828445826e-02 5.611679709994018411e-02 4.947812232725695147e-01
-1.893471885454388326e-02 2.966662098052561328e-02 4.477222456121973670e-01
4.065808518019861650e-02 2.345511340285939827e-02 4.673415618191377741e-01
2.199684660671922393e-02 5.977769442525645432e-05 5.336623350864326820e-01
1.633446053770389386e-02 2.827537167329926757e-02 4.539440087311847338e-01
8.594868100336078287e-03 5.559419538770900976e-02 5.294019557194716841e-01
4.393527076529760156e-02 2.440382776594015451e-02 4.753627416687400409e-01
3.656456883522735124e-02 2.774206521280771914e-02 5.127375283263361228e-01
4.357896098030727972e-02 3.045804402273338124e-02 4.851610463866816714e-01
4.413021120865722596e-02 2.350848399312870443e-02 4.972551043431674422e-01
-1.551493467921371064e-02 1.316562600175191083e-02 4.413718760612019842e-01
-2.680603014888831293e-02 2.693234171358750706e-02 4.463148197019956021e-01
2.559166343232027394e-02 2.803334532627422063e-02 4.577301414197403329e-01
-2.839933518816242092e-02 8.620976946591661638e-03 4.400923061261144409e-01
1.564882784356536397e-03 6.061487587275417310e-02 5.180496192618058160e-01
1.961685579744760349e-02 6.073093847685461649e-02 4.689940595810181967e-01
4.351732955915641604e-02 2.518681667359011500e-02 4.748842805735115635e-01
2.475369581458175192e-02 5.392786578176686496e-02 5.168698075083701937e-01
2.441517946193058619e-02 4.125735324112826674e-02 4.634509683299383176e-01
7.427699554458678036e-03 7.937396887630197850e-03 4.433418865404012421e-01
3.227647552243529533e-02 5.784933245513991518e-02 4.877858463587097515e-01
3.290832663087965571e-02 5.121931517538577672e-02 5.073142414407076917e-01
2.865540426494086329e-03 4.654532049140071293e-02 4.576321714339126046e-01
2.691888749369161435e-02 4.026560348188193417e-02 5.200260474500808527e-01
-2.379437653490743682e-02 3.502508218033178328e-02 4.496523337828632894e-01
3.477105718087467739e-02 5.031726478046850970e-02 4.804051097717226271e-01
-5.110604374089602539e-03 4.498770597713164232e-02 4.556016970245709286e-01
3.260919007116271778e-02 5.731540285046481109e-02 4.883929375439226006e-01
4.185563874486239455e-02 3.595287304646450910e-02 4.843963364993312259e-01
2.957776444560255777e-02 6.111435894988048040e-02 4.978513333185253242e-01
-6.359134141198175341e-04 6.202692787473944314e-02 5.276874695659654613e-01
-3.370178210163721211e-02 2.296788660980882482e-02 4.452546597134507955e-01
3.004611540001392647e-02 6.109867252890658490e-02 4.945592015430314015e-01
1.356731929053177355e-02 5.505205663633110091e-02 4.639661751515404831e-01
1.996830851085612188e-02 6.198834101040104350e-02 5.162342703698334923e-01
9.348868161928865911e-03 2.977759968068353566e-02 4.527452501734426926e-01
1.611162064660913440e-02 3.272419641624632614e-02 4.558537508937267613e-01
-9.546993353761776963e-03 3.456660862695207920e-02 4.511865559365182410e-01
4.382029056722416827e-02 2.356296119565797625e-02 4.742975278684837259e-01
5.412107071923104827e-03 1.527118795846482517e-03 4.405346596538305404e-01
9.319365259630240511e-03 7.960060928337646391e-02 4.789544343178706587e-01
3.627633195504006980e-02 3.177934926677990907e-02 5.110800148465081127e-01
-1.170625932462348792e-02 5.741678172464853569e-02 4.592398729196878748e-01
-1.205200464466331563e-02 5.586468802830873298e-02 4.586457946849197831e-01
2.722228300248424882e-02 3.536509357253145303e-02 5.246312869516424060e-01
1.214365676768028313e-02 4.189641044433270456e-02 4.585572240606139438e-01
-1.370346417504658167e-02 3.274839300753773497e-02 4.497791285991092347e-01
-1.157952667413141012e-02 2.974734982189200516e-02 4.486494567232336972e-01
1.843020032335816391e-02 4.902660346727737151e-02 5.234404479714697134e-01
3.348303176642507262e-02 5.340864845737294808e-02 5.008174031764240919e-01
4.147783376734977268e-02 2.456500860649662651e-02 4.697561490940219131e-01
9.995193869988041116e-03 3.219003706870614961e-02 4.539079137109555684e-01
-9.794290837467526517e-03 5.631660471626488695e-02 4.587877405008247700e-01
9.868387903315394005e-03 6.549008062977661193e-02 5.163156246935345361e-01
2.205170914791525563e-02 4.024134301339710520e-03 5.321553714566930049e-01
3.811439090796821944e-02 4.395563471287627921e-02 5.017863072404133984e-01
-6.795470088502140148e-03 1.735899626074295307e-02 4.444542028442171056e-01
-1.910520291081218777e-04 6.386763852948106057e-02 4.634517112688819607e-01
2.493141738828097073e-02 1.037080282538115766e-02 5.277619941201450171e-01
1.858829560253515145e-02 7.580518191476530443e-02 4.897003245452876685e-01
1.150402309843709565e-02 6.431119050913125523e-02 5.213158862849824882e-01
1.574250588016012573e-02 4.723875743208213324e-02 5.271020874158107716e-01
3.006344604918510105e-02 6.168382124548095480e-02 4.916616562741367158e-01
2.197437243633506079e-02 2.087863235884328955e-02 4.524735950437784870e-01
1.110480323249296575e-02 4.453197465036989183e-02 4.592562186634578936e-01
1.674565188648926423e-02 4.416199652348017785e-02 5.295097677029769745e-01
1.543848425580259323e-02 7.694823724136401477e-02 4.831797228007440603e-01
3.624823063207469748e-02 4.889526081413278491e-02 4.821904439669971731e-01
4.122085716574952485e-02 3.504609426367469305e-02 4.776955116492461184e-01
1.901576198969551212e-02 6.883392608714004879e-02 5.055619031556171095e-01
-1.436442025999896954e-02 -5.151609461091884862e-03 4.367620045557549791e-01
1.899592421010886517e-02 4.737888301512752781e-02 4.634067479393157996e-01
3.825980856010280373e-02 4.210081961394769590e-02 5.028332087138664974e-01
-6.218659801585347223e-03 4.689056561728977696e-02 4.560683584137082414e-01
1.873192103681768639e-02 2.634890825308204565e-02 4.538702889778311045e-01
9.606556497750568663e-03 7.287701332415585237e-03 4.435094882124724913e-01
1.962074487382192700e-02 3.360560582531774143e-02 4.573655435247842016e-01
1.883271707432027098e-02 2.478837353222588732e-02 4.532212139839149612e-01
3.031833209264618578e-02 6.029413534771107391e-02 4.813960852717471539e-01
3.610195399868486310e-02 5.071161278558076330e-02 4.920400410070315811e-01
7.066706360429761413e-03 4.637776160188443464e-02 5.364734755713994607e-01
4.158947000412688277e-02 3.714451333749598655e-02 4.858776759430865066e-01
-6.657788930251280291e-04 5.001899625177893410e-02 4.578436779285587899e-01
2.475609130926633913e-02 2.464520037030141358e-02 4.557015753948090997e-01
3.148319169591969752e-02 5.913850470105364021e-02 4.921268688333034769e-01
1.500769123492268729e-02 1.733724792523138117e-02 4.488352642443066420e-01
-2.595163210612404237e-02 2.676299224784040379e-02 4.462343062353365530e-01
2.797729139071610319e-02 6.535198545430255523e-02 4.902780907019287926e-01
1.246865334759780786e-02 4.687350100100085015e-02 5.309305589032411454e-01
3.085329476142299049e-02 5.184850010924332842e-02 5.103721274966601662e-01
-9.094603908910170800e-03 -8.680538363159890844e-03 4.364090660163076341e-01
6.749480151444152767e-03 9.110199671388923004e-04 4.405828454722267584e-01
-3.275314837951760153e-03 7.119705394312239588e-03 4.410635874263310052e-01
5.502404392586715542e-03 6.561670661234416529e-03 4.424008121591457288e-01
1.365658878263310491e-02 7.601301060923879027e-02 4.923887467443743837e-01
-1.293549765630391292e-04 5.951293444572845759e-02 4.606714164791246846e-01
1.814285835858086074e-02 6.234949074306454786e-02 4.689249091926597224e-01
-2.071131067633884097e-03 5.806833526014634761e-02 4.598667320457686669e-01
-2.411205128282604276e-02 5.267432638021798258e-02 4.582468081305587360e-01
2.648648141859587246e-02 5.073945345643743332e-02 4.697660124516903069e-01
-1.848106411182205006e-02 3.173897214724710845e-03 4.379680639724791158e-01
3.676496415316005129e-02 3.061718575339459486e-02 5.107221997442739081e-01
1.348742205859300783e-02 7.058995377513513358e-02 4.705665079774155601e-01
-1.817205435504903530e-03 5.977707498130006153e-02 5.358904866573189762e-01
1.366323170579086463e-02 3.509355569129390950e-02 4.561451610652003663e-01
2.892706305575948322e-02 5.453808668161801848e-02 5.114368792863188684e-01
-2.622104351529250948e-02 6.878703509046905223e-03 4.391614538394559286e-01
-5.861990481515170917e-04 6.962427763592322905e-02 4.688356686526182204e-01
-1.578358983847647987e-02 3.659975861808871002e-03 4.381219247109242043e-01
-3.931456731080715250e-02 1.075024063206397092e-03 4.409008683700210152e-01
1.954416463425800825e-03 6.001404560965672291e-02 5.330754025852926237e-01
4.097713018521306066e-02 2.740890429434503228e-02 4.706827733477143005e-01
-3.388265127224835555e-02 3.428663009954787538e-02 4.493558651400406667e-01
3.832779973481577340e-02 3.088971854756148924e-02 5.068943723463391615e-01
3.500053536961478945e-02 3.326820002222551087e-02 4.666885961018259477e-01
2.245467536673509141e-03 3.649530854638646793e-02 4.539448816423163890e-01
3.775252927464190639e-02 2.656229811544461722e-02 5.108721398000724001e-01
1.162660985746198465e-02 4.232607451570962603e-02 4.585842952440659648e-01
2.106190791317726074e-02 5.940013751953205495e-02 4.695512362839241449e-01
-4.491381349560480407e-04 3.657533676975256720e-02 4.534207824206767934e-01
3.353596721437381023e-02 3.843837731883609221e-02 4.682638452571252774e-01
1.732178720853642939e-02 7.282007655740911634e-02 5.017859939910972455e-01
2.833007343433309802e-02 3.919316103768680226e-02 4.650265493910871739e-01
2.287576486449437868e-02 5.981379695128423435e-02 5.146051071016517486e-01
4.128774791715039000e-02 3.791124814959496298e-02 4.851824626078092284e-01
4.292440334320496431e-02 2.947750327227302569e-02 4.771962807498627002e-01
1.674470500555108599e-02 4.567388946775196440e-02 4.616065750256406197e-01
3.311755837653570199e-03 5.497170326660075212e-02 5.339010645146808898e-01
1.012225947673992682e-02 6.303282063024279180e-02 4.653539160011000986e-01
1.295586722702440213e-02 6.588863701279770724e-02 5.154876437317376103e-01
4.022792476605201867e-02 2.273529330710179902e-02 5.077437512323496049e-01
2.795153282273599507e-02 4.443908035734553397e-02 5.168959221471167709e-01
2.813927254102148445e-02 2.167869766956950078e-02 4.561199225693817749e-01
-1.706710838061172714e-02 4.765884692958605173e-02 4.555920750266195807e-01
-8.084279958542151673e-03 6.174684259038899087e-02 4.618700251937145618e-01
-1.632964752614438422e-02 4.863898629250658703e-04 4.374441889075306733e-01
2.878894205505846179e-03 5.432337375823664133e-02 4.599891357026938410e-01
-2.786683262314491177e-02 6.002475845155081507e-03 4.391257318687132316e-01
3.177784190716232554e-02 5.678559479421803335e-02 4.998127440772337504e-01
1.914571015033033133e-02 7.304816890034339372e-02 4.783348877469015270e-01
3.272423648373034427e-02 5.364148445998835613e-02 4.786903087964705650e-01
2.579421176628384979e-02 2.647716472115591892e-03 5.328700913970030317e-01
-2.114931108075416774e-02 5.526399352958566435e-03 4.384165896719507405e-01
3.205942363620493951e-02 5.288945613486247671e-02 4.765798786586385449e-01
3.559524176100326009e-02 3.043763640740284118e-02 5.133007623688123910e-01
2.445056498834510469e-02 6.457507715483663813e-02 5.054114862155622001e-01
-1.366671674853817435e-03 2.755893291991122832e-03 4.397724765756553800e-01
3.855922078584542861e-02 4.454417348740396382e-02 4.815801609783372794e-01
9.291737285428841586e-03 7.469696850319419712e-02 4.968821081759766667e-01
1.293663102114990526e-02 5.765269805588137120e-02 5.251528128549689534e-01
3.573237192098085990e-02 2.666116779511120902e-02 5.159134079471620060e-01
2.600281808714529491e-02 2.969115972971122716e-02 5.272194263890301880e-01
1.809446148142786898e-02 7.270786105583702807e-02 4.762218054974788894e-01
2.442915173577232466e-02 2.043237637349844954e-02 4.535580887167688924e-01
-1.953880409695816708e-02 5.778413571530292142e-02 4.608507113617248963e-01
2.823733049383115798e-02 6.327863410709853864e-02 4.803992328062127726e-01
8.111043315278553337e-03 6.332333015355774697e-02 5.263498548424565548e-01
-1.364306801979999276e-02 4.158738085282283337e-02 4.535828933383161399e-01
-1.733840512063318864e-02 4.591796798063306484e-02 4.548358993877335554e-01
3.956954858197243158e-02 3.822682170113632372e-02 4.770374024314599226e-01
1.623249872939889690e-02 6.707438012616784295e-02 4.700695504822202109e-01
-3.549543026979075280e-03 1.365660730286500334e-02 4.435631796649855962e-01
2.098651969094689901e-02 7.242667871441144101e-02 4.811084950379881375e-01
3.044563608745994021e-02 5.674328989063466555e-02 4.769368330813943402e-01
7.094731702008361118e-03 6.289652349215425764e-02 4.642555579608276806e-01
1.627527531695203630e-02 4.496641828029414312e-02 5.286069073625080383e-01
-1.570391727225111181e-02 2.419047630014357908e-02 4.456882783314088381e-01
1.075935408519275351e-03 4.875438587289519093e-02 4.577869980568535224e-01
5.982380690581204016e-03 7.050920710340727315e-02 4.984465085958576513e-01
2.998195212100577406e-02 5.788706550030005976e-02 5.037929723855288922e-01
1.815287381506158065e-02 1.486946909372068026e-02 4.486218134254886247e-01
2.669808993592184126e-02 6.552061736930660241e-02 4.804562019312274002e-01
-1.544501234732843092e-02 4.554097069525484681e-02 4.547756768024463492e-01
1.921713112915111529e-02 7.071513158796546850e-02 4.748523804145854954e-01
3.470990601677296367e-02 5.230645369492399610e-02 4.829395057880722097e-01
2.893227699478242293e-02 5.964561079670541166e-02 4.769067237816137506e-01
1.861590982617573192e-02 4.370855429980130546e-02 5.273564442066726032e-01
1.790019570479699576e-02 4.314159370921934883e-02 5.297297430430000231e-01
1.212764639598853771e-02 7.583350001557545572e-02 4.919751382641872062e-01
1.520132944773816379e-02 4.761314585300363555e-02 5.273798749515161699e-01
2.521829368864072010e-02 5.842271764835673536e-02 4.726621973331172066e-01
3.505062780316124671e-02 4.745018937095586004e-02 4.769801686873447188e-01
8.511268308713506800e-05 2.793363480732172915e-03 4.400269017205338806e-01
2.034423462689819925e-02 7.102881754760790450e-03 4.462713846342594159e-01
-1.361018098053666178e-03 2.399087633346150619e-02 4.481226941687423415e-01
2.735307503682512728e-02 6.509676345178505574e-02 4.940001045930108026e-01
-6.150925070136575162e-03 5.868179044533131106e-02 5.303202003890057359e-01
6.162742030094437058e-03 5.717802616403567378e-02 5.305898981590376762e-01
3.671935976987718894e-03 6.289803530350193683e-02 5.155274768988497014e-01
4.019010521793566632e-02 4.200396188745419285e-02 4.905759221209514132e-01
-1.363842369698663876e-02 1.396645260581695289e-02 4.419931369505574748e-01
2.186864685789920854e-02 6.818300822370103320e-02 5.022896287455083097e-01
-2.004329636756574731e-02 4.472975558764092502e-02 4.542039947042927905e-01
2.882015910201503675e-02 5.121901519337983960e-02 5.131706128860801241e-01
1.376923246033506451e-02 5.268126164179307708e-02 5.260653057447655101e-01
2.272240517604862120e-02 4.186692958028004341e-02 4.628847939465578487e-01
6.767501445584139450e-03 5.969641942189839179e-02 4.628224966988375710e-01
4.003021914035857776e-02 4.160110270066801064e-02 4.848580360125448463e-01
1.895683211680123173e-02 6.723300567579368336e-02 4.719688131464624958e-01
-5.136329806028160257e-03 5.837844596365061173e-02 5.271869732006099207e-01
5.898324487685553327e-03 6.624926456226765126e-02 4.657109460412444113e-01
-3.502730311306033462e-02 4.265611263134464620e-02 4.544399053379950537e-01
1.373899992558080471e-02 4.662632691956021536e-02 5.293406944411847004e-01
-1.952589120965985553e-02 2.950982466176043859e-02 4.475958230048019404e-01
-1.815278886680497111e-02 -1.906400607902735897e-03 4.369568307994597389e-01
3.578627172608558893e-02 2.699630718724445322e-02 4.641034255937129260e-01
4.091048057413071426e-02 2.951227071567209814e-02 4.722613322442680284e-01
2.081629069660270726e-02 7.161512608146979042e-02 4.980929553306914226e-01
2.847648178292932000e-02 6.232784912724442794e-02 4.791771104425849304e-01
7.481120882338871195e-03 7.826332290278668891e-02 4.759779566348866786e-01
-1.927204067732100901e-02 2.265399704525489569e-02 4.447094536419130550e-01
1.704832579933640221e-02 7.582160979117980038e-02 4.933042928361399682e-01
-5.413495074731341714e-03 5.857999984534998511e-02 5.283051813772854377e-01
-3.798722556877554696e-02 4.255107747300823640e-02 4.554085632574553233e-01
4.540142105227248231e-02 2.303407448866204646e-02 4.802128588344353188e-01
1.340515866048658591e-02 1.830513910866541239e-03 4.421935397683111058e-01
1.628901807051933923e-02 3.545625295671269578e-02 5.322983063790305280e-01
1.481192173370548745e-02 7.193664362980739524e-02 5.038891475143355558e-01
3.095473275522326109e-02 4.214451011397546409e-02 5.150047235660563105e-01
2.707703321218849629e-02 6.656610196871587393e-02 4.898597762659844257e-01
1.120010909544282354e-02 5.896975284635956605e-02 4.642879633486521329e-01
4.105673468928780143e-03 5.827059836505487506e-02 4.614966008641380180e-01
3.574799039530097283e-02 3.170513107212280524e-02 5.119828654966439574e-01
4.453386268942385005e-03 5.437963236898208513e-02 5.332916433627800101e-01
-1.706704834037852184e-02 4.707176566915658583e-02 4.553244532384397858e-01
4.469630710202710661e-02 2.624950986030606323e-02 4.827283624346037638e-01
5.231208005610256395e-04 7.624217182777698332e-04 4.393814850310968079e-01
-2.856386016737398614e-03 4.515493300793512604e-02 4.560033063971016265e-01
3.312884352900270779e-02 5.284442547847200550e-02 4.788574755116622450e-01
4.003579833013271028e-02 4.012392107154165444e-02 4.990337160006482198e-01
1.133076031270894429e-02 2.558393738253120220e-02 4.514339019804518571e-01
2.338517648477712874e-02 5.510765167505281975e-02 5.179614669521468429e-01
1.111036748621986939e-02 -6.701278002599971202e-04 4.409123834074401560e-01
4.381019465058704626e-02 3.019353308059004315e-02 4.877242615802810377e-01
-8.071269284507451292e-03 9.758997190085444071e-03 4.413283409281982816e-01
-8.142068196057226578e-03 7.296678102221860335e-03 4.404579961400979515e-01
-1.440488904473816514e-02 4.296107565120048377e-02 4.540001397336461686e-01
2.611667379461988028e-02 6.684894554126380450e-02 4.815240556332416877e-01
4.078759497163081914e-03 3.962562452661464590e-02 4.555874790220276194e-01
9.802156764383151630e-03 6.504067662220915091e-02 5.180238998507240566e-01
2.547307054037527968e-02 9.901724474087165995e-03 4.495219363004387958e-01
3.606488751848071356e-02 3.855484325348585567e-02 4.707676344424516213e-01
4.352833244172576999e-02 3.094665176002637380e-02 4.867620863033037537e-01
2.461005712954020958e-02 1.225236876198841987e-03 5.333505535000414577e-01
-1.033112759556810770e-02 4.404771670672077977e-02 4.547714922274825322e-01
1.713323086747058424e-02 5.574860599703478081e-02 4.657234137465129931e-01
2.266261886945922233e-02 1.616475491531843209e-02 4.507133276915030740e-01
2.374480578922304186e-02 6.745740876643632755e-02 4.995999667882141670e-01
1.232177572030648122e-02 3.343306475301763281e-02 4.549774914792245606e-01
1.646496599608330766e-02 4.708471234618785001e-02 5.265400881289415969e-01
5.845454172626182374e-04 6.542971701927102757e-02 4.645399907571327036e-01
1.547261217309991478e-02 4.306701075454628935e-02 5.323335839117768753e-01
1.452977511391126929e-02 7.592144533338265888e-02 4.948397267500331265e-01
2.151130358580048002e-02 5.201604134654445877e-02 5.200405812970556596e-01
-1.279904713929356716e-04 6.077514786922261214e-02 5.346244102460548930e-01
9.879739510559346766e-03 6.133145311518656273e-02 4.646116604530225458e-01
6.750407425662311757e-04 4.906051208354589993e-02 5.384579891976847277e-01
1.006093051968360956e-02 5.875970351292290894e-02 4.637795126229822262e-01
4.172461607760580976e-02 2.454041242261133932e-02 4.702500016927568804e-01
-3.730052857298832812e-03 5.375628195015165478e-02 5.396445308677996211e-01
2.799026130169504287e-02 5.078156109682898517e-02 5.145375408929254712e-01
2.705813376532538103e-02 6.173560902109260368e-02 5.057692783157632377e-01
-3.744171109661378199e-03 2.244886223724553917e-02 4.470275672554848145e-01
2.704795102025329273e-02 3.431143887989735602e-02 4.616022869795844974e-01
2.944865226537332625e-02 5.342003704715510282e-02 4.740283171000777562e-01
-2.812775711995068803e-02 2.446151109676059435e-02 4.452609391616463297e-01
1.115609314226924560e-02 7.408267923670128208e-02 4.733810046116976311e-01
3.951148242694602943e-03 5.762328528523471410e-02 5.321112125982552232e-01
3.134599151046622845e-02 5.937077920535359377e-02 4.850659889308909234e-01
-2.136115408419179615e-02 1.355735361449553027e-02 4.411145025599722547e-01
3.672682709685889946e-02 4.971738577826610717e-02 4.901765063287623625e-01
3.886600143214584413e-02 4.484321284363420451e-02 4.956930122458328425e-01
1.826139216119823661e-02 7.416587684111894396e-02 4.983504812316598698e-01
3.150217115317296979e-02 2.859560834614970418e-02 4.615485086876201515e-01
5.707882483753264069e-03 4.281265098348906867e-02 4.571902479756159710e-01
-8.210913151887756084e-03 3.243538764513850120e-02 4.504350660099329939e-01
1.876628050056004457e-02 3.249883325084157448e-02 4.565991041139972340e-01
-1.454950440605084355e-02 6.092955586799261164e-02 4.628674157211113971e-01
1.256056518013754994e-02 5.613507904573517004e-02 5.257339659604159943e-01
2.112626729256555230e-02 3.920187554179464795e-02 5.293338308055517416e-01
4.493676231238462326e-02 2.648106914816256499e-02 4.889105764895923523e-01
6.781371191078590897e-03 6.930224674405967289e-02 5.033456346554208150e-01
1.918254377769707322e-03 5.829131038190871889e-02 5.333839654668834918e-01
2.715767248398924527e-02 2.724636592987243755e-02 5.262122261857895555e-01
3.021284477957257575e-02 3.219730633373301537e-02 5.234103148508005843e-01
2.987478083864958042e-02 1.814454679324632724e-02 4.555543948187669168e-01
1.182187832676706574e-02 5.864613518993182228e-02 5.257852272020880902e-01
4.794625946829575956e-03 6.395155980017366848e-02 4.640599449040476721e-01
-1.611060320854007868e-02 5.281239932691730171e-02 4.575853203688468041e-01
3.171151836398265755e-02 3.194180470052998544e-02 5.206038888219681748e-01
3.343773720061309074e-02 5.552723600929528741e-02 4.927063751242825584e-01
2.111437593613140623e-02 7.345887457461737491e-02 4.927756475920955226e-01
1.268017954006836652e-02 5.554674524181362621e-02 5.258596248517020122e-01
-2.054683717620062189e-03 2.508565699310293801e-02 4.484385178049020704e-01
2.485042464564911346e-02 6.515624785101126193e-02 5.022611456884410464e-01
2.323932683518424060e-03 6.256215009179641462e-02 5.327846805921404583e-01
1.194015559973164026e-02 9.171183197945445911e-03 4.447713073951806151e-01
-1.811860081136965755e-02 5.536851197753817760e-02 4.589861965752041750e-01
1.479524519912175061e-02 6.620746912837649489e-02 4.689170938473684602e-01
1.850640321119199558e-03 6.091862738701001728e-02 5.221130107444802437e-01
1.790097059656505646e-02 3.991287358037611671e-02 5.319615685501891678e-01
2.793092309783119093e-02 6.012550371814234795e-02 5.062712706523967432e-01
1.798872710152629728e-02 3.488081441202187105e-02 4.574155006312731753e-01
2.211812054040184980e-02 2.404928646343421419e-02 4.540389054338114794e-01
-1.892333707603596066e-02 2.344255014708932286e-02 4.450661368891853931e-01
4.029826021099071343e-02 2.703766656060001966e-02 5.050750727117659933e-01
2.581799079332383617e-02 6.472436189261360218e-02 5.011230782535754935e-01
3.843574335725434554e-02 4.575780701866663525e-02 4.849250704865037398e-01
2.507000472607514435e-02 2.609642251816717690e-02 4.565472364873274236e-01
1.886613426470938257e-02 5.952974546077831330e-02 4.680917449385580964e-01
1.712929825795955763e-02 5.046788874728107971e-02 4.637894882965399868e-01
-1.269643208178686082e-02 8.547194319589355993e-03 4.401502145556524526e-01
-7.855023666155043494e-03 5.789885435167984457e-02 5.334911107251225637e-01
-1.845170391449511491e-02 1.169352457163700190e-02 4.404042695870138413e-01
3.714640932788689648e-02 3.392637535970687707e-02 4.688292753240166366e-01
3.075079481056656669e-02 5.943448483664746235e-02 4.965726952875494371e-01
-1.930361387285336842e-03 2.155068884438534563e-03 4.394663716368266693e-01
3.079288753704199216e-03 2.833826377950995901e-02 4.507839724851347984e-01
1.036482958315752476e-02 6.843111300704748934e-02 5.086633579172123998e-01
1.638441994233647003e-02 6.550556433260228129e-02 5.140920898211948087e-01
-5.054411542121094517e-03 5.721370338971406427e-02 5.396216752618435697e-01
1.073346917494791969e-02 7.568108048289527712e-02 4.913564021574676755e-01
8.423069465246874055e-03 6.509209896905823745e-02 5.124597119306527615e-01
2.199741373368378078e-02 4.783156493972484657e-02 5.208815785998776038e-01
8.805241654485380931e-03 6.985976918993387630e-02 4.683730957015550533e-01
2.088621520412659721e-03 6.124306518098549673e-02 5.164464507972648111e-01
-1.665887210425200798e-02 -3.226109253756112918e-04 4.372803822227838144e-01
6.381517094960400399e-03 7.634952671796120527e-02 4.810563111315199203e-01
2.323513331566709472e-02 8.023598516994514748e-03 4.477815159286126501e-01
-1.979373056799102470e-02 4.010736211462082035e-02 4.523004229533206799e-01
1.625768558747121839e-02 5.619735314096897805e-02 4.655051116513921894e-01
1.329502688186911911e-02 3.609342937854807809e-02 4.564721506290767006e-01
1.903091058506175756e-02 7.028567868903709548e-02 5.032465054334700483e-01
-3.451074212280312581e-02 3.580328807723139051e-02 4.500078517664891087e-01
3.013058341659330050e-02 5.034448912642070645e-02 4.729100454421573674e-01
-7.493838975234419324e-03 5.907735053001035574e-02 4.596235271499473085e-01
4.078565233478094855e-04 5.165606689443243138e-02 4.584526286317479604e-01
6.504246181666390250e-03 1.270745411788682701e-02 4.451220032658377290e-01
7.078625782675653302e-03 1.125263952815351402e-02 4.446401288896803528e-01
1.698642315771407840e-02 6.230917993914556613e-02 5.195543386102583483e-01
9.800055207746244043e-03 7.958714477440813340e-02 4.778986065211677792e-01
-1.209213107365617219e-02 -6.925443001364173408e-03 4.365989508516406326e-01
-3.385499076380977385e-02 3.204741062899651299e-02 4.484316660107268149e-01
2.318058407547243793e-02 4.094533699642340790e-02 4.626847427894149600e-01
-6.462426308953819407e-03 6.088747634316150903e-02 4.607420831185174426e-01
6.522322666136214434e-03 5.024691812044290717e-02 4.598563106529953148e-01
8.462718550478528362e-03 6.513328592208780798e-02 5.122658645052606818e-01
-9.023800345389701438e-03 -2.371535478802084922e-03 4.372881753555009632e-01
3.038705184355228531e-02 3.273564282990720081e-02 4.629941910159334206e-01
1.529855756926995144e-03 6.480361088801103731e-02 4.641706169148397954e-01
-6.999259460394049136e-03 4.739099709653018383e-02 4.561490990074263396e-01
2.694207578963494359e-02 6.156866030951378688e-02 5.064103110065721891e-01
5.357047245759012297e-03 2.465587757671170582e-03 4.408414146934215294e-01
3.722835871542499314e-02 4.893109171697317128e-02 4.874524463553910891e-01
-3.736322828087300374e-02 2.781978298476212377e-02 4.471820938929008671e-01
-2.107984997727612581e-02 5.129717462817740686e-02 4.570801251186389913e-01
3.872289130001545232e-03 6.329184587704636544e-02 5.241983793521859392e-01
-8.614775887894232827e-04 5.766088454251518114e-02 4.599070527094731298e-01
3.618546663349594267e-02 3.156764713993871069e-02 4.668962920495809410e-01
-2.541383933900127207e-02 4.680895894045378203e-02 4.554551217315869205e-01
-1.627916116905695279e-04 6.264026219954571539e-02 5.327091617274345436e-01
-2.859142735138534355e-02 4.753185604551071752e-02 4.563834438662029980e-01
2.226574962706654240e-02 6.247538330550589381e-02 5.125003709985114231e-01
4.640007329455782779e-03 6.363973401042906375e-02 4.638734030079323944e-01
-4.296331134199023877e-02 2.472808359178592374e-02 4.473822955418259029e-01
-2.759130724868357962e-02 1.542804997648495810e-02 4.420823345860104281e-01
2.887822713513628695e-02 2.267016387474597716e-02 4.569835880488172242e-01
3.676301986448119591e-02 3.891556512479288354e-02 5.079961660317046102e-01
-3.955674298558235769e-02 2.117707471516393561e-02 4.457085874116794022e-01
5.202826142239050204e-03 5.884173666463804464e-02 5.306589702079833604e-01
-2.997385522720273643e-02 4.651314915499831643e-02 4.560636579950854697e-01
3.053792232433293063e-02 5.804183968732556237e-02 5.016929580273296052e-01
1.609442451052485457e-02 6.984682604897912706e-02 4.714720259888597331e-01
1.120341290522829450e-02 2.988077158039689415e-02 4.532139320953296191e-01
9.419531192350625096e-03 6.204102337160748160e-02 5.270375591910403390e-01
-4.264555868231201946e-03 5.488603246954597975e-02 5.400111285826636465e-01
3.595272724612449955e-02 3.281819573700482662e-02 4.672881731893160917e-01
-2.407929503685083197e-02 2.036543472014635744e-02 4.436743333068253747e-01
4.298930641462440916e-02 2.109087746037759462e-02 4.705114236786256399e-01
1.282803577444976972e-02 5.232560322133653768e-02 5.270765260562488841e-01
-3.406448743729977024e-02 3.154964231567633504e-02 4.482354637610770909e-01
-4.116925364837264317e-02 3.961296343791684965e-02 4.540265457932697313e-01
-1.511705101833578715e-02 1.575612419204805437e-02 4.424244237833063753e-01
1.369064006048271304e-02 4.502031131978281864e-02 5.320847935974480913e-01
3.187865006619565456e-02 4.760319521255478026e-02 5.113068311546434819e-01
6.321509391418234092e-03 2.828435775049349676e-02 4.514321437734226672e-01
-1.680803978733488163e-02 1.745698093708184309e-02 4.429006731534870789e-01
1.852886279424604057e-02 1.600841315640354201e-02 4.491311636799418805e-01
-3.277546591416470589e-02 3.128803160226307362e-02 4.480751775923017544e-01
1.229489187489968445e-02 7.818992191952767179e-02 4.786288298087822968e-01
3.436367158170555020e-02 4.250612391049277128e-02 5.100027534802102913e-01
3.694059829273207973e-02 4.576056300592003245e-02 4.790801208960649427e-01
-2.296491422856191886e-02 3.830352326065817464e-02 4.512334276483929707e-01
1.601886256393393257e-02 9.821028871511820052e-03 4.460007192034835533e-01
7.753498102187307388e-03 8.024915858288288184e-03 4.434428864643087387e-01
2.513660696778605846e-02 4.006037439151472618e-02 5.228221162848238901e-01
3.954678598005501727e-02 4.354268514297358894e-02 4.887149118770314771e-01
2.765572420013322555e-02 3.526522621426515097e-02 5.240735528481975658e-01
-4.690801181689702865e-03 5.856664545805988914e-02 5.269031873488491113e-01
1.178601430478825804e-02 6.131137248615905339e-02 5.253950533840724413e-01
-3.774586099585714588e-02 3.738723437004686651e-02 4.508922023584430727e-01
-1.020320817334091287e-02 3.553120727638957310e-02 4.515247800007747281e-01
3.613352408929013798e-02 5.017609051006552412e-02 4.941903070690978894e-01
2.630410678353132040e-02 6.727747976926490292e-02 4.830133889253007684e-01
-3.849279833388162455e-03 3.112259633701155992e-02 4.505339065678454213e-01
-2.249149145700147460e-03 3.925306301277801946e-02 4.541595671503109721e-01
-3.672866660195819866e-02 3.655844535230019093e-02 4.504080483563157600e-01
3.282811422565679038e-02 4.309065575698826922e-02 5.119624861931558746e-01
1.270915167462914608e-02 6.379576500885537904e-02 5.222873220121505566e-01
8.416519685872647649e-03 2.560620618516707900e-02 4.507719677604480335e-01
-1.962783490161536942e-02 2.622155880112008591e-02 4.461270652852789009e-01
1.238984967703662954e-02 7.327909541582044994e-02 4.727298000895466812e-01
2.751689589626095736e-02 2.641359925196554506e-02 5.258907007439421744e-01
2.004135447230895664e-02 3.184175380607091876e-02 4.567156478178457935e-01
-1.474555562883879400e-02 4.697675958912379823e-02 4.553885564527836438e-01
6.064376313083427901e-03 6.341053662844332861e-02 4.641866857264785318e-01
2.924334490655381216e-02 5.745059280946847313e-02 4.760227385535574784e-01
3.664357190571961714e-02 2.836457664352121794e-02 5.122256209363255097e-01
-3.972463301337115366e-02 3.206162836629919410e-02 4.488670886461402776e-01
4.135778378464966681e-02 3.414300747993422730e-02 4.771960057093926344e-01
1.656621288409867304e-02 4.341201149744159174e-03 4.437672792349990347e-01
3.498346823208605544e-02 5.176600350171141340e-02 4.964751419386954634e-01
-1.785046024720424174e-02 7.823728557544403286e-04 4.374985830693610689e-01
-3.314893867479253714e-02 3.497253639121364853e-03 4.392761047740622593e-01
3.422669279419105620e-02 4.808941478646278772e-02 5.075781309241327310e-01
8.564161243885516639e-03 6.368923022289323110e-02 5.232546882174298197e-01
-2.739643411758471876e-03 6.427459754112134493e-02 4.635872035071351704e-01
2.165260212562141948e-02 6.555111297985800889e-02 4.733294599637078992e-01
1.812852462307455378e-02 6.437266769350011297e-02 4.698387062417990201e-01
1.853981765427369088e-02 4.680379013069998345e-02 5.248367884654315807e-01
-8.526181129772974349e-03 3.741022592065098434e-05 4.380040058684580573e-01
2.488046088065413650e-02 2.762476865474701102e-02 4.571632167917870082e-01
1.357271170668627666e-02 4.831879322977902791e-02 5.284486288288080535e-01
2.066199791345939285e-02 5.783619489847865308e-02 4.685245832648490261e-01
2.941784235342806073e-02 6.282122642107794419e-02 4.915508694139157919e-01
-6.465127080727479589e-03 6.353823940095069955e-02 4.631688842878853296e-01
1.264989833483559298e-02 6.187730337830737309e-02 5.246967128633747146e-01
1.258016618968993590e-02 6.908742291223000931e-02 4.692864272833009442e-01
3.898695990464751820e-02 4.183491969030241064e-02 4.793481513067547328e-01
2.109191353115929396e-02 7.367619562773222719e-02 4.854736833865231915e-01
-5.068480886245449631e-03 1.757187028732730416e-02 4.448198979313467971e-01
-1.286287199678028646e-02 5.527217474947639791e-02 4.584287705357124598e-01
1.235145883535443759e-02 6.605983017099699428e-02 4.675615868919921203e-01
1.753815738654383727e-02 7.661030997765649886e-02 4.855813757401052366e-01
-2.873444512373101237e-02 4.209732977242774260e-02 4.528032314962781024e-01
8.908726452239648999e-03 5.142332593238101157e-02 4.610231366179187162e-01
2.407850774192102708e-02 6.469319967922330938e-02 4.752067336385285556e-01
