7.478404853071326380e-03 7.424522166811607649e-02 4.723289534915767196e-01
2.083638911305310190e-02 3.822126168379480493e-02 5.298996225258711945e-01
-2.599665620780882216e-02 2.167537807036629821e-02 4.440833392248612066e-01
-1.729633818869529341e-02 4.509815600904545224e-02 4.544095291735620878e-01
-8.177639321764657021e-03 1.970936640356937136e-02 4.450928620380139034e-01
3.391338746581242652e-02 5.428247537772266235e-02 4.911968451530610014e-01
1.473694295780946179e-03 1.896239664830369834e-02 4.466503498973565245e-01
-1.839216051682606400e-04 9.965593097097434280e-03 4.426971964181963259e-01
4.547273535903025715e-02 2.354412295892997081e-02 4.860299717142610998e-01
5.730881953022686978e-03 4.447106551930194579e-02 4.577836781103276076e-01
3.404082310263002037e-02 5.279732524165674928e-02 4.827333531477938089e-01
-1.471008116938229970e-02 -8.464743002931561511e-03 4.366181276310847625e-01
2.495385251498009188e-02 4.531229441476523900e-02 5.189364685511002051e-01
-1.436052495346901159e-02 1.741540310477475775e-02 4.431610549426835410e-01
2.908135207189260427e-02 3.113411513536657599e-02 5.245141366324918009e-01
4.113715429055337519e-02 3.873330612013915070e-02 4.929638754108807142e-01
-2.783227647400606658e-02 4.835524550825202883e-02 4.564066165824275378e-01
3.220229111051355758e-02 2.758377586617691279e-02 4.617172980310622066e-01
3.393724754326940540e-02 3.316777430227597911e-02 5.135497719763275626e-01
1.080398420425976794e-02 7.384052509070795911e-02 5.005832265821131832e-01
1.430337915012573451e-02 3.362285661575167145e-02 4.557378382587564669e-01
3.132840476965709914e-02 5.589352871787037214e-02 4.785964743676912603e-01
3.141229143576795835e-02 2.963764943112574130e-02 4.621975910496982642e-01
-2.989660845220232580e-02 1.585409575626508128e-03 4.385148415551555767e-01
4.231358753807148293e-02 2.206759579985488259e-02 4.701542872238326232e-01
1.033437984448398045e-02 7.113644834086914337e-02 4.696743581915573396e-01
1.482684060492528086e-02 5.224529397919639578e-02 5.251974614087143722e-01
-1.818526928405911174e-03 3.856101028521301266e-02 4.539522489651465209e-01
-1.996059539951888437e-03 5.228599847302180942e-02 4.581812924030061462e-01
2.250785678708194099e-02 4.244889510820397394e-02 4.631961736168775379e-01
3.134236122009703002e-02 3.273635002047813047e-02 5.199554905616388112e-01
1.497944903767074731e-02 5.751048509590252211e-02 4.655099024641148331e-01
2.486779434103834549e-02 6.774046832819170805e-02 4.812203993650602252e-01
3.554891047930597292e-02 5.123278211535696458e-02 4.920841370051367014e-01
3.865582086116874268e-03 3.878951138836848108e-03 4.410331104213491837e-01
5.681982785384738499e-03 2.068853821509799087e-02 4.481897680376802362e-01
1.068528186597039048e-02 5.038524060304135771e-02 4.613829652616852073e-01
-1.238402738181998593e-02 4.508879587373561953e-02 4.548554055852553346e-01
-1.531492564176685674e-02 1.692762889268600163e-02 4.428301182659263313e-01
-1.248918905303290569e-03 7.801207361816369507e-03 4.416352755209924652e-01
8.789021301339693809e-03 5.094064375525009236e-02 5.310557040098260462e-01
-1.871133565379588803e-02 1.166359347278636896e-02 4.403365439732199182e-01
2.642593820660661674e-02 6.431946244479427865e-02 4.997838939827613514e-01
1.509393925667901638e-03 5.051998190601617034e-02 5.386862343802555353e-01
4.191265533195986936e-02 2.492177314640550007e-02 4.713180971891932636e-01
-1.309013846684282598e-02 4.771472031330666053e-03 4.387984483181560091e-01
-1.353184203108840668e-02 4.406231204251979255e-02 4.543933012704757246e-01
1.198837311169519658e-02 4.748842402118253619e-02 5.304378055504709311e-01
3.457135819737330168e-02 5.323686930493667230e-02 4.898929965244210316e-01
-2.585690040468236264e-02 1.195958810356741869e-02 4.406465239147559498e-01
3.577494204091645480e-02 3.852558986280631148e-02 5.089718520102135546e-01
2.297052962482332150e-02 3.261217012369180268e-02 5.288679026832401320e-01
1.709498334178977119e-02 3.846837060441562345e-02 5.320442345981473142e-01
-2.067720644350223153e-02 5.781844710996180553e-02 4.609440692271106754e-01
-3.514144550940934836e-02 4.343469251263654823e-02 4.548860273529132248e-01
2.914727917340453889e-02 6.263252646464916029e-02 4.916388912660680788e-01
3.769147601970786188e-02 4.740582032249662792e-02 4.911121545724684845e-01
3.175657343895056661e-02 2.788053123408664596e-02 4.615367669299421660e-01
-3.736503610769608460e-03 5.137635952288403807e-02 4.576498769883223239e-01
3.758720490835835981e-02 4.320745329362946779e-02 4.784812678088931071e-01
3.145247287909577055e-02 5.842242213451549759e-02 4.932286554123623268e-01
-1.733856635128666439e-03 7.040190497029893968e-02 4.712336415810970958e-01
2.093854016196922130e-02 7.189677432600287410e-02 4.960043018522161118e-01
-4.229441330124070891e-02 3.671642124260694751e-02 4.515936309823918027e-01
-3.434293135724240942e-02 2.641460093451415692e-02 4.463998853589995486e-01
2.545850097684414053e-03 3.699734029147618702e-02 4.542092395207754096e-01
4.224353854982172002e-02 3.495980187678131984e-02 4.896542583905456048e-01
3.695349301929908015e-02 3.946154132579038354e-02 4.736442572516890714e-01
-3.890717663860404282e-03 5.872745775351229103e-02 5.228942703155343708e-01
4.289479297278275816e-02 3.032688377576021888e-02 4.795148304804537909e-01
2.781286965152293678e-02 5.856260586664866624e-02 4.756130403495876791e-01
-7.103313984371326627e-03 6.367630540674835971e-02 4.631422894841726312e-01
3.357600113560767902e-02 5.447840968285438262e-02 4.936425712653600972e-01
9.303470944537109433e-03 5.435290638070924829e-02 4.622002919540642019e-01
-2.213304931255559438e-02 4.140738038992095027e-02 4.525589768580744465e-01
7.092189317737514730e-03 3.585233721510956012e-02 4.547941007504799349e-01
8.789205220310850747e-03 3.991200331165414839e-02 4.568661697023573276e-01
1.830650910405324031e-02 5.716389814441386746e-02 4.671022973187558547e-01
-2.338730385533040884e-02 3.794490537589530199e-02 4.509558835879705074e-01
2.056087031955020072e-02 3.167398279985071674e-02 5.299990151944495853e-01
3.154678374699439181e-02 3.143374817510526109e-02 4.632688073994892797e-01
-2.682297107012126744e-02 2.637683262409236049e-02 4.460128804572570660e-01
1.016589023186881442e-02 3.990381856766869739e-02 5.347551562094882138e-01
4.303288945946816269e-02 3.108320657943527618e-02 4.827133484289878873e-01
3.923941005681095412e-02 4.371570600377129578e-02 4.933003340536992187e-01
2.198234893712941451e-02 3.338643575483796200e-02 4.584246928592227155e-01
3.119268012800951659e-02 5.770751825596585199e-02 4.978946390874929850e-01
2.623390111935989741e-02 5.794108038990832682e-02 5.117638802137041143e-01
1.633572332115710429e-02 2.383605665237350374e-02 4.520364829104321358e-01
-1.776705330580046968e-02 5.619802033513316558e-02 4.590885604803137676e-01
-8.589594304358369979e-04 2.035704146192105976e-02 4.467502764809063165e-01
-1.725503752110138164e-02 5.599083912376920033e-03 4.384755291008682887e-01
3.036924028719161991e-02 5.443916141076156345e-02 5.088902559128828385e-01
4.033005332238134150e-02 3.251304263796812172e-02 4.739984406418065177e-01
2.840958414030839499e-02 3.749997322158016982e-02 4.643676540713922440e-01
-1.418792871311520473e-02 4.780196018849840883e-02 4.556771779498201558e-01
2.852132312454866772e-02 6.359721864767337030e-02 4.872184124123184468e-01
-9.574342272576459242e-03 3.186851119784094022e-02 4.499255721963321131e-01
4.378360238955541356e-02 2.735700030795651730e-02 4.794611498918170400e-01
-1.000409850195062116e-02 2.562641974413375906e-02 4.471214960270360472e-01
5.999863457642660991e-03 6.194623936643294665e-02 5.293477358017736334e-01
3.187037864722223890e-02 3.009135591290443973e-02 5.213436310922857642e-01
-9.963770074402952814e-03 4.156897985965269521e-02 4.539331589360358632e-01
1.588185639199778121e-02 2.872326937498533711e-02 4.540468789094848079e-01
-7.256960770663926572e-03 5.858435705443436337e-02 4.593825691558801050e-01
3.897252328675181177e-02 4.449447627865505545e-02 4.916807563398722380e-01
-4.307587379914985803e-02 2.451578738281621345e-02 4.471937905304010918e-01
-5.751312748074753796e-04 2.573448335303702220e-02 4.489731167590961802e-01
3.483267164764929091e-02 3.701371190057154564e-02 4.687784592964890917e-01
2.881606113708124958e-02 2.417915854929313796e-02 5.249713615612880968e-01
1.885925745539077103e-02 2.843723742520640196e-02 4.548849849883947472e-01
1.097669162234087697e-02 6.933825279204879066e-02 5.092686707181741657e-01
-2.277693259114353663e-02 2.476841888828320778e-02 4.453226793558671126e-01
-1.475377394592014210e-02 1.748523124506319582e-02 4.431387265708195411e-01
-4.776395873167561812e-03 5.818238343437360377e-02 5.228223699800839119e-01
3.637402294876652259e-02 4.460772713832127784e-02 5.049653148556639826e-01
2.374065294059879427e-02 1.628130298231295070e-02 4.513795035497407682e-01
1.871796184006876626e-02 7.014204771485484102e-02 4.742531149311993710e-01
2.231801816742074590e-02 5.575675426896657683e-02 4.692545889374174495e-01
2.186434213900818185e-02 6.330293041918753916e-02 4.727307802052559960e-01
1.953673051489765097e-02 6.697623989324244520e-02 5.079208509974607599e-01
1.496242300964904445e-02 1.225647588930006346e-02 4.467309693666194903e-01
-1.496726887643625922e-02 1.706953657282153647e-02 4.429356048841401883e-01
-2.324079884779400515e-02 2.448842534787784055e-03 4.376429799290320610e-01
-1.353586321361367403e-02 2.764643535923582557e-02 4.473350110222287790e-01
4.748326776771797687e-03 6.895680770074925914e-02 5.033225152856807272e-01
-2.582440744444041564e-02 4.274198106903644850e-02 4.529323814305166729e-01
-6.106782979307869008e-03 5.915412900643648303e-02 5.272898941666778194e-01
2.933897477652465738e-02 6.241372378967641882e-02 4.898920885743776599e-01
2.742222935182452373e-02 3.660097125570994925e-02 5.225994859614361276e-01
1.406766043793271359e-02 4.691514393199077565e-02 4.612153825026156229e-01
-1.097952109877537927e-02 5.391052176117137884e-02 4.578861617991506483e-01
6.569293070463584107e-03 7.312652227686274042e-02 4.711820671358111223e-01
2.075017898003969630e-02 5.130154440405445410e-02 5.207856749918464700e-01
2.742059826593614205e-02 3.816717372064699215e-02 4.640786512376312012e-01
2.066666466692108212e-02 8.523446469186410704e-03 4.470349538372045406e-01
-4.334066023322533101e-02 7.670057269795987724e-05 4.414964387579937144e-01
-1.322832430898962346e-02 1.072732944698722400e-02 4.407699953776022528e-01
1.794588726719107200e-02 4.813330238558535812e-02 4.633193983975777419e-01
-7.337668359051611675e-03 5.716906063076714756e-02 5.257147379982002322e-01
5.297593623987831638e-03 3.422572620181857372e-02 4.536885551675725048e-01
3.589889980222180088e-02 3.641985255934546140e-02 5.087675132689285507e-01
6.301517548705465148e-03 5.433114046519849777e-02 4.610520365833739032e-01
2.787157207977992643e-02 3.010030053255413618e-02 5.258461901552666795e-01
3.822355100275780238e-03 6.372012011058329761e-02 5.308706385054260402e-01
3.615308028244997723e-02 2.519582096429143214e-02 5.157650050338361547e-01
-1.813039140582937969e-02 -7.685656772952716501e-04 4.371476882949271725e-01
-2.840527057472340931e-03 2.128001233735357309e-02 4.467230905732458845e-01
2.519224459522595438e-02 1.430696944984640416e-03 5.333853640891411674e-01
3.398150120278184416e-02 4.827452073079127604e-02 5.073413666746386941e-01
-4.159027190781906108e-02 3.881056523331786329e-02 4.532690649291979956e-01
1.357558358017971548e-02 4.483219979198013044e-02 5.323984262410343948e-01
-1.190339710745642356e-03 6.211368559476695278e-02 5.348347053231593540e-01
2.529799509155190515e-02 5.315687996868353332e-02 4.703824931020091360e-01
3.648456452276028356e-02 3.850427490564795052e-02 4.719486813293318206e-01
4.003054022390640371e-02 3.573744606686053010e-02 4.761124510465830628e-01
1.418315739663190446e-02 3.085491129040326269e-02 4.544524758299244849e-01
-9.305902572835501700e-04 6.280106973008572901e-02 5.269669071404912142e-01
3.797955030799098075e-02 2.952166008449294207e-02 5.082038472847384414e-01
2.933539046079924190e-02 2.583389837360620944e-02 4.588672610329292967e-01
2.282620170023662645e-02 4.354580137011226232e-02 5.225616209665149281e-01
1.841733734661479133e-02 3.540619183471389181e-02 5.312259654658947339e-01
2.568287210769143111e-02 5.232246916999976072e-02 5.162636053011030457e-01
1.492135780408048937e-02 6.868235959525235967e-02 5.095401012907936344e-01
2.923832480069135653e-02 3.797493138857905431e-02 5.175571587445719768e-01
3.749205087609227410e-02 2.903107117539579368e-02 5.095729576366376801e-01
4.461993117451152485e-02 2.605385513711200307e-02 4.905231310126948463e-01
4.086423664890528190e-02 3.943205444830395062e-02 4.903406252488606842e-01
2.612481977883253023e-02 6.118679489430235013e-02 4.754789834019284012e-01
4.240281980275083240e-02 3.137175679297775355e-02 4.781187855728348812e-01
1.848762572896311962e-02 2.184363449699745427e-02 4.517288130148700009e-01
-2.766197181896294308e-02 3.605416628877813889e-02 4.499346101657592523e-01
1.107837793272357062e-02 7.909174360936681303e-02 4.804838370043192364e-01
-1.847722657323179474e-02 1.474892251238563590e-03 4.375911570693546415e-01
6.744221439701492127e-04 5.906794178387486140e-03 4.412378900965639450e-01
2.027003540818278146e-02 7.178208936411031860e-02 4.981811163800021758e-01
2.552443406450071242e-02 1.717136386607493598e-03 5.332954448584734664e-01
-5.125166175970976949e-03 5.939387674861146965e-02 5.384733654319844298e-01
-1.332478526665932875e-03 4.900862376501474715e-02 5.386150130662913371e-01
7.893715838485065167e-03 4.634059188743951813e-02 5.360838588671701377e-01
-4.045581878430371328e-03 5.711952402891568026e-02 5.407621853319852789e-01
4.819079108775177651e-03 6.423689405806914943e-02 5.224048252003261616e-01
-5.343276401776385701e-03 4.727635644523751901e-02 4.562506892265027481e-01
1.019710421123493083e-02 7.919689760636107467e-02 4.773693338283019338e-01
1.902431211333283773e-02 4.145121997841581113e-02 4.609397473922953736e-01
4.095662889314640939e-03 6.408985020722403336e-02 5.181083765837940502e-01
-2.934644265136990976e-02 4.720343491738630132e-02 4.562036439321891512e-01
7.913504541253552418e-03 7.827561848307347525e-02 4.812117297866937426e-01
-7.915751879745608344e-03 3.922909081691769440e-02 4.533193323859952550e-01
2.322291890860407951e-02 6.918709776684936474e-02 4.801260871437976196e-01
-3.052880136058983528e-03 -6.225826533549022948e-04 4.383161756585188806e-01
-5.552667789382405641e-03 6.254653424063733036e-02 5.353137003490453516e-01
1.720281646914535723e-02 6.081528613098458047e-02 5.202215455551599810e-01
-9.185872114412034842e-03 5.872675502912089868e-02 5.342549093698779616e-01
-1.798028248849370750e-02 -2.506790567649123946e-04 4.372511028730910465e-01
3.523204144211317113e-02 2.954499048361546032e-02 5.140015856382060822e-01
-4.174609965980170118e-03 6.035291730661440646e-02 5.370616801372688487e-01
4.107600435535886663e-02 3.159752340534299764e-02 4.747775413730355720e-01
4.298127407016478357e-02 2.394191606008378922e-02 5.000343069665588169e-01
-2.231552942893484572e-03 5.115883590089870259e-02 4.578470592129703642e-01
-4.280309955596506809e-03 2.252030629303024972e-02 4.469303265899642330e-01
1.150107664627677412e-02 7.576436551476728454e-02 4.952861009312529705e-01
3.909356481924003424e-02 4.156639373245944041e-02 5.003312417639564913e-01
3.440572740610362695e-02 2.736075934878071103e-02 4.632528533137938997e-01
1.774524907405825719e-02 6.830214328778784483e-02 4.718923018470458364e-01
4.043307301338219806e-02 4.042982944126471967e-02 4.889988666098460945e-01
-2.536431982414137989e-02 3.545396935839362912e-02 4.497032583106418957e-01
-3.950523027955828159e-02 3.266689996636227417e-02 4.489216365171325163e-01
1.168097174087379814e-02 4.589072998204560272e-02 5.331109329904162308e-01
1.112233580859868162e-02 7.221659953772095741e-02 4.708098973229575268e-01
3.876958638927907597e-02 4.416672796631060383e-02 4.963774104904784545e-01
2.391849728040748926e-02 2.132481211829604512e-02 4.537855386626214460e-01
2.779572700729550025e-02 1.636809068000875250e-03 5.334501952271559766e-01
-7.249206063996586902e-03 5.858888427755553491e-02 5.396135953857754686e-01
2.624667310917783158e-02 2.504416795066743279e-02 5.270315809896509718e-01
3.026835225889149342e-02 5.723806777999174145e-02 4.775300436793580849e-01
-1.598418170136758562e-02 2.794882203833589859e-02 4.471087349537219424e-01
1.750952776244827508e-02 6.258286421126242616e-02 5.184545088697442017e-01
1.309149116677879587e-02 6.821102671359843828e-02 5.121140148048761720e-01
-4.149027673652277287e-02 2.510897645566290484e-02 4.470545798593102971e-01
2.214955664179181841e-02 7.243769327043333983e-02 4.867115627672859990e-01
-1.780802959981353864e-02 3.794601177501782246e-02 4.515251842086647205e-01
3.088660158052129040e-02 4.809135918163155721e-02 4.726613930390469176e-01
2.958444215873026750e-02 6.187634346601435242e-02 4.871157841405069910e-01
9.632946943315730953e-04 3.261425656748714874e-02 4.520892997318131101e-01
1.986868064136421488e-02 6.706557948396746349e-02 4.730167471689611935e-01
1.036132687702070315e-02 4.508078644275168717e-02 4.592693020857487318e-01
-3.419865422493628682e-02 2.273724289261836676e-03 4.391846187637959420e-01
2.866639094210630262e-02 4.211785629510406831e-02 5.170425610441107267e-01
-1.015328940825734050e-02 5.723447268042088781e-02 4.589905878376704940e-01
3.006748391274761782e-03 5.113205055143773409e-02 5.367227292262209959e-01
1.205060038191547566e-03 3.981273549758030522e-02 4.550543734564675424e-01
8.723372722003892507e-03 4.891266275456684909e-02 5.327875997412402365e-01
1.060557683377403269e-02 4.290495312562286889e-02 4.585602070963457622e-01
1.012042893989708106e-02 7.469588643076176260e-02 4.987703419471065658e-01
2.960199922612481369e-02 2.272456510150157316e-02 4.575663624551201680e-01
2.622641020011810126e-02 1.289794946432924749e-02 4.513042339829479443e-01
3.974723283771511295e-02 3.517874590156079562e-02 4.750156760954795110e-01
4.042928420647924626e-02 3.751313161651939621e-02 4.985999013593972462e-01
-6.778467017321175569e-03 5.821914859932969533e-02 5.265896620287379148e-01
7.221131928673173075e-04 1.898286194474089333e-02 4.465088400997343498e-01
-1.982368330939261389e-02 1.366783478897195918e-02 4.410783197396597188e-01
7.861016135306507502e-03 7.520047889205724867e-02 4.944844989221850451e-01
3.186442575984474446e-02 4.425586389993235725e-02 5.123707362946493538e-01
1.603539188754106448e-02 4.269030851645704699e-02 5.319591702112488329e-01
-5.797530568470697122e-03 6.228113605669748781e-02 5.346097272674902312e-01
3.567944718743135818e-02 4.783676074244077453e-02 4.797094465897862592e-01
3.261178961918743957e-02 5.193399020000855765e-02 5.064797025898033489e-01
7.058437084562506174e-03 7.019427678011565253e-02 5.041031652106137129e-01
2.472212737102710486e-02 6.906309941158363108e-02 4.837735745876085014e-01
1.704873507945828953e-02 3.499170171352628672e-02 5.317834275688680945e-01
2.809631577286926182e-02 4.542191287436674052e-02 5.164788421754140657e-01
7.940206159953513976e-03 7.956186283059711595e-02 4.772632220134783165e-01
3.280909780306326406e-02 5.607607885208260728e-02 4.837566532108156792e-01
4.291194208043514619e-02 2.853215978117238510e-02 4.769485684449391583e-01
3.737286585950572171e-02 4.761389891447477540e-02 4.855479374096159373e-01
-1.763211365092806626e-02 1.847658115279267755e-03 4.376689327129689167e-01
4.142355372726452128e-02 3.621531112781156692e-02 4.827608926257263011e-01
-2.760081313807274256e-02 3.819475112975170145e-02 4.508725807503503602e-01
1.660807485660639737e-02 3.688422327086354063e-02 5.321265364938136955e-01
4.512406670252484819e-02 2.420280007536345160e-02 4.822607761933456749e-01
-4.097136636361016493e-02 2.447669743151009020e-02 4.467843509924375178e-01
5.286726954590623834e-03 1.804760785741544096e-02 4.470407102765878715e-01
4.273069174239645801e-02 2.521575326642593040e-02 4.732698162236511075e-01
-2.843577748696646691e-03 5.801894780401658375e-02 4.596896196507154753e-01
-4.827640204521230910e-03 3.656462991960712783e-02 4.526682628253542173e-01
1.011837551423611092e-02 6.431360767928348543e-02 5.246763641746409190e-01
-6.665231487030246621e-03 6.150885829102396146e-02 5.363610786119601403e-01
2.746195869325306418e-02 4.158702139058680081e-02 4.658361911667113220e-01
2.889257371309071273e-02 5.658992932807747900e-02 5.092552082548275072e-01
-5.793437411342715337e-03 1.365954406789237491e-02 4.431564573909659854e-01
-1.938881863098178802e-03 2.310191740824022594e-02 4.476334326885624271e-01
-7.196336326827255589e-03 2.216915050751389928e-03 4.387848569820906319e-01
4.392456477947468373e-03 6.169333353863953179e-02 5.306801538662065942e-01
-2.968731668460660930e-02 1.976937382505918397e-02 4.436160509470347124e-01
2.405241590378289634e-02 4.000041810537485754e-02 4.628278609991914316e-01
2.677684252673134813e-02 2.707511865002507068e-02 5.261866422147218891e-01
4.066565515690663546e-02 3.992327148996098474e-02 4.898831394216037194e-01
-1.234556402011122850e-02 6.801041777353144385e-03 4.395996352399132445e-01
2.465748877017114038e-02 2.084632736722330515e-02 4.539527384273744914e-01
2.242502786886274926e-02 4.320195517444398031e-02 5.232933417885851091e-01
-5.995993847099505801e-03 5.225252981102142258e-02 4.576483057587186210e-01
3.073311766188218178e-02 4.424126160520350931e-02 5.140594161602980439e-01
1.678456619500589761e-02 7.705896480333980503e-02 4.868385857129191585e-01
-3.110200414554048498e-02 4.791299710706372478e-02 4.570677511416097460e-01
1.423289235054737631e-02 7.650514600964759826e-02 4.921881650396943142e-01
7.973711265973638593e-03 7.583771651397316904e-02 4.901853610470071065e-01
1.140102582191968895e-02 6.959119442552551271e-02 4.691886092842442180e-01
2.877596853195456619e-03 6.059240179414717570e-02 5.318782184844881300e-01
3.353047051569185699e-02 5.458720228536950020e-02 4.935444176290288976e-01
-3.292054305381333923e-02 4.097491393067569793e-03 4.392685241363148974e-01
2.195356273909684214e-02 5.237735339974006199e-02 5.195388305761216019e-01
2.128370756030232777e-02 6.730472385042331196e-02 4.743524094139695557e-01
3.669563393081999580e-02 4.638774796196849792e-02 5.027861042226743349e-01
-2.230179858060750073e-02 2.007190317303069946e-02 4.435023747662927840e-01
2.765779894647681786e-02 5.623697807681500571e-02 4.740941238842224514e-01
8.959148054213592061e-03 3.187439258518460355e-02 4.535529449911547828e-01
2.668682209571364775e-02 6.650289829008988740e-02 4.864708457810211217e-01
-2.640421967403825537e-02 5.625652161323996779e-03 4.387217483207908053e-01
-3.791585360291106765e-02 3.790424644091851258e-02 4.512334698885774875e-01
-2.238406153451969610e-02 1.537840592489961994e-02 4.417121636221633119e-01
1.918437886076703597e-02 5.450779602607119800e-02 4.665571840324738151e-01
-1.653250210365815945e-02 5.425875637088013043e-02 4.580932239630323699e-01
2.565057789314428849e-02 6.392135194633721644e-03 5.315747207085653736e-01
3.494494240679222458e-02 4.341888467498620369e-02 5.087070676609423137e-01
4.061576595648812293e-02 2.162531824513772710e-02 4.665105990951450288e-01
-6.788875178151550574e-03 3.095019492265433519e-02 4.499622166275346613e-01
3.340037620043793259e-02 5.264148614752658939e-02 4.805338412807408366e-01
-7.164197837107834192e-03 5.914708109638838751e-02 5.394675098764005750e-01
1.454820265027922770e-02 7.208935320317870488e-02 4.723881763363548814e-01
1.375587517024559614e-02 2.531700527019060953e-02 4.519171181390131409e-01
-2.693349082112123788e-02 3.384974446001495774e-02 4.489933747792693719e-01
2.752221079969922879e-02 2.950539416277280641e-02 4.596709445809973316e-01
-3.934944780832482988e-03 4.540508700370486650e-02 4.558761410083039811e-01
-2.616393735298346360e-02 2.801116335272794532e-03 4.381372489740055221e-01
6.120293558838510797e-03 4.734653794815638778e-02 4.588638430112997324e-01
-3.079542511497066620e-02 1.269929502025213611e-02 4.418258855354350034e-01
-1.695986211188547227e-02 1.551453085220952897e-02 4.420187162969844707e-01
1.450147864964666800e-02 7.762843011757844525e-02 4.844194369612432882e-01
3.233584555409695777e-02 3.478514177940198598e-02 4.655998106109430767e-01
-1.626672102486753039e-03 6.194322259101469469e-02 5.264198011410546885e-01
1.222197546867837166e-02 7.267010210639962553e-02 5.040964707113886334e-01
1.340410591798453510e-02 6.273920314823319688e-02 5.228660758003471631e-01
-1.412604242542091736e-02 3.473564317525194844e-02 4.505612442961507424e-01
2.579925866031997257e-03 5.172004339174765541e-02 5.368591540660432315e-01
2.231032580792379968e-02 2.951868504594309939e-02 4.568318873283233605e-01
3.867307371315982512e-02 3.567637459010459394e-02 4.733554493052899992e-01
1.352063337146378920e-02 7.650723718283646002e-02 4.897209727513586186e-01
-3.524652692362605089e-02 3.943878882449407264e-02 4.516434929027441925e-01
-1.739916439967294920e-02 3.069123694628437746e-02 4.482881564524617279e-01
3.983968007247198906e-02 3.250821848376294482e-02 4.730212524270474561e-01
-1.226006401074148863e-02 5.344968968040556684e-02 4.577352520717450912e-01
2.664092898395492570e-02 7.491115384838813174e-03 5.306109498266284863e-01
3.529385827138904752e-02 4.413493730121419850e-02 5.078347533011285941e-01
1.385563709476659092e-03 2.600215239321827104e-02 4.494724183454276156e-01
3.631191305809237935e-02 4.872968781845771896e-02 4.984282166645426226e-01
2.257036840222564900e-02 5.208454775989612012e-02 5.191573460185832101e-01
-3.832746333558229718e-02 2.254250843071787386e-02 4.457362470889512651e-01
-2.403891642783233945e-02 2.628709849341310384e-02 4.459315037260811465e-01
3.720451077367921411e-02 4.642608542719183634e-02 5.015833144918498965e-01
-1.918566977702422169e-02 2.049059876933495561e-02 4.437808893517338760e-01
1.564678683480880475e-02 2.722923546601875924e-02 4.533099612469315698e-01
3.021530069659471296e-02 3.855512562436659574e-02 5.164979628938373146e-01
-3.683351953415953811e-02 2.756250698162147905e-02 4.468986026382244514e-01
7.075208905118760688e-03 7.857229071186121183e-02 4.760669652713730438e-01
1.253692570244498497e-02 6.569338443275148098e-02 5.186131531974184083e-01
2.422637957546705609e-03 4.646175849865182006e-02 4.575009033608555264e-01
2.707653054980590362e-02 6.425838182940492305e-02 4.966445119800231844e-01
-1.559625337150989319e-02 -2.149615120401231205e-03 4.369048046185307066e-01
4.115823535428447810e-02 3.699088545288550106e-02 4.824242710353999208e-01
-6.369019382129450547e-03 5.577782227219502120e-02 4.586710003059702445e-01
-2.042407926089117275e-03 5.471892058765841227e-02 5.403866162716204347e-01
1.705980610647406595e-02 5.982730059610218837e-02 4.674815899876318404e-01
-1.860471933025927699e-02 3.356448286256766278e-02 4.494718391792725254e-01
2.185042840237562400e-02 7.195986505943711975e-02 4.924097065916775429e-01
3.302175512626411014e-02 5.112908395870460754e-02 5.064537964694123540e-01
2.194295211499413048e-02 6.619190887618954522e-02 5.060779817428934235e-01
-1.475091641211993820e-02 8.103201333290489805e-03 4.396120378807993889e-01
2.755896845155027947e-02 5.445428974181896337e-02 4.729495369921100645e-01
3.905185801188215677e-02 4.344109284347876659e-02 4.838647495757405492e-01
3.174517558157581576e-02 3.531940520469365602e-02 5.152915287265823485e-01
3.976135237934311228e-02 4.101216425362798346e-02 4.971551096607337850e-01
3.578982039084938060e-02 5.028404347360593968e-02 4.943830175043636976e-01
3.955240949407498596e-02 4.197887299107625619e-02 4.833849279311744906e-01
5.733718249863071700e-04 3.719844425663446086e-02 4.538739752161533025e-01
3.652298637260754238e-02 4.718956873867399815e-02 5.025093139462979419e-01
2.812770963611186531e-02 7.327556891468096217e-03 5.303908639600484198e-01
1.661292160184744959e-02 5.429589105904922275e-02 4.651556623722246098e-01
2.266583031733186010e-02 6.832505295267092549e-02 4.995988319453287252e-01
-1.736128326771469582e-02 1.538567697258333769e-04 4.373341562929295989e-01
3.498113140069008392e-02 4.247901649275379055e-02 4.731359658520344902e-01
1.713813613664131111e-02 5.643171972491139998e-02 4.661630752256409882e-01
9.270923297291218043e-03 5.392246272126725165e-02 5.292711306746448185e-01
2.028153062103850435e-02 4.424537963669802898e-02 4.629120519335651052e-01
5.349282302526581385e-03 7.815088143158367695e-02 4.788669506628207562e-01
-3.004671569556305322e-02 9.507477880823685112e-04 4.384463421762128665e-01
1.653095159078088114e-02 7.107807794883412578e-02 5.048714209543624376e-01
-5.876181692048234977e-03 3.602713294045975512e-02 4.523376688069517537e-01
1.655173304996647964e-03 2.581750936522318046e-02 4.494519443037240380e-01
-1.187876844810121547e-02 6.815899214118910365e-03 4.396776402796795935e-01
1.246891063364076978e-02 2.100742011609356766e-03 4.421118372481509518e-01
3.420539456437246550e-02 4.924885204802470495e-02 4.779579757147333630e-01
2.945839101279882494e-02 6.177330253519268399e-02 4.840545981955448607e-01
2.755379414685026757e-02 6.225763103132120335e-02 4.778350957395209320e-01
-2.769188607674064745e-02 2.894168525403666842e-02 4.469779771901428167e-01
4.543785075459551986e-02 2.402489110433306957e-02 4.888163866713335914e-01
-3.175551245166784164e-02 2.547431868749564648e-04 4.385771732464061046e-01
2.261569932282515155e-02 4.508540694754185202e-02 4.644909644305542651e-01
2.509444657189808733e-02 2.721180180237637442e-02 5.273911883115353083e-01
1.648591212923232116e-02 7.473327306798384362e-02 4.996585841730396549e-01
3.117563673852268014e-02 5.337182967395381894e-02 5.083499923371798124e-01
2.949625764908397202e-02 3.288443124224066372e-02 5.236127818265573497e-01
1.052379988147705142e-02 4.808995180042242162e-02 5.315685534182366112e-01
3.383516466560115843e-02 5.289922946010512661e-02 4.982483557074064984e-01
4.415383201135198929e-03 5.535171970413822057e-02 5.326726217667155927e-01
4.041239892769717124e-02 2.479037269019802869e-02 4.681174949440122801e-01
-2.402485827633998004e-04 3.423613738123257311e-02 4.525036754836164188e-01
4.283834279273289643e-03 6.427475880907602968e-02 5.180086033827842051e-01
-2.928082929188436864e-02 3.882149823594115839e-02 4.511675117154032022e-01
1.085977011614106934e-03 5.723363409681973130e-02 4.603312582566884692e-01
-6.665453844062621883e-03 5.065876405454732001e-02 4.571018584240042482e-01
3.198043440450869940e-02 4.193167749170817471e-02 4.692509087762786191e-01
1.017643155152885698e-02 3.540152399508161157e-02 4.553370109887932005e-01
3.756723969924588569e-02 4.698009150384777760e-02 4.958637282019711656e-01
4.300269340192365390e-03 7.185392308032852171e-02 4.709442072428746129e-01
2.380040325783500457e-02 3.747495289329953044e-02 4.614528142857581283e-01
3.928021219341024106e-02 4.375804849346055792e-02 4.924947985084140445e-01
1.524863731947479970e-02 7.067614026140679739e-02 5.064322993056993294e-01
2.478338228807245441e-02 5.938231478144054970e-02 5.123441227755262117e-01
-2.044248516672542149e-02 3.587571882097513598e-02 4.503061661033915253e-01
3.632665692695355442e-02 2.007883366250953761e-02 5.188598504410312229e-01
-1.271980550745220942e-02 4.405960715572818792e-02 4.544843639688951331e-01
3.232672270275882553e-02 2.488645477808292678e-02 5.220939428946054228e-01
-1.451557054837202682e-02 1.153572925542874911e-02 4.408452779791666720e-01
3.396560991632752852e-02 2.811643675659877134e-02 4.633137554956842652e-01
1.924911273579611726e-02 3.084559694060223095e-02 4.560806205348006959e-01
3.611238049241288078e-02 2.456255984778584617e-02 5.164731850646009370e-01
3.784446371555533900e-02 4.584328318286524928e-02 4.993292562420811320e-01
2.670659654906145861e-02 4.863678353848910341e-02 5.168923359004383711e-01
2.711942336909674983e-02 4.184501329622908328e-02 4.657351865163374405e-01
-3.618997537725417678e-03 1.634623506190101966e-02 4.445893934648019186e-01
-4.239951871544132833e-02 3.110563633583881410e-02 4.489171909459039878e-01
3.746671876553719915e-02 4.521069331937046382e-02 5.018425477963122106e-01
2.997974856875432192e-02 5.875744977651296830e-02 5.011023092303170667e-01
-2.271197915622269470e-02 5.707865439398727980e-02 4.608641847042232453e-01
3.281123893998751789e-02 4.254353255356329438e-02 5.120391764829974601e-01
-1.759874596562544836e-03 5.545634187286985900e-02 5.391338313746704136e-01
2.094771630549556798e-02 2.094013340301953408e-02 4.520652023100779626e-01
1.830053148767618251e-02 4.736415073242612739e-02 5.246545129288783249e-01
2.525164119406541480e-02 8.988772218746818310e-03 4.490562844419486721e-01
2.524434255026592605e-03 2.086340723911869061e-02 4.476301444189899614e-01
-2.467888877318590024e-02 1.754916721535719482e-02 4.425296020771794514e-01
2.233542182173587839e-02 4.429775267585225884e-02 5.225211980061713612e-01
1.529174492174535833e-02 5.974201716578987631e-02 4.665410697817672925e-01
2.778746873832096606e-02 6.454372068762662118e-02 4.848133011066584896e-01
-6.679444059781580387e-03 5.442043508902121018e-02 4.582316610098824405e-01
-4.036452400415319053e-02 3.843560549049854919e-02 4.525499990107119119e-01
-2.585885264452024088e-03 1.627932721354733228e-02 4.447591685115748761e-01
3.283883417866282489e-02 4.890920071544231640e-02 5.091579616348634874e-01
8.943339267730200659e-03 7.264526153128648966e-02 4.706382070183858790e-01
1.041858703830516979e-02 7.928334148925943181e-02 4.820004075936717980e-01
1.570487835580890515e-02 6.374747195177443704e-02 5.186349738313368318e-01
2.229516073386823491e-03 3.773023888837181289e-02 4.544346612103765670e-01
4.242376676451620893e-02 3.327903597233873578e-02 4.839741256175085771e-01
-7.063776266039850649e-05 7.074496591014994840e-02 4.708113455824576854e-01
2.762023946951803338e-02 5.584668797206351204e-02 4.738320721525854928e-01
9.379685531788988298e-03 6.519121339832840978e-02 5.199225178346736920e-01
-2.529207659512467538e-03 5.945907354146742069e-02 5.211485841051308743e-01
-2.015022681687123063e-02 2.084063067258917767e-02 4.438278024418739198e-01
-2.187999938006027906e-02 9.630408934984194258e-03 4.396121165728929525e-01
3.042238835785325557e-02 4.067285979452191225e-02 5.160557947157837777e-01
2.471268511917186148e-03 5.219232457850624118e-02 5.366975786597053544e-01
4.042765241901169482e-02 3.886737019287576228e-02 4.801019394631599324e-01
7.748473807257164406e-03 3.082434890739484470e-02 4.528313856566575368e-01
2.924726375455206917e-02 4.636674701548126887e-02 5.149320749765960992e-01
2.654149586552784212e-02 3.398117780464178506e-02 5.261093319819937220e-01
1.592692543813916534e-02 7.642072870753702230e-02 4.926702458077136804e-01
-2.342801828898510505e-02 3.053081959836394417e-03 4.377551577618729040e-01
1.168868955833941327e-02 7.427752591324707221e-02 5.006166195696550858e-01
-8.566764532641562083e-03 6.189658773913055828e-02 4.618362981387237332e-01
7.450267627538200224e-03 6.434150558545309595e-02 4.650458172781239963e-01
-3.205124226994903076e-03 5.562376645321939761e-02 5.410881594706550279e-01
-2.188779272367116779e-03 6.338809992600721865e-02 5.320704426457388836e-01
-5.473077610104013120e-03 3.174849626294247440e-02 4.505097232133402074e-01
2.292650129152469171e-02 6.831162658624334583e-02 4.990725244752299838e-01
-1.083001449226693447e-02 4.567023150709708518e-02 4.551813473512533181e-01
2.483221642491229703e-02 1.902441963188435461e-02 4.531876544470167523e-01
6.087170026679734197e-03 6.223227099414702090e-02 4.636857930904556557e-01
4.253336071112895009e-03 6.468786589436663348e-02 5.126686261826869373e-01
2.098746127707524708e-02 3.846996194226859345e-02 5.295988469932908504e-01
2.016389019972670074e-02 4.162695924845444956e-02 5.283929237910477417e-01
2.359742458050943792e-02 3.504502609511660205e-02 4.600637099761372140e-01
4.252336528329534598e-02 3.189288083250869238e-02 4.799043189534336618e-01
-1.225592566207918746e-02 1.209368193921530124e-02 4.414645474034261663e-01
8.112740216193530321e-03 7.731725983836557070e-02 4.754565286473479979e-01
3.671657756602744738e-02 4.291590050165178943e-02 5.055438533303179272e-01
1.515301977640998166e-02 6.201109580344904733e-03 4.443192825465686613e-01
2.855220208190942244e-02 5.447313877684198391e-02 4.740886156103381599e-01
7.201167028122861316e-03 6.564462065601832375e-02 4.656053961884853987e-01
3.390590549594808129e-02 3.789306077150803032e-02 5.118838227216926384e-01
2.509786175325497484e-02 1.044778388539695929e-02 4.496068048013985852e-01
3.625308073157130356e-02 4.568771956924893435e-02 4.782922146231810556e-01
-1.516846836942499326e-03 6.781285142005818306e-03 4.411951074657997074e-01
3.004242339516088531e-02 4.437221561835235500e-02 4.691241721877048021e-01
2.626218301589056808e-02 1.629202132598463540e-02 4.527449843162438259e-01
-7.226871858216213536e-03 3.852221706018181535e-02 4.531471900616949045e-01
2.980513644013233973e-02 4.325362109445352737e-02 4.682667794016666107e-01
1.522085925029269260e-02 7.630144111488236514e-02 4.805045993334447485e-01
-6.162302605826161517e-03 2.452550676018611705e-04 4.382744141439677832e-01
3.958244745255071889e-02 3.849852257204389866e-02 4.778936694210599856e-01
-4.690744560803723068e-03 3.915604786677712862e-02 4.536798560931816771e-01
-2.516180672348118305e-02 3.847413555355515963e-02 4.510152636985638730e-01
2.913486527340614779e-02 4.610551233354525519e-02 5.152627997289008777e-01
2.748986433402044599e-02 1.386382303667555230e-02 4.524123194004501247e-01
3.615109860974355382e-02 4.807711787329443931e-02 4.814247562898231192e-01
4.212073358658336569e-02 2.822699403275936297e-02 4.986833992610533173e-01
-1.559779380077225622e-04 4.660557999976480681e-02 5.378095111930562000e-01
-1.990452524260050930e-03 3.554789824633589057e-02 4.526709082941431372e-01
-1.289927608040443083e-02 3.568476114560706087e-03 4.384462087538338881e-01
4.162108093648528989e-02 2.941243057873256170e-02 4.740568162066957636e-01
