3.079747896447188743e-02 4.298936956775727125e-02 5.148132047495057595e-01
2.851700797406942281e-02 6.503140585174903288e-02 4.899307977919250545e-01
2.094061812240921583e-02 3.274754420996672799e-02 4.574038295915676122e-01
-1.122615626213591990e-02 1.288637101530269204e-02 4.419986153235677118e-01
9.169543283964125269e-03 1.981399345353849692e-02 4.484935907157885926e-01
3.633613521678271535e-02 4.743142806062046468e-02 4.793314238846945741e-01
3.287855680617843279e-02 4.418058659650898889e-02 5.113281195674139745e-01
2.027809780979229412e-02 3.441629371579778968e-02 5.304890126806229844e-01
5.880662088485567006e-03 2.673174214624917180e-02 4.506542015006617663e-01
3.653569972478592359e-02 2.692419278982381703e-02 5.135660083833797351e-01
-3.106578992784290571e-03 5.949570111345808127e-02 5.290526358409908259e-01
-1.833021688371974656e-02 -1.758206278590026053e-03 4.370065979416835611e-01
2.832133122792176994e-02 6.046883243758135323e-02 5.051778756039823071e-01
3.546611676494055426e-02 4.684364562340463667e-02 4.765764703956397175e-01
1.470625136583693197e-02 4.317307738018321545e-02 5.326413929426765392e-01
2.695539443473800659e-02 1.717172188275226108e-02 4.533277549756244418e-01
-9.353412110339028029e-03 2.230970967465197713e-02 4.459405059485741507e-01
1.839690585336253154e-02 3.181192594724056855e-02 4.560608957817370301e-01
5.457995601542356065e-03 4.474672650571789173e-02 5.362216675896109841e-01
4.047747956464697872e-02 4.183933291143961813e-02 4.923897403368218684e-01
4.274786340271132488e-03 6.203002254237408031e-02 5.152070234918885161e-01
1.809353071098444843e-02 5.595899115034048965e-02 5.216871193725780564e-01
1.871653681960285323e-02 7.615886830227680537e-02 4.869250670021953997e-01
1.376158180420016496e-02 3.767003130162849961e-02 4.571463727416003597e-01
4.687785811232162043e-03 5.110747276419982943e-02 5.357046977209822813e-01
1.905586991039617123e-02 7.093156570452725795e-02 5.022140434248205665e-01
3.454788354362803987e-02 3.847034860864521899e-02 5.115921079379333047e-01
-4.610316743362749548e-03 5.721134880521085847e-02 5.374376808811182071e-01
2.901657775681809603e-02 5.818138454200558890e-02 5.074040473725455191e-01
-8.824481009544284972e-04 6.028965962672323126e-02 5.273612209824053432e-01
-2.215378069515151066e-04 4.473318330271567472e-02 4.563498480844879746e-01
-2.718313637043429445e-02 4.859559216148949534e-02 4.567471810979353841e-01
3.422624130705725909e-02 4.336846792285162927e-02 5.098780726474699820e-01
2.517540670710034355e-03 4.743834809294621147e-02 4.577152457001563146e-01
1.151425288694949214e-02 7.281487834991164088e-02 4.718340135805500490e-01
-3.195504476341669287e-02 3.163184433388416261e-02 4.482543971708948249e-01
-4.592283067539568511e-03 5.746089165004361621e-02 5.279717944559992882e-01
1.572166769252458796e-02 5.342146644019023921e-02 5.240239364838999991e-01
2.443955771502406837e-02 6.826182071922808070e-02 4.793680811661676922e-01
-4.066805179271954646e-02 3.977531550981455721e-02 4.541338763595345052e-01
3.375055850952205644e-02 2.847814649703721973e-02 4.629420253316371969e-01
-1.006937190793624065e-02 1.107034586650007361e-02 4.415061315973720091e-01
1.916278088432513127e-02 5.271796328587122910e-02 5.214765529061284877e-01
2.125278750679463965e-02 5.656665667978354878e-02 4.680779589076226044e-01
3.804530672095609613e-03 3.841811347868000909e-02 4.549899595847935463e-01
3.966362765726086023e-03 5.134044762640509185e-02 4.593240078971953522e-01
1.468585030870389087e-02 6.834165734130760728e-02 5.101293661123449397e-01
1.916161437115276173e-02 5.754653880033930996e-02 4.672345299621576964e-01
3.339539213048735300e-02 5.614722375316783670e-02 4.836388853920494668e-01
2.739530954830645543e-02 3.633777754198475041e-02 5.232518738224773980e-01
3.915217843921427188e-02 4.521857025312071843e-02 4.933840765273289630e-01
2.857616011300971245e-02 6.284701964180419709e-02 4.975819913491325575e-01
1.319567347934316737e-02 6.343007523669982883e-02 5.219394224554912975e-01
-1.960899766307410558e-02 2.670944331760654808e-02 4.463580051746741106e-01
-1.764023569180753204e-02 4.489369589715260650e-02 4.544527189233305009e-01
6.737813285957639127e-03 4.399733433396945531e-02 4.577650213735501294e-01
1.629183955731539415e-02 7.255322319045175161e-02 5.015790715720453985e-01
2.481268440396216385e-02 5.466102136331753986e-02 4.700847009192980486e-01
-3.592585083761129505e-02 3.859136803328932011e-04 4.395747912738361962e-01
-1.359533710217396621e-02 3.928495883349311830e-03 4.385076855986837496e-01
-1.409406603520623955e-02 -4.327561873645343303e-03 4.368007553130705545e-01
-1.550195284038087887e-02 1.105414007239988172e-02 4.405414103112606505e-01
-2.451061756522032037e-02 2.768597921970436179e-02 4.466139398882221223e-01
3.173545281358225445e-02 5.890147207444267063e-02 4.826887728342413308e-01
3.407366360637548858e-02 4.877013733323199568e-02 5.075654868075282211e-01
2.676179873355277392e-02 3.150116815181611130e-02 5.269251599473806502e-01
2.247605630811778249e-02 3.384551110052431977e-02 4.586117382227755668e-01
7.361094111011557903e-03 6.315754163553378986e-02 5.223827848399509310e-01
-9.676092184651046910e-03 5.289564329495606565e-02 4.577942607069042658e-01
-3.744447861960259472e-02 3.121246227797877179e-02 4.483148030654525162e-01
5.762099014431781852e-03 7.338762929003196656e-02 4.725134354218664678e-01
-1.382068843401931812e-02 4.629493123678772581e-02 4.552005671663456043e-01
4.205164118895453329e-03 6.246316627528613469e-02 5.275386057982326404e-01
1.808596042181569510e-02 7.462990579084580189e-02 4.983587217077231624e-01
3.066751296327151904e-02 2.621134921515733476e-02 4.596002703607486861e-01
2.270025383819312959e-02 5.358415831665405693e-02 4.678877950595646817e-01
2.230247989681657592e-02 6.193558359325572471e-02 4.715785105228053053e-01
4.071007990388415820e-02 3.724772283736524359e-02 4.996357465972703915e-01
2.119460960191107274e-02 1.561436166497089800e-02 4.498826572854386363e-01
-7.632478791553497059e-03 -9.235459082088453772e-04 4.377958689256226665e-01
1.464747715924100569e-03 6.173935352388505715e-02 5.325546950100561450e-01
1.699418632717730401e-02 7.626972902474091209e-02 4.880201760935698463e-01
1.287480269157588279e-03 3.071171633271208359e-02 4.513435002960330955e-01
1.310950747339168464e-02 5.010248890688057122e-02 4.619152497463654417e-01
2.876252830845718589e-02 3.900889831744237118e-02 5.183625191373333330e-01
3.332234788532136005e-02 5.239621513328882041e-02 4.778376020283787717e-01
-2.641087561240896067e-02 4.913446929389048839e-02 4.570318332547541607e-01
-6.155648459969858752e-03 6.226280490077396035e-02 4.621133739104416605e-01
-2.222181731996922954e-02 5.614604586501348998e-02 4.599963086898323783e-01
4.305267612110844078e-02 3.256359873540631139e-02 4.840209577918564987e-01
2.326485545015883477e-02 5.679120151703178493e-02 5.167750282572619591e-01
1.310137069073940598e-02 6.826082731004723403e-02 4.688692034043256962e-01
2.064966101478081517e-02 3.834338042355228682e-02 5.304370629782905189e-01
3.599280520753009305e-02 3.918239723153871951e-02 4.708072683336078645e-01
1.588815110930555038e-03 4.450916919214566517e-04 4.394520749451895636e-01
4.430771779269849359e-02 2.850839497755668084e-02 4.849197609392206787e-01
2.055260378267343563e-02 1.121617270148458217e-02 4.480254785591083477e-01
2.306766789054677871e-02 7.224289167327477279e-02 4.887982491652676509e-01
9.750778316676178212e-03 3.660217549875511428e-02 4.556309495279239341e-01
2.824072987085390202e-02 6.393526159259710351e-02 4.951000105989453726e-01
3.358930276855565111e-02 2.145593194764583780e-02 4.593348912052188093e-01
1.585413828778277356e-02 4.766745950570485529e-02 5.265734411294775708e-01
1.524569086460638226e-02 6.062882970285118911e-02 5.228659514234429428e-01
-2.567109659544970779e-02 2.844428094517563455e-02 4.469140440973188300e-01
2.294795034885065491e-02 4.533824759459323395e-02 4.644012855348417790e-01
-3.213074069187974585e-03 6.042193000009804527e-02 5.366035704531325612e-01
2.052982333110130175e-02 3.614679881603160682e-03 5.321305306571236793e-01
1.332831635211715986e-02 5.554732568147666139e-02 5.251723601654666451e-01
1.843084895712809174e-02 4.148271473416274141e-02 4.603442270214876952e-01
-2.159774785950568671e-03 6.231075185788322729e-02 4.621523586809863082e-01
1.008553834383685982e-03 3.925528120244432817e-02 4.547707488932730135e-01
1.442423223530192762e-02 4.275777423071802641e-02 4.595194117198474482e-01
1.947399763710646464e-02 4.173851075002852490e-02 5.295586557775779912e-01
3.760866321098839393e-02 4.654597841534886815e-02 4.813767715037187145e-01
4.573783826812602427e-02 2.401560903741467926e-02 4.879302146533673890e-01
1.347177338867936065e-03 4.822869799509470895e-02 4.576424521583948302e-01
-1.516563966229640681e-02 6.006282932355110071e-02 4.623614973256597316e-01
-6.543261671215283744e-03 1.251876714921361725e-02 4.426173361231282022e-01
2.601873219914197649e-02 3.804291199956938430e-02 5.235437379756769927e-01
-3.481983158127441302e-02 3.343272852586348654e-02 4.491184959033215907e-01
9.680018262057703965e-03 6.475014527005089338e-02 5.119681720605938624e-01
9.579379572922621516e-03 2.068332426268972360e-02 4.489445299958875202e-01
-2.741147554450303579e-03 2.477190855678218159e-02 4.481586725608048827e-01
4.025942336497828622e-02 2.270157693957357975e-02 5.079113635900439627e-01
2.501569597626125338e-02 2.715245433136487252e-02 4.568661985933858971e-01
1.305647538011575626e-02 6.542304280891750312e-02 5.143901241433310734e-01
8.810935226104292181e-03 5.648550625286588578e-02 5.285921651735376869e-01
-1.231928356934466895e-02 -3.654058361420061372e-03 4.369126805815180536e-01
2.777578877248137318e-02 6.442572283699091185e-02 4.803179411356154338e-01
1.374809603838714894e-02 7.607515178757393026e-02 4.762196328579088034e-01
-2.626320311647994954e-02 1.765713956867284717e-02 4.426831936244499666e-01
1.115516793073905930e-02 7.222113824446621533e-02 4.708900747771332385e-01
2.289221004457776473e-02 4.722439258134063927e-02 4.651509573302868850e-01
3.426222300414600436e-02 4.386091513581280577e-02 5.096549964909765640e-01
1.357033658373605310e-02 7.770619029009082079e-02 4.825477193773525242e-01
3.855964689701896209e-02 4.642994521371791861e-02 4.878497666981719827e-01
1.559775061397903305e-02 4.937513675744699057e-03 4.437639998122319129e-01
2.059759693822021086e-03 4.669832163210672904e-02 5.373269682456265350e-01
4.270867694340249598e-02 3.517492773071405343e-02 4.904072038226146568e-01
3.101684927629781707e-02 3.964855338815347074e-02 4.667672637384876477e-01
2.114732687943988304e-02 6.210016381297019800e-02 5.145039218924130076e-01
8.691362122862969150e-03 8.125296624194706940e-03 4.436386552622382795e-01
3.371984623354380012e-02 5.368650663473277518e-02 5.000300514423998699e-01
-6.311680981761444778e-03 1.353676691246521319e-02 4.430494940370361956e-01
2.335688963708289212e-02 4.862268943857459697e-02 4.660938458807367679e-01
2.431560487817700442e-03 5.686664537511072759e-02 4.605224078947366961e-01
-2.585206819641251361e-02 4.600708454469578518e-02 4.550709892210740848e-01
-8.121483672197978357e-03 1.756260553528234125e-02 4.443060146812404243e-01
-3.975382909778097870e-03 5.018551729628188685e-02 4.573146000971990977e-01
2.697558719320109627e-02 5.760718228110168343e-02 5.113536900067123803e-01
1.983992290088786026e-02 6.284265165762846495e-02 5.152955592634966830e-01
2.815853262961136652e-02 4.830525000973530381e-02 5.158158045441424422e-01
2.847599727378949050e-02 6.343786874869081216e-02 4.957620976953486802e-01
-2.111264354359734981e-03 6.632452885923886821e-02 4.650568882898528100e-01
2.328405461784938818e-02 5.826212678518856436e-02 4.704746578723802974e-01
2.944917168211364650e-02 5.916366664188532631e-02 5.039983345704930340e-01
1.904938894167068977e-02 2.162839090517149759e-02 4.516845989777046322e-01
4.572840312552482051e-02 2.381833038926796375e-02 4.865102238801948253e-01
2.657155455337459598e-03 6.153910698720498063e-02 5.249619643483415254e-01
-3.733848829279070441e-02 2.472579771897390893e-02 4.464222489475067057e-01
2.630874738501265755e-02 6.137998957607544714e-02 5.084489180192962587e-01
2.720510540129179866e-02 3.721320711950543147e-02 4.630294956668343787e-01
3.589030669108375649e-02 4.894867677327337935e-02 5.025584070530776382e-01
-2.747832527638443406e-02 4.163465561510768659e-02 4.525439606405364246e-01
2.316632982099827136e-03 5.515149890040110803e-02 5.344364991629850792e-01
2.422479967595403925e-03 5.997927331642870924e-02 5.174052315989958739e-01
2.337699783509968390e-02 6.203135790350378098e-02 5.115733617304160097e-01
1.673116444058064464e-02 3.708780745678671997e-02 4.578222573950944674e-01
1.053997516048535248e-02 6.803272720873934643e-02 5.079478170249072111e-01
2.331752042545979370e-02 3.805588213004008208e-02 5.276487763785594476e-01
2.249207616591849656e-03 2.243761199236811096e-02 4.481797677489858245e-01
3.256153817653825722e-02 4.079832967335730171e-02 4.685033964619246816e-01
-3.368784663795918941e-03 3.304956193452055629e-02 4.514087663634200887e-01
3.630915781720068375e-02 4.931388929134216531e-02 5.001075805898449467e-01
-5.995665745947821590e-03 2.294975313226673211e-02 4.467705575586518596e-01
1.868248147921798552e-02 3.490828590886786709e-02 5.312257311555228512e-01
1.059751858204679292e-02 6.464861978876068616e-02 5.138044706646454074e-01
1.085822388270292482e-02 3.949779162351203105e-02 4.571117744743553590e-01
2.741855538896677616e-02 4.679129643337377742e-02 5.167228760858139092e-01
3.898567077736994277e-03 4.034221561601872980e-02 4.557489190886583330e-01
1.808946262358534368e-02 3.307482575592601143e-02 4.565215924166542982e-01
2.635686790775683408e-02 4.850025773498157881e-03 5.319450562588131648e-01
6.600684342617131606e-05 1.575210541601720568e-02 4.450577154623593934e-01
4.384748275309128390e-02 3.057665076193969919e-02 4.872415407541942911e-01
-1.873364965472724269e-02 3.053086967383115274e-02 4.481752674951942073e-01
2.837895206531009656e-02 5.393200258189236040e-02 5.124911592328901255e-01
2.090610286400236550e-02 5.865654658651508341e-02 4.687229828871877224e-01
-2.475352289485917984e-02 3.852488798247733631e-02 4.511920743506429576e-01
3.927763986535584562e-02 4.406301529662733085e-02 4.968407414246138187e-01
2.697078090001906944e-02 4.937016087154363908e-02 4.691039962642852279e-01
3.350753356271224392e-02 3.418832024584978618e-02 4.656726362625637772e-01
2.272418839512298228e-03 6.674096139766376445e-02 4.654137656648421051e-01
4.026797696875500376e-02 3.666576727937351926e-02 5.009626319244644410e-01
4.015709188687974912e-02 4.099665867732848329e-02 4.810070042822548464e-01
3.322429275026538009e-02 2.485131749371009141e-02 5.216487289845168629e-01
-2.440119501711320721e-02 2.173231523937960846e-02 4.442388670121556471e-01
-1.823529097397216109e-02 5.935110421898592836e-02 4.624494712777947325e-01
-9.346003690412926779e-03 2.264025775716952196e-02 4.460703003919024301e-01
4.016132882583919872e-02 4.279671386812808342e-02 4.916492940241173337e-01
6.673657899926393328e-03 3.934286446542679949e-02 4.560242023584539228e-01
4.075130032060540058e-02 4.118245447232455475e-02 4.912708367677952048e-01
3.091730924906044113e-04 5.924431881879745065e-02 5.239161897594876161e-01
2.376759127836855501e-02 3.844068800941833480e-02 5.266827958383707431e-01
4.264147445573879952e-02 2.639469459749833533e-02 4.991997651290706051e-01
2.995154435323460484e-02 2.230570651790784661e-02 5.248296258697856542e-01
2.780994082418017030e-02 6.593864143730349126e-02 4.866489419615976364e-01
-2.401637831847478616e-02 2.123739579131582456e-02 4.440510749455999773e-01
-2.555751829026805047e-02 1.025051371872600509e-02 4.401448368668227640e-01
1.878291081798087389e-02 3.315958041132859024e-02 5.310484148055296671e-01
3.739489050943248932e-02 1.901659025378305695e-02 4.610586221998323464e-01
1.466167001714290159e-02 5.021672735324511638e-02 5.262724534522449371e-01
3.666927505192516673e-02 3.173876854402420122e-02 4.671029966580534931e-01
1.352431069176129874e-02 1.806817338267284467e-02 4.487481846507734295e-01
3.958173684997922520e-02 4.387554725151760621e-02 4.867068494163387937e-01
-3.243615151214073421e-04 6.024908437613556850e-02 5.265555305999863878e-01
2.876968624260827292e-02 1.944383705175026927e-02 4.553582832391357416e-01
3.902333702529756088e-02 4.427828612333396807e-02 4.824282125919848174e-01
-3.610791357496336701e-02 2.669682647428110733e-02 4.467891351435707703e-01
5.254574359274147462e-03 4.694694507919343340e-02 5.367623098359725065e-01
4.478986382092619428e-02 2.590589553530035782e-02 4.912020569638760881e-01
3.417775517012396763e-02 5.017022238547123175e-02 4.774871214506087869e-01
2.120955450052398189e-02 7.288581260910841075e-02 4.950846602739723545e-01
1.270337589642864945e-02 6.965865161716480736e-02 5.074376197710606107e-01
-1.831188109737711539e-02 4.484343711034970842e-02 4.544010625273054993e-01
1.650050776569566419e-02 5.826050199256445350e-02 4.661462639946297171e-01
2.714367956037435498e-02 3.914088430956093323e-02 5.200560786027039750e-01
4.733292503431431146e-03 5.998198791939904004e-03 4.419985284835892259e-01
3.739568695078478167e-02 4.169801300263064475e-02 5.057488265442798836e-01
3.948664476521534378e-02 3.663615091303673577e-02 4.748160704317717085e-01
-3.413764687560689320e-02 2.977273028713640565e-02 4.476418688092728693e-01
1.743339758164596034e-02 6.441652552881471649e-02 4.692284253554158124e-01
4.073258991618407265e-02 2.527254954631725364e-02 5.054512042365577607e-01
3.424820967116360554e-02 4.164510071088003279e-02 5.107268536972081607e-01
9.012530275179723993e-03 6.909000463080833265e-02 5.053376047991028353e-01
-2.293647011181482523e-02 3.704049090896695262e-02 4.506922736888256953e-01
8.119888263914057727e-03 6.687267379238263920e-02 4.665792484944304985e-01
2.487242753246015486e-02 6.794250470333743075e-02 4.960611344704500825e-01
3.750504226335810154e-02 4.842078039656855931e-02 4.852439377462672843e-01
2.228663298747073779e-02 6.617824014494202989e-02 5.059194559076238829e-01
1.290489862420261639e-02 6.178845538004383575e-02 4.658085656425850485e-01
-7.180766774704241615e-03 5.589758357659643101e-02 5.308942215164766942e-01
1.931645299512247185e-02 2.474689330640556309e-02 4.532618464615680853e-01
2.118320971839589978e-02 4.978423997547505586e-02 5.209409284981958432e-01
1.358275475497000562e-02 1.774395056935627532e-02 4.486291960512403532e-01
3.759091410149497520e-02 4.237840541593633492e-02 5.047366237374377729e-01
1.513837991613491488e-02 2.832763272333886292e-02 4.534885272369177933e-01
-2.962290755287801808e-02 4.473323901162468141e-02 4.547628714071429434e-01
1.729864625689446142e-02 7.624787016443963783e-02 4.891295565622003627e-01
3.918678194954353100e-02 3.021289237410994949e-02 4.689893250411871217e-01
-2.179854845679995989e-02 2.757741010783703109e-02 4.465269273846106945e-01
3.185918778986963212e-02 5.543235585597987986e-02 5.029654035172809179e-01
3.778902145077921854e-02 4.202633746776666263e-02 4.765416215571048331e-01
3.434185459802293477e-02 5.359326088167001845e-02 4.824872061279785185e-01
1.470659136622891154e-02 5.092954961039410089e-02 5.258976037947284965e-01
3.970589057174446490e-02 4.352842172279353800e-02 4.865494315035641670e-01
-1.741986876582361093e-02 1.877168917222192535e-02 4.433810682408081960e-01
2.290691053050612075e-02 7.051750127913535005e-02 4.955718830624961657e-01
1.608284025742865234e-02 1.274108344748661401e-02 4.471079371787473611e-01
2.491287812690362070e-03 6.579374864365195030e-02 4.648614739002668861e-01
3.005250434019582362e-02 4.630889926553724556e-02 5.142856724404946123e-01
1.670290711152125351e-02 4.484974785460726920e-02 5.274947587408324035e-01
-2.948538134703896155e-02 1.092033578864987607e-02 4.412678199353524122e-01
8.986335243583295704e-03 7.411398040891556405e-02 4.962874560466693508e-01
-5.884459111324589174e-04 2.395543329379900416e-02 4.482351604869406758e-01
3.426255379437968818e-02 5.465382028325437014e-02 4.911982524397867089e-01
1.275320844935584272e-02 1.285058880947534572e-02 4.464296301449861004e-01
-5.851695807742435945e-03 3.730915222088079103e-02 4.528790455320020336e-01
2.897458081427909879e-02 4.722375670211220733e-02 5.153751227932292789e-01
1.108181793978299523e-02 1.481633528086862689e-02 4.468824485259451085e-01
3.841096807112946709e-02 4.152910981391599865e-02 5.032765805233020417e-01
2.438900492675113302e-02 2.478257731512750056e-02 4.554387877701393528e-01
1.266457148099923470e-02 7.287064392264795687e-02 4.722861290910729815e-01
-3.227753121896164562e-02 2.237641888053033129e-02 4.449792171306509725e-01
2.387338873864397817e-02 4.150984609719049478e-03 5.320835826609757735e-01
2.574295737691390321e-02 1.688233934936735070e-02 4.525111916970872561e-01
4.338384154296880124e-02 2.347290669870743043e-02 4.998989398684824947e-01
3.824706215860965153e-02 4.199734921820023892e-02 4.774217100871362418e-01
-9.460902059761728752e-03 2.479774209715059075e-02 4.469000252100412407e-01
3.746311944186350718e-02 3.059374634587117697e-02 5.094286113771810953e-01
6.495908232888559022e-03 6.279827845993761481e-02 5.253425380699111580e-01
1.833547954094201862e-02 7.218791935723484210e-02 5.015097109550866739e-01
2.830113832518994441e-02 6.064859415913059770e-02 5.048752685969392084e-01
2.156852022604819393e-03 4.720550659982624547e-02 4.575379101870387655e-01
4.014360325213252312e-02 3.721711974402181627e-02 5.011261283287433699e-01
1.074639633088124782e-02 5.288043954313806361e-02 4.620323767320007047e-01
1.117612329036426003e-02 5.084192105010051227e-02 4.615281178429883613e-01
-1.275189883948691510e-02 8.069177769082169771e-03 4.400072655923651377e-01
1.772065467867195085e-02 2.115122379849976655e-02 4.509714173667220272e-01
3.313152360159479087e-02 2.656573837835835700e-02 4.615192688140368205e-01
1.133623797821857113e-02 7.876444959355059783e-02 4.772634170321141123e-01
-2.168464232914434422e-02 -8.983452119574585754e-04 4.371722415052118338e-01
1.913336696219919419e-02 3.746128779898323657e-02 5.312227697017170014e-01
4.253368559706785686e-04 6.136814762532106365e-02 5.275844911576754726e-01
3.367575544247331659e-02 3.546341556247778470e-02 5.135954908866414703e-01
-9.779579326213948265e-05 1.187803506642988796e-02 4.434923384727572637e-01
3.264113530557121584e-02 5.559140740841257006e-02 4.800166365004374103e-01
-3.318995602236036319e-02 3.845257711662773692e-02 4.512040424418962137e-01
2.628932229200899029e-02 6.530836254346102099e-02 4.781073335173085526e-01
1.962644264123347693e-02 6.985686030428335525e-02 5.032744765782726226e-01
1.517426108173017610e-02 3.761298504655060521e-02 4.575543813024715023e-01
1.762784718592886116e-02 6.156074924645427854e-02 5.195282716831965963e-01
-1.384263325967014999e-02 9.244963032520440473e-04 4.376837776633217825e-01
3.599770830283847284e-02 3.728764947789316858e-02 5.094001861192559710e-01
-3.653181523334140916e-03 3.328681435285237022e-02 4.514710031006273216e-01
1.925062995510373395e-02 3.617197335767655120e-02 5.310730970039957421e-01
3.861762985391666708e-02 2.947304952337307521e-02 5.075019793241442034e-01
-6.394838153008864171e-06 2.092889380592186099e-02 4.471373789118559539e-01
1.358718988019679171e-02 7.719293584890499216e-02 4.806061750122002652e-01
-6.866227407328548415e-05 3.004893341045944063e-02 4.507987033591073223e-01
2.150952016922709140e-02 7.144021517164581003e-02 4.974872783157101019e-01
1.269835856786116768e-02 5.948268915505231652e-02 5.250398569215751765e-01
-3.319772483925994416e-02 2.894809211088365461e-02 4.473059847381617993e-01
-1.155066334193285624e-02 4.388139747348768216e-02 4.546352686769775109e-01
1.245271433412612622e-02 7.383466955761575079e-02 4.993185085283551317e-01
-1.192603374079565653e-02 -1.600433730905425440e-03 4.372635509208065430e-01
1.752806266403885913e-02 6.797689943044821215e-02 4.708841780226729057e-01
2.980275236460508057e-02 3.579387360368360693e-02 4.639603973770695666e-01
3.702933128895941929e-03 3.631608681258364970e-03 4.409073475606042347e-01
-1.021439926369565807e-02 4.057044799596838669e-02 4.536158310470186916e-01
3.395978490859623972e-02 3.322687934570643653e-02 5.135724095952103330e-01
-1.012221450699034471e-02 6.270557015964963246e-03 4.398100367381119202e-01
-2.818961344904194824e-02 1.551529362106064507e-02 4.422639751627399640e-01
1.106959586161682454e-02 7.466697839014455051e-02 4.740924298793696146e-01
-5.627787811409533728e-03 2.034010701159397541e-02 4.458015049300199095e-01
2.774499152506811062e-02 5.096824013022377420e-02 4.705383984266709452e-01
3.265554648557385253e-02 5.367191846705467867e-02 4.774909465567666600e-01
1.462577509304065736e-02 1.613157124308441798e-02 4.481903211934594178e-01
-2.681100210686418461e-02 3.814373557069988818e-02 4.510098951455061567e-01
-1.226675592071394677e-02 9.307896735217039558e-03 4.404759622644596195e-01
-2.591520196786600144e-02 5.053056855833616690e-02 4.576415142173558825e-01
2.736758689574567832e-02 4.455179454723683791e-02 5.172138790757143667e-01
-1.047680694507190438e-02 1.565148396856628696e-02 4.431775154235360614e-01
-2.184042872590751319e-02 7.635885186443589108e-03 4.391324402662815651e-01
-1.597963447829433767e-02 5.855182035842772942e-02 4.608660146801702440e-01
3.746105218356497735e-02 2.409107350087744473e-02 5.141715941659692479e-01
-1.436724552981370751e-02 6.670051086342868377e-03 4.392941250902441808e-01
4.219295679362634888e-02 2.957077545008159752e-02 4.983777387819648963e-01
7.383352355075810912e-03 6.248541073828199621e-02 5.271188935503196005e-01
3.383368030908733004e-02 4.377639644211287623e-02 4.716202681480474168e-01
-9.836884443920971763e-03 4.113985952396365803e-02 4.538633811909323357e-01
3.784044014217038954e-02 4.050189536227090381e-02 5.056301725260847757e-01
2.746991731764906672e-02 1.613682242398338171e-02 4.531731827188962280e-01
-8.811448792844067679e-03 4.858183296121169545e-03 4.395084135956063287e-01
3.317871057370647137e-02 4.762893499475814169e-02 4.740354648759837475e-01
-4.290051936699978974e-02 2.614673422392741961e-02 4.478875888426634977e-01
3.465958882866869428e-02 2.509170758339586763e-02 4.618906762387219311e-01
-1.186818441479796371e-03 1.220798092707230977e-02 4.434247955358312510e-01
2.479202702724830551e-02 6.615520742574197699e-02 4.769366218087436882e-01
3.368207830356380328e-02 4.001225654060379389e-02 4.689638562665450761e-01
1.481022734803830176e-02 4.564900697761761772e-02 5.290088855697653303e-01
3.367135561434064089e-02 5.494443952346530352e-02 4.954877793272978725e-01
1.745041451069064345e-02 3.476185864308204559e-02 5.317544711446547945e-01
3.509726382859160165e-02 1.675555888037778829e-02 5.224822108683420119e-01
1.656394192654179988e-03 4.920543105894365637e-02 5.381296589581253675e-01
1.382993332079947638e-02 6.125517810156666521e-02 4.660436840282293769e-01
1.806507010869170399e-02 5.881191288835647263e-02 5.211233563790990120e-01
3.535685517082527013e-02 2.871697925376800672e-02 5.151005767645132627e-01
2.772814499170259128e-02 3.744280847245927413e-02 4.634881827629542261e-01
-2.283779817878565932e-02 5.171861857640729782e-02 4.576225436296944560e-01
1.507854528129776508e-02 3.355730523414329584e-03 4.429809582594702588e-01
2.238307535194345582e-02 4.381329800155291804e-02 4.634153745433168825e-01
2.577694268822396800e-02 6.360592708722385968e-02 4.759238212476034069e-01
1.555718966517580064e-02 1.007788571090774236e-02 4.459350185654143428e-01
2.035731965088064671e-02 2.114494885024247040e-02 4.518592084207618265e-01
-2.269093960386396602e-02 4.296521122357517541e-02 4.532959648690999543e-01
1.903685482085136493e-02 3.334438022148195763e-02 5.309512220021178619e-01
4.419704569711374598e-02 2.888612168580233577e-02 4.906108176702068668e-01
3.360098000605297314e-02 4.154475317909825383e-02 5.117826253347846910e-01
1.938763550753727638e-02 5.735592022784145871e-02 5.206081732997053235e-01
1.800623202315077345e-02 5.204150547426310280e-02 5.226804229617167952e-01
1.630680804660130864e-02 5.611295078367856126e-02 5.229270871079659821e-01
4.557658560810326498e-02 2.438037496317912306e-02 4.865888084719441342e-01
2.953017815876790922e-02 2.165325244625814979e-02 5.254226912821430284e-01
3.740393322325156339e-02 1.853866165203032351e-02 4.608400508465694823e-01
-3.317107617508659873e-02 1.695493419580523277e-03 4.390533377609753263e-01
1.799875164644519979e-02 4.204673329274059845e-02 5.306505299583069712e-01
1.064453114051388399e-02 6.399473310092829159e-02 5.192228379240489966e-01
2.680319603809749526e-02 4.311326680550137819e-02 5.181917076726482163e-01
2.532115668284900048e-02 3.755054872727325854e-02 4.619901388244190277e-01
4.618087564751415658e-03 1.844158557038346954e-02 4.470352098897450444e-01
-4.095411866256030292e-02 1.460969966980956792e-03 4.415520659680762794e-01
-1.549734057164293966e-02 5.437695185757046579e-02 4.583313242192140757e-01
9.152063730547036272e-03 7.743664243633610611e-02 4.814428439234705870e-01
3.751784949184851919e-02 4.879409133544253263e-02 4.872731094087535131e-01
-7.553760292232272744e-03 4.876056469922698811e-02 4.566034071182332177e-01
9.121063577962320798e-03 4.738260219726762867e-02 4.595134508488889491e-01
1.703253789039839428e-02 6.187050538891755019e-02 5.198830719985483295e-01
-1.480517242438648268e-02 -6.288551718793159405e-03 4.367399895969265033e-01
2.736975289471159714e-02 5.981949499006468385e-02 4.749617405317691499e-01
-2.300212831520007800e-02 3.584356498939309660e-02 4.501383710988391962e-01
5.730494903688819128e-03 6.147903427179855773e-02 5.304026043372674915e-01
2.353756678852188689e-03 1.207493439621534423e-02 4.440210637170216579e-01
-1.649537191357832583e-02 4.806033027491953685e-02 4.558461575259916132e-01
2.186469138604275886e-02 4.916690170145027877e-02 5.206185058470030880e-01
3.913511535531387364e-02 3.608481022701909291e-02 5.040489722922490978e-01
2.358214974758214566e-02 5.183377745236411593e-02 5.184763785182616713e-01
2.494575113041835185e-02 3.941955934157864716e-02 5.237182679655548734e-01
2.981218300015240491e-02 3.491302680731336178e-02 5.203094124106413254e-01
-1.030429156037230946e-02 5.526240265644509486e-02 4.584535627725974116e-01
1.752282959831790582e-02 5.623698640526057085e-02 4.658496841188957127e-01
-3.818137682161255528e-03 2.638552059014400222e-02 4.486147636522335169e-01
4.427857575776363019e-02 2.942394965217430200e-02 4.887298229947183437e-01
-1.925695570166133328e-03 4.953011863932621495e-02 4.574747322197617039e-01
-3.429238808530234162e-02 1.286548382741557403e-03 4.391436413432394104e-01
-1.856191471442497978e-02 1.390471847477144085e-02 4.412523917413009866e-01
3.821739830697355733e-02 4.642512624336912752e-02 4.970561863489115217e-01
5.431937507275732234e-03 6.223128286706251094e-02 5.296622464409400655e-01
-4.453557556430904306e-03 2.812427419670321220e-03 4.393525550575649308e-01
1.799460898696323558e-02 3.181456909097783031e-02 4.559343770307185961e-01
-2.127142185958875997e-02 5.066562284028160862e-02 4.569467547376438454e-01
-4.303796280622346898e-02 3.166830839934662439e-02 4.495037785814435805e-01
2.906197572942900015e-02 1.628292412247187709e-02 4.541378410921813047e-01
3.890055032986626526e-02 3.656017836542419658e-02 5.045260934767782368e-01
3.967806845541405059e-02 2.631481803911166206e-02 4.670756523332524335e-01
1.759432900794197924e-02 2.442970711273198536e-02 4.525675178645745533e-01
2.660551964667841676e-02 3.025853485876748433e-02 4.591977808302467601e-01
1.333925697297756036e-02 7.462372303308584254e-02 4.982866060716640288e-01
1.460851375957030254e-03 4.647109186622294663e-02 4.571738856719846922e-01
2.367616539808024487e-02 7.097538869837693998e-02 4.910742788355603738e-01
1.817868335438213578e-02 3.967452492917754314e-02 4.593712730796372656e-01
1.323720937540734735e-04 6.910530647636814461e-02 4.669295093453572076e-01
-2.050756741782753731e-02 -1.560584120074449792e-03 4.370418589838527823e-01
-2.221366935861581945e-02 4.912847866276541520e-02 4.564810499123171383e-01
1.548788572609853184e-02 2.927596500343635638e-03 4.429188304856081504e-01
2.713410736404260962e-02 6.693255410158191476e-02 4.856697576012485307e-01
1.380246421812287086e-02 5.068457335409633918e-02 5.268426798002279199e-01
2.996605347846770240e-02 4.691295128505077600e-02 5.141113972751130134e-01
-2.400173139601241568e-02 3.596009273123265682e-02 4.500942616680611574e-01
-4.615168543320854674e-03 2.575600944835854805e-02 4.482039860981804069e-01
-6.858383936629340941e-04 6.404664650439101381e-02 4.635925797187312458e-01
-9.766713267743473009e-03 1.609921489642454628e-02 4.434688542657197474e-01
2.935531415822278251e-02 5.514893092358891247e-02 4.743611009150679458e-01
1.572541866453526158e-02 7.580088576717133875e-02 4.937572438556951937e-01
2.329562728878163680e-02 3.844987216573707289e-02 4.613747145307416364e-01
1.558045917703840613e-02 3.943889844395696148e-02 5.329451384960867122e-01
-2.226268168550595006e-02 1.141762207896231292e-02 4.403797941280088168e-01
3.045091588476141545e-02 2.603812512753038086e-02 5.241179052845594821e-01
4.283367924727210507e-02 2.424298650915772055e-02 5.008702255298308481e-01
-1.276596181710819289e-02 2.263103409601876712e-02 4.454739567702348246e-01
7.357932957637192822e-03 2.366975335423830359e-02 4.496753302282388010e-01
3.270330815112804795e-02 3.968953798486424961e-02 4.679856789298865727e-01
-2.474369414404604516e-03 2.979657914722434221e-03 4.396649961887665881e-01
3.293543900490478876e-02 2.967448811171851525e-02 5.202996379946517314e-01
-2.560951026766102902e-05 4.379985119571323110e-02 4.561282739425728261e-01
5.020548848010822698e-03 3.327936691869757407e-02 4.531712505366147226e-01
2.030344748665876067e-02 6.056561679566849904e-02 4.691251756203643763e-01
3.096240493714586678e-02 2.729089533843229859e-02 4.603062152052432299e-01
-1.916522715682635047e-02 5.877778882852621040e-02 4.621026073500491549e-01
6.788472168698343745e-03 7.761782816058153400e-02 4.781852334166175056e-01
2.161226386458256141e-02 7.172565895695595661e-02 4.799228106156279150e-01
1.988828473727072277e-02 6.438932068684119492e-02 5.125780820270280369e-01
3.704104634225002107e-02 4.963294153537375214e-02 4.882755695921072725e-01
5.535953597256377742e-03 3.464501610511011576e-02 4.538486726886812872e-01
2.501687781572342617e-02 2.850360493743880896e-02 4.574932816444980399e-01
-1.248372081716230854e-02 1.645897539653612407e-02 4.431458989510503876e-01
-3.662166028329988388e-02 3.262717572805969024e-02 4.488630049708750569e-01
4.044542716774639224e-02 3.522850180856097746e-02 5.009202430503497672e-01
9.416461795573871640e-03 9.377548869890560065e-03 4.442965605860791922e-01
8.610316342780120064e-03 1.831169254529356472e-02 4.477657842230006180e-01
-2.890430943802274957e-02 3.979584300137363473e-02 4.518047705035831418e-01
4.153168685934221366e-03 5.702383526641142952e-02 5.320387856061786769e-01
2.513893542265231359e-02 3.344392100524409828e-02 4.598550481837044845e-01
-4.020813262212345751e-02 4.019584324335716274e-02 4.543444149543162669e-01
-2.964186055045100326e-02 4.105017777898638948e-02 4.523432261841848767e-01
1.889171682906371462e-03 6.308282741071179200e-02 4.630746844561651754e-01
-3.183390223181417622e-02 3.844695401099666732e-02 4.511414391476030183e-01
3.305956520144612970e-02 4.732641450660754479e-02 5.099239108355216876e-01
3.600978207079781612e-02 3.563061851491858278e-02 5.095620220614857088e-01
-3.665016957346135112e-02 2.052458489088789320e-02 4.450688585181574175e-01
3.552838344444406854e-02 5.079887070001099653e-02 4.984114097352370099e-01
-5.362435000872982273e-04 5.688105233826546564e-02 4.596733493468240228e-01
-2.865174844029138440e-02 1.266489429357484965e-02 4.415625664054501631e-01
2.459676201373733884e-02 5.613043918137917976e-02 5.156542584816481423e-01
7.492613692327385055e-03 2.463817548367575397e-02 4.501041947093729068e-01
3.991377579460525515e-02 4.294255914335236290e-02 4.862373268845645025e-01
-1.302879020616279360e-02 1.975082347691575063e-02 4.443289205498413552e-01
1.210440242413801486e-02 4.432203017865109923e-02 5.339512949921060292e-01
2.407564782796440053e-02 6.933033049588589736e-02 4.947623339066329340e-01
-2.675891791942566766e-03 4.929962682805441587e-02 4.572920178216119402e-01
4.418399900468196473e-02 2.955986147273519105e-02 4.878676384706198688e-01
2.142181717621058010e-02 4.387896519427393616e-02 5.236339925172994736e-01
1.267837685966551747e-02 4.790460518644597959e-02 4.608899314917569434e-01
4.049694404017004090e-02 3.763780790101454304e-02 4.778008048812049102e-01
1.213046702818451617e-02 5.099295334908221511e-02 5.282340737755906179e-01
3.183054364302303346e-02 3.033339892673056482e-02 4.624979192773709391e-01
4.388930222739625270e-02 2.335138113632182974e-02 4.738342975462495610e-01
4.005821723583440075e-02 2.219772589211818636e-02 5.086276166492250672e-01
-9.301326042768074190e-03 5.770953875651510523e-02 4.593476793195424568e-01
2.496078731763697045e-02 4.662948833747890959e-02 5.187009915130840199e-01
3.223862950212039169e-02 4.130038085006226128e-02 5.140122749680038350e-01
5.882648663004698755e-03 5.801692065085287120e-02 5.303204374081619266e-01
-2.923786443124888265e-02 4.015762095675582538e-02 4.519624965052693177e-01
-3.719528236323713100e-02 2.808316079178732605e-02 4.473334293119101135e-01
3.580569592844615873e-02 5.163559262252473414e-02 4.919168965823947914e-01
2.088160136169601999e-02 6.381913390669061159e-02 5.126540503655988568e-01
2.414638074780213126e-02 6.635107696648173681e-02 5.012451976595457825e-01
-2.753000353898010961e-03 6.086379458175771029e-02 5.340390846887079768e-01
-1.938444418691826973e-03 5.742408582605025569e-02 5.218046948247234695e-01
-3.101074057816650444e-03 9.874262665828973523e-03 4.421579856506465123e-01
2.784237010285649933e-02 3.688142178422230272e-02 5.217083508403820291e-01
