-2.001229625095475584e-02 3.732279109615709717e-02 4.511036100885922329e-01
2.711495251204693036e-02 6.191133216897898306e-02 5.056424102812016041e-01
-2.672715305378420281e-02 2.558858799209771245e-02 4.458128699010046603e-01
2.592393691119103047e-02 6.379823878497013767e-02 5.040749565239145413e-01
4.341915944665795946e-02 2.952124577059233798e-02 4.938002217167523078e-01
4.179009703210352644e-02 3.004942359686758532e-02 4.991080433645567194e-01
4.991025456332280619e-03 6.240959760690548142e-02 5.239170661301303378e-01
2.560388225613535046e-02 3.937313345321352687e-02 5.225928621004399810e-01
1.929131455092510800e-02 7.505747776952974293e-02 4.831557866178798344e-01
-2.449085806037396354e-02 3.979676317473509334e-02 4.517760515875093308e-01
3.673762819632946791e-02 4.847877631713422286e-02 5.003792801725613915e-01
3.734807161902348877e-02 2.518356951029610685e-02 5.131232159426306616e-01
4.047548969248979112e-02 2.140225344118907441e-02 4.655907697130032830e-01
-2.447553456435715147e-02 3.648372011826897521e-02 4.503108831147259461e-01
1.751865068503469930e-02 7.612704517866242249e-02 4.834211678448921967e-01
2.069852717413683818e-02 3.622375883454993090e-02 5.304281249506983542e-01
-4.447881267973236019e-02 3.080918227609084209e-02 4.495373724065566678e-01
-1.039382470026178722e-03 3.389815167387514455e-02 4.521567994323955619e-01
1.543249850553687387e-02 3.272483236609657203e-02 4.555083466604499809e-01
1.849436687677377678e-02 7.198044262836056362e-02 4.750525687902351635e-01
1.574334972100916927e-02 4.157056564538010035e-02 4.593833171995301834e-01
2.860002296813880449e-02 6.057662803662133139e-02 4.765083472924119823e-01
-3.276142024996785834e-02 3.317859989217874367e-02 4.489324156296039536e-01
2.522402127937108454e-02 3.968424570149979569e-02 5.228516686186820417e-01
2.209963363702113076e-02 3.891765656413080643e-02 5.284572504750237876e-01
2.994578092822678880e-02 3.342646378900751558e-02 5.221717253071868070e-01
1.154546214932147472e-02 2.312275106807162861e-03 4.419375633443942686e-01
-1.550875615113406561e-02 2.801911518781827204e-02 4.472534713378264470e-01
-1.415301408483467423e-02 5.470033992346451379e-02 4.583185663384481967e-01
2.102734566043351280e-02 5.346627425758431612e-02 5.199460420145740613e-01
3.098504897784135417e-02 2.442452994841786199e-02 4.589269428951771590e-01
2.893766884552399082e-02 4.717740752589016928e-02 5.153752920988614594e-01
1.751423409135276915e-02 6.902244103891930216e-02 4.715305803975345933e-01
-1.695987597242874095e-02 5.083010079839882928e-02 4.569955569933834560e-01
-4.156347603616900033e-02 2.906900851782053333e-02 4.484655449093365442e-01
2.152380861511089816e-02 4.748626075919286371e-02 4.644931044597237491e-01
-1.131392873979106088e-02 4.797934321366910740e-04 4.377544496255687534e-01
2.648629556735066296e-02 6.786711638388352730e-02 4.891689419021275631e-01
2.438714035993198859e-02 4.976149724362340099e-02 5.182332183996789521e-01
1.245136704197464562e-02 7.384179508780777668e-02 4.990549764263989552e-01
1.037878299022365614e-02 4.324015737588072367e-02 5.348981746040397667e-01
-3.376717626130695815e-02 2.884408939288062371e-02 4.473106831457102639e-01
-2.001014721941751090e-02 4.425158641106367863e-03 4.381795782855623655e-01
3.062895383631325866e-02 5.916663030078998797e-02 4.787515993823528437e-01
2.509677223018120379e-02 3.130218943619751670e-02 4.587834366624141125e-01
-2.356984792035780873e-02 1.146051726568224696e-02 4.404117568760286816e-01
4.079279635185340674e-02 2.869013645457306472e-02 5.027755516468078723e-01
3.017351760923392759e-02 6.108997986608834252e-02 4.963038360765358870e-01
3.538500768706453331e-02 5.094844152657510006e-02 4.996990055893363314e-01
-1.352470796216304408e-02 -1.512853891686274932e-03 4.371892517362906405e-01
5.665125519425799269e-03 7.054636429524395458e-02 4.683105520186412463e-01
1.270565861174579453e-02 1.928369162986995691e-02 4.490429280964658987e-01
3.358719053401764548e-02 5.215818084194732973e-02 4.781861881249051538e-01
-4.941630189984343169e-03 5.524700324702393889e-02 4.587370697416781606e-01
2.677999315162115507e-02 6.312589016727687685e-02 4.766645739813887839e-01
1.094486211568405400e-02 6.915074675516978686e-02 5.067250529595304087e-01
2.617750564204989264e-02 6.373891827487868089e-02 5.035605345188782778e-01
-1.612264680200290942e-02 2.639180639390591165e-02 4.465430231715329934e-01
3.690232363374572333e-02 3.988506093227899701e-02 4.728507242568047997e-01
2.096385909166872258e-02 3.461350671903927478e-02 5.301892930936725756e-01
1.697963207250299811e-02 6.309907699978814510e-02 4.683494794144781870e-01
4.507026582200793219e-02 2.655598458651810961e-02 4.883006486780618882e-01
4.202035163986374972e-02 3.579192707107103910e-02 4.828427368742153059e-01
2.206549343900448754e-02 6.286742884228832540e-02 4.717758607807778781e-01
2.006177819495534934e-02 5.318005861445566917e-02 5.206749858890222793e-01
9.981121034448783153e-03 7.873235775052732366e-02 4.807364458775829630e-01
2.657683904429854541e-02 1.117162814835854015e-02 4.505709013172213284e-01
-3.411186844072987279e-02 2.880463615545766562e-02 4.473203136738368446e-01
3.008037728507071198e-02 1.627097489683482223e-02 4.546892266880993017e-01
4.340012918689651472e-02 3.148513400955467445e-02 4.840448534101344236e-01
4.497595292434217878e-02 2.601859657243938903e-02 4.836335500706931967e-01
1.201825963846848630e-02 6.557756393767259773e-03 4.436422261682251844e-01
1.560114084711219408e-02 5.800775087781508826e-02 5.231354562240252415e-01
-6.793966547088510152e-04 5.991436695088592224e-02 5.355287739624103871e-01
2.814684049361423912e-02 3.977449519203177936e-02 5.188915207669509977e-01
2.804317771851757429e-02 3.756937180232036710e-02 5.200715956416052110e-01
4.002468094256858566e-02 3.296125735968463699e-02 5.025850209916775668e-01
-7.338047927874446000e-03 5.584747378579837940e-02 5.320297282374560899e-01
-2.152472612623706344e-02 1.270101295090880246e-02 4.408449137882450297e-01
3.668968262551301762e-02 4.678243018699313610e-02 4.791655522208765894e-01
7.714601503089788329e-03 7.056489130654217123e-02 4.985460661637171054e-01
3.342716740326150127e-02 5.149016318098816741e-02 5.061263018488811882e-01
4.291753644490440417e-02 3.180225281026835549e-02 4.793963924482782524e-01
-1.668743509194434756e-03 1.118829276594055649e-02 4.429171356193825071e-01
1.276828497384080441e-02 7.502716613200208218e-02 4.948634713167331944e-01
3.701246433826530652e-02 2.940472932684121826e-02 5.111577110480666208e-01
3.164184940878828067e-02 5.483176611035836534e-02 5.052241962299466316e-01
-2.416157429319208162e-03 5.827814843046444371e-02 5.366306018066666628e-01
1.719103223812993436e-02 3.526976475885799933e-02 4.571914166739610708e-01
-3.479987460175645864e-02 3.248051953998057351e-02 4.487312698209936501e-01
1.989963439236482751e-02 4.303436747237446292e-02 5.256464023669498165e-01
3.065882881683261452e-02 2.577532195838191584e-02 4.593504810834891372e-01
4.117231628578658931e-02 1.943945411996799572e-02 4.655790857510302416e-01
3.585994998729984118e-02 1.804935321077011032e-02 4.593857281754457067e-01
2.282125219906002214e-02 5.537961971027668268e-02 4.687419731213178786e-01
2.213548187880456583e-02 4.045770946891438097e-02 5.269393964872960412e-01
4.418265777123418087e-02 2.352150736592261912e-02 4.972160156228539463e-01
-2.779216985660496603e-02 4.522056013309885825e-02 4.547470290544096683e-01
9.984584758043719283e-03 6.785628113738410849e-02 5.075783178924849759e-01
1.801750031249903933e-02 6.945641866834401101e-02 4.722815165286287642e-01
-7.825638690937910397e-03 3.921947577059826939e-02 4.533699152465932025e-01
-2.952506039010002747e-02 1.159131305029578382e-02 4.414763239819219920e-01
8.338111449423684512e-03 5.015610315973307448e-02 4.602305292086369404e-01
-2.850226745512064383e-03 5.280974375348285350e-03 4.404149825333122381e-01
1.705789270562301299e-02 4.266480898272639877e-02 5.307655379410627372e-01
2.337010588333873415e-02 1.228971230245303435e-02 4.494317855029850151e-01
5.606414332219086111e-04 5.099995619705348371e-02 5.386625490489814760e-01
2.876153716062805274e-02 6.109290016817864322e-02 5.024867022959520479e-01
4.686681439164623771e-03 5.292465608039315095e-02 4.599902565995608317e-01
2.522077540015410513e-02 6.239039793996068589e-02 4.742794384517311501e-01
1.662966335004529422e-02 1.682523193704250908e-02 4.488910493739727836e-01
-1.135983880294885902e-02 4.651714411267000859e-02 4.555087722649585613e-01
6.905294884286986706e-03 7.657729792765792520e-02 4.766841008251161971e-01
1.345677739428565757e-02 6.056039366677697794e-02 5.243479419465090219e-01
3.922841437859680980e-02 4.521013813939769171e-02 4.905794676530992326e-01
3.800036009662092866e-03 1.308001658147559323e-02 4.446923820905586133e-01
3.993991026587456056e-02 3.564193003194894571e-02 4.747146183020262145e-01
1.916854227752573872e-02 2.378601263345694883e-02 4.527724006811509883e-01
1.404196364859348553e-02 7.452265812368229214e-02 4.747757650961373921e-01
3.859084014230101944e-05 3.810601817362656296e-02 4.540973488998532037e-01
3.478205090115699810e-02 4.574603011871789665e-02 4.744383998658028845e-01
4.352839198528071080e-02 3.185996435746057953e-02 4.877369705885423734e-01
2.237792767353689177e-02 6.484508743024489097e-02 5.084017688185534789e-01
2.740994548947905951e-02 6.595188079821660831e-02 4.822212572865301472e-01
-2.929375777554658368e-03 5.325146491812365879e-02 5.388250668977705438e-01
-4.788255459406645480e-03 4.171242881878692993e-02 4.545772057400392918e-01
3.689599080691786243e-02 2.034612901734989682e-02 4.612687534887438545e-01
1.046352379636683420e-02 5.772558530900318702e-02 5.267510048073141826e-01
1.355429504143812122e-02 6.790147726921676175e-02 5.096615836588670456e-01
3.225550305995444206e-02 5.345850432266174845e-02 5.060746368278772334e-01
1.845833053556776571e-02 7.580126298473582880e-02 4.895947179144047867e-01
4.201797423831401396e-02 3.302556597630390556e-02 4.974342551645672961e-01
4.049429906542920815e-02 4.035940121161324390e-02 4.969388587414305114e-01
-2.916388766588320913e-02 3.862838139469289972e-02 4.512418183617648570e-01
1.892080122585948487e-02 7.387152245386013893e-02 4.981831782877140791e-01
2.760379668346626611e-02 6.599127874239672786e-02 4.835798593712513083e-01
3.448565555449378123e-02 5.434989712004018730e-02 4.906425552455358496e-01
8.299237271723890891e-03 6.259730407321496826e-02 4.643383292819335817e-01
2.276474294464789563e-02 7.038666214351189943e-02 4.796614159997790727e-01
6.539187327893155460e-03 6.806463800424605859e-02 4.669711531792071213e-01
1.345031290019066753e-02 1.263614041138028284e-02 4.464745714959505452e-01
2.813832403418816894e-02 2.693419460828712017e-02 5.256936164529252276e-01
1.310494480628555600e-02 6.338756237267469118e-02 5.213128892634611988e-01
1.055288443191224577e-02 6.419550963493297902e-02 5.179644692084740543e-01
1.270058241606803091e-02 4.594576906262637372e-02 5.315520480360962363e-01
3.257995966986219905e-02 5.770765116512793780e-02 4.845622188880986947e-01
2.564570609291633857e-02 2.310190448843494476e-02 4.552893468379467512e-01
1.903881894435693195e-02 7.329270014568113611e-02 4.988095689739130978e-01
1.685365337829656737e-02 4.049057706867422585e-02 4.592713037036048052e-01
5.401127916859821930e-03 4.733040535595323811e-02 5.367895439559212667e-01
2.666566346987931171e-02 1.921101297553596404e-02 4.540296968332803718e-01
3.813283624956414347e-02 2.602217516683467263e-02 4.654462136713035658e-01
3.077982388422540252e-02 5.630255303512566450e-02 4.764186918006829141e-01
4.277968684200886273e-02 3.431766866295025975e-02 4.872081737586415606e-01
2.190797543829868174e-02 3.784060112752358346e-02 4.603216940861700190e-01
7.586487189459280994e-03 6.270225019283279244e-02 5.243419097640866777e-01
-2.292500810078619555e-02 4.801245938534388913e-02 4.561309257965494024e-01
2.037880037786285459e-02 4.103001068945793389e-02 5.291148781309015225e-01
4.180908852457914521e-02 2.736596431812772165e-02 4.718523624896774349e-01
1.174830683623904679e-02 4.678343831565819760e-02 5.314952204267068270e-01
4.210247084330095285e-02 3.348785092090227761e-02 4.776837099636989659e-01
3.100412696213617272e-02 1.959977768504854098e-02 5.246938638152637280e-01
-2.946904245447198867e-02 3.710518203917134022e-02 4.505333837003296926e-01
1.570684843014451618e-02 7.725503673782277425e-02 4.845825746062007999e-01
-3.608510878301278597e-03 3.371249701815443034e-02 4.516536924467314251e-01
4.396853228811800629e-02 2.815750899711245980e-02 4.926669125587487819e-01
2.960178096800858069e-02 5.096155464273791069e-02 5.123432321510010823e-01
1.968979453170760507e-03 2.202506679758651012e-02 4.479486432730533929e-01
1.090058928151471998e-02 7.528332163685520773e-02 4.908276363606496884e-01
1.016804465433247817e-02 6.283115250923118622e-02 4.650901557496846528e-01
1.991815491616304168e-02 7.058045290772525793e-02 4.750418571914908905e-01
2.666310797529211629e-02 6.633756177367969298e-02 4.808023777773506868e-01
3.440454187978826683e-02 3.128753074702577547e-02 5.154417474541848065e-01
-9.784621094883190137e-03 6.096337589244963523e-02 4.617097755880701926e-01
2.254716800609167515e-02 4.818080870943179661e-02 5.202285486733880804e-01
7.235728821735057034e-03 6.396863883667000539e-02 5.119792476112654533e-01
-1.290681207802259547e-02 1.822106992200146422e-02 4.437407766263824493e-01
2.336674312515248791e-02 5.569488935396409157e-02 4.693162018120538570e-01
1.370214667075533681e-02 1.091605248879490633e-02 4.458157772588097201e-01
9.755545366686001890e-04 9.242398778165792847e-03 4.426083021421410302e-01
1.103437371006975309e-02 6.479626770800633873e-02 5.127392478700196765e-01
1.508683363486908006e-02 4.799363380668560108e-02 5.269650370730900590e-01
1.306411383492009533e-02 3.038066348313461784e-02 4.537516243999088483e-01
3.527923102619980045e-02 3.136427395598163914e-02 5.133594426887210238e-01
1.719722553508434143e-02 3.843278089206515064e-02 4.585021678395636013e-01
2.502838938274967034e-02 6.880008735116688312e-02 4.818122488192715935e-01
3.186923184756600830e-02 5.855368425228838630e-02 4.943947635863664147e-01
-9.557950867469890144e-03 1.802972156291110517e-02 4.442340290672796010e-01
2.235178947917462050e-02 4.189262255317056233e-02 4.624699266609125226e-01
1.192022286103414444e-03 5.327770615417309896e-02 5.385511907787305930e-01
-2.651522297603758904e-02 2.462949919861449552e-02 4.453864210072262519e-01
2.018411944006746200e-02 7.466147031868662631e-02 4.850333615134722609e-01
1.166924479787490899e-02 6.360129577032466730e-02 4.659702582771555468e-01
-1.568053209551293140e-02 3.085761895963548551e-02 4.485919026318151426e-01
3.494022617558357156e-04 6.054986854611521530e-02 5.266797866344451462e-01
1.413761804017512648e-03 3.132561376291607969e-02 4.516045094690504524e-01
4.226460201083832163e-02 2.767529790727849340e-02 4.729887016691051715e-01
2.428146222501685603e-02 6.318377242079685485e-02 5.088336258151767710e-01
2.173024880348416524e-02 6.605373297919588105e-02 5.067620292772960777e-01
2.764837544570158956e-03 1.438726874688211511e-02 4.450193536906664193e-01
2.839666001667691050e-02 2.400422195242983905e-02 4.571474155207818080e-01
-2.523783828610306687e-02 1.390120574640683893e-02 4.413217027731290432e-01
2.291509103040814330e-02 5.093356043467833077e-02 4.668379285446392912e-01
-3.530206207862205021e-03 2.217909112973401667e-02 4.469385043614189090e-01
2.498408609662266383e-02 4.597091362353300514e-02 5.187432873242407982e-01
5.629817006557194525e-03 4.401397564577155808e-02 5.359915925158473815e-01
4.106310093384892002e-02 4.025265081244543131e-02 4.895753771725717129e-01
3.045480949415824493e-02 4.566399943592130972e-02 5.140198086039660108e-01
1.785810790024150441e-02 1.201592267407495217e-02 4.473061163610451141e-01
1.388957881208539337e-02 2.604841063425582595e-02 4.521269260342818397e-01
-2.331632104447758230e-02 5.026912452499749523e-02 4.571285449004213741e-01
2.147540657978144057e-03 5.324424241144854603e-02 5.367365817488147783e-01
-2.833852911227595361e-02 8.713759754725219561e-03 4.401728065784790145e-01
3.159544284313278023e-02 1.793554970822747868e-02 4.564265692188080314e-01
4.027390711222833541e-02 4.142949471375665521e-02 4.838409538038280222e-01
3.090294168535187916e-02 3.195870171539807320e-02 5.222794066864532292e-01
3.078566974820508631e-02 4.146624363767483640e-02 5.150560301687396869e-01
2.990595469130103573e-02 6.261057128466293586e-02 4.875310071787265498e-01
-2.536483694076285128e-02 3.888749618677277142e-02 4.513574964949532697e-01
3.002371769964029893e-02 6.033161853587928197e-02 4.996789689303930415e-01
2.722847267885729686e-02 4.496431668132834514e-02 4.668016417534583407e-01
3.491354622175495831e-02 3.956875656455773743e-02 4.696524014577799222e-01
-2.004396543877504794e-02 4.163424394305960397e-02 4.529496989118828032e-01
1.788341661056309928e-02 5.596708469570636085e-02 5.217698946301927432e-01
2.244396527520568091e-02 3.021890253734265189e-02 5.292064717063293955e-01
7.123466690783759360e-03 1.922227293436096218e-02 4.478260855031082621e-01
-2.332591700436035392e-02 3.727609257900473677e-02 4.507608034311557099e-01
1.779213402109190018e-02 4.149239494352170016e-02 5.311204142457592869e-01
2.657020482981805459e-02 6.775215763802318325e-02 4.891690366593510197e-01
2.600201413182289673e-02 2.625729464264467058e-02 5.272315428046550068e-01
-1.781557574559657076e-02 2.819972612001563073e-02 4.471359291550445758e-01
7.522703633835445443e-03 7.759181645252830051e-02 4.761708994828869335e-01
3.023196848317409591e-02 5.652721573769173280e-02 5.066838399677695559e-01
2.666515115484197757e-02 6.762237957629180229e-02 4.889760633814570490e-01
-2.035515764581385945e-02 5.667156232424703372e-02 4.600555459298285021e-01
2.760083778273546631e-02 6.581313342292974267e-02 4.916079391587463987e-01
-2.311397139306587897e-02 1.192715225928598841e-02 4.405794776518326406e-01
3.138352306097778877e-02 5.975553712842151394e-02 4.843896769579558725e-01
1.667658059839470172e-02 6.443260020994463766e-02 4.687935526746164205e-01
1.910797377305772232e-02 5.146395730287797732e-02 4.648527268489445197e-01
7.901561085133200490e-04 4.993879812090802617e-02 4.580074162740037091e-01
1.778649631662261588e-02 7.325014144571716235e-02 5.002336217609580915e-01
-1.241085344670560600e-02 6.052826890593603765e-02 4.620301254157347381e-01
-1.874910143927613002e-02 2.812912343078816969e-03 4.379242451617034182e-01
3.384733390801270003e-02 2.544539642542515551e-02 4.614300167657763296e-01
2.321594354553452311e-03 2.603129350524363908e-02 4.496329238089008529e-01
1.183964838402446883e-03 3.660028582859319729e-02 4.537001547821564174e-01
2.500699722199332259e-02 2.662613299175956710e-02 4.565854828911025676e-01
5.109418305754632669e-03 5.960110157610471610e-02 4.620678290561531787e-01
7.333784453293773486e-04 5.317148700338109046e-02 5.391879119873254078e-01
-2.218498277372410107e-02 4.406204757267227594e-03 4.381154897088274658e-01
4.311858719473786981e-03 2.821360793046459592e-02 4.509267157442596319e-01
1.404764861041547623e-02 7.747005030394499281e-02 4.824571096547732307e-01
1.671197270541351088e-02 3.633892911681007448e-02 5.321824666808609994e-01
-8.951957065197137589e-03 4.275367030053493778e-02 4.545101393809427015e-01
2.906821607705027677e-02 4.258021368308544802e-02 4.668532349796561953e-01
1.130645792677264019e-02 6.249294427556740389e-02 5.243277334324208949e-01
1.878391265897697351e-02 5.030377865177106805e-02 4.642261236444876205e-01
4.080852938402965147e-02 2.895582699007932803e-02 5.024409787221184587e-01
3.069008521973243947e-02 5.285199241653288499e-02 5.100948142214178915e-01
1.131076573315587495e-02 6.151290663873983794e-02 5.257834397703549101e-01
8.223886413333783563e-03 4.535582952665818957e-02 4.585617345593460126e-01
-6.788243705256706562e-03 5.994778946102480299e-02 4.601285040218809907e-01
-1.200521521573020764e-02 4.304637954879888748e-03 4.388677314195225110e-01
1.142953659118919364e-02 2.992334847757670280e-02 4.531873009966855825e-01
1.300687281640893617e-02 5.307242470067664170e-02 5.263409328683977817e-01
-3.264252559191452296e-02 2.072584323506428822e-02 4.444601443130393181e-01
-1.706653182891422829e-02 1.226438871792380828e-02 4.407644328537488887e-01
-7.595896416300034794e-03 2.757359623151853234e-02 4.483800024488979186e-01
-2.399664123023016044e-02 3.361564439065294063e-02 4.490699332413349287e-01
1.132356346780737100e-02 5.557002681803155375e-02 4.630662207185342605e-01
1.444529766716828867e-02 6.558345926235399637e-02 4.681559927683901501e-01
2.227901764845973895e-03 9.570334430255714522e-03 4.429702665916914195e-01
3.360332945443095243e-02 3.454637833133055586e-02 5.137486357078469013e-01
1.050774824072737111e-03 3.692928510220725574e-02 4.538097572011449699e-01
3.888016090949116682e-02 4.140831450402197161e-02 4.780375765957393108e-01
2.424858314889666994e-02 5.878837072716688178e-02 5.137761673931439121e-01
3.599116319455365753e-02 2.808285562221844722e-02 5.140878714349457201e-01
3.656881510566918625e-02 2.783065904413622657e-02 4.649893637012844083e-01
2.801683308065814476e-02 2.611278698123116818e-02 5.256802908099492688e-01
2.102740105568032258e-02 7.425363599960702055e-02 4.874010893690977619e-01
-2.640872414939164636e-02 5.039274910656962175e-02 4.576784477651774652e-01
3.311947563311120474e-02 5.366682040491795730e-02 4.787578312297973704e-01
-1.880824046953428336e-02 2.179548833972958649e-02 4.444272129969858431e-01
1.509043805258206139e-02 6.501367204601432581e-02 4.682334824952570917e-01
1.815224186456292424e-02 1.963586225770813307e-02 4.504083110568090076e-01
1.897353293061419116e-02 5.737450456085849138e-02 4.670136645514340601e-01
2.992441696361905837e-02 6.010353140175675457e-02 4.780690207609348263e-01
-1.601732142551355511e-03 3.677834119097930093e-02 4.532275529150592841e-01
-2.094937155994555308e-02 5.906688674371873837e-02 4.633294162249859127e-01
-5.377431426839131973e-03 3.077703853261024719e-02 4.501107066777555454e-01
2.767522762464440234e-02 2.379797245574465786e-02 5.264555208463144176e-01
-2.338341082572696975e-02 5.084517942634560889e-02 4.573711455978357043e-01
-2.855548243367924538e-02 2.601082450358844708e-02 4.460043767193882513e-01
3.792309589734959435e-02 2.129840197979419175e-02 5.159824444502528751e-01
3.281458099215263380e-02 4.838369568232864931e-02 4.741874385856027496e-01
-2.918459876339290701e-02 3.764091101421260244e-02 4.507687285621815865e-01
-2.905762123601430408e-02 1.059157363718777646e-02 4.410469661079041148e-01
3.117341587979787637e-02 6.015666613057831652e-02 4.847974361285605216e-01
3.892148794553786095e-02 4.497122028921246573e-02 4.838717224189811872e-01
1.997863974271300511e-02 2.418307598597462665e-02 4.532058170138669739e-01
1.589122333539742110e-02 2.339963564000507174e-02 4.515477539576449595e-01
7.915909631959221551e-03 6.970069668476033820e-02 5.011064915085442495e-01
-2.681067780837632919e-02 4.147519384859361946e-02 4.524678442274475687e-01
1.875027545355709840e-03 5.270348338592415610e-02 5.380823068896010142e-01
-2.164768967625350579e-03 5.950109435537751651e-02 5.367664269770343610e-01
1.009367036568823220e-02 7.838332095633701591e-02 4.811689611907595809e-01
-8.922911012965717426e-03 1.824013999625702723e-02 4.444219616300011388e-01
2.361315793395910717e-02 4.658669614970883943e-02 5.197043313738197723e-01
4.112811242167175446e-02 3.719855818635869199e-02 4.787077654441981855e-01
-2.779852471121910945e-02 5.186488991881267607e-05 4.380704273099753632e-01
2.015262317179569718e-02 4.035948846718893923e-02 5.297379750006400156e-01
-1.983719029281271959e-03 4.734317965776888189e-03 4.403571193021408314e-01
1.143724766061099234e-02 5.080309808797630472e-02 5.288566775813265952e-01
1.682810809517430034e-02 3.685491884695177994e-02 4.577250399434431571e-01
2.759654073791995704e-02 3.286951523319855267e-02 5.257701196388747666e-01
3.959103563777367774e-02 4.402602200209663336e-02 4.877491473370336172e-01
1.958937594727043832e-02 6.834124157554681556e-02 4.727771417821861055e-01
-3.484770319578808090e-02 4.461057366881276270e-02 4.561003461180938579e-01
1.391304476309338824e-02 4.332926428117573475e-02 4.595821696448020854e-01
2.534850189501226120e-02 2.417624389441141997e-02 4.556307553896888352e-01
3.901932332260207165e-02 3.825798272329500316e-02 5.038001195848474945e-01
-5.049193709195761576e-03 2.688925919491360478e-02 4.485780526341984209e-01
4.214985283888388751e-02 2.555634123680826028e-02 4.713448721435869460e-01
-2.716331651878686054e-02 4.647772774899089354e-02 4.555396062478995201e-01
1.813931626462426255e-02 5.462568223034931780e-02 4.655162474609978451e-01
4.231138100609656977e-02 2.616802243489611129e-02 4.720817190558844190e-01
1.715946288553145231e-03 5.078481997562603323e-02 5.384742879387538483e-01
3.369098133841833681e-02 3.551313804267561963e-02 4.664762532653060068e-01
3.995474384783645645e-03 6.194205928705437403e-02 4.626729494289593680e-01
1.265651943836852006e-02 6.516377544541206157e-02 5.145584210318295826e-01
-2.912491194061986657e-02 2.072028295679148938e-02 4.440503198243485050e-01
1.232944123440488093e-02 1.383150233094651051e-02 4.467297318797988082e-01
3.237121891060996265e-02 4.251346628281354317e-02 5.130166017550817914e-01
2.631137277921903952e-02 3.189875522998009832e-02 5.271846346956847729e-01
3.891202618141259562e-02 4.593633815441502954e-02 4.910731458575320341e-01
9.120666314992597473e-03 7.349450375903120170e-02 4.719437768363437535e-01
-2.198063452275392932e-02 8.112841728231871483e-03 4.392817173083544691e-01
2.745977007152883981e-02 5.424858834887939102e-02 4.719175925858526965e-01
1.832603584811262620e-02 7.632560969481148871e-02 4.856375096293900628e-01
4.302179921632598436e-02 3.397763255994602077e-02 4.894270751276760811e-01
1.369915753812039026e-03 6.192903183241914300e-02 5.289349234417148882e-01
2.402343104136770227e-02 5.443415727145178157e-02 5.176553171978883761e-01
1.313846178461600470e-02 7.632562511417962520e-03 4.443808739591942336e-01
-4.104793634112533646e-02 2.321866837174867484e-02 4.467151512878898556e-01
2.213344019614291863e-02 6.338458426859097661e-02 5.114756497589056927e-01
3.049886776506511785e-02 2.637885870348335993e-02 4.595303694036600994e-01
3.694290876237032312e-02 2.862740159873379542e-02 5.117400112322585404e-01
-2.178326163449596786e-02 2.354396772710017419e-02 4.449486411790201101e-01
1.690811761019492959e-02 7.606596703163266693e-02 4.901531883063313111e-01
5.622173225563613201e-03 -1.175000807297685995e-03 4.396306005208044931e-01
-1.696333633837581248e-02 1.062166759999075977e-02 4.401194969033292437e-01
-7.227978528358844010e-03 4.895564439326803574e-02 4.566946720786906888e-01
-1.951964409554640895e-03 3.824429065656429622e-02 4.537643224697717192e-01
6.885454282416554606e-03 7.642921321042012162e-02 4.805233606062697116e-01
2.612414920869155638e-02 2.083614954163404837e-02 4.544928636892360263e-01
2.557087614047816662e-02 5.202619448865444807e-02 4.692888042071028942e-01
2.300076808101209069e-02 7.055384064217525009e-02 4.809033986468302935e-01
5.047175593219774617e-03 5.352885249519079985e-02 5.329413878093489654e-01
-3.343385128850460269e-02 3.274206132613985323e-03 4.393273241850271238e-01
1.022998077210473741e-02 6.452293898683451878e-02 5.153067686788731505e-01
2.573366748495444986e-02 4.546390529315438161e-02 4.660648711032205904e-01
4.164687247253273661e-02 3.768761927001372525e-02 4.942299847408209157e-01
2.692652333254440949e-02 4.401335588057991854e-02 5.175986194209577507e-01
5.125813162801914208e-03 3.977905537954119775e-02 4.558051071277733901e-01
-3.758968849573701004e-03 6.309926016126028887e-03 4.406725064487080901e-01
1.206562944171367564e-02 4.652419671793297379e-02 5.315226370757876184e-01
2.188662758079970572e-02 1.972775539459499516e-02 4.517673138765675445e-01
-1.978399148003450597e-02 5.838655644380755932e-02 4.618882730878631215e-01
7.864634026246854204e-03 1.263725368151315427e-02 4.453175675760649432e-01
-3.137570936887290954e-03 1.570254932989103083e-02 4.444291128628161114e-01
-9.085505707303331152e-03 -7.172857908072761447e-03 4.365677465785223754e-01
2.624823133594060554e-02 5.115482283625320814e-02 4.693753894201697086e-01
5.339597771774551131e-03 6.504157636272756005e-02 4.647292427977203766e-01
2.220952525843149575e-02 5.204365115025175181e-02 5.193417604939665200e-01
-2.378053025480109800e-02 4.204614262939063152e-02 4.528263822237506009e-01
1.272958557999243762e-02 4.737652551184860783e-02 4.606665328302637641e-01
8.280566666801492115e-03 6.383686715837390280e-02 5.142775177997148672e-01
-2.440800266374260410e-02 5.733972166565685230e-02 4.628459618232602657e-01
9.034570982277480289e-03 5.232934250045616353e-02 4.611876849606453832e-01
1.042421837546025909e-02 6.271432072704564986e-02 5.232715917107655379e-01
1.455490984573183828e-02 4.523834590832158387e-03 4.433207933355368113e-01
-3.817857988110624767e-02 -1.654984522639450784e-04 4.404584377309688770e-01
1.587394255535749116e-02 1.711153484732869101e-02 4.488449717220096558e-01
6.517012518118015484e-03 6.215804459425677830e-02 5.209315413906959735e-01
4.100145805962660678e-02 3.887655071106600746e-02 4.823205105454493324e-01
3.033004432060004696e-02 5.132651505648426482e-02 4.731859906485866851e-01
-8.303536659323353109e-03 1.496460770960330276e-02 4.432753376077071539e-01
1.950073920821995821e-02 4.280807483683233411e-02 5.268552749744978003e-01
-1.097202085023461955e-02 1.587101299813069299e-02 4.431726564713217020e-01
3.420377562764571888e-02 5.340565478220697659e-02 4.978842228871682152e-01
1.619311735891884119e-03 4.846558507027465962e-02 4.577449994864672411e-01
2.087316127592929449e-02 6.119506569059572632e-02 5.159692806864093484e-01
1.543313742393730321e-02 4.951819171159800581e-02 4.624661593940790905e-01
-2.186633892344371031e-03 3.081843428000678210e-03 4.397397153203990161e-01
-1.845571301792642629e-02 -1.025261764816993125e-03 4.371548111790835023e-01
3.856658610809965415e-02 3.725941260524655990e-02 5.052406564612761386e-01
-2.527562301512275428e-02 5.798630167444016048e-02 4.654860506962137934e-01
8.249467717753153698e-03 4.654729297491942003e-02 5.351570717147249301e-01
3.660075059030885175e-02 4.045038542323720065e-02 5.078017146161407647e-01
3.037302977890453393e-02 7.728750171748134321e-03 5.289355527445697147e-01
2.255379267402779150e-02 3.799183612336450890e-03 5.321281781152978896e-01
6.781471172886178751e-04 5.912034253616600676e-02 4.606405162960627853e-01
2.404407732327738453e-02 5.574071679182002886e-02 5.166192128606125200e-01
3.034436909736435220e-02 6.111447628006887178e-02 4.948547624822767221e-01
2.991573400491396098e-02 4.437877439209612918e-02 4.684019805655638136e-01
1.976557676540721328e-02 7.454228969596608800e-02 4.945278178001398794e-01
3.708655513301991474e-02 4.786319881314835684e-02 4.819233856858692877e-01
2.367978683067452177e-03 4.387523980658838280e-02 4.566118826818326704e-01
-4.786535465202965307e-03 5.688726078221543331e-02 5.364940054250934010e-01
-3.362281612098297345e-03 6.324001839002098280e-02 4.627702057639065947e-01
3.798176559402782759e-02 2.773523451978305090e-02 5.100036910564776926e-01
1.046678989045753648e-02 3.804509656779025278e-02 4.563828583475055267e-01
1.314752417028378431e-02 6.506943194663204755e-02 5.154348255935542467e-01
2.633494082797161601e-02 1.910586596491245515e-02 4.538036398969488849e-01
2.711910630936106154e-02 5.218658835959183451e-02 5.148709872669470222e-01
1.384156864849435398e-02 2.491021356584247060e-02 4.516420789568493799e-01
-1.186411009312414618e-03 4.576166388909276572e-02 4.564278843006160380e-01
3.671123025665872647e-02 4.936565359048547541e-02 4.947491959512871351e-01
1.930538696980392327e-03 2.052389875919441789e-02 4.473424318269762501e-01
2.516572719863235941e-02 5.284460923736947202e-02 5.170912687352783310e-01
2.987932966168629217e-02 2.806942046072227054e-02 5.247108442474315293e-01
-1.423294458385870181e-02 -3.597992570358412353e-04 4.373909407902094593e-01
2.425521627145139567e-02 1.375090171697745771e-02 4.503993196935977550e-01
-6.474908158915212292e-03 9.637974600271631553e-03 4.415343740238465431e-01
-2.278179109628803919e-02 4.441423316672941934e-02 4.539470265454216835e-01
-1.221061020488932621e-02 2.790331346236990875e-02 4.477099963897863688e-01
2.217897728821384765e-02 7.236544419518177451e-02 4.834104462594639995e-01
2.383882259681587359e-02 3.368657478691085283e-02 4.591787758014614362e-01
1.996461433560434845e-02 3.721432265451370125e-02 4.589942662566425802e-01
4.715640697766107156e-03 3.210560988114347786e-02 4.526070282446686965e-01
1.854195647621690451e-02 7.507194590085650154e-02 4.940243847599898874e-01
-3.673081010299432403e-02 3.131923942583372117e-02 4.483352410273648836e-01
-2.764772913907824134e-02 1.039772569248695062e-03 4.381946914976394547e-01
7.779813015504255004e-03 4.921405318798124928e-02 5.330634371125412274e-01
3.480576947920496073e-02 5.361523677588226483e-02 4.918841757367775624e-01
3.805648467530940715e-02 4.747938640040590824e-02 4.859217345977768776e-01
5.955099838875228119e-03 3.827359123326867091e-02 4.554070539340762114e-01
-1.094309502389445229e-02 2.872464131408632854e-02 4.482981298053199670e-01
2.625718235118757946e-02 6.771277654343448027e-02 4.911251980050310717e-01
3.349975984165196041e-02 5.252471865164762277e-02 5.034573838961623471e-01
-2.337981824137239095e-02 5.654179348525222720e-02 4.612150968064828160e-01
-1.381658185536138207e-02 5.024956332414688698e-02 4.567142325687745252e-01
3.484583638337668959e-02 3.596667084940008419e-02 5.121017742872707723e-01
5.158130913888539851e-03 6.172125523339325875e-02 5.224370749605267150e-01
3.237785296455497619e-02 5.078988440768074375e-02 5.089724067995394785e-01
-3.803220705751388792e-02 3.069544566760436244e-02 4.482353406136682095e-01
-1.877062665902017383e-02 1.521742982088659935e-02 4.417591430884509895e-01
3.164829952588021911e-02 4.051718216037690501e-02 4.675573314968868299e-01
-1.551027635401847071e-02 3.317264156690487992e-02 4.497198396064717718e-01
1.962632748005396777e-02 5.779496345693470316e-02 4.675305181956820877e-01
-1.261523342180019373e-02 3.148102582456242110e-02 4.493048992579263823e-01
1.366422047379130082e-03 3.421193526545893149e-02 4.527833446819491958e-01
1.489534056582286770e-02 6.901092123934472744e-02 5.089217553051172960e-01
1.341562926353292648e-02 6.834043516338006441e-02 4.690245358625825811e-01
1.613730337180534560e-02 7.180730536549205512e-02 4.727993237904462021e-01
2.480879615540784386e-02 6.328950605134514573e-02 4.743832270035333032e-01
-2.988273297136478934e-02 1.366362187394744299e-02 4.420550059821328759e-01
7.545232745029647158e-03 5.441129699004559200e-02 4.613073761153355656e-01
-1.645838773846654973e-02 2.302916419709395701e-02 4.451565302178568939e-01
1.093162054256438184e-02 6.952696382549120035e-02 4.686703834411662939e-01
2.639320086822548837e-03 6.721641212729421999e-02 4.656915759306786695e-01
2.823078458347387520e-02 4.161968324877500514e-02 5.175970251218050544e-01
3.702203293466736073e-02 4.554840224686006883e-02 4.782931182800310710e-01
1.851119043370028777e-02 2.469800554910070445e-02 4.529556422499094737e-01
2.432214667629634119e-02 4.883033255654483512e-02 4.668069611965044996e-01
-1.033096773138010918e-02 2.123208726354665343e-02 4.453465669979141950e-01
3.358525231752654272e-02 2.865815570536612775e-02 5.197988009776185470e-01
3.757953713213200986e-02 4.739386312208124230e-02 4.983046393135079355e-01
2.903547786335956143e-02 4.714789427153503326e-02 5.152863319237490636e-01
4.451137829045928584e-02 2.291063875632795566e-02 4.967937829793394044e-01
1.945284533087392187e-02 1.463057375073935698e-02 4.489127498044481190e-01
1.492619490177989495e-03 1.961794247999555131e-03 4.399453110986819016e-01
1.491038426180306929e-02 7.739386534896772196e-02 4.846759598426820248e-01
9.870766044371152154e-03 6.958497923163858845e-02 5.049678529544414651e-01
1.340893585723814188e-02 7.217978615868247960e-02 4.716068272950766360e-01
2.326600546649865153e-02 6.557490797092042911e-02 5.053345648457765460e-01
1.420030016636403269e-03 6.159742580922435151e-02 5.319772821686092890e-01
2.786014730778314449e-02 4.267189806479922132e-02 5.171930316558932539e-01
2.090783109259600550e-02 7.390818274664741339e-02 4.935393416988371196e-01
1.108188803077630839e-02 7.126107637451234433e-02 4.697637691241866031e-01
1.600839496567831727e-02 3.632187015851768425e-02 4.572570177195910412e-01
2.487061957170121768e-02 6.841474073779868492e-02 4.805745146078692631e-01
1.446788504567721179e-02 7.632219719633180632e-02 4.870410756388828810e-01
3.092164370985689067e-02 5.525564190772863649e-02 5.070039717183443262e-01
-3.261565221707755230e-02 4.300856958168705613e-02 4.540553172154295214e-01
-1.260034315707047031e-03 6.956926138285553229e-02 4.702012458557899843e-01
1.418431912104221523e-02 5.995266485331115364e-02 4.656341393266976714e-01
-3.346671782809016588e-02 2.380026613307732047e-02 4.455855153748635722e-01
3.795196382781314964e-02 3.912293845292930117e-02 4.740821354233267226e-01
2.798622950328971681e-02 3.873769161651035436e-02 4.642817568217398327e-01
5.240838139226506459e-03 6.141288746531376602e-02 5.192670310177160964e-01
3.244504448740941072e-02 5.701168886540354530e-02 4.964018768766188527e-01
7.327905921240053869e-03 6.290079931844493044e-02 4.641971464662132951e-01
1.408506265011530943e-02 4.011135234747941619e-02 4.582378801266131507e-01
4.021678313680567690e-02 4.180501095920703680e-02 4.847430430225809217e-01
4.371144096534895773e-02 2.838065091220202257e-02 4.786323180172299407e-01
2.994576336750046433e-02 4.412736957682993066e-02 4.682801635483692659e-01
3.596694149517419559e-02 4.666711463914701569e-02 5.051712042399336688e-01
-1.072776526194486532e-02 3.245922515364511179e-02 4.500454817754606096e-01
