1.938251784853490742e-02 6.443712992290154262e-02 5.126992771212184330e-01
4.185824543438583512e-02 2.880631020604104697e-02 4.729033791236388340e-01
2.687037677527081420e-02 1.403802400990125654e-03 5.331416747737969253e-01
1.964089786207239355e-02 7.278860741063028494e-02 4.978866684530021125e-01
-1.025293207268344539e-02 4.718211803470456073e-02 4.555668887255436839e-01
2.655814763213794512e-04 1.346106865026829198e-02 4.440905025660440431e-01
-1.788724251014882707e-03 2.094349930853208613e-02 4.466769588091522580e-01
-1.879042981601369150e-02 3.246627571027927567e-02 4.489346586221942270e-01
1.695089521452430512e-02 1.312437193508458194e-02 4.473176082992398883e-01
-1.923709625299761111e-02 4.009867374541010478e-03 4.380817790519603294e-01
3.094398594355963691e-02 4.932951865331023505e-02 5.108554207622409971e-01
3.692143660637476482e-02 3.259395224539823888e-02 4.673848658129292621e-01
1.272359961953530710e-02 2.034349154132435514e-02 4.493341346926486013e-01
3.379054593623020963e-02 5.309401127935559073e-02 4.798129877579441760e-01
1.434947900048999005e-02 4.956543124023413127e-02 4.617291174241722196e-01
8.043169370422582551e-03 5.861875122593220716e-02 5.276821619978845357e-01
1.204101188267510218e-02 6.459496353622611042e-02 4.660251663060758776e-01
-4.515650831231958658e-03 4.429945878114052021e-02 4.551924902070222378e-01
3.699510864271021715e-02 2.615451174432092268e-02 4.642800954191398377e-01
-1.821862505301310650e-02 5.075875449278561408e-02 4.567582312771465980e-01
-1.763172859219631558e-03 5.763742437861837931e-02 5.211150948674105887e-01
2.924696765001684115e-02 3.046170376083564765e-02 5.247158810530067052e-01
-1.902241425201121883e-02 1.515174895812743984e-02 4.416690878293800249e-01
3.533589634675539382e-02 1.565387935603642158e-02 5.225475100576270071e-01
1.856485185259451262e-02 1.971771819728135658e-02 4.503668933533611085e-01
4.580815338661803349e-02 2.368076438740135403e-02 4.877085001161364231e-01
3.499505860963759984e-02 5.279741427803037734e-02 4.838988188700595883e-01
-8.296777920889310959e-03 4.718493621735325716e-02 4.557149870137163217e-01
3.964330743497522513e-02 2.700231552347713213e-02 4.671570051768205722e-01
-1.011418615024403667e-02 4.323477339888857213e-02 4.543183865153093137e-01
1.684049917049885992e-02 6.428216058827651569e-02 5.160068008381407667e-01
5.192904614261794130e-03 6.237971178468498801e-02 5.220198696753595158e-01
-1.577813222434653467e-02 2.593443661310745538e-02 4.462977222753657935e-01
-1.699469791024394317e-03 1.803195372430729110e-04 4.387354545162458486e-01
-3.782956095784297673e-02 2.275787371412046900e-02 4.458864970529434202e-01
3.160801523814283503e-02 5.468664584631459380e-02 5.052997785086069671e-01
3.035780162562211337e-02 3.606676032125633730e-02 5.171289170718196271e-01
-5.596660806994340105e-03 1.893444702987994582e-02 4.451589394372610364e-01
1.404361003240497431e-02 3.887114833980489376e-02 4.574178673396017691e-01
1.429843486446720838e-02 5.296790895558149692e-02 4.629578057539767144e-01
1.700915603080952604e-02 3.862060341605680347e-02 4.582286343758947833e-01
5.780015767654593864e-03 5.965178390675087566e-02 5.294460669190756974e-01
-2.649631105430982035e-03 5.758317610150018306e-02 5.238226504749151635e-01
3.319811688499912927e-02 3.711431847638295423e-02 5.132924906246713048e-01
2.929899634971079928e-02 4.721135441673345035e-02 4.693387225225587600e-01
3.443275119649389510e-02 5.271247660780292027e-02 4.983978206265069488e-01
1.597233405494670813e-02 7.598789022121132941e-02 4.922664494235004518e-01
-1.233947967019965834e-02 1.989084372651442334e-02 4.444029729767037251e-01
-1.665458976280173239e-02 3.756973103843046918e-02 4.514408853965904966e-01
4.522920699883834633e-03 6.599179714301992017e-02 4.646632441867552532e-01
1.193206513605568619e-02 7.207045622947901020e-02 5.012169012150422542e-01
-9.823844220442027458e-03 4.499292380874115455e-02 4.548970362287895197e-01
3.250587578008505563e-02 5.512214480332153915e-02 4.786264381337114182e-01
3.144117563222597472e-02 4.251418964836137931e-02 4.682147114613693373e-01
3.062801809828274296e-02 5.862920900495414978e-02 5.004884885289455632e-01
3.434976533801836675e-03 3.662087088497137377e-02 4.539513749310234436e-01
1.290141386237604604e-02 5.118625978995146319e-02 4.618586682082967965e-01
3.665029975572031695e-02 2.462234957551228537e-02 4.631198508318787321e-01
3.593483885587490934e-02 4.614138125669291213e-02 4.764618180632337330e-01
3.826017577082109489e-02 4.000761350986797860e-02 4.752927602884481906e-01
1.284507702928832165e-02 6.479511464315629299e-02 5.167255379547762706e-01
2.469566310231516987e-02 5.185345201295897544e-02 4.681284772844135356e-01
4.283127396955149768e-02 3.100532357494572774e-02 4.776103377650539050e-01
3.807949158348511443e-02 2.482846496507055967e-02 5.111457591032325665e-01
4.303475114289642689e-02 3.197084705261792059e-02 4.817453431802171671e-01
2.132305963988354383e-02 7.202177511515241159e-02 4.961358326408044639e-01
-2.228376516508302416e-02 5.801354308171294966e-02 4.621509464356341468e-01
2.310318982703084972e-02 3.102056190391546536e-02 5.284581237473354731e-01
2.269045747414525152e-02 3.012497136013655985e-02 5.285896693616282116e-01
5.196849986894043830e-03 1.244169525540211874e-03 4.402970958418918057e-01
2.289921570290755215e-02 6.895320935235810245e-02 4.985694217289970420e-01
3.144419892778411302e-02 5.418256991982647180e-02 4.755417973965689882e-01
2.132244220759955955e-02 6.455752704814497756e-02 5.101905369136234825e-01
2.953682152569202246e-02 5.049457481836275297e-02 4.714262837924519389e-01
2.854611527014138186e-02 8.723694613147169041e-03 4.507022054542412781e-01
2.117276440462596138e-02 6.878795585264420309e-02 5.023125773848826636e-01
4.201891022766422040e-02 2.539431670690704343e-02 5.019684446846593984e-01
2.622731321234741605e-02 2.694103138899022615e-02 5.265815424934044975e-01
3.556753386352438928e-02 5.145178605946941486e-02 4.832888276934403371e-01
4.412746917842051003e-02 2.173554930729654222e-02 4.730002645580924647e-01
-4.534213098345155415e-03 5.897113805149109544e-02 5.319746499345520130e-01
1.080813815557750066e-02 7.493968621198839053e-02 4.938472575150278931e-01
1.430725093343907656e-02 4.040345337880162785e-02 5.328258822418571183e-01
-1.057303918499658511e-02 2.302598130755420525e-02 4.459095077457296830e-01
3.822170685917132549e-02 4.665156727719872720e-02 4.939054194069608661e-01
7.688201807797214078e-03 7.747388785137978087e-03 4.431876927920482823e-01
-3.140901107054185071e-02 4.414548225817781918e-02 4.545542776058006940e-01
-1.876754258067578687e-02 6.037826262406531530e-02 4.682159461231685249e-01
-3.176666016873038595e-02 4.767018139734003485e-02 4.572220001968634873e-01
-2.383441577124773350e-03 9.984550092037101920e-03 4.422308510155348871e-01
-3.921177268124290127e-02 3.363430029586587933e-02 4.494393098653878815e-01
6.701973472593880654e-03 7.014895525675421406e-02 4.675000048589089130e-01
2.242746382159880106e-02 2.702515284299309914e-02 4.552542987331536506e-01
1.927714735087583675e-02 9.564160768200961546e-03 4.467157474238434567e-01
3.081549443323781945e-02 5.178907421872230160e-02 5.097417537379885788e-01
-3.369741163518942539e-02 2.668737964800540347e-02 4.465764960302846531e-01
-2.071480734242548902e-02 1.107949264475017667e-02 4.401838532951229399e-01
1.447967719200911850e-02 8.755565938995232139e-03 4.450367255143273804e-01
1.979510167426374104e-02 4.789607563563122450e-02 5.219230244552963693e-01
3.719712047520461196e-02 4.721372103458614661e-02 5.008778305473718939e-01
2.083874358909499833e-02 2.827242400140933185e-02 4.550325318127282359e-01
1.351572322414366575e-02 6.012209089603799683e-02 5.234691026721073337e-01
2.865690771532439923e-02 5.671276318058990351e-02 5.092234322110233968e-01
2.746128871468847543e-02 6.335150079174757531e-02 5.010566222190688812e-01
-7.976740362324562239e-04 4.294012079531023263e-02 4.554620734377970437e-01
4.350399525114289484e-02 3.210673757227062997e-02 4.889164279523959822e-01
4.340299155779766410e-02 2.370984217003620220e-02 4.726843023076647832e-01
3.137303371442234229e-02 3.175889380187418148e-02 5.217126985100094538e-01
3.569948410147780887e-02 2.504471062059279024e-02 5.179754307807474811e-01
1.552058632422118230e-02 7.085385372690104766e-02 5.049145096859816162e-01
3.614613451887630641e-02 3.675049363842976952e-02 5.085775446404056099e-01
5.411885301625564762e-03 4.371559381616638845e-02 4.570402247231807324e-01
3.318272965672368346e-02 1.894486462815700087e-02 4.577724480420622410e-01
-2.297967837291983728e-02 1.866055354152295134e-02 4.430126514030250373e-01
1.577299288242499029e-02 7.086042296207226143e-02 4.711202592022838420e-01
2.721039309009361251e-03 2.056256132049076937e-02 4.473878423525849968e-01
3.091534059071319313e-02 3.817905922168955690e-02 5.155748536170916552e-01
2.519405215520732766e-02 4.986979710141118544e-02 4.675241460509272362e-01
4.299370428480054490e-02 2.090776201377419694e-02 4.698983587816997765e-01
-2.866353149782703905e-04 6.196751875408478688e-02 5.308962478157117637e-01
-5.889046079667541005e-03 3.182042601865923276e-02 4.503407097254364388e-01
-3.773520446456266747e-02 8.069107018199091381e-04 4.401955345600251923e-01
-5.119415463584988529e-03 6.147358284354269287e-02 4.609130964740374981e-01
1.784490785100843746e-02 6.115789039710863018e-02 5.189574728520444102e-01
2.601390115593171445e-02 1.626463290330688524e-02 4.522471121843738562e-01
-1.152939329047251646e-03 5.666644943773131021e-03 4.407623061003793641e-01
3.153138482977258655e-02 4.042816055480138310e-02 5.142584642880533297e-01
1.404803536777039091e-02 3.519936239785970145e-02 4.559373780908001494e-01
-3.836985375774275286e-02 3.175595010589039174e-02 4.485903959475114888e-01
2.949634873816972536e-02 6.156018425614227796e-02 4.793974750446396427e-01
3.497851200010014538e-02 5.277714903449034350e-02 4.931203819681225786e-01
2.689470653363611186e-02 2.807737501795288387e-02 4.580344716811476924e-01
3.661015826492078004e-03 4.976091182103784677e-02 5.367059187661472608e-01
-3.785148239649330920e-02 3.035756597413742305e-02 4.480211984548773119e-01
4.134976016658896414e-02 2.793873960392567399e-02 4.712406942281706090e-01
-4.247753972882414852e-02 3.311236406211021804e-02 4.497777883473235150e-01
-9.825714964454466092e-04 1.461025470776452020e-02 4.443110112794351751e-01
-3.382436205905305082e-02 2.225287989146110257e-02 4.450621606934179186e-01
3.388759458216579999e-03 1.589558592648320640e-02 4.456464243497096911e-01
4.060052009013771779e-02 2.691390429946542359e-02 4.689835191524299174e-01
2.330482744183560301e-02 7.023002431201330609e-02 4.944579493740496323e-01
-2.245785107897033117e-02 5.558057017754225448e-02 4.594499991904423264e-01
-2.608418151795988127e-02 4.826898666838860125e-02 4.563053381645972850e-01
4.121374149266272824e-02 3.974942319798552975e-02 4.897041807431329330e-01
-4.792303116516680346e-03 4.020386206452693234e-02 4.538313052520842605e-01
7.997568146027655284e-03 5.161973500596067632e-02 5.309433318293602655e-01
-1.789613775548591634e-02 1.291233918729361822e-02 4.408430628492119863e-01
1.531214330229620571e-02 4.154127343969918340e-02 4.589242164830100168e-01
-1.085938973771357306e-02 1.516285029161695483e-02 4.428559280522213482e-01
7.361482254694120750e-03 5.344622833064000683e-02 5.305009340186757072e-01
2.751601324459122810e-02 6.597072132409589895e-02 4.830675382123210126e-01
-2.279659321301458208e-02 5.883716841567151329e-02 4.654016438049332072e-01
2.967961148813856587e-02 6.217292638616236933e-02 4.941128038340277806e-01
3.607254684934885908e-02 5.061162371955244682e-02 4.936279685314987065e-01
2.611171311803139536e-02 2.787342401466720576e-02 4.575314447590385636e-01
4.412638327963979562e-02 2.698723879635479828e-02 4.787856327292471792e-01
-2.037530778259637795e-03 6.318366026680406755e-02 4.624595311424938293e-01
2.686610768139754361e-03 1.074072346377242040e-02 4.434440446104094269e-01
-2.453981569777334906e-02 1.616852948200093315e-02 4.420751807219632790e-01
4.068189108856705427e-02 2.515089274952185885e-02 4.679954541533040135e-01
-2.503437926167625602e-02 2.724499469882329244e-02 4.463708803572181139e-01
2.990167803355892745e-02 5.923913536273892055e-02 5.018150937507389608e-01
1.269540000794922886e-02 3.449441607770332031e-03 4.424452243950229291e-01
4.165371193758025947e-02 3.848357126609162904e-02 4.895664890477675613e-01
-1.594913963497807032e-03 6.890032070181137391e-02 4.674377573775798655e-01
3.221292697155993950e-02 5.762052510017375007e-02 4.811507169542838525e-01
4.170952080678722723e-02 3.638577826118712111e-02 4.818488280772714738e-01
3.614915047531857412e-02 3.732507955298900587e-02 4.691819073835151177e-01
4.500022414554789157e-02 2.289610877483566967e-02 4.768471779065258098e-01
2.754791813073591278e-02 3.982137826133946151e-02 4.642180781557974090e-01
1.029747868474631747e-02 7.223902311577463931e-02 4.699854675395918058e-01
-1.900603960559402172e-02 4.305412057355175598e-02 4.534681327227862435e-01
-1.219483063668394887e-02 8.188574654452128454e-03 4.400854803691500727e-01
-1.234814215637787538e-02 1.242794542323180998e-02 4.415682140746295392e-01
1.535737251862167099e-02 5.569416231873643847e-02 5.227143115844677945e-01
1.396650196479173878e-02 2.953928188194671067e-02 4.534279109281277864e-01
1.134156667058768345e-02 5.698441351934128291e-02 4.630900232229093749e-01
2.127416180878445237e-02 6.265753190771003456e-02 4.705135043113249926e-01
9.923332569396431033e-03 5.345098770036236374e-02 5.283620825225932016e-01
-3.930257303962176978e-03 5.599550372055642211e-02 4.586994987619853470e-01
4.152606456125308709e-02 3.409999316351298992e-02 4.978799774927210597e-01
1.843637880051751318e-02 7.158284277315440924e-02 4.738693492571893762e-01
4.207086676669023056e-02 3.214220018460434841e-02 4.762607789978380302e-01
1.431873572531769910e-02 2.628360371964111666e-02 4.521284707193212182e-01
3.096349950073716203e-02 2.782010875693776211e-02 5.232907792635957955e-01
-9.967809353834270261e-04 6.659161342531796923e-02 4.647933912420416092e-01
3.633102424462536506e-02 1.788990664844971462e-02 4.595143629509213512e-01
-2.678979518519806341e-02 9.101668593927737111e-03 4.399328105072604633e-01
4.604070318846413545e-02 2.222000633095970110e-02 4.842346057316346819e-01
1.658167088256996130e-02 1.884688857045000582e-02 4.495610187976484262e-01
4.436211360870142423e-02 2.675971365282195716e-02 4.798973760672062272e-01
2.563784582576131982e-02 6.314490693958656198e-02 4.748203272462189761e-01
2.114014715755093213e-02 7.255904878887532716e-02 4.801810064958335622e-01
-4.202267192883617913e-02 3.293626512953962832e-02 4.496331156799156514e-01
-6.731330777480616992e-03 3.585509593551004098e-02 4.519896921656008093e-01
7.514974231909844413e-03 5.200799706047625620e-02 5.311291626211941397e-01
2.910720035726777760e-02 3.677691861437187848e-02 5.188898011285093537e-01
1.199948187574616937e-02 4.241895651123969019e-02 4.583044727481694336e-01
-1.708709171219165157e-02 4.080542223782537142e-02 4.527374072972670804e-01
2.353517543156895264e-02 4.761413154728820485e-02 5.188532970431116720e-01
-2.746841089077328713e-02 3.278242172782883795e-02 4.485998507080686815e-01
2.613692190427421153e-02 6.461829666586269005e-02 5.004161991256564912e-01
-9.367020386253102626e-03 1.080624102855859761e-02 4.414526935608492630e-01
-8.200383568702210649e-03 2.558494064608835689e-02 4.473365827341628242e-01
2.781401835923288934e-02 6.308504837548539745e-02 5.008874436505618144e-01
4.205025481051069547e-02 3.442227807184513461e-02 4.947857724768994769e-01
1.463909211442686320e-02 5.889934173547447388e-02 5.228135516721716947e-01
2.298130264458880800e-02 3.812704832197727489e-02 4.607379698580191252e-01
2.872036741340456417e-02 5.758586505517091295e-03 5.310245846399442859e-01
4.242894317080057182e-02 2.740337440964408025e-02 4.731300823686040435e-01
-7.955599232185157216e-03 5.211154993029001870e-02 4.572779111688467513e-01
2.458823882931192306e-02 5.841600494097063528e-02 5.130416207824762820e-01
-1.859139011388996274e-02 2.422639451654589465e-02 4.453600794177194899e-01
-2.758772612763539869e-02 2.207172274480118795e-02 4.442998396116646931e-01
2.219714440447062564e-02 3.980987270236027720e-02 5.274931019118913600e-01
3.083459978291384213e-02 6.087784165314724660e-02 4.870175652202961558e-01
3.291056400394345299e-02 3.232811863045739059e-02 5.172116067206493639e-01
3.572496280239800120e-02 5.055562161603845833e-02 4.975392288055261458e-01
2.492044743395331607e-02 3.316823347384422610e-02 5.275087841666262767e-01
2.084450015861049471e-02 3.457069500920306043e-02 5.296390454264773284e-01
-1.623554404879156213e-02 5.904906454813620142e-02 4.611461299055993335e-01
1.137932503820491756e-02 3.249289710030531936e-02 4.540295603130294344e-01
1.049744135562625212e-02 4.500386095343403281e-02 5.342871247766095566e-01
4.165370846068762456e-02 3.649092593345756169e-02 4.948413362017589634e-01
-2.007606949155340756e-02 6.228555458803119831e-03 4.386658930601008421e-01
1.304219907909766329e-02 4.863453039628057306e-02 4.609202293047546251e-01
7.191221873025926102e-03 7.760637977994513936e-02 4.757273227743903932e-01
3.240880665217996809e-02 5.448786453243061739e-02 5.026013751558867648e-01
4.487099154552221664e-02 2.451189731577744363e-02 4.926013544173968861e-01
8.950229405210976402e-03 6.948903538214569464e-02 5.036279190200435574e-01
8.300127137671921632e-03 5.614155264098581039e-02 5.283356116934907476e-01
-4.499885204666108189e-03 5.076758626885252007e-02 4.570977547151347520e-01
-4.135458929103869204e-03 2.292327159440903789e-02 4.470085610836773138e-01
4.775867816788013573e-03 6.638488153663771318e-02 4.649698621309543700e-01
1.571110622707177617e-03 1.524198033325181896e-02 4.450376637793273527e-01
9.771382106371927223e-03 5.785047032238008896e-03 4.427997524781004945e-01
-2.763789658458302642e-04 8.660441942266122392e-03 4.420700645183979760e-01
1.166821531077799103e-02 3.767781527215758458e-02 4.562589000385414151e-01
4.266042047073243144e-03 3.907049810636245742e-03 4.410186700886318811e-01
2.114920059535661118e-02 4.494707640560639123e-02 4.629421876614251974e-01
1.949441475777290850e-02 5.549055594362671540e-02 4.661842221057157509e-01
3.850976279319322931e-02 4.659341964398264202e-02 4.905400791030569696e-01
3.861512846244483793e-02 4.080818511689318639e-02 5.026852843176974339e-01
1.505189249027083856e-02 5.764355567414511383e-02 4.647313046116678392e-01
2.988455837459852091e-02 5.731042390150737492e-02 4.755283180196064330e-01
3.204455827123907363e-02 2.307126229653679375e-02 4.588077777291747483e-01
7.124329378375161489e-03 6.821843937542046432e-02 4.666002420809098328e-01
2.311773382930286044e-02 6.108528071197338177e-02 5.125829998330581061e-01
3.163361001723175026e-02 2.297755531358407904e-02 5.228061801189703983e-01
1.057466189475057827e-02 5.220629052029366474e-02 5.283721146169629845e-01
9.973577071182109649e-03 6.505122538166842328e-02 5.108930535695219710e-01
7.450294866265192925e-03 4.437391677608119867e-02 5.347819034612580902e-01
9.073675671350119390e-03 3.939105817058435183e-02 4.563290924522692138e-01
1.943958553792735772e-02 6.110297895849669397e-02 5.172032281482070726e-01
3.443496080107158464e-02 5.452391641361884617e-02 4.866551903891135344e-01
3.241577175485487600e-02 5.347407763966286615e-02 4.762369129917308208e-01
6.086259603218360792e-03 4.412256468484988120e-02 4.573330993955934121e-01
-2.507492260973907816e-02 4.170078979530885549e-02 4.524470858740726742e-01
3.644903582659234087e-02 2.571433363230447161e-02 5.152517161170566684e-01
1.047244682598951100e-02 6.790902610227868286e-02 4.670021496057350507e-01
1.126847675129156838e-02 1.482480555995507182e-02 4.467881151427570696e-01
3.946058685490437534e-02 4.455305335345206147e-02 4.907146519048411482e-01
-1.839595802188768309e-02 -1.727085515531292734e-04 4.372915021092043109e-01
3.098554609343711491e-02 5.963393751908650092e-02 4.808312504606118143e-01
7.607467785011972662e-03 6.329540395085457571e-02 5.226484440956046251e-01
2.962983108589429052e-02 1.745718015010662080e-02 4.547970497706927406e-01
-1.926157527732970040e-02 4.645908561304544493e-02 4.548176506907505856e-01
2.988982536377095961e-02 6.217186763756060719e-02 4.844167980271686380e-01
4.037084299141870114e-02 2.551149688845329166e-02 4.676043306137161459e-01
-1.305867982814830179e-02 4.012656604851592285e-03 4.385697562923121517e-01
-5.076396222277006209e-04 6.144207607528919673e-02 5.279019242544196189e-01
1.849742392384826767e-02 5.765026620708311317e-02 5.202760834718294092e-01
-2.864804270740427955e-02 4.822775605710395534e-03 4.388680755201689876e-01
1.082293079312272865e-02 6.427670364902518529e-02 5.182027256687065098e-01
2.480559860828647489e-02 3.248592497045036526e-02 5.275695891516619662e-01
-1.887871503631753656e-02 3.766512599744623047e-02 4.512388114012118590e-01
-2.925076747649344930e-02 2.654988828341389023e-02 4.461910680840242560e-01
3.699100513628886949e-02 3.626258650134662337e-02 5.073104237818977236e-01
-2.378388903151391204e-02 1.558990899792644068e-02 4.418576827339369406e-01
3.658177973704102460e-03 6.308601452501977347e-02 4.627122808021984501e-01
-1.305027478924660617e-02 1.161742877091432452e-02 4.411332312728100113e-01
3.382591469961858388e-02 5.387472713237294319e-02 4.982896337747094173e-01
3.111749980455174799e-02 2.822531832233264593e-02 4.606350220965905184e-01
9.710370545022620203e-03 5.466986950334424417e-02 4.617972246381271684e-01
-2.424964502126915333e-02 7.393612579976501648e-03 4.389774732459583162e-01
2.897990502711487310e-02 3.843031878570933244e-03 5.318670706021881855e-01
1.422479127806676458e-02 6.315337676561844082e-02 5.209048334103610900e-01
1.995321540966303944e-02 3.636672408648638360e-02 4.583453309443511481e-01
-4.402090035588860847e-03 5.255979195874625060e-02 4.576385133860974008e-01
2.444853745398183065e-02 6.157420637916225653e-02 4.726863931726345003e-01
4.206615685737069565e-02 3.702245498259412737e-02 4.914001917681448672e-01
1.062370710130519473e-03 5.931293018711083359e-02 5.207281135880238443e-01
7.640859366056374294e-03 4.968647584968433062e-02 4.595444703222436589e-01
1.585743305103708145e-02 6.416185489844401790e-02 4.677432529391839511e-01
1.500074423904694358e-02 2.877912828006683882e-02 4.534179183891947629e-01
3.414739054012336239e-02 5.228495566293536734e-02 5.009943923150284029e-01
1.215442968057814724e-02 7.733194710186516718e-02 4.847034025735409424e-01
3.064543640094292976e-02 6.065297876988782338e-02 4.826082187067982643e-01
-3.314781287662943530e-03 1.069975872018429433e-02 4.423611935404248019e-01
2.549919739176712344e-02 3.369281811745652999e-02 4.599086386198902310e-01
2.218155930679002394e-02 4.788836562590971513e-02 4.646113093579656850e-01
1.919330632547038354e-02 6.997094250180013741e-02 5.032755405006748006e-01
1.122516097729646736e-02 6.738793360558399670e-02 5.083608523511274901e-01
4.330994109679403917e-04 6.246640469184107369e-02 4.621258912342315339e-01
1.259968339417668302e-02 1.007259122137789571e-02 4.451227173959648731e-01
7.231881514044744171e-03 6.596582491391397851e-02 4.652508614671789222e-01
3.034122170291087689e-02 5.009239919280004255e-02 4.720903939979500530e-01
3.236198742069512635e-02 5.715987295134591917e-02 4.956584158164106801e-01
1.188373937162269696e-02 6.042079465687216766e-04 4.413569472317457332e-01
-2.904005181561630181e-03 4.526781983558861994e-02 4.557299494012422292e-01
-3.261191582658615022e-03 5.384716987791646203e-02 4.581185762912604043e-01
2.189916631483833018e-02 4.247547136775607635e-02 5.236652423965981740e-01
3.886395473048919608e-02 2.654529093592704683e-02 5.084323412820085375e-01
-1.127708536227916940e-03 1.586461028375124593e-02 4.447729572688726707e-01
2.824075518057292053e-02 4.735633853575472313e-02 4.685483981179771606e-01
5.326493373937209175e-03 4.978366974743081430e-02 5.354183531057767897e-01
5.544137332474574111e-03 6.197171048987940023e-02 5.203226014105415409e-01
1.097628240192452531e-02 4.091908178017986814e-02 5.336600276497749373e-01
2.332924811785486857e-02 3.389463733907374654e-02 4.587510738017220868e-01
1.633548633216590565e-02 6.191308575922593871e-02 5.200794683713099165e-01
8.417876379956945598e-04 1.500318257604498634e-02 4.448029694073963314e-01
2.117871729838191955e-02 6.601539929618439884e-02 5.071663913702485482e-01
2.840487446885738704e-02 5.331179974861114529e-02 5.120093194842587625e-01
2.984016382122263097e-02 5.034098157386714817e-02 5.117125601760178499e-01
1.451691409999980760e-02 1.961148169297627711e-02 4.494205382026346118e-01
-4.033017968915387878e-03 5.069610087211104399e-02 4.571248503900570692e-01
1.168502753628147990e-02 4.441613544618924075e-02 5.339360048086048138e-01
-2.829973124974665549e-03 4.006631732209420954e-02 4.540757915936242117e-01
3.382677768015460162e-02 5.548065243056014145e-02 4.855120504264384129e-01
-1.016565359750019361e-03 6.313277811189826894e-02 4.625049277522692015e-01
3.584952322852170969e-02 2.944448988712999177e-02 5.133393873473098834e-01
3.538986506494145451e-02 5.256872543347757692e-02 4.899845662971314408e-01
9.640138056202332204e-03 5.285390888602105319e-02 5.289190992084793486e-01
-1.434653275471029464e-02 3.611567912560145494e-04 4.374954959522255327e-01
1.080846713987293831e-02 4.693118077924786878e-03 4.425593476857055397e-01
3.708936027054771101e-03 7.422741965612455507e-03 4.422907145673135587e-01
-7.444036720692747897e-03 2.128999214021566611e-02 4.457649285246396142e-01
-1.979956142816581208e-03 5.201565065283871719e-02 4.577808642308823783e-01
-2.568895875388255493e-02 4.846387575337383902e-02 4.563976309188336744e-01
2.007727946479438697e-02 7.502770452552308400e-02 4.897699549449497369e-01
1.702057633725014354e-02 7.683317985458014421e-02 4.850655975538142872e-01
4.167841587422686095e-02 3.635502445695484863e-02 4.948468897304943437e-01
4.225131525191946902e-02 3.394872983646114728e-02 4.796991142802813357e-01
-1.692231728585204265e-02 5.553081848315185448e-02 4.587154102434968239e-01
1.877183516363440524e-02 3.068631791326370539e-02 4.554221387561013246e-01
2.008766801925374393e-02 2.730027700675882740e-02 4.543788491599733415e-01
4.146293680258917452e-03 2.466253667330705127e-02 4.492897803971969140e-01
2.152143865463744185e-02 5.218453671289676604e-02 5.190025450926512018e-01
-2.899219479758734577e-02 4.252058092856077914e-02 4.530166254333273801e-01
3.418023764850942198e-02 2.845395752365088154e-02 5.185441201975202752e-01
-2.066571026931943861e-02 1.828566783017133990e-02 4.428718432715268993e-01
1.034263662141375953e-02 2.069691840532149676e-02 4.489609234791174797e-01
-3.203228255201778091e-02 3.323250260018886099e-02 4.488435397641943880e-01
2.525231302256195770e-02 5.200151963561394641e-02 5.164059145444961363e-01
4.542070435330171352e-02 2.435344243593643224e-02 4.836708100988405534e-01
2.168738469975329836e-03 5.492196984783326297e-02 4.594979266128662587e-01
6.112803492502382613e-03 3.744518633204096253e-02 4.548661970415213140e-01
3.533390455952976905e-02 5.003387190590420641e-02 5.016679927435950814e-01
3.391338683744886395e-02 4.200209999577041858e-02 5.104205953302574095e-01
8.198074490247980739e-03 7.094759500615263614e-02 4.981400340000528559e-01
4.215446737390703136e-02 2.230558410160179972e-02 4.691160084340341707e-01
-3.290901946337576600e-04 4.186269279764579659e-02 4.551967381772912824e-01
1.927334737330323178e-02 3.603717188720387959e-02 4.579021239302141777e-01
-7.588587855862478047e-04 3.598465073248298396e-02 4.528660414365519582e-01
-4.119785073059085089e-04 5.374803616534924722e-02 4.584669458555703514e-01
1.282668678249155453e-02 7.517438251643132618e-02 4.950658521829507941e-01
4.394322741858390502e-02 2.292833166961585206e-02 4.982836610194552041e-01
2.166192956197593444e-02 5.627970476819287721e-02 4.678128058581828563e-01
3.027471075893217040e-02 6.174999521810066450e-02 4.859383998448259523e-01
3.044648403426665831e-02 4.334262114514170899e-02 4.678991245313909864e-01
-5.560047447447022395e-04 1.814298523780887018e-02 4.457951423148963088e-01
4.086303221564027005e-02 3.982418428838481461e-02 4.852933780178820822e-01
3.085825109898814814e-03 4.940659116718498084e-02 5.367614691166120444e-01
-1.470694740264476795e-02 6.108315755435273636e-02 4.652517039388524567e-01
-8.109102963240402348e-03 2.173289527001003377e-02 4.458263301704708526e-01
4.221537048535909525e-02 2.428655092123651812e-02 4.705256150089238698e-01
-1.194799335792440936e-02 5.063479151727594274e-02 4.566998678482889762e-01
5.560422157719560263e-03 5.037132656964495026e-02 5.347148603128711875e-01
-2.002755866162414522e-02 2.567664031501865063e-02 4.458110851834998778e-01
4.243935348021508208e-04 3.574995809152882453e-02 4.529996773387096609e-01
-1.364771613928868199e-02 1.972164704890370240e-02 4.441561014475238767e-01
-3.582228409286681431e-02 -1.553391891839259447e-03 4.395881628290059240e-01
1.198949112161610750e-02 2.095895484929744673e-02 4.494300988264589569e-01
3.892937935850934728e-02 2.782363843713635265e-02 4.669072072469808155e-01
3.031718197770754200e-02 2.796477975918736786e-02 5.239562411401075259e-01
2.758698517274944112e-02 3.442269974111934056e-02 5.247206167512687980e-01
1.310264210913091032e-02 7.573949956544934192e-02 4.901548069122727003e-01
4.464206423201325796e-02 2.575927849268885850e-02 4.917291187789735729e-01
2.310416679978530979e-02 5.315114286763827217e-02 5.177126935078699699e-01
1.244862830908158476e-02 4.598203084514503741e-02 5.315617779735419823e-01
1.221730444683345393e-02 5.091245592387677599e-02 4.615178733014094203e-01
2.668701106548312246e-02 3.963979689296098785e-02 5.199063136672392726e-01
1.724235721499819268e-02 5.676957710068682855e-02 5.212261979787273791e-01
-3.018520278747474118e-03 5.938003781302155643e-02 5.370608572014446969e-01
3.572976546663401975e-02 3.664217864637622779e-02 5.092078213180927238e-01
1.220905871884909490e-02 5.562246939670634216e-02 4.629938996494625814e-01
2.131941070242446279e-02 6.589395001645324823e-02 4.722026009068376884e-01
1.811697799163840619e-02 6.871115323866952562e-02 5.057533978916278761e-01
6.081792848605596311e-03 3.075605204550084168e-02 4.521397670842907668e-01
-9.983823090173251855e-03 5.529955002259612229e-03 4.395231805574887907e-01
3.351163787553178980e-02 5.007359030732115579e-02 5.069538547226287717e-01
2.666292790938211768e-02 2.648576040634910943e-03 5.326468796589675092e-01
1.238017923953181956e-02 4.325388280262996987e-02 4.587537758358735673e-01
3.523406727264436628e-02 3.303377801328722524e-02 4.661737998318349896e-01
5.668542326796316942e-03 2.672233567167325158e-02 4.504269321321089925e-01
4.142855673147022993e-02 3.665565276319040361e-02 4.961713613785328492e-01
3.511966385909655319e-02 4.069575628337313011e-02 4.706063481812939875e-01
4.286798416626667191e-02 2.316878145814674217e-02 5.015910845811329954e-01
-6.968972896089536267e-03 5.201404913260482266e-02 4.572581966780056573e-01
-6.519210985738905541e-03 5.716254335711653395e-02 4.588028216966841266e-01
-2.373996336688832115e-02 1.972856614101997294e-02 4.434159074105579745e-01
-2.509480743620212326e-02 2.385013428015738193e-02 4.449774087545265711e-01
2.163862404552958224e-02 7.383168606164693115e-02 4.876556311089116358e-01
1.938362301370299273e-02 2.770458704339928344e-02 4.543272177767047615e-01
3.471604750675418710e-02 3.342315462273030835e-02 4.659357593943079245e-01
1.736251046941931012e-02 5.417259403280146046e-02 4.646004378490861675e-01
1.846484254179195719e-02 4.358930479846846728e-02 5.273256438188708151e-01
2.984189593284800740e-02 5.290973758798500626e-02 4.731910224387482211e-01
4.877363445332203416e-03 5.333369495519354325e-02 4.598113237989101543e-01
1.226741082005093630e-02 7.797139480643917875e-02 4.832888156562546444e-01
1.069332673822624528e-02 2.326661700177197478e-02 4.500758806262478706e-01
3.294544400646164106e-02 5.717840730510275610e-02 4.898990496184446042e-01
1.789997562344471799e-02 6.104744731589151208e-02 5.189800102618150612e-01
4.333607038956215768e-02 3.257729346926588332e-02 4.884471721459748284e-01
3.794811445892357082e-02 4.770052355043472025e-02 4.897552747087278724e-01
4.065101841166307572e-02 3.632723121277987854e-02 4.766257787955970882e-01
7.922042991104332951e-03 7.908523641074109711e-02 4.767597270470794735e-01
2.868407109973613450e-02 6.351633736848866230e-02 4.806686070824095491e-01
2.593262381852140530e-02 6.282343358829536872e-02 5.063216448490461818e-01
1.067654125707945267e-02 5.579367214876482933e-02 5.265084128571937416e-01
3.304872158742711181e-03 1.539091953999358747e-02 4.454280743247622798e-01
-1.141841852684230899e-02 4.649415761716396700e-02 4.552585400943184313e-01
2.488762869497068014e-02 3.173712708823785839e-02 5.275169256771096160e-01
-1.441260742815947838e-03 3.730705982879255200e-02 4.532732719368265384e-01
3.701464266488032478e-02 4.466979300278149656e-02 4.771724524849482729e-01
2.615242232034550168e-02 3.371495995705809517e-02 5.266159395150914468e-01
1.429496132624556021e-02 7.277219461924953892e-02 5.011022322225759940e-01
-1.796280705023602792e-04 4.670660247301232360e-02 4.566070404986723452e-01
3.825260941240659490e-02 4.716186305572762222e-02 4.888737121706210886e-01
3.616124529979060365e-02 3.092473983810991103e-02 4.659955637176348975e-01
3.102822334528174825e-02 5.529966752799519297e-02 5.061237079654447024e-01
2.701383780999941711e-02 6.705602576944440230e-02 4.861552979531549856e-01
4.069008064906440292e-02 2.252835986727153017e-02 4.663274175593249971e-01
1.793587967435007410e-02 7.266724158199928951e-02 4.748911024711217621e-01
1.630783633993308085e-02 5.958253648839549610e-02 4.660719685524949418e-01
4.013986321238360161e-02 2.525856254625164291e-02 5.063966727748072660e-01
8.702799637253061729e-03 3.472869125614241881e-02 4.543562667745087991e-01
2.717550527905496574e-02 5.320654204365511675e-02 4.707249488729979281e-01
1.368954434740817308e-02 3.623638918063751269e-02 4.562608516825968352e-01
1.887491901457178864e-02 6.603601398206594697e-02 5.093887281171767256e-01
2.964346604836494425e-02 3.126929555967235264e-02 4.612353751722976236e-01
1.311948820200222778e-02 2.457985094104743473e-02 4.511595769235411946e-01
4.740262423172474787e-03 6.186102914594071578e-02 5.216901431561856706e-01
3.805675272875534698e-02 4.391976075816359654e-02 4.784810259504210794e-01
1.028211553717764230e-02 7.274674104987227663e-02 4.706683060739690894e-01
-1.295060130381644158e-02 7.094198475565130155e-03 4.396065322194775971e-01
2.038184896371866839e-02 7.484841957094920395e-02 4.869433696623478580e-01
4.223263027203762870e-02 3.356033393762794526e-02 4.782029390834723337e-01
-1.805299764106509108e-02 4.904961036581973605e-02 4.560185158242255343e-01
-1.117202282622205799e-02 4.538361085717327638e-03 4.390197850935950719e-01
3.773666705971019664e-02 4.820457378236799040e-02 4.869424672038851210e-01
2.319633785727207020e-02 6.378358228709141153e-02 5.090199268396045085e-01
-2.609488758384408136e-02 4.086811353979370731e-02 4.520630325214773926e-01
-3.603159711115744984e-02 1.391596693842887811e-03 4.395599488672913835e-01
1.812682953457738291e-02 6.070939092785569008e-02 5.189833285243207195e-01
-2.338785554917046684e-03 -1.277277704440219971e-03 4.381319550171234867e-01
1.023400093795901258e-02 6.346383399059689345e-02 5.211735288599325111e-01
2.480204577954883000e-02 4.876875347459162791e-02 4.667391951037831999e-01
4.347753897918874705e-02 2.957213754380010745e-02 4.794944862026224719e-01
1.517308462358554939e-02 1.261289148577439748e-02 4.467080009535817631e-01
-2.044546227356972695e-02 9.532667087885651758e-03 4.396291427020020959e-01
3.061271398142789354e-02 5.533000334806823656e-02 4.752576008115049766e-01
3.788108285585577856e-02 3.176169995592639100e-02 5.072542753236404245e-01
1.600194759897333174e-02 5.821801178164664331e-02 5.219405248297529498e-01
2.927519201282854228e-02 7.690874800429670782e-03 5.293062515394206802e-01
1.636091840346143300e-02 4.438046663930842600e-02 5.293106792741210098e-01
-3.818907720636226244e-02 3.941355499674362856e-02 4.528526156430602856e-01
2.023348521265183261e-02 3.350107664024275234e-02 5.298477651548945122e-01
-1.481973495657094853e-02 1.032989958508033664e-02 4.403370378281131758e-01
6.965749381307116336e-03 7.619589114384893447e-02 4.744416230855086347e-01
-2.779437694625297786e-02 2.881729858791600568e-02 4.470108837890797715e-01
4.363008161162722220e-02 2.032900724211420332e-02 4.708007098701003645e-01
-5.247090797567200912e-03 3.635914334636614065e-02 4.523733264504846696e-01
4.204882851960478618e-02 3.200331891329415840e-02 4.760902640520435769e-01
-1.593994953699584896e-02 4.440875736150858011e-02 4.541426275309562999e-01
2.651965310875696591e-02 5.415048302670674718e-02 5.139547887157663864e-01
-1.370856946353888293e-02 -2.213094432055202898e-03 4.370130658048652084e-01
3.323642288448445947e-02 5.637274234748043678e-02 4.839097709355197341e-01
-3.054346765122450957e-02 1.485140105498509045e-03 4.386502862407878345e-01
-1.021819573850903280e-02 2.358257804685440565e-02 4.461839727959719948e-01
3.004799316851847549e-03 6.199203606158487645e-02 4.619452900552978303e-01
1.505576731195375217e-02 2.702052086618707619e-02 4.526766384624586470e-01
-2.161247359273006565e-03 6.857823020991105079e-02 4.664143526971031850e-01
4.081773057445037267e-02 2.768049699834636279e-02 5.032036570058211478e-01
-4.467174512363392830e-02 3.258942658562648947e-02 4.500586739941462855e-01
4.376372152711745928e-02 3.045979512315382873e-02 4.902708410508125891e-01
3.295062446118247890e-02 1.679519594887165027e-02 4.567003690575831554e-01
-4.112537630413299131e-03 -1.085820014030891394e-03 4.380207339386233412e-01
-9.609042640048158501e-03 1.789256539789650310e-02 4.440960399259606395e-01
-9.026903406157582577e-03 1.146552160909655943e-03 4.382555201318230065e-01
