1.951478116865287132e-02 6.089038712612383081e-02 5.173397521361466911e-01
4.288433412140404619e-03 1.340152933529146356e-02 4.448194696962468608e-01
2.397132420895134799e-02 4.167598573337304158e-02 5.225488844439348801e-01
3.585769989756953414e-04 5.271405848858352200e-02 5.376169361454213869e-01
3.392921947663948140e-02 4.224775311648722859e-02 4.702036511868307178e-01
1.006377350316715359e-02 5.475416702278618902e-02 5.277855564899818219e-01
4.319705861434099819e-02 3.155559679492107861e-02 4.920022187327866559e-01
-3.665885652712806003e-02 3.214528637057821603e-02 4.486202613830413966e-01
1.600123724929381971e-02 7.554981043031637478e-02 4.951953048415903558e-01
5.328238551419438654e-03 6.027143314876079634e-03 4.420398634969939788e-01
2.402591491962016018e-02 4.440904402203908752e-02 5.200688928977430514e-01
1.944048964337302329e-02 7.512863388522371400e-02 4.911040389941608297e-01
2.618364092156297285e-02 1.879129906244419307e-02 4.534194596215480599e-01
3.212635734434694107e-02 4.503061952395232687e-02 4.703387549765798425e-01
4.067208741651089088e-02 2.246707224786765461e-02 4.662510945003851548e-01
-3.041040087995725352e-02 2.589110363346312435e-02 4.460279657882665338e-01
4.004165298679587814e-02 3.126999684264527429e-02 4.712657390220743037e-01
-4.152929390809171131e-03 2.214289102401632500e-02 4.466943259082615247e-01
-7.740719514807112593e-04 6.186430658997600640e-02 5.329362805345108089e-01
1.555713943942589605e-02 3.865164017099512184e-02 5.320735163364623821e-01
3.511173510336120657e-02 2.502723819075692441e-02 4.619534887998956729e-01
9.998316529802564814e-03 4.671076312125318347e-02 5.335575777972274558e-01
3.317958135844769219e-03 4.848009158766476007e-02 4.578992133833052480e-01
2.184841437519096166e-02 6.646333363901590907e-02 5.056490525857206819e-01
3.393147042771058053e-02 5.398120529850129745e-02 4.973752831770837934e-01
4.227799359502643073e-02 3.388389239558587535e-02 4.796269378531692884e-01
3.592148834909898725e-02 2.191867679804680724e-02 5.184039053701653410e-01
-2.617663716757609102e-02 4.167020702842632457e-02 4.523894786171298588e-01
1.678716187222361114e-02 7.642765730648769240e-02 4.870127439854682327e-01
3.142378342435313276e-02 2.265114651995488865e-02 5.231352989866880909e-01
-1.767422674293258819e-02 2.471683821851348301e-02 4.456423988459729535e-01
1.206764321716759930e-03 5.523620301545494743e-02 4.592589213667925274e-01
4.281152674254651985e-02 2.336927491018289324e-02 5.017105773492718246e-01
1.909866505505108600e-02 5.474123785693182920e-02 5.202476684758430281e-01
-3.787631089152930508e-02 3.037596100455678197e-02 4.480351799295126392e-01
3.870081601353946021e-02 4.618967050148809622e-02 4.885502599512365762e-01
-1.393955104998532285e-02 1.512685129793371087e-02 4.423388598574644059e-01
1.833095861895198478e-02 7.515494133330204163e-02 4.950238523365368404e-01
4.131040026757434175e-02 3.885539574896885312e-02 4.865978292481706879e-01
1.733435463760203341e-02 4.231191360635915000e-02 5.307898847262046971e-01
2.772454335547867160e-02 6.038832323907132593e-02 4.749270205731468408e-01
1.180102895490392143e-02 6.418348374751688123e-02 4.656494934576700939e-01
1.724745281137948782e-02 6.603484666202416586e-02 5.113215965024445753e-01
1.626218820924800468e-02 4.147547306136790957e-02 4.591455212018833443e-01
8.735345719087756616e-03 6.639821453857453967e-03 4.429437379595098645e-01
-1.512327037490001714e-03 5.839303573352808141e-02 5.367084011976689384e-01
-2.444551342703237332e-02 2.908766678584822143e-03 4.379516159598699221e-01
2.786930833363521903e-02 1.868203112067109636e-02 4.543210343480344471e-01
1.868864813404434722e-02 4.790086348894329049e-02 4.627727521556675994e-01
1.028183468940424040e-02 5.020678480209339600e-02 4.605239002690106886e-01
3.110988775156827216e-02 4.427699407698926920e-02 4.689284456903130005e-01
3.524652968923177448e-02 4.900664927187234343e-02 5.038616603856390652e-01
4.820249400682283768e-03 8.604726894237840068e-03 4.429811440995923277e-01
-1.528411050400032417e-02 -3.466483300251662313e-03 4.368558163138991368e-01
-3.019503931852448447e-02 3.642917971332055443e-02 4.501410156721628586e-01
1.826956557472870016e-02 7.509543170474201890e-02 4.796478764504903403e-01
3.031958778342012245e-02 3.099324480099112031e-02 4.615169487349477517e-01
4.186596277189436055e-02 2.049847874795193009e-02 4.673564952505190884e-01
4.273895467350452559e-02 2.938894093796998869e-02 4.966839556547083534e-01
2.412390926917790113e-02 2.522397923305397249e-02 4.552732163025829948e-01
2.296792885580672267e-02 3.246896517509646057e-02 5.285182031028008431e-01
2.208416033778800094e-02 5.335162933656383694e-02 4.667901911391512115e-01
2.344859870758502288e-02 6.750856567310085932e-02 4.759582037035868796e-01
2.561010864600377079e-02 4.951318832204881781e-02 5.167186505438400301e-01
2.894827695610990848e-02 5.877190988933651827e-02 5.062565322164578330e-01
4.353891566711726169e-02 2.797186910116775810e-02 4.768115541457298434e-01
3.541730363441454588e-02 5.151868879313731275e-02 4.823677684938877941e-01
3.203001164868207219e-03 6.386086637815606426e-02 4.630605531465382119e-01
2.323130996858118608e-02 6.777513818490789321e-02 5.001239871851332897e-01
2.003760392488250150e-02 3.398755924244877685e-02 4.572865316897093968e-01
1.885044219683252101e-02 6.567390605797249203e-02 5.105782639712594939e-01
3.891285489993016877e-02 1.908498773432138265e-02 4.621007175550325141e-01
2.728340155443535059e-02 6.659249787474977311e-02 4.894782927192568578e-01
6.180942683629946088e-03 6.311260165389620536e-02 5.270738854734601242e-01
1.496647609350878518e-02 7.576353388734734240e-02 4.940039200658619678e-01
1.074680820703154474e-03 3.810997082563320759e-02 4.540523136179179242e-01
-1.868488595237709216e-02 4.909914037092797529e-02 4.559948826877163186e-01
7.270973252432682415e-03 6.714455181901722580e-02 4.658990621798856924e-01
4.067065356147012839e-02 2.358761109572898862e-02 4.669472493642983779e-01
1.263020027445808241e-02 7.068853881047118537e-02 4.693299241215159734e-01
-1.996628615106768329e-03 2.172832453419868207e-02 4.469439648533213294e-01
-1.219974771676329318e-02 4.179630194971213630e-02 4.536279497159484420e-01
1.436174831257232797e-02 3.969686653753175774e-03 4.429660754150013258e-01
4.488909676705570700e-02 2.441721235976444110e-02 4.786363215742370225e-01
6.599113245696017552e-03 5.931168377940606445e-02 5.287410665113301267e-01
1.320997482331708744e-02 4.668484601072003803e-02 5.304496278102613926e-01
-3.268085739884836471e-02 4.441252549926559545e-02 4.550673465315586697e-01
3.590543504150579823e-02 4.465646035755160836e-02 4.749547363837506309e-01
3.600260128560290457e-02 5.130532878087670084e-02 4.851402926951329242e-01
-2.404827547429425061e-02 1.469620341940734883e-02 4.415457100413135993e-01
3.583777004395298504e-02 3.321783442015822929e-02 4.667256986703118837e-01
2.421340280067760947e-02 7.075227587928074879e-02 4.844900046482303324e-01
1.396167543659190130e-02 6.460553583314265769e-02 4.668758149407515878e-01
-2.306140522785990639e-03 1.143207799532981565e-02 4.428283652455046182e-01
4.484045085147036341e-02 2.395707075800818098e-02 4.940835531262570690e-01
3.314997823711562930e-02 2.526808027095082260e-02 4.606079819475232817e-01
1.935788430431865589e-02 7.440000866497238630e-02 4.795065536295169961e-01
-1.212985710576578065e-02 2.377326636450570463e-02 4.459316291077720096e-01
2.365020036913411880e-02 6.837310624123174585e-02 4.980054000480830800e-01
1.365623312792946069e-02 3.923920746356303335e-02 5.327640674324751746e-01
3.090905176307959593e-02 3.861905396890117498e-02 4.657552109928821960e-01
2.887494460729223000e-02 5.664502012833540906e-02 5.090227024165794312e-01
-2.601053807923538880e-02 4.748115481450981140e-02 4.558042176224013642e-01
9.523211334231049263e-03 5.410794626305386046e-03 4.426008136411681559e-01
2.390860928772996219e-02 4.800128536652789601e-02 5.185074919997196830e-01
3.383685785766574194e-02 5.508579175359636093e-02 4.929551463836291947e-01
1.891962271473161816e-02 6.768667057643758256e-02 4.710766870799708017e-01
-6.455630924044599914e-04 5.999122380277236571e-02 4.602120220642034742e-01
1.541531343154874459e-02 4.362574534377758328e-02 5.315260248183223402e-01
3.457866913627135469e-02 3.843394774359425170e-02 5.109176448129919557e-01
4.379627243839742667e-02 2.826020073222400286e-02 4.929635049602735242e-01
4.360257675753874927e-03 8.966943435467326917e-03 4.430389882288608416e-01
-7.187127428171530968e-04 5.849562632331287843e-02 5.220305573148164013e-01
1.472529645319134439e-02 3.158867723957138607e-02 4.545371265276146877e-01
-4.004783224392367835e-02 3.111135606354469701e-02 4.486883788268816176e-01
4.331483902054112517e-02 3.181441142197190958e-02 4.845499757014185005e-01
4.294404304254189481e-02 2.361020453281532580e-02 5.010016177505384194e-01
3.233001940894675991e-02 5.666479424160190959e-02 4.982525326950122957e-01
3.149833418048519212e-02 2.981916297065490690e-02 4.616976491630710444e-01
4.201078581527218497e-02 3.261706769077122453e-02 4.970906684241985785e-01
2.352717711571811199e-02 4.879056704971347636e-02 5.186416997364313719e-01
3.738187398363145703e-02 4.838097961303863132e-02 4.840435872971362019e-01
-2.808789197089182205e-02 2.441906640938599007e-02 4.452394240973986395e-01
3.202309821035185383e-02 2.433752867427145875e-02 4.593581164302543707e-01
2.456924150050259284e-02 2.543018885594101886e-02 4.555986210487957266e-01
2.026781249833389809e-02 6.074859061467863253e-02 5.165873161194028951e-01
3.054145103845486847e-02 4.361983489363291389e-02 5.141727887822298282e-01
-3.052710647731540078e-02 4.393711313518393335e-02 4.541676925399430464e-01
9.892231972646662458e-03 1.770286074590002832e-03 4.413560985178496821e-01
3.218429716496185033e-02 5.438576059149122927e-02 5.039748879697781847e-01
3.736056769677151973e-02 4.871844729040160360e-02 4.847527562283319158e-01
3.192133138647969964e-02 5.741298816951241613e-02 4.798214690383765246e-01
2.177964608007070327e-02 3.365101207454401777e-02 5.290968021062371074e-01
2.198197326564277354e-02 6.026525394471642788e-02 4.698147684841249005e-01
8.147987881309846914e-03 1.358190381636131122e-02 4.456439689847637720e-01
8.554709300406197064e-03 5.161766400494444129e-02 5.306913235795859274e-01
-4.318200691085598980e-02 3.374470355457310361e-02 4.501177419833554127e-01
1.376959792344290348e-02 5.013220828583095368e-02 4.616869706363293524e-01
-2.413760788880569760e-02 5.735459002081496477e-03 4.384772047564126085e-01
-1.230441959911638371e-02 7.876025187888728921e-03 4.399700453218076679e-01
2.750282183996780733e-02 2.651468041788145047e-02 4.576177077459158693e-01
-4.668077353561857386e-03 5.848721899676271457e-02 5.342537627257593069e-01
1.483665901012086626e-02 1.570283229915399315e-02 4.478948985300776342e-01
2.091493948559906835e-02 6.513163238838275138e-02 5.098080054528929539e-01
-3.624377538388702524e-02 2.960345584836635707e-02 4.476449151432845830e-01
-1.775378987061605740e-02 6.052758712702313582e-02 4.667027868151028547e-01
-2.484295606163985926e-02 2.850377489510416695e-02 4.468329754246083696e-01
5.052986371123327144e-03 6.251500127152440078e-02 4.628257984982978579e-01
1.830156138449252901e-02 5.898599248406004303e-02 4.667233449397663603e-01
3.558156469638218411e-02 5.114260051823330683e-02 4.823626872373986685e-01
1.281293817206227356e-03 5.965276214018946921e-02 5.188527989138336238e-01
1.240355461369123738e-02 2.370933249997723979e-02 4.506307348112835731e-01
3.613577767774450722e-02 3.715776565342808480e-02 4.689590892588079152e-01
3.480469907351348147e-02 3.192442760226759518e-02 5.138228176505528211e-01
-2.723655085679756171e-02 2.753761774243638355e-02 4.465331946676999730e-01
1.036514079127569266e-02 6.112120129318910494e-02 5.256356737292481318e-01
4.443005230185094467e-02 2.875048570132674591e-02 4.878275405171028090e-01
-2.717280547540461971e-02 4.387140688430429813e-02 4.537181391145584941e-01
1.605266400494624601e-02 2.339472632947543762e-02 4.514169546311928571e-01
-2.541031426159864794e-03 1.583458883706542406e-02 4.445035106162279481e-01
2.153185905966107511e-02 5.758168564219289659e-02 4.681855905255853378e-01
-1.040072287421024873e-02 6.146105451650786880e-03 4.396714205735964831e-01
9.369121192115326471e-03 6.395225424888460741e-02 5.200057982552545033e-01
-3.717266394970292903e-04 1.065070225290730595e-02 4.428584079273008012e-01
3.543076629358350715e-02 3.776908154577384574e-02 4.687014397525260390e-01
1.623487914130666409e-03 6.228219818789370449e-02 5.320706429509736157e-01
1.259576709187426764e-02 7.517596982299966368e-02 4.963881226720341933e-01
-2.836646243569707071e-02 3.518886840124773457e-02 4.496168717854981955e-01
3.151356051450341506e-03 6.291599873619471706e-02 5.276712271235242113e-01
1.679501118236020885e-02 4.106984199732582885e-02 5.316585463605444373e-01
-7.631611184457801414e-04 4.060562514234305337e-02 4.546362853726400588e-01
4.410706110158017085e-02 2.597468119851294166e-02 4.767587852657176328e-01
3.681218949362688453e-02 4.162689905207005853e-02 4.738925164820797509e-01
-3.186650865946515088e-02 -1.729646890022360113e-03 4.385848798629091716e-01
1.766402918697840621e-02 4.957808766297726322e-02 4.629835006084044302e-01
-2.351040278958471327e-02 5.035903502906838129e-03 4.381979581899686504e-01
3.586934879281523242e-02 2.674972497723402190e-02 4.635439049129012612e-01
2.546240191449081897e-02 6.382319164038725845e-02 5.055418871792244362e-01
1.480997268849184798e-02 3.666644500693747033e-02 4.567342290773734326e-01
4.058933314153223559e-02 2.637375036886489138e-02 4.685812239429152926e-01
5.231321417286735262e-03 2.382880322326280664e-03 4.406868389385620866e-01
2.020265868856251784e-02 6.397199614176135585e-02 5.129980977888584093e-01
4.042148134743487470e-02 4.123113183869538817e-02 4.853287445666191746e-01
5.144469090306854481e-03 5.513448018431708897e-02 4.603397702978662132e-01
7.430379752119707637e-03 4.817067206042831978e-02 4.589428396544343314e-01
2.831519140619639247e-02 1.479963339041738893e-02 4.529206390449180275e-01
3.964472807136248944e-02 1.771030929070224400e-02 5.160822100744898444e-01
2.416755664746530335e-02 6.572947234549600393e-02 4.748603525836809780e-01
2.661388804569371144e-02 5.107424098798335477e-02 4.691570328169241133e-01
3.926591720561069254e-02 4.012248577723379062e-02 4.772899629928050724e-01
-3.446081035923185404e-02 4.398586611380921052e-02 4.552985045643504480e-01
1.587099723034722867e-02 6.457199941992872866e-03 4.444526829616536889e-01
2.046765136485715481e-02 1.578095889302206373e-02 4.495015897442724562e-01
4.265657093571963501e-03 6.289371475986341165e-02 5.234964107124903121e-01
3.927281279259670771e-02 1.844269794634920828e-02 4.622559016815542265e-01
1.800590035528673236e-02 5.703130870252309803e-02 4.658339247069591127e-01
1.352472178090628405e-02 4.563868217284162976e-02 4.599096096922437593e-01
-1.408804334680305650e-02 4.540081934236849664e-02 4.546357707334679477e-01
-1.210467592994811381e-02 3.560766341639198806e-02 4.511294548187272380e-01
-8.319801335840864599e-04 5.238140794100312747e-02 4.580007998145621539e-01
-1.020605037500224230e-02 6.135204070547004701e-02 4.616600771705856032e-01
3.929832185362761021e-02 4.330557206693147476e-02 4.984503990625827052e-01
4.400166834444226016e-02 2.854412885072909328e-02 4.810023262518273168e-01
2.416241385797806770e-02 3.939781964677094295e-02 5.251550581417344654e-01
4.017413490879479659e-02 4.206265249473242068e-02 4.856527100843302525e-01
-1.289031463095108472e-02 5.835801248096292998e-02 4.595636158513078939e-01
-1.829288414097702056e-02 1.027486360335833071e-02 4.398576188162368616e-01
-2.544710534992026749e-02 4.593768795293075996e-02 4.548282709888935016e-01
2.045838172419748441e-02 3.763320768765080621e-02 4.591693576586010073e-01
7.823017301659615508e-03 6.337661582472604860e-02 5.243182822647174390e-01
2.675605942651993613e-02 4.058012534710774000e-02 5.197076778556242171e-01
-2.886476558915527027e-02 8.774591060934878659e-04 4.383243169901214764e-01
1.440350739074229731e-02 7.029474015382658481e-02 5.070005252753252423e-01
1.670989408100042456e-02 6.581818584009181683e-02 5.124241472431203537e-01
-2.339827931112826651e-03 2.231328704129533630e-02 4.471095778402564003e-01
-1.676105974137311744e-02 4.946760258017919576e-02 4.562234823267195538e-01
1.441945047677087657e-02 3.900264881567545167e-02 4.575511206884892990e-01
2.901929050400983701e-02 3.430453546937148324e-02 5.231132876909873053e-01
-2.232908342219400849e-02 9.437836361592343536e-04 4.374561409560613345e-01
3.423686332053960807e-02 3.713204459935570689e-02 5.121972311436154834e-01
3.717056351321195579e-02 4.595061459088657652e-02 4.788449806926498575e-01
-3.499817581661638505e-02 3.578696808541720255e-03 4.395485293275444572e-01
7.977941768882966522e-03 6.359721853482154519e-02 5.225219587684969413e-01
-1.973729373571416271e-02 3.059956353352339536e-02 4.480027539102505729e-01
5.714787243808268531e-03 2.789287972514730915e-02 4.508968476134718184e-01
9.234549589943637227e-03 6.843010339477773041e-02 5.059777052938777553e-01
4.287006537519392341e-02 3.372625978213083381e-02 4.861905353531615348e-01
2.131442096023922206e-02 1.967507957206935526e-02 4.512979282832170758e-01
1.651958807621680889e-02 7.034532553548805689e-02 5.051842936522203953e-01
3.638064592603062336e-02 5.049291078025460594e-02 4.916163933765774763e-01
3.280356521808815151e-02 5.751769241181063641e-02 4.885458077996434612e-01
2.094745213283613280e-02 5.454609092952729388e-02 5.189645456916864852e-01
-4.226136399940864929e-02 3.567904371436753791e-02 4.508487084529629318e-01
-1.051913588487163841e-02 -3.338070363295089597e-03 4.370265697698264562e-01
2.082160388972799717e-02 7.468901090576642032e-02 4.887097451548678140e-01
9.008985368673108271e-04 2.695415031531451372e-02 4.495744068428250140e-01
-3.953819793469570340e-03 6.617145346305731979e-06 4.383770934295470045e-01
-7.812161499238884366e-03 2.144334330192385063e-03 4.386798153319668159e-01
3.215083344028428491e-02 5.862459359638707429e-02 4.904427999405466809e-01
-1.132297980616261274e-02 5.925874521194476885e-02 4.600503205988162314e-01
-3.392593591494344561e-03 5.772959265050495170e-02 5.245188530353792622e-01
2.173138716601029363e-02 4.165992132691563599e-02 5.265107764997601913e-01
3.216935637502955220e-02 3.430102527884049818e-02 5.161868352383274239e-01
3.358095974034139286e-02 3.954995995043694701e-02 5.124063237762326306e-01
-5.845313991779266770e-03 2.000318335541640194e-02 4.455294698413465038e-01
4.370227633943254975e-02 2.394313353600994315e-02 4.736397763932571059e-01
-1.830531863989382640e-02 4.466016288798154571e-02 4.541200183645213717e-01
-1.952794588127004100e-02 2.609933714048875628e-02 4.460271354680507283e-01
2.085463100680193596e-02 6.680386031372226308e-02 4.721852446952012894e-01
2.438780136993796283e-04 5.966719862146379477e-02 5.335670921937059052e-01
2.622805653435669043e-02 2.336969359009485186e-02 4.555251265628803559e-01
-1.043122324271784224e-02 5.667035278653323460e-02 4.586115226964991853e-01
2.501024591473488545e-02 5.301657559204996095e-02 5.163579585481379297e-01
1.454133013194909042e-02 7.580689175443941497e-02 4.929577385385089938e-01
1.562819376255328296e-02 7.530675762222190095e-02 4.760314963770303498e-01
3.249843733909105886e-02 5.768542921326155759e-02 4.925821208313060362e-01
-2.370500983317570115e-02 -1.285782496974093025e-03 4.371996209112066212e-01
7.997035987182422173e-03 -1.072273857749251290e-04 4.403755171062804785e-01
-1.971886270181749667e-02 1.000276992395748507e-03 4.375268403592574296e-01
-2.669184008642344619e-02 2.924235348489454683e-02 4.471444409090514216e-01
1.641663284935895167e-02 5.971673320563095771e-02 4.660894298933316859e-01
2.099793206711858887e-02 4.371775866504335611e-02 5.236975133061412269e-01
3.496214257734830966e-02 3.760175729754423185e-02 4.682466168128656681e-01
3.972564748637868320e-02 4.178075492130443880e-02 4.799869285141756259e-01
3.446475804871571708e-02 1.952830845404569110e-02 4.588687690433787547e-01
3.816409028977425094e-02 4.645020277208596060e-02 4.831374570988455908e-01
3.098701139251114692e-02 6.030571744144615220e-02 4.924598025523493350e-01
-7.812447672628631753e-03 2.639313419802642030e-02 4.477350149493706244e-01
3.464480061377351455e-02 2.331143189944429386e-02 5.199166058968173187e-01
2.827478779649139976e-02 3.474879550021365421e-02 4.620868242498923917e-01
-2.396564100316724011e-02 2.748211914203682604e-02 4.464369548126234655e-01
1.439667830225656829e-02 6.539383313879509885e-02 4.674381998789094994e-01
1.981638169510693132e-02 7.489876849404937531e-02 4.923600439712121357e-01
3.110067560609241361e-02 6.047894569982401741e-02 4.903694177078737892e-01
2.566981384065393501e-02 4.510210478277270479e-02 4.654511234535530506e-01
9.681697783419523223e-03 6.595742889340025505e-02 4.656805497959490836e-01
3.407224248764874341e-02 5.507281535938204214e-02 4.898937905675607163e-01
3.577985678157093175e-02 4.615454441100059341e-02 5.055635505849864764e-01
2.856160674169241909e-02 5.720922437777480052e-02 5.089541282878115025e-01
1.052105926032360222e-02 1.216973541894431077e-02 4.455426408414704942e-01
2.940904440977398782e-02 1.689566787520865865e-02 4.544197074910311662e-01
4.237162184074058646e-02 2.666954244696247145e-02 4.995333347889655551e-01
2.887114978969620299e-02 2.402861389033583012e-02 4.571996255953309496e-01
2.153617006934248346e-03 6.279614267800757987e-02 5.281742292305562358e-01
1.985685782215066905e-02 6.863256105747193858e-02 5.043176139777090228e-01
2.940756752798654242e-02 5.750601573279837814e-02 5.075124476072315760e-01
2.348448467800132514e-02 4.757198876980812952e-02 4.652079480875951356e-01
-3.593855889605988233e-03 2.303190490862506296e-02 4.471521175970439299e-01
-4.108726592808046620e-03 1.090151607920341117e-02 4.423180194446659774e-01
1.690387933145760108e-02 7.465283621898699540e-02 4.977884692668473887e-01
1.832743047360390828e-02 9.394961748766444964e-03 4.462782912634198906e-01
2.981379000288765513e-02 3.667105091594652366e-02 5.178985878892820027e-01
-1.769077125834854231e-03 6.881157133173988749e-02 4.669242353799775702e-01
1.992961436208672346e-02 7.241276832294685044e-03 4.459932397605803067e-01
8.571641855409255217e-03 1.169149521103434678e-03 4.409045674129828396e-01
-1.325872860853125751e-02 5.345566412144349411e-02 4.575656147732999335e-01
-1.345914324959912936e-02 5.043229372899091928e-02 4.564851262536003818e-01
-3.961453925368282891e-02 2.506352382161854825e-02 4.469069693757861672e-01
4.002371740599017930e-02 2.478291795436189660e-02 4.665024935086018454e-01
-2.016865829850365485e-02 3.919196741389273375e-02 4.517701339734461197e-01
1.567891879682648329e-02 6.137769056707099991e-02 4.663981411773219787e-01
3.244623417709655011e-02 4.913040911588387877e-02 4.738051213391019090e-01
4.232959614995120828e-02 3.611029391102922592e-02 4.884644367810559995e-01
3.029346236169694340e-02 3.283599407767011369e-02 5.227314110461671604e-01
4.109120212648405268e-02 3.798433767812876838e-02 4.802383895249550672e-01
4.501482016701360139e-02 2.521514482238589039e-02 4.810915886678769904e-01
1.616602076409177913e-02 7.414086468218222814e-02 4.986868196965026923e-01
2.022819293490602660e-02 1.112220576301738845e-02 4.477276767579147498e-01
-5.522576638233289963e-04 6.966431437061514076e-02 4.688084278317810050e-01
3.459860651093397271e-02 2.425397850383700926e-02 4.611787739655315854e-01
2.218947547607010018e-02 6.505444611691894863e-02 5.081348343991270999e-01
4.674647386639406779e-04 1.052294230873185299e-02 4.429568803848470959e-01
1.946855488895362155e-02 1.583297612745640862e-02 4.491605169324502933e-01
2.194268834270804089e-02 7.193103841195552794e-02 4.944921502590550744e-01
3.021657376694917782e-02 2.887201153989769203e-02 5.239499239940923481e-01
2.602599666711204532e-02 6.642405635185880119e-02 4.788717384286635403e-01
2.992667888969505890e-02 5.681503935256484311e-02 5.071154099178681873e-01
3.668727590175994979e-02 4.445493340236099378e-02 5.047316797073455596e-01
4.062132677197225622e-02 3.920717431386867846e-02 4.793896321989998821e-01
3.357138977070159985e-02 3.896367630314932773e-02 5.126412633001365959e-01
1.992991706981396549e-02 6.001573751467318557e-02 5.175529855292727577e-01
-2.320904360416773532e-02 2.083344553124558129e-02 4.438382902057355639e-01
-3.800161925293697382e-03 2.092167663147225312e-02 4.462806319809412559e-01
3.223089284001674770e-02 2.012111731806556433e-02 4.576212695614684245e-01
-2.924252344418528521e-02 2.891607268889868909e-02 4.470821812225465042e-01
1.430016831525738122e-02 5.786840969139631086e-02 5.231156152888868371e-01
-1.366499990809623769e-02 2.514971572997004579e-02 4.462140131771772933e-01
2.322640809435145767e-02 1.542853629220859377e-02 4.504367259161332626e-01
2.243735190021738796e-02 7.113193136881704182e-02 4.951320132559723364e-01
3.643825825870096458e-02 2.567955991332482660e-02 4.634893951970313619e-01
1.562824888788849273e-02 7.456365743901925691e-02 4.979491307898425423e-01
2.857607061876898252e-02 6.263880567144383682e-02 4.785467747813951234e-01
3.329341358381097959e-02 5.270859560083789724e-02 5.035999913864244171e-01
2.736493946195001428e-02 6.077545557401430737e-02 5.072229700043178191e-01
3.199753754106821751e-02 5.886668953806547394e-02 4.876307202998576007e-01
4.417273981652369147e-02 2.731266960754100831e-02 4.796512676841054312e-01
-4.131922009273671093e-02 3.496840341959964876e-02 4.502827016632666712e-01
7.547045771157024144e-03 5.100630035230176856e-02 4.598462999516429450e-01
3.529844587971846248e-02 3.434240632409173155e-02 4.668428477318275482e-01
3.675855595628527150e-02 3.578341616616430299e-02 4.688166520729440956e-01
2.470025313125409541e-03 3.297128944448758647e-02 4.522897059776059825e-01
4.043827409697665215e-02 4.193605045115682967e-02 4.900826938522272469e-01
2.878449380431058816e-02 6.407859919136874027e-02 4.915214639838139110e-01
3.566251543999424123e-02 5.213212503347741666e-02 4.858815342311735841e-01
7.920381724734823145e-03 4.258691630171701492e-03 4.418280885673215308e-01
-3.624930277285892677e-02 3.373066934112037285e-02 4.492493747319065700e-01
3.032583162291384304e-02 2.397885377287412370e-02 5.237455493546886443e-01
1.577129328871528999e-02 7.719733387019589443e-02 4.831487213870013786e-01
-2.343163371736687109e-02 6.249899354725773661e-03 4.386001586007563513e-01
4.131799930269253879e-02 2.658497851288620095e-02 4.701871333112245810e-01
4.928005548125120872e-03 3.829811843209275646e-02 4.549070285082575382e-01
3.299034660417260977e-03 5.349151350681496941e-02 5.354388588712092334e-01
1.039751192973900097e-02 6.520166649327450992e-02 5.116086068161616041e-01
4.527305116461607243e-02 2.305310399668847668e-02 4.785770887150682107e-01
9.958392560383862516e-03 5.432649729648607317e-02 5.280943261077444273e-01
3.868562975870698528e-02 3.770452262660604903e-02 4.739251287137331570e-01
1.589701849441825521e-02 3.451256319770218406e-02 4.561735606402466670e-01
1.828975227371888376e-02 5.889971358512348376e-02 4.666844240672561317e-01
-1.065555695157322305e-02 2.685385817858000623e-02 4.474377806214948072e-01
1.163795784220777660e-02 7.841001703028099845e-02 4.816736515047392864e-01
3.769031141655593969e-02 4.240806695355898992e-02 4.762983580328535860e-01
1.823639012605158052e-02 1.428692798379152529e-02 4.482279097884094843e-01
-1.638989829320802033e-02 6.064257684491515532e-02 4.645334592806178442e-01
9.389466602875793516e-03 5.051537658501854128e-02 4.603374347073542761e-01
-2.305415568355253728e-02 3.802116279853929443e-02 4.510091644861018434e-01
-2.179588739651648621e-03 1.954357228388165640e-02 4.460445397513184695e-01
9.547996126002367828e-03 3.335911319375978352e-03 4.418115046905884413e-01
2.745147185498462983e-02 5.468463790909879052e-02 4.715865339498457876e-01
4.071931469147011678e-02 3.563226681797512785e-02 4.761122828922498273e-01
-2.007258432541534146e-02 3.844560902088265536e-02 4.514749823543585672e-01
-3.257515723404494357e-02 3.527836982939797084e-02 4.497110069303694169e-01
-2.536213633204228296e-02 2.990358937205087053e-02 4.473911370254303188e-01
1.797197492419340924e-03 5.230937047260618422e-02 4.585791514028231819e-01
4.179935383934498677e-02 2.565020661312141306e-02 5.024552932346758594e-01
3.509113247042104644e-02 5.312898987113170990e-02 4.905299251693545082e-01
1.313747004127384897e-02 3.774986146352958538e-02 4.566611082043504077e-01
-3.831552981602046049e-02 2.518601846643526640e-02 4.466886200881782232e-01
2.526047421885795063e-02 3.027720336368237147e-02 5.272523137688205352e-01
2.492826450890264431e-02 4.409775658322132724e-02 5.192523717916697201e-01
1.367310862597500253e-02 7.771422111096334961e-02 4.815149339630726555e-01
-1.249350228780276174e-03 1.971535281709403155e-03 4.394400395573114237e-01
6.583830066874201206e-03 5.314575374464592522e-02 4.601814961608977628e-01
-2.673671931061028309e-02 5.749586226698955721e-02 4.645226643944305733e-01
3.014950813777987626e-02 4.055374199173283206e-02 4.662096141194337351e-01
-2.787760628523994200e-02 9.319318525425546867e-03 4.402367453125378138e-01
3.658549721385430387e-02 5.044058830877000410e-02 4.877173986256426175e-01
3.486793486653775621e-04 6.758510777409515446e-02 4.652687382541467187e-01
3.929287764519827364e-02 2.235981735461431419e-02 4.642542744537409005e-01
-2.074327105604044721e-02 4.599898632091029699e-02 4.545499318161873581e-01
3.897447594389124442e-02 3.330090904048701311e-02 4.707706482035645679e-01
2.273555833248427568e-02 6.877392277320924785e-02 4.765077331608754130e-01
-4.071159128886521483e-02 -1.211165398687276927e-03 4.406245979929082623e-01
-2.052498836326282702e-02 4.124847261578767216e-02 4.525808621038154844e-01
3.581722849719242568e-02 3.891373446644520728e-02 5.090340551411874914e-01
-2.507040746415569940e-02 2.294725179273443202e-02 4.446381722604144660e-01
-1.673183591337147960e-02 1.874571461247147297e-02 4.433985986534133006e-01
4.475764541058808305e-02 2.416287712366757198e-02 4.942435043928730676e-01
2.598362590389793891e-02 5.137944365477310760e-02 5.159795172059153945e-01
4.532158389456301256e-02 2.444409526929166784e-02 4.822357562617942683e-01
-2.336357712788323868e-03 2.265774902694198123e-02 4.472460353671477429e-01
7.350613214565032173e-03 2.385143267759688712e-03 4.410828376007711049e-01
3.607130001171056366e-02 5.007853480328390561e-02 4.973961817341074343e-01
1.039910382391409649e-02 5.691045092408762024e-02 5.264108118255316215e-01
1.616280749356105439e-02 2.408723595201520823e-02 4.517464556207647641e-01
1.717189413332679410e-02 5.803646766078563585e-02 4.658091450077002649e-01
2.838164381794215652e-02 3.804665829406456146e-02 4.638511943907709933e-01
-1.826502984089645870e-02 5.579418356010310692e-02 4.589750595518761189e-01
-2.109153317337527245e-03 4.567693275150806059e-02 4.559365201558003844e-01
4.777505985852547633e-03 2.989757784938028642e-02 4.515142668276985738e-01
3.703691333695213750e-02 4.915173278900301229e-02 4.922128071052450649e-01
-1.919136402873550598e-02 4.627135753377762534e-02 4.547257422253417891e-01
2.089540269077608953e-02 5.286581207472506455e-03 5.313496814982497929e-01
2.489184921569426862e-02 3.925663475111472456e-02 5.241237063755506131e-01
-3.843524036797150295e-02 -1.501775673012546199e-04 4.405732264230980966e-01
2.184721203292146197e-02 1.705087326410803170e-02 4.504267846366040717e-01
2.050904804696822986e-02 6.435904232431859107e-02 5.120262315033535794e-01
-2.410101240792532351e-02 2.218864101570471037e-02 4.443514639462985416e-01
4.540123796882180110e-03 6.161917496717167486e-02 5.192926452604599286e-01
3.998851835042329522e-02 4.182200082185567186e-02 4.823090891358428611e-01
-8.870866383214833818e-04 1.291664492603229741e-02 4.436690149373556658e-01
2.916782526584564203e-02 3.757438159831634483e-02 5.179541885217964214e-01
-1.122076566587344379e-02 3.769327540299192807e-03 4.387718811676936115e-01
2.584606644870116043e-02 3.529693693834913548e-02 4.608511926004247861e-01
2.942127066106735994e-02 8.705858231849872980e-03 5.281900153909976359e-01
-7.131517450415714686e-03 4.883010725630506504e-02 4.563368739162068644e-01
3.162186456152581843e-02 4.478375782761752355e-02 5.123270439013266619e-01
1.700654621593787955e-02 5.849060168859592651e-02 4.659034376652040899e-01
9.505443739659431499e-03 7.377734812956278365e-02 4.716396207963228782e-01
2.777867129159361168e-02 6.412627823253580495e-02 4.791215057766458063e-01
2.184547901954589019e-02 5.978065384985650418e-03 5.311261533149427283e-01
1.068857249998116793e-02 3.734135377371869402e-02 4.558444468000276695e-01
-2.370729583497358656e-02 2.188878126180074379e-02 4.442381478254922023e-01
2.760575663493904791e-02 9.498035267047922128e-03 5.278043914843411066e-01
2.154846156920845607e-02 9.298180525760674220e-03 4.474722043540999006e-01
-3.477873962529819812e-02 3.923125168068998525e-02 4.515707475994467091e-01
1.753851243406642432e-02 4.072392185618689542e-02 4.592263061909307442e-01
4.831121860312132150e-03 7.076263064564290717e-02 4.685566378948167188e-01
2.595234152022835028e-02 3.421046681747878793e-02 4.603899312976361680e-01
2.470928473903465095e-02 4.350993837648352985e-02 5.199962041838039895e-01
-3.333319787082416469e-02 2.447447388565742593e-02 4.457292361620066035e-01
-1.825629564027490825e-02 1.608609995628563702e-02 4.421098320991891373e-01
-2.735290782497199966e-02 1.965988632794340302e-02 4.434126911184577136e-01
-3.168878762194021759e-02 4.832817224949800122e-02 4.576391153581511606e-01
3.755464513694618117e-02 4.785041330052429431e-02 4.939307099210624163e-01
-3.341142437809572346e-02 2.825087506831345120e-03 4.392281506863335294e-01
3.865136137797815091e-02 2.123646805669350199e-02 4.630498863665855613e-01
6.617675027602045595e-03 5.845287379782283105e-02 5.286961226999629115e-01
2.591405170286971080e-02 6.768753064320337520e-02 4.920675809835878822e-01
4.060545692975003201e-02 2.358381538659036838e-02 4.668144429392431238e-01
2.659491812778214809e-02 3.321027621686309383e-02 5.264943277169040758e-01
5.882197906828985634e-03 5.937881388622375661e-02 4.617768474406543366e-01
-8.044029336471457750e-03 1.371454283515027676e-02 4.427643591346980267e-01
1.990778278462773318e-02 4.273382156985092162e-02 5.275100884773734622e-01
-2.180857706273117702e-02 1.610272732829918368e-02 4.420382292783589517e-01
3.665491041338984207e-02 3.322887128258956296e-02 5.093193046131994084e-01
-4.222970498820547564e-02 3.046543588651139112e-02 4.489316613293800051e-01
3.425704515690599500e-02 1.879794591449282515e-02 4.584184812775029538e-01
1.370786213829238223e-02 2.600985816277514434e-03 4.423615738595830238e-01
1.400490862318054183e-02 5.457071514380605615e-02 4.632729935916694575e-01
-1.008660706412226223e-02 -7.643270727640057334e-03 4.364719524817242124e-01
-2.535599519074282007e-02 4.790943588796113539e-02 4.560201050541058954e-01
2.458076514557112208e-03 6.271889464966794170e-02 4.622832309961575348e-01
2.126669969238868287e-03 5.730971895738483368e-02 5.329154319584823440e-01
1.264905620436209549e-02 7.584629095789022224e-02 4.884901134726426508e-01
2.045963792683589202e-02 7.279008794791715087e-02 4.786229137143304668e-01
3.686094329588159024e-02 4.917470379250075962e-02 4.937737746502738334e-01
6.490287020747893820e-03 7.620942834169515401e-02 4.757672903795162611e-01
2.299162594491542186e-02 7.098349524885665118e-02 4.932925406636050614e-01
1.893423080149760074e-02 1.415766231348115564e-02 4.484342611643760690e-01
2.537957926997440328e-02 4.405306988989104305e-02 5.187526714803449845e-01
1.480345178980940583e-02 6.161102469132030690e-02 5.221786538699639824e-01
3.782232357969760039e-02 3.966068342860744333e-02 5.059135533603059676e-01
2.534083167990684032e-02 2.631190687044269397e-03 5.325885006862248749e-01
-1.790072384451056597e-02 8.598912114681660224e-03 4.393592971568976990e-01
1.394853623543428241e-02 6.531947277039816535e-02 5.157606534149921096e-01
2.894309834352783509e-02 6.256333412388859205e-02 4.968637090679646762e-01
1.650519991361567781e-02 4.884862095401179549e-02 4.621783346898395428e-01
1.351767057390626178e-02 1.542743061557223100e-02 4.475045513205470060e-01
1.755806426930774447e-02 7.671109441272362661e-02 4.852398201098220287e-01
3.484637278517575820e-02 5.282908305061989607e-02 4.943736329154059805e-01
-3.211947445837617932e-02 1.423797596840575136e-02 4.425877407062512869e-01
-2.598219837410318395e-02 2.604180573683264818e-02 4.459369006983045503e-01
2.006640934339045876e-02 7.328168645860740071e-02 4.787293299533921798e-01
-2.091850711687338101e-03 4.141108466213851147e-02 4.546695654475720327e-01
1.771431154836500613e-02 6.121634849284980640e-02 4.673159145087457667e-01
1.404082419128703692e-02 7.593523495644166621e-02 4.753031903248042811e-01
2.993012904725380480e-02 4.161995897900466063e-02 5.153450966552534096e-01
-1.954557297174696825e-02 1.225098140889050065e-02 4.405996624500143621e-01
-3.847475395969506690e-02 1.274257113836087252e-03 4.405065661984179370e-01
4.462221520957831283e-02 2.530062243436147912e-02 4.929363836165273072e-01
3.799894884606361267e-02 4.562426966695909414e-02 5.005090077594694931e-01
-2.799513266257964636e-02 6.129405653604083279e-03 4.391972043660747893e-01
-2.162839041865002952e-03 6.109802566728713552e-02 5.290179802518499841e-01
1.462629238496444828e-02 7.609459304186121098e-02 4.772255013079387265e-01
3.117529585955296223e-02 3.202536531805365988e-02 5.221774262173075609e-01
2.298410380442727358e-02 7.098501529395377652e-02 4.933191964987946321e-01
1.383064736684054205e-02 7.380669366022499234e-02 4.994047607391404187e-01
2.974874746323581329e-02 4.825302097796931727e-02 5.132544563637037038e-01
3.131555295042537379e-02 2.807233701681198859e-02 4.606691123283940814e-01
4.204071403274804719e-02 3.677913848843338690e-02 4.873539493996923988e-01
