-1.474503286461178661e-02 3.498178022269790577e-02 4.504237211294515597e-01
1.871729460301279138e-02 5.761362190813025530e-02 5.195920891680494424e-01
2.042374452195551068e-02 2.833297113207433951e-02 4.548541747021070947e-01
2.668347043257499052e-02 2.616938860527023847e-02 5.262462550423753216e-01
3.784213175023631685e-03 2.195815847137714411e-02 4.480793125761612927e-01
1.758594065942008927e-02 6.527363771904090561e-02 5.135346712414081694e-01
8.258493219707223332e-03 5.916331572568704622e-02 4.623974912807133908e-01
8.955159921026573447e-03 7.058194504003412195e-02 5.024612875250475952e-01
-2.110983471542713166e-04 3.955061514180958915e-02 4.542622405711527200e-01
9.427979925679622758e-04 5.260664371395301631e-02 5.372615001090713660e-01
-3.042055238419079030e-02 2.755707607088712929e-02 4.465464433153948365e-01
3.109100729498084394e-03 1.970118617708324985e-02 4.470654638726170860e-01
3.790528358067590808e-02 3.740386497503885022e-02 5.054161071681306794e-01
2.249491020474468639e-02 6.718863875293176746e-02 4.742709805531399314e-01
-2.506716539717297309e-03 5.488994927635221927e-02 5.376392996908296862e-01
4.095308129933337982e-02 2.261145216705210195e-02 4.670659977470241198e-01
4.224515252689554044e-04 6.312730186286870382e-02 4.621795523660627292e-01
2.958956780306538220e-02 6.253047612646758791e-02 4.911286985211167910e-01
3.502568752480152842e-02 5.051065439551350594e-02 4.804855819913728676e-01
2.213808124892485685e-02 6.277166069163517270e-02 4.712212256573443669e-01
2.202348389892209470e-03 7.162920392906974021e-02 4.709067751981524386e-01
7.117728817918804983e-03 7.093833024734867709e-02 4.980771888760634480e-01
5.727685607550124514e-03 2.122948857287246943e-02 4.481634335966449001e-01
-2.045134195720327286e-02 2.228740468586310960e-02 4.443488456216428961e-01
2.114017130148824336e-02 3.541962602715643255e-02 4.583718103359125662e-01
2.721272199369873315e-02 6.244342797430357805e-02 5.034309762992651427e-01
2.341671513346500061e-02 4.883263170339303266e-02 4.657527295790515609e-01
7.198656161241478828e-04 6.295872030670102149e-02 5.258707802990822966e-01
2.648006107283146227e-02 5.046126423384465765e-02 5.154805893206815259e-01
-5.566354837093806518e-03 7.037099644588159543e-03 4.406110870869858753e-01
1.646216101756836636e-02 4.525240129062914340e-02 5.285428106661165248e-01
4.077364009911661064e-02 3.125856445373037529e-02 4.728539315352873751e-01
3.182371792075803368e-02 5.606601548715488270e-02 5.006346299865634952e-01
-6.435463064014701300e-03 2.040734973321293652e-02 4.455375716225983274e-01
2.341569597230696437e-02 3.619459310116723144e-02 4.598956890737143088e-01
2.934621704653331969e-02 6.258956811566877831e-02 4.932049020329435929e-01
1.147148339872301921e-02 6.999788081207629353e-02 5.061691314796354924e-01
-2.449640695491079809e-02 5.832749945482492565e-02 4.643583248186127221e-01
2.002444605488059789e-02 7.291227572136277368e-02 4.782338286416370488e-01
-5.179573168155700985e-03 2.115752823193144116e-02 4.460599312391595461e-01
2.496244787919667599e-02 6.520162774399415606e-02 4.755537942423078146e-01
-2.223100110461082544e-03 8.085822733481970795e-03 4.414921635822221524e-01
3.686371613710461015e-02 3.997751330821487648e-02 4.727975812323194638e-01
2.538804916432066058e-02 2.268477268351647841e-02 4.547640429502708415e-01
5.933460378180308893e-03 4.114738954371820884e-02 4.561072429214326762e-01
4.085301234619040378e-02 2.891353325435314786e-02 5.016609220302042926e-01
-3.618894735613427394e-02 2.712685508633977047e-02 4.467958445655588751e-01
-9.334037324280630449e-04 2.944029766052142991e-02 4.501383183914345887e-01
2.775003215248475139e-03 7.112678870364688710e-02 4.701520851052783945e-01
2.660848617727296778e-02 3.027755763440910172e-02 4.589139445243308191e-01
1.838783459112194527e-02 7.085905973129183466e-02 5.026139965137867982e-01
1.721719715309955046e-02 3.800717384942254445e-02 4.579246148293028007e-01
-1.316939572946300950e-02 4.230033173215935055e-02 4.535944378937846744e-01
2.645983011931136303e-02 2.900360597145043226e-02 5.261480957946297332e-01
-3.461126604284135884e-03 -1.039012574181093912e-04 4.383697994434776479e-01
2.210757815244729363e-02 1.444987313981372853e-02 4.496459880319427227e-01
2.129386865571264442e-04 1.041519538551546539e-02 4.428318393071208892e-01
-1.574314244762404363e-02 1.364728538789989135e-03 4.375933905938786950e-01
3.776960587630543396e-03 1.277331625044874491e-02 4.444342217070496592e-01
1.477407217346816265e-02 2.947910549554114829e-02 4.535789132818397462e-01
-1.448483800157198288e-03 2.821893420578164280e-02 4.495688248712866320e-01
3.764211228717202762e-02 3.672509900401008803e-02 5.058261306533939905e-01
2.757584745456136827e-02 5.878130467763176964e-02 5.085163282901391524e-01
2.006978074625460212e-02 7.323793770779626899e-02 4.957954773575725116e-01
4.290205081695612488e-02 2.305636388792571545e-02 4.712670157394832082e-01
1.863042852761847418e-02 6.095571211967340530e-02 4.675439091301435424e-01
-8.596989659735152986e-03 5.324765129475084874e-02 4.573241463771275939e-01
3.966567072116267828e-02 4.266449520110902893e-02 4.841824024001130655e-01
2.431950112246503842e-02 8.924164840042577221e-04 5.332352304757472794e-01
3.936146634187347171e-02 2.308493157308861773e-02 5.091683005909803938e-01
1.192055159736974887e-02 6.622227640868998122e-02 4.664217478083371726e-01
3.792708548613859393e-02 4.750681005238727855e-02 4.889897009226001345e-01
9.466218219304878279e-03 6.490073862073707234e-02 5.186216330701748367e-01
1.808783378063077377e-03 4.809620498483491852e-02 4.572428575879832202e-01
3.423696570657773497e-02 2.811316554108590077e-02 4.628419495802159056e-01
2.384223574206574547e-02 4.323050031502721074e-02 5.211702265175751636e-01
3.209720395051098712e-02 5.766466736227149337e-02 4.813306608410475862e-01
2.462378823856481783e-02 2.415297147621765783e-02 4.550324805401720352e-01
-3.247648643843124155e-02 3.634641107853191742e-03 4.391742369035197546e-01
1.504312552337703623e-03 6.809589857605718999e-02 4.651905389332739449e-01
-1.852864542845593376e-02 4.879211506567933399e-02 4.557060201772080155e-01
4.239638027573466167e-02 3.540117524341309524e-02 4.906660011230344898e-01
2.845983034723520780e-03 1.672932269183055251e-02 4.458305690463547077e-01
1.589492459855166087e-02 7.582773134268562532e-02 4.950472243286865859e-01
-2.980885070779821719e-02 1.256044981960523308e-03 4.384798799272227599e-01
3.730466842802478145e-02 4.781473136679807723e-02 4.967315182879022406e-01
3.257964036376137518e-02 5.744423023227618330e-02 4.900281066574616595e-01
3.593067741127400211e-02 4.839691935931877270e-02 5.022510153115598008e-01
1.859109824640678421e-02 6.582658102364787045e-02 4.698361190412564947e-01
3.091989668395166493e-02 5.584370737172626720e-02 5.046314018797235512e-01
-1.490095665565353659e-02 -2.748479977689400645e-03 4.368444253818402068e-01
-3.550145346371601229e-02 2.997054617770366844e-02 4.476333554895537969e-01
1.459525913764288078e-02 6.496279399360448126e-02 5.176323483744786902e-01
-1.054930989699435877e-02 5.666190147041594988e-02 4.583730533193811074e-01
-2.305618332744644935e-03 6.896682115420146864e-02 4.672024446884123217e-01
-2.706817781220189484e-02 5.015364964379930707e-02 4.572463916046830001e-01
8.947628919217312515e-03 2.542994827551543421e-02 4.505068864034363352e-01
-3.332373346013439708e-02 2.360699228522672791e-02 4.453595899991689144e-01
1.834751561990195096e-02 6.179676527016635806e-02 5.175686019781684521e-01
-2.104200178634286003e-02 2.088267104978401567e-02 4.437908832486826549e-01
3.761338255796195518e-02 3.971650549471720387e-02 4.739122371788098698e-01
4.070273116824939946e-02 3.593376661248991188e-02 4.766327148008412395e-01
3.072635158909341885e-02 5.602405143861080572e-02 5.049631107453593781e-01
-2.613859976964510654e-02 5.780801696443428617e-02 4.644674172524657085e-01
6.221070737599762070e-03 1.069607328260122406e-04 4.400849253390882176e-01
2.549092253081551920e-02 5.297021440077377685e-02 5.155894000233289809e-01
1.922566380776445649e-02 6.302689335331521092e-02 5.152503688142769933e-01
8.590095626661150771e-03 6.881362669986423874e-02 5.056503183601167573e-01
9.672978513631613415e-03 6.230314543436860086e-02 5.254535454421813689e-01
4.322277245080729385e-02 3.251382365104023286e-02 4.883654026148681604e-01
-3.466391232252365173e-02 1.463062207453695498e-03 4.391702608006471942e-01
-3.791097070423781606e-03 1.448564279644836382e-02 4.437121600737300442e-01
-3.082480932725886053e-02 4.374620917264569059e-03 4.390592920868487403e-01
3.218576844014478522e-02 2.977237715893152337e-02 4.621578537442493917e-01
1.507519490793118866e-02 2.550874738510792300e-02 4.519727055135535632e-01
1.068779528207255622e-02 4.900284431019986953e-02 4.600940136831942473e-01
2.495872312709727925e-02 3.797736629453347945e-02 5.254388078798869488e-01
4.509378121575176313e-02 2.545383514513412798e-02 4.852663550206884890e-01
3.900267867450515902e-02 3.615804817321544018e-02 5.032000789638532146e-01
2.137931535991863946e-02 3.345028704479438564e-02 5.289579765015086643e-01
9.192812923985865109e-03 4.735518224088713229e-02 4.590227682746387816e-01
5.932322157682125459e-03 5.441672835928261509e-02 5.311030486571497455e-01
2.771640814956020243e-02 3.842970311677652850e-02 5.199570036795594374e-01
3.212750944487144378e-02 5.815267897896004429e-02 4.865844469318741927e-01
3.112014928133923636e-02 2.270499976821042584e-02 4.580465541071199187e-01
2.793308132628850859e-02 2.984594563280905388e-02 4.594684253687630338e-01
-2.666282753287684687e-02 3.667828222749080352e-02 4.501594958641587096e-01
3.954467125227614094e-02 3.820121569638049858e-02 4.762756892970456679e-01
8.352508458114308448e-03 5.769263499525521116e-02 4.620263595422954284e-01
2.575044851270770485e-02 6.457843190476650341e-02 5.017199382147172759e-01
-1.439946127772820036e-02 4.795300486165442883e-02 4.554575293447757356e-01
1.183012756460668884e-02 5.568537865474990772e-02 4.626808681045727067e-01
-9.326914516755229270e-03 3.764425224337385190e-02 4.523054481163744089e-01
4.210081962110304860e-02 2.028127333251185035e-02 4.678523143518165672e-01
1.461485535998360841e-02 6.567903320282250657e-02 5.160256498433518635e-01
1.371104873374525551e-02 6.703119818898982396e-02 4.676732989083666192e-01
3.844037978841892411e-02 4.616520260030805567e-02 4.869254155665570516e-01
2.663267387133147826e-02 6.132106725771265671e-02 5.072501936848596849e-01
1.712701523079768542e-02 7.668196766279229692e-02 4.878621368907474221e-01
-1.944954446812711263e-02 2.546771497838545145e-02 4.457102654288267463e-01
2.613115377562329547e-02 6.659830247010152526e-02 4.938017080560879735e-01
2.441456865036337534e-03 7.069169012688765463e-02 4.688324171854280631e-01
2.728564594693563654e-04 6.203949916853095103e-02 5.328974929728227394e-01
-1.973097271477538411e-03 6.291633800954485323e-02 5.311009724621286177e-01
1.177782643387990762e-02 2.283613924626622972e-03 4.418635076660579197e-01
6.752758183410687877e-03 5.731066590782094711e-02 5.289217771469890694e-01
2.587693693628695737e-02 5.691809115046383982e-02 5.123629164258437507e-01
7.850856185711276025e-03 4.855461527380162262e-02 5.337767104060628931e-01
4.164153821273816614e-02 2.987781216139542839e-02 4.987671932542794839e-01
2.104064679166197521e-02 3.450139992090438951e-02 4.579262983516543817e-01
4.441273443206304045e-02 2.704813545851268708e-02 4.905487131090448538e-01
2.800505169973527275e-02 4.933119478568245148e-02 5.145756509345917884e-01
3.407133922455437419e-02 2.921847379704131664e-02 4.632649639794583218e-01
3.734245217749889573e-02 4.621976452375325950e-02 5.010400973678660330e-01
3.146901753457596873e-02 5.945412075684593234e-02 4.882957643098233547e-01
1.340583830820857476e-02 9.346980935694419040e-03 4.449818062043364164e-01
-3.744341340926689993e-02 2.168609240486516626e-02 4.453979601073264627e-01
3.383947672134880041e-02 3.194324329783557181e-02 4.644834822161367782e-01
3.355317800675915868e-02 5.581618910354444602e-02 4.879084835415489207e-01
-2.595923184410569434e-02 3.050106467034252589e-02 4.475555997837640243e-01
1.879335943320735794e-02 2.485908961049666452e-02 4.528663569623802010e-01
3.379846647319914577e-02 5.321480647461166585e-02 4.995588997688469313e-01
7.373957212963521378e-03 6.980221070296688257e-02 4.670242674602881894e-01
1.683082367118647962e-02 6.139470677321798645e-03 4.445176391490681667e-01
1.453338677628436201e-02 4.765589492638207941e-02 4.608943064482755037e-01
3.196590322105632986e-02 5.469264782095696609e-02 4.769673920425731573e-01
-9.410749711019607278e-03 1.016189789753503894e-02 4.411698596565771235e-01
9.819110239940993107e-03 1.691934695981692823e-03 4.412924746422863809e-01
1.099973383157718497e-02 2.402906434753311268e-02 4.503924033218912881e-01
3.201113387755954304e-03 5.695732227729854991e-02 5.319627362946396376e-01
4.111358051475949571e-02 2.626007270906128427e-02 4.697719087981672703e-01
-2.745107489752990695e-02 1.312577036058057076e-02 4.413053902047189836e-01
-1.228547491842345036e-03 4.460041163416854360e-02 4.556729612920737416e-01
2.044142101797368979e-02 5.552397241737876826e-02 4.665751471907473302e-01
2.964517216762003332e-02 4.330046419829178955e-02 5.146739388744924204e-01
3.432310557807275592e-02 1.717313354375638035e-02 5.226420195701102500e-01
6.359099221319159181e-03 6.451925882033889004e-02 4.638764597863221373e-01
-2.536313654522607403e-02 5.804464954226706830e-02 4.643456692418643228e-01
1.449986211037430743e-02 5.112072245628258675e-03 4.434503840830363863e-01
2.928193625380285520e-02 4.863602697141521103e-02 4.700823135090922422e-01
1.894720589261510157e-02 7.423726106656414192e-02 4.784946505561684660e-01
6.527096005178249782e-03 6.184611649274861928e-02 5.280958043967304283e-01
3.075267650764466551e-02 5.602010673273147973e-02 5.048665762712907235e-01
1.479208550553348309e-02 2.655802632109446199e-02 4.523335828362453626e-01
1.853588709235961390e-02 4.378247073345285095e-02 5.281485757902035783e-01
1.865848059201644440e-02 7.332876590602037392e-02 4.766654851018157224e-01
9.304207395024764737e-03 4.775985388095142781e-02 4.591984086051258962e-01
3.452039054616202335e-02 4.081163585389916554e-02 4.699095181421042433e-01
7.838802931151633846e-03 7.948884588002981533e-02 4.771931621801434042e-01
-4.866957632322185812e-03 5.806449235438315704e-02 5.360539988734555061e-01
4.252878585779567081e-03 7.385199558362347261e-02 4.720099518931910043e-01
3.134929509638849365e-02 2.712445171482674028e-02 4.602387881410610060e-01
-5.554526947574073628e-03 2.692979530148310180e-02 4.483172449145587657e-01
1.876387262771719855e-02 3.817238797467687600e-02 5.302841383772666228e-01
2.235869109914873781e-02 6.782226520546894011e-02 5.013725999714877535e-01
1.825900533751767876e-02 5.281235299403228695e-02 4.643820515875029531e-01
-1.462667962607146904e-02 2.446166645302233142e-02 4.457535235476954849e-01
-3.552793685685535358e-02 -1.137884389879097570e-03 4.394921750692001861e-01
3.806735185854966813e-02 2.192250371564938641e-02 4.629336605357892709e-01
1.952938474351908690e-02 4.144370631335594218e-02 5.292280015941315252e-01
2.564496841880500866e-02 6.281869838024196906e-02 5.066281340045566406e-01
-8.523421710663793213e-03 5.343014208871216947e-02 4.573728456861903546e-01
3.406406120039218166e-02 4.442251696668399197e-02 5.086949773598814506e-01
-2.679498841868254225e-02 4.382148805288055976e-02 4.535357029202312096e-01
3.763032920586952684e-02 4.159082115917368816e-02 4.756808108794121637e-01
4.222250536420048272e-02 3.485141133578065903e-02 4.842668267461371912e-01
-2.315887299558091333e-02 5.411299726371614216e-02 4.584811235239470983e-01
1.580893632012898148e-02 2.125227848100924924e-02 4.503282230026068311e-01
2.508425170058041845e-02 5.511181506648792083e-02 4.699274741983894832e-01
-9.043245266848656122e-04 5.672684263442055730e-02 5.377357668510893696e-01
5.570478886569828203e-04 -2.011352068478477334e-04 4.389557039726811882e-01
6.871851659442597751e-03 4.288777383206026500e-02 4.569558048652832549e-01
2.843249786852972832e-02 4.578150843215510191e-02 4.676909659342514680e-01
7.633101478918687469e-03 5.923123879212126991e-02 4.621955912073235639e-01
2.217449061339368810e-02 6.699867658429388417e-02 4.735601675333464544e-01
2.802678101639711344e-02 5.857074253608400560e-02 5.081072481401576191e-01
1.568648054346531012e-02 7.622545899729894769e-02 4.935824062683645264e-01
-1.597093271843985423e-03 5.011409750690243303e-02 4.571521997598272380e-01
-4.180494825116867069e-02 3.628721146601798786e-02 4.511484994693214512e-01
9.600232146202583236e-03 4.708944925058821535e-02 4.590606862625756235e-01
7.678886291472253670e-03 7.367710632548367389e-02 4.705418470167154199e-01
1.085837191278273342e-02 7.587222896871059774e-02 4.901488742990121050e-01
1.473023296616375079e-02 1.528121474456610278e-02 4.476620182716773422e-01
1.760055777055617374e-02 1.961761214750116014e-02 4.500521120370669093e-01
3.554842145736594045e-02 5.145893273955353536e-02 4.840640584643378652e-01
1.586933892126772203e-02 5.426207149519437362e-02 4.638247606293994796e-01
1.260565718062656333e-02 4.839792112082347969e-02 5.285116555658517790e-01
1.377116862802117356e-02 7.635790585518500984e-02 4.765561420974492313e-01
3.833873699970559434e-02 2.584264491280088838e-02 5.097306888386936574e-01
2.911008148617149835e-02 6.217817111430366805e-02 4.798801196891630538e-01
2.962922719008832459e-02 3.233970068244369778e-02 4.617425357756768656e-01
-6.857529224500694305e-03 8.005835784068310052e-04 4.383189291519460906e-01
2.709203546007575569e-02 4.082883248035402285e-02 5.188907291293318735e-01
2.389647740297010797e-02 3.080928899286836109e-02 4.576854158466612810e-01
-2.674848361040607289e-02 3.212700972257080678e-02 4.482349814745847372e-01
2.977285794180796474e-02 4.075563870925109217e-02 4.660537027172321212e-01
4.410527290974441267e-02 2.651761062669644869e-02 4.931852126934541669e-01
3.963782713084818693e-02 4.196863325175818199e-02 4.812308491893794726e-01
3.320158794971649757e-02 5.471783416828911173e-02 4.982156533275393095e-01
3.491880709898960433e-02 4.750417240292887505e-02 4.759643693785425844e-01
3.334435599114667775e-02 5.560251465424995154e-02 4.928973072921776777e-01
-3.552316366932866537e-02 2.201567666063710196e-02 4.451031761527884378e-01
2.039681217555464401e-02 7.145359449720481426e-02 4.766397727369402482e-01
2.721526502010728973e-02 3.202752928212809769e-02 4.600587059464233408e-01
2.906097689183619742e-03 6.152233250364953082e-02 5.163285333811261646e-01
1.239278730142366440e-02 3.379693529096355203e-02 4.547227171658576039e-01
-3.574840604987950671e-02 3.411689873457292299e-02 4.492909517963515342e-01
3.686350259200044110e-02 4.942245911492656324e-02 4.907332211195332694e-01
-3.401427592961078772e-02 3.645462161042244131e-02 4.501572198910372413e-01
-1.211928888898869405e-02 4.010255850160642649e-02 4.529004368837274974e-01
2.852448552023157530e-02 6.459712233438573425e-02 4.878042026308165302e-01
1.894435122258991688e-02 7.164277980846743554e-02 5.002350506708503897e-01
1.548090159068759783e-02 4.949279067358906825e-02 5.252345088907391935e-01
1.151886076114754485e-02 6.923780042695858172e-02 5.070565690480780541e-01
6.656259280921425318e-03 4.052224415429794835e-02 4.560432936721567909e-01
1.471450783250647341e-02 3.688689978723862922e-02 4.567168429716108036e-01
1.478019411689398058e-02 9.923904180464820923e-03 4.455300834691978684e-01
2.942715507781368256e-02 3.340871264922026795e-02 4.621360269849181246e-01
4.405581254893831122e-02 2.915760119729474825e-02 4.859771212957423314e-01
1.871856594657255943e-02 6.494361238085122334e-02 4.694860471131810931e-01
2.782244939136995290e-02 7.244516906267883111e-03 5.303970141028310215e-01
-2.635836260212348972e-02 2.003049247181380634e-03 4.380682582868080099e-01
2.394097967619543410e-02 5.757276967246579419e-02 4.700962689736628564e-01
-2.079524166726782683e-02 5.963258894705408125e-02 4.657129399736604780e-01
1.819404170937866799e-02 3.933967327269920211e-02 4.588155181911908742e-01
7.043635843964995459e-03 5.493139659528591123e-02 5.299390369368082165e-01
3.765813025642777978e-02 3.653904250062608300e-02 4.713295150767026209e-01
-1.278642305206035071e-02 2.569331221957010455e-02 4.465343291000474224e-01
-1.430621333075443417e-02 3.246330670999732909e-02 4.493685468359372992e-01
-2.895970143990307666e-02 1.993605564681348932e-02 4.436164555727462044e-01
-3.210304761275553642e-02 2.110983781891521971e-02 4.443899991092613577e-01
-2.419520107678874501e-02 4.622250640091531138e-02 4.547577278422630376e-01
1.617986438466590543e-02 4.539235350360806137e-02 4.605960547785433179e-01
-3.146331229856590833e-02 3.138231295283385597e-02 4.479710490274237400e-01
3.003448344976352574e-02 4.484736363106169715e-02 4.684181466550684236e-01
7.996971526788975576e-03 6.541085162520499097e-02 5.100742953000296787e-01
-3.016558726158388541e-03 4.350540670335909660e-02 4.550383331421564148e-01
-2.794154921975203557e-02 1.406957023491205421e-03 4.382214796841900628e-01
5.446725833527406302e-03 6.801204941748149879e-02 4.657816200590583766e-01
2.249584056128397028e-02 1.139978792312293029e-02 4.486280466950931523e-01
8.758455580938323548e-03 7.158446661658729449e-02 4.990458700134949299e-01
1.567250963656981882e-02 7.395361842828379606e-02 4.991917329051774321e-01
1.594865930643211277e-02 4.883549624937327110e-02 4.618474099861734072e-01
-1.191908597759199287e-02 6.080103888772102685e-03 4.393835848366954844e-01
-3.862477756724164244e-03 6.702689657134368317e-02 4.645482429335322516e-01
-2.962141327094545626e-02 1.796284342550804811e-02 4.431195269168549666e-01
4.075918987552376582e-02 3.858645225434113868e-02 4.806755060753875042e-01
3.372454625416702878e-02 5.096077780398877016e-02 4.773429436725747377e-01
3.865649000291793841e-02 3.918902620065020659e-02 4.754641781754322949e-01
2.552445605687820446e-02 6.340233982674775559e-02 4.748783736415470025e-01
3.672320228611338812e-03 6.363952041049840413e-02 5.300964417023008579e-01
1.694235401804315005e-02 1.623065142087546514e-02 4.485217044033329992e-01
3.644095513940809328e-02 4.933488393529381760e-02 4.827408102474348151e-01
5.810765283545711937e-03 6.984394850648716069e-02 4.989645724659555470e-01
2.728677321835714514e-02 6.405078790497767405e-02 4.780861417467561769e-01
3.097976207105203328e-02 3.806086769066359399e-02 5.151797924191772182e-01
8.405408073225288310e-03 4.506572611191540095e-02 5.341447434908012104e-01
1.678169404609257051e-02 3.671439068462703514e-02 4.572713451065303913e-01
-1.899785257688704765e-02 3.099552711027505486e-02 4.481830605970299475e-01
3.003904398003770515e-02 6.024081915889382272e-02 4.984329183335866054e-01
3.591194299982981841e-03 5.192775428150653988e-02 4.588545181618657320e-01
3.206608958523989722e-02 5.491687844070605728e-02 4.775499080271734531e-01
-5.215048188111519323e-03 2.191972688206502567e-02 4.463521342904014366e-01
4.342399866108597600e-02 2.354462076635999157e-02 4.728362988443584047e-01
-1.377035214865205727e-02 5.022211741028724009e-03 4.387489988862100510e-01
2.737609146406396604e-02 3.856426102546814394e-02 4.634659063485408459e-01
2.033915818247643628e-02 6.635383512672730910e-02 5.077606979354479799e-01
1.628731268935553270e-02 3.173499488420613440e-02 4.550183836757265565e-01
-4.071172125580931056e-02 2.008433469654467667e-03 4.414807176131028132e-01
1.442427775210068305e-02 3.799525655238150668e-02 4.570643654881442752e-01
2.370880801445178140e-02 3.752445637018377023e-02 5.271613772410005394e-01
3.796967823771991990e-02 4.177845329588514983e-02 4.765063785012054187e-01
2.150916784273021465e-02 6.636415265784832707e-02 5.062824101488350159e-01
-1.308239551609588491e-02 5.385111977342547235e-02 4.574669600537570324e-01
-7.997321381970491638e-03 5.862678378025570208e-02 4.588651132641118902e-01
3.041353210155978495e-02 3.034460677223273575e-02 5.231779415352674212e-01
1.605803784447903254e-02 4.051120372898006639e-02 5.315711366749421574e-01
3.446829674750441497e-02 5.248680891030678419e-02 4.977616104925486895e-01
-1.909879860496210141e-02 5.941592782462635364e-02 4.621269520597396929e-01
-1.810072453259699635e-02 6.043514444712416722e-02 4.655383079407068303e-01
4.050208990038779711e-02 4.075889333697148287e-02 4.938642536796787885e-01
3.021082636826702417e-02 4.573103935525187763e-02 4.691112687985120044e-01
2.558057578562598910e-02 5.962306399286559921e-02 5.103760818103003638e-01
1.463580531495531530e-03 6.354932440940680438e-02 5.281401576411296483e-01
2.870933818530917864e-02 3.097276682722700791e-02 5.248974894334638153e-01
2.779853501507545399e-02 6.188112237765087953e-02 5.027898768765398652e-01
4.097503029658742385e-02 3.067211756998361114e-02 4.999720772848733619e-01
1.621782803828792502e-02 4.763632497095973695e-02 5.256464525577516644e-01
9.154270107254976543e-03 4.089033549358243175e-02 4.567711015299968369e-01
1.551940265377151594e-02 1.818972963933483331e-02 4.490072754350018513e-01
1.364267111988232833e-02 3.924716952107368956e-02 5.324627028871011802e-01
-3.703782062641228223e-02 2.262549756106877266e-02 4.455883037808659464e-01
-5.032957680455134308e-04 6.491410951296536745e-03 4.411547784500047809e-01
3.798046280291051541e-02 3.987581850531937699e-02 4.747849130994845068e-01
-1.012236850200039749e-02 2.981485883344318216e-02 4.487444384469013170e-01
-2.478568086030322193e-02 3.354042431956059250e-02 4.488294221770351977e-01
-4.801598132269257850e-03 6.188424648635131031e-02 4.608903513540199559e-01
8.606107814288260077e-03 3.076898353308878120e-02 4.526117284785965977e-01
-8.912018562317648024e-03 2.412363975708979938e-02 4.465550275895246446e-01
2.666765542168867201e-02 6.719857196905773544e-02 4.889092419793463762e-01
-4.831597993039516911e-03 6.390020998044509959e-02 4.623982356152103734e-01
2.466968412425697699e-02 3.091855715843165250e-02 5.273025323613776960e-01
2.474165594152164666e-02 6.982509993354155120e-02 4.849594145124042632e-01
2.052002853375724592e-02 6.629351151897185102e-02 5.077251210189873687e-01
4.101738175144038767e-02 3.834143687954172375e-02 4.953778752211739356e-01
1.659930235691219058e-02 7.610221041285805677e-02 4.802237570660116694e-01
1.423193198356694986e-02 5.693562273254693801e-02 4.640052301772570331e-01
-3.363353986782199184e-02 2.435831327928290185e-02 4.456348234783915618e-01
-3.934601084967098011e-02 2.687193466274357539e-02 4.472401388086097440e-01
2.194731578307078119e-03 4.741377399193329178e-02 4.571553599528178635e-01
-3.468252062459029755e-02 3.602156527525188050e-03 4.394634900162163182e-01
-3.410126817085085138e-02 -6.740030842439688474e-04 4.391044511793347760e-01
-2.809070608748122366e-02 2.451384009023588328e-02 4.452105422713915073e-01
-1.153054151172747469e-02 5.076566198968347765e-02 4.565700004085274100e-01
5.034489691486029525e-03 3.699020259008953954e-02 4.543211672657265776e-01
4.062111214369137219e-02 3.122046901459157170e-02 4.725341378650674273e-01
-1.096297152257753871e-02 5.579679817776346529e-02 4.580609579196876502e-01
3.322133691163178804e-02 3.086671828029408440e-02 5.184598584324928705e-01
1.484574276987455158e-02 2.587728613906373210e-02 4.520589597566543882e-01
2.755663952983362919e-02 4.010163777616398972e-02 5.185089326405736276e-01
1.740478215557995229e-02 4.644778649101999335e-02 5.252545841898939027e-01
-1.465952300891484872e-02 -7.958197898960243672e-04 4.372102974061073954e-01
1.823408593691749555e-02 5.710921537255558844e-02 4.659189298559708314e-01
1.924731165940142888e-02 7.484674198504970288e-02 4.816211525389904602e-01
2.912613869889835172e-02 6.360503221138610885e-02 4.877964902385723556e-01
3.637198595452429545e-02 5.052831632869297929e-02 4.867676449410139328e-01
-1.791763603250042837e-03 1.524749256957713857e-02 4.443701046437770752e-01
8.104359863245197762e-03 6.628247443677183492e-02 4.652835596223355852e-01
3.156598297661484392e-02 5.188844134769507455e-02 5.083421838113912905e-01
3.532271079062450359e-02 3.605688769747477512e-02 5.100511200736319584e-01
3.036909833306436490e-02 5.649184928211639645e-02 5.052384043538857838e-01
-3.702369791006309991e-03 3.825982162048872925e-02 4.531260753858213919e-01
4.803279027176086610e-03 1.192973814234708774e-02 4.442926855797413310e-01
3.608006309800698697e-02 2.317319031143924221e-02 4.618398687739521669e-01
1.971350343994433471e-02 4.185024206478438896e-02 5.288450110432966200e-01
-1.728088419347597812e-02 4.364540051954381855e-02 4.536196176442470751e-01
7.213505306698293762e-03 6.258896522927956396e-02 4.632756340929898853e-01
-1.523461134635635192e-02 1.735023644180965115e-03 4.376965966597989310e-01
2.317121045395304640e-02 2.145421125295355474e-02 4.530507056931776244e-01
2.399094090128533682e-02 4.577236093739588119e-02 4.646635212053208952e-01
1.344021387465207072e-02 6.832874395440605153e-02 5.093306788234345239e-01
-5.197282584794957368e-04 6.588196230069964798e-02 4.639310061126935003e-01
-2.918253877747656669e-02 1.053011532987720503e-02 4.409321171094490177e-01
2.219603558729982620e-02 4.990879023430391109e-02 4.654410394481999780e-01
3.586620196105254343e-02 4.494502989293308604e-02 4.753995684112923281e-01
1.276897547505066038e-02 6.399230247699091989e-02 5.219511737173806454e-01
4.075791163188716149e-02 4.034696497190935760e-02 4.880040141544703114e-01
3.725183611916337012e-02 4.784996295360785523e-02 4.974466235093066291e-01
2.617203513886393398e-02 6.702041572571952599e-02 4.807378178884356701e-01
6.005715626094202536e-03 4.426138070017713450e-02 4.572033158326328506e-01
4.854034358175885779e-03 7.501043693241229993e-02 4.776088183295337797e-01
4.338955031267026537e-03 6.243626622556344707e-02 5.172717540158826566e-01
2.620825311926568840e-02 4.195807691604186429e-02 5.194065726716939890e-01
2.089431448807404362e-02 5.828861571067521508e-02 5.174717813933022992e-01
-3.745554358060409345e-02 2.254553104812166003e-02 4.456524292231588968e-01
-4.233775120869996689e-03 5.977081303249661554e-02 5.363787687472906240e-01
-2.951355167913554539e-02 3.669859809484644214e-02 4.501612988542368354e-01
3.400211576420106296e-02 4.583272273010054881e-02 5.082245292129012881e-01
-5.640882008043374835e-04 6.244920385575355656e-03 4.410502861629340132e-01
-1.398237996510903747e-02 1.221763802320991431e-02 4.411756225194821690e-01
2.174918271291038929e-02 5.619954782123923187e-02 4.677781313345062975e-01
-6.162545419500204498e-04 2.163470928410619540e-02 4.471194728876336510e-01
-2.059842041666543576e-03 6.169124839049355130e-02 5.349868091146187110e-01
2.559407021363245549e-02 2.231609625318720438e-02 4.547038163988428860e-01
2.655283286697008444e-02 4.682040439892673489e-02 4.668438194925698670e-01
3.177916795052245641e-02 5.871068618393887606e-02 4.856975506424081046e-01
3.416576864596224117e-02 5.397590730366053080e-02 4.831381958942562727e-01
2.749337473898586306e-02 9.044592145852702048e-03 4.501724698354006571e-01
5.219125137922883857e-03 7.656237114768087160e-02 4.784490288196721619e-01
-1.535632379291932380e-03 1.000288180913421095e-02 4.423524674587583361e-01
6.175652501731626089e-03 4.443015052980732460e-02 5.345678082660170194e-01
3.697575524764204480e-02 2.473457014502843110e-02 5.147495437904427984e-01
2.276120081626712907e-02 4.153656864183814107e-02 4.620971578751590370e-01
-1.761375864759644888e-02 5.124462693257594154e-02 4.566774220997414369e-01
4.343971807029881754e-02 2.927962105455346117e-02 4.795576401580318171e-01
3.223906293531642042e-02 5.816679188632490477e-02 4.891419259241235329e-01
2.188100999387695283e-02 5.752421757838147021e-02 4.684390358805103904e-01
1.614994257082080775e-02 7.002153600953305024e-02 4.705417528879323186e-01
-2.312714649883555393e-02 5.867127818701826231e-02 4.636519911634262026e-01
2.726727216448249225e-02 6.433380883844744269e-02 4.971772612641044420e-01
6.768798335114237924e-03 5.351679775442211122e-03 4.420179464986969120e-01
-1.398916311026497834e-02 2.957174601295253086e-02 4.479980894306802019e-01
3.554483020319763181e-02 4.172303402140108142e-02 5.078535774749620701e-01
-2.505753030117862518e-02 1.506631114005318496e-02 4.416329013837357320e-01
1.066213445656649314e-02 7.894185494921504564e-02 4.806398934305712300e-01
4.071777252125181878e-02 2.781631167510907957e-02 4.700585027181842235e-01
-1.910796495743707218e-02 1.149346602314845443e-02 4.402604264910239262e-01
3.078686854103273793e-02 4.082645558617338521e-02 5.148774475923073579e-01
2.444756894222465879e-02 5.200888867067320759e-02 5.166097435033738527e-01
1.709782942629784266e-02 5.197810328012963249e-02 4.636098510196929867e-01
2.750943468028030012e-03 5.485417121797143969e-02 5.339929806459956518e-01
3.803737080632472317e-02 2.784391109223451413e-02 4.661493023807677383e-01
7.703232441864760888e-03 7.322722480990695448e-02 4.700107292258665637e-01
-1.985008887595716628e-02 5.980557741881469686e-02 4.647629920650568902e-01
5.219014122208514260e-03 6.381598331057361517e-02 5.277402966809523477e-01
-1.578713408298140428e-02 4.558047775216028663e-02 4.544336722084936220e-01
3.444408162638531307e-02 5.354285757811503427e-02 4.926705351509526598e-01
2.076704290499147010e-02 4.363081186415258134e-02 5.244504797382362193e-01
3.179420153853854819e-02 2.910617182579665688e-02 5.219120269401591461e-01
3.206530273259766695e-02 3.139131868500179279e-02 5.205238808609816692e-01
2.728177810100518297e-02 6.642970570612635739e-02 4.872125752534002818e-01
-4.720766475212748864e-03 6.141972145055003829e-02 4.605455327416096423e-01
-1.772163556169123813e-02 3.344384705715390538e-02 4.493961033038514907e-01
3.704372408182340232e-02 3.490225300873116276e-02 5.067654289315265403e-01
3.402827826157461821e-02 4.094148442870697985e-02 5.106779837574904057e-01
3.152418235620559755e-02 3.566170773963728974e-02 4.646814057831940570e-01
8.632529596003246652e-03 5.504037685321816475e-02 5.286044232896630612e-01
3.350720917794883930e-02 4.707976787851170242e-02 5.083821048436597545e-01
9.779164919221337848e-04 1.230129489077956377e-02 4.437305811653953214e-01
1.652656572682859384e-02 7.616695457986176476e-02 4.929317503213874740e-01
2.583512944270478090e-02 3.208849288747752521e-02 4.593036944090602147e-01
3.122586301648986457e-02 2.503320295795080641e-02 5.227310465082715130e-01
2.387230197612912053e-02 1.275851069435235755e-02 4.496440863924068276e-01
1.029225589772797718e-02 1.779607435739553531e-02 4.477217956853716818e-01
4.149014396217743511e-02 2.516312597198612153e-02 4.698079889101475226e-01
4.473694626401131247e-02 2.720584453132084829e-02 4.879534722628878218e-01
1.368287893745210454e-02 2.979396766936564384e-02 4.533792112340598868e-01
-5.941890468895281996e-03 3.235233575706763370e-02 4.504682277146798142e-01
1.299330262501489398e-02 7.741829018080199909e-02 4.844999159138424494e-01
2.469527207082573839e-02 6.560172797005926759e-02 5.010883077543668573e-01
2.680134128869183022e-02 2.642632803907695935e-02 5.260553947187409651e-01
1.446075448236855410e-02 6.346275441993950994e-02 5.206419339306470606e-01
2.454297497276480833e-02 6.996039066786077787e-02 4.832346595203501627e-01
2.327779876559868052e-02 4.192508113259445918e-02 5.235864684101783073e-01
-7.867536942641755945e-03 5.575093271397974642e-02 4.580383745489221559e-01
2.529033903822963322e-02 2.844693325181955543e-02 4.573281095009469333e-01
1.844072910543328656e-02 7.405846302815112525e-02 4.973731795354751628e-01
-3.126582761382450809e-02 1.289250775649850717e-02 4.420122159043129439e-01
1.785954976160679386e-02 7.635708375568137085e-02 4.879086542532775073e-01
3.138441923580260334e-02 2.094227643367817596e-02 5.235116638498280572e-01
8.806048616081352948e-03 3.664776297689154028e-02 4.550386235334603069e-01
2.155520010972387674e-03 2.446441617131274449e-02 4.487581125657261749e-01
9.731942189434888285e-03 7.029534879399157443e-02 4.677664877219103179e-01
-1.994915186878609692e-03 1.037567391074756956e-02 4.424208910218254132e-01
3.300859633526700282e-02 2.599727789395768832e-02 5.210948923940280642e-01
3.529502286348845663e-02 4.938229181234859294e-02 4.794852475527242586e-01
9.381220491038334136e-04 3.376322129184100573e-02 4.522196646972619916e-01
2.643149705354676162e-04 6.155994509131784698e-02 4.611323273126531896e-01
2.571344975235784897e-02 3.893565561983919343e-02 4.625598769366484064e-01
3.920386812374720975e-02 3.188890162106110260e-02 4.703422094459900338e-01
3.353697996676203302e-02 4.078252247864781049e-02 5.115333503994350384e-01
3.141070932876954130e-02 5.708857847328648732e-02 5.000246471058434894e-01
-4.001033729333566824e-06 5.684420379175088300e-02 5.357337197630018810e-01
2.625587875714663691e-02 6.098703689016375662e-02 5.082195911325958493e-01
-1.732951198711680380e-02 3.052390001536803114e-03 4.378969853373586019e-01
3.569177135727698985e-02 5.163652742051963451e-02 4.853710078903858971e-01
8.075013961524499587e-03 7.844898495010478590e-02 4.792391911636931789e-01
1.131911542278477012e-02 5.263238833992248816e-02 5.273581542475757056e-01
2.593014827704209421e-02 3.687969440518357872e-02 4.616804881322040255e-01
2.513075452694247744e-02 5.632121327993418886e-02 5.138601917643554895e-01
5.839492241594978345e-03 2.182048733174755603e-02 4.484155541666560718e-01
-3.000741474672007428e-02 2.433749760021719499e-02 4.452568026065306106e-01
5.747189232579177041e-04 4.410324277991623833e-03 4.405602073025776111e-01
1.732672290874695889e-02 7.517582127996588759e-02 4.781062037476667137e-01
2.960619421567898049e-02 2.968960551421654173e-02 4.603579264385929126e-01
1.487436218373927241e-02 3.674497464621136883e-02 4.567091571103364944e-01
3.493892045898300269e-02 2.541830851778533601e-02 5.188999106835149311e-01
-2.628714363017635794e-02 9.872747161829177956e-03 4.400327734751630082e-01
-2.220217969542536557e-02 5.543827841610587254e-02 4.590674527405458893e-01
3.434559700229558588e-02 4.108859695769449816e-02 4.699033796721352463e-01
