2.234000814139312091e-02 3.621752230861739058e-02 4.594433128837286939e-01
1.165660913159952475e-02 2.089235108056879120e-02 4.493584543049893854e-01
1.106480319978062066e-02 7.874496300117503345e-02 4.763288742402850273e-01
1.541681914967859938e-02 6.729217929997811411e-03 4.444943063983087250e-01
5.813762078494792360e-03 4.172718495137258538e-02 4.564534003437500376e-01
-2.878788994770908535e-02 1.717138709405070102e-02 4.428565333141459837e-01
3.702979686622067529e-02 2.657696619450467673e-02 4.645517187993467578e-01
1.085063248850250302e-02 5.130131546726468539e-02 4.611835594374835146e-01
-3.107849729643412037e-02 4.918563658655353971e-02 4.580845076824789919e-01
2.136946896793862419e-02 6.147825667207327399e-02 5.147679650353675918e-01
3.768632352682470266e-02 3.465529519060518010e-02 4.694634045954805268e-01
6.533453865624230111e-03 4.858838671987655150e-02 5.353070588350438141e-01
3.546477511849381592e-02 3.804152097820770462e-02 4.689262699165552828e-01
3.392667535474826190e-02 5.157574263939881942e-02 5.040910720188718219e-01
2.105377091164332276e-02 1.927988119169720543e-02 4.510154940116998801e-01
2.438159970461702478e-02 3.322525138481499662e-02 4.590597739963260815e-01
2.573902169384711253e-02 6.871243347080231711e-02 4.893941976033092112e-01
1.363019184030111498e-03 6.070051602057452422e-02 5.329912337281402790e-01
1.459571291708893631e-02 5.529046365146165348e-02 5.237783994267458665e-01
1.124580225031269511e-02 6.135495602439966500e-02 4.644812252395714158e-01
-3.509351244120280378e-02 3.242130737612414215e-02 4.486829083927891260e-01
1.489435627905719151e-02 5.950007590851270900e-02 4.653381353118328234e-01
3.510014965883036242e-02 3.866483812485323884e-02 5.103075693183155570e-01
2.740807865451950348e-02 5.079641007577553186e-02 5.150464681277743262e-01
1.785907814125164191e-03 6.173725782657209227e-02 4.616893110048403970e-01
1.889831302372904989e-02 6.186179982990409193e-02 5.174900888462002913e-01
8.674655051642271922e-03 5.336928125660459626e-02 4.610231268317928621e-01
3.349516339070535836e-02 4.859143210453917977e-02 4.746607537367057428e-01
8.857678226725338930e-03 3.624469707133472218e-02 4.550310242402031968e-01
2.926200231898022988e-02 6.170709176104752225e-02 4.989257375199480093e-01
4.050809896509960373e-02 3.000283633221700885e-02 4.712051014365820079e-01
-8.364945009719980396e-03 4.957924918120170527e-02 4.565805670307734876e-01
3.968724174254751463e-02 3.904517264615928879e-02 4.771476937804331464e-01
-4.824233311400481609e-03 5.906740433187279010e-02 5.330181603660437695e-01
3.135624058584732254e-02 2.454868851818323844e-02 4.590625930835454116e-01
2.958401084355587532e-02 4.753103765985883938e-02 5.139975106823300166e-01
1.684133964394567834e-02 7.123784957307749757e-03 4.449869063848459483e-01
6.660886803842947478e-03 5.079053166154519350e-02 5.336590503648577233e-01
1.286816691324175338e-02 6.495990387463504434e-02 4.665492144113195239e-01
4.192919343034919033e-02 2.915268755440779749e-02 4.990926705406174557e-01
8.906470134633534888e-03 7.832495266945030399e-02 4.798586665324754974e-01
4.407768702601818495e-02 2.879756424358026826e-02 4.824611588413704744e-01
3.158195561323657446e-02 5.945748449979288558e-02 4.845690346053512232e-01
1.650452348284546164e-02 7.651964027331575879e-02 4.819437775252619072e-01
2.723289443059365156e-02 6.400046933751034339e-02 4.773205423089575961e-01
2.332875252596126880e-02 4.102590130383444722e-02 5.248975410859001434e-01
2.362920566529624899e-02 2.181857630702378065e-02 4.535044167021076711e-01
-2.118544379795005324e-03 4.518739540626560795e-03 4.402155445272543655e-01
3.383470122357109394e-02 4.761039650643072996e-02 4.742420342734828820e-01
2.661259370997973855e-02 3.718584777370376182e-02 4.623318008907376098e-01
-4.830762260274324392e-03 5.894143844440059843e-02 5.311931373142876334e-01
1.792987425651076244e-02 7.647160335183966762e-02 4.841681749330747908e-01
4.198457201947936035e-02 3.622806889152833942e-02 4.841794212226001037e-01
4.935911524026805747e-03 6.262675239342876780e-04 4.400627578216318447e-01
3.733162999940375232e-02 3.601425859978444471e-02 4.700789022802324135e-01
1.546237429880678062e-02 7.247008690543339793e-02 5.014438627917289226e-01
-1.296911485672524317e-02 4.938239420827461590e-02 4.561842076419745928e-01
1.614309864830824198e-02 8.422691693726213139e-03 4.453266693093330675e-01
4.738900802014217942e-03 4.864142575503672267e-02 4.584110407389375141e-01
1.190698673038883409e-02 2.958513073651893727e-02 4.529732165581102366e-01
-4.166387141070040240e-02 3.829663504587499379e-02 4.530643972004511633e-01
3.087818716037890598e-02 5.989564930399443599e-02 4.808086353258799739e-01
-1.091335030661729107e-02 5.931251769670365520e-02 4.600603833192367098e-01
3.726348161026304950e-02 2.064064210741701003e-02 5.172155532599765904e-01
-3.442582062727511660e-02 3.512155533771001842e-02 4.497593123840741836e-01
3.513050204948404975e-02 3.249715677137575420e-02 5.123642987736071186e-01
1.270459463962305899e-02 7.128934864082453471e-02 5.040469175680186709e-01
1.569126152704951316e-02 2.506801408091267197e-02 4.520599238859921987e-01
1.559607480018203665e-02 4.027430116309768660e-02 4.584987355658796671e-01
3.294426260909522758e-02 2.301033355362295044e-02 5.218144957485806312e-01
-1.184610865229224902e-02 5.237944532907760908e-02 4.573393849819736845e-01
8.760875763791412495e-04 4.099300139844302276e-02 4.551358662490078144e-01
3.938869995478034430e-02 4.058991769873548233e-02 4.779678592600634657e-01
-2.298034846383182825e-02 2.552229079387837926e-02 4.456918164189391240e-01
3.771025058274100894e-02 4.771470622468598072e-02 4.936280131850061537e-01
3.639296471738834998e-02 3.758005316465760914e-02 4.698252372772551699e-01
2.599034159428611004e-03 6.286954631793773007e-02 5.291008149195869370e-01
1.064380345331556593e-02 1.506781133220952591e-02 4.467773172550024152e-01
3.095660907993197375e-02 4.181991779495410066e-02 5.144207513547475186e-01
2.588816636957613077e-02 6.865038414743970807e-02 4.845948889310324748e-01
4.143515873324173093e-02 2.681465644804009382e-02 5.026332658853979174e-01
1.686848678186355852e-02 4.302220942520416230e-02 5.309742613609603756e-01
-1.483307475842216699e-02 6.096098093732731787e-02 4.643022618679260582e-01
-3.791210783384690169e-02 2.624456275754549761e-02 4.469280613402668578e-01
3.588993429724776640e-02 2.801074647630519970e-02 5.146094066847113346e-01
3.084933983011355768e-02 1.952148651078511668e-02 4.565011338412017228e-01
-8.340148746473615912e-03 5.285056859399868412e-02 4.574910238864177692e-01
-1.511384414227257868e-02 5.096559691250183988e-02 4.567464840879432164e-01
-8.633892772133215654e-03 -8.567148305694318941e-03 4.363841476931604735e-01
-8.437603340671966448e-03 8.397030930038334312e-03 4.407476775494055254e-01
1.339402867807572804e-02 2.867625856515774313e-02 4.529300807011606422e-01
4.194615725783300275e-02 3.040223969607702692e-02 4.982698512381989464e-01
2.741813229068682314e-02 6.488145309519498249e-02 4.795655684658168827e-01
2.985935079725706917e-02 2.301531463152786672e-02 5.245750738823248271e-01
2.416674172334383128e-02 5.287638749886890838e-02 4.682165590062207228e-01
1.359935893471273492e-02 4.257439935959466543e-02 4.588612075189829054e-01
1.417529761588715020e-02 6.556576022616432409e-02 5.152115242440911125e-01
1.964440998391576293e-02 7.213079078063225347e-02 4.989659607079187653e-01
1.749563030336759306e-02 6.351905394254411807e-02 5.167169940300765374e-01
-5.475935454689535506e-03 3.700580974770858317e-02 4.526213431332580250e-01
1.310708841831130685e-02 7.077256583782326471e-02 5.053465894080153564e-01
-1.545475010898128901e-02 3.205921410898371349e-02 4.491220735291849842e-01
3.093098866341610978e-02 4.811765853726419906e-02 5.119455536871866386e-01
1.469535760130043917e-02 2.201029835174314955e-02 4.504864041185992485e-01
3.661516545817527363e-02 4.441870027875000071e-02 5.051686648429523085e-01
7.639263083095941889e-03 2.907773011575646299e-02 4.518238865141032123e-01
4.275066361210149574e-02 2.181508417717548803e-02 4.699766213138399928e-01
2.010387018342567680e-02 7.158997821019960628e-02 4.990539866987839801e-01
-4.216735118016387562e-02 3.573658417194987974e-02 4.509000420089316341e-01
-4.534372543559318271e-03 3.858203156807644973e-02 4.533234343544878531e-01
1.493118080854354858e-02 4.699103867440367760e-02 4.609414842644334320e-01
3.399670773490542225e-02 2.880326118478193295e-02 4.630334444830194740e-01
2.791234686108878815e-02 2.266627189324291886e-02 4.561215594811922625e-01
3.679447865062054901e-02 4.734279566178770798e-02 4.799491285854006195e-01
-7.719084180938846559e-03 5.443132304124358167e-02 4.579253715061654129e-01
-3.424537181223824556e-02 3.215553163288221994e-02 4.485344044080960546e-01
3.760526053612894132e-02 2.244699351695128575e-02 5.158849285584354849e-01
-2.039124797932624286e-03 6.052779028692296948e-02 4.603112507530798259e-01
-3.184744898656469841e-02 3.309743776404133059e-02 4.488091093195147319e-01
3.634400521813973411e-02 4.407318600020014576e-02 4.752720857380378638e-01
-1.250277439969975368e-02 2.422604516792794052e-02 4.460678060206756945e-01
-3.928434979614183788e-03 5.604805185995010569e-02 5.375898777431792341e-01
2.617901433466469224e-02 2.904939903309399635e-02 5.267650739804464743e-01
2.917679441292403419e-02 6.085235193166305123e-02 4.768500145302299598e-01
2.525432129532313372e-02 6.723858674752715425e-02 4.967305189691785805e-01
-9.297857860691321683e-03 1.679260352931838396e-02 4.437553209217231509e-01
3.966169626779930679e-02 4.243777858272555770e-02 4.981111428581523337e-01
1.908288834097768630e-02 7.598764809072400261e-02 4.863894313930106628e-01
4.104075870153715139e-02 4.048875342594454585e-02 4.907722792790573108e-01
2.667833836969558253e-02 5.231591970125774871e-02 5.150607325262384073e-01
-1.829536856937347133e-03 6.537615531811494241e-02 4.639347671757136360e-01
-5.614323631147191858e-03 4.204136813501507808e-02 4.543918785193052923e-01
-3.507665227408533759e-02 4.232656597961906991e-02 4.542473511057300573e-01
2.480439110811674328e-02 4.373963658926727921e-02 5.199717655833957508e-01
-1.394906262318998565e-03 5.604977800526823872e-02 4.589379653460020081e-01
2.871612505765651704e-02 6.425918945006578453e-02 4.914852375749582669e-01
-3.160054562158191166e-02 2.971406040382952238e-02 4.474846370700656939e-01
1.849261369020220591e-02 6.430774179435716498e-02 5.145697670773771160e-01
1.156662727626176640e-02 6.973811315259369203e-02 4.684464282734607243e-01
5.509504923173257161e-04 1.955493081824293683e-02 4.465975104019733743e-01
2.512393348393216624e-02 4.968732613068801984e-02 5.172796931156083966e-01
2.433119261839165534e-02 3.146973159041892287e-02 4.582537525042507665e-01
2.801100392332064870e-02 3.861835420969139416e-03 5.321408352354146665e-01
3.877590298005535036e-02 3.511238991434782741e-02 5.047864052255550682e-01
2.442165445523250197e-02 7.072093598383900892e-02 4.879900965256128709e-01
1.194548254376995473e-02 5.792801258737886871e-02 5.250183772438691276e-01
1.507355517125936323e-02 5.547957465452308529e-02 5.233032192254264414e-01
-2.762169461788580027e-02 4.311890931802289662e-02 4.533319349858625502e-01
-3.887063140145173568e-02 2.076358802033417481e-02 4.455423005148768101e-01
-7.690480153701918136e-04 6.237702101262029841e-02 5.292261566805879225e-01
7.857025750792393654e-03 6.466552361718837239e-02 5.111611971536943466e-01
3.553373084869693166e-02 5.144299615020807986e-02 4.826017811147586545e-01
2.638268256564482717e-02 5.875160068668607016e-02 5.106985981874220260e-01
-3.233749079237501281e-03 3.885297949152765468e-02 4.535831142334489918e-01
-9.953672581138205480e-03 5.284251583589363171e-02 4.574780521088139817e-01
3.576748506071100037e-02 4.515592013454238635e-02 5.066584548439905245e-01
1.418060268497416815e-02 6.837663624548856456e-02 5.092256186463659517e-01
4.505592959870214492e-02 2.576532894387450340e-02 4.836880285407779145e-01
2.773374449629112393e-02 3.809508051307247678e-02 5.208184325937803560e-01
9.251325343715768867e-03 7.486241567220924820e-02 4.932393739450567915e-01
2.278484398031674352e-02 5.038674444127363289e-02 5.189452261188913784e-01
2.240510940519579650e-02 7.263984882311749769e-02 4.909274228347859093e-01
1.792910121128081513e-02 6.450907386381606046e-02 5.148970384398408040e-01
3.677064222266004240e-02 5.007738793178797415e-02 4.898387449949710426e-01
1.779826482421850058e-03 1.637021433116898558e-02 4.455546769819564434e-01
1.617700561960954547e-02 6.263158255673907659e-02 4.672152599511396609e-01
9.067308789389359053e-03 4.039586514392867062e-02 4.567208585335487681e-01
1.923316116576664903e-02 7.529721644127393421e-03 4.458716439145942179e-01
1.419182465553907660e-02 6.850429268368604663e-02 4.689040064478803838e-01
2.358752620446987955e-02 6.225665615256779917e-02 4.722576471767370165e-01
3.664894739110429595e-02 2.783054159112244297e-02 5.128368284807165445e-01
1.709559685349084160e-02 6.817083815683773473e-02 5.078444200272896891e-01
1.878708862854534464e-02 7.199060488952732650e-02 4.747988398488082740e-01
1.557282739582550521e-02 7.410588484674286713e-02 4.989567608333713711e-01
1.478439852760707156e-02 3.444253370536266151e-02 4.558529426135217166e-01
3.582319972314331608e-02 3.128251416815097663e-02 4.658906185446345938e-01
3.384942953921501324e-02 4.925745449342294746e-02 5.073881375453375142e-01
3.319555899262503079e-02 3.912973400344801900e-02 5.132037848218748977e-01
2.502353154661296486e-03 5.316325596361966277e-02 5.372465267315257309e-01
1.280922601861107270e-04 6.140233674113397544e-02 5.263583000471825368e-01
-2.631225932227837169e-02 2.876119968374232089e-02 4.469860298609848459e-01
2.726145080437750168e-02 3.194648618415730536e-03 5.324910191979389529e-01
2.674550068658077678e-02 5.209182655022306235e-02 5.151142701364753718e-01
-3.857825151644227180e-02 3.022205551478689568e-03 4.404577419171961106e-01
2.471044109925062127e-02 2.987829863015865547e-02 5.276662894008390392e-01
4.244831608048595106e-02 3.516278883532853589e-02 4.860082124961424554e-01
2.015078564595807614e-02 5.697308829774337668e-02 5.193401809837120409e-01
3.695295446297450735e-03 6.110796973381921876e-02 5.170068209920682945e-01
-1.463436920613103362e-02 5.023518315787254412e-02 4.564824291403281609e-01
1.403412248872596899e-02 6.673386835239072945e-02 4.679130332473810938e-01
3.282437661551483588e-02 5.300683614320881448e-02 5.050514930409163439e-01
2.600346764582145073e-02 3.987458107334670293e-02 4.632485978595898279e-01
1.701557770345339671e-02 4.547152972655842118e-02 4.611042436285799906e-01
4.318975310498543614e-03 4.674219169634522691e-02 4.577311883210166132e-01
3.592799021997390707e-02 4.014519427563702225e-02 4.712633672833028697e-01
2.861457049756173723e-02 5.073678812478063516e-02 4.706229050928688595e-01
-3.749259322991584098e-02 2.856944128252529233e-02 4.474893971909590373e-01
2.035951583240187129e-02 7.196556585581517784e-02 4.979816606011238100e-01
4.218522513269042790e-02 2.874544183100298522e-02 4.735485533619793186e-01
2.992011969636023880e-02 1.571925245495584336e-02 4.542345359219718826e-01
-3.361124897888304042e-02 3.723038205250759486e-02 4.505912006136728043e-01
2.378797597878260645e-02 6.332788621536805662e-02 5.090563389804853012e-01
2.784140489748981526e-02 3.579804306719940044e-02 4.624001703818764186e-01
3.814459536584498267e-02 4.743062065199836475e-02 4.905234379024432934e-01
2.549405025801252007e-03 1.008019630723156618e-02 4.431760358949725642e-01
-5.060596927835385450e-04 5.860814511588360171e-02 5.192225534355384697e-01
7.580892979127348309e-03 7.757383559294110664e-02 4.746535343945590957e-01
-7.787769929995665922e-04 2.665595410518159167e-02 4.491760261564893830e-01
2.107376918173074071e-02 5.081887306105804109e-02 4.651937667824619926e-01
1.354012201618201919e-02 5.467444152118476619e-02 4.631937937984598186e-01
-1.066904677716400650e-02 2.065547073586120400e-02 4.450042502347905660e-01
3.183791584357084647e-02 3.296315989214612663e-02 5.193937914519397570e-01
2.457464557303985081e-02 2.581525707255231256e-02 4.558179171451757772e-01
9.928392758179971356e-03 8.572005088549772278e-03 4.439823047379771181e-01
1.007857697624688076e-02 4.748382184114546822e-02 5.329787420029507006e-01
3.608903865975315178e-02 4.862649961568013546e-02 4.800440482021333111e-01
2.658143955267959144e-02 2.387189132340069089e-02 4.559781342330841425e-01
1.850913214131712572e-02 6.019161507307930342e-02 4.673645094401116529e-01
1.630878377510404376e-02 2.198198101193248391e-02 4.508334819180986330e-01
-1.777358853353407098e-02 6.010801942292993971e-02 4.633353113282185909e-01
3.209337362934421706e-02 5.408747034039352447e-02 5.053616754061291960e-01
3.873508742946106531e-02 3.396570714572976629e-02 4.708284893663350346e-01
3.670936099594596796e-02 3.201265603306689689e-02 4.669603771169413275e-01
-2.325994907409399334e-02 2.362640440418206991e-02 4.449222595331919772e-01
1.547577096567252092e-02 4.191615752588951499e-02 5.324206933822469567e-01
3.554269963224417073e-02 4.731582536903045089e-02 4.767373526053418908e-01
1.186071969684152766e-02 4.274471390588553688e-02 4.584151328887144383e-01
4.192343050705660268e-02 3.724950880949103038e-02 4.873391534490926769e-01
3.131129389173688965e-02 2.974563040168440656e-02 5.227266133546145666e-01
-5.333741517452718177e-04 4.294818478516043356e-03 4.403935137056272375e-01
3.538112096443269544e-02 5.235846636573910501e-02 4.849666682265239004e-01
1.195402400324181366e-02 2.413477338077424372e-02 4.507434202807935053e-01
9.234573736671601585e-03 1.193239250298302329e-02 4.452182934527928460e-01
-1.490525487838896372e-03 5.984457165245172378e-02 4.600773789477423104e-01
3.600315697417182104e-02 4.348907759550642294e-02 4.741092884032784838e-01
1.749080420245513814e-02 6.942711619381840282e-02 4.712531386896576246e-01
2.380491463264088406e-02 6.508322183174765352e-02 5.059355115461426911e-01
7.587520760262436714e-03 6.481934272055077384e-02 5.098439168589210535e-01
2.755004439798615368e-02 6.358532027343122284e-02 4.774300775488127813e-01
-1.930068413932237506e-02 3.654110056048701614e-03 4.380350863459304134e-01
-2.814521164110283385e-02 1.612104425348890799e-02 4.424192646198719103e-01
-1.060907669395930175e-02 -8.642817605386569554e-03 4.364590003826110953e-01
1.905901570254436850e-02 2.300209877548846371e-02 4.522460992642417521e-01
-1.339680813512951311e-02 6.032066834740888034e-02 4.617220875721688156e-01
-1.358171833392403209e-02 4.063970963905499945e-02 4.530664730292542908e-01
4.160733174864336345e-03 1.045662460913789754e-02 4.436293518336296149e-01
2.122569728170382863e-02 6.161057397134300784e-02 5.148368748118418159e-01
2.637616627784866719e-02 3.432845203843399445e-02 5.263341608872369459e-01
1.023952769928438561e-03 5.061561611006341194e-02 4.579200627847347937e-01
7.457392234069279771e-03 6.343130576513418550e-02 5.198530356805478592e-01
1.925396646622249547e-02 4.205183686096563428e-02 5.294785024820959363e-01
-3.088348356064857941e-02 2.527387098262763240e-02 4.458384632243822532e-01
3.704553319607581385e-02 2.305995553867191961e-02 4.626313876222009625e-01
3.223001968388333749e-02 3.189973286901363891e-02 5.201565339553161360e-01
-2.851563512122478813e-02 -8.717531186757431286e-04 4.380263571831711777e-01
-1.183124186552977561e-02 3.343710829138427792e-03 4.385611554126302991e-01
-3.049801263381304861e-02 3.654294325379479902e-02 4.502166319626132451e-01
2.091619947001993260e-02 7.435422858431969817e-02 4.856506562932729199e-01
-3.183936776530451110e-03 5.794630068590037042e-02 5.246892259027176042e-01
-1.729299449047326520e-02 3.696696638826317115e-03 4.380856933212726179e-01
-3.188545762017083035e-02 3.095768180874434311e-02 4.479459978332334669e-01
-2.936368973359373968e-02 4.009031206177243040e-02 4.518530222648997619e-01
-1.811548542015066141e-05 6.893547384537475342e-02 4.661226607605262751e-01
-1.077482968172368064e-02 7.138754738935798594e-03 4.399681387982296021e-01
1.938225169278586651e-02 7.285569078572921853e-02 4.770227806978280527e-01
-2.127661314431025102e-02 4.220335615045931257e-03 4.380839635863609249e-01
2.458599800518304623e-02 6.744794786245829343e-02 4.776126369543468031e-01
-6.246750656368016061e-03 3.911369226463720650e-02 4.533287570522274712e-01
-1.363903924174525439e-02 -2.953454979657871207e-03 4.369233724367931337e-01
7.439389883967222582e-03 7.710064104972907950e-02 4.742879916031400023e-01
2.749450386730099838e-02 4.799091294124537693e-02 4.683105289692214290e-01
1.359831206682306226e-02 2.901220958598491398e-02 4.531136125501539769e-01
-2.549813132722318111e-03 6.820944790106338307e-02 4.657423873967811989e-01
4.091494058982991094e-02 3.627232311812364496e-02 4.771293472872266683e-01
2.690022886697389023e-02 3.143227400613953643e-02 4.596675379413480145e-01
3.826359794145316878e-02 4.669104365634164922e-02 4.944398265187461283e-01
1.983164651329025197e-02 2.581015997687937866e-02 4.536894935178875099e-01
9.622936063438683463e-03 7.341221841214276567e-02 4.712687690652807015e-01
1.413422656333590023e-02 1.642657908032727626e-03 4.421539697036510064e-01
2.389224349139096315e-02 3.786433106735150739e-02 4.610896740703401830e-01
4.349828934274997672e-02 3.117397661016805058e-02 4.841231717447304073e-01
2.724841865883851147e-02 5.278515129856478638e-02 5.139711924204557469e-01
1.746981079491356434e-02 6.518440163022147515e-02 5.135836858631691593e-01
4.192260177318378467e-03 4.366508261576917960e-02 4.567540087314757580e-01
2.311439029727031108e-02 7.171216825431202258e-02 4.836421827554502340e-01
-2.347112551873425587e-02 1.116825209035862687e-02 4.402755266101645026e-01
1.381130519793562217e-02 6.116571989322107210e-03 4.438033701157262922e-01
9.078528315941743893e-03 2.571710610904654609e-02 4.507519791535940512e-01
5.914793847995503465e-03 3.830473039224593923e-02 4.551838503811855841e-01
2.522293003801291678e-02 4.830279237494870814e-02 5.176113978393174220e-01
-3.566984149730280731e-03 6.009654469071749883e-02 5.303152245923646868e-01
1.125315859524238888e-03 1.042045340146974600e-02 4.430564245807759871e-01
3.067719780412034997e-02 2.873191627602871695e-02 5.235886940684488788e-01
7.814861031972581903e-03 6.134773389127762266e-02 5.279740032328453792e-01
-3.343604661744173367e-02 3.919161486028174823e-02 4.515063640952297064e-01
-2.531278226535236403e-03 5.109953317462601757e-03 4.403567661816029100e-01
4.584149540238501540e-03 4.930617832624245578e-02 5.363356159619740993e-01
2.116653847093077911e-02 6.137193795661380347e-02 5.151240484151740073e-01
1.010798219906900233e-02 6.728995693153812241e-02 5.079769774888444056e-01
1.853282918057425413e-02 1.521696652247227916e-02 4.486631081111832620e-01
8.447867856808771031e-03 1.394390718725514559e-03 4.409775568690716963e-01
2.728065434454062660e-02 6.096092504845212340e-02 5.072695259172429472e-01
-2.127635178089226295e-02 2.674732819018331431e-02 4.461731528817494130e-01
2.154586675457336592e-02 7.232075807445167981e-02 4.806120301095271885e-01
1.418370687666262522e-02 6.344248252492454276e-02 4.665762554763756009e-01
-1.381717094485802877e-02 2.557442408948520235e-02 4.463896348713995432e-01
2.641342436440601363e-02 6.212741962317926830e-02 4.748602919080516793e-01
-1.618772356243701471e-02 4.510462506339053129e-02 4.544221073676467659e-01
2.396693703644749845e-02 5.885053763314346265e-02 5.137324623163447290e-01
3.789628661993721392e-02 2.735961726143202807e-02 5.103491990436620496e-01
-2.474234257752869898e-03 1.387026948395478007e-02 4.437752434763896914e-01
-3.492349572343037695e-02 2.730992759080924995e-02 4.468775380843552636e-01
-1.731486982460504406e-03 5.365480605351983373e-02 5.377520959510547760e-01
2.941764818492970807e-02 6.317922053879776456e-02 4.853199975520873233e-01
4.050160965108310501e-02 3.995104677750892924e-02 4.976108237371063003e-01
1.904897003072459488e-02 5.559458770253604409e-02 4.659676780036524080e-01
4.598592228346933680e-03 6.802258923041312744e-02 4.659420668821628864e-01
1.945441067759819467e-02 1.026964453773938739e-02 4.471024735699245523e-01
5.039107796657146636e-03 6.043760613408816207e-02 4.618787323553355528e-01
-6.845090509308100757e-03 2.343346108790426985e-02 4.467227575319774324e-01
1.574456262244465152e-02 7.372488912464007782e-02 4.994880413261190144e-01
-1.907108889912600882e-03 6.052812476633587929e-02 5.358158776127228684e-01
-2.879741407892756622e-02 -1.491184234994845197e-03 4.379759601567375649e-01
4.444187236823139708e-03 6.235197731484093397e-02 5.146966251528695135e-01
5.134087555041339998e-03 3.572599532317651677e-02 4.539782149482088913e-01
-1.848369765397768136e-02 2.965581991844599974e-02 4.477072162108911568e-01
-1.887180561955875691e-02 5.975504673153345103e-02 4.631469148648985068e-01
6.979015525458773586e-03 6.662267353172833528e-02 5.059448316955016400e-01
1.479969725853197242e-02 6.170327253500030446e-02 5.223471554306903242e-01
3.383990654901552347e-02 4.524080887867613920e-02 4.723769920859857141e-01
-2.664142913326582318e-02 4.002908752031313772e-02 4.517581156158269606e-01
5.659786914174898091e-03 6.409074640905594589e-02 4.637724156638806106e-01
-2.005841631732872832e-02 1.032450226325082668e-02 4.399189048579010275e-01
2.128568902419053846e-02 1.717240798059549434e-02 4.502733483516584423e-01
-3.057626994076186044e-02 1.797200456371703808e-02 4.433766477462952604e-01
2.891935190842146591e-02 3.622330733642834671e-02 5.210173801235037372e-01
2.856617649762959246e-02 4.012461532220511218e-02 4.650343960346640104e-01
1.852904564017944858e-02 6.837021121943505364e-02 4.712950017254897150e-01
2.973350140850961401e-02 4.049167500745275844e-02 4.659675609905288285e-01
3.986538056737355673e-02 4.314155474486230935e-02 4.865540945222651681e-01
-1.984610248626274623e-02 4.707456091238847173e-02 4.550894431444212351e-01
-5.471519437559651047e-03 5.791134707354845396e-02 4.591075299517342057e-01
9.521273670467799571e-03 7.033511274755546716e-02 5.024898076272367176e-01
2.854238138984045714e-02 6.508337797806139358e-02 4.892670022645109196e-01
4.433580249740543683e-02 2.848611785945308339e-02 4.901163499553315428e-01
-1.188578014775758598e-02 4.071075728687594680e-02 4.533045528023454396e-01
1.140130251310889770e-02 4.247877401817318210e-02 4.581652518683549946e-01
2.416674108316948025e-02 6.382220094864113347e-02 5.078735563936216391e-01
-3.879847434370648634e-02 2.242402077826673862e-02 4.460147194149010064e-01
5.756003580320798348e-03 2.736242762118670097e-02 4.507332673835439119e-01
-2.849347360512584706e-02 4.300684817622744266e-02 4.533087932193121117e-01
2.624250493226766914e-02 4.539457385936455924e-02 4.660197797466198444e-01
3.015841353997817872e-02 6.078006686163520134e-02 4.800275720953705583e-01
1.674315447297309786e-02 7.275408366739864741e-02 5.007609355672930640e-01
-1.987185787302230347e-02 3.907530654686256801e-03 4.380652992131253698e-01
3.105788467562712804e-02 5.281451626206785932e-02 4.744010485648431086e-01
3.558483946370170209e-02 5.119920813550029454e-02 4.960725344614270171e-01
-1.153323738508265153e-02 3.735771314151622308e-02 4.520126034089634315e-01
5.816640923405176633e-03 2.940094711009448580e-02 4.515642831202462126e-01
2.428441745249063435e-02 6.492536238842165630e-02 5.053280115057735555e-01
3.081861536531421350e-02 3.452184563934552336e-02 5.193019986415829958e-01
-3.795733430349514104e-02 3.828820530674949957e-02 4.518214285598703417e-01
2.709353586269382802e-02 3.678839036994318440e-02 5.236111934726289663e-01
-1.132754721976281936e-02 1.144057970015818944e-03 4.379398810484660953e-01
-7.287224154087150289e-04 6.073319130333865168e-02 4.606422604103653229e-01
2.851571095366106645e-02 6.464615476667898153e-02 4.850149528337923122e-01
1.592917938466350061e-02 4.118066417633827608e-02 4.589791828385331174e-01
2.558025858233676370e-02 1.784248458561234207e-02 4.527068613856713997e-01
-1.072313415151275075e-02 1.346049792495729661e-02 4.422572971846399636e-01
1.162388798087680628e-02 4.824825764536039285e-02 4.602918055959077659e-01
3.764240776704912139e-02 4.721593231888962516e-02 4.823703656869575696e-01
6.929660476903992672e-03 3.938516248886089754e-02 4.558361213327765116e-01
-1.885932882133702776e-02 1.205990195166150442e-02 4.405394906271095090e-01
8.126025211800565196e-03 5.383525282397239389e-03 4.423442683967924727e-01
3.455525879092143787e-02 4.570615429796488771e-02 4.737407111040634056e-01
1.388375888217641824e-02 7.670569581393460457e-02 4.766899307112447137e-01
-2.701095655156700304e-02 3.134035220036847369e-02 4.480192142446662862e-01
2.198434398034364301e-02 4.604762014134321235e-02 4.638330700512618976e-01
2.371814204322361674e-02 2.585133236358817810e-02 4.553881585977288537e-01
3.564353888399799525e-02 5.232520257093329491e-02 4.883195863444940166e-01
2.021696072956580270e-02 7.511471112663740957e-02 4.893652430148850985e-01
-1.499745545358106141e-02 4.306403567881000177e-02 4.538213886589556045e-01
-3.503417542675838631e-02 4.418111923756255083e-02 4.557046247730759947e-01
3.463571151127496639e-02 4.953676910521211812e-02 4.776190399208491422e-01
2.148548097930187001e-02 5.737175391553661630e-02 5.180841056343358231e-01
1.562713351064138126e-02 1.844488165558732379e-02 4.492158548642858906e-01
-1.664132132935713894e-03 5.886868579180375843e-02 5.373284269163161042e-01
3.128384644457387481e-02 2.508634301668599340e-02 4.592641949376335408e-01
3.871847168107726139e-02 4.606235049443063029e-02 4.927005052823145714e-01
-3.881127110669070103e-03 5.754879480128907709e-02 5.367445354816733349e-01
-1.217939758988193649e-02 1.710791838963433148e-03 4.379912772649394714e-01
-3.332409975008200631e-02 3.146384937622661443e-02 4.482080588656783826e-01
2.009618247206858277e-02 4.850751653597124707e-02 4.637791907315880757e-01
4.637419900387637975e-03 5.503636723461247798e-02 4.602333789597851665e-01
-1.151704686690155355e-02 2.370540106593928536e-04 4.376427324694628918e-01
3.392458353664416781e-02 4.989745293448972357e-02 4.760255038078827772e-01
4.182142076445516388e-02 3.759845488248030054e-02 4.874485879722076365e-01
3.177397385028497834e-02 5.882311178308664845e-02 4.823452561169335739e-01
3.557102742222013891e-02 2.947233663462749120e-02 5.142679446450133529e-01
4.575566745742087535e-03 9.933854401763116473e-03 4.434976176957940441e-01
1.067705486470158123e-02 6.406786018881710509e-02 4.652519257566757327e-01
-1.242061547674269857e-02 4.480661966250215622e-02 4.546575115917316223e-01
1.601243068921178944e-02 6.508517498210894536e-02 5.156617891969254019e-01
2.017596623182982274e-02 6.353133485555487181e-02 4.700161741087550138e-01
3.197367907871193071e-02 3.670304183541264059e-02 5.148578825022815941e-01
3.777107421511220753e-02 2.888505527061066558e-02 5.097420236259758708e-01
-2.014107985367512635e-02 5.082604841513495980e-02 4.567684820450818584e-01
-2.017665755084949164e-02 4.166588398832049567e-03 4.381036137516893803e-01
3.838661982608603668e-02 4.090741670044965167e-02 5.035514021742630852e-01
3.438247329812278014e-02 3.716456394169841138e-02 5.122100928803126063e-01
3.860494158381613111e-02 2.275382245814679127e-02 5.125384886842437870e-01
1.131366230813136628e-02 7.416765336461254854e-02 4.727480994927133473e-01
-3.670134447061967203e-02 2.982008163217485935e-02 4.477651830928960353e-01
1.274317592764811005e-02 3.400122735712416550e-02 4.550334043950304830e-01
1.876825911781842410e-02 8.455039895972196740e-03 4.460803125391111235e-01
4.166906419966936309e-02 3.082376789298558670e-02 4.741503169004774865e-01
-1.095000738104917257e-02 4.016018734758297626e-02 4.532157692594352971e-01
3.675946118226673491e-03 5.544369716709814100e-02 4.600772801791984112e-01
8.802156767080182576e-03 6.365294700518452087e-02 5.224403241673228893e-01
1.648836185134083462e-02 3.922547187080361458e-02 5.318198783517971151e-01
1.788850837197447988e-02 7.290672200726985852e-02 5.003731109170630464e-01
2.842575797518594183e-02 6.376572950302371312e-02 4.802601015562472098e-01
2.547072606704062908e-02 6.503767825405733227e-02 4.760021543537946709e-01
3.592672846353740790e-02 3.710718056775225843e-02 4.688140553121359355e-01
3.160388666750981596e-02 2.523128835059831876e-02 5.228989375536572393e-01
-2.879787561180788269e-02 3.790978011875690418e-02 4.508160311734344394e-01
-6.634830236974502068e-03 1.737424374600281610e-02 4.444177858211371679e-01
-1.641449234263032964e-02 6.055829106793005762e-02 4.639060461398576418e-01
-2.627985303935558362e-03 5.592195941875452436e-02 5.381189762692463185e-01
1.905378255563605974e-02 7.527878649018453217e-02 4.823212486561863077e-01
4.043482990669289984e-02 2.552367572051328706e-02 5.058511778972946127e-01
3.582046294809074910e-02 2.548187955355207812e-02 5.175558679488657665e-01
1.589018655242404373e-03 2.317657678823131090e-02 4.482296476728831469e-01
4.088966342250358738e-02 3.625499272636011072e-02 4.990804477336799883e-01
-4.079769470893134832e-03 1.133448422144324105e-02 4.425071976887778313e-01
3.824850262899309045e-02 2.028239178095036024e-02 5.160281940846194182e-01
-2.462809918052800279e-04 5.714946522677826629e-02 5.361717013718518832e-01
3.143673387003188824e-02 5.120395431536835934e-02 4.739476457796912845e-01
1.267944780147941056e-03 6.009329822519388770e-02 5.225918002941567497e-01
-3.346237196940447106e-02 2.623184253802739174e-02 4.464496129902043586e-01
-3.150526327296962817e-03 6.523295664642739244e-02 4.637864726912336311e-01
2.892466948992346298e-02 9.276419245582458173e-03 5.277255949264783030e-01
1.964988391763079073e-02 6.642089042093743401e-02 5.081699246583577523e-01
2.959995767213651624e-02 6.236760544207194112e-02 4.942362790175126586e-01
2.969955163454756145e-02 3.927260052820950170e-02 4.653692428081395160e-01
2.146641510983165677e-02 5.588308956116688070e-02 4.674752215665020083e-01
2.739642224565596446e-02 6.524239037983829703e-02 4.802178989919490548e-01
-1.463316741757644465e-02 4.133277930675316458e-02 4.532302916102787238e-01
2.717276040542939558e-02 5.622099511696590501e-02 4.721893281634185202e-01
4.541297760002947770e-02 2.305934882541776226e-02 4.792933832319379861e-01
3.345697595038382016e-02 4.027819886532139210e-02 4.685589411877164601e-01
3.791826900700173003e-02 4.409192962881355177e-02 5.022058791241681419e-01
3.970233319098926197e-03 6.082441325400917559e-02 4.616875105910266397e-01
1.416867379200296290e-02 6.903637224726631716e-02 5.084584872526708432e-01
1.702188737721121309e-02 4.519307686306847649e-02 5.275501248199105930e-01
3.544755359595139904e-02 4.660291870090048361e-02 5.062460590494202162e-01
1.465527951503793787e-02 4.659397422734601335e-02 5.286599272382314085e-01
3.580576048801796529e-02 2.119238594159982697e-02 5.189534972975262672e-01
2.072735834481085129e-02 2.437065951621956994e-02 4.533610973696272084e-01
-4.091093302099663501e-03 4.115219469314755282e-03 4.398070485637889937e-01
4.220070721047118091e-03 4.269756327446063565e-02 4.564393667008715405e-01
1.013915710065182128e-02 -6.059979823585730056e-04 4.406467184458938702e-01
-3.925553462165888054e-03 1.100503095551485372e-02 4.424064676526641149e-01
-2.911908140030246978e-02 3.637683053893898955e-02 4.501516933867651948e-01
-2.199849577829109462e-02 3.813337107837159318e-02 4.511879338865426581e-01
2.461609266643744603e-02 6.977341932258063206e-02 4.908048932362933381e-01
2.316465042385802697e-02 3.993965186838083908e-02 5.263978638925651543e-01
2.209233680342307174e-02 4.241062491812774143e-02 4.622694629984549497e-01
-2.897858217129527583e-02 2.018735597570814333e-02 4.438096736212209792e-01
-1.885006305846058036e-02 3.549972345249490652e-02 4.503021063450993733e-01
2.659103711129680997e-02 5.877502667811820847e-02 5.104087088484178247e-01
2.843357241167592669e-02 5.441072106843145711e-02 4.724557272832921040e-01
-1.532000825104015002e-02 4.934561651301873353e-02 4.562026453521698111e-01
6.260812153878192454e-04 2.958610677467045022e-02 4.506054831450799769e-01
-2.974845612320800581e-02 2.339244601614617197e-02 4.449994350536259913e-01
1.581509218242707626e-02 6.068200307065232946e-02 5.219239488322741094e-01
-2.189783131798529042e-02 1.306259574450599134e-02 4.409492767920725198e-01
-3.945542013557758881e-02 3.971163649286628405e-02 4.536019210888214692e-01
-2.018092818415950437e-02 4.367563130213526768e-02 4.536551876204467648e-01
3.765194370134401780e-02 2.351225682726748242e-02 5.146346817170357468e-01
2.553395636085340273e-02 7.837054661013549001e-03 4.485216988945998629e-01
4.530457413175887488e-02 2.173206803415472094e-02 4.765013222448921115e-01
2.344856310961749776e-02 3.026621330360975727e-03 5.323781452224255473e-01
-2.138944100462084053e-02 5.624732858206317118e-03 4.384562260152077284e-01
3.294079550642222548e-02 4.303482822134158114e-02 5.116001591616525790e-01
3.287955104798754441e-02 4.953341189738454109e-02 5.084771796058357163e-01
2.632556898867351863e-02 1.036499207155927062e-02 4.499995089741326004e-01
-4.059632099279960465e-02 3.581772348967714181e-02 4.505220815262109268e-01
-4.426712741845597286e-03 5.235239349620297855e-02 4.575863925895161111e-01
3.221867283752763433e-02 5.816720364031460755e-02 4.930892031711955337e-01
-2.960912644237995855e-02 2.510039493975109795e-02 4.456474616445039172e-01
-2.072653442155460504e-02 1.961592227675940450e-02 4.434010902365762563e-01
-1.512076700169217094e-02 1.774933933590100779e-02 4.432151475623447578e-01
-3.155235541039644667e-03 6.834778749381485718e-02 4.663678454487885094e-01
4.420535110982591609e-02 2.533503791158480886e-02 4.762564473432737699e-01
5.080356729430420860e-03 3.374492836335232088e-02 4.531695444109936077e-01
4.267464106605942803e-02 3.415132147664855927e-02 4.850031490816728019e-01
-2.758915871504501183e-03 6.016801157992578142e-02 5.370524947455308507e-01
2.318511445913514629e-02 6.555572769632583841e-02 5.058351670527638788e-01
1.302512048193605384e-04 4.272880203390021225e-02 4.556019625636013037e-01
