2.083621425861750462e-02 7.422252191170872204e-02 4.846796808700323256e-01
-3.058328833631497601e-02 3.147523381091692912e-02 4.480996216116149844e-01
3.737425040925475977e-02 3.348741140369363573e-02 5.076914607279869873e-01
-3.028638028429501278e-02 3.811213073070301299e-02 4.509352824944485305e-01
7.152519876137282927e-04 -1.290290293986414566e-03 4.386764351219857860e-01
2.676472045147977250e-02 5.986767859519935564e-02 4.738869565824231911e-01
-2.711637870763121145e-03 4.621327379999606161e-02 4.561231593566983378e-01
-3.074028299375815981e-02 2.092947554932806861e-02 4.442839112457578343e-01
3.400129886036461213e-02 5.507139003510912872e-02 4.841540300180954270e-01
4.127407106608772802e-02 3.613487410814647527e-02 4.982048822527602727e-01
2.843611183244265650e-02 5.919031125656215586e-02 5.076050071880703340e-01
3.910907421243735305e-02 3.552056303928789044e-02 5.040543048060354137e-01
3.558898125029426318e-02 3.744650390703804094e-02 5.097000366223178869e-01
4.363707728353549004e-04 5.668704434823202548e-02 5.355996384364989371e-01
-2.907742387871851009e-03 6.051030254007300213e-02 5.371519728503199032e-01
2.155937005248543398e-02 3.391878749560185702e-02 4.580260431509347030e-01
1.820801943195441211e-02 6.212434614615378742e-02 5.181893124966545638e-01
-1.224157874177398894e-02 1.119771194796649084e-02 4.411502165160313127e-01
3.824224699949380080e-02 2.561454570774004610e-02 4.651736206871553980e-01
3.838645311372521768e-02 2.772524747511740176e-02 4.664464566720453731e-01
3.335599114909387070e-02 5.120438231601873863e-02 4.760859397906964663e-01
6.112852904383681875e-03 6.366209957417784393e-02 5.150872400375859916e-01
-3.352573887348050691e-03 2.365842411247325028e-02 4.474970104388960590e-01
1.865620001761083419e-02 4.772199553932636451e-02 5.239106385445075897e-01
1.010915512749916909e-02 3.148864055435241643e-02 4.533977114984168999e-01
2.443420125817591382e-02 5.505326324824413170e-02 5.165108955458765916e-01
2.505328794465399786e-02 6.769254094069353245e-02 4.791228823406622483e-01
2.198665343208334663e-02 7.234258904902385323e-02 4.935016854547774612e-01
-2.916299652936008013e-02 4.042541502173655626e-02 4.520084625125281863e-01
-2.904724089086521341e-02 4.787840129153877328e-02 4.567597859937977400e-01
1.196200731239949536e-02 4.522413029457400535e-02 5.335255275031207667e-01
3.275940533201208982e-02 2.921071216877484458e-02 4.623755689063276941e-01
4.336593025399714668e-02 2.942708909914105303e-02 4.781906682912042683e-01
3.522754018241237156e-02 5.239955748939544022e-02 4.935106397052577143e-01
1.502662434678195442e-02 5.975328120539834947e-02 4.655922092842056381e-01
2.612216663084147503e-02 5.551137493509464282e-02 5.139517004340347084e-01
3.983612610820321670e-02 4.266384909386664037e-02 4.964069469914068056e-01
3.144343828607072677e-04 5.903138006792978815e-02 5.178032256540550105e-01
4.411791769870482965e-02 2.752500651694264958e-02 4.795669819460377514e-01
2.621116047541203337e-02 2.859937726044051859e-02 5.267822635011913945e-01
2.457681364824433265e-02 2.576904077005658794e-02 4.558359791426678242e-01
4.525279757453423007e-02 2.371891763888099580e-02 4.921296956484300655e-01
-2.943954646073360104e-03 5.248202186892206994e-02 4.578224906791542037e-01
3.193288504458713373e-02 1.854039921100013311e-02 5.242532967687637546e-01
9.795455182514858916e-03 6.003021523535782139e-02 5.266054983422751024e-01
2.541750827429068577e-02 6.757142138952643151e-02 4.950541045385014605e-01
2.241102929453193948e-02 3.913343835748472194e-02 5.280579786679840959e-01
3.542001722143381381e-02 4.000140466395270961e-02 5.097551203762228367e-01
3.342962500126832326e-02 5.261313229913452960e-02 5.036501028237478916e-01
-7.076444062122015308e-03 6.684982490277146042e-03 4.403647245830118462e-01
-1.264847487934771600e-02 -5.306843535022682731e-04 4.374284986469040293e-01
1.058456442773108609e-02 6.035651846241036483e-02 4.639505376445507423e-01
1.083226657439468124e-02 7.584949598733764509e-02 4.883594119141111967e-01
7.562272821940778551e-03 6.938166086067026894e-02 5.017743358142996435e-01
-2.158203501062102431e-02 4.972494662139662763e-02 4.564552781882305066e-01
1.865108107117210284e-02 2.349972768684624111e-02 4.523642898100435072e-01
1.760827037567003900e-02 5.885458052125343981e-02 4.665002521241595201e-01
1.775085887031777922e-03 6.580707206337084447e-02 4.644245424567026159e-01
-2.490336294282367510e-02 1.008728162240107862e-02 4.399490198167614330e-01
2.458895951303362304e-02 5.319505120012544414e-02 5.169852117188412644e-01
-2.766693566841660346e-02 4.413716380055264510e-02 4.539632836773814795e-01
7.424470278419959685e-03 4.491784685114885711e-02 4.579847035830794666e-01
2.452547384317055323e-02 3.357342788476467416e-02 5.278844469707866249e-01
3.810059036554405004e-02 3.689632508532082744e-02 4.723028919789621360e-01
-2.607222005744031651e-02 3.584938252800435460e-02 4.499599402207286047e-01
2.866096360583324926e-02 5.711242736663994096e-02 5.092304035596345591e-01
-1.581007345684192801e-03 5.579686442464191348e-02 4.589188748689804198e-01
3.500357105343550324e-02 4.509850253573564893e-02 4.739802344857060867e-01
-2.266991305188429881e-02 4.151647182823894888e-02 4.525988089720880403e-01
1.323254183342633186e-02 5.651437834373411462e-02 5.245675320897038585e-01
-3.957346467563832744e-03 3.519618907709116951e-02 4.521292110627889160e-01
2.723872091827952979e-02 3.561281186742673577e-02 5.247180592762794582e-01
-3.851214353713706962e-02 3.245127737262085837e-02 4.489240922032299852e-01
-1.013526809589922369e-02 3.393078984630228112e-02 4.507212085338511698e-01
2.761854864551449573e-02 6.403380516346253437e-02 4.982856820282231536e-01
-2.481161830996819403e-02 4.348587923269986617e-03 4.382461371390797833e-01
2.843445861537233915e-02 6.093524659684060318e-02 5.038804293063935402e-01
3.391473373771495409e-02 2.288722206223602063e-02 5.210424252533762957e-01
-1.332871924882691322e-02 3.097323268984141995e-02 4.488906993042169336e-01
1.067284637146020086e-02 4.738597718081245802e-02 4.597369593965284218e-01
4.049795926145199898e-02 4.168121004122240375e-02 4.883770112466317426e-01
3.703787930521766636e-02 4.842924290899418283e-02 4.825069225222211045e-01
1.312974127371741538e-02 7.367488067094241089e-02 4.996956449164983716e-01
-1.525497701797574488e-03 3.525074247108628961e-02 4.524826691705999826e-01
1.004243817689049779e-02 6.512716983177155305e-02 5.160965870092296681e-01
3.296069056095240341e-02 3.769716789206756929e-02 4.668387841621043921e-01
3.808469725723616361e-02 2.713874093434758689e-02 5.101203560167747453e-01
1.819439259686598045e-02 4.594654673462342243e-02 5.253538299232499709e-01
-1.434097388818624148e-02 -2.583579013215381824e-03 4.369446966241996577e-01
3.004419846372581582e-02 5.937181244478954845e-02 4.770587931204842147e-01
-3.903829377421991816e-03 5.818464175193976962e-02 5.366154456968429409e-01
2.541925858029134289e-02 2.289977345795770475e-02 4.549644600693972807e-01
-5.588123124307901174e-03 1.121315384998750574e-02 4.422360397760735085e-01
4.501528326962351417e-02 2.456665686655060132e-02 4.920856632207211145e-01
2.678969432237132686e-02 2.744853140231156077e-02 5.262926856800933528e-01
3.606763473663639197e-02 5.156753062857042519e-02 4.876579011692031007e-01
3.760351657508866074e-02 2.350102917147883080e-02 5.147960131095189462e-01
1.823127973053400436e-02 6.902377535993055313e-02 4.716308666177720377e-01
-1.664722819435343615e-02 5.705714537185466867e-02 4.593886912812034096e-01
-1.248305145597172587e-02 9.643632054593422737e-03 4.405239520844388412e-01
2.207019025078458055e-02 3.539163161049158068e-02 4.589260972805748184e-01
2.284744580096367828e-02 2.752914200015263435e-02 4.557607286045705086e-01
-7.630811088248227667e-03 3.928784328569651096e-02 4.532754950306439601e-01
1.974032190617452942e-02 4.276091205095989417e-02 4.613372267410442151e-01
3.906123362941654742e-02 2.763358108592468484e-02 5.077089190760607496e-01
-2.174805594669780139e-03 6.009020072215411068e-02 5.273320966587347058e-01
-2.034463953923031088e-02 2.407074481583715633e-02 4.451742801895574031e-01
3.545137473229550973e-02 2.711317030835637756e-02 5.169430711642492016e-01
-7.327134478698023833e-03 1.029837067070661985e-02 4.416161665651173740e-01
3.017641540764104402e-02 3.812714538858164026e-02 5.166902713463320529e-01
1.856519534147019895e-02 4.220026575668649194e-02 5.300669727204271320e-01
3.308182308201459282e-02 3.187424248077424388e-02 5.182255792203276368e-01
3.551772530776959452e-02 5.139422392258674588e-02 4.958370940981565722e-01
3.801283814991540666e-02 2.876353812608823182e-02 5.093503795393492517e-01
-7.393485925634778883e-03 1.717777939869955667e-02 4.442352129975071784e-01
-5.406672399025593337e-03 6.193897092699427592e-02 4.613265988790777872e-01
7.932395405179464704e-03 4.908676623977886733e-02 5.334410358522410078e-01
-3.382427404419387652e-04 4.305304082265933030e-02 4.556501259730989517e-01
-1.672052785804382588e-02 9.716327527347488890e-03 4.398191101954404547e-01
2.523312027570141433e-02 4.139405362894377910e-02 5.214572308598007799e-01
1.438208878601562532e-02 5.100825387652363485e-02 5.260292463548634778e-01
-9.932190342993609672e-03 2.884257910629118779e-02 4.484651375843462517e-01
3.691100785011001972e-02 3.035071102252194508e-02 5.108558149998261300e-01
3.344263205438650910e-02 2.265759554325501648e-02 4.595935803286282928e-01
4.270167224935816908e-02 2.930254030403428231e-02 4.755296205604216953e-01
-1.564720888713528463e-03 1.696195361231870799e-02 4.451718905114822045e-01
4.997768584829998320e-03 4.423528550288659961e-02 4.571882529596032474e-01
2.363147558983864742e-04 4.625677302566161969e-02 4.566360640875694044e-01
4.053856493776279019e-02 1.966470948096844459e-02 4.647009900603910615e-01
1.287374449123487950e-03 2.165501855561125649e-02 4.475961894371426331e-01
4.285711961903114486e-02 3.416271322564837926e-02 4.873981549015942161e-01
3.387518197072408171e-02 2.084288487761560421e-02 4.591082560900993093e-01
2.813080948219565114e-02 3.981331629590455223e-02 4.646653448085141247e-01
-2.656572342637900791e-02 4.191521824554264412e-03 4.384847674442644561e-01
2.991115201612844915e-02 4.529804523389984253e-03 5.313733770513963117e-01
2.966989334743889289e-02 2.891937255771710735e-02 5.245981368377515830e-01
3.712456479611827079e-03 6.125739059158642058e-02 5.161461083366118974e-01
1.039458023960589811e-02 6.774597831554612926e-02 4.669844291799574720e-01
3.532759013455774588e-02 5.088683505709241939e-02 5.002248914572449134e-01
-1.059871768717349748e-03 5.746459884504079990e-02 5.377464434853109765e-01
7.732101911689577903e-03 2.442392462405897774e-02 4.499496139447270449e-01
1.264278174735557897e-02 4.520923056914807892e-02 4.596020194382089974e-01
1.621134524356245693e-02 3.928462560997057762e-02 5.320767233458622014e-01
3.010067773352041731e-02 2.757953778208436721e-02 4.597455372607524016e-01
-1.670222501887276903e-02 1.165383563648928790e-02 4.405635508088706076e-01
4.205726469404689333e-02 3.564917878800359652e-02 4.827835693364367908e-01
-1.593482891508526261e-02 1.928795922567577703e-02 4.437366255801761805e-01
3.697805551628224885e-02 2.832823919936244828e-02 5.118749504839165132e-01
5.949888866410074292e-04 6.272185570136822041e-02 4.623761233896993561e-01
3.894083574375484247e-02 4.540454612330278861e-02 4.859938792034949606e-01
1.987359817629491543e-02 5.152189984161850006e-02 5.210455755255034571e-01
3.590112544565255553e-02 4.869136705383064756e-02 5.028976511725435916e-01
1.075302720820927281e-02 2.642010168406832074e-03 4.418488262895358676e-01
-3.420339292911021845e-02 -1.264427929032587881e-03 4.391732612755300802e-01
2.839779335551041034e-02 3.620375323115194999e-02 5.221849299794828481e-01
-1.669587339955820593e-02 3.609134164935099559e-02 4.508194199344383035e-01
-1.695176927018705176e-02 5.721983002603750479e-02 4.595003235940781638e-01
3.226963971925553287e-02 9.920965728762019820e-03 5.260714683262495139e-01
4.163866177087002102e-02 3.355993614318066032e-02 4.980541670160371637e-01
1.051657757393953223e-03 6.367096164735819297e-02 4.630201983203883764e-01
3.335729543200989522e-02 1.944821653265409872e-02 4.581630038525172921e-01
3.670752314682516199e-02 5.024123917216268692e-02 4.893668102680976961e-01
1.973205464062307776e-02 7.295780779261831772e-02 4.977164284827662044e-01
-1.478820756321656306e-02 -3.739354126240877416e-03 4.368410776782333249e-01
-7.137989883168793272e-03 1.506420135732708040e-02 4.434639486015631848e-01
-7.649557377085247981e-04 4.103107513854369059e-02 4.548821375040263959e-01
4.017766622290621509e-02 4.236496186063790081e-02 4.937732119334805603e-01
1.581936913184021909e-02 3.884066098127736399e-02 4.580275382008582863e-01
7.706591724497981188e-03 7.168407935393993069e-02 4.971440371024809513e-01
-7.702995929564638612e-03 3.402549528558246154e-03 4.391138451647432217e-01
-2.676546084037719625e-02 9.605412291911703815e-03 4.401295502119940695e-01
9.237768006154951916e-04 3.973087221515483186e-02 4.547412642605970223e-01
2.535212449557187539e-02 2.337946316604491009e-02 4.551487270631497939e-01
1.806838285014438286e-02 7.480241166784407092e-02 4.976890596539358946e-01
-1.726862214969179798e-02 7.725047955892271230e-03 4.391396338254094922e-01
3.755523497435005881e-02 4.102977526385553908e-02 5.057642896721322723e-01
2.080224378716446013e-02 7.411929159817232105e-02 4.929295680596267326e-01
2.670572537405129648e-02 6.048947911941023048e-02 5.088133464432016417e-01
-2.054160716260259797e-02 4.171397090597455531e-02 4.528476174622584893e-01
1.471722037660207812e-03 1.262773478626534607e-02 4.440267196004979988e-01
4.085141198597392470e-02 4.050504550181331653e-02 4.872537484673724606e-01
2.781846461380865082e-02 5.316044320606975321e-02 5.131836271089429413e-01
-7.184967983839267436e-03 2.903095173042718677e-02 4.490052832050468457e-01
1.656400101532466002e-02 2.160385619007465507e-02 4.507674401624431337e-01
1.438525275173619181e-02 5.693768843308076588e-02 5.236229000770663555e-01
-1.944363886400270192e-03 5.772113774538355224e-02 5.209417886997518288e-01
-6.309748901641473728e-03 2.115581935843183214e-02 4.459452407622085945e-01
-3.938196082085295563e-02 2.805138459830417222e-02 4.477253598472032969e-01
2.661425113930421943e-02 5.676232250344735719e-02 4.720902249207453161e-01
3.298571855093473948e-02 4.681700742372311985e-02 4.727863734159493125e-01
3.440979455504394879e-02 2.185657422321992879e-02 4.599473318129173038e-01
1.204932785952535917e-02 9.971475929716474423e-03 4.450117332691171934e-01
-3.026046876932254187e-02 4.837568019075533243e-02 4.574222535093416253e-01
1.558344217539265122e-02 4.441706573283293880e-02 5.308231585678828690e-01
1.479300584841118649e-02 7.275579914520829972e-02 5.012065992535718051e-01
3.475505227301713129e-02 5.249618797071479992e-02 4.974435322245311375e-01
1.918954584026135932e-02 4.029164939373417603e-02 5.305638755150602348e-01
3.655694977922692435e-02 3.841486690013137112e-02 5.082191156958010270e-01
3.282443724994332790e-02 5.635569913268169417e-02 4.962962765130971010e-01
1.328566861943064441e-02 7.786077299033819510e-02 4.816250357429003870e-01
-2.934043342036261881e-02 4.285026369839573662e-02 4.532815618634537524e-01
2.901624276825210888e-02 6.332464326602732507e-02 4.816577207804099703e-01
3.104153794699843552e-02 5.595204168606357498e-02 5.050806134217556975e-01
-3.261460283175894592e-02 4.337901509197125000e-02 4.542777241392961241e-01
-2.132878862362784858e-02 5.066610069234524227e-02 4.567859780962941763e-01
-2.684775037022427494e-02 1.058083514104963922e-02 4.404879721595270081e-01
-4.309985117962451817e-02 2.539965815996438753e-02 4.477194294603381031e-01
4.493998545131159400e-02 2.279093114570098291e-02 4.761447766008699567e-01
-1.722738502457386855e-02 4.038134770970138593e-02 4.526028129313010573e-01
3.131393407343378149e-02 4.471805353829608198e-02 5.131792511805162160e-01
-4.276482070551404502e-02 2.653265914205997500e-02 4.479710272349455291e-01
8.686182221483346177e-03 7.370087848276887094e-03 4.432697629777235249e-01
-7.753278083879044935e-03 3.672729799733311096e-02 4.522904306610415759e-01
2.302309287930474901e-02 7.027613106144756094e-02 4.797056411782165131e-01
2.167172616557647147e-05 5.388038461868414897e-02 4.586467048652104195e-01
-3.597446077739797042e-03 6.849382658832216253e-02 4.679591976993535130e-01
1.680367904741700627e-02 3.803525415607798832e-02 4.580016870336384160e-01
3.507063335286156325e-02 3.150776629211009955e-02 5.141359264005096463e-01
2.418985044688086103e-02 7.971852344875020660e-04 5.333059632877632517e-01
4.172760123275010002e-02 2.808535149458249794e-02 4.720996172413438607e-01
1.842119763514010744e-02 3.043685341587063636e-02 4.552766000498992272e-01
4.401185085329532148e-02 2.702958990095399167e-02 4.778511184521883060e-01
2.600378504020348092e-02 2.262511478705345191e-02 4.551436752075046499e-01
-3.027378477825062170e-02 1.418361972296884772e-02 4.422369413411855743e-01
4.100766129682450328e-02 4.006795631055473650e-02 4.936768087379644343e-01
1.815083539938602483e-02 3.507153432601875509e-02 4.572129659430340110e-01
1.699774657684386195e-02 9.200303349232628880e-03 4.458543671300976285e-01
3.294774275366681160e-02 4.515289343973158398e-02 4.714189817272889660e-01
4.030550478117790603e-02 4.231012992394064809e-02 4.893921130429947919e-01
4.122878509761153387e-02 3.334256492971410940e-02 4.992165360105147442e-01
2.274157223870472075e-02 3.543963213907303650e-02 4.592945790202676015e-01
-1.436196923254489527e-02 6.102484901435901304e-02 4.640188933335741561e-01
1.328388596300205705e-02 5.804653649802840598e-02 4.642118564752424903e-01
-1.294459862883298642e-03 5.981731342285815517e-02 4.601793758796879352e-01
2.813720493036366010e-02 6.554582590730721747e-02 4.896768307236096796e-01
-7.676036100877027014e-03 4.258705541556973007e-02 4.544256751274768913e-01
5.882392296148834798e-04 5.923114298862965782e-02 5.198850134233178322e-01
3.184712852445247683e-02 4.208473624808786728e-02 5.137783238925685003e-01
2.635462824571801338e-02 4.519488976199527441e-02 4.660673170460705173e-01
2.427670200947740567e-02 8.065968248997711088e-03 4.480526808823769302e-01
1.041807634721138298e-02 7.353271991660136064e-02 4.976009665933040504e-01
9.874657402212577706e-03 4.630894636287708616e-02 4.591000676783161261e-01
-1.051969747513207751e-02 4.581674584044229115e-02 4.551746035357218112e-01
2.801317078705113997e-02 3.923605066712759770e-02 5.188526541359563815e-01
-6.018238567270349157e-03 6.113635851505680452e-02 4.606905360518119830e-01
2.647062436415726847e-02 6.785526578080168514e-02 4.837295560545490369e-01
6.032027526518546345e-04 4.659738435206797064e-02 4.568004374594326067e-01
3.808389851727378428e-02 3.611304533651772675e-02 4.715750307678141517e-01
-2.574743594484594014e-02 2.643899622205864164e-02 4.461228109973122136e-01
-1.303989349184728197e-02 3.477900328413135317e-02 4.506984014106358849e-01
1.343076208637417231e-02 6.559823186229792047e-02 5.149446056205789768e-01
3.378455535499209905e-02 5.494939521841422231e-02 4.821046655880876775e-01
4.062793166085294783e-02 4.147643052589949919e-02 4.896428589426549127e-01
2.967727829292283320e-02 3.539373925759969203e-02 5.205606154414784692e-01
-2.088430286708658004e-02 4.435580986694805800e-02 4.539090976610564154e-01
1.312442914260432587e-02 6.576208253996820852e-02 5.129988220131925791e-01
2.988985494686972888e-02 4.000371919503151880e-02 4.659029028909253967e-01
3.874094272925176358e-02 3.885436624212799950e-02 4.751472964369268248e-01
-2.158776986356434821e-02 5.884947830615261388e-02 4.630132165089915208e-01
-1.467336300138455743e-02 4.924979619316346285e-02 4.561976979777768726e-01
1.673941384855902326e-02 3.871715116784763683e-02 4.582611462560728377e-01
-2.239319476484578561e-02 4.737023436142483168e-02 4.555678507226382790e-01
-2.238536929737083153e-02 5.306168040828034005e-02 4.580685103541586312e-01
-8.080763299101852148e-03 4.166273454732716264e-02 4.540684091605489692e-01
2.838160748033339426e-03 2.927328605977811901e-02 4.509512217320981176e-01
1.541430886469209380e-02 7.227254210156104641e-02 5.019998627632342725e-01
1.109483134911602893e-02 7.194536310984638028e-02 4.699013307205193724e-01
1.578559752622075638e-02 5.434174018471599199e-02 4.640739862224498302e-01
1.885667710881812689e-02 1.792567258282776535e-02 4.497547765842263567e-01
4.471061738515046124e-03 2.919253653989585182e-02 4.512438130778448353e-01
4.156029541751757317e-02 2.365201014610271782e-02 4.687954374523301548e-01
1.893487408787696696e-02 1.581649552803099379e-02 4.490260967519529300e-01
2.527887869868512827e-02 3.180639889215090138e-02 5.274388044175999379e-01
2.215361858546643914e-02 3.983656241525664748e-02 5.279178030769108299e-01
-2.147344343873204900e-02 1.782107093191292319e-02 4.427308930064128845e-01
-3.056198234833842897e-03 5.787307511458342213e-02 5.246234488926939665e-01
3.880360482048880733e-02 4.534550298837135285e-02 4.973195111541417468e-01
2.335002406214744045e-02 6.568207639857873148e-02 4.739666112756739103e-01
2.006849525782418778e-02 1.225287321746620223e-02 4.481666440010353969e-01
-3.418897153768642172e-02 3.629419359654274292e-03 4.394661526929916628e-01
8.826388311763570804e-03 2.716328398051632773e-02 4.513332548618811391e-01
-2.444297502862515653e-02 1.398845227301804758e-02 4.413252011802339947e-01
3.814517577639944812e-02 3.273815702147535311e-02 4.687858864279340620e-01
3.955899829237589233e-02 3.681224563130350291e-02 5.025623434584333138e-01
1.293064847219709337e-02 4.418624696573381083e-02 5.336565877639734001e-01
-2.112087576314888079e-03 6.119998537997863725e-02 5.362239306972482744e-01
1.574912539163661127e-02 6.762743873713764065e-02 5.102033380831220155e-01
8.394477366774294111e-03 6.138807796679349865e-02 5.276517568248292323e-01
1.339168390788641333e-02 4.950236091775099545e-02 4.614528425580349258e-01
-4.394379104827948745e-02 3.512031398025716733e-02 4.508939368554953919e-01
8.323306766310656357e-03 5.245852719871663822e-02 5.308535768334494698e-01
6.971032644077543305e-03 6.949873993850708143e-02 5.004697318407052009e-01
-1.826443174984334825e-02 2.439218273898047240e-02 4.454984975930604829e-01
-4.055754704061517030e-02 2.567228258215224768e-02 4.472921490693202995e-01
-2.678093294417861064e-03 5.628258854528663674e-02 4.589679915809394273e-01
3.271790679420267384e-02 5.706395678933957882e-02 4.817343227564330199e-01
3.183707494417561956e-02 5.789076926992450800e-02 4.802850416670988443e-01
2.079278990026842827e-02 6.799371919485031057e-02 5.045374699721589806e-01
1.480092674918696144e-02 7.542506157948371259e-02 4.754206548055654458e-01
1.072589948766071444e-04 6.259215992488700864e-02 5.290488409481334253e-01
-3.519071248849862249e-02 2.887600067748645472e-02 4.473869038303061041e-01
2.969519179820846039e-02 3.355150122755070491e-02 5.230801200127954687e-01
2.113605398108616557e-02 4.594790441586881283e-03 5.316848622524334989e-01
4.408817225175379328e-02 2.797264285550190785e-02 4.921520200059922301e-01
2.424720609388998985e-02 5.303012236706958205e-02 4.684354609807235836e-01
-1.005861871285606071e-02 2.494169247266979968e-03 4.385679556957290948e-01
2.534776937496713983e-02 4.642109269942226724e-02 4.660085926758679720e-01
-3.756678601910650589e-02 2.372152709680743279e-02 4.461585944756117361e-01
2.988769087287952014e-02 4.718322117852662839e-02 5.138499934339908481e-01
2.760648914944291085e-02 7.575910300916065439e-03 5.299993517119103714e-01
-3.775536001149847748e-02 3.945951124568156804e-02 4.527987584030582213e-01
3.903536642911507870e-02 3.086641535368248729e-02 5.054826194834506348e-01
6.685937064012163061e-03 6.377953136446484761e-02 5.161288109867036011e-01
3.976739882518692815e-02 2.336373012407747668e-02 4.654808841456012924e-01
4.247018148577557523e-02 3.367155067605655944e-02 4.806333405637451262e-01
6.305638377057776189e-03 5.301090467563476100e-02 4.602002672488773594e-01
-2.982260230834808679e-02 2.474912103289933843e-02 4.455338363176167271e-01
2.340141646400436225e-04 3.473993436916632260e-02 4.526261605045349690e-01
-4.692983022602485385e-03 3.241620652864281305e-02 4.508229068336107592e-01
-3.060223201686107508e-02 2.383455314034557335e-02 4.452517593413358177e-01
6.236856123254790746e-03 6.787190147395434636e-02 4.663124300349246187e-01
1.502794293352320912e-02 7.223288377106872049e-02 4.718579215397041837e-01
2.782723328981542496e-03 1.473268773502503515e-02 4.451087057400093250e-01
3.433429131610830909e-02 1.718985127109082592e-02 5.228458337822866620e-01
-2.272663445834923260e-02 3.322681904462791713e-02 4.489167119527223138e-01
1.268713241169463352e-02 7.579677274007848298e-02 4.893373072856898598e-01
3.398896529674089520e-03 6.638586073544175403e-02 4.647362245344677234e-01
-2.822611085012207560e-02 2.509012920711761740e-02 4.455699441520133419e-01
3.304515789783050300e-02 3.240682678247181620e-02 5.174722007624399378e-01
2.526572565453525862e-02 2.056697930889398937e-02 4.538171971333302968e-01
3.424278411018636444e-03 5.607944214805839211e-02 5.329544748209581462e-01
1.907108006317713086e-02 1.675017057376344820e-02 4.493734517117951577e-01
3.810379166726544226e-02 2.716759418793085468e-02 5.100615894374141979e-01
1.560024914314833526e-02 7.614932343399752335e-02 4.895709000925536070e-01
-1.125102866206013560e-02 4.054364776782304683e-03 4.388833023933484956e-01
3.051834266736918461e-02 5.722856350155969968e-02 5.040889772278612790e-01
2.165939725998539470e-02 8.327910202568367462e-03 4.471573487478659459e-01
3.077878041938507045e-02 6.127447719642759721e-02 4.897021702673208243e-01
4.074862179846742982e-02 2.917411672039062209e-02 4.710485350395915982e-01
3.101816241319647199e-02 6.061125887671320323e-02 4.863093085326365417e-01
3.662730687580812577e-02 3.856081455787274681e-02 5.081105521640835176e-01
1.059894444197976085e-02 1.815798645614837351e-02 4.480373689982563024e-01
5.187103097382258707e-03 4.151590117217011933e-02 4.562774715923380020e-01
4.064828303696950418e-02 2.127698509087845927e-02 4.656704863109558667e-01
-3.699215035739376184e-02 3.761733610341268241e-02 4.509752712545416209e-01
-1.363929493629238709e-02 -2.927303789960616041e-03 4.369330320813167301e-01
4.012036941229408377e-02 2.280786866691729420e-02 4.656984718800314393e-01
1.454911641956967323e-02 6.513538667936895343e-02 5.167342682266651277e-01
2.277900219927553316e-02 6.451745589259653968e-02 4.728005024830597702e-01
4.846527667098715457e-03 5.242831590585576851e-03 4.416685466662302328e-01
1.511735451735786093e-02 4.911045628415287162e-02 4.618951822380401584e-01
-1.671286003927603377e-03 5.863376883000306905e-02 5.373117562804846647e-01
7.306242764393549444e-03 4.457419998607183714e-02 4.578423208152356816e-01
3.469592524117436766e-02 3.200332439114331878e-02 5.142211518644038692e-01
-1.895124871776567368e-02 4.476233616281293654e-02 4.542115310597527045e-01
1.219007940740445342e-02 7.881474177059373531e-02 4.806039763090173556e-01
4.189210747609890817e-02 3.548706149181754532e-02 4.803028198421907535e-01
-4.341810794198353550e-03 4.075712402058908473e-02 4.541344331165823034e-01
1.332667288673777817e-02 6.733865503154499998e-02 5.100011617779974804e-01
-5.544596342751597663e-03 3.798699502806632267e-02 4.530277163940762408e-01
4.093440794158466345e-02 4.080575806503444758e-02 4.914348270881870318e-01
2.767610283341023422e-02 1.657831803305546969e-02 4.533651304893672740e-01
1.983593837817241787e-02 7.547936507969105202e-02 4.882370417448018696e-01
3.350496090996407661e-02 4.257670303126672579e-02 5.111166053553340971e-01
-5.820673462119804395e-03 3.289876773737290122e-02 4.508722961608529478e-01
-1.024408347774960829e-02 9.976586975255210751e-03 4.410415138327203333e-01
3.084998959317651179e-03 9.569873747959312116e-03 4.430832829354362512e-01
-1.080141554920402598e-02 4.347081526300624471e-02 4.543997887239943911e-01
2.747587588858734636e-02 2.928219914414068384e-02 5.260419887085920898e-01
-3.582754432194783928e-04 4.600799416219257879e-03 4.405431925904325641e-01
2.181629731239003583e-02 4.944695200651873929e-02 5.202286925654365790e-01
-2.134252784991146762e-02 1.899195344709294145e-02 4.431765929363593592e-01
-2.883781132015141024e-02 4.069941779907286505e-02 4.521140208771389779e-01
1.950751445868639236e-04 2.119031390684954913e-02 4.472024169777933933e-01
3.706700918668353467e-02 4.915349736768124395e-02 4.844033677103296021e-01
2.928473042644098509e-02 2.359639267620868008e-02 5.249771750244376367e-01
2.471466863969802238e-02 2.145784507999854394e-03 5.328023529702713423e-01
-3.976868147771604745e-02 3.012846160888911842e-02 4.483854774298760559e-01
4.289015048634894911e-02 2.065641339282275196e-02 4.695349296688763885e-01
3.602573967192437658e-03 7.065641657935377296e-02 4.691839476986779389e-01
3.868754921194902940e-02 4.638707238191882437e-02 4.911997284668074837e-01
1.194091711714306836e-02 7.580838160578462492e-02 4.882869904547655904e-01
4.082554910706691353e-02 3.969664878046545720e-02 4.958998047899454420e-01
1.099604810187833001e-02 6.979857874031161757e-02 4.683677262944541120e-01
1.339207663900279441e-02 7.521629655147424320e-02 4.966981140891469915e-01
4.068402254574583765e-02 2.941756523847863930e-02 5.024059803760956289e-01
-3.413036889028436827e-02 2.919385469846144665e-02 4.474152426449902742e-01
2.502167730279535041e-02 6.424500971194606336e-02 5.056609453509939289e-01
9.513885608982017295e-03 7.489984155515369557e-02 4.932182886754504780e-01
4.649875074539570191e-03 6.218721672279068496e-02 5.157779316639593548e-01
-4.863306678066528672e-03 3.090672292007265107e-02 4.501454812857037524e-01
-1.713082986194477270e-02 4.953007450777592580e-02 4.563289521353911526e-01
-3.223961228040229249e-02 2.898290986085063498e-02 4.472602742695093725e-01
3.932939251194544905e-02 2.694810610105299181e-02 4.668966219227067560e-01
2.410006475420257629e-02 7.096683922273051837e-02 4.850385958211003157e-01
-9.127767412072892474e-04 9.045930087725969487e-03 4.421474977651049243e-01
1.127202355409392129e-03 1.638802467402170754e-02 4.454567708552714667e-01
2.751542569532817659e-02 5.378866510550318891e-02 4.713523026567583152e-01
-1.583883005369837726e-02 6.302576537087876615e-03 4.389101509621521902e-01
1.982363754439175549e-02 6.288215294509265363e-02 5.151824950887290422e-01
1.102937062548238131e-02 6.436410529023701976e-02 5.189589275587823680e-01
1.378048363007912044e-02 2.472489011309991075e-02 4.514331784177970652e-01
-7.153380006379081273e-03 5.712971734157015757e-02 4.588113369609443382e-01
1.519688215433162570e-02 1.990709959072509139e-02 4.497526324655927721e-01
1.549646096201777283e-02 7.510355848336539020e-02 4.756756932629415680e-01
3.832266099338267618e-02 2.309630606006868314e-02 5.130282342692817910e-01
-1.836029257490748301e-02 2.158772605966225930e-02 4.443509168618705596e-01
-2.493475124227668635e-02 5.272266179080727783e-02 4.584330323362037496e-01
3.482681119932070496e-02 2.645634662923238359e-02 5.192372633480257793e-01
3.174158411806494995e-02 3.506147987812600897e-02 4.646371340566020081e-01
2.185517729699941805e-02 6.589965357241134303e-02 4.727063011306982254e-01
1.408394401734113129e-02 6.533014425173731821e-02 5.159820083900291676e-01
-4.526291477280554483e-03 3.189219771773980916e-02 4.506196768183473589e-01
1.369379008727311664e-02 7.748104533943171723e-02 4.809165714789083723e-01
-2.076989650192508780e-02 4.449227317199921927e-02 4.539736237910779182e-01
3.232137984872890391e-02 2.424317302848069677e-02 4.595900864508540851e-01
-3.623264065384128318e-02 3.473661071996146654e-02 4.496972381523903772e-01
3.043439159069889072e-02 6.181340679581345809e-02 4.901537027941176294e-01
-2.590838299962403349e-02 3.719305572184610637e-02 4.505391688940733053e-01
-1.047806904617083800e-03 5.857314029242484399e-02 5.232157087547986141e-01
3.652247297333360843e-02 5.057447175187804178e-02 4.856054849215806213e-01
1.535613807018121856e-02 1.975216153920054257e-02 4.497228526838346618e-01
-4.020529640472591398e-02 2.623416600452315936e-02 4.473798825307321314e-01
9.495445376971009890e-03 7.020627475872759371e-02 5.028723929192449038e-01
2.434157619444035289e-02 3.914284793961524817e-02 5.254126312851054026e-01
3.290351936081439138e-02 1.848418185698598448e-02 4.574451462536404112e-01
3.412004081344049977e-02 5.518854143070996143e-02 4.866810220999467917e-01
3.214280649470228901e-02 5.625579367374219236e-02 4.789517744725863557e-01
2.819521793949371011e-02 2.124571154421157557e-02 4.556824754753415752e-01
-2.934940779292871671e-02 4.825799235374259033e-02 4.570616899349502216e-01
1.263145492793609805e-02 7.558764805264851783e-02 4.922844293677969829e-01
-7.167217042224820027e-04 9.664174622837865686e-03 4.424336047339089140e-01
1.790154316818750799e-02 2.569699101058025431e-02 4.530649520091843963e-01
2.461370684276321247e-02 5.706855356235090992e-02 5.145856554630352520e-01
-3.401548877968355901e-03 5.301754127742761002e-02 4.579350458482571717e-01
1.426154725450106894e-02 4.564804298700123053e-02 5.308424927436861118e-01
3.361078690035436412e-02 3.366633666561270888e-02 4.652319834161628975e-01
-3.388784436971812447e-02 2.319423089421484424e-02 4.454140027498615928e-01
-1.276618944575735361e-02 2.342622123287488312e-02 4.457317984435633096e-01
3.021915647904694496e-02 1.703319831998489214e-02 4.550294407705893773e-01
-2.092192924413521782e-02 5.280915029103327996e-02 4.576736106059937081e-01
1.579916555212295542e-02 7.826077988327637472e-03 4.450343389392908966e-01
2.647125561442303932e-02 4.313167939706939735e-02 4.651612130062315886e-01
2.592676171931697707e-02 4.041043516716891215e-02 5.213631819945808710e-01
-2.020268145867912951e-02 6.018114210888754131e-03 4.386218311256394609e-01
-3.712026083692006317e-02 3.357775377488365909e-02 4.492629198207654384e-01
2.593745155923459986e-02 1.128391052724267082e-02 4.502004356322253376e-01
1.874728010014988996e-02 6.069680633562894029e-02 4.677806471013132850e-01
2.860962389201581607e-02 6.366063585712782025e-02 4.806594314447648064e-01
-6.459085865806427247e-03 1.178659724524738078e-02 4.423131260346812033e-01
2.457032358922997192e-02 4.234728373151225300e-02 4.635529385267913582e-01
3.235468630553138547e-02 3.661928541356607864e-02 5.145664686974239510e-01
2.018676942988195840e-03 6.006422460912696354e-02 5.180982944436492987e-01
-1.600575156228246573e-02 4.346445696125424141e-02 4.538831748008022582e-01
3.036912010763683986e-02 5.955940548741447266e-02 5.000172151734343373e-01
9.683151894435736498e-03 1.104906951199184639e-02 4.449658904099678680e-01
3.199246851050795148e-02 2.299825249565335891e-02 4.588054998532117290e-01
1.444318829004786336e-02 2.464255975793144468e-02 4.515491532912279116e-01
-1.837874067189532515e-02 6.046450765973389319e-02 4.680640925522975282e-01
2.329821373315985045e-02 5.991137981936403567e-02 5.137759905793104487e-01
1.058098098722735914e-02 7.792553617504940910e-02 4.815380723883511682e-01
2.496773685000754084e-02 6.291630169560766261e-02 4.738728575435259271e-01
1.420901084953592880e-02 1.154661096360666550e-02 4.461177516722944492e-01
2.300852289928696781e-02 6.885132900119897426e-02 4.988390884418362758e-01
1.087911744983012172e-02 1.012022788366605426e-02 4.448252292204851188e-01
-1.017739878315043409e-02 4.794687902746404967e-02 4.559019796515494383e-01
-1.914807658941303226e-02 2.430749198343185036e-02 4.453818269884267655e-01
-1.178287098574032701e-02 2.242797752990286376e-03 4.382278200854884953e-01
1.034300115005707191e-02 4.483610777947295845e-02 4.587307392400987172e-01
3.050530674795382327e-02 6.173078839079322588e-02 4.891717108332476749e-01
1.848556357939283232e-02 3.761941917815212616e-02 4.583515503254173562e-01
4.212447897975898914e-02 3.652378230891746569e-02 4.921515462752548142e-01
1.265185790070903586e-02 5.008069930722184454e-02 5.280954452834211166e-01
9.446360116918862612e-03 7.140683255557971065e-02 4.992815728776546780e-01
1.591837333637086821e-02 5.056484990515797834e-02 5.248191023401689304e-01
6.636856206807740209e-03 6.034372044896385567e-02 4.624582127387300567e-01
1.009381603364094618e-02 1.910434807120105910e-02 4.483084200995000601e-01
9.270898045432435230e-03 6.976629991136390485e-02 5.038412368742130054e-01
-2.387184651103418237e-03 5.779881623065756535e-02 5.236190244433004404e-01
-1.625488854501785235e-02 5.682549855185734661e-02 4.592356400113574155e-01
2.631605688498276849e-02 4.837824650327852971e-02 5.168588722684159809e-01
2.618354797399341516e-02 1.754175390568060711e-02 4.529372664350505007e-01
1.636105149901071615e-02 5.022113340144378213e-02 5.245948516394323136e-01
2.559352246289227709e-02 4.162300655406877409e-02 5.208421789705660609e-01
1.002096378326436561e-02 1.885330303079498296e-02 4.481913143979133762e-01
2.939611347163725505e-02 6.372485516677392492e-02 4.891154775068917715e-01
3.895213285012697618e-02 2.357811082455918417e-02 4.646915760743223767e-01
-2.402501641582896127e-02 1.290703142404718909e-02 4.409313489826854893e-01
-1.790166633652473527e-02 3.985309913825534761e-02 4.523157617861695012e-01
1.161286485329693016e-02 7.888607185986061532e-02 4.812187900351805880e-01
1.016253592498787134e-02 9.251955044028460640e-03 4.443246706944186664e-01
-2.131746106946485336e-02 2.071256811316880136e-02 4.438311525443107697e-01
-2.086729570717030247e-02 3.404228501229224907e-02 4.494660879590179348e-01
2.367124851498963317e-02 4.056281233177019135e-02 5.248942458914609421e-01
1.924923267048063089e-02 7.176352710472329310e-02 4.752477986950086053e-01
1.836431437647529502e-02 2.910072304820182990e-02 4.546787467947185357e-01
3.121026940040615844e-02 3.136035073076744173e-02 4.624038341770417282e-01
1.057883521774534777e-02 6.697377140333958534e-02 5.087209667498127086e-01
2.326679997812754891e-02 4.447001062589128750e-02 4.638410357302882869e-01
-2.856791270762528909e-02 4.644896909592674539e-02 4.557319920500211285e-01
