3.713226747586081955e-02 4.942258365227858441e-02 4.910150926381767755e-01
2.255242015604748580e-03 5.392817039600737022e-02 4.591855780863119962e-01
1.935276839545757230e-02 6.058617235933266149e-02 4.678166020838678274e-01
-4.218816015925015012e-03 2.379098436190048294e-02 4.473649038153677537e-01
3.347761413451458279e-02 5.523866540342211445e-02 4.813085019569552925e-01
-3.313449447641954315e-03 3.679905547178428243e-02 4.527612545882343520e-01
1.415000277452128224e-02 7.164869931813035164e-02 4.704036863685040482e-01
4.171302819344058221e-02 3.209132643162956877e-02 4.983145555969439311e-01
3.920449957212853581e-02 4.400779481412118999e-02 4.983537546761994674e-01
2.612970458880741267e-02 6.239414834423805123e-02 4.746159238116939294e-01
3.423120653865302510e-02 3.008198069176094142e-02 4.638150771179687659e-01
8.928600002200318131e-03 4.576471095586372162e-02 5.344700844003532625e-01
2.369681073579776170e-02 6.689637653206806367e-02 5.011546193296377849e-01
-3.028702538335193567e-02 2.245052593800961685e-02 4.447600564465101214e-01
3.781516307093739371e-02 2.267988532810868291e-02 4.630973366255220491e-01
-4.405362835389693699e-02 2.681814089549943228e-02 4.483279403599523816e-01
1.507014848962978486e-02 5.674267312816822992e-03 4.439111378371572991e-01
4.036266048806388257e-02 3.919263746383808839e-02 4.784834321915850119e-01
2.973780509227783378e-02 5.079216370990776580e-02 5.120171553690059385e-01
-1.307092216287260994e-02 -5.352259557240284134e-03 4.367058911611873540e-01
3.263433451820785258e-02 5.366907618786980610e-02 4.768735718995602002e-01
1.794013282492507369e-02 6.678445814445257978e-02 5.094536552508158733e-01
2.670500562115995721e-02 6.336085289755831462e-02 5.038123238071006149e-01
6.362891530910528941e-03 6.345232961316206455e-02 5.210392221004984670e-01
-2.173471624900111948e-02 5.318832147574849983e-02 4.579298265285171032e-01
2.765076276868033006e-02 1.696616652605454495e-02 4.534842530861879495e-01
2.999085945861109520e-02 2.356450889735748830e-02 4.577117713049157488e-01
8.528333577736066373e-03 7.901758781925609376e-02 4.788720867934860292e-01
-3.233302137794058506e-02 3.810643738135717495e-02 4.509481229098066812e-01
1.014478702633142722e-02 6.920940334363656632e-02 4.674522215471581532e-01
6.532641981340908330e-03 6.384369127903938290e-02 5.255972146306628900e-01
1.141354765011171925e-02 7.937220020252618025e-02 4.775513380832729360e-01
3.649327702502026122e-02 4.959062631890234774e-02 4.976565951597701765e-01
1.753333665462069452e-02 3.032401416941979053e-02 4.548868815944637767e-01
1.536566124293940391e-02 7.217709095613693282e-02 5.024338006346676933e-01
1.357129256756849436e-02 7.567238650303462211e-02 4.934799243891151987e-01
-2.588481896937555246e-02 4.618224703965567723e-02 4.550461517632551911e-01
1.518815158870638962e-02 5.007386063681022736e-02 5.260303088504812985e-01
-3.976884910503648146e-02 3.698181235267103406e-02 4.513218072973542716e-01
2.313127304020853175e-02 7.235393475419231446e-02 4.872456373793270790e-01
2.561736206977215796e-02 4.085965665057008506e-02 5.219694427960978045e-01
7.500540955254630590e-03 7.667247317009204255e-02 4.802002520964678278e-01
6.205447957654539656e-04 6.954587831293523870e-02 4.673033532224550868e-01
1.145836839719596885e-02 7.521220673149639491e-02 4.940888934875361516e-01
-2.598481613284777877e-02 3.482972260332332926e-02 4.495132410259527478e-01
4.145643041031351478e-02 3.368464715904455342e-02 4.760232372726214134e-01
4.235255188583358227e-02 3.087607769598805715e-02 4.757564166165906827e-01
-1.299713272924908451e-04 5.928716430637447771e-02 4.600763807315505494e-01
4.220161500971725960e-03 3.589749690129450527e-02 4.538303698311154655e-01
2.077505199492554744e-03 9.679619563642844621e-04 4.396742330436536061e-01
-1.713238743866645278e-02 1.024521325203647283e-02 4.399291540442606951e-01
-2.857103225324536533e-04 4.079947176528832958e-02 4.548213812097240960e-01
-3.549512037069076781e-02 2.832449730912812297e-02 4.472480201699440827e-01
1.861700522611501110e-02 6.591491562262644099e-02 5.109218471198665457e-01
1.304824016572234471e-03 5.987145372523952624e-02 5.166147679161126050e-01
4.174812760456828031e-02 3.813367417764477324e-02 4.880429034958820855e-01
-2.505840714209510434e-02 2.930836531802364503e-02 4.471824972723107416e-01
-1.722296711722223414e-02 5.293827331850792933e-02 4.574614020401557291e-01
9.622308544151272208e-03 5.204156759465349696e-02 5.301831309048378182e-01
-1.549365925180587987e-02 2.651129124030180556e-02 4.465860499692632102e-01
-2.382547297278180681e-02 3.452352501559270703e-02 4.493938473739348960e-01
3.717333939110042257e-02 2.974607737579832573e-02 4.662900644263044403e-01
3.181484861956932614e-02 3.445952107268094450e-02 5.177686759790747217e-01
2.576934508672252405e-02 2.206332407914590385e-02 4.547194972342580299e-01
3.476652314828325430e-02 4.872696007130922907e-02 5.059107606542363467e-01
3.204769430558471188e-02 4.139749581683602880e-02 5.137240433579328691e-01
3.568350692280347625e-02 5.193509479533623546e-02 4.920250821439220434e-01
8.331104381726267549e-03 7.847133210814184745e-02 4.792120895494118571e-01
-3.047496049530493221e-03 6.834577986146737894e-02 4.659860180503042626e-01
2.144398741397749580e-02 2.569385898013143432e-02 4.541518374055942275e-01
3.109987980018696224e-02 4.644312140667515576e-02 4.703271874848327094e-01
3.081117677987270029e-02 3.738638606509708112e-02 5.161150816278340381e-01
1.577967148812818229e-02 6.337008564193376270e-02 5.197737676512437233e-01
3.706262033128700228e-02 4.955678775567161354e-02 4.909926038845275897e-01
4.212592652575365693e-02 3.364794358276888830e-02 4.960060902390471815e-01
-2.316285569513907086e-02 1.990482565650391819e-02 4.435234399783528625e-01
1.677551720314588574e-02 2.492854794216296452e-02 4.523309486853333561e-01
2.981417641116318809e-02 4.959869284470541650e-02 4.710933567215566109e-01
-2.110283903683188300e-02 6.296663914091752030e-03 4.386977155791305649e-01
2.776103998960288699e-02 6.569552254874710950e-02 4.829054821188444868e-01
-4.228698724038952583e-02 3.738119860657048571e-02 4.524559837890043679e-01
1.653410421000422320e-02 2.245196749963509000e-02 4.511348785718967136e-01
3.408613111125741169e-02 5.303582609836029332e-02 4.802761002691374181e-01
3.519812902313289305e-02 5.032223472652002511e-02 5.024532052402408411e-01
2.563086574947185531e-02 6.020276005465519803e-02 5.104940641192915463e-01
6.746941727281435168e-05 7.013825618277147456e-02 4.695944194389080617e-01
4.090018841411839634e-02 3.130765443397336145e-02 5.005933632156160940e-01
4.251397476923064050e-02 3.343614319619221675e-02 4.800111457517629021e-01
4.384995645191225311e-02 2.561696470740627146e-02 4.754079933537472269e-01
3.273462879520865759e-02 4.421834693060382182e-02 4.702989571721695738e-01
1.976027173025391576e-02 6.673979459235293565e-02 4.711988856166893780e-01
4.185591201648748011e-02 3.600906907014644193e-02 4.813032599546383516e-01
-4.335198210232587591e-03 5.080145902193723695e-03 4.401213364808607142e-01
1.196149095790248820e-02 1.073131429270521645e-02 4.452888023412314156e-01
-2.441412757049356633e-02 2.059620965809445294e-03 4.378425568302724002e-01
2.622640191112292699e-02 4.488259558898147032e-03 5.319401014792496385e-01
-1.975230815724640654e-02 4.465417676599682528e-02 4.540805291432080115e-01
4.162395769012892238e-02 3.236821907183842079e-02 4.752798238113704610e-01
1.884687614364154856e-02 7.605279662627924264e-02 4.876859727198095684e-01
5.634091286961803204e-03 3.607278178120311429e-02 4.542094419478680534e-01
1.324138803843284348e-02 5.249545420672856177e-02 4.623513743441282631e-01
2.468697900960529872e-03 6.085341068926665431e-02 5.321718901634218124e-01
1.741265276515691768e-02 6.355379821642448412e-02 5.171448496618912261e-01
3.771585993278941951e-02 2.965963063116406825e-02 4.667040353141695963e-01
-1.067307552299861899e-02 9.355318422942982340e-03 4.407366826850164232e-01
-1.568722695677356171e-02 2.839583558800609642e-03 4.379648774263106281e-01
3.120498677094709836e-02 6.042150670047722466e-02 4.870144940532118438e-01
4.499258324624914873e-02 2.665179427028254583e-02 4.860652941967927299e-01
-1.808128816617070658e-02 6.008648334221038112e-02 4.638501894999319530e-01
-1.213645237183190451e-02 5.532414244389280422e-02 4.581655014742251897e-01
-1.054213156919142115e-02 3.603362171733295264e-03 4.388478275998780598e-01
1.048724956419044667e-02 7.200653625933195467e-02 4.694889267318717585e-01
4.031088323457474032e-02 4.161756056218868932e-02 4.955762567653254624e-01
1.664681862765565040e-02 4.689869150758359945e-02 4.614557347376631591e-01
2.883188393120800219e-02 6.050873020729196500e-02 4.759766267660329175e-01
1.571630060926335754e-02 4.456638613734710541e-02 4.602440685523861985e-01
9.951447280724239411e-03 2.723832003797818993e-02 4.515692695064760787e-01
3.078898565263643930e-02 2.876586745531614295e-02 4.606857636149252477e-01
-6.907964081959606581e-03 4.864775549351755060e-03 4.397218547219134965e-01
4.583195945737257582e-02 2.280837753183734273e-02 4.818433689240297912e-01
3.081837811614921915e-02 5.677898998721882251e-02 5.043373047856325453e-01
6.971599337822697966e-03 4.844649348621227203e-02 4.589385394986414402e-01
4.428375169215417739e-03 6.189125152177745587e-02 5.200316211905517960e-01
1.262622402553706565e-02 4.632721478007868765e-02 5.322730666242487807e-01
2.856508012841544805e-02 5.593070874282442262e-02 4.732612939128582052e-01
1.653626830185509280e-02 7.282502109908607635e-02 4.734812032372514579e-01
-1.036306070297427634e-02 -8.646554781456271960e-03 4.364554755442898171e-01
4.080364561278185254e-02 3.629709575545420758e-02 4.994138600544275053e-01
6.127820481228944682e-03 6.259205124114451679e-02 4.631492995299489324e-01
6.747772793118162263e-03 5.210160558224607996e-02 5.330352587943425480e-01
-2.841376442020667609e-02 4.187239741250672886e-02 4.526428855810125107e-01
4.360525704134232336e-03 4.610540363501282324e-02 4.575142321871729645e-01
2.437408294308171866e-02 6.912671499934566754e-02 4.943217772105382157e-01
1.574943681638988485e-02 3.946394352432686797e-02 5.320665624876145250e-01
1.490307323416124180e-02 1.571419175082585523e-02 4.479489056207378583e-01
-6.006405605920220499e-03 2.433007425254679265e-02 4.472401996941274827e-01
3.565026533173763779e-02 5.029264792963873687e-02 5.006625372787009143e-01
1.992850767229679271e-02 6.618560836319448137e-02 5.088758260818734280e-01
3.507588619046482503e-02 2.231700121624432404e-02 5.196160043396256256e-01
2.404122627145787588e-02 6.248043626623404206e-02 5.100125887194802976e-01
1.790906134918524711e-02 4.106408725546424610e-02 4.595258445643247147e-01
2.214242820490767288e-02 6.388727871929250623e-02 5.108303426152954740e-01
4.181585643516085721e-02 3.597003134957916376e-02 4.951231949822046952e-01
8.562951632989489886e-05 4.236483499022669630e-02 4.554459672326030550e-01
4.323040888218210309e-02 3.265559034385722564e-02 4.858247579871953770e-01
-1.332357267137624333e-02 2.495109434347946367e-02 4.462231960306180523e-01
1.509768654919615288e-02 6.332131889016702486e-02 5.208181230993023103e-01
1.955398158231622802e-02 4.175684740026217034e-02 5.295880868912048456e-01
1.304843216558771932e-02 4.309647116444333126e-02 4.588732858339485410e-01
3.514933891115067099e-02 4.530541613371132786e-02 4.741717862248980286e-01
1.783728529486688225e-02 7.017602484656497441e-02 5.044266546314866151e-01
2.938855567720167691e-02 1.634351409311802367e-02 4.541976171573066101e-01
-6.214040910528440508e-03 2.503928635839049871e-02 4.474974515071377668e-01
-3.925714334221428597e-03 5.919824446327749679e-02 5.284347285212709355e-01
-3.591674465290175394e-02 4.284314043505275948e-02 4.549795342834938028e-01
1.165115597303735540e-02 7.538527294490458830e-02 4.931474979864871044e-01
-2.900079868883984752e-02 4.636541738503181104e-02 4.557444990949629515e-01
2.004266911093403880e-02 5.712576221821118183e-02 4.669522549269817246e-01
3.106207407769235804e-02 5.565011115949202586e-02 4.757342706160979096e-01
3.874911755163405053e-02 2.329496742977849380e-02 5.117468860335522285e-01
2.787437676518942850e-02 2.796165106283399898e-02 4.585562021647213160e-01
-1.959993456525618849e-02 2.375567253401722131e-02 4.451134789531130953e-01
-2.160611244055092584e-02 1.325479502107729766e-02 4.410290325326141625e-01
3.718749487161105566e-02 3.896968606843264488e-02 5.071986073927396976e-01
-4.033560715952286962e-02 3.498993032455555846e-02 4.501889026260617044e-01
-2.468310073325352336e-02 5.821395434824720716e-02 4.650672667863768317e-01
4.052721316869250384e-02 3.280127466254140201e-02 4.732826907381562087e-01
3.596516885848965311e-02 5.154656486791776848e-02 4.912995992358987762e-01
3.275348158510092700e-02 5.740969204908856482e-02 4.927453116755445839e-01
-1.402396251632175364e-02 2.440334432885499748e-03 4.379732833102591427e-01
3.777080817933167745e-02 4.788148062555030310e-02 4.928661661261785620e-01
-6.245085804675659484e-03 3.457128601549955098e-03 4.393160299924641632e-01
-4.139855043434832044e-02 3.175077194570283257e-02 4.492069683530085511e-01
3.173185970860143389e-03 1.410542705245950920e-02 4.449187133360852364e-01
1.235107403294339115e-02 1.504192543384509639e-02 4.471361132428015028e-01
-1.562853832916275346e-03 3.390555417516882830e-02 4.518886672823459461e-01
-4.134899024238465615e-02 8.687051487944437780e-05 4.411629994251654030e-01
5.462794966216400275e-03 6.990608213830841466e-02 4.670068674108402984e-01
1.118195194191395903e-02 5.006738889812087367e-02 5.297485603891090022e-01
1.463102367665022538e-02 4.564412151009966667e-02 5.309782320406938316e-01
-2.657005338174399378e-02 2.226827967222995766e-02 4.444170961101449047e-01
-1.891881186585463864e-02 2.979513870039986190e-02 4.477483538956057996e-01
3.546946360483355792e-02 5.130418578131770713e-02 4.978456244786237384e-01
2.675609049946396298e-02 4.053262826213614028e-02 5.200650986980085433e-01
2.538683430366521152e-02 2.915950073978535242e-02 4.577430584199239094e-01
2.580194627692194986e-02 1.247013433538748592e-02 4.506041059233844570e-01
-2.321550809947360919e-02 2.435323495919962389e-02 4.452194955835088730e-01
2.135445821069345551e-02 7.364425839181809597e-02 4.924349139566088773e-01
2.618107676662485145e-02 5.161589455882433647e-02 4.690534939241686740e-01
1.929314354340872645e-02 4.188326387467016659e-02 4.606045186260487312e-01
-2.791342594276203376e-03 1.323693808464621903e-02 4.434798066497810387e-01
1.573584637408191253e-02 5.262667247477245680e-02 5.242059028835711620e-01
-2.029365881413755859e-02 3.538593363820599635e-02 4.501086582855411411e-01
-1.947234298427206328e-02 2.114299655988658572e-02 4.440668402506063317e-01
4.140344383161068814e-02 3.901092668731188234e-02 4.934235207125701184e-01
3.328619872082803910e-02 5.501390532472932859e-02 4.989453377909449094e-01
-1.671168615646841105e-02 9.020875671295050177e-03 4.396083445581617788e-01
3.101477271755947659e-02 3.721060382791655657e-02 5.159206165590385362e-01
2.455710049319047988e-02 6.502391159557495415e-02 5.047381127618546515e-01
-2.489416848197487445e-02 4.500593308630759098e-02 4.542865016611539186e-01
-2.211719716058895349e-02 5.889439072528102059e-02 4.640804035012582873e-01
2.679820412841609281e-02 5.246062275035814904e-02 4.699448187382073705e-01
-1.565449029219253760e-02 4.769501481080049704e-02 4.554941199899197324e-01
-1.059619414361804429e-02 -8.452459384621743149e-03 4.364731092684901448e-01
2.078476737995706494e-02 3.939349457267911359e-02 4.601956528419648418e-01
-9.115878477350399661e-03 4.526521929827764801e-02 4.550365164296383824e-01
3.882443762101077389e-02 3.984892769299723525e-02 5.034042988806914920e-01
-2.209649407717142675e-02 5.306715797090889863e-02 4.579412799348225316e-01
2.789628424907375503e-02 2.976729608361857599e-02 5.257054141073916886e-01
1.533848802368415788e-02 7.736420024904366866e-02 4.826486758294859514e-01
1.126556085409777946e-02 9.138301261508292167e-03 4.444879272531384595e-01
1.523271136225185993e-02 4.496058365726678108e-02 5.310833546456134036e-01
2.203895931238136416e-02 2.182429247289500995e-02 4.526689537547458064e-01
3.673441693540463286e-03 1.462630452876553799e-02 4.452230266845352835e-01
1.898826173208974927e-02 7.210240102994806832e-02 4.750515187293700703e-01
2.421382235563450391e-02 3.695631368702203406e-02 5.275336765082390134e-01
-2.296938575593285292e-02 3.367389447977503503e-02 4.490885255162115341e-01
8.013424615180805496e-03 7.883085154039269626e-02 4.754381715872973424e-01
2.547043206982418581e-02 3.288046836847412918e-02 4.594905584163694878e-01
1.752919036849583112e-02 5.398815963259644135e-02 4.645223374068405131e-01
-2.200246522555672490e-02 3.576051518302385962e-02 4.501204315988617255e-01
-3.075269942631596743e-03 6.849083027783309241e-02 4.668261353918485290e-01
4.552620690421849137e-02 2.398138278578575144e-02 4.823394407592054289e-01
-1.472137733365610351e-02 4.176891351997858576e-02 4.533919821745814871e-01
2.228857144498266885e-02 1.547313284640147203e-02 4.500889765155359767e-01
-2.696671167478227604e-02 1.007118790394592213e-02 4.403320060945957737e-01
5.395522897965860341e-04 4.268234393454030384e-02 4.556392068908290405e-01
2.182284226363510188e-02 6.877602313702571579e-02 5.016941695763876830e-01
3.008439418193915166e-02 1.964094671347845975e-02 4.560499117618684872e-01
3.364119000994125058e-02 2.502340573802656898e-02 4.608650937849845253e-01
6.257334018375955952e-03 6.370922243258732298e-02 5.216096120526728663e-01
1.949496618156193462e-02 7.549206146412167084e-02 4.845797850326440948e-01
2.664567162489063501e-02 6.772254233628838271e-02 4.860260884888449318e-01
4.124598995635824633e-02 2.818520924459394505e-02 5.021080933459427520e-01
-3.632576197073181246e-02 3.280970317972547838e-03 4.396979486235740864e-01
-3.844473335888169002e-03 2.903635770595591054e-02 4.495526656556125822e-01
1.185033036654479545e-02 7.230390752442585056e-02 5.010443812378244655e-01
2.999652073176369005e-02 5.138986141233083116e-02 5.113007365359704126e-01
1.390224049273947743e-02 6.235760246733298637e-03 4.438881845232623968e-01
-3.154793492449308595e-02 4.874630191518300459e-02 4.579403052580571232e-01
-1.391744375405791143e-02 4.246332869594676013e-02 4.537263279047648035e-01
3.318774468640319636e-02 2.930819147810628800e-02 4.626597082604068101e-01
4.330738998240413890e-02 2.662773613134460787e-02 4.747735659525312291e-01
4.835339372181463730e-03 4.511197018082301058e-02 4.573436767633500266e-01
1.505149283933350339e-02 7.610095264922463187e-02 4.776521897779409942e-01
-6.312031428972638726e-03 4.014543886854820415e-02 4.536540555496797467e-01
3.050101399173690137e-02 5.607382592466546994e-02 5.074404732867349166e-01
2.971828294583815817e-03 6.756814515087619655e-02 4.651907757847179026e-01
-2.056924711259711450e-02 3.274404756486630486e-02 4.489094106861573064e-01
-3.474925370491795465e-03 3.387210641757310015e-02 4.515865775959405082e-01
3.238438826251309466e-02 5.691987220772107281e-02 4.978042501262445740e-01
-2.565580579777414910e-03 5.778139530878983327e-02 5.230494019819096341e-01
4.791175592052736645e-03 5.867708798221267508e-02 4.612067874670661705e-01
9.702794487646798638e-03 3.152259838377200613e-02 4.532640023081606628e-01
-1.806165482075406184e-02 4.588083998751679021e-02 4.546470955290053406e-01
3.004336966673319675e-02 6.115424543920688905e-02 4.801289794619961748e-01
3.169680017208559991e-02 4.003313415080542864e-02 5.147798015863946919e-01
1.745890495760608202e-02 7.628747717103266657e-02 4.899818513521051466e-01
2.366344938163910880e-02 4.975683937021821435e-02 4.663604515630908609e-01
1.136054787681327338e-02 1.580214225065398881e-02 4.472305709336390489e-01
2.578147960012556680e-04 6.148920506510034689e-02 5.339582486817773255e-01
3.324516852996160787e-02 5.314955151779246489e-02 5.034673701843681570e-01
2.941686707136236326e-02 9.053946520066849177e-03 5.279311925942482553e-01
6.434781907692220960e-04 1.651852353894649184e-02 4.454035134523479655e-01
9.583312337904104083e-03 4.454516274053811620e-02 4.582809045830873451e-01
-3.650627688393580372e-02 2.206670033075670834e-02 4.454608395434358492e-01
4.348788598686586376e-02 2.513926213652346170e-02 4.739589998970761275e-01
2.736639284718871482e-02 9.411400782987102559e-03 5.280945013767734952e-01
2.317459254732732662e-02 6.352325611564645091e-02 5.098464512081474220e-01
2.375663216851517032e-02 6.528730069479976583e-02 5.058413991919579189e-01
3.497442505525580336e-02 5.294119429930596588e-02 4.833403906172404896e-01
4.322841237688872934e-02 3.046903126058085262e-02 4.789144402532007905e-01
3.254567714949350987e-02 5.116503053066209089e-02 4.750037633926150193e-01
1.505302492869091055e-04 3.516650287006065773e-02 4.527251667181355632e-01
1.213281351405292446e-02 6.698344100575913396e-02 5.096168036900280418e-01
2.928319494348439328e-02 1.565364042293986360e-02 4.538445392431213476e-01
1.465337345655176073e-02 4.605226365013953549e-02 5.305348268889298335e-01
9.436472239424257766e-03 4.330979504900033666e-02 4.578180601428072927e-01
1.112423055592043353e-02 3.754350594027960897e-02 4.560590023700289986e-01
4.198465733721945536e-02 3.551396453265892594e-02 4.810773979432051428e-01
4.239742831012051176e-03 5.383015981002790828e-02 5.348195503358206260e-01
-1.753578854643834603e-02 3.153893650986069191e-02 4.486837433300110423e-01
8.357242028390905048e-03 4.798996686478427739e-03 4.421603901755831734e-01
2.589252118197470261e-03 5.407919166076242956e-02 4.593245932183561697e-01
-7.066005822315951646e-03 2.712827110061313135e-02 4.482085668931856670e-01
2.211552935656286786e-02 4.327507788587253018e-02 4.626144832820488495e-01
4.250902248382503607e-02 3.391694018639121455e-02 4.815234788284373790e-01
3.295449463486448127e-02 4.609562836337817437e-02 4.720095389507288353e-01
1.519468613103929465e-02 1.171595970698230058e-02 4.463852031848846158e-01
-1.519265593237183881e-02 1.983842752259949195e-03 4.378140867259358582e-01
3.218329745202879594e-02 5.463798156172906123e-02 5.041126852222106436e-01
-3.818579628293702899e-02 3.569760133144193881e-02 4.501915961501278818e-01
-6.274387879552412867e-03 4.616036859387026570e-02 4.555583722774820266e-01
2.888138474502233849e-02 3.688276243998250825e-02 5.208308985277175784e-01
8.770677353288045680e-03 4.114892944616938691e-03 4.419644992212736767e-01
2.108002900312130543e-02 5.779997814323192817e-02 5.184448667454590876e-01
2.762669862182769512e-02 6.221916095699258492e-02 5.039065128586209807e-01
2.086287198205591387e-02 4.375350814337525956e-02 4.622167701030544529e-01
-1.359377952303513978e-03 2.023824160211680490e-02 4.465100380780809286e-01
5.060366538009920638e-03 6.248076371059640977e-02 5.210890381691029027e-01
1.462943190750474326e-02 3.133617890273515498e-03 4.427448923155218874e-01
4.398760420883989636e-02 2.953241371566971835e-02 4.836752028763898204e-01
-6.638136575470921993e-03 -3.632851529953686279e-04 4.380396799510086203e-01
1.886082597701341929e-02 4.499466540928680897e-02 4.617873359257390065e-01
4.249848363550953745e-02 2.433188075803395176e-02 5.021103203727940167e-01
-1.610994285302540848e-03 3.517340287546227157e-02 4.523875177730843355e-01
-2.496987615717627396e-02 4.469233188609233673e-03 4.382912768722149188e-01
2.005175529544389601e-02 6.388778797449759517e-02 5.137259834888091570e-01
2.328819188449569172e-02 6.079807302251218765e-02 5.130231565934788573e-01
3.098277705122202269e-02 3.786127322723684824e-02 5.158617993294530857e-01
-1.261653909888220924e-03 6.864648851213653313e-02 4.658627226639819874e-01
3.749259704955971995e-02 3.561852987328980452e-02 4.699262543365655964e-01
-8.372939576317642296e-03 3.467128278006961078e-02 4.512594244631510376e-01
-1.079800801382166386e-02 -4.942771182714628467e-03 4.367960155066999417e-01
3.034150255742840488e-02 4.454729244056996468e-02 4.684483325547261767e-01
1.926769614636417161e-02 6.728829381889797623e-02 5.071486940946239308e-01
-2.811532635201665839e-02 3.310961661259990974e-02 4.487808132313744758e-01
3.929430593093930640e-02 3.317508051570807609e-02 5.040892126402778395e-01
1.087604347719949016e-03 6.321539281683473399e-02 5.284693986594679593e-01
-1.290482990530673543e-02 5.396880225230710898e-02 4.577301896646295276e-01
2.282994265488288987e-02 4.006637014255542278e-02 4.615284041815521099e-01
3.202881221831332947e-02 4.906072563483678678e-02 5.099793929208931154e-01
-1.007860830100780133e-02 5.204466003267070595e-02 4.572253522735071352e-01
3.699322443189864695e-02 4.656113917253925510e-02 5.026087682160466086e-01
3.830042744509425806e-02 2.886937467146798164e-02 5.088116817032803940e-01
2.129795793473772056e-02 7.208915937127591267e-02 4.962689963100807566e-01
4.182135507762732574e-02 3.581465570511147695e-02 4.802853210104232606e-01
1.043955970416758292e-02 7.362499708001607468e-02 4.716380812546341339e-01
-2.897407381544219243e-02 3.067744797471464585e-03 4.386827195981659600e-01
-2.032572708470452294e-02 3.966156936792582244e-02 4.519816414593967879e-01
1.441586977843387594e-02 7.073957932015817462e-02 5.064626029308936239e-01
1.445207706549628962e-02 7.721012714843923652e-02 4.806347266984001276e-01
2.296847822579584780e-02 3.613736820154375695e-02 4.596865941988817483e-01
-3.966609239981646814e-03 3.621274019737093924e-02 4.524692850384645082e-01
3.118156333372851946e-02 5.935744464703771039e-02 4.965884127447266483e-01
-8.215104464841065796e-03 1.774625710023188321e-02 4.443057952619761664e-01
6.887149719980641474e-03 5.758368826199187357e-02 5.296166438179666924e-01
-1.959596910444415252e-02 1.397363833336736152e-02 4.412597810501708295e-01
-3.431762849028035904e-03 2.094279993311782065e-02 4.463928612836260967e-01
1.047749616942714873e-02 5.484686472457348666e-02 4.620518497995331209e-01
2.887768162105830774e-02 1.548029142990370484e-02 4.535453034713495257e-01
1.362178554409834361e-02 4.890344211875886915e-02 4.611663207966646416e-01
2.607556365499631712e-02 3.610584894576079201e-02 4.613922441225258853e-01
-3.004258839067695461e-02 2.574920735684229148e-02 4.459774778152730823e-01
-1.086672035920047824e-02 5.479574460689017046e-02 4.579635355776267569e-01
8.522486382909155028e-03 6.436041358466659812e-02 5.198080881923481389e-01
3.197539790090476314e-02 4.445214296555181216e-02 5.124402911289843709e-01
-2.211150970423210807e-02 2.359643796109341801e-02 4.449264434763675058e-01
2.307952604624492060e-02 2.444164347635169668e-02 4.543988224054120173e-01
3.608261655539853063e-02 5.085944671399913325e-02 4.937771815795454211e-01
2.395629436816335348e-02 1.213907202329824603e-02 4.494784422912916910e-01
1.578590276600356709e-02 6.075681372995202223e-02 4.661681020135807763e-01
2.429749147278920454e-02 7.008696333235581166e-02 4.912755960052101467e-01
3.803016394534401018e-02 2.595776902491517615e-02 4.650993347857427240e-01
8.019768463948011772e-04 5.052438683016995807e-02 4.577977826621605906e-01
3.586963831115951712e-02 4.153485881171174732e-02 4.723304978310397528e-01
3.247891660524557245e-02 3.411012753352864191e-02 5.167217670637096472e-01
3.379122924701641242e-03 5.034354112309030738e-02 5.366030783063976406e-01
-1.299220444207060954e-02 1.050138470800861257e-02 4.407566588788448536e-01
-1.229581793329125386e-02 -3.667385721145911652e-03 4.369014646731222973e-01
1.873897092200005332e-02 1.074920342833333986e-02 4.470298829632372573e-01
2.971905934505129476e-03 5.346529257515766215e-02 5.369709394947396186e-01
2.595560288802876633e-02 6.344212529060604122e-02 5.056310660352891784e-01
3.544261528135000255e-02 4.904805542249303374e-02 5.037572421475638995e-01
-1.381220777641369198e-02 5.631212321542890947e-02 4.586420379782998880e-01
-2.013333886222730754e-02 4.435420154666833148e-02 4.539302800364206081e-01
-3.753969663766943549e-02 3.807623438989087006e-02 4.515112197116211701e-01
-1.160264983760070714e-02 4.748542473479687442e-02 4.555624171866861638e-01
-4.519619719138202006e-03 5.891707870867460284e-02 5.342236545600101971e-01
1.865334296709358561e-02 7.293131095546211140e-02 4.995418333729284566e-01
3.964335090920039981e-03 7.279430947548896913e-02 4.717559054800896656e-01
-2.593822236526350383e-02 3.961355710676004761e-03 4.383610315374015798e-01
1.577720918359418190e-02 4.500357138674910412e-02 5.304959052076824166e-01
-3.944048904228046604e-02 3.153426136421955128e-02 4.487465201362521583e-01
7.772763593396132820e-03 4.753893883945399523e-02 5.350474630767928508e-01
-2.846443397055953978e-02 1.567805605113062328e-06 4.381545446463768756e-01
1.853829252793796553e-02 7.584093550671475170e-02 4.898269756884884862e-01
3.673655851125032928e-02 3.973243884798305370e-02 4.721000869123390675e-01
-1.652636058719560846e-02 3.352604451440696631e-02 4.496708669761902977e-01
2.983396832441110452e-02 2.833803167315655791e-02 5.243120864400911962e-01
-1.989555551991616100e-02 3.530578258494833366e-02 4.501139830783226770e-01
1.888396515616718591e-02 5.176358472285273737e-02 5.218782110141786390e-01
1.372981833283499695e-02 7.594407856557142122e-02 4.917454708037104494e-01
1.448613011283462690e-02 4.385864200512663846e-02 5.328318874009329020e-01
-2.595370687013964436e-02 4.778545461485975837e-02 4.560262221650853709e-01
1.034165578043473935e-02 7.480297282610787191e-02 4.958116460786671231e-01
-3.191137917811016911e-02 4.520736881179126393e-02 4.555809617808754264e-01
5.526909938522265101e-03 4.965008185054884532e-02 5.359606884207473998e-01
2.843396082640614608e-02 2.251035715576245669e-02 4.563182525562429759e-01
-1.909946164879532116e-02 4.014078458262274746e-02 4.522905638790947203e-01
2.798831228275366900e-02 8.883856189465038147e-03 4.504375837343203570e-01
3.485218828417156051e-02 2.205439173338853004e-02 5.199421763228829763e-01
1.229556391940229629e-02 6.424242596749960010e-02 5.215173747104544510e-01
-4.037003323893249840e-02 7.312723335477259393e-04 4.412112209262373241e-01
2.600827594816670571e-02 6.641599554818450324e-02 4.967320698639644538e-01
-3.023445490302679659e-02 4.974726718327882047e-02 4.581085274158023246e-01
2.926818007072671743e-02 5.857654683467475656e-03 5.309010732826079382e-01
2.587891822298942629e-02 6.127689107157201914e-02 4.735730369646558024e-01
1.034514461495433801e-02 1.967582312653804594e-02 4.485668135769418918e-01
2.505969296227509788e-02 6.567543054622958232e-02 5.007656410257006474e-01
2.001637768982878623e-02 3.680269038902596324e-02 5.300479927027668126e-01
8.549820551191300577e-03 4.714848044900626228e-02 4.588772146337741220e-01
3.428860545065090526e-02 3.247477234617231895e-02 4.651051325005526316e-01
1.483906926843849526e-02 4.590800867639389937e-02 5.304984487151120920e-01
1.758066296622193617e-02 5.209821451370858988e-03 4.443136511246910669e-01
2.129208705185012609e-02 6.554710541987369965e-02 5.089642854539068173e-01
8.869553060415324292e-03 2.014103298505297637e-02 4.484342489302652890e-01
2.335737031783689799e-02 5.789489591597114793e-02 5.155691251218673665e-01
4.347902734439970662e-02 2.449215728691998828e-02 4.986857212522205485e-01
1.223246827819618465e-02 7.444336350532904101e-03 4.440254768921696460e-01
2.148483482294613611e-03 2.969995930858299396e-02 4.509472126241562684e-01
4.498689214704042205e-02 2.581471506014259773e-02 4.903396620529751337e-01
5.216525739581145960e-03 2.099934902032971756e-02 4.480634845039366820e-01
1.452817583818622263e-02 7.384438176965565925e-02 4.730453648042242665e-01
4.591805160580513315e-04 6.275878380578159277e-02 5.320987382535359300e-01
-3.439765941472081034e-02 2.595253073006848626e-02 4.464477330108094222e-01
4.592831822276858406e-02 2.350936095205113929e-02 4.883336080405918933e-01
2.211421019108399111e-02 3.137903969647729691e-02 4.570590208897725160e-01
2.120351461772377114e-02 1.928990763318981158e-02 4.510910263455236713e-01
7.228720346462417026e-03 4.756817820482273779e-02 4.587087938296899314e-01
7.563757867641998124e-03 4.534696437934714747e-02 4.580545947269827334e-01
-2.367798591081334697e-02 2.800070855072657461e-02 4.466639390387904807e-01
8.214036951772725817e-03 7.283716790826093301e-02 4.700024409095008848e-01
-2.304360044811348124e-02 5.067342820681096718e-03 4.382466123592392293e-01
1.601275263180036712e-02 6.230419471076364957e-02 4.668920299486815084e-01
-2.695747573592279650e-03 4.353296538165726121e-02 4.552477293507605771e-01
2.087325342536279840e-02 6.891834523325859885e-02 4.737229886582794980e-01
6.840650155223481840e-03 3.266477214600527201e-02 4.530982183161607613e-01
4.251525388554794338e-02 2.493285799824259547e-02 5.014419200207550498e-01
8.480227370581454316e-03 2.453157542115607520e-02 4.501239356084777432e-01
1.914115685857293789e-02 4.450585061772476675e-02 4.617125112677209486e-01
3.990332942078105016e-02 3.345142600119197646e-02 5.025953034919735662e-01
2.799974183123903407e-03 3.115021101962579461e-02 4.516554859727993088e-01
-2.339015448959632509e-02 2.030183264086985948e-02 4.436735426437169449e-01
3.694004084593661280e-02 3.221747076903998946e-02 5.097901063929667353e-01
-1.473283343256098082e-02 -6.698188661297132390e-03 4.367119019801685709e-01
7.538522744394435607e-03 4.524966207713428112e-02 5.346574230690455121e-01
4.530357677837035246e-02 2.578232426230497518e-02 4.887244311027052479e-01
2.979001542568331801e-02 5.886611299896926663e-02 5.036319525052804780e-01
4.201616123368295819e-02 3.726994862689093913e-02 4.879440080573404503e-01
2.239579822935303804e-02 8.784626469849622990e-03 4.476114301905431692e-01
3.675311542544933141e-02 3.568476093554610179e-02 5.079212803702227719e-01
-3.935618980170479952e-02 4.009361085698982113e-02 4.539277073933398188e-01
2.606506816452999059e-02 5.066647072186345607e-02 4.684980114184452704e-01
2.519994623026905467e-02 8.162585607435808230e-03 4.484506724575119119e-01
6.725873580243067404e-03 6.454886446284818780e-02 4.641650336099014673e-01
1.252298310699628478e-02 7.662653839147659518e-02 4.863200840528230096e-01
3.865709842306663813e-02 4.294507958956932103e-02 4.785386262421664205e-01
3.713685745283575729e-02 4.889531729794650838e-02 4.837387759327697045e-01
4.100069517565477217e-02 4.010546809620380015e-02 4.938968167596967662e-01
2.217654273182586774e-02 4.038506802654096006e-02 5.277539459215495610e-01
4.189630723587323829e-02 3.838440003140742435e-02 4.909249224054060279e-01
2.495558611946784369e-02 6.360142890038444907e-02 5.071967541736100982e-01
6.992366977770782602e-03 6.663727713814016074e-02 4.654770453278896380e-01
-3.954245805753126876e-03 4.338170501313506899e-03 4.399114050670334675e-01
3.026792684174110099e-02 6.146603217087531074e-02 4.942311385210803598e-01
3.418819075499633653e-02 2.303404900077455145e-02 4.602880277886904348e-01
3.345407272854843128e-02 3.519144891750158183e-02 5.135782471656602510e-01
-2.816505811400695988e-02 3.536263200205264079e-02 4.497333855937987179e-01
2.113220916236439526e-02 4.230029784472389559e-02 5.275690147451438383e-01
1.701061752348069153e-02 6.696254451021012299e-02 5.101200308806472794e-01
1.272470297027915483e-02 7.815346494002792244e-02 4.793317230712600963e-01
1.218758656394909774e-02 7.886035161565739526e-02 4.794979728012367937e-01
2.471618580480218486e-02 6.824449361293762062e-02 4.790513786371224936e-01
-1.387293450569924286e-02 5.829460326530985781e-02 4.597312969186568843e-01
1.915641434278826660e-02 5.341531353594970721e-02 5.209603278373086122e-01
1.690773315404271726e-05 6.848137981039621736e-02 4.657501203063448836e-01
-1.220028164164039045e-02 3.157141599829164924e-02 4.493141218971016815e-01
1.968665420457777621e-02 4.865559050396118385e-02 4.635551839940978414e-01
5.059088393691347531e-03 3.098617480924334769e-02 4.520414941100276418e-01
4.190011848728277671e-02 3.487617407451575058e-02 4.959694484979219609e-01
-1.636069631104176622e-02 5.110355582744607883e-02 4.568120606927288940e-01
2.428242042657349081e-02 2.383998611117718082e-03 5.326657451788390230e-01
-8.302665738160287107e-03 2.696302560264957765e-02 4.479203909702696995e-01
2.744066925716501931e-02 6.380088733777908305e-02 5.004809808664522075e-01
-2.375213247329553690e-02 4.818074200841452465e-02 4.561136250221324295e-01
3.980907101204201812e-04 2.215115244299099145e-02 4.476018756093461115e-01
-5.936656043755481234e-03 2.585887602192082912e-02 4.478950760893423699e-01
2.693023666996222087e-02 5.749659581220452342e-02 5.112034701301414463e-01
-5.855133682740363589e-03 4.648112554500084814e-02 4.556935773677698864e-01
-3.876362424162275565e-03 1.106471703826676992e-02 4.424463398199771635e-01
-2.744924034199665991e-02 3.847996883149235742e-02 4.510995459791243278e-01
3.405538916049904996e-02 5.234830722331612618e-02 5.021212313951595174e-01
1.966157506682266257e-02 6.545672003580145504e-02 5.109774299124910657e-01
2.730521002738187444e-02 5.210459155585677599e-02 5.145349281409397069e-01
2.964674149996444213e-02 3.395229574356686819e-02 5.231494437430972422e-01
5.354195819093322643e-03 5.166614792116379362e-02 5.352197829372056237e-01
2.953180730018941519e-02 5.994523535654847773e-02 5.023650944640415394e-01
1.764915544586394963e-02 6.249280015418837153e-02 5.186177039318381476e-01
4.128699450874437349e-02 3.384324686173529467e-02 4.757705492268223813e-01
-2.094409114443124623e-02 2.278393227258614356e-03 4.377549998696582123e-01
2.572894309166952331e-02 5.148734626934193398e-02 4.686422031604666749e-01
2.923043026011071504e-03 6.138051746161353461e-02 4.615252398732239691e-01
-1.454410903769452930e-02 -3.236437625705346904e-03 4.368563171279468693e-01
3.175695316302593052e-02 3.094073652263321789e-02 5.220678618898223489e-01
-1.055920425089861003e-03 4.379434800159003049e-02 4.556328730822949979e-01
1.440683008350992188e-02 7.120089424698519687e-02 5.053757960726680265e-01
1.742897430233709272e-02 3.630631094127799441e-02 4.574016643212630018e-01
2.310403302336914641e-02 6.717809309165073683e-02 5.019745939783558653e-01
3.805784210382796851e-02 3.735276177615545062e-02 5.058999330597190314e-01
