-3.028113509896245264e-03 6.246189997887809098e-02 4.619831628378260335e-01
-1.015204734467158379e-02 6.061700982080008709e-02 4.613534613291655484e-01
2.814912010973993212e-02 1.904205161952456787e-02 4.547183395064954836e-01
-3.719100973536918625e-02 4.177023078167037967e-02 4.547414030750334679e-01
2.539887282636705407e-02 2.120000517630862141e-02 4.541987595138444189e-01
2.322127035208958537e-02 4.487385648476482913e-02 5.216212504887666190e-01
-1.819452563392683422e-02 8.619936448890716182e-03 4.394512852939989611e-01
4.177277432717125399e-02 2.993982951978988588e-02 4.996107982049645679e-01
5.842010213850834521e-03 6.261307899789148035e-02 5.161745554092321830e-01
3.732077562810200838e-02 3.451234328850379812e-02 5.077681807539977665e-01
2.978203372375574573e-02 3.179278207255320510e-02 4.616658033351693780e-01
1.568434418977830702e-02 1.031361899080017984e-02 4.460151993036098883e-01
-3.705104350081556835e-02 2.820322366404871828e-02 4.474248323004437755e-01
-8.471761005751447457e-03 1.488511546440922720e-02 4.432294525466478063e-01
2.875757095596702742e-02 6.506432942891798854e-02 4.895809576666668161e-01
2.018897834207725867e-02 5.484777883279965544e-02 5.202926743393204712e-01
2.586262995525315245e-02 3.603753846296919860e-02 5.264338597226597694e-01
-2.741225581217091381e-02 7.829756730567018555e-03 4.397414858051001962e-01
-8.438717822883106800e-04 6.227732613651446730e-02 5.305158666847153981e-01
3.283540912884158613e-02 2.769978966419719621e-02 5.218055019800563743e-01
2.463003383612591066e-02 4.837820783525642598e-02 4.664924181999228758e-01
2.253555937180639832e-02 6.713124241521907509e-02 5.039443458153128885e-01
2.759030624876333132e-02 2.938115966309048227e-03 5.326408441646338643e-01
3.914920116797047239e-02 2.125853053135675491e-02 4.635656853691499935e-01
3.740145040117325535e-03 5.480041530649067127e-02 5.340032986287919226e-01
-1.086716642665585576e-02 5.840086116488928114e-02 4.595573919848374711e-01
3.315980251406207280e-02 5.684408741415625937e-02 4.824598733981645404e-01
3.662180717520915202e-02 4.615256738338649467e-02 5.045055477643451969e-01
3.346050576662151776e-02 5.654046420513269416e-02 4.851566447287388173e-01
-1.391534181794429684e-02 6.098070338664784984e-02 4.633363637125209045e-01
-1.244965087649478608e-02 1.381728658151248727e-02 4.421647684742048279e-01
1.287456312474606970e-02 2.509658119987244213e-03 4.422498160690271907e-01
-1.418595897234923436e-03 5.324966638853428913e-02 5.378633394961896963e-01
-3.858268470350229018e-02 2.090114270757354245e-02 4.456239015139954462e-01
1.478195634321387980e-02 6.057155646542577293e-02 5.232764044667306269e-01
-2.519047314290550135e-02 5.752966014162654018e-02 4.635830989763310428e-01
2.119039805455729883e-02 7.416849876370935901e-02 4.851652379756630218e-01
-8.864735346312938719e-03 -4.932089572293538692e-03 4.369332049998208012e-01
2.655702576755989558e-02 8.294940584244301154e-03 5.295008581270812531e-01
-1.378526876412487778e-02 5.606555119600960951e-02 4.587994073284428209e-01
-4.026378433382198085e-02 2.472272766382446751e-02 4.470736059736689638e-01
-9.083230923894423936e-05 6.367727519266506986e-02 4.631394669091242200e-01
-1.082578276392134019e-02 2.037191040792072153e-02 4.449354902446858162e-01
-1.159715744143020866e-02 3.716070143355500177e-02 4.520258927144704675e-01
2.451219646022008425e-02 5.004644639398887762e-02 4.671975717875184175e-01
2.546162315189722317e-02 6.697352515288858277e-02 4.975145029827373055e-01
-4.238212623665542356e-02 2.865488873516991442e-02 4.486000053038350366e-01
-1.561328956090859282e-02 6.034862078072795316e-02 4.626998691875867098e-01
-7.499805192596629630e-03 3.726171273409939477e-02 4.526269643889895278e-01
4.376913241336080618e-02 2.550771387904494925e-02 4.749264063992811313e-01
4.616445040135276623e-02 2.227339751590299774e-02 4.838081601937456733e-01
1.961642678992230743e-02 7.153467810210500932e-02 4.752797981795313098e-01
-8.508203021766403557e-03 3.345759141801196018e-02 4.508098680802815617e-01
3.104357625942542193e-02 3.586508888157344255e-02 4.645593224395787590e-01
3.058635663457407242e-02 3.106639192250793685e-02 5.236763085701230391e-01
4.045824992718822372e-02 4.002771636071459499e-02 4.991868752597403147e-01
2.643829545187338301e-02 6.334092417522575735e-02 5.050767733865145770e-01
3.916366401500401967e-02 4.476840850915822512e-02 4.981023986461187159e-01
1.738921736385488914e-02 5.767314757401953429e-02 4.659626014538598149e-01
6.260927351671283572e-03 6.309596632260248972e-02 5.274637891537670153e-01
3.487151216955162308e-02 1.478938508779480653e-02 5.235789650778378546e-01
4.380779449009270660e-02 2.460409756663535161e-02 4.978266946524362857e-01
4.170409777114749555e-02 3.233977601551115549e-02 4.988253114162467527e-01
2.703187684626547418e-02 3.821968491027601198e-03 5.322746292614450869e-01
1.576131128491824185e-02 6.591593410838604214e-03 4.445671275476025808e-01
3.512855896253087428e-03 1.048972241047337051e-02 4.435758940444488041e-01
3.832561492310403856e-02 4.544020716794120590e-02 5.008084808241023422e-01
1.838126760464511497e-02 1.920858906507095717e-02 4.502261283653966051e-01
4.105109472000312981e-02 4.065233151577919007e-02 4.883464078884281467e-01
3.260362015800635088e-02 5.088006393754292839e-02 4.750122620277810737e-01
-3.608817485865754154e-02 2.247728723717757129e-02 4.455808654159099103e-01
4.322523180768400586e-02 3.127869398906698434e-02 4.934587091421114291e-01
1.836957464675008714e-02 4.453590818589404920e-02 4.614964514367758674e-01
2.180333309762391356e-02 1.259241512125202148e-02 4.489455760488921809e-01
7.666992000942477944e-03 6.411122948499914376e-02 5.154553285207903457e-01
2.081929688437031412e-02 5.173804275901090766e-02 4.654892821478744391e-01
2.142508071461771829e-02 6.755518793589278259e-02 5.047873042921917630e-01
2.050434087667329930e-02 6.914835618804099360e-02 5.035185195350669884e-01
2.755414746633916973e-02 1.509619405673664171e-03 5.331884698086520880e-01
3.962308802458863743e-02 4.484148162798793497e-02 4.912061851782764665e-01
1.907293350701395190e-02 4.454462710967732608e-02 5.261737721737665963e-01
2.212290736943471094e-03 3.775154024891400062e-02 4.542911678006128495e-01
3.127383364806975152e-02 4.706196267376380055e-02 4.710826450173884461e-01
7.946763382323982286e-03 7.227960008471630282e-02 4.702635388086743307e-01
9.434176124730717788e-03 6.371825852214491048e-02 4.648429769449501925e-01
1.704011131003049101e-02 4.929252725434880855e-02 5.250852646796843048e-01
1.045769215721984238e-02 3.192205992128947095e-02 4.537207080585253793e-01
4.870219272056275361e-03 2.799661889671559850e-02 4.509057330507862393e-01
1.772959410910475431e-02 6.038198694581386333e-02 4.671894578935102960e-01
2.670786559922097222e-02 4.915167291279607525e-02 4.683840412855729274e-01
3.049681249449007203e-02 5.973313498583394943e-02 4.785293925076704591e-01
-1.141152324190013514e-02 1.236614467227083874e-02 4.417802078039454461e-01
2.822253499772689814e-02 6.519533054577697495e-02 4.828154650540615322e-01
3.981342999689181823e-03 5.666592896289855685e-02 4.606694605772835294e-01
3.531605242974253378e-02 5.186443356190127002e-02 4.974452676646770599e-01
1.122674522368594281e-02 3.749889538601042238e-02 4.562137221889897565e-01
-1.867043325252272512e-02 4.247357029516674737e-02 4.534057925408373491e-01
4.513675847850201484e-03 5.084916824908664035e-02 5.371096029959597784e-01
1.153678199355196408e-02 8.348520692005739069e-03 4.442740138108220993e-01
1.886178607439167182e-03 4.334428131869812184e-02 4.562459899398394469e-01
1.124487268744056578e-02 3.174134564473547748e-02 4.538227309984229074e-01
3.691175203706723897e-03 6.066665460637468699e-02 5.170591162177706757e-01
2.023595112635924800e-02 7.280489585753761872e-02 4.976049835152166478e-01
3.513765516742270445e-02 4.851700646867648792e-02 4.770752697706406864e-01
1.538219012942104551e-02 7.591471096749813352e-02 4.912263255752272739e-01
3.618702611931144675e-02 4.745433683328843799e-02 4.782214231132334015e-01
-3.573563541021917978e-02 3.193940793396839867e-02 4.486127805620996334e-01
-1.339545213596222799e-02 2.738282235891822958e-02 4.472908551737685978e-01
1.194716190364248851e-03 5.422200187282708028e-02 4.591676399926860053e-01
1.280228714528606516e-02 6.515206006396245808e-02 5.161008783620234519e-01
3.602556793689687398e-02 5.120960911932604526e-02 4.839622132512698682e-01
1.007848773075802062e-02 3.441391534279715503e-02 4.546716880919872694e-01
1.394053418850658803e-02 2.419621829004387631e-02 4.513072090632030409e-01
3.993398312718145216e-02 4.167503085647742550e-02 4.798271763945341495e-01
1.922292335235520344e-02 1.340499349540349473e-02 4.483388999907677031e-01
3.415191814117413127e-02 2.888275157702057186e-02 4.632268879259545669e-01
3.324695017958549659e-02 3.054348299858021878e-02 5.197588230549511357e-01
2.993456686482262250e-02 4.884537444882418311e-02 5.134868823916843850e-01
-1.740487955878966889e-03 6.109635343879275121e-02 5.299587157919821712e-01
1.865639289396301900e-02 5.074490961961616170e-02 5.229028642666945226e-01
3.914663652042712355e-02 4.469541110003173029e-02 4.984894540987644951e-01
2.916177590887160734e-02 6.207966453152454628e-02 4.996308228242877236e-01
3.582399308258432669e-02 5.060842065442155285e-02 4.819595454152579839e-01
9.576052987691374696e-03 7.548268816955955307e-02 4.893416333468719737e-01
3.657525079154433367e-02 4.843149898351838817e-02 4.807043397953961739e-01
-3.234995454146179054e-03 3.321632840331469050e-02 4.514517732629911850e-01
1.650739135150470702e-02 4.266268549159594331e-02 5.319980359158208438e-01
-2.693475043170755548e-02 1.974354918800160300e-02 4.435209531828411822e-01
4.216909922441101910e-02 3.432775586121726563e-02 4.959406954031946313e-01
1.835051313872523154e-02 4.728657456787322549e-02 5.249958586795149262e-01
4.293553655415937448e-02 2.486020155782246374e-02 4.721964225863353182e-01
2.922275540790611817e-02 3.636730017355568889e-02 4.636355776978591803e-01
2.196889788291806617e-02 4.150554672066307862e-03 5.319078281528951679e-01
1.438549754628418512e-02 5.543020452178980956e-02 4.639116018391092888e-01
2.543742234001717187e-02 5.716663654543091555e-02 4.712387640281467394e-01
4.711196348195513181e-03 6.133048587519990963e-02 5.206622041710233795e-01
2.780231567968124984e-02 5.040001792688005022e-02 5.154449432654700791e-01
8.725110278469404984e-03 7.781780058007206624e-02 4.753578284531750353e-01
1.376309644803392837e-02 5.120156090005142935e-02 5.271401578933051502e-01
2.452953319138491059e-02 2.602952884968326094e-02 4.559528438331225120e-01
-1.664935471738778969e-02 5.352181395210880988e-02 4.578690999124283012e-01
3.572784769277694700e-02 3.543323663790531874e-02 5.110356061494910618e-01
-2.204644738166238599e-02 2.515778597588723409e-02 4.456252243012172598e-01
-5.499964367068422948e-03 1.484144223312634792e-02 4.436891969772809308e-01
2.169151013528757346e-02 6.739325446690189181e-02 5.047484716000626426e-01
-1.597578094293834738e-02 4.659801819889081154e-02 4.551776887695901386e-01
3.301070384146443520e-02 1.831059964086673153e-02 4.574486138519998080e-01
2.794321212279229569e-03 7.773047716968121100e-03 4.423449679549266711e-01
-3.783794906108780935e-03 3.448063649516745072e-02 4.519315919340714527e-01
9.195338785003252455e-03 7.263777610691460329e-02 4.703345797797928718e-01
-3.417660178705321516e-02 3.641768592401296856e-02 4.503904587870450338e-01
-3.671491767980028520e-02 2.327093494544136762e-02 4.459484941604291430e-01
4.414231470256028793e-03 5.309168051605527711e-02 5.356908577080723433e-01
4.100343304796715688e-02 4.056176859364923198e-02 4.872625739128085276e-01
1.281283853571038578e-02 7.557306689080094120e-02 4.916918517348772277e-01
1.931276408589480478e-02 7.535365546826756911e-02 4.831561492104134992e-01
2.002449547924059839e-02 7.506628466707622460e-02 4.905638530672616904e-01
7.755388885499896710e-03 4.745033408588306134e-02 4.589892901012527782e-01
3.626751370968182842e-02 4.626215276026817563e-02 5.053064429230544885e-01
-9.973273217243742474e-04 2.110766857775524599e-02 4.469932061395023304e-01
3.605471790762554418e-02 1.791949008121972858e-02 4.593668201716797905e-01
2.563039590964355866e-02 3.267632079810689656e-03 5.324191660709677310e-01
1.021553639120203506e-02 2.453655028200697752e-03 4.417181487477857549e-01
1.406507407238904127e-02 1.647856336738248717e-02 4.481586966181962950e-01
3.936433519195112196e-02 3.320680593585912527e-02 5.044436980775270918e-01
3.127398626441500046e-02 5.114714885915542381e-02 5.102885143916714439e-01
3.509589510320770822e-02 2.649751529868562758e-02 5.190763272962083397e-01
2.011811922009184433e-02 4.617267047339921465e-02 4.630143968867175830e-01
3.071357310732917081e-02 4.337191884136430697e-02 4.681647713001036437e-01
1.115783492348010678e-02 6.990264707174123626e-02 5.055190535973919097e-01
-4.176506654594278924e-04 1.009843041380944356e-02 4.427060483655093637e-01
4.079472818852269284e-02 3.918033426453287199e-02 4.792684057829583733e-01
3.721821771437383575e-02 4.374707387700355055e-02 4.764698808939268893e-01
3.762984488494557078e-02 3.550200722166341888e-02 4.700133270518998541e-01
-4.434959409064761701e-03 2.145771398045203879e-02 4.464696927576885521e-01
-3.377132874870041740e-02 3.901791325545272276e-02 4.515592015641465284e-01
2.873123786046889901e-03 1.834347545138720337e-02 4.466275587651074575e-01
9.121018672332358024e-03 4.804759643976184297e-02 5.339759589152004438e-01
6.139495796645341730e-03 6.316488514931895004e-02 5.267165517223014737e-01
5.516846402806688775e-03 3.884927675732360863e-02 4.554301033901784757e-01
1.058738992449503868e-02 5.403623782759545136e-02 5.287625548662813202e-01
-1.620046276270764932e-02 2.027436459576525962e-02 4.441275145702385241e-01
1.512662083354823078e-02 5.947161086462283974e-02 4.655594272814216339e-01
-2.412978195760436331e-02 1.925034986951406485e-02 4.433364727550349049e-01
-1.422805409639184455e-02 4.367745704162994541e-02 4.542357885928741124e-01
-2.614076565026188931e-03 2.752644213567023712e-02 4.492698932954058977e-01
5.162003009026389089e-03 7.261600699377318557e-02 4.717373249090963672e-01
-3.143387203872370465e-03 5.908852851255792099e-02 5.288562698846885901e-01
3.458645473621133754e-02 3.690235643219090533e-02 4.676773431748179055e-01
2.096331697493689777e-02 6.138694445252833309e-02 5.160210546726635705e-01
1.338112591022007705e-02 4.772568900523705554e-02 4.608211162388716198e-01
2.849627359672704530e-02 6.378688003151615493e-02 4.956148157213581262e-01
3.747127908522861379e-03 2.774119603126538533e-02 4.505792589293997619e-01
3.709681839819184423e-02 2.498255281202698894e-02 5.152445482044804015e-01
-2.605880436405358033e-02 3.317758821738033166e-03 4.383295039209686439e-01
-1.285592989074507003e-02 5.935050869406753582e-02 4.609593353603675392e-01
1.842122583236841665e-02 5.196078954418211632e-02 4.644568673575218409e-01
2.033957100416268482e-02 7.320304284873298262e-02 4.789939737639333783e-01
3.437243371310136353e-02 3.892002297760104035e-02 4.685749278761685566e-01
4.102231065514991976e-02 1.927667961881943462e-02 4.651158646646389450e-01
-4.218008303293797195e-02 1.623199143833517445e-03 4.418132078014467279e-01
2.257272145014706244e-02 6.225627059531795710e-02 5.127312559779820811e-01
4.454971542581117466e-03 6.717894507412815186e-03 4.422253977093659194e-01
-3.177847100301878225e-02 2.386984792030620237e-02 4.454823370304286656e-01
1.223903526979251699e-02 5.808888264795155493e-02 5.255220200822825483e-01
2.925226060792695745e-02 3.628685875198094102e-02 5.209201527179361246e-01
1.850966861747278900e-03 6.100982438580790368e-02 5.246239481255062787e-01
2.761630869282925838e-02 5.398933562795033003e-02 5.135442436761072926e-01
1.605588361731118477e-02 6.818192897514251116e-02 4.697746543713407497e-01
1.633918721130930840e-02 7.642730077748982609e-02 4.814084615703551617e-01
3.438520804910374234e-02 2.797682884001957346e-02 4.629493462817714233e-01
-1.965942033119554011e-03 3.996923809887435730e-02 4.543500041373153553e-01
1.953505870163483107e-02 7.365019737887323892e-02 4.783638691983654323e-01
2.140587831949176262e-02 3.810701542504089240e-02 5.299261880994391438e-01
4.187741047825035978e-02 1.950302455590159634e-02 4.666312352667545960e-01
4.372780254451755916e-02 2.426617303702519046e-02 4.737444852906302351e-01
-2.632878422143673444e-02 5.411828571309318034e-03 4.387968993670632867e-01
3.617201484869131400e-02 2.782221413403410115e-02 5.147125191648651565e-01
-3.665371890387864040e-02 2.593139411517516105e-02 4.467145128098199414e-01
1.583545091059209570e-02 7.111165201319041840e-02 5.045950160566676779e-01
-7.860864282521702606e-03 6.986070848242390864e-03 4.404127094130925180e-01
1.514124816820561215e-03 6.194529733427598522e-02 5.267047644386013694e-01
1.558738963758175139e-02 4.824992458502143367e-02 5.270218171420892883e-01
1.898301670303760222e-02 5.450676960982005909e-02 5.212530008960264416e-01
4.012759839332524087e-02 4.332169299903130405e-02 4.898578481714003785e-01
2.766717829849087151e-02 2.708413543074394969e-02 5.259347007198384993e-01
-6.967653030337089479e-03 6.091421987845400954e-02 4.609157331582536266e-01
1.800652468419252500e-02 5.683516999621728016e-02 4.659386263182765386e-01
6.717267105398701775e-03 2.402815304652134235e-02 4.496438479012115352e-01
-2.113918585857688798e-02 2.683570804121809816e-02 4.463023079129933568e-01
1.916972923585316679e-02 3.851380723452517418e-02 4.590912488329439989e-01
3.343727652257846156e-02 4.259226051999658730e-02 5.117429521062564213e-01
3.590906986026502767e-02 4.705423869063447839e-02 5.054532460677023664e-01
2.222152264555202553e-02 2.866436889147794959e-02 4.559972132211438378e-01
3.735713161250420883e-02 2.737688617739018893e-02 4.652895920654256945e-01
2.831144212670402838e-02 6.569252594514807253e-02 4.877414639199658675e-01
4.271165024363200030e-02 3.242362839098664878e-02 4.781391394075483192e-01
3.896706486834650152e-02 4.603326357545907410e-02 4.881651419054858221e-01
2.188723953874572789e-02 4.216770142676817823e-02 5.262630293761859646e-01
-1.388288540618129625e-02 1.869493623770998245e-02 4.438310577511981880e-01
-2.212587422287922920e-02 2.556228821824122963e-02 4.457826173751898713e-01
-8.051555455678302553e-03 4.767559136206257070e-02 4.560725399424929716e-01
1.322688644963602132e-02 7.375594464526863403e-02 4.993292271079587952e-01
2.588089585943986748e-02 6.510053902145447602e-02 5.006816000258326183e-01
2.340960464102748856e-02 3.296119156135660089e-02 5.287557533603350901e-01
1.825472722866336439e-02 3.762496556038090467e-02 4.583395925957423067e-01
-1.579217298341461378e-02 4.377267798998071141e-02 4.541023900933660595e-01
4.183003944693865217e-02 3.824268921304582042e-02 4.881139927820676294e-01
-3.678808261643080890e-02 2.204013552589210827e-04 4.398203031800363427e-01
-1.430417190231875538e-02 5.813853188600018318e-02 4.599591221594189205e-01
-1.573676113858415646e-02 1.724713875923319234e-02 4.429908420268357516e-01
3.276514302238556914e-02 3.094080913104743993e-02 4.632360831182368854e-01
1.414872153270941950e-02 1.819639193546805991e-02 4.488777359356384555e-01
-1.467339590787375934e-02 5.445137281970734849e-02 4.581883957221402626e-01
4.338176140374669365e-02 2.410073010366033108e-02 4.726818001114680978e-01
3.068195289760352121e-02 5.913555738359740910e-02 4.780799280928503814e-01
3.377460666284806678e-02 5.261222048737031198e-02 5.032669492135167788e-01
-2.884732537043760252e-03 6.027014211808750382e-02 5.340047946872602536e-01
1.628446919302250703e-02 4.794577717503732683e-02 5.265450872510345492e-01
-4.014566124430086688e-03 1.627864782874745286e-02 4.444978385044421887e-01
3.617724598154647975e-02 2.634159210263172651e-02 4.636609055470627960e-01
2.250647018797077153e-02 6.013329552147975848e-02 5.151220114605120637e-01
1.141012476066268280e-02 4.944969735624787227e-02 4.608115696535923789e-01
8.959671827783502115e-03 3.240679570211738025e-02 4.535851270205834007e-01
-3.117851580146442647e-02 2.335341771934281233e-02 4.452474673847741093e-01
2.751548994747345794e-02 6.680426372540065882e-02 4.889039312270030968e-01
-1.663788349162930932e-02 1.778741572090385397e-03 4.377520868080854721e-01
-2.465994023892002437e-02 4.283639915895615102e-02 4.531382382107075335e-01
2.796862797907423079e-02 6.565588129113462956e-02 4.830214952567453701e-01
-4.886096575107254716e-03 5.653620233202330536e-02 4.589751074491033034e-01
-1.691527193800205706e-02 2.029130284987563232e-02 4.440417447694979258e-01
3.786224809887772658e-02 3.618231607291564483e-02 4.710643802533305835e-01
2.047562071499378633e-02 5.882494101522996177e-02 5.187255082072339540e-01
3.175516986161518174e-02 4.893963279616572737e-02 5.108839241007994136e-01
-1.461673524885718362e-02 1.818298188612692268e-02 4.435241772053573062e-01
3.895246293267642934e-02 3.061661857300074924e-02 5.064165198099165321e-01
-7.455499095439240692e-03 3.879812000578013870e-02 4.532195674184990586e-01
3.718091276387601452e-02 2.301534851426553091e-02 4.627449743789500136e-01
-2.777647489899310457e-02 2.526403013752616042e-02 4.457165136747438527e-01
3.571081930759424650e-04 3.290180774365967370e-02 4.519819284090491607e-01
3.098044998974740227e-02 4.493762834412089180e-02 4.693262958646140515e-01
1.923443981152952315e-02 4.459482060211190924e-02 5.257866384478617761e-01
6.984698977879847531e-04 5.282502937896007937e-03 4.410006797040336712e-01
2.151515379939345288e-02 1.348944930438844905e-02 4.491867007966267589e-01
2.760322111187889574e-02 3.066187326526645732e-02 4.597764245547134032e-01
2.631610219389248634e-02 3.275952143051527599e-02 4.600122118950212835e-01
1.766488146838586168e-02 6.340298711503772333e-02 4.684305183605785849e-01
1.379409342727295346e-02 5.104421919377280514e-02 4.622483724218882095e-01
-1.296529679505645585e-02 1.345523148006395886e-02 4.419432114649014531e-01
1.446824796541048078e-02 6.973786211482346786e-02 4.698472883183488213e-01
8.750491655676090677e-03 7.155026245768836279e-02 4.978964204431379770e-01
-1.713657984945580331e-02 5.316688460286040502e-02 4.577547448778459538e-01
2.462744449006967068e-02 4.576982489730652137e-02 4.652161669253434551e-01
2.393706993290944940e-02 7.022502478115226487e-02 4.933322565709671315e-01
-1.809117612612662351e-02 1.679310594561541498e-02 4.425040273447133354e-01
3.100974942336686205e-02 3.513909102040696508e-02 4.641737271577409674e-01
3.065093038051784624e-02 6.078726116463349649e-02 4.811924780045725436e-01
1.286533286127534113e-02 4.528829305024931889e-02 4.597627858808989165e-01
8.029428498960310481e-03 6.899347342302027120e-02 5.029274008419232223e-01
3.192327451539670596e-02 3.853652333869519997e-02 5.151943822427367259e-01
1.737267085259375232e-02 6.757462813731943130e-02 5.089204037021255456e-01
-7.634219652081597300e-03 4.661511870819875537e-03 4.396026736640766819e-01
-4.641698895298447883e-03 3.047986619814638254e-02 4.500693782712443802e-01
3.546024773292739962e-02 2.046907230339331529e-02 4.600999213609531791e-01
9.251680816493582787e-03 1.388758893856083601e-02 4.460794804465822994e-01
1.101099908535232291e-02 5.188034924200952275e-02 4.615461522588154564e-01
4.141038990515320817e-02 1.984839202614759046e-02 4.659506701989724053e-01
4.325670849603532181e-02 2.803306004382950106e-02 4.757149673497533815e-01
3.986039070671273943e-02 2.476791126662623160e-02 4.662307947884060111e-01
4.071248767589589340e-02 4.126913595834261900e-02 4.865361244328568202e-01
2.105369213193824043e-02 2.265704315277945746e-02 4.528157385858663231e-01
3.070334653197038730e-02 6.094362175208852678e-02 4.822844803781812240e-01
4.323999776663396688e-02 3.358277573749753053e-02 4.882917675891681464e-01
-3.723556659485281750e-03 4.881343662554224472e-02 4.568621181279371446e-01
1.793738526988211983e-03 4.592239459079906078e-02 4.569363615951322899e-01
-3.562029840170627404e-02 2.997080240008410945e-02 4.478420861284576060e-01
1.351974414950881179e-02 7.051286437217657577e-02 5.058448360990549508e-01
1.164558234215663617e-02 7.640330353845185829e-02 4.870190764137426465e-01
-1.058411930389110446e-02 4.194578724326449709e-02 4.540335307944561305e-01
1.563267320649030720e-02 5.937817329226536406e-02 5.228442837408832089e-01
-3.549035120077697475e-02 2.712166069676272967e-02 4.469543229698949016e-01
2.189310277686904588e-02 3.902795334649762637e-02 5.291656610817305761e-01
3.119854355933965318e-02 3.240449313168889539e-02 5.223323752874217130e-01
2.469790920133680540e-02 3.812544524223409476e-02 5.265023765936642786e-01
-2.794457701274893555e-02 1.427116730716072174e-02 4.418806010085599700e-01
8.165147261691702366e-03 7.129537530574606152e-02 4.691589004026868737e-01
3.256889452597745011e-02 5.827930290383531720e-02 4.912772545352726006e-01
-1.276746486265662416e-02 1.082655642365956163e-02 4.409612571269810877e-01
-3.018068643750536871e-03 6.011839782138458932e-02 5.317929810120238798e-01
2.608403609892822814e-02 3.845645955278913924e-02 5.239769180047327835e-01
3.475491131716156729e-02 3.807403515685148926e-02 5.116509054680831170e-01
1.885506746489758190e-02 5.371184435239198529e-02 5.215426355049617158e-01
-2.815460259283084077e-02 1.548395650780108254e-02 4.423036506813629032e-01
2.566266976988378643e-04 5.895213380941936865e-02 5.231328662817831265e-01
6.679708278079559726e-03 6.727029647690618841e-02 4.661494198555883317e-01
-1.496077862056090918e-02 3.270145956641087176e-02 4.495850618049442859e-01
2.890521629944614590e-02 5.149388837325723917e-02 5.131890980826645521e-01
1.862911808873828762e-02 1.097160990948045992e-02 4.471294978985245194e-01
3.719585585624877316e-02 2.723694917641250601e-02 4.650678057440200130e-01
3.266981815288080848e-02 5.715716177327954950e-02 4.959144425798309719e-01
-1.139163700161674279e-02 3.245029591246691159e-02 4.499425710023590708e-01
4.087169880004618699e-02 3.957521866372058078e-02 4.973316106945276371e-01
-1.435748091607582863e-02 2.076170610072723688e-02 4.445487765388040913e-01
8.521158912327461005e-03 7.137053736681066296e-02 4.691988263865134456e-01
2.560638919168319212e-03 1.287819748802728793e-02 4.443684770416043150e-01
3.915830486129848881e-02 2.636083334283386564e-02 4.663955403472575534e-01
6.609791745743548788e-03 3.984423251902041024e-02 4.560553757502773253e-01
3.970658748911019310e-03 5.405844648698803802e-03 4.416067811826190903e-01
-4.248759851343822391e-02 3.451099188624606739e-02 4.504326215339888306e-01
-1.180288153096997923e-02 2.752673388986909969e-02 4.476262778287322108e-01
3.161978879504300649e-02 5.982087149905822993e-02 4.919399244512340785e-01
1.818337112061891442e-02 7.626799786930359148e-02 4.882267759939503127e-01
1.255590695401360112e-02 4.804095750073827942e-02 4.606596566056863629e-01
-1.383585845653328462e-02 4.520231242091113377e-02 4.547807260090069303e-01
-1.525890275816667828e-02 5.842133600398145832e-02 4.604867685880636996e-01
-1.237894230648540345e-02 1.469793644492720965e-02 4.425095560932396643e-01
5.902661998576629390e-03 5.332971140653745834e-02 5.329853241392936702e-01
8.046230841645780549e-03 -8.260312057300957939e-04 4.402168594117856215e-01
8.616717575197515785e-03 7.003821191231407450e-02 5.009303239649552930e-01
1.423377555236658709e-02 6.137711780493948499e-02 5.235490852037695264e-01
-3.563823733753297696e-02 3.634406575554960384e-02 4.504248829928305109e-01
3.657063096957661325e-02 4.952552073643389646e-02 4.989611561895685443e-01
2.384115186344194434e-02 3.673517791952407574e-02 4.605575148112167061e-01
9.549199556314412474e-03 7.756777181342283667e-02 4.809598897355166769e-01
-1.283272913000377356e-03 5.040590624883425908e-02 4.576552077336483726e-01
1.237692363127185051e-02 6.429426824808204266e-02 5.191109696412071761e-01
2.296492031672302953e-02 3.066675472134309383e-02 4.572826228684330752e-01
4.385924951410814093e-02 3.172470070676431525e-02 4.895262491385501402e-01
2.989789366276925098e-02 1.979970196300625054e-02 4.560509971389917760e-01
4.218196411636073589e-02 3.482796811605425036e-02 4.797262606472046387e-01
-3.389295867982700800e-02 3.837884476514895338e-02 4.512628687025959096e-01
4.012944621315596427e-02 4.318601262054654055e-02 4.930116729091689187e-01
-3.131681046693363026e-03 1.586534460858662898e-02 4.444974106688523996e-01
3.143109923589249705e-02 2.455202287067491038e-02 5.232340449937930016e-01
-2.628230650175637090e-02 1.370766806385043807e-02 4.414366484793912360e-01
1.044087416606518520e-02 3.587668954981346886e-02 4.553609082745959658e-01
1.636529266671685884e-02 6.095381483503715947e-02 5.218076884539795124e-01
4.162219333995301196e-02 3.774098676795722973e-02 4.836482648247169003e-01
2.974205908306874757e-02 3.143001191000871497e-02 4.614515058614323539e-01
2.855233052140657493e-02 4.349909832614664434e-02 5.165045355574494623e-01
3.653811516670388282e-02 2.437967387071120900e-02 4.629141436641532326e-01
1.313833190396192924e-02 6.031033851337986446e-02 4.649746692528926029e-01
1.333658923546986001e-02 7.741519912709864115e-02 4.767116742829114462e-01
2.013592244759623839e-02 1.766393917392275123e-02 4.500833748887202446e-01
4.264782214890058820e-02 2.625560627227074145e-02 4.725208071026711365e-01
-3.823110262438467882e-02 2.734900315205329030e-02 4.474141451263409230e-01
2.316577281124933621e-02 5.737315579342564670e-02 4.694833630990134510e-01
-3.951262176698647904e-02 3.978465551839335118e-02 4.538373809899799438e-01
1.354745223809973934e-02 2.014040804129393642e-03 4.422158438597619812e-01
1.831643499032089423e-02 6.463264757501903379e-02 5.144452601719612383e-01
-4.822894385673354677e-03 5.291328977658770610e-02 4.579038394647322319e-01
-1.718164594360236525e-02 4.862854935745833385e-02 4.560362041836569791e-01
-1.288040844537501842e-03 3.610269451132204488e-02 4.529487284467688113e-01
4.554322940059148117e-02 2.454120279923115155e-02 4.896647191034917412e-01
3.799675574530805150e-02 4.228903027556520783e-02 5.042625238492691730e-01
2.865501629264924355e-02 6.096890817741894980e-02 5.040401610462804660e-01
3.324648263857754582e-02 5.210341716964347891e-02 4.763934060886301780e-01
1.976726384233982656e-02 3.637782666228182166e-02 5.305660365860934702e-01
3.594278039308463485e-02 4.962101469271022747e-02 5.017267567938243911e-01
3.801874608706572872e-02 4.711470104220777388e-02 4.983663472269812544e-01
-9.023994092023382430e-03 4.216623181526989173e-02 4.542612586786415885e-01
-1.047206619040605413e-03 6.675031621836113871e-02 4.651420633069245913e-01
1.705115515245494290e-02 4.937620059106383186e-02 4.628059963750763006e-01
3.159599306551894027e-02 3.986999784246562928e-02 5.153752923384986584e-01
-2.921472855153273152e-02 3.457352183267474455e-02 4.494870409629151409e-01
4.036479143289306570e-02 2.371766503882847058e-02 4.664159534425353359e-01
-1.884712343357240055e-02 5.970650490630381030e-02 4.635417645350367599e-01
2.514421545500246380e-02 2.485759935501821727e-02 4.557382719656514203e-01
-1.468850804901133782e-02 -6.712464315401251574e-03 4.367290498553298983e-01
2.676084841964202973e-02 6.634233069485800938e-02 4.945744825487280449e-01
2.696398346291244835e-02 2.715636899897417092e-02 4.577383543865379822e-01
-2.747015929936372919e-02 3.301345148196128954e-02 4.488267213398916544e-01
1.777831303668337554e-02 5.002372047728321364e-02 5.239879152024835562e-01
2.617800509746683046e-02 5.161670835310265548e-02 4.691901249699775289e-01
-2.596043038350133794e-02 2.371103841826659522e-02 4.450340896747653208e-01
3.934596079810693398e-02 2.857829132399123534e-02 5.069570316827161083e-01
3.612556551312073178e-02 4.876439309693338803e-02 5.028944280673652845e-01
8.577439033380943045e-03 2.400663418360061366e-03 4.413914172293479932e-01
-8.082784609366358564e-03 4.563556891260794890e-02 4.554113396836166894e-01
3.445137784227822464e-02 3.483075472662415517e-02 5.129447418941947001e-01
1.927331230561420139e-02 5.545964505594705440e-02 5.208455015040587277e-01
3.088327348251101306e-02 5.216701174262874940e-02 5.102727668373420178e-01
-8.227907456926702653e-03 3.276489081728150426e-02 4.505457988461237240e-01
1.498311983650711145e-02 2.032251181755258956e-02 4.499308001284684777e-01
3.925597691380389165e-02 4.516027375351525791e-02 4.866726368960128668e-01
4.270842820088365660e-03 6.283133787491124167e-02 5.293066649132720514e-01
4.127679994924004364e-02 3.771174094778476094e-02 4.978193097057301841e-01
1.194849053113807361e-02 6.308748409552618341e-02 5.249205818453269723e-01
-3.487060277089814447e-02 3.193976498511796880e-02 4.485735580336370765e-01
4.150024893898356104e-02 3.116018847795748795e-02 4.996324382752633242e-01
-2.628888673205725598e-02 3.012315385057417680e-02 4.476045538033542326e-01
1.839758349594218523e-02 6.862344161101324724e-02 5.061757072128199031e-01
-2.208433909098537345e-02 3.507253855740719711e-02 4.498886767407548892e-01
3.173764362456655413e-02 5.989769653752718276e-02 4.903371778361445554e-01
1.221049597400343176e-02 6.578030977262287748e-02 4.667033609415214279e-01
-2.947927628007628725e-02 4.493250660047880263e-02 4.549395519213692007e-01
2.598410702305116796e-02 6.568456474855188798e-02 4.988255269958978833e-01
2.066262002054558913e-02 4.384048950639783671e-02 5.248820016828376067e-01
1.889487717248326815e-02 7.532937330040140322e-02 4.919350859272819676e-01
3.262470037960191888e-02 2.137133275394626636e-02 5.227723496333281927e-01
2.422410738755653020e-02 3.696542825337556515e-02 5.277470769994926370e-01
1.136358858827385366e-04 5.934193466479362189e-02 5.240033974261154581e-01
-1.441834795173277915e-02 2.397399715480682744e-02 4.457515459347790032e-01
1.383456855772378230e-02 7.162416221454873111e-02 5.038406523832332784e-01
7.375207987354244314e-03 8.046335601841368354e-04 4.406277251142185492e-01
4.127995414256235840e-02 2.073520097498598655e-02 4.662199392472835546e-01
7.420940606375768175e-03 7.011384936676601579e-04 4.406013796752339395e-01
3.691058748491114760e-02 1.979517444564718107e-02 5.187949855368741980e-01
2.739810410809523714e-02 5.404756612422507295e-02 4.713476307989968861e-01
3.130147681249749458e-02 6.053373719063220165e-02 4.869636658348809877e-01
-2.339081820283807345e-02 -5.368263045253743315e-04 4.373223681847573374e-01
2.258567720818308727e-02 6.680946499858463061e-02 4.737436734136654115e-01
3.723931165324029235e-02 4.284966053721383367e-02 5.057028117632963449e-01
-1.627615579063054416e-02 1.831428789807235807e-02 4.433702477521062613e-01
1.923198833596387325e-02 6.493223305691554759e-02 5.124776728159644579e-01
2.170810526427044765e-03 6.271020729015394646e-02 5.282460003198773402e-01
-3.430743792263546421e-02 1.826333831338639718e-03 4.392495731152002980e-01
3.418752035508564047e-02 1.738956773740222075e-02 5.230463227768373802e-01
1.534253029753292717e-02 5.659711682060817456e-02 5.235202343298753780e-01
2.102795005417339852e-02 3.869717828904601503e-02 5.301306441144323367e-01
2.369009681723000318e-02 3.763564268682052794e-02 5.279523320413327392e-01
3.075197832612363083e-02 5.190741123327826528e-02 4.735618007973933508e-01
-2.309757940573181796e-03 4.603353334119918150e-02 4.562235856225586583e-01
1.215413343583182648e-02 7.857163939263286934e-02 4.768746312991484770e-01
4.474004134674540445e-02 2.657657622465334213e-02 4.913288123169408106e-01
3.119014153228238245e-02 5.910799432456336627e-02 4.797475883995863111e-01
1.638414308006056613e-02 3.715951997809830570e-02 5.321196590306628282e-01
9.788789508110228368e-03 7.215641262099552200e-02 4.981696055272727408e-01
4.412287924642360054e-02 2.459654240229916175e-02 4.751212081937817855e-01
2.250264651920523898e-02 4.522628406734609946e-02 4.638363702905325958e-01
2.022524131963770316e-02 6.619224231297553274e-02 4.714830787093037823e-01
1.301851509558548357e-02 8.642368560089038615e-03 4.447300996289725861e-01
2.227730105570528349e-02 7.339524869781687000e-02 4.863683038277623050e-01
2.404770138593194731e-02 5.416206942582109385e-02 4.688058417535375111e-01
-1.392331114183958246e-02 2.730458475043555031e-02 4.471669282871380546e-01
3.514848253399308758e-02 5.337578051777293331e-02 4.916159969994605694e-01
3.633221006267418202e-02 2.799013759735831733e-02 4.646767393120142531e-01
2.016275949411063320e-02 3.428200445534143603e-02 4.576100927687417053e-01
3.344352446217418312e-02 5.373515810053473146e-02 4.790659503761592886e-01
2.188790968904733361e-02 6.586267384159862071e-02 5.075112610934966462e-01
-2.729527701218109441e-03 6.038157531711416115e-02 5.312416031831596053e-01
4.456522917249494675e-02 2.322454443755285480e-02 4.751581916516401938e-01
2.443755673892338345e-02 4.317717858743433390e-02 5.215236407528109908e-01
3.222395638083280084e-03 5.479310749244270529e-02 5.350089226424834532e-01
-3.902397902404975555e-03 5.755763088976025704e-02 5.356658346879276111e-01
1.557786084600531681e-02 4.405725570565014598e-02 5.316961995791775752e-01
-9.792966460450016827e-03 3.535952294781861266e-02 4.514751796597204492e-01
2.051165649648944642e-02 7.148973357019558494e-02 4.766691618578370870e-01
-1.163966469864885327e-02 -1.119995984757359356e-03 4.373988998869647871e-01
3.833619709988492219e-02 2.442124097878227776e-02 4.645743770235465364e-01
3.845581261807179407e-02 4.023958485239061827e-02 4.756697247220135760e-01
2.862133256552233315e-02 3.528402360607121174e-02 5.233761967746924926e-01
1.769687494047112244e-02 7.513294433567960229e-02 4.965474119224177474e-01
-1.548815083131763193e-02 4.447581361332993144e-02 4.543666512580099570e-01
1.611951115436334025e-03 5.946960147118009188e-02 5.336165380287584137e-01
4.481815567947498163e-02 2.340505273565226738e-02 4.957446156148475058e-01
1.680659986559069480e-02 7.615084885636977385e-02 4.900029932200175020e-01
4.274881135472095861e-02 3.466657918522710047e-02 4.859365396711159968e-01
-2.158298515986934590e-02 2.076436071691667093e-02 4.439176593029126594e-01
2.168549662895565694e-02 3.905429026544061238e-02 5.293872967358193016e-01
