2.041761488881564668e-02 5.096775549938487027e-02 5.215565169075070395e-01
4.600843096127377185e-02 2.402588225155720750e-02 4.874912038871007658e-01
2.328114229194505266e-02 6.210037642934861796e-02 5.122244796863374416e-01
3.749612411569058085e-02 4.839191377630766566e-02 4.971177277444746578e-01
6.892491150623731092e-03 4.721733133262055737e-02 4.588099158805480915e-01
-4.078070128069600218e-04 2.354430951165631045e-02 4.481198595488209979e-01
-1.531369411168945552e-02 4.763513831731331499e-02 4.557984938190328683e-01
2.955262254974328276e-03 5.134715261825635590e-02 5.379768388972924198e-01
-4.479298214671372652e-02 3.019680006418293955e-02 4.496405225026934849e-01
3.036528570417199729e-02 6.255234312141308428e-02 4.864015505766464686e-01
4.321830132400791141e-02 2.013016633040142639e-02 4.695080853999417658e-01
2.548293183732142433e-02 6.093695215113464209e-02 4.731548803904594980e-01
2.517595656321637218e-02 6.867892293993241304e-02 4.946210209399428681e-01
2.177645647598213524e-02 4.584671750708900484e-02 5.226749790604339196e-01
6.089931194311304710e-03 7.237168066799541666e-02 4.717447239856240038e-01
1.807859773242630544e-02 7.575798673318738519e-02 4.913911677765606667e-01
3.287225408800824311e-02 4.429027415532049011e-02 4.704762975416239557e-01
2.583772430019025748e-02 6.949983975242195189e-02 4.887137278160443854e-01
2.288873529844748234e-03 3.881153146348913230e-02 4.548213790579427318e-01
2.510565611225568788e-02 2.865728675709986253e-02 4.574428956985340244e-01
3.994806853587794249e-02 3.774655067938453845e-02 5.026438767223042614e-01
1.464687272203235927e-02 6.320484586541648409e-02 5.212392774094257719e-01
4.522625235751774608e-02 2.593438725789973948e-02 4.903417170007272063e-01
3.447600251648604702e-02 4.229550381562712652e-02 4.707652947169133073e-01
4.534615493074841547e-02 2.216036882599901545e-02 4.762259411892005301e-01
8.817748838397004851e-03 7.044202346044083074e-02 4.684664039480652131e-01
-3.415522430638031140e-03 5.432391425548901975e-02 4.586269560791651489e-01
-7.937273355484712745e-03 4.674327905515618387e-02 4.559200873171883051e-01
2.742079659978829097e-03 1.621666743341038455e-02 4.457786059379050259e-01
-3.987991036393325611e-02 -3.563782037148425976e-04 4.407675187107710224e-01
1.461626943616601030e-03 5.808614427631742655e-02 5.344581131979264654e-01
3.550821072181110927e-02 3.210911659966640685e-02 4.659406050027230517e-01
5.002677092774829998e-03 3.449800979955695845e-03 4.410972417981161575e-01
9.670953666994554568e-03 7.006650154034504974e-02 4.684167793420876413e-01
2.896181220172804049e-02 5.787722229483931169e-02 4.746853904435723859e-01
-4.651372487399635380e-03 3.787810057899135274e-02 4.532711099167282542e-01
2.788359788513864596e-02 3.242900439423655051e-02 4.607446451295725831e-01
-2.714256907583413331e-03 3.832776640560447111e-03 4.399683966211699881e-01
-4.753926803753511995e-03 4.451864501037146316e-02 4.555221600385326863e-01
-1.651182718323323043e-02 1.906303762920836392e-02 4.436789112057707984e-01
-1.988327079560140223e-02 1.513306923906524923e-04 4.374533081964236958e-01
-7.020541822881538885e-03 7.013027601500817707e-03 4.405720516613625959e-01
-1.803764485826745215e-02 -9.942963704211689804e-04 4.372187812212616764e-01
1.211031688723130826e-03 6.112767755856401974e-02 5.328614849019736033e-01
3.922655455179824974e-02 3.565645400325059833e-02 5.051064330098932187e-01
-3.241188409835248085e-02 3.598798464392401891e-02 4.502389516592604224e-01
3.795276411985713805e-02 3.275707821771461914e-02 4.682719005255401301e-01
6.005779373286339491e-03 1.646194135839732300e-02 4.465050654061550883e-01
2.267598869340674630e-02 3.223775752350478002e-02 4.577956175019318175e-01
3.320931965119505030e-02 5.711690707723793975e-02 4.939420292429338999e-01
-1.100275502471500556e-02 3.690040673002891597e-02 4.520751234978137023e-01
1.060832731384245796e-02 5.962755312205823832e-02 5.271932021504079913e-01
-1.538847243208035093e-02 4.287706074904971271e-02 4.539589104665536223e-01
3.292306548316435016e-02 3.452467850961218887e-02 5.151007074108870931e-01
3.669782659635394823e-02 3.801005365357623678e-02 4.703261474669949149e-01
-6.499023187120632830e-03 5.507006446911300729e-02 4.585832592036340194e-01
2.581219724374032853e-02 6.478927222252418849e-02 5.022721940275212127e-01
1.569606415162974264e-02 7.175328475787376425e-02 5.027598808815496589e-01
2.076217176482569177e-02 5.734170424097654456e-02 5.198461241379425113e-01
7.536158947609048787e-03 6.221262960874175685e-02 5.277307956828007907e-01
-1.170433860104079515e-02 -2.711360917069914264e-03 4.371345065624613335e-01
4.577292125056265509e-02 2.388456360627526018e-02 4.825341425161811526e-01
2.572765449711366531e-03 5.178277357541824499e-02 4.589462306864219854e-01
3.382143949203096633e-02 3.626094426271272986e-02 5.137766048869316649e-01
-1.613401679512456097e-02 2.886714655465889151e-02 4.476790916311313429e-01
2.938436779334577253e-02 5.307871923479021842e-02 4.725529157352141851e-01
2.559709571658656119e-02 3.183180650258903704e-02 5.277842461044798261e-01
5.231359169732404009e-03 6.340177828810818206e-02 4.636955680245825051e-01
-2.562183501802786645e-02 3.499903577775457381e-02 4.497797935722500084e-01
2.436906363497293865e-02 5.040467654185873392e-02 4.672123613549324372e-01
4.589636285829355039e-02 2.458866532221356052e-02 4.882313703957824602e-01
-1.723266759523124289e-02 2.009555606088926638e-02 4.439768948535520732e-01
3.928447243862531052e-02 2.533734558188667496e-02 4.658669479948295833e-01
2.279668566746193351e-02 2.430079332621579505e-02 4.542588263209956789e-01
8.088357400526095808e-03 5.818782665209298877e-02 5.293017614154361672e-01
-1.788549525332521362e-03 5.904267590460992449e-02 5.366085938328092331e-01
2.382519794606337282e-02 2.972873832559842430e-02 5.286537737227401390e-01
4.069811618181271712e-02 4.237334572550525980e-02 4.901658297792108598e-01
3.903208650173974059e-02 3.899607840533192427e-02 5.047061028016184281e-01
-5.916590309149501355e-03 5.106592270255840005e-02 4.574138739480290150e-01
2.634650562847200284e-02 3.702027561827984925e-02 5.252023069337253824e-01
1.868675058596536848e-02 9.237991816407071372e-03 4.464275867085368277e-01
-7.292717785325079699e-04 2.511119751089709376e-02 4.486940212850982768e-01
4.476746303781898445e-02 2.613775165611678664e-02 4.926558443205023563e-01
9.777791742413428563e-03 5.287642100762307736e-03 4.426974434402199954e-01
1.383498917033802733e-02 3.500105874206293349e-02 4.559544471654058961e-01
6.756549567047114707e-03 3.673091055597712921e-03 4.414997386243735833e-01
1.974863443398253149e-02 7.552161722551510581e-02 4.850395947204781399e-01
1.388089415331703047e-02 5.712388379581948006e-02 4.643025137758332033e-01
1.424440810175085434e-02 7.629100753458424589e-02 4.761757695714520788e-01
-3.198767698166824630e-03 4.841522370924613954e-03 4.402603481514780759e-01
1.003700820918617190e-02 4.827760770389802336e-02 4.599900296026322444e-01
3.282828164489658140e-02 5.198818333047508511e-02 5.082617202628949560e-01
1.723789826733929456e-02 4.266247981153616087e-02 5.313584337596513052e-01
-2.891143506532860459e-03 7.548804857712603303e-03 4.413239748923892258e-01
3.286449261676522432e-02 2.498180225165857332e-02 5.224703075730283697e-01
9.393127461617162277e-03 7.157533035329463611e-02 4.696179496699494083e-01
3.104514364475485788e-02 6.166137122096659179e-02 4.891735050974825860e-01
2.702700746265950318e-02 4.516485207559761683e-02 4.664536604229854166e-01
-2.867219234807382149e-03 5.595741369576669871e-02 5.364420607422321075e-01
4.137730143906365177e-02 4.026627606515055524e-02 4.881942036708504795e-01
8.486613949083031405e-03 5.457171908863807375e-02 4.615477528605915758e-01
-9.632730285741469486e-03 -4.720594691227150003e-05 4.378899309429776232e-01
4.261809056657882289e-02 3.612961848765060269e-02 4.874076158955142901e-01
-2.561273746973644419e-02 1.248312384344032848e-02 4.410451929200485677e-01
-2.474298432420846735e-03 9.386659655232238580e-03 4.421027774362148999e-01
2.700387344882530793e-02 9.791725949377246344e-03 4.501900781364706616e-01
4.599320829815300299e-02 2.374376390328800449e-02 4.857734411607527725e-01
-1.339155489287040431e-02 4.950891185569490649e-02 4.565662489771355470e-01
3.323939589390360883e-02 2.153838956044408851e-02 4.589369780999888460e-01
4.596728884065733739e-02 2.269584417979342642e-02 4.806689258221343852e-01
-4.123144492787752385e-02 -1.235020891399631494e-03 4.407045970916249056e-01
2.410492637834231802e-02 3.964458681252372441e-02 5.259604097201052708e-01
4.226642893252849364e-02 2.920057619233016460e-02 4.992362937112575505e-01
1.859960878308223112e-02 6.954388194050475924e-02 5.050788144497256882e-01
-3.250196790799685792e-02 1.988020840742403886e-02 4.443672786346997694e-01
3.380202001626009256e-02 5.573872133711754023e-02 4.951271108411021693e-01
1.842645704232665285e-02 7.185911501391098466e-02 4.742643147944583526e-01
4.316119808558169235e-02 3.465565628250665692e-02 4.889216583199519350e-01
-1.465362722635256063e-02 2.826864044051453223e-02 4.475144247348862292e-01
-2.064583233624615790e-03 5.795096868513003457e-02 5.273909408662348364e-01
3.364414207999578271e-02 5.635004286144364855e-02 4.937948772009852494e-01
3.410040899765755251e-02 2.522546425519487517e-02 5.210977277501707139e-01
2.243094827875987546e-02 5.698092896824601128e-02 4.686732110493581072e-01
-2.057925374022514728e-02 3.298607203340618577e-02 4.491674534667207674e-01
-3.960841466434693314e-02 3.929196766951932596e-02 4.535836361540158679e-01
-8.252766760206732555e-03 2.819589957007128528e-02 4.485856247518716367e-01
-2.514791763881212699e-02 1.970434100179952255e-02 4.435727707478935855e-01
-1.106708589113934021e-02 3.085564200832766751e-02 4.492782187912949809e-01
-2.839809516408275947e-02 3.456036542942513001e-02 4.495759005809612519e-01
2.864913861267104345e-02 4.355560796349172009e-02 5.166708761615452783e-01
2.126981469091166269e-02 5.862386472800575413e-03 5.311873071138554225e-01
-1.065807913764827558e-02 9.356551074795918868e-03 4.408211816074842915e-01
3.481753994573216077e-02 2.727457056943197872e-02 5.194756252424729270e-01
3.244891260419681400e-02 2.855739850755596373e-02 4.617704957494953577e-01
4.317182239920367565e-02 3.001598964757189181e-02 4.767326473211023208e-01
3.733164883080415664e-02 4.374885308849959381e-02 5.053229900520633811e-01
1.496370300641402390e-02 6.082252162598716927e-02 4.660867132766608467e-01
-6.372813651990216766e-03 3.210378304479935552e-02 4.505925401273317976e-01
-4.450513923243212475e-03 1.280335720951938580e-02 4.431058454707061389e-01
-1.548133115955220573e-02 2.099919969272810022e-02 4.445446920103855448e-01
4.208558895555983975e-02 2.654998357890092989e-02 5.019346116387913836e-01
1.736406283948912707e-02 6.388377742406185777e-03 4.448800388534507877e-01
3.425017633538972317e-02 3.377078086807246138e-02 4.657083260166601235e-01
2.995791866173065296e-02 4.566273009957383389e-02 5.151618868647902527e-01
-8.378977167700881953e-03 6.203337960937407858e-02 4.626023826077402812e-01
3.419730493589538678e-02 2.947072940307599725e-02 4.634975476258629823e-01
3.436196820861298074e-02 5.159780242229089486e-02 4.783989519815514124e-01
-1.833338055468549874e-02 5.390248505503477533e-02 4.584632551651716126e-01
4.029483173514215172e-02 4.148121057558327301e-02 4.989956446990623795e-01
-2.561708032422270812e-02 4.083906613924214585e-02 4.523205121543427132e-01
1.168294498427510479e-02 6.351917673951334997e-02 5.194437978263125588e-01
3.065078734025515964e-02 6.163239949612596413e-02 4.834273323430694491e-01
1.539145631027612898e-02 3.670137707691903395e-02 4.571334410158995332e-01
2.385397065134091041e-02 6.674235999551270115e-02 4.753285338178202535e-01
-3.393392710936927320e-02 4.364083453389055317e-02 4.552557396240526910e-01
3.769983453582947258e-02 2.560413650470153013e-02 5.129318507485209899e-01
1.646385744269856025e-02 6.757623340707115400e-02 4.697500233219137344e-01
2.657998685920182069e-02 3.044437730491109106e-02 5.271859439402725167e-01
-3.922475769479344399e-02 2.409148157112495081e-02 4.468076857435965277e-01
-3.359109808417141269e-02 3.471275687039211688e-02 4.497581402984396903e-01
-2.326223145609663395e-02 1.574700597174353428e-02 4.420643360704410441e-01
2.874200873699951295e-02 3.041031964560977213e-02 5.259238842167053285e-01
3.160490053381534437e-02 1.692168459394063212e-02 4.558745474977827783e-01
4.362122507079504996e-02 2.938880594115334671e-02 4.779464515762518184e-01
-2.023956971399551788e-02 2.133417778308549506e-02 4.442077660105849812e-01
-4.662067705256686158e-03 9.864933579314276446e-03 4.419542466527893176e-01
2.691523053013841066e-02 1.485819844061497461e-02 4.522193803968894699e-01
2.738128223805470773e-02 3.951625107018377769e-02 5.203989014364831522e-01
3.946715860016943023e-02 3.881456649091228478e-02 5.036060111093333402e-01
6.523751505101682210e-03 4.540238755328239451e-02 4.581082861641758708e-01
2.685220636813997336e-02 1.053976670353518746e-02 4.503903623094446251e-01
1.908252710459589288e-02 4.223072277591849444e-02 5.299592771701778782e-01
3.124681519935269478e-02 6.134308811031304737e-02 4.898484892854557682e-01
1.636814708375567556e-02 6.529371937473532617e-02 4.686706626894215910e-01
1.395211363475516199e-02 1.124890868489665519e-02 4.460033181931638557e-01
3.343699945299304088e-02 3.709045538371129325e-02 5.140935723636610444e-01
2.927989368689029245e-02 4.594988657801326454e-02 5.156573490800693271e-01
1.058535813547898524e-02 6.968301638853804936e-02 5.034267551961719711e-01
-2.439110168544814106e-02 2.879313408214927844e-02 4.471458860217169540e-01
3.535837373225751007e-02 2.153157279488447651e-02 4.604645480905969479e-01
1.111688121839913418e-02 5.574211088123508934e-02 5.277227627988828607e-01
3.607369204046444178e-02 2.231393507468370715e-02 5.189746449098663339e-01
3.332373780713027145e-02 5.066964639703588902e-02 4.754943517448603219e-01
-1.431505930054223844e-02 5.533636335452873922e-02 4.587629794709815467e-01
1.944264719118305590e-02 6.419801409937783698e-02 4.697646403450325137e-01
4.233063942361591642e-02 3.505899177169331110e-02 4.802095862579022767e-01
3.462023826628330553e-02 3.281134274637000775e-02 4.655160307132225617e-01
-3.020981656922425498e-02 3.831244314917394561e-02 4.512204106847335083e-01
2.371692401963625130e-02 2.349012481044292569e-02 4.543604856107691936e-01
8.829147876572376180e-03 6.968188481249333599e-02 5.004886298490078822e-01
1.843751397753631838e-02 5.635384267769208422e-02 4.660113181662757231e-01
2.213237753441138142e-02 4.140676924188724239e-02 4.619363655038498662e-01
2.986641919447641930e-02 6.255535349740107276e-02 4.947060250648038782e-01
4.555515347652941416e-02 2.317978765603335642e-02 4.929073389252570658e-01
2.350953805680069952e-02 3.071054246015342618e-02 4.575700933733131137e-01
2.926805777661480035e-02 6.456162451367410127e-02 4.873644593006190018e-01
3.659055733603476523e-02 4.976086948763717988e-02 4.994038526309661497e-01
1.597597748812906379e-02 4.084129288401108088e-02 5.328953026110062607e-01
4.120702730384724621e-02 3.243390219426662419e-02 5.007178032112836741e-01
1.856133074562837937e-02 7.317720272521104075e-02 4.997181325259678064e-01
3.452282947473896829e-02 5.509697678329234655e-02 4.851374336719100899e-01
9.195491719318880583e-03 3.704123876916090574e-02 4.556138785313820216e-01
3.800121635229074257e-02 4.413023284532774371e-02 5.033113869994427780e-01
-1.084923916159531015e-02 2.078961139662088842e-02 4.451379362798957851e-01
-2.100957687224338372e-02 4.925819452310233743e-02 4.565437937948139124e-01
2.859812864365843602e-02 2.148439745154825248e-02 4.560112123221747304e-01
3.661042044314957722e-02 2.720631847225037092e-02 5.144741200895297517e-01
4.401700101054100561e-02 3.052900706992878535e-02 4.911197608236948509e-01
3.529833715673826727e-02 5.373235417956089693e-02 4.898359128687085895e-01
2.398648882729854936e-02 4.590406633134523628e-02 4.648869998750210231e-01
2.699808267690106262e-02 6.789119521808888169e-02 4.888921854643890064e-01
-2.021311683401854145e-02 3.250507181645483773e-02 4.489894420222574900e-01
2.836586086936568676e-02 6.579546876839681424e-02 4.852283859654340503e-01
1.359132913837980683e-02 7.790024295236146201e-02 4.786390243031727887e-01
1.785773517809774100e-02 3.943507310270916166e-02 5.319496229906972573e-01
-4.319337339409047224e-03 2.565358305744507017e-02 4.482441058341983808e-01
2.778257689569862618e-02 6.310492696080381714e-02 5.024600282607910584e-01
1.889247845300242451e-02 1.931529211720624251e-02 4.504142108472981021e-01
-2.427196901465367151e-02 5.732919738197058551e-02 4.631649678586734487e-01
9.686932561620771251e-03 7.038992344480697605e-02 4.999595614602654892e-01
1.507391017586640243e-02 7.646309501472098313e-02 4.861394224866363856e-01
1.473588573168385651e-02 6.256417492408404557e-02 5.223398644351052722e-01
1.405792017840819946e-02 6.516104978277161008e-02 5.124103906722090596e-01
-2.274784881563046354e-02 5.267401439900810250e-02 4.583399380075306451e-01
1.923847530853341550e-02 4.543606253851288634e-02 4.622959872030970030e-01
-4.230986380054596249e-03 2.847082947928574609e-02 4.494016600747827161e-01
-1.795475562675080509e-03 5.073464837686837009e-02 4.577959041374878302e-01
2.506952522939921366e-02 1.332451965979746834e-02 4.505991202972615683e-01
3.149785965893576317e-02 3.146684249367440178e-02 5.228434133861316058e-01
4.007822789067844865e-02 4.319621822310642373e-02 4.964272494787444479e-01
-2.642169734109945777e-03 6.014931174782741502e-02 4.604710699819268283e-01
-1.539040339717365116e-03 5.870232865569642577e-02 5.373415143146896833e-01
-2.132180590237526402e-03 5.652308255613193444e-02 5.375679651717125695e-01
1.838531979011092526e-02 1.449258608407321194e-02 4.484441136208233147e-01
2.572282067415034706e-02 2.214350934089365577e-02 4.547898169152622683e-01
2.133173884961946445e-02 6.120956554963429691e-02 4.697592756288436755e-01
3.345622598209442577e-02 5.258329877421526188e-02 5.054981513543940208e-01
1.012865942236844743e-02 7.015695038536970407e-02 5.012642820564356949e-01
-6.444778916328304866e-03 9.368755146508998821e-03 4.414867493863823267e-01
4.181446654681254121e-02 3.488256825077141327e-02 4.984208855210084388e-01
2.706296309698189712e-02 3.664836445280428984e-02 5.244476192538289894e-01
1.627343465878621290e-02 7.704621575148885848e-02 4.846984219146807105e-01
8.060843680228080722e-04 1.913235797632124174e-02 4.465868434523337371e-01
2.170713477921753370e-02 6.609654331696991625e-02 5.067835429020802751e-01
4.062479247222749307e-02 3.666280364876062237e-02 5.011264323200749216e-01
1.293527845056736091e-02 2.601413238581766138e-02 4.518694325425838820e-01
2.527988272192617167e-02 7.000028039738669106e-02 4.897393686718270467e-01
3.783020144092105047e-02 4.799286930677109514e-02 4.950122379443956389e-01
-2.241840528743865683e-03 3.208226459491528293e-02 4.512115748080200994e-01
6.193464747487640448e-03 6.108647227888075459e-02 5.212657032540622959e-01
1.988618497335800303e-02 8.968493448955236827e-03 4.467751838871947268e-01
3.515599287469602791e-02 2.859428390923512281e-02 5.173208557684753073e-01
-3.100150696654558127e-02 3.339858740400945825e-02 4.490995568087565726e-01
9.818478957712312508e-03 7.100489575647966900e-02 4.689197324868298322e-01
-3.348798906967332539e-02 3.592074646842571828e-02 4.502570612650201309e-01
3.140479412816317428e-02 4.950208241752305366e-02 4.727099068875090793e-01
1.782010329221675807e-02 4.425371250846631133e-02 4.611184310716414658e-01
3.017760116684527899e-02 3.610013483641770493e-02 5.191277565326011256e-01
2.313569259493115232e-02 7.286739360311469960e-02 4.896636660647775141e-01
1.370085707629233041e-02 6.592742825349785785e-02 5.107412008819238736e-01
-2.579284172478923942e-02 3.504008465902947594e-02 4.497963897756057094e-01
3.564971838964984402e-02 4.794056854817802665e-02 5.056936141230298221e-01
3.242565655001024977e-02 3.653916309569259918e-02 5.152624022980876184e-01
3.269785011570722905e-02 5.862557857451249077e-02 4.890320259874749720e-01
3.293860677012462601e-02 3.395482793216154233e-02 4.648537957523787845e-01
3.873311396357880659e-02 3.313883927235562743e-02 4.697873219405004908e-01
5.993347918829300403e-03 6.096949772653306038e-02 5.211318690721036262e-01
3.393491850617416650e-02 3.675224541100392817e-02 5.135928268646061667e-01
-1.322071387602236602e-02 4.469401159029640080e-02 4.547970352542898276e-01
4.030627928639361063e-02 4.304134826556463983e-02 4.868663238337561650e-01
3.541925747963603488e-02 4.704807518898505847e-02 4.757087397567650311e-01
-5.660445439433515677e-03 3.811122579096754698e-02 4.532520334880885127e-01
1.267450514965972816e-02 3.030372464581442341e-02 4.535962142146326426e-01
3.018265774207053165e-02 2.743897520889010747e-02 5.246689631163703460e-01
4.582300075075994295e-02 2.204968008455434128e-02 4.787386148707176714e-01
1.636187932187727935e-03 5.924554883372865066e-02 5.242260817689127217e-01
2.457887167132530651e-02 7.004572198069455857e-02 4.824174395149409267e-01
3.243005930528795183e-02 5.722388832871788678e-02 4.798983767074970763e-01
6.574368073620292727e-03 7.333002055087144144e-02 4.724237506875183512e-01
8.600302670433102037e-03 2.228832395387680271e-02 4.493556403336432248e-01
1.085745563520186530e-02 1.450508767202546984e-02 4.466910948440414031e-01
1.747984846709384199e-03 3.616805068088610464e-02 4.536401363868441949e-01
-1.433177246062722690e-02 5.834051824353448518e-02 4.604886877348997598e-01
1.598261091452166799e-02 4.869870667601874925e-02 4.621620431447563404e-01
1.730485069955003952e-02 3.000462826452208673e-02 4.548215931567281545e-01
3.596951570231542161e-02 3.576858597151588021e-02 5.108092092343854418e-01
2.341717007235829401e-02 5.775045696132966033e-02 5.164281411711877379e-01
-2.614770205524315216e-02 8.779773440206178198e-04 4.380102468750964873e-01
-1.626274284924959096e-02 4.825252639538243904e-02 4.560452529829159274e-01
1.256703490619980219e-02 7.382363738164736400e-02 4.979897364219177947e-01
3.194229175596618314e-02 4.353432663138459557e-02 4.691745851484483976e-01
-3.257561089350147904e-02 2.075215214717933063e-02 4.446140451408351901e-01
2.891432303665699907e-02 6.072689740561771493e-02 5.046896902990285483e-01
1.641631003943861897e-02 5.921978250104287939e-02 4.661386244668973000e-01
5.150836230391397583e-03 6.234167177468741272e-02 5.254850405749017517e-01
2.670320200977055122e-02 4.104194506591641450e-02 5.205672889246787394e-01
1.909845648843347399e-02 2.113471060350111813e-02 4.513638564019809563e-01
2.278239628341936773e-02 1.465403498015713582e-02 4.500720533326887374e-01
2.475035418713368227e-02 6.942740856732240728e-02 4.938966093872358964e-01
-7.649373380286976498e-03 1.587098192653882411e-02 4.437822445901600243e-01
1.186947224626226302e-02 2.721130305537599117e-02 4.521280551035015693e-01
-3.735420424192948535e-02 2.861910369037668628e-02 4.477235923288670483e-01
3.443322514632408266e-02 3.083034491870788665e-02 5.171274397431102621e-01
9.950552971450617526e-03 7.910860532007835122e-02 4.783025804889266541e-01
1.441820561480052637e-02 4.060327785583743576e-02 4.584489405314020605e-01
1.639736571750871619e-03 6.771807344786623384e-02 4.660243467245078208e-01
2.929270305983281558e-02 5.297046286661297870e-02 5.123541590114506494e-01
3.535229646191758585e-02 5.316255349435744515e-02 4.929671190402478143e-01
-3.892843790510461255e-02 2.456846561792776565e-02 4.468850268084262889e-01
1.787038542914443431e-02 4.823055532606942974e-02 5.250626829540080420e-01
4.187501342046654612e-02 3.791416199172720214e-02 4.851017052990403977e-01
-7.567428801878210709e-03 2.946652539715173200e-02 4.492695000719387211e-01
1.474240800919569133e-02 7.697979937470780798e-02 4.809480725376508170e-01
2.489333516133069787e-02 6.650563675601381397e-02 4.765734024850374340e-01
3.837544291581400369e-02 3.968221648397100149e-02 5.059922736250432873e-01
-2.728896740008060484e-02 -6.358009302410167624e-04 4.379432494308987400e-01
3.654240872340550061e-02 3.369292998827420893e-02 5.107500720463158395e-01
4.659232916322276867e-03 2.975805007069943359e-02 4.516286049834843941e-01
2.523638919630933133e-02 3.165709968383766809e-02 5.279915773336354423e-01
-3.168104149171624417e-02 5.802477515502888969e-04 4.387542225347796365e-01
1.438661560020045201e-02 5.866738740762375559e-02 4.649590648158992701e-01
3.080669153983974298e-03 6.172454411622282922e-02 5.304837237044391918e-01
-1.296212031922855043e-02 3.585961498278322085e-02 4.513424072275918353e-01
-4.266943128654178061e-03 1.182486125468613924e-02 4.427560752026585833e-01
4.157693214612405430e-02 3.956098305292340273e-02 4.878275564667094999e-01
4.143382882783919197e-02 3.771548663044441835e-02 4.984631850140056608e-01
2.378298246108999717e-02 4.185570455097165771e-02 5.230924835452667176e-01
9.867075213599444446e-04 5.987704766439026077e-02 4.609058923863722512e-01
-6.805284836750422409e-03 2.450163266355370045e-02 4.472804485476538083e-01
8.956721743178401585e-03 4.037616202126038251e-02 4.568873599317505030e-01
-2.410199307483829392e-02 4.519715493066198131e-02 4.546410921986637765e-01
3.957316537122353324e-03 1.829891206410167587e-02 4.468541941850430188e-01
-2.723569656976825362e-02 2.150159992458219871e-02 4.442573254756708723e-01
3.350283121966449174e-02 2.266151813059671255e-02 4.595977196304519286e-01
1.884856199204437005e-02 3.626626516447632731e-02 4.580103864347311315e-01
3.855499035389446660e-02 4.264511424310340332e-02 4.777074119318626133e-01
2.367567016671218161e-02 3.099608357904608952e-04 5.334619746598280310e-01
4.424345138536600608e-02 2.894810060524415432e-02 4.814493561841433067e-01
-4.399439873717431865e-02 3.197585092262279077e-02 4.500244982535245297e-01
2.352595779881708898e-02 7.121530314182378252e-02 4.930414291475772592e-01
-1.700496494112264945e-02 6.938513763327188236e-03 4.390181973818121919e-01
3.726523385753234552e-02 4.912754986670150870e-02 4.946471474240011212e-01
-4.066925791213164831e-02 3.206631422785348462e-02 4.493904860619212793e-01
-1.527406342020409639e-02 1.976803840943615678e-02 4.441053211716993743e-01
1.604007762181463431e-02 3.745040978711476620e-02 5.326272423592361971e-01
2.441502296656580459e-02 4.913399575431327826e-02 5.188806432578315642e-01
4.172051061442650505e-02 3.882452550246938416e-02 4.941728372562865790e-01
4.743856931409501897e-03 3.964230485598351644e-02 4.556298366407386391e-01
2.567043162302723794e-02 5.020366784493758561e-02 4.680296312914490886e-01
3.342383963375786943e-02 4.555598028487780476e-02 4.720641113339258399e-01
1.290548826628507006e-02 2.086956630376940458e-02 4.497373102287711699e-01
-1.060074543722232428e-03 3.110984296235337621e-02 4.510404300470663430e-01
1.352477188708512898e-02 4.760627182150819342e-02 4.608924216569433852e-01
-3.390443559297498521e-02 2.608565807944142681e-02 4.466205997618921675e-01
3.639210348374934123e-02 2.909267913922432627e-02 5.137286591868197583e-01
-3.464488488715091602e-02 3.538326422564639501e-02 4.500826943332696950e-01
1.985983490487107025e-02 7.539998242589085464e-02 4.889306775772343516e-01
1.371282886128169509e-02 6.224547360404017460e-02 5.241956491692826292e-01
-4.286667483428038133e-02 3.582897400411640121e-02 4.514225201143597932e-01
7.861628113496881010e-03 5.257331393455530466e-02 4.606981514761725460e-01
4.849671951999080105e-03 5.222055216100686403e-02 5.363593021741683842e-01
1.682161544408852794e-02 5.535430734970025329e-02 4.649415173680463975e-01
-1.039406380884242038e-02 -9.488287439349267667e-04 4.375357471213263683e-01
-3.794737442086627832e-02 3.912713762997157424e-02 4.528566220441518908e-01
2.630831835874384433e-02 6.572889132342710217e-02 4.986320647379617887e-01
2.848720000194551391e-02 4.252285120236797000e-02 5.172544985442406595e-01
-2.378210835136044740e-02 4.851179832030866335e-02 4.566469605024136014e-01
1.361680667807306684e-02 6.338699717824762547e-02 5.203191962917674829e-01
-2.520946143306599697e-03 2.890839455479873865e-02 4.498914249254329922e-01
1.042679848924166382e-02 1.816691840752035145e-02 4.480824127563086123e-01
2.109545763314620015e-02 7.461351102891737586e-02 4.868842884514456570e-01
1.766651252482074816e-02 5.007633201873778334e-02 5.242600939785321268e-01
-2.928433842811593510e-02 4.029841381646908499e-02 4.521749983693507113e-01
3.212826582303669742e-02 3.270677319547143913e-02 4.636796484578689093e-01
-2.808153849147876011e-02 3.351526652124377226e-02 4.491294330994592410e-01
-2.961948721245802069e-03 5.699625800629497252e-02 5.355645175918620771e-01
2.079367549942644569e-02 1.219073064453993042e-02 4.484383057267555817e-01
1.588805097432204744e-02 2.444398167561757235e-02 4.519558422364812755e-01
-2.739103512982674765e-02 3.575807401142776926e-02 4.500970265440466522e-01
3.358945344679773598e-02 5.682347218047399673e-02 4.864241471995179866e-01
-2.639661978056814795e-02 1.159208165875561837e-02 4.409037051975162602e-01
3.377852756857788012e-03 5.407213438066202360e-02 5.360621010946302611e-01
3.393135986768557738e-02 4.287977553725508956e-02 4.704847045756415103e-01
3.851828576637691265e-02 4.647024956599198064e-02 4.990201924752331597e-01
2.048621400537535206e-02 2.173816636372189262e-02 4.521767078850178478e-01
-2.196798178971615459e-02 8.764335841644566374e-04 4.375533034270022159e-01
3.510942073671546870e-02 3.576205538729779199e-02 5.124352376672054454e-01
1.179231648879224340e-02 4.322962921337943076e-02 4.587498103063834543e-01
2.957324804214383346e-02 6.142022203332678232e-02 4.780362229459663159e-01
2.520544138413158969e-02 6.915647657461848619e-02 4.928907528777842773e-01
3.798192597471981152e-02 3.781509483771126889e-02 5.070482274276456591e-01
6.780777244412465946e-03 3.616391447737492965e-02 4.547092367377642552e-01
1.233715505166568110e-02 3.214405507521471417e-02 4.542907706157525705e-01
2.599353299129344638e-02 6.565654397130908648e-02 4.771280653717861475e-01
-4.110460296148975984e-02 2.910148857938054182e-02 4.485975827000285299e-01
1.385720820184565757e-02 5.000884120521641163e-02 4.619443686778646474e-01
2.149682846250335067e-02 3.810011012344159675e-02 4.600772758484122926e-01
-3.324582727746602795e-02 3.290199922739512478e-02 4.489904154509175571e-01
1.699437668528365475e-02 5.415682242941514957e-02 5.232130589675154653e-01
3.312701185924690761e-02 5.477458771133486559e-02 4.787585945329462245e-01
1.929637778099395568e-03 4.630924380368869192e-02 4.571774418326328693e-01
3.783651182442766131e-02 3.466812851846853838e-02 4.693965957121682409e-01
1.141650630243799466e-02 7.026768035116293110e-02 5.031834180472348761e-01
-2.831271397518914795e-02 2.736493757141034155e-02 4.466943970517655571e-01
1.072588066948777785e-02 6.546744246207848728e-02 5.095052699295932186e-01
5.359751948928413549e-03 6.069575944854264243e-02 5.170933263765888910e-01
3.838790723333442706e-02 4.576428967142313203e-02 4.810186656406318373e-01
1.030302777635732497e-02 4.806722526919122301e-02 4.600001712882538230e-01
5.182214914772408088e-03 6.223587951036571586e-02 4.630932473637113245e-01
1.770645143905886067e-03 6.088816173911972690e-02 5.270872071405469095e-01
2.409233235336605966e-02 5.346342089921634483e-02 4.684359113899869143e-01
-1.185574588912245795e-03 1.759687636458930407e-02 4.455849273468719396e-01
3.824537350779813605e-02 3.012202558823046106e-02 5.089303832030692698e-01
3.936419307843967014e-02 4.524909559644994111e-02 4.855874650544670934e-01
5.827010676959406589e-03 8.800741638267453593e-03 4.433627363736926119e-01
2.867699226683993741e-02 5.492240981757050972e-02 4.727994316850558376e-01
1.423225048833932221e-02 4.424848215427024112e-02 5.327317440861469855e-01
3.663339892864550529e-02 2.147876225945870646e-02 4.614362477333562307e-01
2.954578927526787732e-02 6.036658442970108118e-02 5.031956836630842034e-01
-1.823675224401874809e-02 4.852942413258350129e-04 4.375236908043300121e-01
4.439476875038205622e-02 2.974132574898435272e-02 4.867705291726266981e-01
4.126914151906217743e-02 3.701435650587775461e-02 4.779796940890915780e-01
-2.229787517668045324e-02 5.276203038921790933e-02 4.582936548526380105e-01
4.240203947601287743e-02 3.290081738412615336e-02 4.770701876463105395e-01
-1.465200022746724826e-02 2.390141203489281121e-02 4.457596437249236043e-01
6.350815381153002495e-03 6.182825349095173728e-02 5.225305082962291570e-01
6.969794683058870392e-03 7.688049459131300611e-02 4.794372694990088890e-01
1.290940323428406769e-02 1.256042996210154743e-02 4.463256117188860173e-01
3.305311590159554225e-02 3.861708049229509165e-02 5.143245029197858198e-01
4.375831311903261023e-02 2.804835151090926890e-02 4.767433985234101335e-01
2.405572282606993628e-02 6.243641823722109740e-02 5.106999865471134603e-01
1.885952807640831411e-02 7.039668084207485743e-02 4.731845862353813992e-01
-2.922412379616869723e-03 1.972265817327393742e-02 4.461113349171467179e-01
2.316759447646637299e-02 4.836512215249052365e-03 5.316710150837697935e-01
-1.260976686906733124e-03 5.712129662227367899e-02 5.242718974359017459e-01
1.822661896056402067e-02 7.294520926881972733e-02 4.755297136265319025e-01
2.520014246826623658e-02 6.587420732168029758e-02 4.762249298035159395e-01
5.366576250891183335e-03 6.169020274081163380e-02 4.628824319131082943e-01
7.112758987109945273e-03 7.525829134505837570e-02 4.763784211263253909e-01
-1.641497305149443309e-02 4.538481843949259548e-02 4.548075076179773912e-01
-1.380701432294145076e-02 2.773285184736266895e-02 4.474182634897478916e-01
9.479082188040891671e-03 6.377060865166608861e-02 5.171412865359330535e-01
1.528314619820887559e-02 7.500429508164938031e-02 4.755374412379862470e-01
-3.600018228071311804e-02 4.285608228770275419e-02 4.553639241501090118e-01
2.999972791884126383e-02 5.836794672328360356e-02 5.056752035304028503e-01
2.647743466999369355e-02 9.336335440257550328e-03 4.496917494742059818e-01
1.379748333347138346e-02 6.483801725379337300e-02 5.153442480892294064e-01
-2.940906518048545110e-03 3.547600896229476802e-02 4.525234863294569920e-01
1.127106321300772387e-02 4.413197431450185948e-02 5.345706314501968981e-01
1.411530555568790354e-02 4.424518172699668656e-02 4.598572472578430492e-01
3.146958756404238250e-02 3.976899243175273380e-02 4.667776522505369119e-01
-9.994746318103233523e-03 4.239300278530722457e-03 4.392057236211908688e-01
-1.876778483520384925e-04 2.474884378839856125e-02 4.486472428345181784e-01
4.501649268318450720e-02 2.722092160293327137e-02 4.853636134831796900e-01
3.790000736592031433e-02 4.163670030547194506e-02 4.755265516108793111e-01
8.401367287882457319e-03 1.541687966934538780e-02 4.465538514103556400e-01
-3.156388927653394627e-02 1.223231404608688191e-02 4.421697595668198644e-01
2.664707671622506407e-02 2.164606544047228270e-02 4.550435314654867058e-01
-1.184600475786245360e-02 -8.148184476013932420e-03 4.365692497437761999e-01
1.253437592686854236e-02 4.795808433711168384e-02 5.302275336787178883e-01
-1.039616935768314029e-02 1.936454040580878194e-02 4.446574973845683898e-01
-4.739717154775538802e-03 5.651733734820351546e-02 5.310508941200066113e-01
1.923651380538913061e-02 2.166467627420368830e-02 4.517096733249089113e-01
1.682156596661892739e-02 5.164017423883646846e-02 4.636687121851168492e-01
4.107537867794435610e-02 2.456072583869267634e-02 5.058342422910209191e-01
2.671766648280391940e-02 1.186114306558245547e-02 4.508777610886709475e-01
2.885187619029411232e-02 1.748340647150602514e-02 4.544221271269232587e-01
3.750112885213400388e-02 4.715012670208244133e-02 5.017498777188444947e-01
2.174703636977398657e-02 6.162990418725945024e-02 5.149884826188046993e-01
1.860821840007267913e-02 7.562042827549321500e-02 4.825402024024199044e-01
2.920537375879368736e-02 4.165509703668836966e-02 5.170797448382060679e-01
3.742132729071490083e-02 3.030099422531322070e-02 5.107589899638691477e-01
-5.940364934298520555e-03 -1.430241110519843775e-03 4.378380056051429103e-01
1.164381065418177916e-02 4.109228954948374729e-02 5.340898053975913218e-01
-2.236059010555627516e-02 1.855703600945057472e-02 4.431374378196694108e-01
1.468772995249706566e-02 7.073262828116955170e-02 5.050923818875797666e-01
4.141330353901897382e-02 3.568261604958113814e-02 4.771691802861637854e-01
9.509828123926485077e-03 4.866786426473303923e-02 5.328851053435582630e-01
-2.030159671041967609e-02 2.484227286535550111e-02 4.456111651116323458e-01
7.938932736037266832e-03 9.507840431525322461e-03 4.440620106732497407e-01
4.825068374003456742e-03 6.067290476678364325e-02 5.158941375965618859e-01
2.111748658318526525e-02 7.382546708068069008e-02 4.825634994030258973e-01
-6.240272772573095608e-03 4.488737763193633573e-02 4.554884804183239044e-01
8.533259064023994075e-03 1.126884925510952991e-02 4.449002502270973936e-01
3.230446870203844412e-02 5.580290460929519802e-02 5.025023160919909193e-01
4.181994620816213183e-03 5.236820972887723524e-02 5.370999494774496563e-01
4.530149375888320451e-02 2.543386807401457061e-02 4.821392391690258461e-01
3.720673671412647043e-02 3.700789082887070980e-02 5.082637078346270432e-01
4.319934762386169053e-02 3.478469734338488634e-02 4.905897381759400933e-01
6.791159193548527637e-03 7.602802232418313932e-02 4.787012903353933257e-01
4.326528544762511114e-02 3.412718601280544106e-02 4.882802377287420170e-01
-2.460668944005729719e-02 3.661137020992887708e-02 4.504891257412279026e-01
1.060384150696024735e-02 3.697894864606482077e-03 4.422252837393238489e-01
1.094777864010483895e-02 5.630143537592020159e-02 4.629748431366529915e-01
-3.414760152357089462e-02 -1.758717564842188349e-03 4.391901753980110290e-01
1.674854552308351757e-03 5.503685564645751510e-02 5.376956807282624595e-01
4.035712486530258769e-02 3.945003474723910580e-02 5.005565607966782071e-01
2.297262431980845801e-02 5.423462554596033408e-02 4.679225056735410448e-01
3.057718929334293442e-02 6.249685103984758960e-02 4.888938818497488015e-01
