-4.995100777025272831e-03 1.364978043359840743e-02 4.433083273927400647e-01
1.253993297614833941e-02 6.180497397184421537e-02 5.249303965265168515e-01
2.388096390461347251e-02 7.025845667396320160e-02 4.809537714056285607e-01
1.671917205969733825e-02 7.593212964011068766e-02 4.802054264577590992e-01
-1.117590589116864742e-02 5.308207401396083241e-02 4.577967054039109862e-01
2.785501993611539523e-02 5.617623333844615208e-02 5.115723915868749527e-01
1.616705049566730806e-02 4.503052447413748854e-02 5.294488110393978930e-01
-7.670821285662094216e-03 3.160905815675053854e-03 4.390832592544648971e-01
3.037435027205673266e-02 2.791195356162516628e-02 4.599707275561676911e-01
1.711362069520321050e-02 1.935369894651848416e-02 4.499540099428742113e-01
6.069922091260559170e-03 4.335079736699173902e-02 4.571889118266764807e-01
4.037013477530584926e-02 3.127342604530269909e-02 5.028876769913037670e-01
5.492834560689524581e-03 2.092601144593164708e-02 4.481432379387309539e-01
2.428018330277269959e-02 6.544720145118626542e-02 5.041940183220232630e-01
2.176004311730097771e-02 5.387448175258930522e-02 5.192665106629276162e-01
1.522509610821033525e-03 5.535428654724600106e-02 4.595707825276994507e-01
4.545266203740506994e-02 2.292891132205946911e-02 4.937187665200818976e-01
1.408779027311990624e-02 4.675992145460620975e-02 4.606182780940489274e-01
3.201225009140475780e-02 5.939669968219333379e-02 4.843268053288969921e-01
-6.024163139010298845e-04 7.482045543614750105e-03 4.416216379916939050e-01
3.026193881992950141e-02 5.232859037388183643e-02 5.110626022642520416e-01
5.400165504492879069e-03 6.067906999038892579e-02 5.309871834310384564e-01
1.805926835941414066e-02 4.289698520989914526e-02 4.604872267861674362e-01
3.026112378286214405e-02 5.169748481705367660e-02 5.113767927015472337e-01
2.486331076095068052e-02 5.985459827033431934e-02 5.123539313923516358e-01
3.566894508740496572e-02 5.164823477300298227e-02 4.966885051428766573e-01
2.280246784077832878e-02 3.986673019107239008e-02 4.614430153471321128e-01
-2.745486349071555449e-02 4.603902914340573388e-02 4.554524936996912632e-01
3.295375073320307852e-02 3.402870475471682365e-02 5.155313755594721492e-01
2.351061066266670746e-02 6.641099540129044576e-02 5.034927384873825185e-01
-3.840346143117725694e-03 3.325103648710910770e-04 4.385705626254302048e-01
-1.147561763690125441e-02 7.802553839731796517e-03 4.401500208580821916e-01
1.065414806809872675e-02 3.071090310699833500e-02 4.532215583919967927e-01
-1.473713031806126068e-02 1.048523686514137541e-02 4.404960376832091629e-01
2.401619518007043833e-02 5.632992795263388336e-02 4.694760016940373037e-01
-3.006625654691809021e-02 3.131426406180180116e-02 4.481543800365914154e-01
-2.555310989103761615e-02 3.372540688994921706e-03 4.382910984380899988e-01
7.978477156792205399e-03 6.874989068470167830e-02 5.015181305646359000e-01
-1.073420728445298455e-02 6.722240842509281944e-03 4.398939278070773673e-01
-2.602635714356234253e-02 1.318498954476576487e-02 4.412669207691680695e-01
1.606919611798188902e-02 7.576095060593812658e-02 4.893913410158904354e-01
2.668942810683951408e-02 4.424383911515453183e-02 4.656638198696055886e-01
-3.129721409830350104e-02 2.699543030997529625e-02 4.466925381854883192e-01
-1.096662276458267027e-02 -1.224336531220142658e-03 4.374212940856849752e-01
2.450950591583903743e-02 3.918746765697682377e-02 5.255671179039846930e-01
-3.554616863863321614e-03 1.812056302174628458e-02 4.452991452716409948e-01
1.287897320139538490e-02 1.727891227954981082e-02 4.481915296482773536e-01
-1.275475889346876918e-02 1.772519286218177809e-02 4.436009409726870967e-01
-1.219831635368683054e-02 3.718485926273863706e-02 4.519746574646801851e-01
4.013964616659725961e-03 6.085727993858346119e-02 5.320648364572970745e-01
5.157495178179287085e-03 5.533497325836958178e-03 4.418680743754750395e-01
-8.873775162764371838e-03 -2.618550561578582118e-03 4.372853190420889491e-01
1.714947856993083788e-02 7.679380747137148910e-02 4.841503052011485453e-01
3.262299177230077590e-02 2.747624413220694020e-02 5.222144326867371733e-01
-2.408648155545261779e-02 1.120569559612026068e-03 4.377126074183111393e-01
1.534216649447655081e-02 3.278484645603087222e-02 4.553370484272097896e-01
-2.558025488555805069e-02 -1.803405627024265087e-04 4.377370378914844373e-01
2.009847716220509659e-02 5.314500247956185919e-02 4.655099685153467615e-01
-1.644372092364628640e-02 4.044328544827966582e-02 4.528238849292930968e-01
3.376344109277753386e-02 3.792945839124454988e-02 5.133277867305827691e-01
2.276281159506064050e-02 5.788099636711193513e-02 5.167994535531480471e-01
4.208022401695723363e-02 3.735389628114896277e-02 4.857942571840438983e-01
5.238356039705505812e-03 4.970760173822751787e-02 5.366730221174570437e-01
3.814114789605423800e-02 4.757708416362414761e-02 4.933741232308626046e-01
-1.214404090458453926e-02 4.235093374027257968e-02 4.540439099966673275e-01
3.673933127488467759e-02 5.030674478630768609e-02 4.840805568386803426e-01
2.858678887290850429e-02 5.638743378656620869e-02 5.104097382718528753e-01
-1.168312994889236962e-02 4.333399876225797059e-02 4.544181371981758644e-01
1.812801365383244490e-02 7.513051779655498252e-02 4.953938241949594756e-01
-3.778088790382337463e-03 4.768630071779730861e-02 4.565365352007076383e-01
1.357169375477346694e-02 6.294551830517004787e-02 5.218511340794383946e-01
-2.401342026198631865e-02 5.192162247386768181e-02 4.580712719175257797e-01
2.223077916346635416e-02 1.361001898427492002e-02 4.494314145684547013e-01
2.965718860543395397e-02 6.294484461992537472e-02 4.814501672768100593e-01
8.335231307610772161e-03 6.359135226505224781e-02 5.147552568249025295e-01
6.134832036019955900e-03 7.106815153573872723e-02 4.702528082626011852e-01
2.041756250042950360e-02 7.479360403562200499e-02 4.907591763799529772e-01
2.241901065872176774e-02 5.951073049533222442e-05 5.334620371159205510e-01
7.018660660278577823e-03 6.164277592083672319e-02 5.194792374577817951e-01
-2.760255142014825247e-02 5.038281547986576958e-02 4.579685903441206296e-01
-3.260810654960720478e-02 2.422991222261000957e-02 4.457487216275847208e-01
5.425177892133160526e-03 5.251204319857339514e-02 4.598492662170639567e-01
-2.227108563414914241e-02 4.650627704955446334e-02 4.552257901593008693e-01
-1.293197203240446444e-03 5.998934959647588688e-02 5.350433551588097414e-01
3.079376190133996383e-02 4.732239211839495141e-02 5.132181602235941220e-01
2.731273045625822252e-02 4.390046002852818208e-02 4.659033156882024795e-01
-3.439999110766494422e-02 4.065757885976444691e-02 4.529058131191059933e-01
3.863788977277440168e-02 2.885969026595181300e-02 4.669874701018082441e-01
2.675616146501886769e-02 6.280909859245797922e-02 4.754707543869599040e-01
3.482164318959873883e-02 2.311105410087810688e-02 4.607317707531858875e-01
7.331998964118943696e-03 7.743182438458269534e-02 4.782838730203615718e-01
-1.649155961953769917e-03 5.976749777172789962e-02 5.318963550382050931e-01
-3.484653479289462341e-02 3.868520933894991493e-02 4.515199303283493615e-01
-9.804318052441385670e-03 4.297016329369894583e-02 4.544587917544575251e-01
-1.149031486363705917e-02 2.809794196595667704e-02 4.479261219849110520e-01
1.326647434532359122e-02 6.497943799385348662e-02 5.138395355827275468e-01
1.499821039544145876e-02 5.829741194563193424e-02 5.234977780972106531e-01
4.131733171255693587e-02 3.748091103874023888e-02 4.986596482246890560e-01
1.500403413549435475e-02 6.702106941928200057e-02 4.685562410606145534e-01
5.284574361624680937e-03 5.318489641797150697e-02 4.600036440586715569e-01
2.807042737868497770e-02 4.995196895572184131e-02 4.696299770978065724e-01
-2.121305548200720995e-02 1.025020023414516604e-04 4.374114616543001710e-01
-2.213991021682577397e-03 4.559273088712254701e-02 4.561051274048984472e-01
-3.686992848784709231e-02 2.017796854062899048e-02 4.451711391451749211e-01
4.290187912055729025e-02 3.269904867189850350e-02 4.941290570864693699e-01
5.259121715570592645e-04 6.557082294816848900e-02 4.645213755742802486e-01
-3.502847904047606820e-02 4.089810606652231201e-02 4.533372293941265174e-01
2.777173017919404643e-02 3.307230015404059864e-02 5.258760318462123440e-01
-3.321786776144201175e-02 3.474722325450597948e-02 4.497130466835252971e-01
-3.883284887175118827e-02 3.849884725604071217e-02 4.525541651338243487e-01
4.004072605037038018e-02 2.885299723794959581e-02 5.052067795705457165e-01
2.146659627974541185e-02 7.221300506069307235e-02 4.789150773792185678e-01
2.686393511631079631e-02 4.712952778650104230e-02 4.671757979020418894e-01
-3.994529949442324201e-02 3.591544091413190198e-02 4.506644809045992073e-01
6.288288340991928654e-03 5.181810207369164784e-02 4.598920199088837313e-01
3.715367736002456872e-02 3.107151518441403706e-02 4.667411012360059286e-01
-2.492115478386004723e-02 1.817453602295253032e-02 4.429576590031564787e-01
2.239080931108851022e-02 1.863598077259182723e-02 4.513974884531969933e-01
7.019564836891038946e-03 7.631963916792593172e-02 4.777744524907545087e-01
3.413249927263537625e-02 5.450712698043293919e-02 4.813076970122420195e-01
-1.530364614252767994e-03 3.131626112429888864e-02 4.509632329054616973e-01
1.360312330179188831e-02 7.458190154056934529e-02 4.973247593275411660e-01
-3.136921508628136551e-03 5.145111712639770241e-02 4.576459553158380156e-01
3.807847350140192849e-02 4.183175471429493447e-02 4.759746926189021843e-01
2.884834914579498602e-02 6.374783636341034565e-02 4.948741971571450904e-01
-2.577065874681761654e-02 4.251567621539500963e-02 4.530769979104343759e-01
-2.307021184657266286e-02 2.015384791814596455e-02 4.437116344419569924e-01
2.781596469594605284e-02 6.503231879254900427e-02 4.798514416666708193e-01
3.448022668028428300e-02 5.219387171510111306e-02 5.018647427093539948e-01
3.488473735012329047e-02 1.754191923323313723e-02 4.582693981016969231e-01
-2.159461193552716582e-02 7.513386641579255371e-03 4.391602204937903320e-01
4.053611800342712262e-02 4.244225993363986982e-02 4.931257105630653115e-01
3.467832622634055978e-02 4.153800317619565918e-02 4.703443815998172850e-01
-3.748411979384792814e-02 2.874617439492187579e-02 4.477408377664595096e-01
-5.322412701035367233e-03 5.062739693030916810e-02 4.572080571076590494e-01
1.425340817844299168e-02 1.760140634167570856e-02 4.486193011052150847e-01
3.065060474456093170e-02 3.774638844383650799e-02 5.167482453710738888e-01
3.972191521029918432e-02 4.415236414151296751e-02 4.958495931204385809e-01
9.241316206194935545e-03 1.175502329606842485e-02 4.451856274423305337e-01
2.998034891809097865e-02 2.064481433982162314e-02 4.563745034411472723e-01
3.990631312890032673e-02 4.100349546245438820e-02 5.002617502557080709e-01
-1.817844393605079836e-02 2.363468131991637577e-02 4.452788652297954286e-01
-4.718261575798693951e-03 2.954605876861959163e-02 4.496786219169349175e-01
2.226984590609708964e-02 4.115509602864358268e-02 5.270076616304897321e-01
-8.379937729971847354e-03 2.430774844652790201e-02 4.468786650879496558e-01
3.568338504693565477e-02 2.601031014456564594e-02 5.182208712864341260e-01
2.192587817458072075e-02 7.734969516263534919e-04 5.331599306712541120e-01
1.221929318880773073e-02 7.642001655959276829e-02 4.864680771739747223e-01
-1.587151745123559221e-02 4.307430142595219252e-02 4.538951657514698201e-01
7.825720784479468783e-03 7.717508716669842228e-02 4.760783976614839652e-01
2.488911196616710314e-02 4.666456514660086152e-02 4.656627978726289863e-01
1.539197140780579343e-02 6.661586024122720384e-02 4.685642700696094898e-01
2.476797726732520369e-02 7.071983470946131833e-02 4.852789043623712550e-01
-2.946966349893312322e-03 1.272179013007446527e-02 4.432960563340352933e-01
3.637042038279775930e-02 4.642335654609250351e-02 4.768818381779528770e-01
-2.553477718222046597e-02 8.950130615607950618e-03 4.397885833209470574e-01
-2.667858329830357506e-02 1.777610598912432796e-02 4.428523674919192521e-01
4.200863856784525091e-02 3.524076872456244347e-02 4.970780624812283222e-01
-5.127650930275118313e-03 4.395365768984865057e-02 4.552066650164952044e-01
7.916781394265159921e-03 6.218102502521044572e-02 5.189426062660311700e-01
9.983861863081923763e-03 6.125107053796631507e-02 5.271591634062059439e-01
-1.546146974749642786e-02 3.209263198305865872e-02 4.492359154707959434e-01
3.086412588934053791e-02 6.177638947274471243e-02 4.872801420115126514e-01
2.218862002439987019e-02 6.315960247781171599e-02 4.712908584080404140e-01
-1.400758223649333986e-02 3.429376274395545127e-02 4.504348708824317815e-01
3.244881003406349662e-02 3.513810647944520110e-02 4.649958338369498678e-01
-9.783613398078372381e-03 3.504976917983638335e-02 4.513478899222718721e-01
-1.730325037118880804e-02 6.051132457430122291e-02 4.675818478059285965e-01
4.034696303886755459e-02 4.250488553491026805e-02 4.953749946935558923e-01
2.539663085178747379e-02 4.418394779078629181e-02 4.648020956234896195e-01
4.173395855579208752e-02 3.801485574902014469e-02 4.954337058600355448e-01
4.224427883335285516e-02 3.747795970564919005e-02 4.881712871566942225e-01
1.903542697477970599e-02 5.836987333197101585e-02 5.205815945657938926e-01
-1.352982720752928317e-02 2.408365846008201847e-02 4.459179911067960855e-01
2.145684486419571768e-02 2.414593754276955426e-02 4.535181222000309043e-01
-2.800748286018520106e-03 3.507564392465114395e-02 4.522964669661623804e-01
4.333423656985146977e-02 3.340231949394235900e-02 4.868046975263150555e-01
4.577823486958283034e-02 2.326553745910062490e-02 4.806662491425807149e-01
3.748489073528123855e-02 4.797827662998236514e-02 4.819235375026343915e-01
8.678640226203331726e-03 3.043474613636108946e-04 4.406896244705276189e-01
3.466352684927113958e-02 5.135362546761605695e-02 5.031446469811525768e-01
3.354812034748876765e-02 3.650686787513539311e-02 5.137519691627531193e-01
-2.732127521302952361e-02 3.840888960744671260e-02 4.512154846610098580e-01
1.015966986613019022e-03 5.814632582978460085e-02 4.601847077837541988e-01
1.090058297487911214e-02 5.463237616518042822e-02 4.622786308363464047e-01
-1.284569739922080539e-02 3.800747966384586396e-02 4.522663759419464635e-01
1.103735926321428376e-02 7.591223864879753647e-02 4.877547245167912493e-01
1.367274502033838726e-02 5.581842236887744890e-02 4.636573637112961777e-01
3.216646425982509772e-03 5.235326934182230746e-02 4.591704552835879083e-01
6.271411330330537402e-03 6.112047806837677538e-02 4.627468175381603821e-01
-3.437412854556927411e-02 2.586311295077237810e-02 4.465480689117229396e-01
-3.222648929809467794e-02 3.969272213309856662e-02 4.518575223008358122e-01
2.197272196521092916e-02 6.537529206085221367e-02 5.079877364353213576e-01
2.460910870281347862e-02 6.893849616743671915e-02 4.957911820497520328e-01
3.569795023560284192e-02 4.337215084879260385e-02 5.080894298317504276e-01
-2.912488307714455882e-02 3.375463606998228838e-02 4.491839843305184821e-01
3.891293993953749003e-02 3.562741964394400274e-02 4.721755204430793662e-01
3.490821352394515159e-02 4.179370464631581433e-02 5.099183011868931859e-01
3.419301101271630255e-02 2.332588495688931590e-02 4.603448046046145214e-01
2.066095763658160576e-03 5.418904979727665050e-02 4.593836632049919655e-01
1.388813530986201042e-02 4.700154439620625457e-02 5.291986490919445840e-01
-3.382298562734896430e-02 4.284175473396705652e-02 4.544981483988410620e-01
1.334286874410319304e-02 4.033149907075741364e-02 4.578926585685251793e-01
9.349699906701015211e-05 5.891152654422636414e-02 5.253352055686346667e-01
2.122739147032253609e-02 4.852485985019390491e-02 5.213304535528995309e-01
3.005812588985520492e-02 6.184384660930669630e-02 4.962012310181891928e-01
3.761055710966732663e-02 2.576421383089390338e-02 5.128088738489159359e-01
3.070444223696233710e-02 5.178991920107509778e-02 4.731281802188866958e-01
-8.761482012594964258e-03 1.794887209097649830e-02 4.443496952752312157e-01
-4.249748407705698783e-02 3.678598853835825244e-02 4.521449934897256995e-01
-2.393236100123036225e-02 2.095327921714755168e-02 4.440162363683332614e-01
4.583224323132868705e-02 2.325495463945562169e-02 4.812752536502727940e-01
2.074620903913861752e-02 4.346593582470525963e-02 5.246957966403383855e-01
-3.894161621569937337e-02 3.488776486660812026e-02 4.501121135690132613e-01
-4.064620880526449709e-02 2.993586286532919777e-02 4.487039391123212595e-01
2.343961183477861684e-03 5.012928856220871116e-02 4.582626189725987897e-01
2.798013067171137638e-02 5.798362165880826397e-02 5.098730800907389504e-01
1.606475215966466502e-02 3.398698066031386432e-03 4.431199994898200600e-01
3.087150048969589111e-02 4.029011606701191073e-02 5.158347565277787705e-01
1.003146970777714884e-02 4.161033209306633229e-02 5.341895687200758358e-01
1.514766995028854826e-02 1.661725422533219879e-02 4.484045065784370010e-01
2.779266826583646349e-02 5.094829775473216221e-02 5.151543716210718049e-01
3.908791215553302639e-02 2.380348617802348354e-02 4.647644372333494811e-01
-3.026287138792467871e-02 1.845373115188448515e-02 4.436011835500837108e-01
-2.111162695674077827e-02 3.894525288100189608e-02 4.517515944572872422e-01
-1.596595137851574905e-02 3.562642620424384676e-02 4.507916492712945034e-01
3.503068840888128033e-02 5.353455658775365528e-02 4.935792217899599432e-01
4.346091031316410419e-02 2.335539165633155126e-02 5.004677298690582976e-01
4.143928511893899685e-02 2.691772414348654954e-02 4.702054614042624481e-01
-1.456178031713641075e-03 5.875577265043262915e-02 5.274242440097315354e-01
3.563393512102775579e-02 1.733964745803408605e-02 4.586855432228323926e-01
1.054499418975301736e-02 5.046542460695335047e-02 4.608468628888059415e-01
2.317428809870086814e-02 2.136269389081984355e-02 4.530376916776618912e-01
2.412824531465522157e-02 3.249400783310840007e-02 5.284349080662542608e-01
-2.911645219862659534e-02 1.562598849003029450e-02 4.425467101989750685e-01
-1.950821840798976775e-02 1.217032083791367084e-02 4.406827851108225391e-01
3.419270545300573394e-02 2.609970558694792858e-02 5.207075325919257036e-01
6.311500438879807332e-04 5.863203588446672110e-02 4.602740472059235199e-01
1.123795082841902784e-02 1.180396600420739739e-02 4.456068080627040850e-01
-2.708993545037920170e-02 4.088271388717396038e-02 4.523098400817610054e-01
4.485824710666358461e-02 2.809694136322538754e-02 4.892248070404540128e-01
2.843123098467485385e-02 6.581988832572409354e-02 4.874620427239571563e-01
-2.380195935341102367e-02 1.504004512622567243e-02 4.417857232907062004e-01
2.384712426432473650e-02 6.492325929011702468e-02 4.735713759347237040e-01
2.920961709797684908e-02 5.166809028744284021e-02 5.127498845880364975e-01
9.891203712042892851e-03 7.540165360344965040e-02 4.740811565217757373e-01
4.311839372587002867e-02 3.290634328030832972e-02 4.823172999376543202e-01
3.439598110949627918e-02 4.944385188245452312e-02 5.069048722412308194e-01
-2.723450429553091884e-02 2.403674724054873525e-03 4.383932763278531874e-01
3.075204632602120819e-02 5.883050201182834366e-02 4.771301608027428975e-01
1.496027925459797285e-02 6.904958245288650431e-02 5.077634522776951487e-01
3.211546538800819778e-02 5.805566060051247507e-02 4.979422426437666305e-01
4.252011592960639602e-02 2.900956936770140299e-02 4.984222243471144176e-01
3.054243026498195193e-02 6.196880572200871851e-02 4.928132286623647107e-01
2.354705604982305217e-02 4.525855783519971975e-02 4.642358437843813745e-01
1.779855385608595728e-02 3.323227196380128257e-02 4.562839805747544997e-01
-6.580504097093846025e-03 3.818528605965664652e-02 4.530937409985141828e-01
2.989811080662650028e-02 4.666624336538374718e-02 5.146590299578934768e-01
1.069454705091625255e-02 2.066488831879782426e-02 4.491000783806813890e-01
-1.224128132900273273e-02 6.090975377088629628e-02 4.624295057404523845e-01
-2.609753226464717191e-02 4.637645542670639637e-02 4.553996581813610223e-01
1.433554435999493358e-02 7.080968188117119089e-02 4.702774564447153027e-01
-1.636149921282883946e-02 6.054829025520155894e-02 4.654398299362924596e-01
1.572937998529031281e-02 6.616701056951140858e-02 5.114155565583259344e-01
2.726851928590649440e-02 1.503977431110872787e-02 4.524338282594587146e-01
3.868976533290156145e-02 2.298378153037469729e-02 4.639548185100380029e-01
-1.533862399645539304e-03 5.556936661656997067e-02 4.590235847174052308e-01
1.722933196975834011e-02 6.712172749831941954e-02 5.096307969625033518e-01
2.844951183549053117e-02 5.368518356551216925e-02 5.127310851091333443e-01
7.150858541960186752e-04 4.648767811932596333e-02 4.568716309572284917e-01
-1.209108939231889716e-02 5.553700890611475149e-02 4.585785736574093940e-01
1.547619585208532406e-02 5.661410537195656067e-02 4.646244785436086655e-01
-1.125599191102829785e-02 2.528735908015279296e-02 4.467898788599602433e-01
2.907457346341362978e-02 6.279160561367098936e-02 4.791377667693201836e-01
-2.388713376064191540e-02 2.219282447070768365e-03 4.378555610914417473e-01
4.029147333495697314e-02 3.415453568251798633e-02 4.734512518284025862e-01
-4.356460455453308248e-03 1.801479447784132965e-02 4.451099468418003302e-01
2.297371510561801305e-02 3.612871218421291608e-02 5.291484353369768634e-01
4.979421072522939411e-03 6.138973874340119402e-02 5.231971358616006595e-01
3.106351938763853709e-02 4.043653369933161712e-02 4.666984224400879677e-01
4.331637354679166579e-02 3.351462644326997503e-02 4.869993696258407279e-01
-2.688109570238868436e-03 5.709441261300195192e-02 4.593682775206803792e-01
2.913697461843313408e-02 4.668396935002354364e-02 5.152750716721170576e-01
-1.473269354823941724e-02 4.801071981545591144e-02 4.558956264436322403e-01
-2.988503914815783535e-02 2.119909346831740787e-02 4.444075697119909130e-01
2.813335806273551537e-02 3.117005907507270149e-02 4.601929631906337415e-01
2.105418954018702105e-03 6.114281284351241741e-02 5.329311645456001889e-01
3.524187806030841530e-02 2.947724565947214964e-02 5.158578625080192381e-01
-7.719273252031529781e-03 6.408274371182783556e-03 4.402292048474287789e-01
2.217131441670033842e-02 7.241000264373106954e-02 4.947084961486401533e-01
1.496807446917628771e-02 7.565700249264273314e-02 4.888823973658655841e-01
4.044485462604900661e-02 2.649247070570538709e-02 4.679414003955733592e-01
1.734052625394982144e-02 6.699108459421053430e-02 5.097169077760079769e-01
-1.563821055544589722e-02 3.674198980782220070e-02 4.513394305530780692e-01
2.121758515984593918e-02 6.543824513979161484e-02 5.085975191531283413e-01
7.552079908678657229e-03 6.556666495543481132e-02 4.652788153211416255e-01
2.670393518344747752e-02 4.063678195116519898e-02 4.639680533831304632e-01
1.009756727326983905e-02 6.264445993435135973e-02 5.235983321741023433e-01
1.091571452444577844e-02 7.129094880554805169e-02 4.993831291116718196e-01
3.144366101221583720e-02 5.803597206103366934e-02 5.008069506249125391e-01
1.247171773914321040e-02 5.266480155053984008e-02 5.275209696951624894e-01
4.090189958373641882e-02 4.130142307636450183e-02 4.937015679230944976e-01
-2.503740808884415137e-03 1.116203987510673047e-02 4.427569461656482575e-01
-9.125198176543683481e-05 3.225478005036673534e-02 4.516143483790417412e-01
-1.373090841373983580e-02 -2.889775056584030239e-03 4.369740957755238742e-01
3.568637541642464411e-02 3.472995113123614891e-02 5.116555431842119139e-01
1.597251578205712008e-02 5.453311346237121882e-02 4.641559808714973978e-01
2.181737033627217937e-02 6.988282396592916668e-02 5.001443007019795717e-01
2.623098771648319991e-02 1.253582061586900470e-02 4.508450475621744724e-01
-1.241658143991599544e-02 2.062508724111525305e-02 4.447674666067497617e-01
-3.826383622337829749e-02 2.591011828487110522e-02 4.470961274007049235e-01
1.105463039255338506e-04 5.116058693762914888e-02 4.580735083445659495e-01
1.889741669028723037e-02 4.610703176179968554e-02 5.249233047731124424e-01
-2.633436259731523465e-03 1.339836829200108728e-02 4.436172158087615669e-01
-8.966120865349373921e-04 9.496575487135620192e-03 4.423678906853067971e-01
3.793380964838140995e-02 4.486379417660175256e-02 5.025273205130309506e-01
7.028902417672903274e-03 6.318521291489202774e-02 5.133526075586278825e-01
1.187039240486922539e-02 2.669040939641346977e-02 4.518252476158816644e-01
1.810842012792873712e-02 8.015131766990141529e-03 4.456505663093000003e-01
8.430404196078808421e-03 6.616461612204829756e-02 5.065474906937236232e-01
-3.209458944231488586e-02 4.322803652167678430e-03 4.393755076174421514e-01
8.717591193734001292e-03 1.601309044040995916e-02 4.467969561799994827e-01
3.196091039222746788e-02 3.595822685455155043e-02 5.155566076785167429e-01
-9.921530875068623051e-03 5.920966840398237535e-02 4.601900916054232349e-01
-1.675093659582145567e-02 3.572694868083959446e-02 4.507417882586247648e-01
-3.572515493487364319e-03 3.115665683691348081e-02 4.505273935066161917e-01
1.012315236466512780e-02 6.133950473788712249e-03 4.430640166654685186e-01
2.713289071225488333e-02 6.762333554024688165e-02 4.873317607266726692e-01
2.903130459306504582e-02 5.403894366519582798e-02 5.118016786378555283e-01
8.202465066961626278e-03 6.084019508555915667e-02 4.632094826848981439e-01
2.399366018273934101e-02 7.179765024383030769e-02 4.871843673007545394e-01
-2.825871527372928252e-02 2.841716339053833393e-03 4.386139407188098249e-01
1.484210281466118164e-02 4.400408968179689989e-02 5.320974302449854587e-01
4.366790326221262758e-02 2.101108881244865417e-02 4.709269089193641178e-01
3.350173045098879532e-02 2.814077859602853032e-02 4.622398867294093550e-01
3.648907976570394535e-02 2.367426468956579724e-02 5.181012906351332159e-01
1.620974367010523734e-02 6.545336556473003997e-02 5.134758941575336966e-01
3.761709084877901121e-02 4.226877179620345398e-02 4.754901948112180698e-01
3.271617434804932611e-02 1.863920034305563411e-02 5.237358189541041487e-01
8.262131063232550088e-03 1.224810326060177430e-02 4.451976619791299661e-01
3.360962867769751172e-02 4.291826454957037990e-02 5.112854055627795713e-01
3.966122435858138173e-02 2.691576893187554859e-02 5.074317339144679417e-01
-1.395633072535171215e-02 1.649969878403460821e-02 4.429419609140776148e-01
3.198829970060609179e-02 5.942369811007210817e-02 4.842382238477482836e-01
3.699275517620509435e-02 2.971520686992919907e-02 5.117967703393219159e-01
8.371063632947994132e-03 4.412887179360021339e-02 4.579845940692621187e-01
3.012656887888857243e-02 3.867236197572228307e-02 4.652499977376000628e-01
-1.257952486372691369e-04 4.302084382239204641e-02 4.557542420606855993e-01
3.062208291726275372e-02 3.417391385498488865e-02 5.207942932186797602e-01
-1.965881717410842416e-02 3.404557838308078233e-02 4.496887747818918979e-01
8.080665567167195917e-03 6.957103706702950918e-02 4.995099315693870556e-01
3.655126504253684849e-02 2.779033301756463417e-02 4.646022700964033691e-01
2.739552921835810076e-03 5.934841486079999590e-02 5.330091061000326036e-01
3.933430280947357999e-02 2.280408604055962629e-02 5.109142708938926303e-01
3.540362254657782731e-02 2.645285688780384808e-02 5.185408519255645388e-01
8.326717619992880792e-03 -4.436291715778999632e-04 4.403756394037575128e-01
2.660925032722896710e-02 6.834229040835931857e-02 4.868594611778406245e-01
3.760806726882948148e-02 4.234753947413643499e-02 5.054222831897993151e-01
3.373219229749586240e-02 1.972529880995970569e-02 4.584214396424549087e-01
3.341832917121285995e-02 5.515196615863141028e-02 4.994251179608374946e-01
1.985399695181438995e-03 3.275413782761211340e-04 4.394713692358203638e-01
3.885681102915801433e-02 2.416635071458551887e-02 5.107777074919180871e-01
2.963357297115676650e-02 6.190272661963351630e-02 4.987650765308643819e-01
2.706893138552528971e-02 6.482920216820606263e-02 4.775130140108236332e-01
-2.419112902791397193e-02 1.597569158326036382e-02 4.421287029858698148e-01
2.083122754382929834e-02 5.132437524799592088e-02 5.206640851917003765e-01
2.937352209917764440e-02 2.988569969408778546e-02 4.603081458655994274e-01
-2.166002134241522964e-02 1.644253324858966497e-02 4.422879034878293703e-01
-4.411813460096987959e-03 5.688301621439686290e-02 5.307951393654328776e-01
2.250725767195818280e-02 7.332588742148325733e-02 4.910010983408136798e-01
2.021608508995621778e-02 1.998867555116315073e-02 4.510306564812400221e-01
1.140077141658384433e-02 2.272071917630719834e-02 4.500900141651878461e-01
1.885144370050782781e-02 4.275812597320963193e-02 4.608191500196687218e-01
-4.790770786606447264e-03 6.176842503595893208e-02 4.614706987097305091e-01
3.335334957222162167e-02 5.713959357355874458e-02 4.862071115329956172e-01
-4.111316494459291149e-02 1.344121979701820525e-03 4.415401992872146075e-01
-1.174513705905269644e-03 5.169819082320240705e-02 4.580140609092391846e-01
7.551006954485666584e-04 2.214456305879387160e-02 4.477279887263257985e-01
-9.467542834777933208e-03 1.070658346950187703e-02 4.414825635282655925e-01
4.252185671721573496e-02 3.528910502873921357e-02 4.933353251014577778e-01
-1.475578860547385220e-02 2.800618825690017605e-03 4.380647124176437202e-01
-4.605237324128904144e-03 -1.722423761129237381e-03 4.378438088901747682e-01
2.513216164923689697e-02 2.035442710109345611e-03 5.327956639165665198e-01
3.536673792652043208e-02 2.250289638618829108e-02 5.197416212907801647e-01
8.174346863726584048e-03 7.821597837396064568e-02 4.766016207183331743e-01
3.275442056365497623e-02 3.603723702726092937e-02 4.656486772717593481e-01
2.535398941073102597e-02 5.714059986830926502e-02 5.140717319028859089e-01
3.119089105867120168e-02 6.076860853356663011e-02 4.930383956730066131e-01
3.067688747750407438e-02 6.199031064659379919e-02 4.864989491378217679e-01
-2.999148760842490491e-02 -1.226789287762054467e-03 4.382396348523260321e-01
3.284207456982358303e-02 1.868006421939292366e-02 4.573830370814261359e-01
3.043449354147465674e-02 4.809997538301206965e-02 4.706829514446437823e-01
3.321587429188913726e-02 5.746451978515466213e-02 4.872005224435985160e-01
-2.389499212637842540e-02 2.388281677010600443e-02 4.451389962368459963e-01
3.793866815490001820e-02 4.535694558385319070e-02 4.791950291360908554e-01
-3.423559833263056795e-02 3.639836462745973250e-02 4.504437465753713399e-01
3.692883436608677267e-02 3.606478670428499289e-02 5.084027091119084352e-01
7.656631124672394484e-03 -6.839808354430257885e-04 4.401677534891086929e-01
-4.327058567330254769e-03 6.139658266460143454e-02 4.612036092754998040e-01
3.287761998585487372e-02 2.352917761142437475e-02 5.223175646683390072e-01
-8.370272271794329880e-03 5.198043189479032572e-03 4.397017353349219615e-01
4.145546695595165448e-02 2.123833132553315170e-02 4.666597118442848413e-01
2.599811964696066569e-02 3.840323279592140066e-02 4.624579310186492931e-01
3.110964200359740001e-02 4.139084676806132485e-02 4.671783079499733926e-01
-1.965330349318370178e-03 5.937035595440500607e-02 5.348290497264729382e-01
1.176783660221390401e-02 5.460140997681689479e-02 4.625774311585827414e-01
8.130311339340017332e-03 1.954963182625864618e-02 4.480980638358669776e-01
2.057026345775388176e-02 7.354176069341372690e-02 4.796605418453904202e-01
4.184857584019280319e-02 3.572988385205719958e-02 4.975947472261544324e-01
3.482301831068639053e-02 4.197989357508990355e-02 5.099380694300070793e-01
-2.440578075056855367e-02 2.787777820688441474e-02 4.467603806631377794e-01
2.383263631730042284e-02 4.528066249127297993e-02 4.643848549373215673e-01
4.558311318142349577e-02 2.474738593881869314e-02 4.837866469938595371e-01
2.056105239419296279e-02 7.317877892547980379e-02 4.968760725332079242e-01
3.175826186655231198e-02 4.021471648292421208e-02 5.148306645765514666e-01
-2.975969391089969968e-02 2.497425374505676809e-02 4.457541191226561117e-01
2.025838026605933026e-02 7.101138172965128226e-02 4.751377613788430043e-01
1.717421227370687781e-02 4.285527311673228285e-02 4.601177743078268545e-01
-2.933220374544531078e-02 2.932177981917181986e-02 4.473998812456310148e-01
6.806951597230613158e-04 6.986843089220853842e-02 4.698446861488984050e-01
6.427139680417629473e-03 4.894701087393057287e-02 5.362025558984336859e-01
5.336804784594038724e-03 3.137951666167268505e-02 4.523448422374501954e-01
-2.163105405985388946e-02 2.078525108960451243e-02 4.439545892544685124e-01
-9.989663919333034367e-03 -4.359807985152056552e-03 4.369602856082894782e-01
-1.338336531303443121e-02 6.108028861353213823e-02 4.641107509401050657e-01
3.785185354296025789e-02 4.775274964222962770e-02 4.964664995070178222e-01
3.261560460691927121e-02 5.861263464765951309e-02 4.878455910679403984e-01
2.621234633993524063e-02 5.712630124442540785e-02 4.716262275710890739e-01
8.877054852871567314e-03 4.974726126817633626e-02 5.325490806135347865e-01
5.945004106868805732e-03 6.020061004982281416e-02 5.305522698532544323e-01
4.276319136921929304e-02 3.622574480013873027e-02 4.899747953894695862e-01
3.693380116612851594e-02 3.737623944650067531e-02 5.083804895773889054e-01
-2.685718354104142842e-03 3.491722694643301095e-02 4.522475782892871332e-01
1.385713815285208664e-02 4.449249586408537960e-02 4.597310500289590873e-01
4.094043311416743075e-02 3.949935813919483452e-02 4.802452962049491569e-01
6.191375911788350381e-03 3.312484047581532032e-02 4.532349775345494436e-01
2.673215262566452574e-03 6.668596828397341247e-02 4.652082863870932172e-01
2.719804226810023512e-02 3.226697859098452692e-02 5.266450135739202398e-01
1.998111514422658969e-02 3.950753071548373380e-02 4.598647415159576868e-01
-2.239032800139958285e-02 4.563951969813864751e-02 4.547162263849743868e-01
4.317168042229837382e-02 2.100069826800748593e-02 4.699314010693564914e-01
-1.856232680421861930e-02 2.197066584753287755e-02 4.445652396684183771e-01
3.014490528060050425e-02 6.288040871767516804e-02 4.864289680665290772e-01
-3.699780012626970038e-02 4.597717056923451492e-04 4.399160094347953631e-01
-2.663577249458411178e-02 4.286970326442861995e-02 4.533295523843906549e-01
-2.439936950810738924e-03 2.192095564631375837e-02 4.470299059253894369e-01
-2.143774801147369305e-02 -2.981012627213935201e-04 4.373323177543392837e-01
3.233432168809399765e-02 5.575665696920845127e-02 4.776271642503281400e-01
-2.752095178053647322e-03 1.584920932491634682e-02 4.445536946237650389e-01
7.893022537395304877e-03 6.123209186395929537e-02 5.289457388582887720e-01
1.983827646472041770e-03 6.996085207015087515e-02 4.689445658539612705e-01
-1.432717524454626967e-02 2.981675818904970521e-02 4.482651794662310119e-01
3.919546445691346470e-02 2.587679668475283482e-02 4.659960864318268836e-01
-2.564324313101774139e-02 1.486132644032010265e-02 4.417471578082256545e-01
5.302129043186032484e-04 5.820122016341739563e-02 5.234088512316243946e-01
2.723826447332432232e-02 5.777040143108633924e-02 5.110472943941600787e-01
3.724340855142665302e-02 4.953886279140155141e-02 4.844665803236645751e-01
-1.430797690819533494e-02 3.995454302607778785e-02 4.528588236518438781e-01
2.535939273189017837e-02 6.865820569064033652e-02 4.935344249020309770e-01
1.407868894960501160e-02 7.788337009386184229e-02 4.830127954727999051e-01
6.874886250091138962e-03 5.341803953617926121e-02 4.605181228750092615e-01
1.768236886824806758e-02 3.982512993513006444e-02 5.317676818665665328e-01
4.181247995909056353e-02 3.841241496678459572e-02 4.866365695094311272e-01
6.545780711265308978e-03 5.457493645773996149e-02 5.316194145877439770e-01
-1.102261214780507828e-03 -1.040793556600520808e-03 4.384648940922160620e-01
3.874949929285421979e-02 3.227856385342391804e-02 5.059852655279591938e-01
-7.637563872617447042e-03 5.927661566929066927e-02 4.597412707025508860e-01
-2.138930056946797970e-02 4.572220570363400710e-02 4.547007527457305187e-01
4.164965139663714261e-02 3.945798292055073542e-02 4.886534492326596868e-01
9.805547952915381546e-03 6.404639648330139046e-02 5.148710583139147756e-01
3.188593077487415339e-03 1.688613339975936559e-02 4.460833219575717212e-01
1.636026529903144774e-02 6.815943755090014822e-02 4.698061322069387868e-01
-1.202605717049669287e-02 6.134872987643651132e-02 4.637676207062909062e-01
-9.375127441769645631e-03 1.996592394083677655e-02 4.450235577772554962e-01
-1.261267680879809075e-02 4.715365203032214486e-02 4.555892311352916502e-01
-2.738317288063443419e-02 3.126030628120848170e-02 4.481236351945274698e-01
3.845267678773164888e-02 4.706995167114171735e-02 4.929262042315696313e-01
9.766106161106334962e-03 5.732788762996118143e-02 5.275623556351950461e-01
3.034753752754342643e-02 3.557443641290677222e-02 5.192687793567475341e-01
1.947199465725964543e-02 4.353169693946963570e-02 5.267964358313050877e-01
2.732116107328393106e-02 6.083503135317966382e-02 5.078647331836636525e-01
4.535112670118639916e-02 2.557376222829468859e-02 4.838621679335250447e-01
1.555072333619151627e-02 1.073483904651016327e-02 4.461099212303357708e-01
-1.991678940783280644e-02 1.367173055538978277e-02 4.412374932162947405e-01
-1.778194073468407702e-02 5.775085009542399450e-02 4.606264520242648319e-01
3.617658267562484653e-02 5.073571461067970939e-02 4.964017104847487372e-01
4.431761903790338436e-02 2.533909788364344107e-02 4.959466412536921998e-01
2.152864749893323298e-02 5.726174897206745551e-02 5.187022221789312493e-01
2.681384757765673671e-02 4.956919656988469786e-02 5.163754586561031257e-01
-1.256471351470058763e-02 1.368759765197289681e-02 4.421042098185090641e-01
4.588040209042154073e-03 -1.014171912764432956e-03 4.394799014451012953e-01
-2.963221831878991644e-02 1.822260736949525908e-02 4.434411833556990423e-01
4.319955593027269974e-02 3.273945110060532543e-02 4.925014799412383848e-01
1.959811711173436305e-02 7.192144705333000654e-02 4.754595096324699677e-01
3.192407915291585463e-02 2.765879792535690801e-02 5.229464215437009678e-01
3.869790830094871348e-02 2.937083688217612468e-02 5.081129524238834350e-01
9.622764459782310112e-03 6.072521553462111726e-02 5.275116906110407511e-01
-3.305850383382111235e-02 3.209041474465399585e-02 4.486062425683759458e-01
2.407939618283317859e-02 6.081928034090464119e-02 5.124456304374128690e-01
3.649704906584654018e-02 2.354947258289472392e-02 5.181048257527697265e-01
