3.648310629323502779e-02 4.742796017565588385e-02 4.783829938385929514e-01
1.151385057974902565e-02 7.154466551561527998e-02 4.694434967072822484e-01
-1.415174178915793585e-02 3.317111129564861288e-02 4.498593613498612087e-01
3.873729204696024081e-02 3.741566523711650077e-02 4.732504532132386643e-01
1.136690993682722833e-02 7.476747655951039573e-02 4.930468857864243604e-01
8.719491090909949060e-03 7.026762345323321612e-02 4.985709864563231952e-01
1.064433284394323935e-02 7.239928120390930200e-02 4.703103190961854807e-01
3.321465701624965600e-02 4.927873479919804567e-02 5.084306566130378791e-01
2.501918817767972633e-02 4.945768294501561718e-02 5.175224637397627392e-01
1.077445373090474799e-02 4.100192675234476392e-02 5.336106130405651182e-01
-2.082643929359529258e-02 2.434983678890781725e-02 4.452896463103839797e-01
3.470680730284368687e-02 3.578487819508172074e-02 5.123091366396356205e-01
4.360820117434210247e-02 2.958254889996292727e-02 4.937472480161395616e-01
1.226945930983478275e-02 7.203437486016675551e-02 4.994190838818713396e-01
1.749233638792456469e-02 2.946219299410409928e-02 4.544468851412382659e-01
-7.155544140342509109e-03 4.569153176440520457e-03 4.396051066846798916e-01
-1.758654870020498473e-02 1.210156595025185799e-03 4.376305987926307761e-01
2.290184747572033760e-02 5.888383406435963863e-02 4.695431571912506152e-01
7.197596121383261630e-03 6.995932769906684778e-02 4.971563467768183586e-01
2.025169518258002066e-02 4.352215961582713011e-02 5.253551366141223644e-01
2.384716477426197800e-03 7.043052940204554135e-02 4.699669957323779346e-01
1.765773971349344704e-02 3.968483351814667409e-02 4.587982076386287744e-01
-2.350465737077702538e-02 5.947825697992846147e-03 4.385765685064703101e-01
-2.472606794413671066e-02 3.903880236881122553e-03 4.382263800906375240e-01
6.217764560047766599e-03 6.261295517255903442e-02 5.245780401214684696e-01
3.269852613961392318e-02 4.776580490706432147e-02 5.100068456332589317e-01
2.383645741627194239e-02 4.601471706262924566e-02 4.645471243805802120e-01
2.208896406349111774e-02 1.909508178311977028e-02 4.513831422100899604e-01
3.974689240014819824e-02 1.844781069283261965e-02 5.154725429467631459e-01
1.455238079636224889e-02 7.137950833583315766e-03 4.444238128017422573e-01
1.436261672921558194e-02 6.560763884179145189e-02 5.109848037745259308e-01
2.772223125303480834e-02 6.498905275677026305e-02 4.793593714731768651e-01
2.874029500634340054e-02 4.638000594572312674e-02 4.680333439884724056e-01
4.293723915417846371e-02 3.287516315868214273e-02 4.805004063389549662e-01
1.261118443662289507e-02 4.611723235494886303e-02 5.319349405223412486e-01
3.187392499758778114e-02 5.722910712681677364e-02 4.781485581319157019e-01
4.257371493094676274e-02 3.465792260930240093e-02 4.933720480253427909e-01
2.473950188305652081e-02 6.916245309212644410e-02 4.802008369797011178e-01
3.464638070449962276e-02 3.024385022210714785e-02 4.640545820473986893e-01
2.423133559503325846e-02 6.162567583049644027e-02 4.720392700769526773e-01
3.854424105189581395e-02 2.751302187456450277e-02 5.093900592821243301e-01
8.683248386773684008e-04 4.539023225622178248e-02 4.564695793567967730e-01
4.283799712007603511e-02 3.584728783926771634e-02 4.897228966838303443e-01
1.884609548982457694e-02 6.090158633289935453e-02 4.675906898010149804e-01
4.047558662603150531e-02 3.395952898240665180e-02 5.016972767935717892e-01
4.415473118560044215e-03 6.696823066043422479e-02 4.652623782052744406e-01
1.939095700935837552e-02 5.572503465518562071e-02 5.202328927181268936e-01
-5.281905672616288988e-03 5.200629091303076573e-02 4.574862503804443814e-01
3.119362741287316776e-03 5.946719768871217005e-02 5.164607836462997703e-01
-5.437338681695078751e-03 2.410176622977992789e-02 4.472683963100856919e-01
3.467001821145313661e-02 4.774726070162734620e-02 5.073162697466673254e-01
1.657085099929178629e-02 7.087757954225247514e-02 5.039352913923343946e-01
2.190925052468654238e-02 5.685618163873334963e-02 4.678729393164028916e-01
1.883611738124012919e-02 1.806262974101000701e-02 4.497305268030210024e-01
2.818995236748525132e-02 3.572797979229423021e-02 5.233122067910273012e-01
2.549330023747461288e-02 3.406612188921456785e-02 5.274155567856740889e-01
3.726589033914735893e-02 4.235408094220312336e-02 5.059970724140990805e-01
3.096510186282840776e-02 4.332127633440342046e-02 4.679905811883880440e-01
4.395992016223766036e-02 3.101223937557047103e-02 4.864007878488944558e-01
2.294042541771294103e-03 3.373363874340139235e-02 4.525997090144429080e-01
9.814624409416687276e-03 6.318719120061268291e-02 5.206290130264633609e-01
3.923517703704343385e-02 4.541037512841183954e-02 4.953118994264080754e-01
3.227892570562060359e-02 3.188611159895349961e-02 5.204376679587899845e-01
-2.157346503437854862e-02 2.010795273648573189e-02 4.436603322770393820e-01
-1.418132153856328272e-02 4.719798810017524285e-03 4.386848951456298606e-01
6.468802352739199887e-03 2.140856675742747791e-03 4.408535810901195173e-01
-2.113734615006054862e-02 5.398509484317699780e-03 4.384457559729986187e-01
1.531961785645408018e-02 4.285509266213827911e-02 5.326150944188691172e-01
-2.260438627453651567e-03 1.567252879049475453e-02 4.445312436401768763e-01
2.209738820241715501e-02 1.164978328889397508e-02 4.485764249733296682e-01
-1.809928082070147437e-02 3.188006016480249283e-02 4.488295813087498365e-01
3.879123170482040583e-02 3.302389133741491511e-02 5.052742240209785463e-01
-2.075989980646029097e-03 5.769124284722824958e-02 5.258773078436289605e-01
3.281077926502659614e-03 5.954517734834562093e-02 5.179603415549047796e-01
3.044642823067394977e-02 4.895423761545955599e-02 4.710349378367456041e-01
9.205148583504699222e-03 4.853278448222235475e-02 4.595308375329733575e-01
-3.346656430130068999e-02 2.126815309049129386e-03 4.391993535149248395e-01
7.024816857936064772e-03 5.774120760656022838e-02 5.292035267080966721e-01
-2.822109301776240531e-02 2.039899906337024928e-03 4.384678333806918960e-01
2.400318182770076747e-02 7.176171794109506563e-02 4.866603741172246811e-01
-2.440018903031052067e-02 2.153567317794777281e-02 4.442056782828306405e-01
3.881465801463929860e-02 2.737721260009916280e-02 4.663434404185353155e-01
-2.514924568578799646e-02 2.773038683711487318e-02 4.466793394001717377e-01
1.398580115090737597e-02 7.115129069372889969e-02 5.034790128504064155e-01
-2.040955092838182133e-02 1.075746411359565589e-03 4.375910782331151050e-01
4.328406045200830499e-02 3.338960385011652959e-02 4.863119437078484153e-01
2.627186879218987997e-02 4.040638587816074156e-02 4.634427168709004397e-01
-1.293416485188386526e-02 2.401566089027608666e-02 4.459491450156990999e-01
3.907536355516587345e-02 2.415401670819070784e-02 5.101377963536826154e-01
-2.555948476616222431e-02 -1.489034346208448385e-03 4.375122785660205960e-01
1.600229404513875409e-02 5.973200069445801924e-02 5.221920273767025611e-01
-1.337234907128135621e-02 1.673714841063005804e-02 4.430948720056720469e-01
1.561466085686303087e-02 6.351131616937397140e-02 5.191876980388274720e-01
3.224143682482354806e-02 3.262485033256778966e-02 4.634878558914293789e-01
-2.261476976769340522e-02 1.768461885367075478e-02 4.427382240737444685e-01
-1.746639786137445249e-02 1.436644639555281766e-02 4.415554586734495857e-01
8.604197960861873634e-03 2.745911944647418806e-02 4.513475052606081284e-01
4.242507166350999170e-02 2.011210328905534833e-02 4.678472434553551662e-01
-3.155539918678746530e-03 5.535210232879121672e-02 4.586591985464904542e-01
-8.248531475602590216e-03 5.724585755443960949e-02 4.589402219860105880e-01
-3.505540258938579651e-02 2.358334162336825357e-02 4.457859724969971404e-01
4.460550454055656547e-03 4.519085837527121730e-02 4.572698123943370052e-01
-2.607006762500117120e-02 1.806588951622524128e-02 4.428903054136386075e-01
4.098593098712587784e-02 2.389487890152753799e-02 5.060144764827937403e-01
3.378299397019184774e-02 1.699884185421538310e-02 4.572260736712390750e-01
-2.675141764436337125e-02 4.924777467218654364e-02 4.571300699034541726e-01
8.429616142484840785e-03 4.402382621510120969e-02 4.578219062020095764e-01
-9.372482644898318463e-03 6.162131271373753189e-02 4.620797092760186020e-01
2.709068478751711778e-02 6.601953559351850243e-02 4.795709368602798506e-01
1.115022137791870163e-02 6.146907052967490181e-02 5.257415779013979718e-01
3.294452999869733334e-02 5.073913563179890257e-02 5.080481594873624829e-01
4.065779048432920095e-02 4.054436596868724735e-02 4.813489171445441972e-01
3.350240246493286361e-02 5.621273615232617177e-02 4.944698748445829350e-01
1.593866251974747003e-02 6.164342739952870937e-02 5.214888432386783901e-01
2.095871758302441171e-02 6.811421580491928626e-03 4.461879191871894745e-01
1.617416533490312249e-03 1.309336235875849935e-02 4.442232575659731397e-01
-1.096878250434917337e-02 4.363518876721923789e-02 4.544760657706342633e-01
2.459712332319926101e-02 6.885629636894471939e-02 4.958542888020899819e-01
2.625986679754766656e-02 6.877601695713865537e-02 4.860909806042457149e-01
-7.794382625690831484e-04 5.647256689620920589e-02 4.591847107692346164e-01
-3.347230788235035920e-04 6.957700942964215041e-02 4.695046903531554516e-01
5.014284802021523775e-03 3.224273618020845160e-03 4.409497142089984223e-01
3.809644348076998005e-02 4.743925042954488802e-02 4.944837894535618616e-01
2.118669287810024185e-02 2.339220033349823091e-02 4.530187137252310037e-01
1.731475248115249901e-02 2.758443680398019529e-02 4.535850281022604791e-01
2.282298023062857145e-02 3.966291990349140456e-02 5.275286281286791779e-01
2.755030394013135292e-02 3.313972669940207227e-02 4.606735541209970863e-01
8.624776160900963357e-03 4.692772764334653124e-02 4.588309310757304194e-01
3.430131323649412978e-02 2.967061787502605491e-02 5.181960080292039583e-01
3.059077922215133402e-02 6.239220410600147815e-02 4.890442926137466007e-01
1.744078459683737897e-02 5.764787224727502268e-02 5.213980857318745166e-01
3.496644004237661751e-02 5.383496664449356761e-02 4.922103914529501467e-01
-5.453844081335252995e-03 5.908458688809378051e-02 4.595261502163086598e-01
1.590196966488848299e-02 6.394928861386424412e-02 5.180710628550611041e-01
1.817923098873846718e-02 1.147901497861908947e-02 4.470715666621860596e-01
1.582790699494763913e-03 4.739569074233068377e-04 4.394180084218956561e-01
6.308996059658290335e-04 6.809259958020021097e-02 4.658121166106330424e-01
1.590826910130917551e-02 7.544249791294736773e-02 4.936712480872378905e-01
2.261722100263448276e-02 7.312064309362285852e-02 4.907342920963042587e-01
2.977814410687592769e-02 3.388773059879768984e-02 4.624517137560628655e-01
1.723439580169978946e-02 7.406119848195810706e-02 4.755978944298130950e-01
4.169084975413887145e-02 3.138096477104408699e-02 4.991797157014786768e-01
3.853164571141164119e-02 2.973241426708647314e-02 5.080593734689226038e-01
3.692731536018985933e-02 2.674226970914609855e-02 5.137045894887471986e-01
1.022713911950407992e-02 7.765074554274449536e-02 4.806342474567023570e-01
1.943875610485369665e-02 3.851188497298031754e-02 4.590041246449662604e-01
2.834731514823453022e-02 5.251660511882299404e-02 5.131016725157043767e-01
2.688690119546762250e-02 4.288454195398776203e-02 5.182678192243892479e-01
2.122781169777591959e-02 4.876510821347591895e-02 5.209164589066558326e-01
3.584206011426256666e-02 5.159103188869384321e-02 4.948350863806594835e-01
3.873959129558336018e-02 2.377307725167406363e-02 4.643404390317891761e-01
1.065819462903222492e-02 2.754862822815300899e-02 4.518293677313839352e-01
4.629338314811203350e-03 4.692017923240847203e-03 4.413913594045832944e-01
5.069527538504627062e-03 3.258714200586063786e-02 4.526868183067045415e-01
4.472359638651620534e-02 2.535641496107672588e-02 4.779551352473445092e-01
-1.012181759701414469e-02 4.713781845812317628e-02 4.556634491812003862e-01
3.857147193430460891e-02 3.532005342135186021e-02 5.055724998495293443e-01
1.992752955915330290e-02 6.487098508560469601e-02 4.701120981524894993e-01
3.823943640461371918e-02 4.091894525039101171e-02 5.046971562296412861e-01
2.172963592398212407e-02 4.645207205861370814e-02 5.215917759533185150e-01
3.792420772817766544e-02 2.093068620007941527e-02 5.163402650311367248e-01
3.625260261418770946e-02 4.282574470529786764e-02 5.072390324503995851e-01
4.292913368776189037e-02 3.534776569964443588e-02 4.905162092293597897e-01
1.130960857607752126e-02 2.951854639480680498e-02 4.527783075872252039e-01
2.537073906573373075e-02 6.279911292605165618e-02 4.735729986337303132e-01
-4.060777789530431447e-02 4.022306122860693639e-02 4.546558535915979915e-01
2.265433739795863835e-02 6.872166185553922613e-02 5.006764147755649041e-01
-2.306361749604760383e-02 4.600957250760832895e-02 4.548955076507615325e-01
3.767934568299351195e-02 3.422230610169704756e-02 4.686036645515253563e-01
3.302451120408953639e-02 1.785524925219500458e-02 4.570797862980174320e-01
-6.826543079491272092e-03 6.256407813085562708e-02 4.623787063457062696e-01
2.045050857455850066e-02 7.190992207353137655e-02 4.765856422754695121e-01
-2.052671295938236079e-02 5.294944093657394379e-02 4.578525964348104660e-01
2.152874618331328954e-02 3.186230956738458214e-02 4.568921960465785470e-01
1.792199272195007381e-02 6.647131359122367134e-02 4.695303970390132808e-01
5.974726810411740835e-03 7.521092335410008156e-02 4.794093599434013364e-01
4.959519421347359687e-03 5.129870530911314480e-02 4.592059372239639115e-01
-2.214051717315665066e-02 7.451985326540878918e-03 4.391055727811735698e-01
7.936617000047753445e-03 5.502361749188773576e-02 4.611762771871772970e-01
-3.533559346208740848e-02 4.112853342315692801e-02 4.535816703502654201e-01
3.787116820673436246e-02 2.721481538166766259e-02 4.654014412070531792e-01
7.101048488607688593e-03 7.633783309334638001e-02 4.769037296642863466e-01
-2.846934781187969964e-03 5.768256006954540493e-02 5.342056864911841618e-01
4.930521065002163583e-03 7.042621211505242784e-02 4.683510601558726338e-01
-2.401900582159443090e-02 4.128115964602992183e-02 4.524578888348792516e-01
1.921654602711789228e-02 4.326925688298982609e-02 5.278517990952323879e-01
-1.859068665925832364e-02 4.896551438255757061e-02 4.560972011621200473e-01
3.029966942839197944e-02 6.238727315396625644e-02 4.850846822775720102e-01
1.141239769572690958e-02 6.245258751039273193e-02 5.248852895200926127e-01
-7.069336332476318895e-03 1.461706554035961322e-02 4.433149608545244313e-01
-3.285255841022018120e-02 3.895628414141936308e-02 4.514939692080329747e-01
3.461643825584263812e-02 2.255990030040712357e-02 4.602219474455767623e-01
5.911128885682341572e-03 1.237840238072560831e-03 4.404470495359571469e-01
1.283657402664995645e-03 5.187430618585913561e-02 4.583331649873179647e-01
9.297239081431976290e-03 6.321587884430691917e-02 5.206144447816336562e-01
-3.672408806152630684e-02 3.145165891266710895e-02 4.484834311502001181e-01
2.449424779709226396e-02 5.220639985228759522e-02 4.678007709760305666e-01
-1.650184878030737379e-02 5.404540872465971729e-02 4.581447204111175897e-01
2.614993408378341738e-02 6.638071058208268316e-02 4.780906809240982880e-01
-3.912134254735002460e-03 5.884863959673361511e-02 4.596019776582815353e-01
3.710452638405251774e-02 3.032407611681830345e-02 4.662486698671100549e-01
-2.787533810889064947e-02 3.024965016379575072e-02 4.476708295704758256e-01
4.300965178429749097e-02 2.436400169112613867e-02 4.716734904657871041e-01
-2.299594331834773839e-02 1.024765478087737765e-03 4.375171227466750912e-01
2.053656215726826911e-02 4.969643036946433390e-02 4.642319884409609743e-01
4.151824325448871811e-02 3.987204205812777680e-02 4.916341055805642513e-01
1.208215308750121633e-02 1.764981289405634715e-02 4.481015686315744651e-01
1.369864325874038148e-02 5.632694676511124099e-02 4.636408051716508494e-01
1.089753685327751569e-02 6.273112865546778827e-02 5.232314478513591105e-01
-1.189799045253927190e-03 4.484300373658016425e-02 4.559306611667919285e-01
3.479168222016843642e-02 5.377610980302172800e-02 4.823526148879564990e-01
1.034463917839570715e-02 3.674603427751516310e-03 4.420841347378084984e-01
2.313628099590176249e-02 6.691089561377773498e-02 5.031557837510862718e-01
4.775308358714817208e-03 1.627315859340356524e-02 4.460850764575503558e-01
-2.303676499331726735e-03 5.187898493143745099e-02 4.577412504095798584e-01
-1.298788577935277785e-02 5.175603718445206253e-02 4.571551788894457347e-01
3.453916650508517122e-02 4.988890076642375077e-02 5.057166344299645067e-01
3.831019582840898552e-02 4.503740570518943026e-02 5.010981479924110360e-01
2.769473203480639356e-02 4.160777989075583466e-02 4.649197642090770466e-01
-2.142172710229553814e-02 6.968502574683293690e-03 4.389607271751164719e-01
1.658244982065914738e-02 3.814197675991339020e-02 5.318528132923598939e-01
1.771709635161314647e-02 1.157992798778973570e-02 4.469369958025349310e-01
2.599221286926458110e-02 3.243131195607906747e-02 4.594444833738342004e-01
2.796724640937117701e-02 2.583257938783986574e-02 5.257477536244370420e-01
-2.456814389650390298e-02 7.840306841946486499e-03 4.392647545013045884e-01
4.461137175647125058e-02 2.914895362170152882e-02 4.881128890861169412e-01
3.393821051678521522e-02 4.312409030464584014e-02 4.704314934672370052e-01
4.019571353317689943e-02 1.880341868923286058e-02 4.634821291709294022e-01
-1.149379354178647200e-03 6.005948784448535138e-02 4.602437630457605899e-01
-9.234428618454259413e-03 5.203516317546368758e-02 4.573805572521243978e-01
3.288865165037165722e-02 4.160059540202119821e-02 5.129628351022293975e-01
1.764940447773673607e-02 4.522326411508872240e-02 4.611339133435419790e-01
-2.993454943175757887e-02 4.621244694035434031e-02 4.560491669239672419e-01
3.121155441061118987e-02 6.034603639225984140e-02 4.820055699786154890e-01
3.707610519958909334e-02 3.372292988388274348e-02 5.088943999185017164e-01
1.008388573148725174e-02 4.842969458414709411e-02 5.319960166864401430e-01
-1.342641351967360092e-02 5.212158599033616529e-02 4.572605550604855740e-01
1.251621304832394206e-02 5.470658509037545914e-02 4.626988150405519917e-01
3.847933922398886347e-02 4.742847554477504224e-02 4.881514361080122044e-01
2.720048547084682328e-02 1.032772049883638396e-03 5.332230273926970021e-01
2.343068854828115472e-02 7.168295098918464614e-02 4.913802123385684339e-01
1.070091477612863592e-02 4.818585231645462763e-02 4.598801742533893955e-01
2.450076433940789541e-02 3.291904625254579719e-02 4.588240026182093256e-01
2.675615795624960644e-02 4.924587651277419209e-02 5.161416074145898092e-01
2.570993291711895501e-02 5.152012899210201002e-02 4.683928984349569058e-01
2.754623658547874013e-02 2.827008562243510381e-02 4.583869557211359136e-01
2.381858717757221952e-02 5.223815790795157538e-02 4.673007520342321031e-01
-3.148083604982054168e-02 2.492324737818786204e-02 4.458593072114892530e-01
2.555914910976340992e-02 6.913392086278224991e-02 4.906793260737908891e-01
3.728901713370706868e-03 6.994043981842075486e-02 4.673050110830792025e-01
2.008446979214442013e-02 7.501654515042319171e-02 4.835926143814758826e-01
1.455172837831103169e-02 2.488538171920158873e-02 4.515939003440618826e-01
2.133347713646483595e-02 5.842062495950323120e-02 4.680816511766308641e-01
3.078192237367958009e-02 1.756552084024107577e-02 4.554698494697976829e-01
-8.191255406044596100e-04 3.570967816879923318e-02 4.527746430087113416e-01
3.892281090606433680e-02 2.763635920511434488e-02 5.084761271250134440e-01
4.341043910071323841e-02 2.729218449703266214e-02 4.750481075741427861e-01
1.758272432093531054e-03 5.662952050044505609e-02 5.342178480532706608e-01
2.340924055487221198e-02 6.488770529593630709e-02 5.069462091312378904e-01
1.498590183148524636e-02 7.045899785092915590e-02 5.054321643129524588e-01
-1.473487666170357480e-02 1.165994881923477534e-02 4.409245176147870149e-01
1.303720990119791243e-02 3.811612919760969109e-02 4.567566986945996721e-01
3.954837027469188665e-02 4.463052875199899350e-02 4.953071686373217708e-01
1.581506841484939946e-02 4.839572090014781364e-02 5.262048960848029200e-01
3.832017099180624192e-02 2.473090897427926427e-02 5.116863013252213044e-01
2.020237600876865353e-02 3.441683964495695358e-02 5.300611008460445195e-01
-1.082517545839395412e-02 3.504800221049517855e-02 4.511356298805937470e-01
-6.206777654456950566e-03 4.801500015679520394e-02 4.562311546153317576e-01
-1.469029910288553731e-02 1.941646768706445716e-02 4.439749693880907788e-01
3.972434519662077640e-02 2.882606038889706096e-02 4.682856690723187776e-01
3.421984893492549529e-02 4.587622872420266118e-02 4.728689901382829297e-01
7.650566902814082311e-03 3.670770296739358368e-02 4.549119588933275282e-01
2.673105819608531317e-02 3.636757008913139855e-02 4.617860676545506582e-01
1.121470453963423729e-02 7.443755457127725073e-02 4.949828795785395363e-01
-1.343346787597938727e-04 2.525434814072192308e-02 4.487381871611939022e-01
1.332162668423648479e-02 7.139966338362481457e-02 5.025907261145639016e-01
3.328648163486154499e-02 5.343273003284065847e-02 5.035112259819950475e-01
1.115170823282245899e-02 7.522930506943162343e-02 4.891325115158469683e-01
1.578857819198448142e-02 7.322977098108998661e-02 4.995959681940583264e-01
2.862364306236344844e-02 6.502064114349803692e-02 4.836580723767356926e-01
-1.699811984327184375e-02 5.566048644457965988e-02 4.590087553437058321e-01
9.434702966100268900e-03 5.040871616297333546e-02 5.310586011099154291e-01
-2.390417891815270653e-03 6.166304020044512807e-02 4.613012681415334382e-01
2.825758057299291789e-02 1.421875010135882286e-02 4.525820702930667960e-01
2.841297725207147032e-02 5.177653393704762658e-02 4.705973116062991957e-01
-9.282231305729821830e-03 1.670009919981360613e-02 4.437523248270415221e-01
3.598621696675956272e-02 3.164883227673160465e-02 4.659085996157645848e-01
3.328343601831605658e-02 5.226463196354879520e-02 5.062830574366690151e-01
4.311602187006455950e-02 2.840265894386596185e-02 4.969922893913197859e-01
1.278466254391139728e-02 4.948578896259282073e-02 5.284377099859997040e-01
-1.880082433488966184e-02 5.790072565719565217e-02 4.609415502113062280e-01
1.220314694431207797e-02 7.465002066344854359e-02 4.946911712051547116e-01
3.247939529896795314e-03 1.083530473703015612e-02 4.436106010959711132e-01
4.265799179077827546e-02 3.634099672293122224e-02 4.891781834163388409e-01
2.053079534063553119e-02 5.138364104832490731e-02 4.648572740177610574e-01
-1.090742778843106341e-03 6.891687209435344574e-02 4.681195568712159250e-01
7.575313415162367343e-03 2.544071743177887899e-03 4.411932370696753369e-01
-3.524827153410742958e-02 3.292926427137472106e-02 4.490204472566226013e-01
3.653288011035202981e-02 5.025853522277937829e-02 4.828305408838786117e-01
-2.288776537421721019e-03 1.269785409369847407e-02 4.433681697643798159e-01
2.826243294117944740e-02 6.450939296326922701e-02 4.946098628630594130e-01
3.885176906302308109e-02 1.956643431163394842e-02 4.621552501612216646e-01
-3.481800038416264786e-02 2.922218468833229568e-02 4.475845862972837041e-01
3.403868000202635302e-02 4.155941798154044048e-02 5.111594267656208723e-01
3.119478119510296632e-02 4.954528839561442993e-02 4.722009002052789950e-01
3.577461418269361343e-02 2.096939274699321371e-02 4.603627506085047338e-01
2.025373830398376207e-02 4.576807051390905517e-02 5.235424970218376384e-01
1.032628939416264241e-02 6.273371452508079427e-02 4.645091636934297608e-01
3.149907038285076205e-02 6.011135703890443938e-02 4.931539322077937992e-01
-2.973593951979908515e-02 1.852028132389579862e-02 4.435043631742713321e-01
-1.691044669228883518e-03 5.874755752888916049e-02 5.357839519191398558e-01
3.639157793028515581e-02 5.021857364136723956e-02 4.967203822111097011e-01
-3.324570156449401827e-03 1.214731536619081086e-02 4.429679400692190239e-01
2.063246811005725254e-02 3.641028258327108635e-02 4.585512296157154277e-01
1.244899786127962732e-02 6.303733112624396173e-02 5.213814752551322318e-01
-1.624022339908265042e-02 5.827434394833343190e-02 4.606026207635862124e-01
1.382207869095038004e-02 7.588515842893171770e-02 4.752260967816023807e-01
7.304734007306001517e-03 5.000766278814669508e-02 5.341475104509427752e-01
1.340852858546017629e-02 4.509871916524787853e-03 4.430009090960095874e-01
-3.978924570052953802e-02 1.716277976140697780e-04 4.409273469924191446e-01
-2.452456451355114128e-02 6.427454327942226306e-03 4.388389878120012022e-01
3.251890027397569272e-02 3.950434719704880998e-02 4.670907683370239538e-01
9.476058596467490727e-03 4.110588394662217926e-02 4.570424220362824252e-01
9.828709582348688079e-03 6.435770577371673073e-02 5.111806772772893304e-01
1.188989592629600793e-02 5.733200787503629769e-02 5.254086645922541043e-01
-2.226007829123588869e-02 1.859363991993126519e-02 4.430854479794300027e-01
3.071555169886613576e-02 6.063328599558962667e-02 4.969576661874177681e-01
-1.592752356023980839e-02 8.602169588777536929e-03 4.396455608053077002e-01
4.095761763249855525e-02 3.928189182103213745e-02 4.981607510748194412e-01
-1.550829124493277242e-02 4.530722563081075738e-02 4.546310739946917701e-01
2.752788179928189818e-02 1.101444262936298810e-02 4.508734926847399183e-01
-4.026636880952191161e-02 3.721913645117883723e-02 4.518237928364721712e-01
-2.902415146271845534e-02 4.583580220554808043e-02 4.555840214641570518e-01
3.134070711449544328e-02 5.961288592212564408e-02 4.969973713113550740e-01
-8.308791263554743400e-04 5.830614247251506010e-02 5.366993205369902098e-01
1.477897718451455164e-02 6.524151238596540003e-02 4.674312841738892943e-01
-7.814539658928599739e-03 2.544860572949529318e-02 4.473989905254506794e-01
-1.225874103424317609e-02 5.696498237129418718e-02 4.590072589061033881e-01
3.771934098516361439e-02 2.279087670795168843e-02 4.628838426522919880e-01
-2.529346002742985031e-02 7.022322929818351767e-03 4.391481726548526199e-01
1.393981235164109753e-02 4.520304779171486348e-02 5.315706339179393503e-01
3.253075002209727951e-02 2.092350516384372527e-02 5.229299526137047849e-01
2.987203887542337968e-02 2.491644282127609966e-02 4.581081902930312921e-01
1.119812244203871078e-03 3.260661751290293286e-02 4.519128700391834008e-01
-2.181198060088971463e-02 2.023087786109440539e-02 4.437072854335425420e-01
3.144274017186386716e-02 5.824310018088713070e-02 4.782451285909015137e-01
1.370357078766763076e-03 6.226961937668187841e-02 4.621488570255594674e-01
9.595062493301588502e-03 5.431889661703409589e-02 4.615436998177086525e-01
3.986085455862165700e-02 4.394401050982619378e-02 4.861010449526702026e-01
8.519453145535480984e-03 6.145923912752948581e-02 5.279850081385588645e-01
-2.287930284548036347e-02 3.736111130694427102e-02 4.508318217229471681e-01
2.615528620363667331e-03 3.244468554533976035e-02 4.521436391423580559e-01
-1.119104334705871978e-02 3.653789917244793656e-02 4.517443075041778222e-01
4.197028454007144943e-02 3.718153278592857547e-02 4.944326257440907479e-01
2.249571612994836003e-02 7.000554325954902457e-02 4.985506177512931680e-01
1.318493508933618261e-02 2.579387127160660473e-02 4.516617401297529644e-01
1.770323939462237900e-02 4.790401458861098805e-02 5.247077153707121466e-01
3.540777302171166721e-03 4.158218521763984432e-02 4.558505094254097223e-01
2.587437939327008607e-02 6.567560974179946498e-02 4.991344844612511378e-01
2.753279281121140398e-02 6.698668700367188533e-02 4.855175608443277335e-01
2.478262744888333827e-02 5.510191831949745600e-02 5.162896072563151195e-01
2.056406904669373301e-02 7.440431507965555857e-02 4.826892586978787092e-01
3.950178392293459545e-02 3.531815764354846732e-02 4.728707159688974038e-01
3.636655978583436255e-02 3.091238414129957382e-02 5.122315250666051867e-01
-7.281752026285611551e-03 1.725955862942865279e-02 4.442957103237628602e-01
1.739800088717727983e-02 4.503651181474459253e-02 5.271760066022179725e-01
-2.032977890865880419e-02 4.533981415446919350e-02 4.544148851772761843e-01
3.287015572714126893e-02 4.203529135494417368e-02 5.127215849068252895e-01
2.154837747742265747e-02 7.155209790703861983e-02 4.778172212918561090e-01
3.883034570108513661e-02 4.672451479628189630e-02 4.887592042312907670e-01
4.199091024826524582e-04 7.017355874595598841e-02 4.706910989469261786e-01
3.055797083276956538e-02 5.407899824145039752e-02 4.739831408938590673e-01
3.580338290456448747e-02 2.715147993482220148e-02 4.634898074083324548e-01
1.750407126015027237e-02 2.168183724484624292e-02 4.509889934128803457e-01
-9.825604407270881885e-03 3.931461510873409532e-02 4.530755688806152315e-01
1.074404630435816209e-02 3.926556897470558777e-02 4.566597264874984741e-01
2.992849510802090413e-02 2.073727367999349952e-02 4.563043702843740945e-01
8.265665572192971988e-03 4.638489177896008842e-02 4.585682227955972246e-01
3.760522399005351846e-02 3.037237271096636382e-02 4.666844359374562323e-01
-3.594556044087704461e-02 -7.016911706712036789e-04 4.396151675558165883e-01
2.280645287073213359e-02 2.282292516051460246e-02 4.534317378343646343e-01
2.432058859091744060e-02 6.258354128456646015e-02 4.725843766378996502e-01
-3.671712330691103560e-02 3.369419581536108044e-02 4.494051993070104500e-01
4.207436501593543599e-02 3.185213310129276360e-02 4.980622766087231534e-01
-2.662352181375260071e-03 6.780054205170496506e-02 4.656704871235826104e-01
4.081367420896155757e-02 2.901873673239040857e-02 5.029894521788108586e-01
-1.359080380545902092e-02 4.859065915849635625e-02 4.560251765423283810e-01
2.136790267347300765e-02 6.305925290675420958e-02 4.703369069131835278e-01
3.643084224270853877e-02 5.141254882925561098e-02 4.887345438476872195e-01
1.952954021854665795e-02 5.185874825350534484e-02 4.645875675285374706e-01
-3.624935831844405820e-02 2.627828757382258407e-02 4.467750169426465412e-01
3.928517718055707375e-02 4.235242223959039681e-02 5.006371445715552815e-01
-2.047316315273079931e-02 4.297876276164838000e-02 4.534386490578032891e-01
1.481708401505778608e-02 5.361509691689998747e-02 4.632016080743511788e-01
1.038054393557077959e-02 6.115626473025279758e-02 5.264197491185675926e-01
4.613042844359678540e-02 2.157136609333323851e-02 4.798484106011812744e-01
3.134599869140881206e-02 5.713614789142692357e-02 4.765217492424196344e-01
-1.617797264616515143e-02 2.711472568150917473e-02 4.468085374426838952e-01
1.669343468693992860e-02 5.880363124704703071e-02 5.218024428777179313e-01
1.476267200068669475e-02 6.348385834860131860e-02 5.201069899557690945e-01
6.178654067388276820e-03 -9.842548293911338418e-04 4.397524041965431563e-01
-1.580588706664198123e-02 6.039526717598358435e-02 4.628207230234860359e-01
1.692061069204299495e-02 6.981184108200637339e-02 4.707961984771884545e-01
2.980742185448313070e-02 4.278256564989074001e-02 5.152177076720374505e-01
-2.612421113157313221e-02 4.600266387809666402e-02 4.550959096516111746e-01
1.915750390799621922e-02 4.874091162212536299e-02 4.632010564488941995e-01
2.085304270826007084e-02 9.565716617644229314e-03 4.472958798826059401e-01
9.420985117741892401e-03 7.915431282948424963e-02 4.783760144474664688e-01
-7.331712155255448032e-04 3.158753672936021051e-02 4.511412022227038743e-01
-1.244299543696539279e-02 4.765967524948625661e-02 4.556801490764113560e-01
4.584430907428882485e-02 2.325006297506012135e-02 4.817424745314780044e-01
2.319879043844870134e-02 2.749981238377428340e-03 5.323794559281856964e-01
1.173310006867665442e-02 7.356857628081145406e-02 4.722039402232968142e-01
2.537366772061224254e-02 6.369104567920297333e-02 5.065531563660362613e-01
4.481980020567739864e-02 2.620571876016425036e-02 4.801689695871740327e-01
3.437981315527603027e-02 4.678969035236938551e-02 4.737477979760362778e-01
9.696370797907090389e-03 7.900426358858116116e-02 4.764148423151450817e-01
1.965899014964295893e-02 1.435209305839153446e-02 4.487296586803287690e-01
4.187653272937392340e-02 3.364218125237335849e-02 4.980522599835857100e-01
9.456249388736110914e-03 7.827203160350848510e-02 4.755898911203007007e-01
3.644151440481959575e-02 5.139823249643306335e-02 4.885892300244101816e-01
2.042399281606287198e-02 5.860608720701648150e-02 4.675170943945197721e-01
3.625956677711709986e-02 3.082819354042685284e-02 5.126176510493133387e-01
2.900219192047112649e-02 5.071500096800816981e-02 5.132925774273671138e-01
-3.156605671196597435e-02 1.402652108940776604e-02 4.425564966132675138e-01
-3.765424756285753495e-03 1.536030448734575574e-02 4.441395699995118185e-01
3.477710101898674050e-02 3.974703249499754454e-02 4.690106196863219612e-01
3.416730459640277690e-02 2.036121500954487379e-02 5.216733528199611891e-01
1.930153636012136437e-02 6.033425970062888249e-02 4.675812038011514793e-01
-3.089462816012508370e-02 1.622051583030931568e-02 4.429937006138783273e-01
-2.252070778568626003e-02 5.414162558978049405e-02 4.589059392274335569e-01
2.860682031972995934e-02 5.625115502235311649e-02 4.730758854034003424e-01
1.068287822690837038e-02 6.891915723468926280e-02 5.051114921853709916e-01
3.687973884693295651e-02 3.797596788570859611e-02 5.081554715247887932e-01
4.093019681360789835e-02 2.758516098378673009e-02 5.037555473738534184e-01
-3.720610198950934089e-02 2.216115339660342659e-02 4.457566524907537464e-01
3.038491318937781849e-02 6.069461577441568473e-02 4.791349906600719799e-01
4.317204626117934069e-02 3.320770181783803954e-02 4.917399039547962203e-01
2.473647364277235805e-03 3.490082328465952261e-02 4.530992310625242547e-01
9.832460811010447499e-03 3.716922592898314753e-03 4.420039160942465517e-01
8.838167234281378223e-03 5.769236300290286890e-02 4.622939738947354216e-01
1.951657422716272794e-02 6.149263131107834263e-02 4.681743671373452820e-01
2.690216128359717782e-02 3.100733211012472734e-02 4.593092906552981303e-01
1.041875841938651702e-02 6.737550130956823646e-02 5.067893395446435578e-01
2.402457979010591549e-02 3.201457341318589278e-02 5.282427221937984196e-01
1.905354025919231420e-02 6.450119584402373707e-02 5.130225509313439680e-01
1.535915853802119133e-02 4.571887757478627912e-02 5.293915058900479087e-01
8.872455243267242733e-03 6.620907239576924452e-02 5.068039782275031158e-01
2.920218226750735668e-02 2.742942528025916690e-02 4.589444029252860990e-01
-4.714810953799046522e-04 3.438841452606331700e-02 4.523112975660469326e-01
-1.277246375140142151e-02 -4.572999893498195037e-03 4.367581877444931537e-01
3.030435073969574983e-02 6.091220732897270618e-02 4.982956309547124096e-01
1.287728200071505159e-02 1.375578885794199405e-03 4.418049121256417133e-01
2.085488298453606199e-02 1.475015431182298900e-02 4.492813296586180560e-01
3.312374149061107081e-02 5.346557878050026136e-02 4.770096006823775769e-01
2.262807439989180519e-02 4.635890008272319091e-02 5.205833682891227721e-01
3.913349070827764481e-02 2.359593569450423381e-02 5.104575958766077726e-01
2.819832881759167659e-02 2.515623610906333671e-02 5.257350350393071858e-01
1.565179795751497904e-02 6.384750156363420970e-02 5.185686442423105280e-01
2.267453922027556218e-02 3.715472136319154794e-02 5.290624880202977609e-01
-2.579159276675904722e-02 2.844479158755466690e-03 4.382250882012721505e-01
2.240979835702978928e-02 7.108025145342391354e-03 4.468662386728595726e-01
3.376971559340011253e-02 4.790531710317782327e-02 4.739757400867065651e-01
-7.170260286855448598e-03 2.788136697640451397e-02 4.485184063526502785e-01
2.118073933571680903e-02 3.457820660554111747e-02 4.579876419014841105e-01
-1.552619991172415892e-02 2.289985886923428388e-02 4.451821635381807418e-01
-9.614201228455075340e-03 4.614726567169250698e-02 4.553814013801329441e-01
-1.430465601088918084e-02 5.910076278755466844e-02 4.610453415222803830e-01
3.228753611118116013e-02 5.883338863324878709e-02 4.839647599213792173e-01
1.187483938939839535e-04 5.270561949667249696e-02 5.370986039053644578e-01
2.675813273479289364e-02 7.858321243125026764e-03 4.492114891977715407e-01
-3.300116542636039735e-02 4.498093466532897960e-02 4.558412525797801429e-01
3.331426275639476353e-02 5.473215243512991046e-02 5.003169593874310372e-01
2.885697506533761725e-02 2.574959625487488815e-02 5.249676736775931163e-01
-2.594300660237302408e-02 1.748462919045434827e-02 4.426710218119520590e-01
-1.205307684874595310e-02 3.236418617205960579e-02 4.497619894479829572e-01
-3.741675278554895678e-02 2.292982548703944440e-02 4.460313622721477911e-01
-3.833148780991518182e-04 2.232249181857420481e-02 4.475250603819491135e-01
1.457630271972797098e-02 7.371827177331058412e-02 4.731752578412618537e-01
3.323849948281516753e-02 3.992346990809909207e-02 5.130376858435650167e-01
6.211389863116813584e-03 5.323675031773745375e-02 4.601144460022539850e-01
1.726542150488111563e-02 6.221465061468579860e-02 5.192466110356139808e-01
3.294546522501168306e-02 1.773833607899392983e-02 5.238249930149042610e-01
-2.094182291133847226e-02 3.039100025982452782e-02 4.478738653077010134e-01
-1.767713862828153640e-02 8.515541140153435468e-03 4.394136007127589783e-01
2.547270400451219496e-02 6.850512294091182230e-02 4.932437231712273884e-01
-3.879198165585761183e-03 3.907517715777190925e-02 4.536163382763987451e-01
2.497025875746817711e-02 4.422468495133939637e-02 4.643957405519227311e-01
1.651703910490736000e-03 4.361059307568870835e-02 4.561325896010132719e-01
2.915746884460721985e-03 6.234166487076011481e-02 4.622526334688870087e-01
-2.386561837325769375e-02 3.320305389544939666e-03 4.380031800813045106e-01
1.279430060127185499e-02 6.352125794992766195e-02 5.195731860782213385e-01
2.580479300358579781e-02 3.851248400099046426e-02 5.240705661276621186e-01
-5.867698233794257359e-04 2.616334528954602362e-02 4.490212122132382633e-01
8.840535974497649302e-03 6.642398733154510071e-02 4.658789284123329155e-01
-1.426550065835864925e-02 5.817786678538599404e-02 4.599917003954817618e-01
-3.020297088863404047e-02 3.428895676564420320e-02 4.493699626879744113e-01
1.978767637873546370e-02 6.425099029186391586e-02 4.696853258002091080e-01
4.214939433390742923e-02 3.664002117535480885e-02 4.841724197784945116e-01
3.833148803283859679e-02 4.509303667143560457e-02 5.009975001160895669e-01
