2.571242344328225626e-02 6.588390185904133278e-02 4.996928722284793567e-01
2.130744060362490047e-02 1.633535548549285010e-02 4.499407816456770792e-01
-1.115892852656006837e-04 -4.442370111015113074e-04 4.388288665414780132e-01
1.489745674813151149e-02 7.521118309805480129e-02 4.752510824864351058e-01
2.913074813401987997e-04 6.686314224868351863e-02 4.653497262763100495e-01
2.825126379060528131e-02 2.856192604456272294e-02 5.259018227969153303e-01
3.281028273159147107e-02 2.596075286897488871e-02 5.223412303316151695e-01
2.604119685566082601e-02 4.630883708168369306e-02 5.177635691945231544e-01
-1.568169163995316445e-02 2.289554793100532018e-02 4.452142979876317908e-01
-4.947108257733368042e-03 9.711402976638975476e-03 4.418100399920952825e-01
-1.535995304817239053e-02 8.925290741741757211e-03 4.398751488579560887e-01
2.480214210864889815e-02 1.892837106396781655e-02 4.526888264363185810e-01
-2.166956778643938653e-02 2.983216338794986155e-02 4.476023912218347056e-01
2.771041963239422382e-02 6.467442437482327777e-02 4.973140329371789070e-01
-1.420209906422101624e-03 5.847852710488012778e-02 5.341758054085022911e-01
4.137678737312990018e-02 3.164717017153069467e-02 4.733090980571879047e-01
-8.161227434109526169e-03 2.052493535536877717e-02 4.454360589526339398e-01
7.672791534154477580e-03 1.200105836018379446e-02 4.449499877974928408e-01
4.762299732116436271e-03 5.239903503617939634e-02 4.595346574913893312e-01
-3.000174980108075845e-02 3.798169725135554231e-02 4.510438511160045350e-01
4.549387958972635204e-02 2.385536336281376263e-02 4.921229271842287312e-01
2.830334860873596342e-02 2.717187907819595960e-02 5.257234145285274440e-01
2.952607261665748245e-02 5.532137803142423566e-02 4.733595134873678223e-01
1.553732521976766701e-02 1.239116224193466571e-02 4.467035543945429010e-01
-4.216868753759530491e-02 2.354165225052671367e-02 4.472624759804967320e-01
2.510961892840527995e-03 9.132461346473507574e-03 4.428117005475710743e-01
-3.559076254780330073e-02 4.258649128326109923e-02 4.550163771236933052e-01
-1.640670377461652535e-02 3.619235921115492027e-02 4.509932139106806459e-01
8.871912549836933823e-03 7.113574561970764654e-02 4.692843249611050038e-01
2.179370460759607123e-02 1.512940240799668691e-02 4.497306816376947514e-01
1.591545434215823132e-02 6.714921498511738918e-02 5.094705251397581014e-01
2.089831700955125521e-02 3.358466064446595511e-02 5.299248885335627879e-01
3.251598818011550152e-02 5.739744133136025217e-02 4.795648611432788422e-01
-4.560516880898619375e-03 2.529945421562509750e-03 4.392419667144074058e-01
3.695821171555040141e-02 2.388384592990735328e-02 5.171800188511377350e-01
8.346170386942554364e-03 4.042928402900642509e-02 4.565714085520226617e-01
2.379311958428241124e-03 1.964689764959228271e-02 4.470110655414053502e-01
4.068397864293616349e-03 5.368697179468922415e-02 5.353692420643489935e-01
1.722256173972457408e-02 2.961426246641864560e-02 4.544413831504500179e-01
6.506348022174766703e-04 1.716000578878939392e-02 4.456880560119844126e-01
3.485671207702309427e-02 4.958124909224626009e-02 5.058262952398551171e-01
-1.662183216582403117e-02 2.971767447796569081e-02 4.480024185211773924e-01
1.417045947801303610e-03 4.054029256928422253e-02 4.551385072498776441e-01
4.542648223115713924e-02 2.412115367586249032e-02 4.793748859841689969e-01
2.100828323128696787e-02 4.150050427586014085e-02 5.282761837450810072e-01
1.549166638356285972e-02 7.185901280822613868e-02 5.019906155015017024e-01
1.497836641754188639e-02 6.226824601619641159e-02 5.220276843390018184e-01
-2.229949545087724430e-02 5.192052028289570291e-03 4.383930288828443711e-01
1.201819198736189809e-02 7.844965330685944871e-02 4.807681898574438506e-01
7.829054039536275517e-03 2.759416782869217669e-02 4.512646793646653554e-01
3.596165665615724122e-02 3.973093543976839725e-02 4.703331995127780774e-01
3.287286695881409815e-02 5.696726350103290676e-02 4.800234985302717639e-01
-1.453732075630936871e-02 -6.860299591561352245e-03 4.367257948684669655e-01
2.549874581056824074e-02 6.882707599728919712e-02 4.931564591876839709e-01
-5.877184660003979128e-03 1.606777483074399784e-02 4.440928973595333895e-01
2.580324678130459931e-02 3.414581216108254769e-02 5.274706647739377807e-01
3.475073520352087164e-02 1.502084971506051359e-02 5.235683203235074190e-01
1.813612983431821951e-02 7.856111364371209244e-03 4.455455923931297413e-01
-2.085414169822306235e-02 2.454019518465450252e-03 4.378684518948663396e-01
3.627902148636415885e-02 4.837802442937123165e-02 5.034135020828840457e-01
8.476749954615772284e-03 7.719122843356250596e-02 4.753925697191115907e-01
1.539575078936848349e-02 7.605266499390114787e-02 4.781433122593899965e-01
-1.094215411131298915e-02 5.028016332447889786e-02 4.568648427598866468e-01
3.347144356913136359e-02 5.387500193374404611e-02 4.779019452720201233e-01
3.832511647579966985e-02 2.551443080156659549e-02 5.114020123024829445e-01
4.146433914861070991e-02 3.891272921058654827e-02 4.964993793443903680e-01
9.229758526998369655e-03 2.578200845431902200e-02 4.508146537186826230e-01
1.557019885127787842e-02 5.747230750237470459e-02 4.647322720400285379e-01
2.734422020756279922e-02 4.972958472024772286e-02 5.158042695004204647e-01
1.484451210331414438e-02 3.732517544006271754e-02 4.570051353254379611e-01
-2.089975703889996456e-02 4.051588096260095445e-02 4.524303652344731086e-01
1.455565201108019457e-02 5.146504235095490654e-02 4.624583131941213954e-01
3.307669360077088866e-02 1.963580782353756618e-02 4.578156610737671439e-01
9.894804585418193188e-03 5.269135536508949558e-02 5.296658449461930651e-01
1.423211732081244157e-02 7.463824680543136580e-02 4.956835252355650256e-01
-4.413460163671067277e-03 1.776609045349875071e-02 4.449895187104753180e-01
4.169401930266859041e-02 3.315117817646547060e-02 4.992767646466775844e-01
1.146829778688152925e-02 4.824201374860814101e-02 4.601840722361681402e-01
1.406229755980720371e-02 7.520403556925972510e-02 4.907409768173474074e-01
-2.111583830084858004e-02 5.259324025713353438e-03 4.384405918355206433e-01
-1.076259880176319572e-02 3.555461591203572941e-02 4.514277757080503717e-01
-1.868195999903388485e-02 5.973043762593595318e-02 4.649618148318737654e-01
5.399289261098908811e-03 4.727008911241543931e-02 4.581984715090401394e-01
4.279468865297866159e-02 2.725424289464199387e-02 4.989356021390695672e-01
-3.951401484762857852e-02 2.808641878593243213e-02 4.480252353552373612e-01
8.761568456354028311e-03 6.528987699497534880e-02 4.652828896307516504e-01
1.560045974165844007e-02 7.390109077431054885e-02 4.739190079666342759e-01
4.777493299737289520e-03 2.742884051574475540e-02 4.505893870160020964e-01
2.310885699791351321e-04 5.921104956413861947e-02 5.273392232532527757e-01
4.434794678358411346e-02 2.155637146915963948e-02 4.725856170629993969e-01
2.625170041287498007e-02 2.941645985088147536e-02 5.271701953128664631e-01
1.017521205729433192e-02 2.864735070878453999e-02 4.522050734677374728e-01
-3.121954401140148577e-02 1.548414150028844423e-02 4.429209522116330233e-01
2.859125444537389052e-02 5.616551674487030299e-02 4.728692124299333499e-01
3.556576911999975027e-02 5.038894846433494834e-02 5.022132358985228473e-01
2.250080570950879419e-02 4.943252477287278512e-02 5.198402589100399318e-01
1.724827604089224087e-02 4.245010602505478597e-02 5.311200100216149078e-01
4.256177101718773559e-02 2.384880522124303501e-02 5.027697434056791481e-01
-2.479641172648950828e-02 1.826918949519567431e-02 4.430186669236588770e-01
8.617738112245655266e-03 2.662695323303129399e-02 4.510333551798491603e-01
1.516533003233608810e-02 5.105295524062469087e-02 5.256477560373468139e-01
3.607388055800566512e-02 5.204861889954606052e-02 4.921844238327557908e-01
-3.566849438021921920e-02 3.326160579038064946e-02 4.492584872611698477e-01
3.044956669132632687e-02 3.620310631150953223e-02 4.640068420080922795e-01
4.121986670334650688e-02 2.489785754431057818e-02 4.682118985046886395e-01
3.848720744370959235e-02 2.456519582194036447e-02 4.644613306018526289e-01
-2.072531323875339768e-02 3.010877318872791364e-03 4.379742300207150607e-01
7.751650899769726294e-03 4.584918711111692080e-02 5.350561656898532581e-01
4.447542542842895796e-02 2.555133275721065828e-02 4.762293400461677928e-01
4.508901021049709773e-02 2.249752126394498689e-02 4.753150091950049672e-01
-1.893417197883899908e-02 5.282974177320261255e-02 4.578102448646945155e-01
-7.814867025043244902e-03 3.640368472580696180e-02 4.522067042114172319e-01
1.988922709010717757e-02 4.944163459017646839e-02 5.220510735445198502e-01
2.316733478958397235e-02 3.627927597512876912e-02 4.597321035981417614e-01
2.691046603582076136e-03 3.994594885161129733e-02 4.551635909049017714e-01
2.603935865619375761e-02 2.819781344961388297e-02 4.575035670729187265e-01
3.934726697458078293e-02 2.839747469969876661e-02 5.074067517363983759e-01
1.849361818425360356e-03 3.977080472595822397e-02 4.549432966911443055e-01
8.616157241580085085e-03 6.339590390943110332e-02 5.118338707578289348e-01
3.345855637246716169e-02 1.957255634318312912e-02 4.580434759019341717e-01
4.507771274115331128e-02 2.523406432927473297e-02 4.923964993096366927e-01
-2.309396825557240296e-02 5.849885945930863307e-02 4.655998881954662161e-01
-2.793360313595477651e-02 3.086004818377089884e-02 4.479846412078072881e-01
-2.931027857572005013e-02 2.525395030855000569e-02 4.458685639560949210e-01
-7.009913052297973672e-03 1.350890214771130991e-02 4.429279873077186513e-01
3.012619987798256446e-02 6.170798356392601797e-02 4.794064481341965278e-01
1.764627785386768330e-02 2.598010132694276303e-02 4.530077663744964123e-01
6.779236780142812446e-03 7.476880775574561155e-02 4.778454179582413697e-01
1.539619359869773101e-02 6.691316336101423012e-02 4.684894114760023154e-01
-2.399866711633389521e-02 4.539462876450535422e-02 4.547127265664299700e-01
3.795824587085473711e-02 3.124061976458188811e-02 5.088359611141937133e-01
7.831327561928898284e-03 6.228793168192096885e-02 5.154615958154799005e-01
1.646050635327591175e-02 4.983858452493805657e-02 4.624724637530269744e-01
1.334666217412895997e-02 3.080180557755723275e-02 4.537831487877139747e-01
1.982159624950451463e-02 5.082603566900774361e-02 4.643309317218362597e-01
4.115958797409047937e-02 2.063080151034627982e-02 4.655897418548253786e-01
-1.614892906550432009e-02 5.908580369622722789e-02 4.617313920471154964e-01
4.142060149331282942e-02 3.032532244522967435e-02 5.007131102128924427e-01
1.366144908028403375e-02 5.186195568766450992e-02 4.622846141076469295e-01
9.052869121133038776e-04 5.827825149510030417e-02 5.245478801115982526e-01
2.794020215502910492e-02 6.164968746323962884e-02 5.054168074598207605e-01
2.559779372114910634e-02 3.756685974646992165e-02 4.616310118731499212e-01
5.618007536173694368e-03 4.218550018939411922e-02 4.566050198987587350e-01
4.105186827301728764e-02 3.285228752260467566e-02 5.010437156745594089e-01
1.527972205511424382e-02 7.669430426822548830e-02 4.803027455724735995e-01
4.993102113928555956e-03 1.139228432943801411e-03 4.402580888448763830e-01
-1.305279592626755469e-02 5.866627635800752971e-02 4.605153390455781759e-01
5.570412072339292822e-03 5.903064626535583365e-02 5.309342383869085635e-01
2.763937123321713596e-02 6.700365695813888245e-02 4.895658876510026736e-01
1.454358887568601467e-02 2.204232631778757154e-02 4.504472174736242063e-01
-1.323557770586144926e-02 2.581405092377989097e-02 4.466650062311823266e-01
1.811014561908867032e-02 3.611113446964697021e-02 4.574939291596086255e-01
1.021408998217361412e-02 6.260975215521960568e-02 5.210920310403841516e-01
9.988040435324214289e-03 1.219678631148412261e-02 4.454726373441846299e-01
-1.001295663923266847e-02 6.065433670301485780e-02 4.616350789714709912e-01
3.558696445081348941e-02 5.225644608443284073e-02 4.960502954247395513e-01
-2.093156321614845355e-02 3.180448308555787473e-02 4.485640185039090344e-01
-2.841706683840902400e-02 7.363094358506428252e-03 4.398116249495737096e-01
3.255074558312692073e-02 5.005919410677569376e-02 4.738080219891918077e-01
-2.090599103005759581e-03 5.677600305716357099e-02 4.592996776532838332e-01
-2.550472058882958387e-02 4.022675392927167227e-03 4.384084188645416824e-01
4.380966864317472481e-02 2.061706960415099835e-02 4.707082720676077359e-01
-2.380923939238298315e-02 1.433080767466564723e-02 4.415544018040182261e-01
2.080841232222120640e-02 6.179444136746496674e-02 5.155383924339413948e-01
2.904655902054978714e-02 2.478036164248556897e-02 5.252380574328272544e-01
-2.229154395516287634e-02 1.106413708650336690e-02 4.403375228514463391e-01
1.346957755270585325e-02 7.831992736235940389e-02 4.794267436767672419e-01
-3.130058087929613909e-03 4.672861884725689613e-02 4.562919418412197392e-01
3.300890895324462559e-02 5.728894073848645602e-02 4.809557410673405142e-01
3.900321567843011150e-02 2.520191208723182932e-02 5.100469973453225503e-01
1.567275742421432930e-02 2.493812873058696283e-02 4.519495197959936261e-01
4.265145286889627380e-02 2.763758025932276652e-02 4.728621476007699442e-01
4.138583637194934856e-02 2.564601618526214655e-02 4.690054288325125609e-01
1.823466412806002551e-02 7.629350405785190192e-02 4.838907252571809647e-01
-2.346397572461476205e-02 2.016738931301935434e-02 4.437403034132613167e-01
8.201576023541332430e-03 6.664706460403706234e-02 5.043918013280084267e-01
4.352597026140099024e-04 2.639288383548682101e-02 4.493343127800989989e-01
-3.786576861603504519e-04 4.184423946787269033e-02 4.552704008631960897e-01
9.677698029229502702e-03 5.521198114618321162e-02 4.618921574944794273e-01
1.591958241511456538e-03 5.879495638933072282e-02 5.245699614435387348e-01
2.859717092093452470e-02 5.482765406737388075e-02 5.116810557306546992e-01
4.070562296763152038e-02 4.264328214681475243e-02 4.916804043134886948e-01
2.777535918799735326e-02 3.695438826194915455e-02 5.226893294358335718e-01
3.177179290686865665e-02 3.080742826849710084e-02 5.226133284341745178e-01
1.431346203650973176e-02 6.308716064528284428e-02 5.194165321753506648e-01
2.957542597356495676e-02 6.340071909356334579e-02 4.811615320315923983e-01
3.243315440496501861e-02 2.152462058066959005e-02 4.582004962684196880e-01
-1.857405578160518586e-02 1.492618949076595161e-02 4.417170136150766480e-01
3.206723388385281093e-02 3.395211054576604409e-02 5.177703471752299613e-01
1.373436913101389219e-02 3.430467642105193560e-02 4.554269140189528553e-01
2.088234041439280056e-02 7.427719645045101349e-02 4.933921203276533940e-01
2.882009642210575998e-02 3.800099155339364126e-02 5.191170551917677622e-01
2.687712206314056204e-02 5.608697021764416646e-02 4.713366374589007535e-01
2.490165229089979365e-02 6.794383304747514396e-02 4.976100642011701547e-01
3.264411870999367471e-02 5.648590328964401414e-02 5.000919930947055336e-01
1.456724125527142887e-03 5.835676191717677902e-02 5.239084466882746316e-01
2.288331192886085275e-02 6.233052513390664046e-02 4.711392557018469485e-01
-7.401184144065648188e-03 2.590440638358196268e-02 4.476980038801972595e-01
1.059811876076350093e-02 7.006396387643545887e-02 5.005547564538452843e-01
2.495772835438755249e-02 4.573693752690726616e-02 5.187691262707471163e-01
-1.553054376191351227e-02 4.551618446371034910e-02 4.548200843669021887e-01
2.876223516298814439e-02 5.847976008073690196e-02 5.084001358291709849e-01
1.110425735202822360e-02 6.191316315910252999e-02 4.645565298332818838e-01
3.198093528346228342e-02 5.891552735052943413e-02 4.969413050164602774e-01
3.712202036769726710e-02 4.371553532692462607e-02 5.057884387894870937e-01
1.418516898421538081e-02 7.778792188051203427e-02 4.824570986341667478e-01
1.815987842805891900e-02 6.215921463062808183e-02 5.181756738965831444e-01
-5.919128808758935753e-03 3.686082486323826075e-03 4.394771002734825793e-01
2.463294463099836851e-02 4.314138324581283379e-02 5.208805652889056947e-01
8.183293162057932515e-03 5.179688731903683147e-02 4.603136068246633794e-01
2.469588998255364473e-02 2.388218568936891634e-02 4.548681920113859523e-01
-2.425339008994207429e-02 3.017387282366836010e-02 4.476939719025999631e-01
-1.992168598902958540e-02 5.930708611610856218e-02 4.644163171684108637e-01
1.188100018269452017e-02 7.092446076679148614e-02 4.692331356215193594e-01
-3.761920723381101395e-02 2.256714854388745806e-02 4.460574499890611055e-01
-2.712626195793914601e-03 1.636657762021156634e-02 4.447480111791528024e-01
-3.684288680283364335e-03 2.818927683417582486e-02 4.493045868772636564e-01
2.504646548399774159e-02 6.178608944571069989e-02 4.726839739633919013e-01
3.276679437912128484e-02 2.821044842005237738e-02 4.615766296377737388e-01
-3.800882269004414882e-03 7.258032256786573107e-03 4.410281561476685486e-01
-2.360879900415013138e-02 5.366553180808401879e-02 4.590686055783250730e-01
-2.968854960484581043e-02 2.974023655767608736e-03 4.388743684062941797e-01
5.036417515964201549e-03 5.535523726647133269e-02 4.604619893855004253e-01
9.534504943438829733e-03 6.867311150389067420e-02 5.026153821572634239e-01
2.828014902489827884e-02 5.070130454230310085e-02 5.146759347208219593e-01
3.522422247252794680e-02 5.368911455734344529e-02 4.838713135413035826e-01
-2.908602313308225953e-02 2.205381060277385868e-02 4.446508824994065412e-01
3.273551503855279959e-02 5.489425791619153422e-02 4.770174634251670431e-01
1.049009738000261996e-02 6.976915742015876720e-02 5.011498012402043623e-01
7.995711778648403531e-03 4.438570206323488171e-02 4.578990246650178619e-01
-1.712325565085039483e-02 2.908294759073041386e-02 4.476585626409296248e-01
2.775019560250829159e-02 6.703594991156869298e-02 4.860130846423060258e-01
3.793807643840768629e-02 1.958587532059674272e-02 5.173565360631624532e-01
2.275226624991966498e-02 7.235118638150137005e-02 4.822990777348268865e-01
2.320877802581889499e-02 7.119203277937724561e-02 4.950483332949781046e-01
-2.362891306542870551e-02 5.006194056347625099e-02 4.572662475114627201e-01
8.841940777644646116e-03 5.722190856695661548e-02 4.622134069037024950e-01
4.124987027080228436e-02 3.957351024446836146e-02 4.966371397145530331e-01
1.550559938360393172e-02 4.632924633124599345e-02 4.608036670787071798e-01
3.721819491877462194e-02 2.782869242756573491e-02 5.125836135358381451e-01
3.588432894166643239e-02 5.293674525170485173e-02 4.881559780945413651e-01
-4.821961882123144971e-03 1.592549089071085971e-02 4.442045585549562747e-01
1.155691125194106481e-02 4.439890139309296546e-02 5.340015825321070553e-01
-1.993433803118802028e-02 5.479399516617590449e-02 4.590878684924158404e-01
1.297911158333094409e-02 4.199641604544163132e-02 4.583945282617233885e-01
-2.196657847515926659e-02 2.648427784199986271e-02 4.461933409803036099e-01
3.892397298513938092e-02 2.112519908270704336e-02 5.145522758440744804e-01
-1.164254809002518085e-02 9.628104822003999766e-04 4.378935903210047775e-01
1.119017289227142165e-02 6.055591183885830620e-02 5.263153747190799647e-01
-3.368194398150294033e-02 2.414451747275580748e-02 4.458918902930753547e-01
3.007585227445863305e-02 3.987344884034749182e-02 4.655866128982157903e-01
3.395441700980210420e-02 3.092549001770784900e-02 5.180534386909638744e-01
1.044348352588552083e-02 7.221195287155891818e-02 4.701996743873301798e-01
1.681671760894473677e-02 1.452021180321032105e-02 4.478427014331284317e-01
2.926842664762624793e-02 6.074927814937132464e-02 5.037386997477348860e-01
1.472583472988096831e-02 6.169932638663386260e-02 4.659619926230582632e-01
3.636477533268913515e-02 2.285011854192556952e-02 5.185197199687000547e-01
4.181416623361926960e-02 3.002506008299398940e-02 4.998481139011344832e-01
1.513395071710800857e-02 6.315310419214587023e-02 5.193163621154494036e-01
1.804047288075769431e-02 6.665743506984907196e-02 5.093775552442670884e-01
3.368982655248767277e-02 3.140629751001536296e-02 4.637974310143500034e-01
-2.309114424721314673e-03 5.616112348292969653e-02 5.260719521714678493e-01
2.641578244328769351e-02 6.252011237969477830e-02 5.069473467139344880e-01
1.545488836067145100e-02 4.909636810994932182e-02 4.618498831286459994e-01
1.832585894820460554e-02 7.031456679628290962e-02 5.038544659597496977e-01
-6.986391256717796108e-03 2.899047115033047059e-02 4.490706493983643854e-01
4.443078816703930484e-02 3.018932785376986228e-02 4.876850995094030861e-01
5.797512392194034518e-03 3.898491609313213535e-02 4.554522080299901465e-01
1.093570558075815380e-02 7.358909396853442753e-02 4.960897349253894362e-01
1.887619355277928707e-02 3.754535583876050103e-02 4.583116795275745670e-01
2.328854025731272315e-02 5.877460448645016600e-02 4.697062354964036679e-01
2.097837901300752747e-02 6.104354140237282234e-02 5.164120562495503330e-01
2.227776239266893860e-02 5.372789981945405406e-03 5.312740916853633255e-01
2.469140981509655719e-02 5.000000184100299866e-02 4.668734608282388288e-01
1.990590541855669082e-02 4.213061966466329772e-02 5.287446490086125106e-01
-9.880778050714189575e-03 -7.771945113664666810e-05 4.378218594680850506e-01
-1.995776988661832410e-02 2.717863280524398725e-02 4.465777328352603659e-01
2.730157571756259768e-02 2.120515584012518800e-02 4.550067059470353503e-01
-1.920299167149253083e-02 5.914224012566742655e-02 4.629444487806141928e-01
2.607830461108218839e-02 6.006585887505423021e-02 4.726858314879939238e-01
-2.403070181903807501e-02 2.139498278936116660e-02 4.442093364792386589e-01
-2.918059824207858144e-02 4.999250848055184632e-02 4.583720479747013798e-01
-1.534898945309447205e-02 2.438774973654237940e-02 4.458521493395526392e-01
2.696625345922699576e-02 4.689778976527138321e-02 5.168841314986210023e-01
-5.420717187178337310e-03 2.224309749198919578e-02 4.465705493500244927e-01
3.296945560443910461e-02 5.502190525120848053e-02 4.778482214744260159e-01
3.708443476351306473e-02 4.068631772123115081e-02 5.071783176640642932e-01
-1.747542472258319796e-02 5.066120748970111970e-02 4.570098318383104541e-01
-3.259332339120442346e-02 2.012568401240716343e-02 4.444612277126073208e-01
3.937716996068246766e-02 4.595092914407467033e-02 4.895829601059569214e-01
2.284843001332967014e-02 3.844777995343390264e-02 5.285048984389203452e-01
-1.774635506347746472e-02 1.934094036195281585e-02 4.436010538593495034e-01
1.881047486405204236e-02 4.732570151363049704e-02 5.241418505451983512e-01
1.723984690610040615e-02 3.967724971872928913e-02 5.318875902473813033e-01
1.501996659584339637e-02 6.239699652440853367e-02 5.217666917033104701e-01
4.498531547351117960e-02 2.680736518791480838e-02 4.823090590119823440e-01
-7.135174507844048268e-03 1.775006915576598718e-02 4.445380959808992172e-01
2.864683834541431606e-02 5.641845967375534038e-02 5.102820724350368708e-01
1.256893510516651595e-02 6.576933393366829472e-02 4.665804258693614370e-01
1.752788777080445393e-02 5.554565133169336866e-02 5.219190767455000879e-01
-6.707916576484698919e-03 3.903386717388868804e-02 4.533768028978891196e-01
1.221116776309254075e-02 3.330910960391227082e-02 4.545722561469985878e-01
7.681099676180073998e-03 6.483753583069558346e-02 4.647587265676255686e-01
3.983980259549468189e-02 1.896230009189835489e-02 4.629372754923360422e-01
3.938639565183648522e-02 4.041449912182154547e-02 4.768282662975231179e-01
4.423270747346409737e-02 2.897110105269468106e-02 4.806876023152285571e-01
1.200618425222486386e-02 1.055855796139415839e-02 4.452156367165547857e-01
1.042399199915416443e-02 5.638792244678850207e-02 5.272911161174810291e-01
5.092829057133888004e-03 6.133854366519100182e-02 5.296075668394364389e-01
1.194147474602077694e-02 3.600931283730353372e-02 4.556316988856348726e-01
3.141374903070493635e-02 6.129573578976641596e-02 4.885366217835827585e-01
-3.551620796897687893e-02 2.182434145648252596e-02 4.453966713100713237e-01
1.730141017573185239e-03 2.566458732492358022e-02 4.492830812526859008e-01
2.087118835845307163e-02 7.463880556799080968e-02 4.843021401223623346e-01
2.899152728973452414e-02 2.968153381386991196e-02 5.255356688657933928e-01
3.307269726722256165e-02 5.667320297186086847e-02 4.978262104085785511e-01
9.003984655491688305e-03 4.362084445039943886e-02 5.344110713453127381e-01
8.559247833001118466e-03 2.365647621631806335e-02 4.497872229322147364e-01
4.221198811213216356e-02 3.759586772740718813e-02 4.864346262894710393e-01
-2.076216193349161160e-02 7.409397418533440402e-03 4.391597176211305964e-01
3.146120959704287040e-02 6.082073776908750867e-02 4.851616505186227557e-01
1.159748262245944954e-02 7.002379895545378374e-02 5.022717885007801364e-01
4.446758870430423359e-03 2.075275715606928438e-03 4.404752398476927677e-01
-2.386108088975467251e-02 1.594053156147993630e-02 4.421359024490869039e-01
4.220229217248963605e-02 3.595037945663215329e-02 4.958854655442493375e-01
3.779639869198759411e-02 4.752887920338483285e-02 4.814934277251365913e-01
-2.816629243315626335e-02 2.685329051016017987e-02 4.464896990920107500e-01
5.907642111432767802e-03 6.119741028882518669e-02 5.308216092546431675e-01
1.524067101339491616e-02 8.371191803897188449e-03 4.450707811544474257e-01
3.826082007353906467e-02 4.824277015161920062e-02 4.867048444753241943e-01
1.852470486383673773e-02 4.253860182253452887e-02 5.297165422144317626e-01
-4.622245040009247304e-03 6.214904102615965986e-02 4.617924941742436173e-01
4.258856154303934660e-02 3.743371219467878097e-02 4.909231030454467848e-01
-1.067033729190442620e-02 1.121200144451907701e-02 4.414839555861650999e-01
-2.448593569315628271e-02 5.579225687482775725e-03 4.386314469454818399e-01
4.195877991131215234e-02 3.776140953666239780e-02 4.841924098736077875e-01
4.431367788814638553e-02 2.927684460664354421e-02 4.826455311138251880e-01
-2.466389755342781112e-02 3.255482319473626540e-02 4.487052485057078655e-01
-9.938194353854936693e-04 6.842954519862659568e-02 4.664184225199096701e-01
2.379382295428547622e-02 4.383124966164994585e-02 5.213392675825448963e-01
6.821562716499317107e-03 2.888191320781188787e-02 4.515744035062042583e-01
2.035531324197909636e-02 6.653981811364391430e-02 5.070864838607946901e-01
3.258565376806005220e-02 4.555821285857686309e-02 5.114998697905266400e-01
2.832481959038443686e-03 5.339047207468695239e-02 4.592813281408414938e-01
4.534112807893375327e-03 4.672327841614385552e-02 5.358091579180158659e-01
2.063802838964745243e-02 6.145907323595098393e-02 5.161706761073934224e-01
2.882425307361631897e-02 4.149513897302819360e-02 4.655370663718831903e-01
-2.541747293948177361e-02 1.752869657155223682e-03 4.380371735759930329e-01
-3.852292016963874272e-02 2.844345091576260323e-02 4.479287331696559238e-01
2.493862587177444676e-02 1.473685335182249589e-02 4.509709159461082195e-01
-1.139359182548003654e-02 5.966088711898858560e-02 4.611013666256749688e-01
1.246304145350086642e-02 6.224369716360284022e-03 4.435190225468608194e-01
3.632400760492811298e-02 4.585616988992648191e-02 4.758314662098340753e-01
-1.799622839095697813e-02 3.351240249434918328e-02 4.496275629941341445e-01
7.217840672307551317e-03 3.938538942875235982e-02 4.559184315006273858e-01
2.590491909210092952e-02 6.956412015441437724e-02 4.887321066354536336e-01
1.926176437926241727e-02 3.929834297907829760e-02 4.592688559959704486e-01
4.005708823277007169e-02 1.943361695816921836e-02 4.634692370104072645e-01
-5.756220916749597502e-04 -1.494219015540643181e-04 4.388526031543152905e-01
-2.442486447158069215e-02 9.249461012735495438e-03 4.397143703421830252e-01
3.171897683261640927e-02 6.075112458294420342e-02 4.887655466149282146e-01
-5.759168269229734266e-03 1.644099106365744592e-02 4.442553551411216328e-01
-1.384751612372587919e-02 1.600293365541508722e-02 4.427760248520230535e-01
2.407929759534571668e-02 4.174478599941325307e-02 5.223640416838296607e-01
3.488866344776293121e-02 4.312897542167255793e-02 4.715528226951262170e-01
4.165848818632094525e-02 3.145830494829909840e-02 4.737404322232878773e-01
1.997792959082391948e-02 6.684364364126138547e-02 5.070217094960547399e-01
2.943238664457764608e-02 6.473393820260332776e-02 4.883177096880364498e-01
-1.378264802558821361e-02 2.098265648642474307e-02 4.447194893691502893e-01
4.470075346699262098e-02 2.198883014529960656e-02 4.738550421268628021e-01
3.686154720036480953e-02 4.719709831428423735e-02 5.032124515439038159e-01
-1.921067633645065498e-02 5.863427405744998933e-02 4.622738569291168220e-01
1.498533229322453891e-02 5.487578570897166247e-02 4.637061703387749811e-01
3.022468652407283782e-02 2.371111164766628518e-02 4.577438657821775725e-01
-8.689761832104096403e-03 5.773733524346398582e-02 4.593211028091234716e-01
-3.201808568035265090e-02 2.976444394449092451e-02 4.477137170897647067e-01
4.413213434081131314e-02 2.081611353185573721e-02 4.714715688822827544e-01
6.318027462340205548e-03 8.112513481452900133e-03 4.431069500875473577e-01
8.606978162912757441e-03 9.962895684973768068e-04 4.408767166273226956e-01
2.486961091042805272e-02 3.246383309841918002e-02 4.587917824908530062e-01
4.214774786449028421e-03 5.916527987225502633e-02 5.320005105275833479e-01
-4.204910967131686439e-02 2.368428680851934059e-02 4.472791228073776937e-01
-2.631572084805988351e-02 3.300124044317589295e-02 4.488960298956050643e-01
-6.779517845319955188e-03 4.358698223154681972e-02 4.549183382701716960e-01
-3.040716916436785391e-02 2.715243631403679858e-02 4.467239525927664268e-01
-1.518846414729433172e-02 4.877100289015482565e-02 4.562372433902827651e-01
3.303739960462823838e-02 2.356471260390171490e-02 4.594859021738997296e-01
3.883269014718548906e-02 4.685214098529501270e-02 4.913546080650266212e-01
3.407696790546546617e-02 5.214221299442935165e-02 5.042041189502782794e-01
2.024690825447924419e-02 3.807630076122248131e-02 5.304489520126811630e-01
8.862473956099283998e-03 5.740375956329202972e-02 5.282820745078044000e-01
-3.319078948549823022e-02 -9.526717409093729029e-04 4.389560093260538309e-01
-5.967536770095181048e-04 5.469511441006914831e-02 4.588316600161828629e-01
4.652909290243486401e-02 2.240068577224329713e-02 4.876938537415272390e-01
2.587148091480292317e-02 4.852337236983016860e-02 5.173463362945640576e-01
-3.772241543025928873e-02 4.981069067384979836e-04 4.402419947922444066e-01
2.107464945462471026e-02 4.869433626837935125e-02 4.641160199474781978e-01
4.368792876989700813e-02 3.261324017900361916e-02 4.866920163910624098e-01
1.753301838837803203e-02 7.441255021923474933e-02 4.970103836570138323e-01
4.376961356943542825e-02 2.884816135929424083e-02 4.946525796304837019e-01
2.483551216938306022e-02 6.916367681962701242e-02 4.800016219220937241e-01
1.526980477547697744e-02 1.581442852496092386e-02 4.480475951283351410e-01
8.484190540382767140e-03 6.887309263596956554e-02 4.673132453739943792e-01
2.739387361309610774e-02 2.759439109056659872e-02 4.579337526779181933e-01
4.143498142893254493e-02 2.546625624615899558e-02 5.043785420729179902e-01
1.026564350325466848e-02 6.365037960544847606e-02 5.144067887118949356e-01
-6.158606981521672595e-03 5.291528242159467682e-02 4.578101880405412993e-01
1.811121411055467700e-02 4.371483804384924954e-02 4.607443587421923281e-01
-2.582928258466212976e-02 6.861168710308309521e-03 4.392468098358267570e-01
-1.275522886105994206e-03 5.580500689271295639e-02 5.363455790443028004e-01
3.051994089161541926e-02 4.934953424939458877e-02 5.123657837813030413e-01
-2.365529154506076925e-02 6.323892923594405177e-03 4.387411167411089385e-01
2.359008924104709012e-02 2.550145637157753831e-02 4.550276775830665033e-01
4.235567087975905531e-02 3.721933777130251308e-02 4.930578570910717495e-01
1.644462276229338368e-02 6.227141117941108195e-02 5.201659925700395926e-01
-1.679386966055361474e-02 3.536895913520667761e-02 4.505808199639037559e-01
3.859057937213105499e-02 2.720358179618218367e-02 4.659570534664114749e-01
2.378083907398829966e-02 5.752150800939804381e-02 4.695006571097422032e-01
2.345118485353165153e-02 6.600169964080324081e-02 5.046274490036790628e-01
4.110996418187810864e-02 3.479619907806081464e-02 5.003774447634046219e-01
4.552902580639126007e-02 2.548530916541513411e-02 4.845842729121767056e-01
3.513662562382585675e-02 2.720823070130555521e-02 5.188554169830668084e-01
1.306538162825037104e-02 4.566161667310507377e-02 5.319185846008211982e-01
2.683140061669819776e-02 2.771153773285980199e-02 4.576940074072509135e-01
3.770194316656701183e-02 2.721613357013206655e-02 4.651579738965449518e-01
3.924455058959813031e-02 4.122251075330658071e-02 5.022482368265702712e-01
-1.125769941037228772e-02 5.921641750652644615e-02 4.606414335815209316e-01
3.494192838455067313e-02 5.430586255874363111e-02 4.923143492666410270e-01
7.971752332279063991e-03 6.106324219556905769e-02 5.290544100132057448e-01
8.823914182189838279e-03 6.426101677564331760e-02 4.647779178791576205e-01
2.548625634956220090e-02 5.842256793634227618e-02 4.713600336153192516e-01
2.809736956587691181e-02 6.459621013182510751e-02 4.790644934004840705e-01
-1.214767081264024086e-02 7.054494755954477097e-04 4.377709750330493477e-01
2.345412345464104736e-02 2.782046552648752540e-03 5.323483129989985407e-01
2.146098374612236473e-02 6.092267196121088635e-02 4.692590879394886172e-01
-1.834545131942880852e-02 2.082300266477659853e-02 4.441283229187311665e-01
2.957278643541749741e-02 4.137302311747372702e-02 4.659617138996074992e-01
3.100943382522684810e-02 3.521756789886262839e-02 5.182935385486701074e-01
4.224239584161345457e-02 2.376939732494320195e-02 4.695452100279563501e-01
1.468782354414189910e-02 7.673606440378177851e-02 4.794472800860171691e-01
4.276427944615809190e-02 3.492118338711470982e-02 4.835305590306876455e-01
2.482579800585163823e-02 2.254673711095150218e-02 4.543343719844802897e-01
-3.675961588216963838e-02 4.084714073720261546e-02 4.539772131296607727e-01
4.127807153916765448e-02 3.898294835921780471e-02 4.978508871831135996e-01
-1.718316526479910650e-02 6.041252861484461972e-02 4.671800009589182623e-01
3.628300837372015752e-02 4.860554865811314573e-02 5.031426191585937069e-01
6.446950195236487904e-04 2.029369821662089721e-02 4.469441978231120105e-01
3.574619644099315957e-02 3.606829289296852037e-02 4.677419105770602159e-01
-2.955117903525612821e-02 1.562669945721624314e-03 4.386328410522371546e-01
-2.249508694696933028e-02 2.286531977496540375e-03 4.377975045584440172e-01
2.953782570898720941e-02 3.549859887126598224e-02 5.213637145030259878e-01
-3.422919150826572981e-03 5.023830251578704359e-02 4.572460986190847176e-01
-1.558888520734388709e-02 2.812558561411350293e-03 4.380329477231541535e-01
1.398552575328271264e-02 7.131641907882624309e-02 4.702623573868915940e-01
2.569541084866181629e-02 2.349904809919882431e-02 4.552122147706087474e-01
-2.739426198073327545e-02 5.316799975820614074e-03 4.389821806196591569e-01
-3.558729865761588174e-02 2.013818523134921698e-02 4.449727860161105664e-01
8.126978188177590677e-04 1.203979226404902972e-02 4.436875636719483373e-01
2.891269383039808683e-02 4.630362560981577530e-02 4.680414931754259267e-01
-3.559254269051560088e-02 1.923712225223691424e-02 4.447399526798095359e-01
-1.865117934444828970e-02 4.450972208170494299e-02 4.542919090468755527e-01
3.781668831142568493e-02 4.878034014781305189e-02 4.915470740912882275e-01
2.947585236759215147e-02 4.030352645833441827e-02 5.173156387044189897e-01
1.256131812257636760e-02 3.918794171424935802e-02 4.571086942381651363e-01
-3.377147653430256913e-02 3.588499952567465040e-02 4.502568631201497307e-01
1.206677827495392964e-02 5.184746393598285014e-02 5.282309818776858013e-01
2.959081167628198339e-02 6.412451428176747792e-02 4.857227705402601403e-01
4.276494252736837143e-02 3.416892006801484222e-02 4.810714667623788299e-01
3.253686912645740309e-02 3.280820522666202943e-02 5.184585511108722455e-01
1.334181685761122102e-02 4.111982011919265018e-02 5.332032567161570924e-01
1.712627656013522570e-02 6.141813101723737206e-02 4.669898278273920678e-01
1.490617816101678234e-02 4.881771787302237320e-02 5.269992741805942238e-01
-6.397647702242989683e-03 1.877518063043829427e-02 4.450483811849238469e-01
3.157301455255770439e-02 4.060348383932452926e-02 5.145452486922448276e-01
3.473127137464047942e-02 5.451299596148344306e-02 4.829057441366493841e-01
4.021537349846038278e-02 4.203144914041638536e-02 4.807179126976449668e-01
-9.063442699676432790e-03 1.334127879181524166e-02 4.425393718365677742e-01
2.546403291813376102e-02 6.583394291010224997e-02 5.003777425569329029e-01
4.918444648481540282e-03 3.671441941900738248e-02 4.543473673024131521e-01
-1.476313748464432550e-02 3.194895971213537050e-02 4.492554185772382191e-01
4.578262857600154390e-02 2.439426880903709793e-02 4.892726097855835676e-01
2.003335514282824151e-02 4.249689263834453140e-02 5.278008517750162332e-01
2.055416838322483841e-02 4.135492101561436679e-02 4.608649784132810012e-01
-2.020806623067963881e-02 2.686920331367008419e-02 4.464293738675089163e-01
2.169605389903699402e-02 4.564608659901594340e-02 5.223660722797132117e-01
2.916798844153517881e-02 6.509003249542151537e-02 4.877506359360664345e-01
2.111425920579306642e-02 6.769720743776298788e-02 5.046632586526376141e-01
-1.762564316743486445e-02 2.556415475154328026e-03 4.379406134904677006e-01
1.404318635581788908e-03 2.111095259793393034e-02 4.474118696248391425e-01
4.346619598414061536e-02 3.130917114347622071e-02 4.797705251090135237e-01
2.086365250526861850e-02 7.503022583006802027e-02 4.870804452696592679e-01
7.434615923962051287e-03 1.171714796989523945e-02 4.447888518964663862e-01
2.386715895930086040e-02 5.642924843470805557e-02 4.691114210702548859e-01
-2.394848063380916950e-02 4.101088918272084022e-02 4.524219533692082629e-01
3.567346843747473684e-03 4.892649694997566745e-02 5.363897924912109927e-01
-1.560639751358227321e-02 2.011904926244948225e-02 4.441641515671029272e-01
-6.935045742169307706e-03 3.504295261039169773e-02 4.517227935642841863e-01
8.347404188662510202e-03 4.350213962389699873e-02 4.576839219263310610e-01
7.581457046464519511e-03 3.435976088670034817e-02 4.539894421426160509e-01
2.830326101904474811e-02 4.265414466086509676e-02 5.168441277636827147e-01
