2.103860811361726174e-02 6.445388343213052929e-02 5.108824659533807155e-01
1.848913954171986507e-02 4.374302148239903043e-02 5.284472283932286629e-01
2.981952439412200936e-02 3.224398533762779656e-02 5.240965290949476385e-01
3.232504789451522142e-02 5.277121046861089210e-02 5.080237294276338522e-01
1.474798287636498555e-02 7.229949847267812257e-02 4.714885816499940763e-01
-3.353646473819238243e-03 5.700981565789408484e-02 5.300331832249526309e-01
-2.946560475737269522e-02 1.981436365319990539e-02 4.438974885992135189e-01
-8.076134678151986827e-04 5.907779206021862572e-02 5.282412772290134839e-01
-1.191054779014427689e-02 2.285756751825645475e-03 4.382685812121509539e-01
1.570050359545357987e-02 5.973233866407157838e-02 4.655462956685223475e-01
2.373486146263832641e-02 3.454293990385456925e-02 5.285455612122891278e-01
-1.001015657630380251e-02 6.006261652760497283e-02 4.609334376238582998e-01
3.571950101300716551e-02 3.045930786728361789e-02 5.144475999796923604e-01
2.524285435422559190e-02 3.857786897332603909e-02 4.618455443358615575e-01
3.382833250510153961e-02 1.954591215365906326e-02 4.582692010471910438e-01
2.051844384444795593e-03 1.653987358930553847e-02 4.456871359858343706e-01
3.958967653680781768e-02 3.598042227091394901e-02 4.733536283156796753e-01
2.263072939159861338e-02 2.362034713093348615e-02 4.536716529630274164e-01
2.520778518374217417e-02 3.866488743780272658e-02 5.252229404196000484e-01
-2.681759409080966897e-02 4.356376694395239918e-02 4.537504882939223383e-01
1.108298555603675836e-02 7.389765906052844779e-02 4.724552344759460065e-01
-1.347796572102796624e-03 1.527011871854073305e-02 4.445518180746940717e-01
4.127584915500551871e-02 2.421530938112834500e-02 5.054442098559476237e-01
2.394222866630912883e-02 5.392176767409772448e-02 4.680709944621147534e-01
4.307946832032958501e-02 2.253336127029839653e-02 5.023440115740923639e-01
2.550574015739883946e-02 3.804615055921695826e-02 5.254370986389924614e-01
3.076801045188306064e-02 5.774797120068976553e-02 5.043059532062884598e-01
8.076201338437590319e-03 6.563738507464932093e-02 4.652202567077591278e-01
3.808871014982318642e-02 3.875242047671530188e-02 5.065313432095184254e-01
-3.332598630449772753e-02 2.385383951586065102e-02 4.457360113320356088e-01
2.825451358667965818e-02 6.112908323488768642e-02 4.752655394800625599e-01
3.676180476573588651e-02 2.945231866503724566e-02 5.126556752948884244e-01
2.463286162773299648e-02 5.424521097330421010e-02 5.168031385623552687e-01
6.857396708714366684e-03 7.072384503295339742e-02 4.686455525158871316e-01
1.478588696252354159e-02 5.813850970680140007e-02 5.234269263012231166e-01
-1.992154718753419949e-03 4.677970409498008464e-02 4.564059332609266550e-01
7.619573906527205877e-03 2.454930416878920232e-02 4.499344840768773612e-01
2.520337064356401036e-02 4.112313922891601414e-02 4.630046150182242082e-01
3.618923944811361544e-03 5.511802980234740273e-02 5.341389120278986491e-01
-1.447005192017237346e-02 8.141552385383207802e-03 4.397707502159093340e-01
4.107652522111914645e-02 3.537350251013200719e-02 5.001182221941871120e-01
-2.507077679875192519e-03 9.565133291866891735e-03 4.421076730201266569e-01
2.110510661369851756e-02 2.354087743847726663e-02 4.530372540456458208e-01
3.785473915398054889e-02 2.339464264198961099e-02 5.152096031726206560e-01
-1.904267272644402306e-02 5.301783314651952600e-02 4.578390515585415432e-01
3.863486006045790261e-02 4.692513324814656661e-02 4.843039223533883164e-01
1.547626075800319703e-02 6.544499633409313344e-02 4.677792454504296482e-01
-2.013188267814403770e-02 2.643836446971414844e-02 4.462395189724005506e-01
4.366410751052968164e-02 3.319167078476845806e-02 4.889126729514982062e-01
-2.756928946004200479e-02 4.862199874393995785e-02 4.570188399261848611e-01
-4.156206446021151746e-02 3.085597694177044659e-02 4.492050170376090112e-01
-1.185568011389008525e-02 2.016275012239764769e-02 4.446677254714183625e-01
1.869436886558988736e-02 2.336568593920447176e-02 4.522035318268841086e-01
3.128950994837013250e-02 5.603188902498529994e-02 5.062901871388560959e-01
2.048248057768050495e-02 2.100195870878222154e-02 4.515995842301495644e-01
2.550112040787425385e-02 2.105570236271486415e-02 4.539944417879291372e-01
7.324540414275593908e-03 1.721672731960914929e-02 4.469521328653849324e-01
-2.329380813282082990e-03 6.254818071191445283e-02 4.620462989994676417e-01
-1.953929943994633239e-02 3.531896151812957685e-03 4.380893835087600885e-01
2.553098049689500951e-02 2.459744275245798629e-03 5.325542903783818671e-01
9.685254255002445287e-03 6.364047676911152585e-02 5.160435763748274507e-01
2.963831569307313202e-02 5.486396333888754473e-02 5.101556968288707417e-01
-3.256366330533743553e-02 2.613882225710345217e-02 4.465278073835090011e-01
1.076600278240794940e-02 4.138568706476099257e-02 4.574461601271142541e-01
-1.695113663529515015e-03 1.770898871089731166e-02 4.454539177561374630e-01
-1.704710540037972233e-02 5.274172563982984507e-02 4.576409870495738996e-01
3.230698341962928710e-02 2.842066706275173105e-02 4.613293377932651262e-01
1.130511458131781485e-02 2.831508222171312886e-02 4.522828053514648672e-01
3.346993608817679794e-02 3.581126830375077480e-02 4.658172754052279929e-01
2.822736164738383000e-02 5.302061168878405978e-02 4.708975110255816388e-01
2.311505781611892726e-02 6.013330520155835135e-02 5.143702499527716965e-01
2.866308071311141417e-02 6.501120106786467678e-02 4.915866815169196991e-01
-2.108044115412735162e-02 4.727931631371720678e-02 4.556020383611968372e-01
1.383849106476102431e-02 6.520434692039135671e-02 4.668646832094491828e-01
4.052293451105435512e-02 2.270578445658167147e-02 5.079946677767545049e-01
-6.579336476077599950e-03 1.726885249849546920e-03 4.387260029607445433e-01
-2.922491639662908730e-02 2.314733457173069608e-02 4.450271949012853390e-01
2.721495698469737767e-02 6.478687061513267731e-02 4.981391071531539039e-01
1.532217871236027547e-03 2.640947113654834241e-02 4.495253810649816328e-01
-1.871772203572196966e-02 1.249609020445134784e-02 4.407939758017518916e-01
2.915320206509885992e-02 6.282464576278333490e-02 4.787490961695619052e-01
2.683711250359245223e-02 6.751731257294581179e-02 4.812825106448223034e-01
-3.246042416783449097e-02 3.081456332941468965e-02 4.480953051737543436e-01
3.086357392251313364e-02 6.064768709659906082e-02 4.800306039837083927e-01
-1.312036134790646284e-02 4.060816118205583421e-03 4.386549336482167272e-01
1.429948169340173984e-02 7.327331984188757696e-02 4.990922194917161159e-01
1.191434150447941154e-02 7.793633190961944679e-02 4.759650605720529559e-01
-2.759289591667250623e-03 5.909536494754461661e-02 4.598278756179010607e-01
-1.557057940715201455e-02 4.235003042870596340e-02 4.536438604738543545e-01
-1.558939044949095645e-02 5.388585732065163947e-02 4.580463881320954722e-01
-2.737932311698085090e-03 1.594456898821543581e-02 4.445661935913585716e-01
1.919963781737633879e-02 2.963294267831620074e-02 4.550272507710592107e-01
-1.412075186322696470e-03 9.177929213522260238e-03 4.421242966727338408e-01
3.509113540719193715e-03 1.886352397518854807e-02 4.468919445686651559e-01
9.141186117039006021e-03 4.655432140076323083e-02 5.346509626394246872e-01
2.479920615857027916e-02 4.331281533243818566e-02 4.637668155171220663e-01
3.975448062989263287e-02 4.505100080636335186e-02 4.911726034371080019e-01
2.381919518013071030e-02 2.059459482920010000e-03 5.326472001992736960e-01
6.753395791469352441e-03 6.664162548354692073e-02 4.655735931589338183e-01
-8.327855512002491079e-03 4.458457122277115214e-02 4.550170425174989153e-01
1.208169274849606525e-02 7.036444678603483160e-02 5.027044495417797298e-01
4.266325157960115105e-02 2.538250192140716413e-02 5.011536511084374590e-01
3.456786060005100775e-02 5.112278191549936984e-02 4.777765627653745018e-01
1.250684202360899909e-02 5.951970765949430447e-02 5.250242672213132344e-01
4.554914029772966916e-02 2.575639523490959662e-02 4.865477007262905551e-01
1.903239060266560118e-02 7.452719563988738360e-02 4.785007677700810480e-01
1.202913275192232789e-02 6.146229335077362660e-02 5.252932368350028414e-01
7.554065855673600116e-03 6.786341075840926496e-02 4.665064067094656930e-01
1.230621201729931689e-02 8.423943403399252947e-03 4.443964675153730948e-01
3.739035367584055830e-02 2.550421429798729878e-02 5.142394933440146421e-01
5.737091303351279578e-03 4.912131217877268446e-02 5.359467997632015868e-01
1.629696566921069040e-03 5.450067134298181709e-02 4.591931674892346105e-01
3.482376724421668013e-02 2.952456324127590223e-02 5.174636873787893387e-01
3.893529700970380786e-02 2.499419882044834687e-02 5.102807171723480195e-01
2.365504824699686190e-02 9.237046448219835004e-03 4.481972045304206675e-01
6.833336270893651011e-03 2.496391487809294235e-02 4.499544968176257265e-01
1.971242887283334438e-02 5.146031523696984605e-02 5.213628843167098514e-01
3.189534113562864093e-02 2.230334819866960916e-02 4.581842080817596363e-01
-1.742960197306891740e-03 8.544062970494040871e-03 4.418328714812415625e-01
3.294566858819087535e-02 4.895017537919847672e-02 5.091351277160701683e-01
-1.042664547867018336e-02 4.750123512398120307e-02 4.558025250530474692e-01
-3.997310290562702123e-02 3.360046830162293635e-02 4.498163324970901322e-01
1.651257439722886647e-02 5.387253356808785476e-02 4.639004126350743662e-01
2.812764859564205119e-03 3.007984316009702785e-02 4.512396878528593946e-01
3.813273461623557792e-02 3.679755623922588426e-02 5.065005502768243906e-01
2.441825056406120645e-02 2.430985818490363423e-02 4.548986656587152289e-01
3.709287354210061977e-02 1.829801328189688270e-02 4.600748805344153092e-01
-3.039589872509227287e-04 5.369080311018228913e-02 5.370729114994616804e-01
2.037031314986855954e-02 6.708462705380703606e-02 4.714164269057767864e-01
2.785349565122249849e-02 2.695751118560908363e-02 4.578720245018296220e-01
4.112071336855974146e-02 3.427221135530662821e-02 5.003494122087165374e-01
2.111990736632462715e-02 5.412973767820310200e-02 5.194197536856675068e-01
-1.244203579259133170e-02 3.276738070799241342e-02 4.499369970417000930e-01
-2.180567394699876177e-02 8.512479864494205267e-03 4.394686628621141122e-01
2.523931903463505488e-02 4.011057725529589696e-02 5.234935897538453009e-01
2.197421033683485958e-02 3.684409312883034360e-02 4.593853303227430906e-01
3.070593787728321047e-02 5.460104490188776027e-02 5.089233478778060205e-01
3.425314599159472173e-02 2.913075519186253751e-02 5.191753580623811315e-01
1.902051247524775418e-02 5.311798933382588794e-02 4.647016775879528883e-01
2.042402438388091560e-02 4.644117506422557051e-02 4.629045354323207406e-01
1.106800417606341319e-02 7.382735460668919669e-02 4.723643541647370991e-01
3.071680404087594532e-02 2.487148772697624424e-02 4.585744354613683349e-01
3.314567370234774296e-02 5.534074968509840320e-02 4.788228309064056498e-01
-3.189111213011129597e-02 1.663462998881302946e-02 4.433402549954693628e-01
-3.085517528662645725e-02 3.701611112649322993e-02 4.505842954439565062e-01
-1.514808398923070051e-02 -1.115660019617364246e-03 4.372158019105790161e-01
-9.196037255267838773e-03 1.128433360800937431e-02 4.417276945788881637e-01
2.728988470517116141e-02 5.657799770396159528e-02 5.119019038446330772e-01
1.398560259592693256e-02 6.471519599175051818e-02 5.148777445070519265e-01
2.838298555553688679e-02 2.905444413212488614e-02 4.591999876319781126e-01
1.759363644087497125e-02 6.794192057426012843e-02 5.078765709158047370e-01
1.249555462866292280e-02 6.989024703051360810e-02 5.044088602205147875e-01
-3.308134074634865029e-02 3.806264042947499204e-02 4.511468436876944765e-01
3.640310504786697932e-02 3.310689477787286811e-02 5.109930702087180920e-01
3.434380123870340445e-02 4.232029862983238688e-02 4.701989989490296118e-01
-3.120905272825961682e-02 1.044829132173767314e-03 4.387630468375088855e-01
-1.926021311036636360e-02 1.432414690713938385e-02 4.414718146039746660e-01
-4.185105683096180910e-03 8.921614058343768638e-03 4.416123767096434283e-01
4.100969606188102634e-02 2.538648943076042552e-02 4.681308031026412686e-01
4.013791809600407434e-02 4.424746972081899238e-02 4.905358205952094486e-01
1.671898503665572924e-02 3.596211311870007882e-03 4.432973662686052752e-01
3.584932655024825054e-02 5.101340575543700240e-02 4.993898573359392690e-01
-1.989300717572022384e-02 2.567474028866169322e-02 4.459439677770430377e-01
1.898789725857789185e-02 2.112166865062313839e-02 4.511640081786779666e-01
3.823780404404154842e-02 2.247764085527593006e-02 5.150833826831273665e-01
1.205902536506783633e-02 6.423849402664458252e-02 5.162005445017676664e-01
2.551022266553858858e-02 6.046888473419106957e-02 5.108136222963202133e-01
-3.165841968042709675e-02 3.730036356419865612e-02 4.507184086452868943e-01
2.970592293463256151e-02 3.813206782766324909e-02 5.176770436940750786e-01
-2.359179953088135634e-02 1.565469377056275414e-03 4.377155308943554979e-01
3.131240610042593936e-02 2.006654314672769168e-02 5.244661719213794537e-01
2.858952553133357888e-02 6.548159850589901909e-02 4.839484967027947171e-01
1.097482965585772074e-02 6.978233262724850561e-02 5.024661081644592464e-01
2.130908626537269743e-02 7.202674006460259293e-02 4.778082957866218172e-01
7.390645332060307576e-03 9.940327189429960103e-03 4.440453443671224520e-01
-1.875573780549510397e-05 6.040306802829500943e-02 5.319864443648104624e-01
6.579505432311727464e-03 5.915286539391420573e-02 5.298929630014380665e-01
-1.784180958501627515e-02 4.109659870280557570e-02 4.529162190273415267e-01
3.725375676444706019e-02 2.266034916376109126e-02 5.172451174313010824e-01
3.462670914889794810e-02 5.208277621121631257e-02 5.019413710376871007e-01
2.718601528607442544e-02 3.715214241711271761e-03 5.321295280340031519e-01
-3.201903182918298257e-02 3.717539979787733151e-02 4.506836545990924869e-01
3.373069755333916314e-02 5.696920376969004385e-02 4.884371677162270831e-01
-3.059212023324175619e-02 4.018168769107595406e-02 4.520922820403790454e-01
9.712934184919336245e-03 6.292913053708867888e-02 5.199183678944675480e-01
2.278608743817895840e-02 5.613512763644412651e-02 5.178819777319135786e-01
8.231348928714079041e-03 2.720925999123365371e-02 4.511642576389555126e-01
1.343786140028961282e-02 6.950897865178094770e-02 5.056884012524689442e-01
1.671373621826299088e-02 5.630561917658510190e-02 5.222435731875909593e-01
-2.588036331448280436e-02 1.741064195525325597e-02 4.426837878345818988e-01
1.793758538463343516e-02 5.549112302064596741e-02 4.649993192827439059e-01
-1.318424709065896261e-02 1.833636645369703111e-02 4.437677950150014095e-01
6.477837233838353373e-03 7.519894852834661803e-02 4.787952785268578815e-01
3.630369422988742600e-02 5.114501630688297190e-02 4.942007619579593114e-01
-3.000437406390097858e-02 4.743351868896591300e-02 4.570008121364597664e-01
2.917011852526830290e-02 6.432727423727836735e-02 4.830656261801293816e-01
3.885406603682749205e-02 4.696357372925187568e-02 4.882723525429016886e-01
2.184294276484894173e-02 7.288935184590290828e-02 4.809704048026142154e-01
4.121100855096505172e-02 3.963559995905730632e-02 4.828782472666984238e-01
2.473750762870453868e-02 5.970729701796357453e-02 4.713177655587113546e-01
1.636323260082254288e-02 6.067392930943667911e-02 4.662350549931879029e-01
-1.043696581789447554e-03 5.535612397728033318e-03 4.407792995027902117e-01
2.767771205587707048e-02 3.197980324676102937e-02 5.262356730100117286e-01
-2.224777152602210734e-02 5.454149002057587931e-02 4.591869382546918676e-01
3.273451371983527453e-02 4.532378371128264333e-02 5.112818592776556814e-01
4.528466490281404105e-02 2.488089457585767814e-02 4.914758457445726481e-01
2.857115415187283167e-02 2.994687356486990751e-03 5.323258459043238577e-01
1.035862948095451173e-02 6.948350845084091953e-02 5.022592695657557282e-01
-2.971876882602043565e-02 2.551819952036250144e-02 4.459974866554531348e-01
-1.719922902174803384e-02 1.615164600841157566e-02 4.423610321330720407e-01
-1.364776543506569101e-02 1.601267209091506230e-02 4.428003099312284863e-01
2.267386224335529027e-02 3.466075281647206657e-02 4.586255398961185947e-01
4.028999773723970779e-02 3.259829773578715867e-02 5.029553802765195369e-01
1.197452632263055821e-03 6.129077886559119309e-02 5.304817374097102745e-01
1.105279867194368382e-02 1.084283608130635554e-02 4.451214369470956056e-01
3.255838631425484603e-02 3.441680838153510225e-02 4.644944963632348656e-01
2.381930264320034074e-02 4.408521415873446064e-02 5.212199530369912015e-01
1.058257162716850185e-02 6.798153406887341710e-02 4.670409866222149375e-01
3.185006811513894226e-02 2.730813685077695258e-02 4.604599931874284180e-01
-1.205532574122329366e-03 5.828671586115360265e-02 5.272445392422238086e-01
2.130289931989007984e-02 5.199193132364719749e-02 5.197889725933733107e-01
3.067872330625764227e-02 2.462870435924312609e-02 5.237901569317106043e-01
-4.015873471214138554e-03 5.637642259938328154e-02 5.302386217633270338e-01
1.574069334606536391e-02 7.626687988321799450e-02 4.792786486791479339e-01
4.533062995161719899e-02 2.693273857994964160e-02 4.883353406403481700e-01
9.814619909809694717e-03 7.816181121202511739e-02 4.755906033923662513e-01
1.061547509148058448e-02 1.287215548718571162e-02 4.458625732168914335e-01
-2.615958551124646439e-02 5.749249068170842608e-02 4.649163692310663842e-01
2.324801574549053076e-02 6.188308019776877361e-02 4.711554504517122544e-01
1.815173377909471558e-02 6.147822646717663458e-02 5.193145044160218937e-01
3.367358784722688375e-02 5.503830208246725253e-02 4.990191352115633805e-01
-2.359170755180617363e-02 3.056305622445557729e-02 4.478349006167006707e-01
1.759578812784629021e-02 6.284861220060139475e-02 5.179232210295187100e-01
8.549866173799816269e-03 7.269480218931900772e-02 4.705808434584964894e-01
-3.068735617903564986e-02 1.857440766821254544e-02 4.437239969790396921e-01
-2.949954186210729246e-02 3.442828455823127715e-02 4.494818325241662360e-01
2.427334614406635380e-02 7.085153449850836727e-02 4.827745148578783119e-01
2.269367698672391034e-02 4.094412375115644154e-02 4.616694469915245680e-01
8.003086367604227841e-03 4.867606246272738330e-02 4.592627378784070458e-01
1.510644856693835365e-02 6.535051802667134202e-02 5.114412317955875364e-01
3.393074882857438634e-02 4.850245485734264866e-02 4.744020592187618846e-01
2.602009278141984711e-02 6.617088359544077980e-02 4.771381680751451415e-01
4.098411392664731701e-02 2.195220638654776096e-02 5.073857217088488802e-01
1.435534759290342521e-02 3.074673981044081725e-02 4.540235003528599877e-01
-4.012545912909083745e-02 2.195939510579063628e-02 4.463659438976968485e-01
1.007444538032075017e-02 3.708230274134753646e-02 4.555969365259244230e-01
2.267206698010993185e-02 6.444011603078911299e-02 4.719198888350044641e-01
3.484366732077197326e-02 5.444160232066067029e-02 4.921544153541101418e-01
2.865734107509893686e-02 6.574587229724598858e-02 4.887780467273565299e-01
3.303773773712687101e-02 4.289928128862234569e-02 5.121949280596157505e-01
3.935660231246824320e-02 3.856675331020185948e-02 5.038629299607060297e-01
1.755596544994693364e-02 4.046117815521418914e-02 5.316045336341014282e-01
7.399204527146894216e-03 6.477884326410310312e-02 4.645289612560771775e-01
3.101867784074799697e-02 4.141412160350629867e-02 5.146298544158020016e-01
-1.732641093252935277e-02 4.659553671727539176e-02 4.551300905408185993e-01
8.182577464160230990e-03 6.037759507461375186e-02 4.628039574442974757e-01
4.302542746476806929e-02 2.221218376677685374e-02 4.701649323910857547e-01
4.094595849309180802e-02 4.102688770715180039e-02 4.952336103014000068e-01
2.296476562527696719e-02 3.417757383171168145e-02 5.288788621256378386e-01
8.426866572886992923e-03 6.618271792089194805e-02 4.656422731680759930e-01
9.224953588185974898e-03 6.253673011301616458e-02 5.198646101390930196e-01
3.393319609125725750e-02 5.420231227390309714e-02 4.797020632645075944e-01
2.885915586836690361e-02 4.004092068831503759e-02 5.183383377384784829e-01
7.203140718206697476e-04 6.619021239013449243e-02 4.647882855399026458e-01
1.060219026558162012e-02 7.910872602900480277e-02 4.774844939051777204e-01
2.828139835221510703e-02 6.453886581725815086e-02 4.953933528369590111e-01
1.626564267981830134e-04 5.104110391780998512e-02 4.579211198751137468e-01
9.052360743928707446e-03 -4.788061578889267825e-04 4.404697683299381716e-01
1.285187465083040964e-02 5.269683788619818066e-02 5.270676186179712452e-01
-2.274636519096418430e-04 4.986875266437221232e-02 4.575616155046241529e-01
4.383850120324672001e-02 2.319347516231927073e-02 4.994942490688684122e-01
1.808411694950781343e-02 5.444395931629467111e-02 4.647295219000091016e-01
-1.678427767373636553e-02 1.027808317645876116e-02 4.400625611539053517e-01
-3.743688445272749105e-02 2.724983745196743121e-03 4.400355965979281803e-01
-2.012525148880699860e-02 1.214453674794386921e-02 4.406883613126723609e-01
4.026194214833764967e-02 3.768509349471328013e-02 5.016350553851888217e-01
4.585590957725024785e-02 2.225491829423370538e-02 4.789001849538734312e-01
8.940126878265239677e-03 1.563390596022888948e-02 4.466332533601320987e-01
4.094564024501045479e-02 3.996591175089918985e-02 4.809591321219948701e-01
1.302700693356504194e-02 7.879023569831168639e-02 4.792752295740377866e-01
-9.105029090718391727e-03 4.664758035628482208e-02 4.556208325203325304e-01
2.447327844722721468e-02 3.364442532292009902e-02 4.590823888209031312e-01
7.366514289544455474e-03 6.227684068943796503e-02 5.261909163623037511e-01
3.609480132056283597e-02 1.761415872125209753e-02 4.590033810030151318e-01
1.921891749882723155e-02 4.228901522039522909e-02 5.294803562570934430e-01
4.190499891956379203e-02 3.864740121379188487e-02 4.870766618379635537e-01
1.562286344985959301e-02 1.447675102581378465e-02 4.475591375882114198e-01
3.551327736881501954e-03 2.846062817758317903e-02 4.507367342410259492e-01
-2.638522346623740911e-02 7.962581649949521112e-03 4.396569674737086375e-01
1.282348331273941607e-02 6.012373790969281762e-02 4.644498981353031852e-01
1.351047046078875102e-02 6.382553828811747543e-02 5.176933593840213899e-01
2.558298729680847858e-02 6.715410713170391621e-02 4.973587976424789781e-01
-1.465913467678190557e-03 1.854862296398179962e-03 4.394100304675939705e-01
1.540803973486663814e-02 6.260378715772253744e-02 5.211903796310759507e-01
-3.797050498758028532e-03 5.595276345118373185e-02 5.284434448410709750e-01
-3.960492547401895432e-04 5.968970667381032214e-02 5.287092461126290388e-01
4.094305289288233118e-02 3.446870197080507264e-02 5.007699991407166262e-01
-2.185271628862815382e-02 2.781012243969340283e-02 4.466770883547274140e-01
-1.432527359919573591e-02 -2.432509923177111379e-03 4.370110152047927410e-01
-2.673244602941916848e-02 4.687534468432062035e-02 4.557945490750309192e-01
7.999615758219891237e-03 6.636872357147044835e-03 4.428218780725102777e-01
3.286401327254828697e-02 4.827532966306895962e-02 4.731023880712476593e-01
2.112982277946370835e-02 5.655931539114575357e-02 4.670801207612563233e-01
2.751314943866757859e-02 2.975718736336757306e-02 4.590281241542266133e-01
4.064191501033464701e-03 6.172886192124072552e-02 5.292589026098457605e-01
1.417179646530954649e-02 4.918513258981091485e-02 5.275417075259939415e-01
2.606269757972360865e-02 9.969548338250450170e-03 5.275311678703340501e-01
2.697888696691966987e-02 3.078748800520877266e-02 4.591940139762302753e-01
1.770861663215466883e-02 7.448655147979699187e-02 4.765989363952367608e-01
8.806672529114885350e-03 4.818174330448737192e-02 4.592818878082380318e-01
-3.573757610291489889e-02 3.920301674556295191e-02 4.521233474119042972e-01
3.228662174256714118e-02 4.977553673801661527e-02 4.733224232991967151e-01
2.769144577649954725e-02 6.254717729805968351e-02 4.758036670414034219e-01
1.302674620929323429e-02 6.162195617220257715e-02 4.650702982864994839e-01
2.803896817341495346e-02 6.349804912659533229e-02 5.002038838356810402e-01
-2.803366023138000734e-02 2.205848269426372368e-02 4.445053607692665554e-01
-2.497641570756607352e-02 3.919897923936686152e-02 4.515515516781475891e-01
2.702426516267098650e-02 6.242483261266956046e-02 5.061194505296132684e-01
-1.183387317303562919e-02 3.236863635791213667e-02 4.498201363932203267e-01
5.137814938460069300e-03 7.221445614129179402e-02 4.716101810337732236e-01
2.327129549053451405e-03 4.454494054624594246e-02 4.565226904810363862e-01
1.526421504333562353e-03 1.210036789316783733e-02 4.438262459718930186e-01
-5.216135330808027888e-03 1.404574230673157759e-02 4.434060742600437477e-01
2.849175683686294355e-02 3.760318075828635725e-02 5.208125721335383762e-01
-3.235727313361623503e-02 4.196565866775778253e-02 4.533011632092247556e-01
6.977439920410802472e-03 5.779552101566293176e-02 5.295300210792170947e-01
-9.535244959373016804e-03 2.655714410498232966e-02 4.475852839592807109e-01
4.201942910328735487e-02 2.297212067779670630e-02 5.044783758772107829e-01
1.113304937461714363e-02 7.740863269437493754e-02 4.811732146943600852e-01
1.127447239359255678e-02 4.827998551386186027e-02 5.311801479304861795e-01
-4.761146198758176538e-03 3.961221819477452055e-02 4.537323483489869580e-01
-8.833676599963048368e-03 1.685068967868522463e-02 4.439036764064153706e-01
2.119652605536908110e-02 1.449370710253259156e-02 4.493034433936284877e-01
3.399353973846927501e-02 4.404224966493035937e-02 5.100469428604123001e-01
2.584133940946241326e-02 2.440151128904441413e-02 4.556749114607928641e-01
4.016652714749232439e-02 4.392234128539685561e-02 4.923439592726461811e-01
1.058759954433174597e-02 3.553073395471812324e-03 4.420900107819911717e-01
2.879948293614717492e-02 5.489882431545308611e-02 5.112697963889902830e-01
2.615664319059487694e-02 5.634041669139439740e-02 5.136295358805148537e-01
3.858613185182462740e-02 3.061371822055648090e-02 5.076402615953952147e-01
-9.520359259167514212e-04 5.411051634709015956e-02 4.585402446250728126e-01
2.345988759376285010e-02 4.806118771608587636e-02 5.194206495801787504e-01
1.701408727557662121e-02 7.694699738740623518e-02 4.840688490001046063e-01
3.458122832228469057e-02 2.408905941245644694e-02 4.608490440634384067e-01
4.033373684801277309e-02 2.325942160895217228e-02 5.081056113545102670e-01
4.246964636895485951e-02 3.554890669107480666e-02 4.940587660503930612e-01
2.263303330341779468e-02 6.848962734345336034e-02 5.013889157246197437e-01
3.976103652096144719e-02 4.497696576860620715e-02 4.890685870666242607e-01
2.793039736117738231e-02 2.075265908500434006e-02 4.551251845092946779e-01
-2.258559436895122771e-02 1.252419487159379084e-02 4.408682991827253539e-01
1.349944847885428331e-02 6.790629785517492134e-02 4.680068901724223074e-01
4.029912108626858280e-02 3.810435261761602188e-02 4.765537787094048516e-01
4.600182023913305940e-02 2.343006831514448524e-02 4.836254006814497131e-01
2.742033957514650525e-03 5.262343463416682687e-02 4.589583358878895902e-01
4.364779069321181315e-02 3.240460354214004524e-02 4.857443446476492621e-01
6.782907120517352520e-03 5.293059156897129969e-02 5.321600938087347465e-01
-1.377097054139037047e-02 -5.074997931150473929e-03 4.367780768673408254e-01
7.303615430980039264e-03 5.989213210205301952e-02 4.623506647917278167e-01
3.862419099307003861e-02 3.378209210352022679e-02 4.697247419049251360e-01
3.802187714649200856e-02 2.283363755382780344e-02 5.153173557508559099e-01
3.179369783212464967e-02 3.120095418228898201e-02 4.623900123641661031e-01
1.233732723529963951e-02 5.969876438350665143e-02 5.251571829692462945e-01
2.729589207600224138e-02 4.340411344783238340e-02 5.175372961107101988e-01
2.969870186450618982e-02 4.465569890456694974e-02 5.150245873086118920e-01
-2.244799094017569351e-03 2.576004941796088826e-02 4.485726862318724639e-01
4.035332453136308145e-02 4.325244934811365433e-02 4.877602471442666343e-01
-4.836789842788916972e-03 1.184795368524915044e-02 4.426200802377212029e-01
-1.588981501973357399e-02 2.760866105269595833e-02 4.470664412015285527e-01
-7.444135328638713626e-03 2.673167976776556071e-02 4.480139312454157197e-01
2.461941005987250755e-02 3.932355653337848284e-02 5.254529504752454283e-01
-4.295979542963333786e-02 3.432765358545819545e-02 4.505646536580377726e-01
2.285684524411503438e-02 5.181858010106275142e-02 5.185934894906361059e-01
2.956229640960427417e-03 5.038929578306672319e-02 5.364996535115534870e-01
-3.760459927731651247e-02 3.336921979820384188e-02 4.493763196254975112e-01
2.465759708127707520e-02 5.555871929124419489e-02 5.162817734419798965e-01
1.146853333094195390e-02 4.601029493354676786e-02 4.593349558921496212e-01
1.268234085279191549e-02 7.720790912351185864e-02 4.842737346606841298e-01
-2.517076201446283995e-02 2.033604656915304759e-02 4.437923260727547614e-01
4.536663924382226820e-02 2.626976064732386082e-02 4.889975020040598364e-01
-2.464807796098384199e-02 3.549490220031809029e-02 4.499467226977994505e-01
1.726321001779528019e-02 7.572465798977208451e-02 4.904964395203250671e-01
1.964701742684698757e-02 6.597747970844547449e-02 4.702853504403593510e-01
1.277770999100054546e-02 4.017198612207520392e-02 5.330610801048631942e-01
7.571358328971968844e-03 2.112955828406564915e-02 4.485557856346799044e-01
-1.519163003848758228e-02 1.985499585608067191e-02 4.441029760467265497e-01
2.813479457209232260e-02 6.365429075208917098e-02 4.774423036761207828e-01
1.891079817456696802e-02 4.885144113641566588e-02 4.630748772925051271e-01
-6.901520851291198522e-03 3.284180696161052154e-02 4.507232282281003477e-01
9.949588365861770228e-03 3.320087991451554227e-02 4.539891887795569070e-01
3.387859815815525560e-02 5.075557675488356207e-02 5.069600477253586313e-01
3.466826016944120348e-02 5.506827438621843263e-02 4.858708894907668996e-01
-3.902050461759637694e-03 -1.051101583192894833e-03 4.381045827514119528e-01
-8.356820342152175563e-03 2.778097955529245169e-02 4.482965273762917757e-01
-4.966462430185900620e-04 4.910411607732174250e-02 4.573249155846965119e-01
2.662210497517174257e-02 5.734328384488427549e-02 4.716946630785293637e-01
3.117646917055407613e-02 5.760176030673219705e-02 5.030869401348635472e-01
2.545034317111229127e-02 4.706548652798944743e-02 5.179988309907982424e-01
-5.578048107109542970e-03 5.979244282609668532e-02 4.598135677348398898e-01
2.151227940847622727e-02 6.847783660524414673e-02 5.032694191633022562e-01
-9.294746013606865198e-03 1.436703274216636836e-02 4.428865839467417409e-01
1.270208942410125039e-02 3.374624007098726668e-03 4.424270052025013888e-01
2.495716353233124601e-02 4.655357464491006320e-02 4.653921575351291917e-01
-7.429991869491343881e-05 2.777954422196381168e-03 4.399568014931553583e-01
1.025612095520368056e-02 4.588100600595837464e-02 4.589106837959622265e-01
2.395478575056814163e-02 4.543243915571650027e-02 5.199631456181048605e-01
2.782091888151730016e-02 8.225565200613804001e-03 4.499752950418938746e-01
2.243813916435292988e-02 6.900206806591026309e-02 4.753700408459017868e-01
2.718917423438538955e-02 5.732121553596623842e-02 5.113980853294598505e-01
1.845285445684747075e-02 4.052111585227988894e-02 4.593911661041462646e-01
1.891697001711026282e-02 5.343865310390744777e-02 5.212349702799381479e-01
2.532652273874772333e-02 5.618537889109974370e-02 5.148705910396474961e-01
3.764160992258051147e-02 2.378723718050428787e-02 5.154062599071526085e-01
3.626090709889617791e-02 2.074679187439859573e-02 5.190000689690704716e-01
-3.983465292532736846e-02 3.182705281414337228e-02 4.491533347910418583e-01
3.983438744405779636e-02 1.839770936675156829e-02 5.154905204017501408e-01
-2.162894441417998956e-02 3.650293648792744122e-02 4.505959563215978236e-01
1.317355896589338105e-02 6.690906442804556153e-02 5.083374174658903399e-01
1.517395301877372260e-02 3.244708401509840273e-02 4.550116060379409411e-01
3.972317728347982135e-02 4.450721280092753696e-02 4.958000275759480435e-01
5.813864922049201064e-03 6.088470104392307986e-02 5.155812677087823204e-01
2.740046281292372876e-02 4.981829096470719725e-02 4.687252132112487146e-01
9.384035001512334301e-03 6.360568007189802697e-02 5.133396508746763676e-01
4.303745961859532787e-02 3.297389525250943310e-02 4.934454244714287507e-01
3.423523525101138804e-02 2.175198956124556326e-02 5.211858294685705051e-01
1.464362871889302899e-02 6.824760740635783807e-02 4.687200568627806763e-01
1.129622813005600086e-02 4.694510490020326748e-02 5.325737886152001055e-01
2.588612270212988647e-02 2.761902497038367515e-02 4.571421211658442396e-01
1.229296788148874844e-02 4.448055611743936127e-02 4.590575486597849864e-01
4.035759707673973462e-02 3.194796889666619288e-02 4.716362361806896719e-01
1.744583456548842379e-02 7.532339568040821720e-02 4.941853864212112923e-01
-3.863359906213582190e-02 2.150028198907664653e-02 4.459258070725009016e-01
4.828409476252306341e-03 6.764395837045240889e-02 4.657960731373572694e-01
1.316757451969390730e-02 7.529911901765226623e-02 4.894925529593636693e-01
1.892958301337666766e-02 1.751177263147282379e-02 4.495178073982389333e-01
-1.123507968455663905e-03 5.602682472514323997e-02 4.590651345494017321e-01
2.804841711511842778e-02 5.592801940087847867e-02 5.114197216583920014e-01
1.911122991143504590e-02 3.821076309325275450e-02 4.586468304086219194e-01
-2.630545446234607704e-02 1.608497989371573261e-02 4.422622634820594367e-01
2.481063773232020445e-02 2.111908609630400169e-02 4.536666505990147313e-01
3.749005491631999393e-02 2.771469109438850359e-02 5.120007481171612307e-01
2.682066458601397446e-02 6.720981957762597880e-02 4.806835987258297749e-01
-2.256678479804803683e-02 3.509551287996043323e-02 4.498711948827339713e-01
3.959126520171882269e-02 3.048543233537644517e-02 5.052422409594757857e-01
-1.064881937593602050e-02 1.253922482950610689e-03 4.381263093475005199e-01
5.868278056746152258e-03 6.074438827603931279e-02 5.160762027116675421e-01
1.707525861846197548e-02 6.845591708397227859e-02 5.076311960316227667e-01
-9.825878602121617452e-04 5.100427626262020800e-03 4.406311419038625998e-01
1.834611241280801122e-02 6.408083453183428813e-02 4.686134480272346470e-01
2.538486822972415777e-02 6.572289291098090680e-02 5.006417338340989343e-01
4.308118751485699727e-02 3.068043756801736369e-02 4.960043669681925005e-01
3.748434759632841146e-02 1.790603080484279991e-02 4.601935270935499922e-01
2.058969997366037058e-02 4.656167651449799605e-02 5.229447437901305618e-01
-2.763735087110975874e-02 1.976010641604612761e-02 4.436586853379806406e-01
1.213792092980255782e-02 6.599645641306681187e-02 5.087545476982294756e-01
5.344014221075331014e-03 6.604900569282429190e-02 4.648935965404025761e-01
2.784202718542175964e-02 6.153733507230878946e-02 5.058732396970214706e-01
-7.464461826662513108e-03 3.788685082413199151e-02 4.528256485010168086e-01
-1.903045169106666601e-02 4.342602095824165537e-02 4.537754084026791590e-01
2.128883991075154747e-02 1.423670278624023129e-02 4.492549162313429489e-01
3.326158140411668296e-02 5.648878237733635788e-02 4.967631951430547810e-01
-1.528460784298024677e-02 4.294325501058732925e-02 4.538682886416741113e-01
1.624599103358246449e-02 2.578198429472923839e-02 4.524641411212218522e-01
6.791359845757864201e-03 6.246428043222770204e-02 5.239013776318025561e-01
9.113822483917287040e-03 6.356201413727564919e-02 5.137147707705347344e-01
2.305167790990024501e-02 5.593157539246016580e-02 4.682195426330488797e-01
3.145075057427863807e-02 5.926756277109677257e-02 4.794271826176712548e-01
3.487308124184375357e-02 5.315260488084172508e-02 4.982334465846947058e-01
3.968856903558924676e-02 4.409802888513050106e-02 4.831453993549481019e-01
-2.335559690965194855e-03 5.136856815311446889e-02 4.576283796876000620e-01
-3.131964092387923802e-03 2.212935668814924959e-03 4.392994291582125732e-01
4.238440365486636358e-02 2.937107793294898433e-02 4.986379463961456704e-01
2.682835459198450526e-02 6.702258583948664250e-02 4.803589932565485165e-01
2.314824045908111388e-02 4.545636217607060270e-02 4.638943513022146248e-01
7.222220796049876740e-03 5.545366855081231006e-02 4.610274199915513349e-01
2.470574218528928667e-02 4.080271889120871964e-02 4.625758622810108855e-01
1.637201308016224266e-02 7.616703210948769232e-02 4.799757390073126628e-01
3.610706119570082639e-02 5.124815634219638538e-02 4.957035296648344969e-01
3.770827971886292485e-02 3.754195349369814777e-02 5.071549645634527703e-01
-2.381992150570082754e-03 5.643357745692894473e-02 5.256231035292935339e-01
3.313537336088207691e-02 2.183603552497127842e-02 4.587705425606102838e-01
5.347906421966146413e-03 7.277064963053125890e-02 4.720291707469071452e-01
2.426531008726253227e-02 6.811995089798261738e-02 4.770022985112323810e-01
2.892554042653569524e-02 5.566135664145371170e-02 4.728671987687194100e-01
-1.348426070926750375e-02 4.734788034579889143e-02 4.555844771058787379e-01
3.282307735034444701e-02 3.207504410296840164e-02 4.635249268661499888e-01
-8.576454274119068438e-03 -7.880561570529652504e-03 4.365046750203532278e-01
-2.471656369590794627e-02 4.364839638458201110e-02 4.536791652244159812e-01
2.665819275328039362e-02 6.853649627590512050e-02 4.871258491637901478e-01
3.172712468355874671e-02 5.044617962755056778e-02 5.099776196951223417e-01
2.720563144802290445e-02 6.520212586376496200e-02 4.973275621396733848e-01
4.345090354644789293e-02 2.636936399996953062e-02 4.740723354057345684e-01
4.425572242133909984e-02 2.345874934777403623e-02 4.977752778811113110e-01
3.845318832483198002e-02 4.643357411829478892e-02 4.820703257760718397e-01
3.879484533734455648e-02 4.550022329968952950e-02 4.814993490452607050e-01
2.144531492264677847e-02 5.016073792655525304e-02 4.647778138576161844e-01
3.308243127575286741e-02 3.846482025744010075e-02 5.138935027467979033e-01
3.909906028067229589e-02 4.496982141026470425e-02 4.816689442507610663e-01
1.793028189957660695e-02 9.397104564809613883e-03 4.460965591257072815e-01
2.361024324121255638e-02 4.207003674424970169e-02 4.626115140241581214e-01
-2.042313939369955200e-02 1.552929882405022603e-02 4.419393787358092962e-01
