3.157858243615209448e-02 5.948369156381313333e-02 4.802296878942602376e-01
4.608123386402041000e-03 5.987075184506347736e-02 5.157792750655632030e-01
3.025486422043895118e-02 5.881215871573698684e-02 5.041038464169920186e-01
-3.292821962704108735e-02 3.944938525959591075e-02 4.518003376025128137e-01
3.866085540215147970e-02 3.659232339020483671e-02 4.722168410286504692e-01
2.208922790683691406e-02 5.431968752781143189e-02 5.186673657143388017e-01
2.450724533388377174e-02 6.438275313050172144e-02 5.065174783652097723e-01
8.588638351455185269e-03 4.237426820367660822e-03 4.419669060483739087e-01
3.704206982437777129e-02 4.671349067179198650e-02 5.032048897166760959e-01
-3.514791537192060028e-02 2.123421878612977154e-02 4.451539275604324275e-01
4.359480651672324042e-02 3.254471032752643406e-02 4.909396232422953976e-01
1.314161073648611403e-03 1.419244879617717961e-02 4.446088462818762466e-01
1.263973171573735434e-02 2.387693113052477556e-02 4.507516443062608569e-01
2.914363346445627070e-02 2.756066209270039563e-02 5.250919215669019868e-01
2.653105317843786407e-02 6.279757529151791529e-02 4.746807975446487027e-01
1.761076446564584924e-02 7.150891346475431176e-02 4.725843168952548745e-01
3.846089313847715629e-02 4.779401290206673758e-02 4.868472861301928467e-01
-8.981669809791629003e-03 2.152729785234810608e-02 4.456760703855222050e-01
1.231274501315560155e-02 6.877914873226244341e-02 5.058291175700823095e-01
-2.534972277746070854e-02 1.939648686238988270e-02 4.434373325176302338e-01
8.774924196456765704e-03 5.608177540933921568e-02 5.288693040912878507e-01
3.487351606921025582e-02 2.239942564144761436e-02 5.205052798553151394e-01
9.053772099199339576e-03 7.085576177962257804e-02 4.972960151363139958e-01
2.670606278638413753e-02 3.832237702983844890e-02 4.626537862411602142e-01
-8.431673782648654858e-03 2.566923229300598075e-02 4.474053710844819731e-01
-1.432439214415329003e-02 -7.348735389898497505e-03 4.366906791413831534e-01
-2.533794555250870259e-02 3.134980190468278621e-03 4.382348564731015084e-01
1.788560923969539918e-02 6.015634924591043570e-02 5.206726944450281724e-01
4.153241487101429902e-02 2.052804214711782468e-02 4.661603284518022750e-01
3.085072585321915403e-02 2.999083989068733816e-02 5.238165167726634985e-01
-1.986010166474914962e-02 5.189962973852409872e-02 4.574454953879717456e-01
-1.701500085496349905e-03 1.567192978201297979e-02 4.446450594108483090e-01
1.794749145100282481e-02 6.882052783406279739e-02 5.061308282117866764e-01
3.273809330960548991e-02 3.389961417564685275e-02 5.165337787255170898e-01
3.050171253203923932e-02 6.262063398728089092e-02 4.863895459803820320e-01
-3.106521115856155160e-02 1.985968065269842764e-02 4.441322022079793874e-01
3.355060219919316772e-02 5.664726983654339715e-02 4.818759924220282764e-01
2.140039692762090578e-02 7.229847741479242251e-02 4.783229081130274674e-01
4.067233005691255066e-02 2.165527474156855176e-02 4.654072436276959213e-01
2.705389858993704003e-02 6.797635602724041992e-02 4.864027159998478567e-01
4.159975987441504736e-02 3.405918275483649227e-02 4.757597202536445469e-01
1.785984825884259775e-02 7.580170137605198033e-02 4.903126843909026977e-01
4.723971193623724245e-03 5.344579282122127739e-02 4.597446865738152866e-01
4.929029785800762703e-03 3.172649041470494615e-03 4.409234000178139934e-01
4.012577867817297000e-02 1.873860249817884890e-02 4.632307680105163805e-01
3.621071248738862852e-03 5.352594420026356159e-02 5.370549211509704213e-01
1.534862509129256147e-02 7.476217264013125530e-02 4.746774622653175402e-01
1.122171321536634923e-03 4.577421099007004252e-02 4.566287684992114126e-01
-2.343548908966160485e-02 3.231970836510843909e-02 4.485805448115108840e-01
2.133975445940191479e-02 6.401256637832374030e-02 5.116258034614001859e-01
-2.733742985426097869e-03 5.611935079425662415e-02 5.258773947187244113e-01
-8.608575216537812241e-03 5.179782136708337842e-02 4.573738642873357296e-01
-2.321491722490353835e-02 1.051763373107200000e-02 4.401384965169510277e-01
6.048720374940315392e-03 4.586062081919316247e-02 4.578764823493151614e-01
-1.643674738076405378e-02 1.063233698491991910e-02 4.402604755368833556e-01
3.967509166627913170e-02 4.388868368835827788e-02 4.987055968391387317e-01
-1.173572601042459709e-02 2.263762903940169657e-02 4.456427252883059520e-01
2.244332307022484790e-02 6.129652412752249063e-02 4.701794931048736137e-01
4.036585693171683420e-02 2.857159642945380704e-02 5.047470342190550907e-01
3.960118863490784402e-02 3.769948687304706947e-02 5.034891657627466044e-01
-1.414134709906721479e-02 4.808921914638322748e-02 4.558997778606810880e-01
4.127761472518405583e-02 3.896765253287434033e-02 4.810550876782468399e-01
-1.003727853204840897e-02 4.261698368496594225e-02 4.542672574756160264e-01
-8.424178863406902446e-03 5.097443660644204039e-02 4.571461641700353407e-01
9.315062520231943283e-03 6.328386645560483970e-02 5.166664327896274278e-01
1.588329112276432031e-02 1.442970839799634364e-02 4.475928294823386944e-01
1.904079983925843766e-02 3.914197810640510089e-02 4.590386847019635175e-01
3.270741838217984358e-03 3.609265760447818994e-02 4.537287971153841082e-01
-1.900712886543444446e-02 5.798414056729305627e-02 4.612272370803219834e-01
1.844745569485248954e-02 7.600054272141973377e-02 4.879919032060907602e-01
-2.492719635768763514e-02 3.318241369495605886e-02 4.489492337525792798e-01
2.860105245058218448e-02 3.737791244894526910e-02 5.209644893065824567e-01
4.636682196742889644e-02 2.209155164409692604e-02 4.836337495859674429e-01
-1.689660526216122532e-02 3.579973330649224329e-03 4.381420059861730887e-01
-3.149523923622141435e-03 5.647168281977515275e-02 5.280548562660478673e-01
7.133036162021472344e-03 2.572914004700077584e-02 4.503223054743802911e-01
8.962918487715498470e-03 4.708283851890639887e-02 5.347585576208170322e-01
-2.269244190829994984e-02 4.221861501198601214e-03 4.381408973380928051e-01
3.652479714287780975e-04 1.678533880325361501e-03 4.396393464344457991e-01
3.855370402785790462e-02 4.540286515428482855e-02 4.803185932683633474e-01
-1.868248708607547423e-02 3.131893206467887408e-02 4.485538991793100450e-01
4.540184831210818811e-02 2.593153336417641439e-02 4.847494111769659053e-01
4.562980758038068935e-02 2.290982107922948097e-02 4.929354545417171107e-01
-1.128057685194811671e-02 1.469973435819660855e-02 4.426863458196311774e-01
1.840086857520413510e-02 6.410690470772627270e-02 5.149120416575161396e-01
-2.516464608981621581e-03 5.261921299452347600e-02 4.579290874222991525e-01
4.079130881761345445e-02 2.571151191104323330e-02 5.057023252039380967e-01
1.594622857868437799e-02 6.505754437676578017e-02 4.678301983336584646e-01
4.164448021366254360e-02 3.848976957007416849e-02 4.835336978791686113e-01
-3.558878354516609166e-02 3.601916842384738499e-02 4.503763247483895116e-01
-1.718410030730999419e-02 5.667731863555982436e-02 4.595652974620260678e-01
1.908391116002510629e-02 5.097017681543485057e-02 4.639840304551849925e-01
1.478916623037794358e-02 1.532228677435920096e-02 4.477277612893423853e-01
-1.131413490066265903e-02 3.328738189651380894e-03 4.386889935491969927e-01
4.082538734780133405e-02 3.085112945123779857e-02 5.020031138324719810e-01
4.178133075201586472e-02 2.287642227154812816e-02 4.680973447624064976e-01
1.945391704795142868e-02 7.539072013734558764e-02 4.897701797399542367e-01
3.891094594267924256e-02 3.269190438991740472e-02 5.054784785416518433e-01
2.798967885801260935e-02 6.631846380404514407e-02 4.826250181249203131e-01
2.082808128227329331e-02 4.464974869625355086e-02 5.238476492851967814e-01
1.422510342252617313e-02 5.346179578736629662e-02 5.253945997606009888e-01
1.700333912717336832e-02 1.639515973006819283e-02 4.486313723894420624e-01
-3.039510305994677641e-02 3.358254308001966393e-02 4.491256302546047241e-01
3.542557149067915995e-02 5.341681758878548403e-02 4.915300845432383769e-01
1.963175826249775532e-02 7.192824257715196845e-02 5.004465483033462281e-01
-4.268197063717592277e-02 -1.076086030004952485e-03 4.410026218396439490e-01
1.872924964685576329e-02 4.994879764505959913e-02 5.228320898192034827e-01
-4.045951181129903845e-02 3.274460252947541256e-02 4.495673859381889015e-01
1.095966143513258002e-02 6.812517496654278693e-02 5.057390287085546943e-01
-1.346633759772921692e-02 3.839785435978669559e-02 4.523239938734665011e-01
-2.304714027082727795e-02 5.805184730159819451e-02 4.631990199990090318e-01
3.312740122644628610e-02 2.136140475186155616e-02 4.585556425164322158e-01
1.170402562523348809e-02 6.089945861676509045e-03 4.433068177703844981e-01
3.972455913526441729e-02 2.545752738190624684e-02 5.082476628977851130e-01
1.667664440034926851e-02 4.018394433606933130e-02 4.586716493324829447e-01
3.240743135332304486e-02 5.816274958421428776e-02 4.965161071039388418e-01
4.187208030681809079e-02 2.646545544175996079e-02 5.025568083041432876e-01
3.577999321844823472e-02 4.966429334484958463e-02 4.793485940092132580e-01
-4.314818365053556606e-03 1.459948358603193122e-02 4.437613209816387294e-01
-3.925890254366144055e-03 3.333200930741824636e-02 4.513432780344101558e-01
1.521697263899957596e-02 6.199661918456137594e-02 5.223758449219957356e-01
1.229889295220967446e-02 4.325074540947713292e-02 4.586230573892408624e-01
1.850587224372580997e-02 3.773088593163741178e-02 5.310366597784064169e-01
5.485327883385953708e-03 5.509038455616029062e-02 5.321273207686706419e-01
2.067019458955323546e-02 9.317639385755149134e-03 4.471088342408579552e-01
-3.137227037896707371e-02 1.473937276423459806e-02 4.427513312427205916e-01
3.194214066800851737e-02 3.122963590570522127e-02 4.624948637562272258e-01
3.727746857107813727e-02 3.119937085261169710e-02 4.666551845963570200e-01
6.774946303336231573e-03 6.197970708919574301e-02 5.288060331308926942e-01
1.082737070806827698e-02 7.011967237413185838e-02 5.011709690362659009e-01
2.119163823737536118e-02 7.132475127295952178e-02 4.765511240787120850e-01
3.884641360886786216e-02 3.502295483724206931e-02 4.711976341428738002e-01
3.905288098643163591e-02 4.359678350351878923e-02 4.790017226934139560e-01
1.713737507909768309e-02 7.267368146227022596e-02 4.999533103229327202e-01
2.630175636897601719e-03 6.000846307131452173e-02 5.244234402799440309e-01
3.069103346615972361e-04 6.926260169209312589e-02 4.683578375831920493e-01
-2.742781886421254492e-02 2.191988352297680187e-02 4.444019389118791241e-01
-1.468407924094666632e-02 2.987288257636097621e-02 4.482243940526307591e-01
1.411823598447735535e-02 4.044046454878970354e-02 5.327658685266398741e-01
8.700851427781307670e-03 2.189663080038274992e-02 4.490824147702355273e-01
1.047590423733163467e-02 7.031961534019715021e-02 4.681968118970768478e-01
3.232827803539272543e-02 5.876632438502993327e-02 4.944125235973423349e-01
1.733140962012379507e-02 5.452496376216815765e-02 4.644282624683075400e-01
1.753151497760174413e-02 4.068884610166614846e-02 4.591399595441252868e-01
2.980495506956678739e-02 6.208655183759734242e-02 4.791701560073511335e-01
-3.282007493728679882e-03 1.479655571982688329e-02 4.440219549748825045e-01
1.190495302682804436e-02 5.112629820882136356e-02 5.287740663356425008e-01
-1.151468458571862190e-02 5.831138505869357114e-02 4.596566377044772889e-01
1.502115340924633016e-02 4.032946123034451477e-03 4.431215682716980186e-01
-3.710970976059253801e-02 2.974965394439476815e-02 4.479949747685471051e-01
-7.989236174603181126e-05 6.112591213612551810e-02 4.611761161912735218e-01
2.029654839284612822e-02 7.195766984415355449e-02 4.992205176443267334e-01
6.769677385301741887e-04 5.216344607232777791e-02 4.582820153727459322e-01
8.776338342226439743e-03 6.840015068469409987e-02 5.026048074243627539e-01
1.037438272907599632e-03 5.956774635771806131e-02 5.258445648711678189e-01
2.366129674355551063e-02 7.215700500420348107e-02 4.900610134822754316e-01
2.992367411929363827e-02 7.744099892388117343e-03 5.289436823598996362e-01
3.217011781431437095e-02 4.707547264402504178e-02 5.114047834913184598e-01
5.329978422616575388e-03 3.081027847930609478e-02 4.520252960190866975e-01
1.617100171995973848e-02 6.434433152883467510e-02 4.676349001354562773e-01
3.814382943827442085e-02 4.766268488470730424e-02 4.940389975339573581e-01
1.908790511372185968e-03 3.901953600716824566e-02 4.546335682418752300e-01
1.188114952926094467e-02 6.922629084455179937e-02 5.051200148502758003e-01
3.314782621008451752e-02 4.517074393927029974e-02 5.107872983137526912e-01
2.194471145577599203e-02 5.645778336612442688e-02 4.675718753827483032e-01
4.024366129536014608e-02 3.567252206946065762e-02 4.742234826240978585e-01
4.316505854944867326e-02 3.122709013708512005e-02 4.948730106096899672e-01
1.348140821985260689e-02 5.782532680222556704e-02 5.244072551907966728e-01
2.570604089130551842e-02 6.882257080307911667e-02 4.920168101737681932e-01
-1.165242082730089286e-02 1.565347664240271386e-02 4.429861981093686785e-01
2.613512620284809060e-02 3.007506296963836923e-02 4.583838239749254972e-01
1.536247257472001665e-02 6.515941452811518930e-02 5.135938909139570185e-01
2.584112758158784232e-02 4.855248116175084339e-02 4.669177414018488848e-01
4.116758710049169510e-03 5.969069223519964801e-02 5.318431604393165646e-01
3.232685347638179774e-02 2.318935622281662751e-02 5.225750669601322285e-01
3.247309759090633019e-02 5.664688625501128338e-02 5.002554084578245686e-01
3.679564017649085417e-02 4.475306291866488345e-02 5.056870579815248012e-01
2.666286732475648194e-03 6.675043349187313041e-03 4.418415597553759788e-01
4.147668132703236088e-02 3.031033818341723196e-02 4.725240968273435316e-01
3.435922715261735538e-02 3.502055640319547136e-02 5.129856151396660069e-01
-1.149368829308360096e-02 5.647240382551986168e-03 4.394133091668447344e-01
2.857242478062872043e-02 3.658641382578652068e-02 4.629734687140548699e-01
-1.081377360863255109e-02 6.155861198785309713e-02 4.635312182712496565e-01
2.653438953198915262e-02 2.562298275261775185e-02 4.565760173934906851e-01
2.024959105092751996e-02 6.710374318163016272e-02 5.063283107762508450e-01
-4.021909238429852151e-02 3.502098698116429265e-02 4.504082211021981919e-01
-1.849803637014328997e-02 1.341374294177844970e-02 4.411288378687544531e-01
1.689437397152966994e-02 3.975847520636482252e-02 5.318613841592791935e-01
1.778611166658435050e-02 3.905594642936970062e-02 5.314252596697741637e-01
2.647749449941642214e-02 6.018445556076373187e-02 5.098109392473735291e-01
2.854238603928325665e-02 6.260413824807019821e-03 5.307802878056403495e-01
2.095256754037903846e-02 5.142302094732242868e-02 5.203297700356045441e-01
2.455577408948016530e-02 1.313886507901165790e-02 4.501054445000588489e-01
-2.554360822775837789e-03 5.750094791964729946e-02 5.291253263693810327e-01
3.356588491433108723e-02 5.493958305794576641e-02 4.996597778152995772e-01
2.767500296905177348e-02 3.460302666682912170e-02 4.614041820631378799e-01
-1.534904781524627608e-02 6.080577782623379501e-02 4.660899870251617449e-01
2.509504370053856209e-02 7.033113514700256585e-02 4.894272848936599418e-01
2.399466894655994179e-02 3.947178275592479885e-02 5.263763708158823995e-01
1.830639990219633598e-02 7.297761524844424696e-02 4.993225218866151893e-01
-4.048439630446619203e-04 5.999142871129706234e-02 5.323566102782568699e-01
4.260479465278740885e-02 3.327573345520754011e-02 4.961658188716103757e-01
4.271518514611388762e-02 3.492575495383099665e-02 4.931179690769635915e-01
-1.521759148122653511e-02 3.411108247926163128e-02 4.501713319289981086e-01
-5.620477976875517569e-03 2.761100930121601627e-02 4.487046385014881733e-01
2.610472741164416438e-02 2.710853860943353635e-02 4.570204643731272665e-01
-2.452180252106718125e-02 2.834671511383505399e-02 4.469440017444843427e-01
1.881301385873093701e-02 5.191934926018315632e-02 5.219552733663016530e-01
2.243452504977603776e-02 6.608968746414749240e-02 4.725247840324760529e-01
2.266367035562847493e-02 3.523053595764989027e-02 4.588965143956617032e-01
2.853588622817217202e-02 5.396262009049954123e-02 4.715690888859242480e-01
6.283971335016221536e-03 5.603321559875393265e-02 5.309677198402836806e-01
3.386725891705472113e-02 2.030297279478533723e-02 5.220310049122260931e-01
2.015609841566022228e-02 2.410499087791768275e-02 4.529737040249577351e-01
1.972516797678022099e-02 6.761129015667781406e-02 5.060995665762366702e-01
1.774001505212497928e-02 7.551269105890542899e-02 4.798676069374548936e-01
2.591067348529437625e-02 3.406658537476659615e-02 4.600997732709948274e-01
5.733021608974005374e-03 6.400462474663919273e-03 4.422955906190166875e-01
3.544704675365272645e-02 5.330302016682820360e-02 4.844788275921259602e-01
1.886795184912345644e-02 7.229315219106051404e-02 4.746569066380874613e-01
3.606738489058995689e-02 5.133794286335918028e-02 4.821428251655037744e-01
-1.057690514136639531e-02 2.034148578420632084e-02 4.449519835999330986e-01
1.662406751563565849e-02 7.520177952439424662e-02 4.946619833788915566e-01
3.041957518555575557e-02 6.971955530431629341e-03 5.296747604838969448e-01
1.366952019192217704e-02 1.951787932287384411e-02 4.491877367833217449e-01
-2.463362506503680507e-02 3.383867474800330427e-02 4.492326325961346067e-01
3.332439868275451945e-03 4.548085160395763660e-02 4.570238841430586674e-01
4.934094654466820561e-04 5.741904413866161239e-02 4.596934776775452591e-01
3.536176106856313284e-02 2.939634039795284426e-02 4.641503639193119146e-01
-2.604461060460069519e-02 3.907057263092016119e-02 4.515283896637255490e-01
-3.185250815941208236e-02 3.455796278920644088e-02 4.495949572754100454e-01
-2.893872025656432645e-02 3.453277268537137401e-02 4.495282223174593694e-01
2.705367314743852003e-02 1.544981425593634772e-02 4.523834716625432240e-01
3.059391422645319630e-02 2.186637743366471459e-02 5.246173619224619999e-01
-1.591387949118024808e-02 5.707654698475055077e-03 4.387755657349898253e-01
4.414552180783220398e-02 3.098816958016884643e-02 4.870274209241852725e-01
1.187872467744355287e-02 5.005764265189947132e-02 4.609393993765498743e-01
-8.396229371873424260e-04 6.903713496144769923e-02 4.686973341400775261e-01
3.996091719967596878e-02 3.000576816000926489e-02 5.047009622099273285e-01
2.365359271355976789e-02 3.330442210907131467e-02 5.285249489201714335e-01
3.404066202561261550e-02 5.355849625934774177e-02 4.791902352105055218e-01
3.289315172777065865e-02 4.667909622233681194e-02 4.719158167727179887e-01
-6.593286823639292471e-03 4.315221042090888227e-03 4.396047717867995752e-01
-1.095540611385037097e-02 3.372687193155557428e-02 4.505618085534025541e-01
-3.184534285504296569e-03 2.338131933366600912e-02 4.474260643623845790e-01
1.595778475975298885e-02 7.520395806722370013e-02 4.945257843135941744e-01
-8.582430206967740088e-03 4.207785224026941440e-02 4.542288386148454760e-01
-1.456438666615366903e-02 1.856148588601243656e-03 4.378775265031321084e-01
2.810614753371618035e-02 6.644719756839623237e-02 4.847665309848377957e-01
1.184955986671114639e-02 6.950786511349309194e-02 5.047253524143725523e-01
1.726258627143345548e-02 6.059677655567144439e-02 5.210619199458341733e-01
9.553651752921396914e-03 6.044268398885749294e-02 4.633311425402326655e-01
-5.242308791315639094e-03 1.030331930521459320e-02 4.419763558972406026e-01
3.908965785524978753e-02 4.591522891653196381e-02 4.953925946399019287e-01
1.589970673675702995e-02 4.747953587616914745e-02 5.269074933045083675e-01
3.895017236433207658e-02 4.675752086412102854e-02 4.876064077872221958e-01
-1.198943960480255803e-02 2.382689474469238539e-02 4.460586627697274986e-01
-2.027308710813835978e-03 3.844014142258911360e-02 4.536707756085064935e-01
1.820341792007678858e-02 1.974750181883194733e-02 4.502729668299965682e-01
1.614652649003070831e-02 6.258862881416522861e-02 5.202851997691342323e-01
4.069128996453906522e-02 3.133834163758506680e-02 5.022352837073067455e-01
-1.245434079816363192e-02 4.760199812222710991e-02 4.557117411227455950e-01
-1.455556926569906949e-02 -8.529025388182854758e-03 4.366427332285331420e-01
2.804552263174214799e-02 2.432950657492506663e-02 4.567763679824446421e-01
2.774227432092800025e-02 1.782866446402971497e-02 4.537690664291385567e-01
1.670572391767008100e-02 1.032065567887783739e-02 4.461560127893141603e-01
2.478333288334156823e-02 7.104527659662591976e-02 4.884988566604847038e-01
-2.622964150435103375e-03 1.759849037173410319e-02 4.452357480042862248e-01
4.363848779117243670e-02 2.436291787137848108e-02 4.989374503140150408e-01
3.636574875555415032e-02 4.500172899370745438e-02 4.751389833659426798e-01
1.688218845494729101e-02 4.120191868627098158e-02 4.591547782479521445e-01
4.030894752783573814e-02 3.504622292148276697e-02 5.023198434057798423e-01
4.295630333195704642e-02 3.147180044184953729e-02 4.959482326750509484e-01
-1.388056027483249369e-02 3.739659726061322215e-02 4.518205611521263765e-01
1.155045630065330321e-02 7.926605282770060601e-02 4.785659683286844768e-01
2.379509993388730441e-02 1.134524027662884259e-02 4.490426299587542691e-01
1.057796849604048482e-02 4.930368624942606248e-02 5.309273378493929441e-01
2.244109688405692554e-02 6.230106454142572692e-02 5.128696491080766418e-01
-1.852324945168502476e-02 2.081329679281283471e-02 4.440950108373011296e-01
2.107304643552827123e-02 7.153931992671444529e-02 4.984548977930685631e-01
1.477244677361087832e-02 5.543727268923654555e-02 5.239705259627182032e-01
3.243010161383780982e-02 5.938409844213455441e-02 4.887654317119346503e-01
1.651790695196980741e-02 1.060898191109234910e-02 4.462241014126653305e-01
2.622333544256397198e-02 6.459437442128859730e-02 5.017961829331605283e-01
1.960010570191562593e-02 7.511090476901421953e-02 4.815439255745834757e-01
-5.294236380013580406e-03 2.384988600281353482e-03 4.390924440845823118e-01
4.361761267847304863e-02 2.494664003184979273e-02 4.983765993983196863e-01
9.094593450760538045e-03 6.492233531182864392e-02 5.080422811633873437e-01
2.912546768329412131e-02 6.371079709305077499e-02 4.802761885429133737e-01
7.420569019721370493e-03 6.925256173280497363e-02 4.671700378350447935e-01
-2.210089267166320467e-03 1.148584038759436175e-02 4.429189053959645683e-01
1.178049670242438743e-02 7.096407224445261397e-02 5.004253593981264903e-01
4.378288424818783248e-02 3.277801802367905082e-02 4.888365740241526480e-01
1.945096574053856511e-02 5.029605930430214311e-02 4.638751186689065165e-01
2.413738357330940179e-02 4.070608143843968546e-02 4.622504662008035670e-01
-7.342997508000589056e-03 3.449439709067891185e-02 4.513889511867127391e-01
-8.535101484929375967e-04 5.354667499432669286e-02 4.584063207429326381e-01
-3.188057283560446348e-02 4.205336405924718635e-02 4.532632127685810031e-01
-3.271951064004760632e-03 7.265001075207195604e-03 4.411007220733104695e-01
2.949400665163217847e-02 5.577993019155892684e-02 4.734910243187316903e-01
1.769776816528901425e-02 4.984967053473599724e-02 5.238461496176098908e-01
3.576606046650684240e-02 3.434135322098539472e-02 4.668641152488013368e-01
2.793647347242925183e-02 1.700139654229922657e-03 5.329492391418522157e-01
-6.871255378480617231e-03 1.597038036433538408e-02 4.438859195172956129e-01
4.460169846051202647e-02 2.971296124604828198e-02 4.883988146317255197e-01
-1.657353143087624686e-02 1.808528076027687836e-02 4.432472227436815571e-01
3.991066315400956799e-02 1.846002817919311159e-02 5.153263179494730339e-01
-8.424997644224748242e-03 5.230776158084836369e-02 4.575158302019075585e-01
1.557185562404407586e-02 7.669291102613921829e-02 4.848562993244073804e-01
3.578386138524902726e-02 2.412460890133933528e-02 5.190790628239022597e-01
1.252287672244870725e-02 5.248763629833953087e-02 5.275089440379023831e-01
4.505419123858524916e-02 2.591489307568436984e-02 4.804370342854118459e-01
3.577064418898430465e-02 4.899589713586583600e-02 4.783938584028763485e-01
3.735995320689684124e-02 1.939825511235787614e-02 5.185004802727024575e-01
1.936267805380437190e-02 1.756419526301053122e-02 4.496334747579923685e-01
9.370629507647906462e-03 6.038436579236333007e-02 4.632414993122535574e-01
3.513360718346648232e-02 1.510350565826880723e-02 5.231951802886106728e-01
1.403940334541218388e-02 6.758792568919991424e-03 4.441418277085336652e-01
3.749083553704730259e-02 3.269765124392166877e-02 5.089958328750009420e-01
3.123894497503528975e-02 6.088705824331009514e-02 4.835785702246648832e-01
4.326716707305273968e-02 2.867469910821749887e-02 4.967304677793333290e-01
3.218308841933276848e-02 5.939643560333453948e-02 4.842879695323031308e-01
7.137769003349872868e-03 8.654523163614223635e-03 4.434736950945638023e-01
1.893875062106169585e-02 7.076934982127976170e-02 5.025910649838672972e-01
2.830036530267677000e-02 4.016678328318209340e-02 4.645331113085759966e-01
-2.255037620965554684e-02 4.184601066929430346e-03 4.381374951299440990e-01
3.939385652735270804e-02 3.882157481178720448e-02 5.036513573319932879e-01
2.195950651174947976e-02 3.025228517822494551e-02 4.563441214960219927e-01
3.640226067612699345e-02 3.451397761046921114e-02 5.104870052980718942e-01
1.917135844597109284e-02 5.567789296036793067e-02 4.657051297778631582e-01
5.906371685826106513e-03 4.623634003866650827e-02 4.579687231422968630e-01
-1.863996330228325990e-02 6.407013485877873990e-03 4.388514381749004101e-01
4.426328187271213327e-02 2.630025167541099121e-02 4.762999684821220825e-01
2.956269720649906674e-02 3.010785478116673880e-02 5.250778635646338177e-01
2.164140912911670031e-02 5.336755066065367731e-02 4.661968835032611613e-01
1.806123688025522769e-02 6.951375726396301358e-02 5.051834559196342056e-01
-1.270703525155342239e-02 1.379032416094092212e-03 4.378762401822019479e-01
-1.948317588678475515e-02 1.346832358633550004e-02 4.411640998617875065e-01
2.297216380352773077e-02 7.380506166720560320e-03 4.471811480965743879e-01
3.073611171447879209e-02 9.619774176861276699e-03 5.265848489590156944e-01
3.301318314421652217e-02 5.821582333671467685e-02 4.903567932127160800e-01
-3.218016499229638117e-02 3.248563666401105970e-02 4.487530289275771800e-01
1.723648245997607201e-02 7.594874602197886071e-02 4.863722536347824810e-01
2.744781185681013057e-03 6.105825484352396526e-02 5.322480619268135094e-01
9.374270582083102724e-03 2.082425223612050999e-02 4.487994584141466459e-01
7.721056490513871287e-03 1.484664496994509211e-02 4.460850465969066203e-01
3.122708596923567601e-02 5.944618211917740425e-02 4.991480049374991124e-01
4.569361383365384832e-02 2.091354181835164416e-02 4.759405604441476756e-01
-4.961254112160085918e-03 2.299619987686586306e-02 4.469381008214745599e-01
1.320428628672819238e-02 4.409587992284084990e-02 5.333506333749070683e-01
3.476116213083996209e-02 5.373186604921371262e-02 4.813928168593268886e-01
7.167700731818704533e-03 2.575852480429940625e-02 4.503408865235242198e-01
-2.680482111750395746e-02 7.801984987503937652e-03 4.396842961299617936e-01
-3.729222701610186534e-03 2.018101999384035519e-02 4.460595022024076428e-01
1.853192811406696727e-02 6.325800523575587919e-02 5.161390863658513739e-01
4.146748086427767821e-02 2.916814156120499033e-02 5.012348389057897924e-01
-1.849662628121607685e-02 1.126624232284658550e-02 4.403413655886218026e-01
3.213865703306743177e-02 5.991072832321026748e-02 4.895971054260131461e-01
2.475652912652915108e-02 4.114908756832985626e-02 4.627452272585798609e-01
-1.208386170109987173e-03 5.307661712239551688e-02 4.582323753692975621e-01
-7.597653935279694189e-03 5.504964462238430556e-02 4.582786551234927508e-01
-2.418682187926651100e-02 3.013568316113349188e-02 4.476570994439039719e-01
8.220541251642767434e-04 5.357707335092214140e-02 5.371690417204003642e-01
2.802779770476931595e-02 2.784304187041564127e-02 4.584000559293869848e-01
3.824585109761412249e-02 4.211240446682478628e-02 5.041082630116120455e-01
2.826004339667814377e-02 3.962043042436629026e-02 5.190738562068868411e-01
-1.176338337184378198e-02 6.468070551597447648e-03 4.396514504682330071e-01
3.611421499999022816e-02 4.870360764220329347e-02 5.033775793999368808e-01
1.303443269666347895e-02 7.543473645428586116e-02 4.880222918801740417e-01
2.057131403539973896e-02 5.731131036277233026e-02 5.193454110129988033e-01
3.018033104333290445e-02 5.509376341050822162e-02 5.092306129316480634e-01
4.225207864783209373e-03 4.147000262291085371e-02 4.559596883228673736e-01
7.874124273300203355e-03 3.742433545643608639e-02 4.552416818945455579e-01
3.391675655529993033e-02 4.524459074424472260e-02 4.718784780871818629e-01
2.329286330220557699e-02 2.207379899189496064e-02 4.533091912598359863e-01
-4.702943725270500135e-03 5.764336037446119582e-02 4.592267752977858275e-01
6.157997919400057078e-03 6.187434153298481537e-02 5.294092864269023258e-01
3.954802646023494739e-02 3.985085677735693971e-02 4.766372362776151728e-01
1.897564259700272246e-02 7.597255013698459014e-02 4.875933710995798975e-01
-2.807352836952662278e-04 5.989356831224934563e-02 4.603593280811497657e-01
1.096735497593434496e-03 4.126127377689247505e-02 4.552819469121021645e-01
-1.427978837169366008e-02 4.838705144622468257e-02 4.560305303079610906e-01
3.964711854564964555e-02 3.969274286102513621e-02 5.022051016641680965e-01
4.501627654073043355e-03 2.919865993407456950e-02 4.512139024085453087e-01
-1.903117383429003134e-02 3.214920442064025247e-02 4.488912335662001429e-01
1.125272142091835251e-02 4.862643436798055191e-02 5.308647577486628188e-01
1.907913553011652066e-02 5.818932214283959597e-02 4.665445920670068247e-01
3.977693959033837268e-02 4.448355686027834904e-02 4.858241059591297817e-01
2.301199987570139854e-02 4.117880533399288084e-02 5.258985779160985086e-01
2.010992154829843379e-02 7.206913427232271296e-02 4.759217157350794092e-01
1.887879348575969771e-02 5.016306252171420094e-02 5.226167433650641403e-01
-2.891364491809557749e-02 2.317975004577536163e-02 4.450040236163752549e-01
-7.201758966500615596e-03 3.851433300556993816e-02 4.530925811818830584e-01
3.687092877022647708e-02 4.976709889427515660e-02 4.824300099548631815e-01
4.462285427720237563e-02 2.546753419442128463e-02 4.950926296643141100e-01
2.512116335930927175e-02 6.098602550673436207e-02 5.107239291142384729e-01
1.867114161191028160e-02 6.388424902075316714e-02 5.151515091936295088e-01
1.068815960213072638e-02 7.233903348755969798e-02 4.971576815800758942e-01
-8.195033245108989534e-03 1.495938599356364494e-02 4.432883273365595400e-01
1.845435714800809993e-03 5.816121057568293673e-02 5.194008007783910141e-01
-1.169557812194143599e-02 9.742841042674144081e-03 4.407469154380331267e-01
-1.567600483209657600e-02 2.565310191931373732e-02 4.463090574508394859e-01
-1.042112875732133064e-02 9.499895111407152121e-03 4.408770733738227587e-01
1.149972459156447385e-02 7.556030339757692504e-02 4.880243788896269641e-01
3.876650769755119602e-02 3.230704141479307651e-02 4.688989956263363568e-01
3.256483751600920684e-02 4.926952224638739969e-02 5.094824959174882872e-01
1.024301109513962513e-02 2.321153258157938881e-02 4.499515369817930766e-01
-1.669672017030638181e-02 6.665489100759010646e-03 4.389429576715414560e-01
3.857845970775746619e-02 3.340122460456427383e-02 5.058770327041526293e-01
1.867740491518458945e-02 5.729815710112473592e-02 5.207147014158665099e-01
3.293117061852057076e-02 5.698756626519114327e-02 4.802341419591317773e-01
-2.793469871330607479e-02 2.591466587924384779e-02 4.460576329516768301e-01
3.762123587966772521e-03 1.780793805889155021e-02 4.465162672159128099e-01
-1.146710546179553758e-02 4.225190678545811401e-02 4.540257316243216934e-01
2.855375460865683390e-02 5.773085455219215817e-02 5.092079785180526619e-01
-1.012932268261562078e-03 5.642687342633822406e-02 5.227891960309569708e-01
-1.659955053491415575e-02 4.066697210833229020e-02 4.528652789346753194e-01
4.295641522166803589e-02 2.852019898300750533e-02 4.976571027061919561e-01
-2.480652506526680873e-02 1.833483073880580808e-02 4.430321848942241347e-01
2.791728611421106718e-02 2.385178211337466575e-03 5.326793676916942166e-01
1.404102438072298356e-02 6.724433064816494332e-02 5.084276232896803860e-01
3.689120511288601634e-02 2.316134594037759162e-02 5.176894876127688949e-01
-2.257360179772996064e-02 3.095924134023122706e-02 4.480036915954840882e-01
-2.038668085580268644e-02 2.015744767778413979e-02 4.437189653252583965e-01
3.481729911680580408e-02 2.185636776129240913e-02 5.206425799889971007e-01
4.364065124999140684e-03 5.335988090317577565e-02 4.596212783124553058e-01
3.111790946694117238e-02 5.718643863715807546e-02 5.041963872270682767e-01
-2.306885455629439918e-02 5.855327776341725382e-02 4.656673152612845756e-01
-1.523240488875299758e-03 5.970936344399806195e-02 4.601272173789855979e-01
-2.624589818068722921e-02 2.865961922312484922e-02 4.471003437565311267e-01
2.141629585031074728e-03 5.831793449371865112e-02 5.202640517253833696e-01
1.831387822675181742e-02 5.141409986540815269e-02 4.638260593098493256e-01
3.383087845209193506e-02 5.641181477464071031e-02 4.924828563005059223e-01
4.562570022095704773e-03 4.916050612174840267e-02 5.362188865239493341e-01
2.860310290385435078e-02 6.586042968936829667e-02 4.881663617632920893e-01
-8.235203826235817579e-03 4.934156970589112512e-02 4.566259295060919876e-01
2.316537330994901042e-02 1.027417535433394584e-02 4.484157722751447861e-01
1.011000681645240692e-02 6.375273085748180135e-02 5.164792295002513800e-01
4.080812059203720032e-02 4.205950888244491120e-02 4.880211020480131334e-01
2.358234115474089690e-02 3.964139043649789890e-02 4.615104754422310052e-01
4.174001976015634385e-02 3.960404359398424223e-02 4.919167042757099373e-01
-1.640811493660311246e-02 2.760854220552317467e-02 4.470254115743398371e-01
-1.410156577362314118e-02 5.310801970883648193e-02 4.576638597789453589e-01
3.548100901626120851e-02 2.935209335195512054e-02 5.157583104885304914e-01
-9.954132093378982582e-03 2.563853329875419654e-02 4.471332543537580029e-01
3.732964768646686304e-02 4.721151210498351902e-02 4.797987736928344127e-01
-1.282087496068008182e-03 5.699990720299171615e-02 5.357596210938523340e-01
-3.059522163577968815e-02 1.289996005752053372e-02 4.421377148729697670e-01
7.951455360444711906e-03 5.272678756859457139e-02 5.313159447140228808e-01
1.142772734583016175e-02 4.260184360823728034e-02 5.335636809442239059e-01
-9.219792310786930137e-03 6.020855483070926273e-02 4.608859997324825652e-01
2.992962577102143210e-02 5.895378190729488183e-02 5.050250345352936820e-01
9.723533863080306358e-03 3.947027407758280787e-02 4.564767088615929169e-01
-7.886848459114960148e-04 1.490389167744642779e-04 4.389165848213973931e-01
4.065031160336828216e-03 3.774998080116564320e-02 4.545343472847662158e-01
6.039762177104236393e-03 1.325981377816986412e-03 4.405055451008734191e-01
1.721399426122042359e-02 5.463509360332412940e-02 5.222119402071728755e-01
4.391514212015892177e-02 3.212938148142294864e-02 4.881922244931550248e-01
-6.658607925605674119e-03 2.666383034428961366e-02 4.481268241097829397e-01
-3.634204109665448157e-02 2.926737913606410058e-02 4.477713418206623053e-01
2.478673520620155654e-02 4.076777026076021382e-02 5.235190545946640794e-01
-5.140107598338815656e-03 4.147518233052362863e-02 4.543210965354891329e-01
-9.242728973700023790e-03 5.386570706878260166e-03 4.396565868954432355e-01
3.943846162011523798e-02 3.980907358439512295e-02 5.027182951912577691e-01
1.395015928334730759e-02 6.703436394604513071e-02 5.086069599629994276e-01
-5.856862376161536821e-03 -6.704773689559053763e-04 4.380450160421819894e-01
4.243806684356140474e-02 3.140346354011624985e-02 4.976143698671149918e-01
1.600990751621714572e-03 4.247653988266150704e-02 4.558090671648576397e-01
-1.476400245381380601e-02 5.316511881348907897e-02 4.577067641322117297e-01
2.721526398688795239e-03 4.434420953002549126e-02 4.565380982385533470e-01
-1.867790080652562829e-02 5.973481524310686464e-02 4.646160858048014597e-01
3.534012554741738921e-02 1.789408238188594860e-02 5.218242228945141337e-01
2.945534873263349826e-02 6.404107779464204842e-02 4.841692086544256424e-01
3.369925570004825982e-02 4.655139448494026444e-02 4.726584987394468751e-01
3.120725771285273037e-02 6.049864582071892011e-02 4.957869085268199472e-01
4.423448315253227132e-03 3.597275816158376771e-02 4.539102359227576988e-01
3.988967127750150249e-02 3.098851157039291329e-02 5.041845718680189048e-01
1.581832540623304834e-02 7.546402713024549791e-02 4.920596492277412581e-01
2.640191466188159322e-02 6.271039750451709582e-02 4.744604955455420936e-01
3.133059124296556225e-02 3.347740023914425045e-02 5.205939323810923058e-01
-6.057764030353213203e-03 5.461963543730631587e-02 4.582446210814786203e-01
3.292764800533470870e-02 5.539508094052638526e-02 5.011070439443320312e-01
1.778677042301736455e-02 5.268394452020121188e-02 5.225197922497141212e-01
2.345928349482106698e-02 7.504323267722977711e-03 4.474187395069551543e-01
4.032406355714855672e-02 3.330834491189273161e-02 4.725443129542996057e-01
1.475984455093655098e-02 6.925162808765583655e-02 5.066452138703488872e-01
3.751008187170742914e-02 4.498777281712201120e-02 4.772826361922896110e-01
-1.515559298716556008e-02 1.736649862341352671e-02 4.431210970255108905e-01
-1.008152745387514738e-02 4.186093195018589230e-02 4.540160267748709066e-01
3.254715319323676914e-02 4.671091060558069108e-02 4.715793191669521711e-01
9.338689862491112229e-03 5.962240934820665916e-02 5.277577692944291909e-01
1.698643309659714218e-02 4.560280271108289180e-02 5.271000145344381105e-01
1.005910090330302230e-02 3.855407737524201017e-02 4.561971653998785348e-01
-3.460669790723966410e-02 2.352394250085221988e-02 4.457794765511520763e-01
5.338678619788322574e-03 6.621186082962787767e-02 4.649867095634193648e-01
3.631437219705028335e-02 2.610119800861104844e-02 5.167982355923836923e-01
2.849766690032330338e-02 4.256212324713835871e-02 4.657704072231909631e-01
3.975513149232281357e-02 3.017908569554789838e-02 4.691717383544200537e-01
4.356671367436726339e-02 3.099201344732147381e-02 4.929474773977923219e-01
4.462109351328823192e-02 2.355487406402308539e-02 4.964396733589866995e-01
