2.293021928508458956e-02 7.174975167459671233e-02 4.904421887205688835e-01
-2.094277250722057643e-02 4.364157449523098364e-02 4.536705499479576909e-01
2.934676922873751675e-02 4.858985817020619602e-02 4.710318918745508565e-01
1.407208855306171791e-02 4.540637640628253369e-02 4.605941606987925541e-01
-2.959844577833879373e-02 3.688970256031297995e-02 4.503530496492126889e-01
-3.702304541423270812e-02 9.237886492130327649e-04 4.398508833846653809e-01
-2.870728223764614645e-02 3.552339881207651831e-03 4.386634327461649274e-01
2.638649805301904010e-03 5.175355199003119772e-02 5.370014764261331619e-01
3.223068983702805784e-02 2.011964681530437754e-02 5.233327697653907817e-01
3.017747012800825121e-02 4.138656353784456871e-02 4.673743836808195162e-01
3.941530671548858222e-02 3.477691279570589017e-02 4.736066973414589931e-01
1.022834979581020015e-02 4.678658794498661427e-02 4.598111937592140874e-01
-1.608864810544686705e-04 6.230843984831555687e-02 5.326669211823998884e-01
2.120048640309971089e-02 4.049802348117498979e-02 5.279399960747929166e-01
5.462793599731272532e-04 2.651599390979833548e-02 4.495112359938464031e-01
4.197880987517078194e-02 3.412031151484704039e-02 4.946512043746041920e-01
1.466229541152204788e-02 5.532424406001315575e-02 4.645813901602718343e-01
2.049152811140106389e-02 4.327145063344891088e-03 5.319622654403503015e-01
3.444752152365786191e-02 2.921079818647618828e-02 4.641018400533357680e-01
-2.166734066012825435e-02 5.703999678541116225e-02 4.606772247776583784e-01
-2.784936984472533017e-03 4.930504043423334509e-02 4.573197482657197499e-01
-2.934415669479602945e-02 2.308188378876498137e-02 4.447936857021222989e-01
3.375644128611579847e-03 6.425261090950669385e-02 4.639568053464747099e-01
2.078978576003562284e-02 6.167173045165156436e-02 5.153074485668097671e-01
2.294202822869856329e-02 6.011123271951251262e-02 5.141165220139415348e-01
-2.307783236469605759e-02 4.116647945670007247e-02 4.524444661415519819e-01
3.637563894733499004e-03 6.760605724670995520e-02 4.661264457956513230e-01
2.415397760829118140e-02 6.755301497836994906e-02 4.785897205703780188e-01
-2.172894834365567129e-02 4.223024097415860323e-02 4.530206018981975946e-01
-4.220176583871184869e-05 1.992385974466196266e-02 4.467404117419970788e-01
4.098022872638047709e-02 3.378648487301956493e-02 4.993399981142248034e-01
3.012816314653458949e-02 5.878490661652720911e-02 4.781246187859592434e-01
2.541374045040073471e-02 4.448943073873679044e-02 5.187518819661199876e-01
-2.694999493052615061e-02 3.199613256534044464e-02 4.482789402742087814e-01
1.833700429950966757e-02 7.224582245486885212e-02 4.759449675565479154e-01
2.907961204538872871e-02 4.045033220898267522e-03 5.319572641550743830e-01
-1.623645974019238825e-02 5.247577809183472802e-02 4.574748181110496192e-01
4.350665546347637358e-02 2.753279301312384561e-02 4.771914713089012716e-01
3.440230120533971370e-02 1.893579665230637338e-02 4.589688809711842676e-01
4.266550211994661612e-02 3.274610411462013787e-02 4.928483246088033454e-01
2.981826168832911461e-02 2.390530797005702493e-02 5.242642078996834210e-01
2.740273896257496358e-02 3.606903305515121727e-02 4.627972784638635373e-01
-3.786872827053725660e-02 2.149521581363938311e-02 4.454409303074534643e-01
3.973907288958252598e-02 4.292369028425294109e-02 4.933125747360339042e-01
-4.418598850191682824e-03 9.918261701318056844e-03 4.419625697601846648e-01
-3.428480070544234759e-02 3.270957986499042902e-02 4.486968144160757288e-01
3.847416557422314587e-02 3.285437083654962898e-02 5.053182903709343421e-01
-1.370640795765210376e-02 5.844792905086505092e-02 4.600965019557312075e-01
2.286045310218593613e-02 5.374160690455431766e-02 5.187264052231473910e-01
3.861499136919594594e-02 3.042771512153371466e-02 5.063323543296417428e-01
-2.941178486523806160e-02 3.024353299563106029e-02 4.475572914979020767e-01
4.104270640127097303e-02 3.946036893447787963e-02 4.898100814697103900e-01
9.780627876916381594e-03 7.512622366817807429e-02 4.939958247166574279e-01
-3.022734973386441773e-02 2.442393537039121501e-02 4.453676292272641946e-01
-1.617271584580297350e-02 2.658751673948676550e-02 4.465851563722644246e-01
-1.600438330743967838e-02 3.686326069748746548e-02 4.513192885935729537e-01
-1.932590345828699013e-02 5.269297488452379802e-02 4.576173144122428482e-01
1.712877744160140603e-02 1.479436981795568054e-02 4.482362897391434231e-01
-5.279047538909588215e-03 5.845649974515600145e-02 4.596610236247069547e-01
-2.137954759719391806e-02 5.658824858317895029e-02 4.600601792625383935e-01
2.964557545925302490e-02 3.639328897964412557e-02 4.644335166212939514e-01
2.516870229492165420e-02 6.510540817692550553e-02 4.770769600627252638e-01
2.281389192515122927e-02 5.814940507884041460e-02 4.704954001804053654e-01
3.100133282394939085e-02 9.475858504701268822e-03 5.269907664501876088e-01
2.831633523085010790e-02 3.316179637168004818e-02 5.247342045042268088e-01
-1.812911883836393345e-02 5.454148676918167682e-02 4.585717460013780111e-01
1.706334824661055044e-02 6.103368834336819065e-02 5.203059399231272364e-01
1.015269854074421149e-02 4.518010360682251682e-04 4.410856738936131949e-01
2.154423640783228663e-02 7.477724148675431171e-03 4.468899920441243290e-01
3.894861289195207521e-02 4.146203816012439258e-02 5.012832085211205158e-01
-1.754407842415010854e-02 3.884015735729764215e-03 4.381093246489790038e-01
3.903861784295476617e-02 3.906465096082577249e-02 4.768935876627121706e-01
8.294118256415697332e-03 8.124017643880987460e-03 4.435821448169995906e-01
3.070760890976012569e-02 6.011175913937916171e-02 4.831517029076182190e-01
-3.542532650621957324e-02 3.635502503423864579e-02 4.502481718180983972e-01
4.197711976883630736e-02 3.160944019038823549e-02 4.974266649067244361e-01
-2.867074664099939635e-02 -1.996343223112128848e-03 4.378573465240280793e-01
-1.999085753449663522e-02 5.153007818852479299e-02 4.572277859813418388e-01
3.886185056199750049e-03 7.077240250425398393e-02 4.694809273148844442e-01
-4.143089189280997620e-02 3.732653947989481719e-02 4.520008063278664334e-01
2.419845550808673654e-02 6.852440734162403013e-02 4.954747386096854944e-01
2.769629108610539500e-02 5.550286301517934340e-02 4.733631724463565060e-01
-4.094918411403616898e-02 3.676059317356484418e-02 4.513442816137349101e-01
3.047345072284717363e-02 4.128014136115230187e-02 5.154551433240512903e-01
1.821052138768599477e-02 5.225621741925731700e-02 5.223933060299599251e-01
3.113094609798760723e-02 3.596905186830823276e-02 5.160186659207391946e-01
2.566382310948246703e-02 1.613507560136940786e-02 4.522662709904903822e-01
-2.078000046366701437e-02 3.513443616154867354e-03 4.379461658515723665e-01
3.335589816585797507e-02 2.708811825917331606e-02 4.621756533999465955e-01
3.973993103155362694e-02 3.380216639238786680e-02 4.734655284201128578e-01
-1.113743469702676257e-02 5.820479164088061125e-02 4.595462730141706698e-01
7.233585235677294362e-04 5.156671664962170221e-02 4.585323073146800876e-01
2.372889666958444624e-02 6.863008582176750860e-02 4.969159204879280423e-01
-1.281897753080112577e-02 4.008945473223268774e-02 4.531002394757235874e-01
-1.367236930354405119e-02 5.679323295365243385e-02 4.590986254656008736e-01
2.096004093833972459e-02 5.575877922781191653e-02 5.197362758171752972e-01
-1.137167652940727566e-02 1.078520877515261323e-02 4.411529827951548022e-01
4.985366113934215984e-03 7.258024735555079765e-02 4.718633687761036866e-01
4.077894787011664135e-02 3.201235551965543602e-02 5.002794541547955776e-01
3.447906015323863593e-02 3.658437902337730030e-02 5.118521869358467757e-01
4.215048446412998639e-02 2.301688703592286861e-02 4.701424080309650755e-01
1.905530640766529143e-02 2.564015257419324789e-02 4.536685104775138311e-01
3.987431597045489745e-02 4.087362528917776183e-02 4.980752723397941506e-01
7.234798760074693039e-03 2.587756006424515864e-02 4.506130565398497878e-01
2.555846738553056718e-02 6.437477831758336988e-02 4.769906774217484990e-01
2.896037654863202471e-02 5.764745229253005407e-03 5.311871541589936463e-01
2.124873677899049174e-03 3.539879573773817290e-02 4.534832871974884272e-01
-7.829396351932096931e-03 2.126298879176402937e-02 4.457810375211581633e-01
1.211520773525554852e-02 2.264869302096183395e-02 4.503902777874762564e-01
1.417393348845755706e-02 6.987100416975786099e-02 4.706106434362636870e-01
-3.334369308170301305e-02 3.277403341821114729e-02 4.486852131328972759e-01
-9.526960077421249215e-03 3.160227739614537151e-02 4.498380387685902426e-01
-4.209587539859208083e-02 -1.475073113810902465e-04 4.412115533680288637e-01
3.769813281863873544e-02 3.711035160224395585e-02 4.725556481416285926e-01
1.484188068020552038e-02 5.093135307956835750e-02 5.255960176376270887e-01
3.160096561299186035e-02 5.226363001794012697e-02 5.090780637937135644e-01
2.689113148903541153e-02 5.977842293516715672e-02 5.095060001911041470e-01
1.003856682389892875e-03 5.576509358366218277e-02 5.349910351709913359e-01
2.991324614543301383e-02 3.607210141968043848e-02 5.177494738760451964e-01
4.485803538794569389e-02 2.569595742246824285e-02 4.833402616766771520e-01
-1.972780584069359217e-02 1.224359657520272815e-02 4.406023971805588801e-01
3.070166968594265078e-02 5.828257981544825161e-02 5.004532455501246035e-01
3.951950228552021660e-02 4.273367495295406909e-02 4.836330617497367479e-01
-1.022972755478423687e-02 1.937148197369294514e-02 4.446246357218910372e-01
1.148774141123715814e-02 6.359332884293548982e-02 5.234366550537267182e-01
1.184858694854545522e-02 2.064280297954047133e-02 4.494930523565443536e-01
4.135124072396657163e-02 3.790322560869682778e-02 4.867719903657031777e-01
-2.109237460391511637e-02 1.868043504991594508e-02 4.430329559349241997e-01
-1.074077284913620318e-02 9.284918492890864919e-03 4.407074493206973864e-01
1.332528968458121868e-02 6.165283201033985860e-02 5.238930085829639482e-01
1.247259679597013601e-02 2.969625224309856149e-02 4.534294157274442183e-01
-2.045805632128794120e-03 6.962814401059774783e-02 4.702328495578297352e-01
2.478403788308186639e-02 3.776563590173112606e-02 4.620185862930384357e-01
4.208896924728750683e-02 2.960177894206449112e-02 4.749528427167656330e-01
2.012119176141121887e-02 4.445150623097862685e-02 5.244327797916547018e-01
6.574774873998982805e-03 7.070667227857224679e-02 4.988368857373745024e-01
4.078982983854466740e-03 6.256402648727782401e-02 5.311876126425686406e-01
4.625185840716206261e-03 5.819295265787478161e-02 5.309797340588111592e-01
1.943757457827894816e-02 3.939853674646905807e-02 5.307947003692501386e-01
1.494181910764771568e-02 6.071184169073716441e-02 5.228542948568133397e-01
1.061497073329379856e-02 6.368670561352174353e-02 5.227696628209773655e-01
3.497062501065004853e-02 3.612904823187576553e-02 5.110080903869443913e-01
3.802491308343453752e-02 1.880069431566759597e-02 5.174423420693664566e-01
3.184185046047648127e-02 5.647501373773071431e-02 4.999440119148118034e-01
1.087939672383126874e-02 7.222077076534580420e-02 5.019696680886813756e-01
3.529574329194088388e-03 1.131852246304975405e-02 4.439435165856556176e-01
-3.899200799459739963e-02 -3.113154038710697763e-04 4.406323138695152353e-01
4.811597010863261602e-03 3.760798574645119602e-02 4.549602461874419079e-01
4.834969549184869181e-03 3.308614327427990970e-02 4.531088823552127942e-01
4.199999437159855631e-02 2.379215291421953732e-02 4.703596468612628589e-01
8.033351802553857779e-03 6.797226020715585459e-02 5.077120662094429804e-01
2.610909107509282873e-02 6.281948220071927047e-02 5.055364079319091264e-01
2.680159551102435228e-02 5.478694615257474407e-03 5.318564422210324549e-01
3.720441737475946309e-02 2.403599611473856285e-02 4.637613565430780405e-01
-3.473284363272707148e-02 2.354590827599433236e-02 4.455270030797232050e-01
-1.957774032235036488e-02 5.266501717925472364e-02 4.576130680761673064e-01
2.095843765032772213e-02 6.165271534507092699e-02 4.707606743411338335e-01
3.206950728970449360e-02 4.352383374969957114e-02 5.126227671239460548e-01
1.708848518597888555e-02 9.905808226409096653e-03 4.462863902286648976e-01
-1.322712734588061753e-02 -6.529558330369451824e-03 4.366515372161294817e-01
1.984759835249196025e-02 4.524194947414563600e-02 5.242358929799370015e-01
4.326495545748549471e-02 3.066619864523272357e-02 4.819246651022986994e-01
3.162541343429661062e-02 5.544167333773052792e-02 5.027289964901040520e-01
3.625237885941336169e-02 5.027615893018685944e-02 4.922095786235245463e-01
1.785384561611885398e-02 1.627259282751990568e-02 4.490222240359209027e-01
1.681850864339020160e-02 2.426071564587778395e-02 4.523342602278703772e-01
3.612517323679643316e-02 5.089349812184871397e-02 4.880600440637139492e-01
2.185552060871915475e-02 6.049861428932008789e-02 5.151298180319628939e-01
2.608498753597968817e-02 3.227984516170472745e-02 4.600510343333331087e-01
3.196880350234465595e-03 5.063822124605105168e-02 4.589982737990883077e-01
1.570881546438211707e-02 5.093693277186227969e-02 5.248970813035709337e-01
-1.062816386446948681e-02 9.801917119476795046e-03 4.409171586878275484e-01
-2.649687974073216407e-02 1.930245856083736763e-02 4.432390706830380833e-01
2.456723987096381609e-02 6.485083039916984815e-02 4.760943066518416034e-01
2.633072350209087614e-02 6.750674942184409222e-02 4.872848944021448969e-01
-2.497917838087706371e-02 4.248200300801446838e-02 4.528490271716884563e-01
7.817438702607354363e-04 4.815770115092449927e-02 4.575777942079303218e-01
-2.021018248617942326e-02 5.647200757848631208e-02 4.597336946760248733e-01
2.198119781605238979e-02 6.377215595348868782e-02 5.110170519766789043e-01
1.988619291934509009e-02 6.112868013461265904e-02 5.170281907258690302e-01
1.923263767202480073e-02 7.456151251787930534e-02 4.822890259413774028e-01
-1.128870763946703167e-02 1.659820946452549364e-02 4.433796850850103000e-01
3.210629418480429736e-02 5.781979856718598432e-02 4.831131670009825019e-01
2.925584488432295127e-02 9.613109785470240823e-03 5.273281127982937244e-01
2.396142779271236839e-02 1.433994336735179564e-02 4.506048193901038279e-01
5.608543961072887628e-03 5.918634734453480373e-02 5.302613576734294121e-01
-1.046804487620777400e-02 4.286470466529768153e-02 4.543822771561893403e-01
1.655516027640303867e-02 4.979254011896617343e-02 4.632913623220185073e-01
-4.997633942804918794e-03 5.491270681361322403e-02 4.586493624782853606e-01
3.320192958329581945e-02 2.302639954719661736e-02 4.599571975766524878e-01
3.068866177787554425e-02 2.741462465194093034e-02 4.603913682000989049e-01
3.991370028342107468e-02 2.478223992494180475e-02 4.669251096073946394e-01
-1.732124984093758729e-02 6.542030741536435448e-03 4.387811745703725785e-01
2.962040057972714635e-02 5.783179270786242832e-02 5.047569404575654728e-01
-3.382005241128891587e-02 3.397476215203611150e-02 4.492001728835141039e-01
-3.637939245676530958e-02 3.857912878027335013e-02 4.514324258582828042e-01
-1.978857332281108022e-02 4.752157883311784042e-02 4.554082331947082452e-01
-1.208970058862465433e-02 2.048410503045556760e-02 4.447377859259470934e-01
-1.003338276071502784e-02 5.948246051338085261e-02 4.602494951259881173e-01
3.488806147690134973e-02 5.248116388323822989e-02 4.934506099212868091e-01
2.784454445335521680e-02 5.888632490573154216e-02 5.086459412082057208e-01
-1.964861849616576089e-02 6.005269336083186166e-02 4.671012252431762102e-01
2.692665470061860952e-02 5.999225240490645844e-02 5.092825820089080802e-01
1.381071057577967602e-02 6.521077728832429254e-02 5.174164437426885810e-01
2.284240235231920976e-02 8.104580485930504286e-03 4.476586802945553001e-01
1.840974146265547326e-02 6.129583240052276921e-02 5.186445991558042978e-01
1.246070904377127690e-02 7.253359291430178102e-02 4.719067306683469298e-01
2.955319401122695130e-02 2.786835789053785858e-02 5.247766303658474296e-01
1.494490863075245181e-02 1.613706805037835867e-02 4.483162854466219427e-01
2.795602869768282553e-02 6.406321176884027802e-02 4.945695242308858486e-01
3.462444225162601696e-02 4.741769018578745332e-02 4.762260937294676144e-01
-1.726836095517403358e-02 1.004235169558829327e-02 4.398022644922580104e-01
3.742727563418761505e-02 4.513475780673292109e-02 5.024666878572700002e-01
2.533177906293230044e-02 6.887011458029598798e-02 4.859729860158356063e-01
3.900212184389449666e-02 4.296150292677412136e-02 4.995218356345498822e-01
1.459822904133388326e-03 7.068426940574808193e-02 4.706753069942691270e-01
1.413249800082883728e-02 7.101294669123574266e-02 5.062469583445549093e-01
8.645399895226550668e-03 4.497769542226523476e-02 5.359971072421630955e-01
-5.579536780337991664e-04 4.790186608725541945e-02 5.381489094081898239e-01
1.127498854360811827e-02 3.683788308761262037e-02 4.561896339328100347e-01
3.293641110178052722e-02 4.177401738329606512e-02 4.697272549795372121e-01
2.018361177729919090e-02 6.208465372238354540e-02 4.702991302968185239e-01
4.518112312674091996e-02 2.386279411571096479e-02 4.912979023677554458e-01
-3.647728880028665646e-03 6.139391701262877921e-02 5.356932224569559420e-01
3.737574460467549958e-02 4.739899190422887376e-02 4.970090153670380650e-01
-1.286149551454878609e-03 5.957328615109611092e-02 4.604995549407068789e-01
2.115821668401337424e-02 7.297318741352412652e-02 4.936722699551733262e-01
3.763334605151219536e-02 3.486267119394657193e-02 4.702614686650835041e-01
8.265771794147565299e-03 7.833753726415666752e-02 4.808164555481187485e-01
2.592894161177827089e-02 6.806431479974152376e-02 4.861467367262691797e-01
5.900291448536598704e-03 2.931464358979167170e-02 4.517676009026853623e-01
3.113882316612753137e-02 2.109983232424437680e-02 5.239507562596642520e-01
-1.432609028256429107e-02 2.739135772652019976e-02 4.471126421492615521e-01
-2.139530952495037261e-02 3.319974053601813108e-02 4.490485224462136826e-01
3.613275026049188408e-03 5.444231633101725282e-02 4.602768604675964159e-01
-7.987375615743474988e-03 -1.613104947134463060e-03 4.375300415705636881e-01
3.991792704706283168e-02 3.471664774840171191e-02 4.745478676410901375e-01
3.413585006295658669e-02 5.252067793167514154e-02 4.992823969081003899e-01
1.488514598846536058e-02 7.350769545158228335e-02 4.742605558478726335e-01
3.783702098233334560e-02 3.275345205630994516e-02 5.065577702372163760e-01
6.524311676682161346e-03 4.051174928548093718e-02 4.565207682405095779e-01
-9.197071001181476163e-03 2.709105742474225004e-02 4.478983282580595859e-01
3.343087993882275233e-02 5.495882066446462766e-02 4.829082492654557246e-01
4.002780938525375698e-02 3.619323401195277679e-02 4.760550398163650443e-01
3.198767009692370100e-02 5.826478282734658815e-02 4.888318022957832132e-01
-3.490419949969217339e-02 2.679471389774963283e-02 4.466379385746815367e-01
3.456957121136318423e-02 4.891196369887584189e-02 5.056050077687671562e-01
-3.406931637929830250e-03 3.899843824896313815e-02 4.538335502743646721e-01
2.500304541941389402e-02 2.628483329284906495e-02 4.566092567157583604e-01
3.561950185505248674e-03 6.257229921557569408e-02 5.313285983716168337e-01
5.365842077126368667e-03 6.319273878894626773e-02 5.226048572281674076e-01
4.347656653427641599e-02 2.936580832974443334e-02 4.806425917596521824e-01
-4.224655800928620725e-02 2.364101305710221423e-02 4.469075756425108792e-01
-3.346748338122544804e-03 5.749398044770144545e-02 5.382095034506243492e-01
1.446172016531782623e-02 7.212429390234373350e-02 5.034580356625869557e-01
2.157212197189418632e-02 7.105832054983306223e-02 4.974080293577849976e-01
1.453836575746745782e-02 4.771871990089403270e-02 4.616577286311658312e-01
2.287187802803460849e-03 -1.425898723641664048e-04 4.393841323048419678e-01
2.854995024207772000e-02 5.578686594695066170e-02 5.107458339139008263e-01
1.975574136840603512e-02 4.009281086510670111e-02 4.605594663501110797e-01
-3.125893645707783497e-04 8.268585996240418456e-03 4.419853158073120958e-01
3.527378715606083182e-02 4.514517831550795418e-02 5.074696176888101595e-01
2.379702932060991094e-02 5.578089731996827005e-02 4.702244999889977906e-01
9.971213891089287899e-04 4.806159774136498086e-02 4.575952718183691204e-01
9.671738193956719645e-03 4.118981182265202268e-02 5.351195006396947118e-01
3.016419789834199131e-02 4.873360893166250873e-02 5.127476287577692471e-01
3.915801801251591469e-02 3.839907461124696109e-02 5.026556592101460996e-01
-2.710776443822149676e-02 4.373877328828796457e-02 4.536940625605709876e-01
3.620497294006377875e-02 4.132064423398374570e-02 4.735787204474286582e-01
-1.519085715141473697e-03 6.364469070990155797e-02 4.632771349344098621e-01
7.383396432297391863e-03 5.678639206903173670e-02 5.295014914725595379e-01
3.422617989631801527e-02 3.597059389067337742e-02 5.128218937684586587e-01
1.305540627700012106e-02 2.239535758964422349e-02 4.505061477180891671e-01
-6.575860065236192528e-04 1.661775728921848286e-02 4.452745709182389655e-01
-3.279691390860071942e-02 3.599081945314584058e-02 4.499946871961431616e-01
-2.436737109705175777e-02 5.852390627827427222e-02 4.663146094788484519e-01
1.376702804606149202e-02 1.700789930773559736e-02 4.484230844270442051e-01
-1.611112695156050392e-02 1.838934863031630243e-02 4.433697858767399191e-01
3.755569808485311085e-03 5.269425082505322516e-02 5.343377314846839976e-01
2.336714246979764570e-02 7.136406801620542861e-02 4.871072505800074781e-01
3.320555910932015964e-02 5.241028646131858787e-02 4.786794979220513335e-01
3.512094657129571917e-02 1.351325485300862439e-02 5.237909268401488294e-01
1.078361408382288653e-02 6.164018886756052890e-02 5.260060657499909809e-01
-6.467088912011644333e-03 5.646177105717098410e-02 5.263870672694505037e-01
-1.287567037155504766e-02 1.707498280499305729e-02 4.432909332432068417e-01
-2.454289861551164909e-02 2.159252262275522874e-02 4.441194071143380051e-01
3.480189784417960126e-03 3.009401627267862395e-02 4.515792697987306981e-01
2.212388615899778949e-02 3.088848837787023724e-03 5.325157639348438998e-01
2.212461246528278636e-02 5.100352644949218694e-02 4.667574973350334666e-01
2.084147296732869262e-02 7.354056842844000630e-02 4.933797139353027772e-01
4.264275812064931281e-02 3.211404753212144386e-02 4.798545895021811836e-01
3.960708953040335822e-02 2.045196985566805070e-02 4.642061205262369983e-01
3.158842589026145814e-02 4.690002718475113491e-02 5.117938594801303420e-01
9.446743622702898427e-03 7.566710305055807106e-02 4.898505172851098655e-01
2.088227553801039887e-02 6.862095471197536545e-02 5.032926804186561576e-01
3.865278605824149644e-02 3.809788253133004898e-02 4.751406845623997732e-01
-1.517254236770365639e-02 -3.795862649074418019e-03 4.368422337267011679e-01
-2.218152782881201157e-02 3.341743420299932849e-02 4.490621289954026540e-01
-3.105452323166348061e-02 4.127561164697646223e-03 4.390764702997841940e-01
-2.754084531701763913e-02 1.912112609627373422e-02 4.432277713694064425e-01
1.195374164992589645e-02 7.484507927852898646e-02 4.747167658160055259e-01
1.352055570370494508e-02 7.294273979111616513e-02 5.020359941018750494e-01
2.847752676451455189e-02 3.603219997543050113e-02 4.634785645467537352e-01
1.435146296565418395e-02 4.135020755741387194e-02 4.590284652796099985e-01
3.031611935859960302e-03 1.676014499926822138e-02 4.460620660808763960e-01
-3.831889212552954532e-02 3.059178193008506991e-02 4.481027739080011840e-01
-1.532496956822211251e-03 3.893352306411639215e-03 4.401354580831383090e-01
6.232171985405002279e-03 3.589084936786161861e-02 4.545965231164135756e-01
7.700874644998681982e-03 6.411637483306498186e-02 5.202665138219596530e-01
-2.850101994777537451e-02 4.619316188203047985e-02 4.555035882329570573e-01
1.743860472241613030e-02 7.620654728041452441e-02 4.898959562212450991e-01
3.501476081178470090e-02 4.744782111335678343e-02 4.770299529295716212e-01
3.329524970319665267e-02 4.703304907166831056e-02 4.741491579681504365e-01
-8.550819240068719546e-03 4.183775532350641341e-02 4.542408151924897108e-01
2.582816589749265673e-02 6.434148981881526730e-02 4.773122653325311271e-01
1.705972548137266176e-02 7.613403305509498786e-02 4.832003079529226808e-01
-1.462900439367936789e-02 5.886659815524595413e-02 4.607647134823958379e-01
-2.588964024380699044e-02 3.109012285272786703e-03 4.381855620921214500e-01
2.424933155272350829e-02 3.714968583054933243e-02 5.268810206882433844e-01
-1.382795165588901649e-02 1.699269468966789140e-02 4.430987832074693156e-01
2.624350487640667723e-02 1.765857435690266868e-03 5.332270469921187583e-01
2.801743878184177750e-02 1.274735356996834976e-02 4.521642899747713162e-01
3.547544507629669247e-02 1.918848253323572964e-02 4.598475939440078153e-01
2.090441269913750899e-02 3.554075487035899400e-02 4.588643680508640021e-01
-1.595770098395644238e-02 3.339841453590584874e-02 4.497428427116991201e-01
3.810267741280923270e-02 4.426979995723659411e-02 5.013960606754549465e-01
3.648098918923507392e-03 4.998770860484069711e-02 5.369058547060280295e-01
3.589796904564785535e-02 5.093712817524250619e-02 4.921438528018149960e-01
-7.350252877001330759e-03 2.428112786904918462e-03 4.388511998369991618e-01
4.225858832009857236e-02 2.531404157068070995e-02 5.010705718995254188e-01
-1.170263586114514941e-02 1.142463819718041521e-02 4.413341022948148451e-01
-4.017693877016020876e-02 3.197753998727606572e-02 4.488840258655836246e-01
-1.854426548391611279e-02 4.742524113867199742e-02 4.554182127239852496e-01
-4.166200839492688150e-03 5.774821683895824814e-02 5.251821861399775804e-01
3.835148102871524523e-02 3.660038947903021533e-02 4.732938867989525678e-01
2.754827218010108200e-02 1.060457675374374721e-02 4.510338709809856850e-01
1.150882282348431214e-02 6.510037122095949091e-02 4.667857287512449660e-01
4.392358751633853448e-02 2.495263890964103531e-02 4.964450359843179394e-01
-1.780400838563737671e-03 6.168951663357240267e-02 5.351056664494007187e-01
-1.644257069988021985e-02 5.972779742105838868e-02 4.621213594309108719e-01
2.417977728064746312e-02 4.746002498105970219e-02 4.664152478178532069e-01
1.081160233264344536e-03 5.864102422818325000e-02 4.607126781830108153e-01
-7.003781018474654688e-03 7.141926298839945675e-03 4.405601545236292327e-01
8.126036680609195414e-03 6.414586460374663290e-02 4.651905144678323278e-01
2.555695635743153449e-02 2.422199618418386519e-02 4.559325329285310313e-01
3.017017441711386527e-02 5.785107162434787592e-02 5.029560573486054897e-01
3.773670885661515456e-02 4.689615153348599547e-02 4.961764024008694651e-01
3.613705138798403022e-02 4.784438142573570890e-02 5.030115271802131360e-01
-2.547867218033625369e-02 4.734986253397145683e-02 4.557781587646324573e-01
1.155451314901913620e-02 7.901350252322361656e-02 4.813284085332464324e-01
-2.703852825989027514e-02 4.053877481927456450e-02 4.519889837388511022e-01
-4.214348040236027410e-02 -1.743688563190625828e-04 4.412106928465879818e-01
2.569172801715410848e-02 2.610902525109016353e-02 5.273289828975328275e-01
-1.096307331573983211e-02 1.283267395718618725e-02 4.420005789001716923e-01
1.879823549202025781e-02 2.882845815469207637e-02 4.549846737166303168e-01
-1.291064628272239542e-02 2.422485195859238119e-02 4.460510436759516639e-01
1.377690111286241845e-02 1.351547096556149179e-02 4.469709148733660986e-01
-3.637052030916456541e-02 2.577744672096831530e-02 4.464145837100303993e-01
5.153037256661136857e-03 6.085290560813869098e-02 4.627153923081086528e-01
3.654273559671541299e-02 4.648680374981190022e-02 4.792656958515196797e-01
8.177222157071721564e-03 7.174159911010219437e-02 4.698145442062717780e-01
-1.886993890626352186e-02 2.597494657865160803e-02 4.460771507315935414e-01
1.272784717268942746e-02 3.769751643160461352e-02 4.569648700355194437e-01
1.687710399348807053e-02 5.429734296095030388e-02 4.651783848920540976e-01
9.193592145626995268e-03 4.241750691135563051e-02 4.579238367018157452e-01
2.074188877115626384e-02 4.078056719819266041e-02 4.614029315258145192e-01
3.757187723335599083e-02 2.274071917610197974e-02 4.633594850761756367e-01
9.824516139480611240e-03 6.685026392859254318e-02 5.101467246591929738e-01
3.394648178743974159e-03 2.847535636515739418e-02 4.509002055942810672e-01
9.409740173522501694e-03 2.385301743969410644e-03 4.415818828228634807e-01
2.307924221637666293e-02 3.335546579708911080e-02 5.290302581749013466e-01
1.101447457411890499e-02 6.541897976270541482e-02 5.162289516901057418e-01
2.250225583898293399e-02 2.430637669207707380e-02 4.543640269261302045e-01
4.242874393380390019e-02 3.392870823425944704e-02 4.927136767874457646e-01
2.937408356157066372e-03 1.482208160615717391e-02 4.452552428669652174e-01
-2.227981254464261873e-02 1.188214479583604016e-02 4.404947607785819064e-01
4.245752521119831174e-02 2.351492344964057138e-02 5.023589758969636554e-01
2.072981968390170612e-02 5.961209861549107702e-02 4.694607447485401597e-01
2.491725370191090125e-02 6.764436980088132934e-02 4.804153618480027088e-01
-2.048111338838800449e-02 4.207912982075607405e-02 4.530639682699975634e-01
4.052272323379626368e-02 3.896404437580001934e-02 4.798256838416642966e-01
1.932933263315441547e-02 7.379015463291598020e-02 4.967439951024491540e-01
3.044614828034006640e-02 5.123498238584332787e-02 5.110560428938156763e-01
3.076590917530205166e-02 6.765475830929548219e-03 5.300754095452816506e-01
-3.291978113480048540e-02 3.148736493215405219e-02 4.481386599538931259e-01
6.545625507823194314e-03 7.859863188635748954e-02 4.781794263692929481e-01
4.404732399428993098e-03 1.258722016149892847e-02 4.446407823986763264e-01
1.555093151583777401e-02 6.235088507163994570e-02 5.208206024569043135e-01
4.337805035118214025e-02 3.060801973902472356e-02 4.917436127453765904e-01
3.055598030877329507e-02 4.073846130814635230e-02 5.157411622824776831e-01
-2.634344861468462806e-02 4.448560671336253269e-02 4.541031604070062122e-01
7.891147200663594513e-03 4.874576142307405352e-02 5.333253922606207009e-01
1.490886422218456325e-02 1.055496046126337857e-02 4.460140253104832864e-01
1.777361324130689174e-02 4.576562677991351941e-02 5.257947532076064912e-01
1.784331086109098435e-02 6.314535309445216960e-02 5.169878902511688690e-01
-6.698242461591275704e-03 1.193082658729979761e-02 4.423525282316780882e-01
2.783899062818877973e-02 6.332672542374939706e-02 4.975299124567989506e-01
4.233819457040885470e-02 2.706477382033882495e-02 4.733528506987496609e-01
3.472835089322893337e-02 4.181573435705233932e-02 5.096912812708052076e-01
-1.426948389505794043e-02 3.479357852284133829e-02 4.506065684105714508e-01
2.031062698971311965e-03 4.930311022440147378e-02 5.384065805342866939e-01
3.456112956958962146e-02 5.294478127175192977e-02 4.941077949387630563e-01
3.192325977376293811e-02 4.215280967087797065e-02 5.136905388436984188e-01
1.249075080182204985e-02 6.898913131031038370e-02 4.692817280314517947e-01
1.607106959609065286e-02 8.319963234587959833e-03 4.454136827384601593e-01
7.187530710547879349e-03 4.988961815087186030e-02 5.329564746001059783e-01
-7.564182249802898009e-03 5.492795286183208003e-02 4.583998875576678622e-01
1.777067917466632757e-02 7.562424045847968013e-02 4.824557836084888973e-01
2.589748236441124282e-03 4.141732335337607041e-02 4.559401753422808179e-01
3.243304683373626068e-02 4.240874586795437967e-02 5.127674479888385539e-01
5.018354880225766451e-03 6.376453620121544374e-02 5.156880072144922611e-01
1.949597409769851519e-02 4.792965637337738560e-02 4.639277872300628380e-01
2.348602286594405134e-02 6.877823371001488828e-02 4.973705265424091526e-01
1.800457018019453390e-02 6.943812169316185279e-02 5.056164343167167674e-01
-9.136669116233795199e-03 4.486009809047952768e-03 4.393186298935860545e-01
-1.682912779363698527e-02 5.199502582598540534e-02 4.573206797732388695e-01
8.208343022835597885e-03 6.870407265805354713e-02 5.068224856638539055e-01
2.174121332873567292e-02 5.819103830708893116e-02 5.172481298906792535e-01
3.699063547901221272e-02 3.615708748915463094e-02 4.703131573098477403e-01
1.853789439165922509e-02 4.763295971662934863e-02 4.633080908824390720e-01
9.506736577260740950e-03 4.676609906149573059e-02 5.337945216819444116e-01
3.652447322998211149e-02 4.042265504524648889e-02 5.078776570795584533e-01
2.139862828068977638e-02 7.105935598329217451e-02 4.977763387542966655e-01
-5.702573680736785361e-04 5.921902711161467631e-02 5.184248206967618788e-01
-2.097887717018024831e-02 7.433702663520994590e-03 4.390319546925192107e-01
-2.463303947494416279e-02 2.133376168283749111e-02 4.440197838632745087e-01
2.436641364527498965e-02 9.322501127167391599e-03 4.487337309056481094e-01
1.183746222138055103e-02 7.683252150415004200e-02 4.870443056111700697e-01
2.419902032115760215e-02 6.842110207575288761e-02 4.802245200664110314e-01
3.795892503798625750e-02 4.264182740407854166e-02 4.781686040161612361e-01
1.859291811579241727e-02 6.364213325916891206e-02 5.155290489353151484e-01
1.210139975788367649e-02 6.403601064128988662e-02 4.666366550461106266e-01
-2.089146673425414796e-02 2.348611001511375154e-02 4.448744014548132730e-01
-6.901872311442318851e-03 4.977704852473463504e-02 4.569386089469731904e-01
1.964863032254094560e-02 2.599408234552469041e-02 4.540171846386485965e-01
3.317814447145513851e-02 5.542323461427012266e-02 4.947624126995712190e-01
-2.172099486593354403e-04 4.955014358737165614e-02 5.389477773183537490e-01
3.487635920606683287e-02 4.639906163249784415e-02 5.074031057176067172e-01
1.816210361659723396e-02 5.992755565475482715e-02 5.199550913154578069e-01
5.043611543637757134e-03 6.262371228511058596e-02 5.211431870149172418e-01
3.695890009907447371e-02 4.919212424546719892e-02 4.898069620185244166e-01
2.930462360641852837e-02 6.066025746212162784e-02 4.785570347597815632e-01
1.895866935430315370e-02 2.181143125170032990e-02 4.518348987602615607e-01
2.891093246095490302e-02 6.326654899064446114e-02 4.852062415151608410e-01
1.363829735839267032e-02 4.430144942406138292e-02 5.324234246950503291e-01
2.265187162010335112e-02 4.237188352280342463e-02 4.631200160694590173e-01
-6.702666249677585383e-03 1.246149981956062467e-03 4.385459144359076245e-01
3.662868121901199751e-03 1.979256270624505862e-03 4.403509434157211744e-01
-6.172999485792252106e-03 8.824124250163899175e-03 4.412730967336880861e-01
-2.056749753935276440e-02 1.624648737686263181e-02 4.420984301889266943e-01
2.229058761527129978e-02 7.018823533309741236e-02 4.792674471067402409e-01
-2.115594141351424470e-02 3.560912884196740930e-02 4.501672254507262383e-01
8.920697423427563846e-03 6.317037888421422887e-02 5.246818883862287564e-01
4.745622608205416273e-03 6.018935594720439125e-02 4.623219812020056274e-01
3.852441240172160136e-02 4.460300340169998101e-02 4.992701520011727512e-01
3.055070826722474514e-02 8.910785061193979631e-03 5.277466363816170070e-01
2.755176275594623317e-02 6.019953339393298991e-02 5.070016035758073691e-01
4.455434547652232027e-03 3.068229732915081498e-02 4.520300037841222252e-01
1.601831494780384113e-02 7.518594825334264098e-02 4.978299256742624301e-01
3.430825729991188178e-02 5.140103479692073596e-02 5.020073858534852551e-01
2.116842478676836045e-02 7.389189234755685898e-02 4.912336999194746867e-01
3.210072000671827797e-02 5.695867996553276302e-02 4.815609057569687490e-01
-2.162961059046176679e-02 1.912706473719599093e-02 4.431993909586189884e-01
-4.295912964362889191e-02 3.535627334346180123e-02 4.506743460610705410e-01
2.090989979477712174e-02 2.102138173859354614e-02 4.520585071719935844e-01
-2.264383847973918534e-02 5.875668272461115338e-02 4.638403626633250121e-01
1.852958144544927799e-02 4.907539882265019721e-02 4.638903827874588659e-01
3.106684717247823468e-02 3.571296584447490596e-02 4.650351890229821872e-01
-3.983781547740568654e-03 6.618133473408172041e-02 4.648479114030371062e-01
4.290081253392355465e-02 2.531055053339007280e-02 4.733742124603276258e-01
-4.174112314391073553e-02 2.309731072906809346e-02 4.466624008201937612e-01
8.049872152348976767e-03 4.505019308049511284e-02 4.585501446289176886e-01
3.708769630574670212e-02 4.123683753201741464e-02 4.750678157276369551e-01
-1.920785150477704456e-02 4.826340104582577811e-02 4.557723449275399852e-01
2.912602221580275555e-02 6.144395571258316063e-02 4.985407283477196749e-01
-1.883149434408072989e-02 1.275109227324461303e-02 4.407801166947055704e-01
-1.070599596411798277e-02 3.613112853364340571e-02 4.517148040709785262e-01
2.437382230480177048e-02 5.586020624824534347e-02 4.707297676395122421e-01
7.274313670848249480e-03 7.110081807347794214e-02 4.688221400772970560e-01
-2.590475367255628408e-02 2.720578896830589365e-03 4.381322829798107721e-01
1.842689052426203788e-02 6.140283166589714792e-02 4.687246680688001432e-01
-1.752197413617953212e-02 8.149120687155907844e-03 4.392375855496957748e-01
2.216662737152882458e-03 3.287647363081550728e-02 4.524677583068729692e-01
1.027487667605807113e-03 6.021454412329326628e-02 5.202841922448143697e-01
3.412011308977285634e-02 3.810334351865692082e-02 5.117902230849120659e-01
-4.723739165717754859e-03 5.526225292450420018e-02 4.587829945049208824e-01
2.749823583910084024e-02 1.418471075016488822e-02 4.524777082658305027e-01
4.017779581154345275e-02 2.731178544251955734e-02 4.690273440693010221e-01
-1.806274224247592791e-03 3.866477013983411759e-02 4.540170747381651051e-01
-1.320995205213873827e-02 2.625936815219894263e-02 4.468367755647787987e-01
-8.188721543294467942e-03 1.053160777341011212e-02 4.415851662223279073e-01
-1.259349387244890726e-02 1.396983071847634691e-02 4.421576217118369789e-01
-3.833384413484598741e-02 9.761508517368237131e-04 4.404528540686990512e-01
-1.370814052179833778e-02 5.852836790853219867e-02 4.601876568227014630e-01
1.366075715884956104e-02 6.926544988237741396e-02 5.097565010747923120e-01
3.268809754829099523e-02 4.104251548919590764e-02 5.132302769599297321e-01
-2.680587497331170937e-02 2.725178528345611681e-02 4.464170428807210933e-01
1.992802397055241231e-02 3.876686798535870088e-02 4.600047063303244754e-01
3.578427152736968209e-02 3.047912315638645273e-02 5.126359076039017637e-01
2.891818199323398231e-02 6.306544547613050777e-02 4.834050261716261176e-01
