1.480084716104416998e-02 1.340707974109987474e-02 4.471257548027564588e-01
-3.174741837593677424e-02 2.255613044253507518e-02 4.447940635318257119e-01
2.890852400357371912e-02 2.295072367801720761e-02 4.571533391618741726e-01
-3.566091998757338344e-02 3.729919247129850207e-02 4.505778265971561170e-01
3.441769225682323602e-02 4.311091327304043819e-02 4.726869741314396745e-01
2.554515658728369332e-02 6.802499280572106566e-02 4.905269885640486938e-01
-9.992357351298268575e-03 3.836550443788744325e-02 4.527366939284304670e-01
-4.920087923528115165e-03 5.730878323485948805e-02 4.592427968629068102e-01
-7.059138519171408513e-04 1.158270738031074581e-02 4.432299573457184061e-01
1.596863708916064148e-02 4.481477884951182850e-02 5.281697794852332484e-01
3.469433506723773597e-02 3.150050520319565284e-02 5.138373770162090182e-01
2.210058182834019960e-02 3.596001101035557757e-02 4.596596407217746205e-01
-2.814937298966131707e-02 5.062636679747842261e-02 4.577328070333610555e-01
3.948515896945376663e-02 4.274016280550172603e-02 4.945616941735043737e-01
2.035301994996482206e-02 3.014393733854422303e-02 4.560492348447720556e-01
2.788464408666867234e-02 6.464890831769698476e-02 4.864098883244282745e-01
7.108088517865497266e-03 6.107095418644784696e-02 5.284041531122346536e-01
3.534825569796869876e-02 4.774476055559289528e-02 4.784952427531858343e-01
3.954135064354632328e-02 3.344977499380167446e-02 5.023781285714749023e-01
7.687634029561098842e-03 3.102154128223986659e-02 4.528464785840898843e-01
7.119565476027428855e-03 7.063525199243260444e-02 4.684246731498835636e-01
-1.826427686914549806e-03 4.824818371947366819e-02 4.570837798563704424e-01
-2.367950300025766994e-03 1.214095188163489582e-02 4.431437652981206066e-01
3.925476018568333642e-02 1.964818573838425161e-02 4.633999327879437802e-01
3.650626935652265259e-02 4.787922906433252079e-02 4.819389054543712914e-01
3.095690961001911629e-02 5.497763427225575705e-02 5.052454316513599331e-01
3.066182051172516854e-02 3.845218667685224023e-02 5.158740368435964507e-01
6.585106437225618850e-03 5.555052724339173964e-02 4.614936529519564345e-01
-2.261181032480223500e-03 5.437841544166260865e-02 5.404647611551320896e-01
3.236819928793622375e-02 3.116782745611869701e-02 5.190790767931383609e-01
2.461518040235609328e-02 6.533419094473703892e-02 4.768194125212918966e-01
1.080949221469110211e-02 4.881363542252971366e-02 4.607299928697652924e-01
-3.833746805130264224e-02 2.379694530039426492e-02 4.461054913299073443e-01
4.108606267303158838e-02 2.683292878417611188e-02 4.708241780562916201e-01
4.072363228710717403e-02 3.234204209549393361e-02 4.745025683394914484e-01
-1.134403633086308177e-02 -7.911200108053661681e-03 4.365020068060069258e-01
1.772573805906967753e-02 5.889688556726901253e-02 5.208323620241038787e-01
1.887217273485333399e-02 6.875963787795470739e-02 5.055345498957857231e-01
2.448087270324314849e-02 4.261632643760562833e-02 4.642515241301268247e-01
-4.134105597757326001e-02 3.992355923357428227e-02 4.541931688935257894e-01
1.068449138875871528e-02 7.956959246668203478e-02 4.794235278022290214e-01
2.394411998238506201e-02 3.585575279140248289e-02 4.605890755204177234e-01
-1.521510458791246363e-02 -1.595277649877317305e-03 4.370192519216175020e-01
-1.406563497776302032e-02 5.048000189813229427e-02 4.566004193819911960e-01
5.197696008860747986e-03 4.974468024792200183e-02 5.345554348632651775e-01
3.385875220111104339e-02 2.476070998338984752e-02 5.203469697898418511e-01
1.858380407822044639e-02 7.526077087417099021e-02 4.840666268738313960e-01
1.722944034011063622e-02 3.304768846684164041e-02 4.563410329075915928e-01
-1.814403329185374641e-02 -1.866877727896295615e-03 4.369225577544367800e-01
3.070267095350417280e-02 5.203244170562545262e-02 5.100121283617070622e-01
5.711733721900029426e-03 6.416579807060719676e-02 5.193571324723001981e-01
2.451758992069158830e-02 5.408260785106355772e-02 4.701191980978199902e-01
1.454626035387357637e-02 3.892855333265843321e-02 5.331634287633093550e-01
1.210602715709514082e-02 3.929968959902246234e-02 4.574283323972018200e-01
3.501731140226198302e-02 3.458824193412463055e-02 5.113097657360559101e-01
1.445626753639081552e-02 7.436007544013631398e-02 4.749861054702723684e-01
1.758836966440758404e-02 7.000283780505603404e-02 5.050973671270154730e-01
1.543336009237466014e-02 5.374673715265381596e-02 4.643614844627853011e-01
2.781983655430382910e-02 1.740317831448057184e-02 4.540578196657318322e-01
3.619689647609220743e-03 6.141105433628756688e-02 4.623956165692791886e-01
3.498307963003138583e-03 6.240861989290518580e-02 5.205652102000208892e-01
1.229353130425228126e-02 7.742770469625213925e-02 4.768562934941928955e-01
-8.763323819702890580e-03 3.610197884223192294e-02 4.519203125913893171e-01
-3.959868609997713867e-03 3.709783700383229715e-02 4.529416039482167533e-01
-4.763357286981540276e-03 6.077006542237965714e-02 5.295406258045526338e-01
1.102169573372023016e-02 7.060643609715847036e-02 4.696004936841007282e-01
3.505570436958486968e-02 5.115584005745027474e-02 4.961580029398965919e-01
2.638032696852131084e-02 4.139514499481781323e-02 5.196874728880762628e-01
-1.410336884606022689e-02 9.701760524778633987e-03 4.402086573759591559e-01
-1.352181191646398273e-02 5.130320972280762865e-02 4.569523178538198449e-01
1.138810929417342650e-03 1.877823531069323232e-02 4.464725905836086084e-01
1.438109767132123192e-02 2.148967442827469463e-03 4.424657419094869537e-01
3.485038322352856238e-02 3.642148866015667424e-02 4.683518274406485715e-01
-3.181826375565190851e-02 4.812215335861598497e-02 4.573785691152886246e-01
-4.428519018881467255e-03 5.764653120941822667e-02 5.393299682811618645e-01
3.852145555019170775e-02 4.319315630389317789e-02 4.801831796668661889e-01
-1.645256697976503826e-02 2.232411703946941134e-02 4.447816716624241051e-01
-3.658637482852838962e-02 2.063330649254549454e-02 4.448650281730209266e-01
3.438652230220979461e-02 5.197207392579111102e-02 4.978496034401485026e-01
2.704822718741400900e-02 4.892841128147303736e-02 4.694397693633050039e-01
2.049388658017976816e-02 4.676026870610244801e-02 5.220363328283438298e-01
4.267320891585124620e-02 2.919511735502506103e-02 4.962040591824006808e-01
1.445792851740496793e-02 5.965522973435041787e-02 4.659959246782237052e-01
2.471447556311242091e-02 5.179711105269737409e-02 5.174693288474103703e-01
3.466172908157974172e-03 6.263844540453823717e-02 5.311987571231999716e-01
-1.749007667054190696e-02 5.269579758515056250e-02 4.574325948904102712e-01
-7.756368539840970133e-03 4.972049419129943859e-02 4.567803600861213287e-01
7.941150709137218683e-03 4.630019048483847988e-02 5.354034454804722509e-01
1.821545430384312325e-02 4.003318332262664064e-02 4.597491752808591792e-01
1.917892875717467152e-02 3.167251746017776121e-02 4.563537580334196542e-01
3.135480540000890742e-02 1.687738763232459610e-02 4.560115278157988450e-01
2.284981495670266108e-02 5.381488914402234036e-02 5.184325193868191128e-01
1.011601166119583013e-02 6.473720032171680072e-02 4.660426324798808140e-01
-4.187624007076816597e-03 5.438418919551905872e-02 4.584509676459895267e-01
2.570900812751369599e-02 6.801243015501795552e-02 4.843082190725045422e-01
3.164879054816258780e-02 4.029332875850746842e-02 5.146407782987977297e-01
9.259540263978894431e-03 2.353254958515086856e-02 4.500556837099101704e-01
3.509680888744321891e-03 5.043802597919920527e-02 5.361176404689848018e-01
2.427451185439574374e-02 6.368016717793459347e-02 4.750316962212364769e-01
3.549988246013389970e-02 3.374929363989125075e-02 5.107579467754628233e-01
3.456402245734801343e-02 2.588909583735739608e-02 4.625080844521722856e-01
4.395181945578432309e-02 2.469039184585317820e-02 4.761253068625753149e-01
-7.246760954171004021e-03 2.949708141739281961e-02 4.492260131573312942e-01
-9.570611474439254945e-03 4.990772731855959432e-02 4.567545521254670060e-01
4.418133046921875889e-02 2.183446692983793611e-02 4.741619509645709774e-01
4.335461976057029126e-02 2.404406187102966011e-02 4.738339648733031484e-01
1.936663242053797418e-02 4.642499072440657570e-02 4.633031938899861979e-01
-6.845013840369968544e-03 5.718615185102307596e-02 5.263093943161851751e-01
2.216645607897031744e-02 4.025944690492719302e-02 4.619025957803289950e-01
3.685931174016310319e-02 3.441364622617809621e-02 4.689640642202096976e-01
-2.030734810371880028e-02 5.523389156941502232e-02 4.590091361715291640e-01
3.278752667332150705e-02 4.865573158749438715e-02 4.751078928131272638e-01
-2.125317662799790577e-02 3.036304457360076980e-02 4.477253810047165938e-01
1.019497742635065707e-02 6.502717876907192218e-02 5.186745685802212069e-01
-2.006484741676614614e-02 5.994262409934184022e-02 4.662265615606082658e-01
-2.791572379984101279e-02 6.866327351686978345e-03 4.393319465536745794e-01
-3.037743903088278852e-02 4.808500279500874108e-02 4.570296131430945374e-01
-5.697901732414052157e-03 2.388273291514513702e-02 4.471594392479787961e-01
2.807485864640273804e-02 6.468942673881451777e-02 4.899083033514862184e-01
1.870872610525039018e-02 6.322620324684881388e-02 4.697965305573799655e-01
2.475216908091638218e-02 6.792886716207556519e-02 4.941738478326829220e-01
1.068200745709577473e-02 7.811804146893018552e-02 4.845305919832717523e-01
1.586456174987116788e-02 6.780398562369598092e-02 4.703243834356644060e-01
-3.898768182764482393e-02 2.315266499241088426e-03 4.406441991935080571e-01
2.690646356688947832e-02 4.533780134647739934e-02 5.171442314964677101e-01
-1.492416637964598392e-02 3.439771976930337816e-02 4.502745861472202127e-01
-1.315506736105383559e-02 9.613245635228109126e-03 4.403477160283024716e-01
2.184390753032683027e-02 6.482824632890868410e-02 4.733833397058917480e-01
6.415347002629100126e-03 1.500864333850825127e-02 4.459962138155530997e-01
4.419720038073031432e-02 2.610393830741133264e-02 4.794715480912780659e-01
3.855501549176225395e-02 3.128876404813211998e-02 5.053877151162713410e-01
2.356054800236257948e-02 3.010720717472806923e-02 5.284164620648522659e-01
-3.788722763551904960e-02 3.219662903866435388e-02 4.485427679725849104e-01
1.807429995496208711e-02 6.626419129958181775e-02 4.709247914649388189e-01
3.623721094922707081e-02 4.668960244446879182e-02 4.792183177664294247e-01
2.221123913470273228e-02 4.187788875368778779e-02 5.241971121495379027e-01
3.028243876539818413e-02 4.074223024860889469e-02 5.158197837715673417e-01
-1.361465038470728930e-02 5.060668418316546097e-02 4.566846284348640705e-01
-1.479564137458533324e-02 4.185575458956518335e-02 4.534765037333919335e-01
1.561589566928715984e-02 6.121943384895681822e-02 4.672407115928731702e-01
3.522881431700252558e-02 4.569233867125451626e-02 5.065333309612755075e-01
2.753341978430432629e-02 6.978517916281663444e-03 5.307850353549234956e-01
9.302026208273745170e-03 6.847784244823820754e-02 4.677140707247208207e-01
2.005802794039572914e-02 7.140390436938000296e-02 4.991481397774163997e-01
3.075920118517472962e-02 5.206934326650349693e-02 4.750129594349667972e-01
2.149594431329085106e-02 3.899083877264405886e-03 5.321936123423831599e-01
9.474001488370223725e-03 6.552929583376145006e-02 5.154988678413162662e-01
-2.147642864475688904e-04 6.256094092026256992e-02 5.269726474835650931e-01
-3.002443667997684116e-03 6.410013880224003924e-02 4.633299230064633623e-01
1.343933513720056531e-02 2.867159133978773242e-02 4.531872780354554986e-01
2.503924501525914975e-02 6.727349895996279083e-02 4.951357019609785026e-01
6.363108045094605265e-03 7.516335221590780824e-02 4.732596516657538999e-01
2.644310824885740333e-02 3.471844486851574652e-02 5.256151974091433088e-01
2.918727679180586551e-02 6.233745970116929408e-02 4.929153850247126600e-01
2.734365049803364617e-02 4.384098732383719110e-02 5.171083134226618361e-01
2.268477886623748024e-02 3.568172470194846957e-02 5.289998232504018461e-01
3.986646417015786426e-02 4.029600363138908375e-02 4.801077149893125395e-01
-2.211055036961944928e-02 4.600312248764884537e-02 4.546330439268379542e-01
1.931367000417064626e-03 4.265690172788753204e-02 4.562008452907630462e-01
4.333937015717635038e-03 4.821862196907129861e-02 5.367509570924465789e-01
5.556546838996991771e-04 4.349902345300104417e-02 4.561614634355382614e-01
2.793429035035519328e-02 6.464230140402368874e-02 4.916865892601262611e-01
2.288114511559059816e-02 2.453348936318048082e-02 4.546776247987330266e-01
4.655822900320480927e-03 6.220867477705727816e-02 4.631758469447912474e-01
6.077940470266805090e-03 4.541437627746458539e-02 4.581395805499806628e-01
6.695423000073280617e-03 6.319263247636455749e-02 5.278957541085178562e-01
-1.307256755981988164e-02 5.935783651048749665e-02 4.606658351789497674e-01
2.092340643996478192e-02 5.472261562677883939e-02 4.675711019839487448e-01
-1.392246486086140198e-02 -1.722982626332526714e-03 4.370679853014384775e-01
1.046731821643010971e-02 3.271094914460120906e-02 4.542051230726332212e-01
1.771402812569534274e-02 7.462739443967211783e-02 4.791992793386360416e-01
1.400484364512065774e-02 5.672388382143118274e-02 5.240528343420552959e-01
2.985429576649210881e-02 4.483153884253786303e-02 5.146829488804494090e-01
1.722880588155702858e-02 4.582727602216175866e-02 5.259306907711222001e-01
3.517411181833765728e-03 6.242497636475654449e-02 5.206998138500071871e-01
1.916100824846050932e-02 5.759652351765282702e-02 4.676490600191847702e-01
1.979825403694083358e-02 4.863072770120613342e-02 5.219432786951588854e-01
-2.235710072261586079e-02 2.315026962294618879e-02 4.446650541754406105e-01
8.183289921264857644e-03 5.953387088284076145e-02 5.276673148945217884e-01
-2.458939328793561044e-02 1.752692086357810625e-02 4.425117962366319491e-01
9.753093568854339507e-03 7.563107092238249840e-02 4.922638239355447420e-01
-1.870999915943707612e-02 4.674642233927032986e-02 4.549925235673013546e-01
2.253245822615256369e-02 5.884863046740849979e-02 4.707538023132001870e-01
1.417756696737562834e-02 7.657987565704844901e-02 4.875357319486727792e-01
-3.947801744181699685e-02 2.895026411889497012e-02 4.477451506259584324e-01
2.090300823438401637e-02 2.124870517503728989e-02 4.521692173901558087e-01
3.629217772058866698e-02 2.736238791477950405e-02 5.128239733201788164e-01
6.617484715683899163e-03 7.936422061652052828e-02 4.781674878090179659e-01
3.932944561442811710e-02 3.995657740332404090e-02 4.786934132351074456e-01
1.642764212021671777e-02 2.982531451395441235e-02 4.546451171843471917e-01
3.139154057043552770e-02 5.564905765302853580e-02 5.022746426383285501e-01
4.478230166742074025e-02 2.593956909926762797e-02 4.897339586932415445e-01
2.534609840069674755e-02 4.639496299479704822e-02 5.181307361368336917e-01
2.269749734755987028e-02 7.019041176269288917e-02 4.809983136689487959e-01
-1.200334359704424009e-02 2.856401365094418318e-02 4.479839882581250210e-01
-4.601046410273872296e-03 2.549361655242826999e-02 4.480584611100122960e-01
-3.575592560561088873e-02 6.468295490976209115e-04 4.394704493883671570e-01
5.306584121836116323e-03 5.758768864266101267e-02 5.303327225169688353e-01
-1.981827297159963544e-02 4.874153989308694507e-02 4.558512674845995871e-01
1.429401932842955768e-02 1.648313199058545897e-02 4.482946931242355326e-01
-1.795698987366035199e-02 5.942505492866324152e-02 4.619629803879310437e-01
-3.738983032674327023e-02 -6.947437892618332431e-05 4.400748690507511607e-01
2.932609993451783595e-02 1.993072588784125521e-02 4.560493322120393600e-01
4.057438397569298333e-02 4.038818412846412881e-02 4.912007799916855988e-01
3.254247650093865935e-02 2.760815147637402447e-02 5.214337955954936321e-01
-3.182562995055235322e-02 1.038033426450766031e-03 4.386960985233479549e-01
1.446534772017079966e-02 3.141237878987395565e-02 4.547288612219939630e-01
3.243288126988717185e-02 5.005862393098958751e-02 4.756928952117878140e-01
3.000696686350151632e-02 3.612076056929564016e-02 4.645711448702975477e-01
3.136333350400515030e-02 5.185514919135106315e-02 4.755570888908259297e-01
-1.365768723317925190e-02 5.741745327830176382e-02 4.591906321843056138e-01
3.013564015989748934e-02 5.845462756841367929e-02 5.010842748625794485e-01
-2.612846201783743626e-03 6.201677443869847706e-02 5.290000527398869279e-01
-1.244700174238913201e-02 2.110822262884513249e-04 4.375505545330557466e-01
3.921457761788046253e-02 4.362736785107261539e-02 4.871320070026718407e-01
-1.404233046842142969e-03 6.229156835367685024e-02 5.346294308982658672e-01
2.436237714686370973e-02 6.161668138386843657e-02 4.739221149833637847e-01
3.321999523761159229e-02 4.752707587360199132e-02 4.746335843419424716e-01
1.586029170041750730e-02 5.336845040253269945e-02 4.644198985555559323e-01
9.046111907791516346e-03 7.524584366253717072e-02 4.939860213563270763e-01
7.770510788326185150e-03 1.070730008117290466e-02 4.445186401491995065e-01
-3.808269137260894555e-02 3.856134970124146244e-02 4.518683527950935752e-01
8.756534841470774849e-03 3.513915896875732109e-02 4.548353132024873235e-01
-3.507575691440605742e-02 4.399481949148500298e-02 4.553185220370082886e-01
-3.344830991353379274e-02 2.354978716362974428e-02 4.453005894627444228e-01
3.281920495737874338e-02 5.361561844232594354e-02 5.016064430769714422e-01
2.021805746970950501e-02 3.697586789183665568e-02 5.305285568815925057e-01
-1.932242405956466000e-02 4.475315770375835889e-02 4.541590470013885938e-01
2.358403333712882216e-02 2.024407887952819202e-02 4.530341890331299193e-01
2.877406984404859078e-02 6.297238752227335423e-02 4.841545177747464401e-01
4.168992151611698033e-02 3.638127414684331346e-02 4.873581584570133574e-01
-9.350529822841640096e-03 3.668260553245218658e-02 4.520935922782294836e-01
-4.002779490973242676e-03 5.920099132299230793e-02 5.367809794538156432e-01
2.591279844491765211e-02 2.610108757720835601e-02 5.268780648578949011e-01
3.161959015161236626e-03 7.600121647964230495e-03 4.423302787811161929e-01
-3.190046046639211357e-03 1.948660567391426006e-03 4.391723467636162725e-01
3.744194464010692364e-02 2.284089308044260844e-02 4.633637974155340178e-01
-1.520345873926648612e-02 -2.056493519831474690e-03 4.369299766992479350e-01
-5.512615335278274117e-03 6.093425183761314728e-02 5.313194342193694464e-01
-3.943601432382846245e-03 3.263606167073843101e-02 4.510925437418120132e-01
3.380904827179439381e-02 1.827107582130950078e-02 5.227081967715324629e-01
8.297211551643436309e-03 3.293216201477302402e-02 4.537905220704132603e-01
8.446544651020982189e-03 2.270265415328297232e-02 4.495237309149849869e-01
4.005838077732860880e-02 4.102737993909584546e-02 4.951415049518844147e-01
2.649471571384191815e-02 5.086894361974654555e-02 4.700192338852168250e-01
-1.265730079830565749e-02 2.075225701670061276e-02 4.446990078980165850e-01
6.456687740065613842e-03 6.338886749391084430e-02 5.263883481236522055e-01
2.748806981100825747e-02 5.142533802381094726e-02 5.141989678104181838e-01
4.377714363745751486e-02 2.990796737193391827e-02 4.893039270146434250e-01
-6.377954242323062573e-03 3.217751659807131098e-02 4.505281971583056655e-01
2.417295555501091514e-02 6.119317442145794789e-02 5.111434070232997451e-01
2.878425809483902212e-02 3.354934044737636900e-02 4.623928182792048092e-01
4.057927736463176616e-02 2.665871160170518381e-02 5.040943482128659170e-01
1.054477975610637781e-02 4.860603939392990624e-02 5.302725769250609122e-01
4.034979856645925372e-03 4.964298446013224592e-02 5.359981025483919748e-01
1.766279827156296348e-02 7.007271325660878458e-02 5.049506741215908923e-01
-1.724068930123970073e-03 -8.649523215278568516e-04 4.383935036205572899e-01
2.369082683136660913e-02 6.521005461979821616e-02 5.042881328982333766e-01
2.023109858322925947e-02 3.588279776929299142e-02 4.587220561130691543e-01
-6.101474081921846870e-03 1.491556968326750859e-02 4.435681601321750378e-01
2.969018158664103735e-02 6.164168297597541479e-02 4.856722127889807616e-01
4.107575001229866497e-03 5.075694035399123255e-02 5.352070518813324407e-01
3.266581853406322344e-03 2.781490949981398064e-02 4.505624513178482227e-01
9.610574366390029627e-03 6.760480507735772138e-02 4.673202848854076663e-01
-2.277746207424117056e-02 2.399937844210204771e-02 4.449858734212503442e-01
4.748881756652541773e-04 6.534120576533646030e-02 4.643550463625350511e-01
1.470950189299630347e-02 5.041922628330615386e-02 4.627854329344652795e-01
1.908939339405993363e-02 4.703126586163212941e-02 4.633926056699166907e-01
-1.952427599962659917e-03 5.994584618740562976e-02 5.352857228679017698e-01
1.557244842775940170e-02 6.578854087953775465e-02 4.692446427129960407e-01
1.916843558491948540e-02 6.157883793769190761e-02 5.170901556785946207e-01
2.124913814971532075e-02 7.050571444881470473e-02 4.984813416986685897e-01
5.399197999308300716e-03 5.334854148347093622e-02 4.604326751372069260e-01
6.263023306302331096e-03 6.662376791940724519e-02 5.084795928902386963e-01
-2.469639165617288148e-02 3.498788321866400097e-02 4.494987071246110411e-01
3.830643852173137853e-02 2.806025352009077975e-02 5.082345855327666806e-01
2.485829916957838382e-03 2.521188688282305357e-02 4.493317045656441411e-01
4.285361296799023584e-02 2.525094951731781875e-02 4.735184948726626764e-01
1.746141671708320228e-02 7.532793264079722106e-02 4.955987440372849329e-01
5.483956735074264378e-03 5.694623152797703008e-02 5.305103645573030491e-01
-7.008917007262385063e-03 5.451490169241984818e-02 4.582104327703075963e-01
1.804816246762510831e-02 6.639848517911467463e-02 4.709762834144295418e-01
3.248808667329325384e-02 5.670489988368412893e-02 4.924424378901980370e-01
-7.866235584836345218e-03 1.506431807376274259e-02 4.433358269318424805e-01
-1.752866701910233901e-02 2.607046032555577694e-02 4.461857687280619267e-01
3.713554130362518857e-02 3.303986248996961667e-02 4.685331355090617267e-01
2.535351074949077771e-02 3.985061652969193458e-02 5.214229026034044034e-01
2.252961590826909125e-02 4.182521379841083742e-02 5.237798674309007696e-01
-2.453890025868944377e-02 -8.650326082837098141e-05 4.374619525646996077e-01
3.344379883114060453e-02 5.068603247709409232e-02 5.057605093576564848e-01
3.796071102172766942e-02 3.690415648470568577e-02 5.053823255042458884e-01
3.994812631362212874e-02 2.850066487896588813e-02 4.697864679444901381e-01
1.601427863096554702e-02 4.751700416428707163e-02 4.620901665400742875e-01
1.078239709342584431e-02 6.182428833619676989e-02 4.652013101855096422e-01
1.339461786190534499e-02 7.107648519957270039e-02 5.067010529283432207e-01
-2.132659144954954927e-02 5.446495907263403796e-02 4.586271535806635269e-01
8.368293692865687305e-03 2.131027554099774318e-02 4.489352980458198861e-01
-2.816427495845285831e-02 3.492788677216328297e-02 4.494330141132197309e-01
5.403160281894303640e-03 6.612491870984815723e-02 5.080875384413556795e-01
2.799423043568595795e-02 5.162429204882312828e-02 5.134461849130154132e-01
4.783361655583334877e-03 5.825144992801797178e-02 5.304122250859043541e-01
-1.676510129460821730e-02 1.746694801403293404e-02 4.428499270783360364e-01
3.398675420101656894e-03 6.314887772914153097e-02 5.294900763916893238e-01
1.840506438548009799e-02 3.880172746165514580e-02 5.314938684861963969e-01
-2.792454409353763156e-02 4.614153475355455697e-02 4.551829574002133061e-01
2.121860302571496049e-02 3.321883576809099570e-02 4.579156321217296988e-01
5.362599432943608926e-03 7.767557794792857850e-02 4.794698008904467734e-01
3.313991952541700536e-02 3.643966131909606720e-02 4.669778474399073342e-01
3.747360107267876106e-02 4.501459109213631210e-02 5.018590478050666270e-01
-3.889647900770287336e-03 9.019877293005053309e-03 4.416689934751169555e-01
2.336140138109104800e-02 3.073050890323425141e-02 5.285492270762175426e-01
4.325144504297496334e-02 2.956822885417977748e-02 4.804697680941887317e-01
3.630603165563824064e-02 2.699150447728525942e-02 5.130019573833429769e-01
1.797392214547602340e-02 3.355181910639623566e-02 5.312325335405364557e-01
3.568965477504901923e-02 3.828904035016451879e-02 4.701878174221311713e-01
2.296841717712690828e-02 5.911538706975202201e-02 5.145531579683770840e-01
-7.826901182637756305e-03 5.787871269212487013e-02 5.301783132114373798e-01
5.456813951426038242e-03 5.518559229341501657e-03 4.419343055593503711e-01
1.742753523689911238e-02 5.969466737896456099e-02 4.675267716606533175e-01
3.606968563329109034e-02 4.450799062690909830e-02 5.055468913754295190e-01
3.876056691343715555e-02 1.866027363267173597e-02 5.163244577802006408e-01
2.235888337197805206e-02 3.879571271732087934e-02 5.276143789644327509e-01
1.950994460976844536e-02 4.956087827128389384e-02 4.645991374560579090e-01
1.295286158162307910e-02 5.700418377648754087e-02 4.644111853218843011e-01
1.662254015956479009e-02 7.020847019718699789e-02 5.056527781147431844e-01
3.318269809621369332e-02 5.218154973655040468e-02 4.789692079435469152e-01
-9.457053150787259402e-03 1.603624078666145841e-02 4.434410551033377001e-01
3.030109118401118004e-02 5.630470666510544592e-02 5.045768011599585101e-01
-2.961677859183379016e-02 2.104535460510230035e-02 4.440391569298453578e-01
-2.949718970919223537e-03 5.829635105624746128e-02 4.597459866006866069e-01
4.044658378583217834e-02 3.105307140716693365e-02 4.729103155433612149e-01
5.339002659574616089e-03 7.866511088931636003e-03 4.428611275228290789e-01
-2.895896424502185026e-02 2.908698168680464054e-03 4.385593754810742650e-01
-2.313730712631193245e-02 3.263520039783275595e-02 4.485426479028863378e-01
1.823024628808014164e-02 4.957855863909501476e-02 4.639732851458311380e-01
2.138680141414378046e-03 1.073549483100085140e-02 4.434145143199595962e-01
9.416134138339003062e-03 5.641923490182929740e-02 4.628464443165893893e-01
-2.634414367162548481e-02 4.947240972359996658e-02 4.569747955375266790e-01
2.196811976907213360e-02 6.829587368362086131e-02 5.010509412328034706e-01
3.944748414853282981e-02 2.272026096329849212e-02 5.088515523594436818e-01
3.117226559207600736e-02 5.836514775359151475e-02 4.815249423108161619e-01
2.216234664967247150e-03 5.116406726732863897e-02 5.371914240192360301e-01
-1.802438749910868169e-03 5.475071305266328292e-02 4.588280601209274723e-01
3.430598412893075266e-02 2.815494433849270381e-02 5.172744861189153553e-01
6.460328405205472899e-03 9.184743037199301352e-03 4.436287050384800645e-01
1.473356758345083922e-02 7.151048151065281244e-02 4.719596171355693315e-01
3.711803334909288127e-02 2.410599470595601104e-02 4.637921145499839248e-01
4.400223402423417141e-02 2.443534392429405275e-02 4.961944874192635857e-01
1.291209234181962427e-03 4.859090060468924249e-02 5.381868354293245504e-01
1.654339037162252599e-02 7.059539215366446296e-02 5.052497812732101856e-01
2.852841103144366716e-02 2.569347422153406280e-02 4.582240469910416336e-01
8.656251363000595084e-03 7.216957951817914996e-02 4.997823571884452143e-01
2.680157890362107678e-02 3.742692519388955003e-02 4.631771811066659472e-01
2.134158572693456088e-02 7.044743920102142232e-02 4.983940366967926083e-01
2.356333841456529146e-02 6.672413680582944817e-02 5.005915072161585266e-01
4.079902595059884535e-02 2.727417370768370902e-02 5.031002881056946263e-01
2.767959458210430407e-02 3.253018902671156454e-02 5.254014273718241590e-01
4.766077721118143137e-03 4.428851504813456630e-02 5.364311571825700620e-01
1.740841121201621572e-02 6.773489353113557043e-02 5.082411554568865286e-01
2.219813557833278522e-02 6.918654131643041383e-02 4.989184369368506733e-01
-4.150506989640505295e-02 2.255428332785088669e-02 4.463539693556975441e-01
2.033958262504845585e-02 7.307595358135082764e-02 4.819598221719032516e-01
7.352430271408116544e-03 6.141408574149948008e-02 4.636620204055508232e-01
-1.667034357432688879e-02 5.557360051526079314e-02 4.586973365648636669e-01
8.821430805482194729e-03 3.641050496387186752e-02 4.553802243387198301e-01
-1.372270666523511817e-02 5.134506782523407670e-02 4.569515090253445933e-01
-1.961765436850108901e-02 5.522740428982070293e-02 4.589440178991604502e-01
7.208401308061619314e-03 4.178345125078084671e-02 4.571384191181950274e-01
3.153858126397557360e-02 3.904272661081390622e-02 4.671534587027413310e-01
1.394843202268836180e-02 2.108432870537920584e-02 4.501279336083717775e-01
-7.050806629835747533e-03 4.494276746356819230e-02 4.552943758284662135e-01
9.635350231593904635e-03 7.312866097698508816e-02 4.715930369962011981e-01
4.330576475293396177e-02 2.665987792536692741e-02 4.761378554396393237e-01
-2.567476833424072596e-02 4.005973800804057960e-02 4.516595871642660187e-01
1.542492993517066528e-02 4.276569882563271974e-02 4.599563872828218436e-01
1.708957166902234578e-02 3.558327945174907803e-02 4.574300149098516899e-01
1.992810258899788134e-02 7.153031905949797098e-02 4.777350777846036123e-01
6.098269493880508450e-03 6.527306515506254084e-03 4.424703847326527106e-01
-1.008635663463153254e-02 5.729404294901887379e-02 4.590133304610586329e-01
2.682608306956264094e-02 1.667864819580534841e-02 4.531656420512368277e-01
-2.919909231931360274e-02 1.547080831646970023e-02 4.422441958027195086e-01
4.062238548960754592e-02 3.797118087252612795e-02 4.970166661736123426e-01
3.777048510812565374e-02 4.459479484179000586e-02 5.013987778040281951e-01
2.880999812807908192e-03 6.150432005445735650e-02 4.621766584489230834e-01
2.270287355625725048e-02 4.166942642582344147e-02 5.238337816073154185e-01
3.755366942823089998e-02 3.738172962582166775e-02 5.062535625573727494e-01
1.090684370008344201e-02 7.917664749068779872e-02 4.786334616150664800e-01
3.531908410405565357e-02 4.965483174329671928e-02 5.015354994828059576e-01
3.043606226000522205e-02 2.070937574113319510e-02 5.245179871985703457e-01
2.366813135793136014e-02 6.516226338097733106e-02 5.045225653432339197e-01
2.599551774472851767e-02 3.930411242039392322e-02 5.208641882050792926e-01
5.349585441197335194e-03 6.005798677043983763e-02 5.298988514552124274e-01
3.617503724079699362e-02 3.934409465601335781e-02 5.083095215583262050e-01
2.711911088810657275e-02 5.509376036491945433e-02 4.727487348147448309e-01
3.993725135194300946e-02 2.819850501828367537e-02 5.044529184601498351e-01
-1.413004520875917394e-02 5.328326449511154583e-02 4.576419263962189787e-01
2.766708702903977052e-02 5.203926660328993953e-02 4.715893883802722009e-01
-5.003238589202704117e-03 5.519485646187985428e-02 4.586148448964880164e-01
-2.449055827443836347e-02 2.756111948663659064e-02 4.464146201830851424e-01
1.921075524934275774e-02 7.310136461981923961e-02 4.790566700350983864e-01
1.383089265954827798e-02 7.162237896985558516e-02 5.051742918340773603e-01
5.757089414431449184e-03 4.436511377835919423e-03 4.415552777100064108e-01
-3.075965859258338042e-02 3.715642330612876909e-02 4.503652109199963727e-01
-2.046814971828353133e-02 5.741730153947072895e-02 4.604845441277113371e-01
1.463657172416443254e-02 7.765162886222524985e-02 4.849173430958796382e-01
2.827892746228258258e-02 3.321331898482796779e-02 4.618823587100365224e-01
-3.776719790096715480e-03 8.780462212905019298e-03 4.415957430483523627e-01
4.341044575061270283e-02 2.412692157293511164e-02 4.740610070055557568e-01
4.363059526308603331e-02 2.982460810111935839e-02 4.861925930937120444e-01
3.992138007952285988e-02 3.163781537825820223e-02 4.723457707538704642e-01
3.399182305497059492e-02 3.310565393684312269e-02 4.658730338366012247e-01
-2.211378462769494901e-02 2.035483475646871626e-02 4.435994342436067606e-01
2.782916915742069189e-02 2.345519522387242740e-03 5.330576796627146674e-01
-3.027780688710149035e-02 4.108371700908303864e-02 4.521683740540827778e-01
1.030445445774668366e-02 7.534090266355678023e-02 4.949002262517042117e-01
1.182763030089049178e-02 4.665376738432251008e-02 5.310463657878727872e-01
-7.631781106071330346e-04 4.213674531083103775e-02 4.554602502844660727e-01
-1.286528357481988433e-02 -3.274335288282019529e-03 4.368877022143929367e-01
-2.412807131200854840e-02 1.453760121375663808e-02 4.414150752800147792e-01
6.928811335130386981e-03 7.480789352109146195e-02 4.729664092596562175e-01
4.309096695006123245e-02 3.187775944278299634e-02 4.876790545283263278e-01
4.351290704907011253e-02 2.407303403149723894e-02 4.742958657373989029e-01
-2.727214627094963571e-03 2.430480712485455150e-02 4.479318795973044054e-01
3.140458895764822178e-02 5.784785147850065451e-02 4.814461842967923122e-01
-2.481304879669677093e-03 2.033953017331338597e-02 4.463853382530916791e-01
9.455375262155481589e-03 4.313509523101552445e-02 4.581933085298142139e-01
2.995740425260448939e-02 5.246818771312795199e-02 4.743320679327819867e-01
3.677832591207928076e-02 2.272054815604129807e-02 4.626804708044799375e-01
3.200572766756643907e-03 6.230578682535981017e-02 5.188041726387702113e-01
7.582620182184668378e-03 1.266669321179525291e-02 4.452860209432138450e-01
-4.947522162111837180e-05 6.025651491846967939e-02 5.196990015276177211e-01
2.543987271371877384e-02 6.562376527678114024e-02 4.986667506920853254e-01
3.820567743030285623e-02 3.950277245681720756e-02 4.759379837987060546e-01
2.145241169609908918e-02 4.176098746502648201e-02 4.622473674179464753e-01
4.477333405466648458e-02 2.516779986390366153e-02 4.814998092861031975e-01
3.381372367371109772e-02 4.566902628618823429e-02 5.090770620730419305e-01
2.078958237356387517e-02 4.199023512223194754e-02 5.263318111681858369e-01
-1.565203451088554090e-02 3.353124859168696292e-02 4.497830032734973504e-01
2.024018721031730500e-02 6.337067302537853497e-02 5.134714794364969581e-01
1.133400712146325276e-02 5.589801337684624505e-02 4.634028960525993779e-01
-5.440162680282373091e-03 6.275571569101848213e-02 4.620958319319533047e-01
-2.713641085146525390e-03 2.786043825496133455e-03 4.395265374487537513e-01
-8.715032784597103593e-03 3.379429027786120393e-02 4.508927369571522070e-01
-1.287999379712096402e-02 2.988971203520922326e-02 4.484180285418247203e-01
2.664363905985705355e-02 2.983789919109165398e-02 4.592256697583525504e-01
3.448940506992964616e-02 4.510497997441773044e-02 4.744094468746175575e-01
-3.807480168617229099e-02 2.549845006359808056e-02 4.465335887548462224e-01
1.658185414894204623e-02 5.318232609275104494e-02 5.230060424575539990e-01
9.829636584482326356e-03 1.091340230987688717e-02 4.450152550488198910e-01
1.279787706714100547e-03 5.498914346936054770e-02 5.347309282393714058e-01
-6.038450848491878215e-03 6.082070193995286339e-02 5.389034067279732110e-01
3.493849587339936669e-02 3.208530449669394491e-02 5.124721331485466713e-01
-1.991354534375763818e-02 3.722038729404213847e-02 4.509535548621339540e-01
3.802017622068989272e-02 4.656353124728528775e-02 4.882688456259198229e-01
9.054420441646606962e-03 5.254281187202158171e-02 5.296020343567484634e-01
8.219997138645298088e-03 4.873494537101200758e-02 5.324935932612913092e-01
-1.845844486112458577e-02 2.977212162651263899e-02 4.477352862930096822e-01
2.647425374280536897e-02 1.313315781389830066e-02 4.514864757227169401e-01
4.027602742662304142e-02 3.775713407670960170e-02 4.993609355194380539e-01
-5.891095073986035886e-03 4.204374673011188751e-02 4.545033356636035693e-01
1.616026960846750045e-03 4.837979721756872215e-02 5.380604938031928741e-01
-2.414201274627763086e-02 2.986998383638184845e-02 4.473209376814185623e-01
3.248734875600380045e-02 2.081972857088712492e-02 4.585307197298869597e-01
-2.500548530830916990e-03 6.642513725096703403e-02 4.649134982139574990e-01
8.924391246799851657e-03 6.739926630264163332e-02 5.095220549310484071e-01
3.595960444813144086e-02 3.714049610925734823e-02 5.086047711632328827e-01
8.478852324436937649e-03 6.528270128570133612e-02 5.158546079229655579e-01
9.025122973248070682e-03 6.969131653372925839e-02 5.069638023207109212e-01
-2.597774625731503334e-02 5.052319155500241410e-02 4.573330114080803588e-01
3.914589564174577457e-02 3.955897852636371809e-02 5.016302077271221904e-01
2.735901929340607552e-02 5.806629320886994017e-02 4.747119937621625541e-01
5.595781075546132910e-03 5.493285069389943626e-02 4.609642687922161364e-01
-6.662711172658435273e-03 5.578797363304070084e-02 4.586292685869151065e-01
1.238206291791208238e-02 4.654741132378271279e-02 4.604168169711835290e-01
-3.512300418470644392e-02 1.950173167359117374e-02 4.443123164344758291e-01
-4.412602773504627901e-02 2.832812791187577089e-02 4.484668296998197690e-01
-1.878318162977641453e-02 4.562705006773855321e-02 4.545365800832009695e-01
4.134530119488484534e-02 3.323381734287860628e-02 4.767934940296775781e-01
2.544588465859363990e-02 8.898014345217631488e-03 4.490759436597975274e-01
4.291889670312875465e-02 2.115326127887483254e-02 4.706664019507698082e-01
9.249102986865199300e-03 6.847374308008520594e-02 5.084972534213160200e-01
3.146715054351113816e-02 5.856804284451648523e-02 4.924457955087639949e-01
3.800000040866593348e-02 4.145880675898622192e-02 4.774536786296940116e-01
-2.918309480470586068e-02 1.278288587088667952e-02 4.415320662785406358e-01
-1.987936669073090551e-02 5.964891664753774192e-02 4.633484985743591134e-01
1.627373867745235056e-02 3.934290344917756865e-02 5.324598172541487040e-01
3.466467146770382118e-02 4.638512735913627449e-02 4.757048988006322143e-01
-5.985573093254853601e-03 4.735463237409632403e-02 4.561473005726453533e-01
5.476525888231205050e-03 5.099445242018444541e-02 4.597495869356208464e-01
2.103362970231185264e-02 3.821313635024001926e-02 4.603137893444286810e-01
7.264472876898131481e-03 2.490583365167760646e-02 4.501746860208544199e-01
3.745677724820335730e-02 2.718469993099263335e-02 5.105028841449231747e-01
1.212700528253912377e-02 2.074268993029463118e-02 4.495702588923036203e-01
2.947080972485614098e-02 2.515514250288279630e-02 5.242909237025079605e-01
-3.927736736686540664e-02 3.767248778312012186e-02 4.515075151696636424e-01
4.457838545770985428e-02 2.634697060727499152e-02 4.841677970729073577e-01
1.233893986084637871e-02 1.338377163851699539e-02 4.465800828828030977e-01
-4.185183432973275160e-04 6.083179800230347628e-02 4.610838283587600506e-01
8.249802346042970844e-03 2.502409978595591944e-02 4.504489423683169513e-01
2.937237408935888285e-03 5.060998614583552685e-02 5.366873971004774146e-01
