1.077868629805319931e-02 7.963793884996257788e-02 4.809015292389106078e-01
1.566335179188189236e-02 5.200849761369241708e-02 5.246356527049236274e-01
-2.529832432090197911e-03 6.015014840005748070e-03 4.407429742754106483e-01
-1.013785881233171711e-02 3.717979665378531168e-02 4.523159022315740296e-01
2.844575527062218404e-02 5.813177263461371397e-02 5.071254539507398240e-01
-1.089704987325442777e-02 6.009423461398823857e-02 4.610181448602452270e-01
-1.071129318348208043e-02 5.898364872235471734e-02 4.599698968945203359e-01
5.464905796166853735e-03 6.675243726309405823e-02 5.077725045228377310e-01
2.470509920522781511e-02 5.670114592006252757e-02 4.719239141713683083e-01
-1.044367407231655727e-02 -4.147030415979312962e-03 4.369209442189276316e-01
-3.491476102519043903e-03 5.866606418360637010e-02 5.251707992016446669e-01
1.510142623723108660e-02 2.705091175945519358e-02 4.531413499514000964e-01
2.981360763216282447e-02 5.761316670252863287e-02 4.775470544859443112e-01
2.622031331152065853e-02 7.429967689872050973e-03 5.306505993900956231e-01
-4.484795005794765463e-03 5.978723888881667253e-02 5.282881546949466101e-01
3.025902400753612345e-02 2.770091736985237640e-02 5.239423651999334242e-01
6.737740615587298892e-03 4.965406580301379158e-02 5.333174081887113172e-01
2.947892147219397657e-02 5.898683945419285618e-02 4.779690630073191171e-01
1.455907546762452362e-02 6.975239913408438908e-02 5.082794701724056008e-01
2.861568648752494531e-03 5.911500129804208442e-02 5.323733796757280645e-01
1.195775525143607382e-02 7.011162909573330493e-02 5.089364032876606547e-01
-4.405384789556546915e-03 6.344960443857443344e-02 4.629963480990118563e-01
3.855992416933334832e-02 4.210703788042525347e-02 5.015599492040816454e-01
3.361037303991729758e-02 1.498267241361284086e-02 5.243867381865755517e-01
3.058157318555109958e-02 2.379984664119627613e-02 5.237225623850875200e-01
2.802270863452710481e-02 3.255103110607213829e-02 5.252002735223310070e-01
-7.607039736468478551e-03 5.635833764772624210e-02 4.589454100878378462e-01
3.299683614652175467e-02 2.954337068122847576e-02 4.634328753282404567e-01
4.945982220259347029e-04 7.123584615356295946e-02 4.725163342844844738e-01
4.118240761198693756e-02 3.573774777493310406e-02 4.964018476943580782e-01
4.784928019669703290e-03 4.799142781402724461e-02 4.588748118757931538e-01
-3.548467447506454663e-03 1.788656008224025901e-02 4.452434499985092886e-01
1.079877710832313764e-02 7.530600372009178811e-02 4.957140157850333240e-01
-2.166316108603257712e-02 4.618006835782933334e-02 4.548325762502217762e-01
2.242830122938623341e-02 5.600904459071067570e-02 5.182325882893202840e-01
2.239243188788527308e-02 6.716874562536326310e-02 5.024902393423318347e-01
3.748910113230112529e-02 4.567866115595380777e-02 5.016829713600733376e-01
5.417191165443128835e-03 2.480222554202590052e-02 4.498766640732712596e-01
1.946566918841135391e-02 6.759914388592308532e-02 5.068585222849292249e-01
-3.055268413843212176e-03 -1.296753538516852954e-03 4.381161835392541337e-01
2.842204182759444642e-02 6.244286934905984854e-02 4.805764237382934012e-01
3.356997752661637635e-02 2.804944857729954263e-02 5.190928985153825392e-01
6.368208418744024032e-04 5.836602946561988275e-02 5.340125168245365428e-01
1.869818332878503755e-02 7.233776372990637082e-02 5.000033674528304717e-01
1.970892120203255465e-02 7.067688800640427316e-02 4.765531822132238471e-01
1.848973435460649073e-02 4.409601029873270323e-02 5.260845734419201669e-01
-1.371547119841773008e-02 5.523956063924201354e-02 4.584956020666291487e-01
3.836679444552678481e-02 4.376770847128370889e-02 5.005742215152683139e-01
2.213334468547705977e-02 4.835626975691043744e-02 4.658455306740805768e-01
1.096911620313108064e-03 5.890847108576110353e-02 5.336677942223977400e-01
1.276810433436704681e-02 3.881014104439853372e-03 4.427933887956655989e-01
3.723780153991494007e-02 4.815974978867178236e-02 4.918295459065759045e-01
2.274434715038734650e-02 3.333384236631039416e-02 4.588978053672452817e-01
-2.483132405866182030e-02 4.235309471541517934e-02 4.528020352902233925e-01
-7.011649567219626310e-03 4.721496294008184491e-02 4.561893672221457585e-01
2.779673825789948094e-02 3.353830347130566658e-02 5.249497814431984821e-01
2.773922683644579595e-03 6.322753411910508881e-02 5.257798234296913176e-01
2.193599154533883502e-02 5.510554296727289414e-02 5.194718346824931388e-01
2.959986856354306431e-02 5.516444697110820666e-02 5.096892358958965419e-01
-1.891434704456367369e-03 3.134740400421397177e-02 4.510599293805510057e-01
1.628743692416035477e-02 6.963335057418749974e-02 5.070097178633998780e-01
1.404505570350537622e-02 7.624546273892326975e-02 4.911200439170249066e-01
3.389135349048839202e-02 4.736449943762072873e-02 4.757160849257869861e-01
-9.138225020860783407e-03 5.719072584507926826e-02 5.320414758098386265e-01
1.585356490186389661e-02 7.557327577356261206e-02 4.795625729924469782e-01
-8.181204096300095582e-03 4.734375633128759531e-02 4.561240647069833565e-01
-4.576241817080678280e-03 4.369234776424786582e-02 4.553737442331785568e-01
3.576826375753707626e-02 3.543129155257560003e-02 5.092045472675685858e-01
1.352345730039952905e-02 6.764378387234518120e-02 5.124124308691975216e-01
2.721343543796989409e-02 5.367421460608835793e-02 5.138768923916250397e-01
1.538391329015703808e-02 5.669148882143490442e-02 5.237364888261987206e-01
3.533708387357929748e-02 3.058939584888744831e-02 4.659886547420591385e-01
2.163902987883455087e-02 5.555081655337706925e-02 4.688433829771688766e-01
1.402092585579113246e-02 3.037686985151281591e-02 4.542871445049504464e-01
7.488024798786930072e-03 4.762261822583360726e-02 5.345998067732831149e-01
-7.984807810981587456e-03 1.442975481016331440e-02 4.431173457118295911e-01
2.603500730327158036e-02 9.166920785892086060e-03 4.496192334064254559e-01
2.421194937449815815e-02 6.495541284336706078e-02 5.037632515027942182e-01
-2.688867265135538864e-02 5.172052382799563648e-03 4.386611583264597436e-01
-2.619685643777421025e-02 1.932991683318778520e-03 4.380336477655843996e-01
-3.343801562418459439e-02 2.872559849484303610e-02 4.470764124357998748e-01
9.923860786481115970e-03 4.420857277920629824e-02 4.589817832326479330e-01
3.788302032259008995e-02 2.322278683148501846e-02 5.126285513353370238e-01
1.651219240473428967e-02 7.439825513455482209e-02 5.002351214767901677e-01
3.985611397266465572e-02 2.918615241435242036e-02 5.040908305354799834e-01
1.523081775315143077e-02 6.218312088253612202e-02 5.213562289265980532e-01
5.532692054058563694e-03 4.634887059850982538e-02 4.585697366939886499e-01
-3.692580956411858559e-04 6.248694169321685615e-02 5.278579270218495267e-01
3.312695226764227063e-02 5.562408750721058170e-02 4.919230423205717684e-01
-3.563234417132219584e-02 3.109758676742993902e-02 4.480215884623484079e-01
1.886620403629047510e-02 7.054255861238152570e-02 5.027689925923941594e-01
3.422241779248880178e-03 6.569750024302320468e-02 4.650927201933044430e-01
3.563515332270750235e-02 3.962488729989543934e-02 5.094793239848912636e-01
3.758949633523911427e-02 4.733615076863520454e-02 4.932395205039515340e-01
7.429561150769500508e-04 6.075300246051773545e-02 5.235242413465132083e-01
3.818351301680020585e-03 7.182305125321537809e-02 4.717468655430973046e-01
-7.446073245326452830e-03 1.442174035233966325e-02 4.432036645670883179e-01
3.337857341001063821e-02 3.867237913833571766e-02 5.127228860829525781e-01
-9.940746695574491539e-04 1.941734914205643647e-02 4.463835555744928296e-01
-2.826470119015632183e-03 1.859369104684833671e-02 4.456779829984524599e-01
3.432092524662978816e-02 3.100096252574899985e-02 5.149660606388362094e-01
6.018680424794364825e-03 3.608846625964866328e-02 4.547602857300585555e-01
3.959719965065695152e-02 3.818092571101231597e-02 4.777533528402037599e-01
1.857890980847677967e-02 5.353627794894668529e-02 4.660440758803969796e-01
-2.843004234036857966e-02 4.930030514962144977e-02 4.571819399025488506e-01
7.307345427342794644e-03 5.739353495968321783e-02 5.293474458689272355e-01
-3.653045823804262904e-02 2.758371404396335602e-02 4.469040358531073953e-01
2.913055527723891480e-02 4.416935145651015165e-02 5.161369569235867427e-01
1.610234847160710303e-02 3.655363486545217672e-02 4.577364213904694945e-01
2.696414731386816491e-02 6.621182265437441927e-02 4.901720068268580199e-01
3.489481859716354190e-02 4.771827828316378695e-02 5.058520135111765903e-01
-4.855888439883452624e-03 6.090262662466006116e-02 5.383663595018609582e-01
-3.256241589187265639e-02 1.996430720251685109e-02 4.440651977175136822e-01
-4.189616264073392493e-02 3.090445434824164173e-02 4.487842265084272531e-01
2.047892701102151450e-02 7.395590740835575327e-02 4.927717934282757062e-01
1.433583008071933132e-02 4.925299310768279509e-02 5.268867245478060513e-01
2.066276128244532231e-02 4.657020959598031501e-02 5.222372249615307993e-01
1.363692139146171697e-02 3.992781411131653829e-02 4.583863720924470919e-01
-1.499949169133823687e-02 2.609693022125544534e-02 4.465100459812591516e-01
3.816918347014727764e-02 3.116173266708872902e-02 4.687713979109816020e-01
6.261290716532339623e-03 5.994990321881844830e-02 5.297561669054159372e-01
-6.252604886287112425e-03 4.656968409499436662e-02 4.560706117670592086e-01
6.945309240456297439e-03 6.455037730853482869e-02 5.156894209972118226e-01
7.104001685054647103e-04 1.171693844524966145e-02 4.436057410496858644e-01
-2.309130630767914846e-03 6.156141814767927128e-02 4.616974957865636053e-01
8.985667313932223232e-03 6.998432639688009771e-02 5.071205643360262583e-01
1.033639364468654648e-02 2.942967038076695421e-02 4.529440923682480080e-01
3.450551700050982773e-02 5.314656228968176604e-02 4.870542415276753467e-01
1.881510130348772528e-02 7.438312384945902633e-02 4.962152164140529176e-01
3.966081776494895239e-02 2.658909526153760070e-02 5.063780327591411723e-01
-3.483634509951005764e-02 3.677477480391953824e-03 4.394795359509937605e-01
8.551144718278648471e-03 6.720560495903747655e-02 4.673518363207978532e-01
1.504134443438392456e-02 6.510969571939551059e-02 5.162311041042598747e-01
7.311459621053319202e-06 5.313441031631804812e-02 5.381553061617490030e-01
1.684204872313514387e-02 6.575671085897802359e-02 5.127866090102466412e-01
3.901197915700068547e-02 4.400266014242172619e-02 4.856694970936940026e-01
1.091680392553551898e-02 2.643192861672484864e-02 4.517991558041148381e-01
3.225624645776983823e-02 2.595886894019668392e-02 5.221512976108021453e-01
-2.044734224353356861e-02 2.623243108329217921e-02 4.460288197003320354e-01
1.507399902798910521e-02 7.707805633011831359e-02 4.868377384279932718e-01
2.296875725528218018e-02 4.141463678361392148e-02 5.236979170475705159e-01
1.864853868377534460e-03 6.186407020976641274e-02 5.169245143141680821e-01
2.790266940708857613e-02 1.985575577444159343e-02 4.553328854624241750e-01
2.091762629786242736e-02 6.723261721668724600e-02 5.054124498322120074e-01
4.455880511197403415e-02 2.713201353972279420e-02 4.896314183695328337e-01
1.065813552289210896e-02 3.446781936603265928e-02 4.551827657221319545e-01
3.533752071756490754e-02 1.373802479578318039e-02 5.235225940315778592e-01
3.524872498672678572e-02 3.922539633870856385e-02 5.100295179044224136e-01
1.532318541538927811e-03 5.724318724230396949e-02 5.338579129783014299e-01
3.891096453235044772e-02 3.934019083543227602e-02 4.775137735801278649e-01
3.153986145059380075e-02 5.857900632292280946e-02 4.888005390255447669e-01
6.044316291130084548e-03 4.447610207836592833e-02 5.369828567694784338e-01
2.719859652734859384e-02 5.038457490099135933e-02 5.155736326248659962e-01
4.343203128412304742e-02 2.722086456907388610e-02 4.952437943969225098e-01
1.276791752136199887e-02 6.139179700353503827e-02 5.245513319795576113e-01
1.234370794820849673e-02 3.192068666317592757e-02 4.544867367887940324e-01
4.150114923590899479e-02 3.370078074686327918e-02 4.967962742488838956e-01
-2.604958773927302119e-03 1.282508431885279188e-03 4.390568614174541473e-01
3.315986208594543655e-02 5.423907023134610234e-02 4.977943751681983553e-01
1.212029083901410009e-02 4.514282882571921812e-02 4.600794869369114748e-01
3.908235444126801489e-02 4.404619759520721906e-02 4.887146674394390322e-01
3.873015520907450993e-02 2.825748924430115938e-02 4.678419462459833533e-01
-3.590497286838839792e-03 3.903216290190513610e-02 4.538993721656690017e-01
-2.698648792311577130e-02 3.235032621608029818e-02 4.483951864834349599e-01
-2.840672554501278910e-02 3.813951352575909587e-02 4.508922438724139448e-01
-1.046402596950296755e-02 4.422584545146338031e-02 4.548821398099910374e-01
2.670759822804925909e-02 5.930563452171693645e-02 5.102304755305434592e-01
3.159742151130195270e-02 5.851308542450658207e-02 4.915325013965247680e-01
1.120957675263376148e-02 5.102912368021410294e-02 5.287405047271064307e-01
3.578965675251569167e-02 4.819235479027804414e-02 5.032897585629289017e-01
3.866200047712512605e-02 3.027280315727931201e-02 4.688374803108014133e-01
1.286922901641871647e-02 6.230867725449353717e-02 4.666965065209812691e-01
-3.049600864874859804e-02 4.014943748183402022e-02 4.518465522413086521e-01
-4.183762393783926198e-02 2.450965185896934392e-02 4.469679730156195796e-01
-2.384984831405433797e-02 5.433100885863888924e-02 4.590970245575526354e-01
2.759059266200549615e-02 2.594080957186138681e-02 4.579997603623476299e-01
7.909597904918710259e-03 6.127969281883012542e-02 4.641904655433128912e-01
3.592785585965766609e-02 4.977428929562865978e-02 4.839170575357532589e-01
3.786563603775448816e-02 3.622268772056285585e-02 5.060172189488315597e-01
3.374268808484616466e-02 5.349195452963684261e-02 4.964472623390236983e-01
1.535207245229260921e-02 5.767849535696260160e-02 4.660200571500393574e-01
-9.733614458406411596e-03 1.402138963584050393e-02 4.426677902300366063e-01
-5.395661204340364454e-03 1.470356928526031504e-02 4.436539613188777986e-01
6.083172802251742006e-03 7.001569988950491485e-02 5.017507484650691740e-01
-2.309842493680326625e-02 3.925980993924035878e-02 4.516043660321059638e-01
-1.507171888466735804e-02 4.458634128548013761e-03 4.383985217008628532e-01
4.114219080604103462e-02 3.863895823695804449e-02 4.933454695307267768e-01
4.339489654513454392e-02 2.481980142439387318e-02 4.977024831830552110e-01
4.176078955130636816e-02 2.692102716683524022e-02 5.005692164712330916e-01
-5.982743163185873236e-03 5.922690653298565838e-02 5.401550659698339807e-01
1.921898771377865064e-02 6.269047373644928700e-02 4.703523769958286582e-01
3.584944032297295718e-02 2.681606946408494896e-02 5.141774912329032388e-01
-5.124218438419094260e-04 5.983990984540978053e-02 5.184265976961357492e-01
2.935599130480184143e-02 5.695875955212597458e-02 5.065210429523697711e-01
1.938799136280223989e-02 5.780783722128189986e-03 5.314803464405991607e-01
-5.842059507037351482e-03 3.968264861275545147e-02 4.538454665480467498e-01
1.719669727387003813e-02 6.090612090191648703e-02 4.683243635252024029e-01
3.652908331301019107e-02 2.022213626712891441e-02 5.182479472845729074e-01
2.707421739844775854e-02 2.965875887316161974e-02 4.595794501555855449e-01
-3.596297660093184662e-02 -1.018993847839241894e-03 4.395984736464593756e-01
5.825452526735736686e-03 1.897672636738174240e-02 4.475769829587457616e-01
-2.796552764977853350e-02 6.835342182744225462e-03 4.393474829203708465e-01
-2.093717190509626451e-03 5.415891953720738949e-02 5.401749362499783658e-01
-7.724406154591670695e-03 3.370565609358969206e-02 4.511082412109705397e-01
3.823404830178640974e-04 1.979639274412468841e-02 4.468155058713223493e-01
1.190343539651106744e-03 6.255714195213091244e-02 5.328620472511957917e-01
2.530800276050567538e-02 2.685553015118944536e-02 4.572230826402966519e-01
-3.025410888401014117e-02 1.810068450156296360e-02 4.432377232841023251e-01
2.437668990943757386e-02 3.705437014770626702e-02 5.263404195854800571e-01
1.111067798094746498e-02 7.435478274233624230e-02 4.999657190485048419e-01
-2.484620540388824718e-03 6.046027681913887508e-02 4.607839828343528454e-01
2.786318028796801183e-02 5.933899803857518168e-02 5.067573604426085510e-01
5.307177029539324707e-05 6.183882538816661001e-02 4.622984348611097749e-01
2.976013147047258320e-02 3.489492237903678989e-02 5.192830932612920725e-01
-1.317016436108352229e-02 1.330793448536272613e-02 4.418019476654281297e-01
7.670987760702643876e-06 5.640370884592203760e-02 5.354280537676828766e-01
-3.803753954961237686e-03 5.802953825820328371e-02 5.225827777905374116e-01
2.185230130827176681e-02 6.749425306170563077e-02 4.756876993613370908e-01
9.106900920642124406e-03 6.813079354872031423e-02 5.093621264335601584e-01
-2.006232910851486750e-02 1.036876524261572986e-02 4.398873024891294947e-01
2.728552699479688814e-02 5.350729387876806270e-02 5.138675646122213836e-01
1.866265671200801474e-02 4.431404455858835301e-02 4.623094198849211356e-01
3.603365765416674527e-02 5.037518796304110702e-02 4.916613551104789814e-01
-2.170329514710826052e-02 8.221514128564384044e-04 4.374161789590053639e-01
2.283447658826933194e-02 7.034349838107235853e-02 4.941194128844259570e-01
3.055645899908943086e-02 5.120186827165280896e-02 5.110381040440667988e-01
-1.176941830883435069e-02 3.711373682275148633e-02 4.520454645540952221e-01
3.162129347091095083e-02 4.794083614248974279e-02 5.113679118657649125e-01
1.901523914249111935e-02 7.508952919835536199e-02 4.860527912415751883e-01
2.411527051477853692e-02 6.243190867598357591e-02 5.099720907435359996e-01
1.369950045833768192e-02 7.051018578489889888e-02 4.712124685940651259e-01
-3.664318236203206042e-02 2.375053404739307233e-02 4.457812720166886011e-01
1.540542292057936469e-02 3.030956664902845210e-02 4.547029175210641760e-01
-2.319253661893390210e-03 5.505874717605937357e-02 5.389830094796558280e-01
-4.366142144740028930e-02 3.526340308017693326e-02 4.507021255150586159e-01
1.015506396830400185e-02 4.424732450300671027e-02 4.590752350165561158e-01
3.499925864092753164e-02 3.691474267522323882e-02 5.103391116178226383e-01
3.446395958110051033e-02 3.988758767061498234e-02 4.702758319936921616e-01
4.540118707507882767e-02 2.387769104819760860e-02 4.870107340614571179e-01
2.791781761055690467e-02 4.323559681135481086e-02 5.172454348033073135e-01
2.517949300190983758e-02 6.430412983738889587e-02 5.034326448940672494e-01
-2.684749162933596639e-02 2.845964581487351458e-02 4.468225589755357996e-01
2.668475224154978620e-02 4.967745450475194446e-02 4.698957472743142127e-01
2.025720703771676737e-03 4.932843729829804354e-03 4.411179260486142173e-01
-6.285344157694120783e-03 6.494919621301071394e-03 4.404170938739445096e-01
5.126369656235094455e-03 6.937451671311439805e-02 5.019143475509731944e-01
1.157339230043913890e-03 6.156565739426725359e-02 5.244299615876676368e-01
-4.830895608179184078e-03 5.661733757481814122e-02 4.593181204789402172e-01
6.605453029453862805e-03 7.714775603052320685e-02 4.814067078704265534e-01
-1.934035229665538591e-02 1.097567465046916761e-02 4.401064166780204734e-01
2.767185226068067175e-02 5.970749024400721916e-02 5.066864904858389140e-01
-2.201634188613291708e-03 5.073209322360588969e-02 5.403315516507116723e-01
-2.740752627612939862e-02 3.553340816030683968e-02 4.497590980305817832e-01
4.241075984907531626e-02 3.424899190104459257e-02 4.919117163261377823e-01
2.167709143576029493e-02 7.223344133600331785e-02 4.846417159625092674e-01
-1.267253735600570169e-02 1.929327756241597941e-02 4.441801367753837604e-01
1.440794853334002694e-02 3.774041835491295793e-02 5.336155633216111971e-01
-1.476164509541232767e-02 1.840878127198557028e-03 4.377735905741834688e-01
4.119897619424513213e-02 3.657980148116866254e-02 4.807648278112903739e-01
3.124529717298102881e-04 6.181010997840739873e-02 4.623152143115785706e-01
7.019376972318221077e-04 5.796212324778915459e-02 4.606468738989529244e-01
4.508550822876608924e-03 4.686444631677947475e-02 4.584410261693281918e-01
-2.495433294739545296e-03 2.035205628509446571e-02 4.464606136205268028e-01
3.359309820369636018e-02 5.206170584336770185e-02 4.804375345962482724e-01
-6.780890367822979894e-03 5.617092362076551298e-02 5.409176561570483432e-01
-2.006845469828924620e-03 5.679646733305762640e-02 4.596727485852550310e-01
-1.516694439958932161e-02 -1.024115171805981038e-03 4.371567274583096352e-01
2.532432697181957737e-02 5.021410318715745225e-02 4.690621078260368004e-01
1.349399343893556598e-02 7.622360119008173007e-02 4.900822427004616899e-01
-1.135184572390965548e-02 4.501562345184435820e-02 4.550614640354659901e-01
-6.499776259415168678e-03 5.750887701688495168e-02 5.268727173423711774e-01
3.625995598435622497e-02 4.535604106864313950e-02 5.047764205638167745e-01
4.347668030622214158e-02 2.606785193536564904e-02 4.762510827464705998e-01
-1.694123678881887321e-02 1.335204587487450259e-02 4.411712693083125747e-01
-1.106488251445297138e-02 5.038199880997094177e-02 4.569975657534264823e-01
2.173523371361033713e-02 7.241115248305475538e-02 4.854080237678383147e-01
1.734935155154291447e-02 4.041454660438957569e-02 5.319721552930231079e-01
2.253860169286583948e-02 3.887827216537376174e-02 5.271573257420575365e-01
2.854749170066043368e-02 4.754908097034442338e-02 5.153309733861762831e-01
2.568148480520301979e-02 3.746645649762823244e-02 5.239344196796342779e-01
3.288328456772772468e-02 3.872622756343652162e-02 4.683027135251631723e-01
1.766479656142710269e-02 5.411463994718301862e-02 5.225370352896814286e-01
3.393993896663791143e-02 4.997993778534642884e-02 5.056779713538802623e-01
3.559454085377959653e-02 4.839040061614415661e-02 4.805991081288432665e-01
1.532170774994962362e-02 4.870015247957557719e-02 4.626215044163562440e-01
1.097639113565774399e-02 5.327882076122987531e-02 5.279431291763766465e-01
-6.874332381588866767e-03 9.720920512355060369e-03 4.414986669571342448e-01
3.034075094897313238e-02 2.766191531339699805e-02 4.605265440461289161e-01
1.736153399621638560e-02 3.468661461762518466e-02 4.573273957840504611e-01
2.150114161315382078e-02 7.311627340244385154e-02 4.908563132387281369e-01
-2.288292329543606049e-02 4.396707419160827968e-02 4.536460093588144393e-01
-2.493500551374365146e-02 3.796999176375207008e-02 4.508620835810793759e-01
2.907686352216875755e-02 2.669427264033592123e-02 5.250020256340726110e-01
9.215055414097386363e-03 6.547701733012029068e-02 5.127539549076747250e-01
1.195864608953920577e-02 7.021953082852758210e-02 4.702284220440608453e-01
2.514650611869075070e-02 6.871253486712156078e-02 4.873961474671530958e-01
2.418934270000584752e-02 3.939077265031661057e-02 4.627759054104943481e-01
-2.368073829661359458e-02 2.875008279046593201e-02 4.469030954465010863e-01
2.344027466754087380e-02 6.422273225807523245e-02 5.083423187032326540e-01
1.126152741310597685e-02 6.868683837673941750e-02 5.101397894223014262e-01
2.177822674743492073e-02 3.352424102054470806e-02 5.299038923909855647e-01
1.948458226733356530e-02 7.500420451834430291e-02 4.917679622805616879e-01
2.282938106415248469e-02 1.488995065645049368e-02 4.504409268107961717e-01
1.752203246089140479e-02 6.319969144979325354e-03 4.450139256547680500e-01
1.957141493082818415e-02 3.985283033268272740e-02 4.606006767453947326e-01
-4.021950855151660426e-02 3.417829613982317077e-02 4.496307235752541875e-01
4.124921455180377561e-02 2.511901205771998463e-02 4.701095508551081381e-01
2.237243553454685771e-02 4.020299406341907439e-02 5.259902715700806031e-01
2.179131108997002172e-02 6.274808813909985017e-02 4.726815965760401972e-01
-3.697863828820916864e-03 6.622877492743345362e-02 4.650610751561638501e-01
2.806681367799162066e-02 5.989959861448745926e-02 5.051296585636524394e-01
2.070306361958616434e-02 6.846996763644423722e-02 4.751483750379288384e-01
-1.406601662453202915e-02 4.153266763460931876e-02 4.535486179664849904e-01
2.359213081312849791e-02 3.563888811417446900e-02 5.282665357596739719e-01
-3.596513819262097799e-03 1.754669264567672304e-02 4.450984468490738477e-01
-4.485325356207458571e-03 4.057045981199675078e-02 4.543219399689198967e-01
3.202578789864744119e-02 4.314635694634441632e-02 4.702046727161433015e-01
4.042132807736522476e-02 3.761848965753288032e-02 4.789781542591778352e-01
3.482744372092057977e-03 2.507468468210305446e-02 4.495879694901209200e-01
-3.420107933113787635e-02 1.758871284484177927e-02 4.436796766732040154e-01
-1.804516501928882938e-02 8.766670238426883116e-03 4.393887033035051015e-01
-1.906528626553497321e-02 4.150158088195596978e-02 4.529581252109134981e-01
-4.285566397428475921e-02 2.920271420680800242e-02 4.484767471257133375e-01
-2.129965330325995013e-03 5.081344698812079175e-02 5.403888566290919737e-01
-9.339178799931610597e-03 2.268262615822721692e-02 4.460952021910246090e-01
1.742214306842251176e-02 2.796583025203755804e-02 4.543077398844896364e-01
4.935352289148367197e-03 5.476888543996314557e-02 5.324188076308430384e-01
7.907155588278577674e-03 7.112258750024597065e-02 5.017777176231232872e-01
-1.915865312963397488e-03 6.201907941170001215e-02 5.350123903782243451e-01
2.480583468849738293e-02 6.784852512412786751e-02 4.816598466009623936e-01
-1.069081637386806900e-03 -1.198189596786732557e-03 4.384268183310664480e-01
-2.621638682112502686e-02 5.106077798854141009e-02 4.577166736926059354e-01
4.022086913037003358e-02 3.341459077691947416e-02 5.009971049937137488e-01
1.106379927340066585e-02 5.499933568660424210e-02 4.633409711011707843e-01
3.813888118738376076e-02 2.351067662585968471e-02 5.114852484248241238e-01
-1.733494948134904276e-03 6.785093458120031173e-02 4.662246075143969271e-01
-7.382627124896094448e-03 5.632225842670762761e-02 5.260405254879021442e-01
-1.115464701575716831e-02 4.089895566340571997e-02 4.536763475744947094e-01
1.123133444883660584e-02 1.351219907556127330e-02 4.464800756155786199e-01
5.714352064361384945e-04 3.452712452755848233e-02 4.528967388139227279e-01
4.940693246892386217e-03 6.391767968330314131e-02 4.644366483442869953e-01
8.455044256023789076e-03 4.874022069294376563e-02 5.323163473082045405e-01
1.495410406834345174e-02 7.578883459677117351e-02 4.788094923926813906e-01
3.971526067949334576e-02 4.105790841915705341e-02 4.810283669203418988e-01
5.087286389537733558e-03 4.496722909448367528e-02 5.372907979104778464e-01
-7.083826368239798561e-03 5.908445515946352672e-02 5.313514854705819745e-01
4.475832824929731196e-02 2.451896723140408602e-02 4.920654381107543718e-01
-3.620403442988311127e-02 4.731788916820358140e-04 4.396014532401588126e-01
2.197139054828294719e-02 4.080352173923425252e-02 5.259517721191457884e-01
3.597819107790321824e-02 5.034718573940742681e-02 4.927554157853290540e-01
2.928797983646180131e-02 4.785088959879311293e-02 5.143152687825935931e-01
3.224833961579327141e-02 5.733645386882577077e-02 4.914454369488663876e-01
-9.341206297304796569e-04 6.190920234956950874e-02 5.352426293644525490e-01
3.556646903034199614e-02 4.205186708356699332e-02 4.737938044866369935e-01
3.236057203081512540e-02 4.793274600799564411e-02 4.743884671063913760e-01
2.173623210435525824e-02 6.760750028188253213e-02 5.030460144597841410e-01
4.036750285221706730e-02 4.016528375866284389e-02 4.865844880280772999e-01
-3.745289385625664991e-02 3.795961424933490258e-02 4.511690917354270747e-01
-3.402465401542636991e-02 2.819442048840160864e-02 4.469472761093764568e-01
2.443665118044313633e-02 5.544217964598041615e-02 4.711139614117082486e-01
1.647496843529288116e-02 5.546387004250444286e-02 4.657763601334686809e-01
3.888313594171505932e-02 3.058229909648734965e-02 4.695535037740126705e-01
3.877472023550453117e-02 4.369820365405580054e-02 4.981047674271292802e-01
1.917980656349664928e-02 5.150014697194601337e-02 5.220451453437943146e-01
-1.848939745964097575e-02 5.939540357414488381e-02 4.623031575419850880e-01
1.270054538066367131e-02 7.564799116023522563e-02 4.958784963960506942e-01
-1.082653976680647903e-02 1.078010448569806899e-02 4.412474056454230853e-01
4.085531748497449323e-02 3.694368811951187492e-02 4.793870575947706825e-01
2.494335618734183288e-02 5.025237982667883629e-02 4.687710645455718805e-01
-8.166130979939942303e-03 5.635380396244594331e-02 5.390716934054766707e-01
-3.757649193913714658e-02 2.114086268614357583e-02 4.451894642502246535e-01
4.336716561421915389e-02 2.495360564995215830e-02 4.748425663494416082e-01
1.297846500731264247e-03 1.634634283468094917e-02 4.455882074254609582e-01
2.999508177152018090e-02 5.684107616380662531e-02 4.773024861298245103e-01
-1.479656612540497691e-02 4.727061959728961517e-04 4.374884990871982238e-01
2.155701797953426049e-02 3.643826763222111909e-02 5.299489643329640121e-01
2.594862244334505616e-02 3.319069118957054809e-02 5.269707563438540410e-01
-1.321104214519928585e-02 5.199674725517376694e-02 4.574224990700475613e-01
2.262297887267842450e-02 2.552194671628769604e-02 4.551663782843831663e-01
2.147931099673982755e-02 6.909634800194046356e-02 4.772827358765305839e-01
3.448244779946006006e-02 3.448809121123463939e-02 5.127390938595812742e-01
3.989251999578117408e-02 4.203803237886059863e-02 4.902993573023441964e-01
2.119320294013000636e-02 6.241154616158302998e-02 5.137453064993600105e-01
1.330457307586190366e-02 5.483620908267607813e-02 5.254807470831459604e-01
1.003870448770442965e-02 7.159060573357528545e-02 4.702591696966481050e-01
2.982807565494428534e-02 5.657236748074629534e-02 5.057213535209572619e-01
3.146305564820236350e-02 5.203818141464132407e-02 4.761904302210151485e-01
4.741018701575758915e-03 5.008226089878346776e-02 5.349317395310076995e-01
7.231522370331523036e-03 4.639390203955753855e-02 5.359964390062923467e-01
-9.048333721158735576e-03 1.297812235613280372e-02 4.423748245058803930e-01
1.380472422254635373e-02 7.654028466179606249e-02 4.881253468120068661e-01
3.676214462885746791e-03 1.632150490517936606e-02 4.460570500287331375e-01
-9.432658198711839533e-04 3.458993284553662367e-02 4.525909978222113494e-01
4.132632567485860359e-02 3.134266172787528171e-02 4.752246301316006005e-01
1.572836786436590181e-02 1.593901366088725652e-02 4.484908285172368170e-01
-2.280076005433116088e-02 1.488165390520068687e-02 4.415535441934633210e-01
-1.704344502318012530e-02 3.883853767354481651e-02 4.520836792169113383e-01
4.142348391011452940e-02 3.473764790338985942e-02 4.961007691674193532e-01
1.915046962473189104e-02 7.480653885320696916e-02 4.850646362274267931e-01
-2.937641568513529866e-02 9.787608353697966473e-03 4.406879967682824084e-01
2.220447804255913302e-02 4.007725890118565837e-03 5.322962806410249659e-01
4.323700519285918892e-02 3.178827420996622327e-02 4.903768420324104427e-01
1.715418507193880449e-03 5.869318502930434556e-02 5.332122197924745732e-01
3.520810739328635725e-02 3.306397974143420598e-02 5.120066959602592727e-01
2.721456271741092697e-02 6.569404016563612503e-02 4.866310778812362181e-01
-7.075076357373503641e-03 2.081445576367912248e-02 4.457540580263322227e-01
-2.221454660005948642e-04 5.404293670012473572e-02 4.591957760855611692e-01
-9.875543805893028174e-03 1.097325801038389302e-02 4.414795262824669497e-01
2.090056146168920576e-02 4.408469058325020090e-02 5.239039740796423983e-01
1.999543500760314271e-02 1.877228551773714449e-02 4.506883061492396036e-01
-1.036881161143715126e-02 3.789504549635368952e-02 4.526051158196693902e-01
2.735272939660895672e-02 2.545149968858093081e-02 4.576398353127399954e-01
2.502343949545336212e-03 6.176289367470951669e-02 5.225681866975068202e-01
2.957952365970368397e-02 5.422771599910086032e-02 5.108156119367407433e-01
3.408548275098324809e-02 2.819681984097286917e-02 4.635463255144879891e-01
-1.321655974269636720e-02 2.763271499828780578e-02 4.474254517478962745e-01
-3.357504446938874842e-02 3.511315892590340798e-02 4.496035328376939977e-01
6.428602054804032247e-03 7.706147820155392902e-02 4.757026329499654538e-01
1.419297932203792550e-02 4.967544342131936796e-02 5.267796128030279856e-01
-5.245644927577437430e-03 5.439433880645743596e-02 5.412989837927100201e-01
-3.281709536338153765e-02 3.687710869028698601e-02 4.503077023148467362e-01
3.920211379940499903e-03 4.451026919695588030e-02 5.373748252648067325e-01
2.189382610514536281e-02 3.369858617335621392e-02 4.586581907557846782e-01
-6.497520938563475755e-03 4.783166174176207985e-02 4.564407862858755327e-01
-2.075472984151505162e-02 4.944655156658687989e-02 4.562656330174648667e-01
1.985360864439059819e-02 5.554115507734801865e-02 4.676483394773622848e-01
2.873457766888465326e-02 3.278496620766561953e-02 5.243449488794206248e-01
-4.467002783617629418e-03 5.763449763856339642e-02 5.225127937783755616e-01
1.016077551235427395e-02 5.449125249474388866e-02 4.628227404160599190e-01
7.232175253043681903e-03 6.457608392308171463e-02 5.151448292965941089e-01
5.496673439022182854e-03 6.946212531091702086e-04 4.402867503377417835e-01
1.822912881837248852e-02 7.279332335180398184e-02 4.774173361587971121e-01
-2.220568007510831041e-02 3.272414801430974934e-02 4.487368614555106716e-01
2.333083784670410971e-02 3.943874075389715295e-02 4.623603862941850773e-01
1.713525731355349663e-02 3.087105078280848527e-02 4.555200996740456643e-01
-4.090857573612749487e-02 3.534520096735676437e-02 4.501785456295827048e-01
-2.251864878083592592e-02 5.886893461930770705e-02 4.638925116477558563e-01
4.350621433923612148e-03 4.087449704643324189e-02 4.562847815708624966e-01
1.211411517236949016e-02 5.560847209795899415e-02 4.639549353128936682e-01
-5.939071843481252486e-03 5.970017729559276565e-02 5.300106269882647325e-01
2.572489281345385209e-02 4.935091759446261911e-02 4.688989960025505832e-01
2.125547492872535346e-02 5.403406130326535162e-02 4.678534835603091468e-01
-9.521504297794573801e-03 2.308860952631769034e-02 4.462216529379526841e-01
2.782712985549359863e-02 5.775737375817773661e-02 5.101275839790859745e-01
7.293372775563050636e-03 2.786132203040343411e-03 4.413457454353891807e-01
-2.907277535334182317e-02 3.925994958513229216e-03 4.387325029877659488e-01
3.447394098995899825e-02 3.518106885154669017e-02 5.123113172616283739e-01
3.947567240080137457e-02 4.102375159301267088e-02 4.803673513950585949e-01
4.446143593632007757e-03 6.289846819721549298e-02 5.290334366055962079e-01
-2.283929297642998003e-03 5.882268996246695775e-02 5.361497468485432183e-01
-1.514138333418736789e-03 4.358088745229493632e-02 4.559476640132571479e-01
3.567615178627887157e-02 4.015310666376147031e-02 4.721354870761222400e-01
4.166386586906529327e-02 3.301424591951817450e-02 4.966058201548893547e-01
3.919398376478334250e-02 2.500272913308934988e-02 5.082245807328116260e-01
-3.262350424557724365e-02 1.297430412552912863e-03 4.388490995565498265e-01
1.133242869199666339e-02 5.527528747717607577e-02 5.268783209400111911e-01
-1.519244030683625929e-02 2.055878438073728554e-02 4.443175571982138083e-01
7.468751920433717995e-03 1.240552293957269091e-02 4.452318851754579199e-01
2.877322591429769608e-02 6.198527838752333763e-02 4.807715051697799558e-01
-3.551794302309903718e-03 4.123756639768966920e-02 4.547262705509310665e-01
2.596926657018918533e-02 5.386199872463396515e-02 4.715676484745943142e-01
1.706605146721172986e-02 4.430403771927687862e-02 4.614887243632125324e-01
-4.081789683276439151e-02 3.953294887749918274e-02 4.537050740375490610e-01
-1.103161061926888689e-02 1.279075624824686785e-02 4.419717487183434934e-01
7.269020997441151544e-03 5.540235657328564101e-02 4.620104553233105871e-01
1.809799062817480167e-02 3.309463035996668828e-02 4.568399331550957454e-01
3.670682401615636345e-03 4.393992432626817046e-02 4.572620791758318926e-01
7.265276736293192414e-03 3.167625477259896488e-02 4.531791081956503264e-01
2.703959406401324275e-02 6.542171602418972443e-02 4.931752932556649482e-01
-1.688806952491883617e-02 1.951821715952826303e-02 4.436898282505517543e-01
-1.904905688074247372e-02 5.989456042553513437e-02 4.636074783748568295e-01
1.351431786155009307e-02 7.580290258764091349e-02 4.962282953861942847e-01
6.868249253967681836e-03 1.454354021314038445e-02 4.459818154194628015e-01
1.634692792728456578e-02 5.814830870935100426e-02 4.667310713406014888e-01
1.792700591985342193e-02 5.256128194690094790e-02 4.654098218312555102e-01
1.086955518855372248e-02 2.871652460625528924e-02 4.527658724594804118e-01
2.716919078163995693e-02 3.596793542231560559e-02 5.231534608445561618e-01
1.673542591318100473e-02 3.294540451992725855e-02 4.563313374199355898e-01
1.113987857635722126e-02 4.035366423529943014e-02 5.352472023924332856e-01
3.631165916764948765e-02 4.923480844410899754e-02 4.948666471835294622e-01
3.630908251494365663e-02 4.316737621128631519e-02 5.063585992083661225e-01
3.081280996162863092e-02 3.148696488686031358e-02 5.218933964956166127e-01
-1.801563980577600838e-03 5.755692329320085537e-02 5.362702370835306098e-01
2.833760147637117560e-02 4.975853031780002461e-02 5.144885620655815783e-01
2.516983029610464495e-02 6.860712309632260864e-02 4.898027587686031858e-01
-5.392996529430729019e-03 2.731077210402458461e-02 4.487377800481102130e-01
-2.281447773865984824e-02 8.236036101004550608e-03 4.392179465775964409e-01
2.533964527204483896e-02 1.767939110922364318e-02 4.528780752529598663e-01
6.829283201682498188e-03 6.314520043423127449e-02 5.262547932464060052e-01
-1.273792586210781112e-02 9.673230558103410384e-03 4.404753500288723367e-01
2.562743051716992806e-02 4.093031390382979862e-02 5.211014239439216711e-01
2.539881591568997690e-02 3.680801273442101118e-02 4.621668185937624074e-01
8.274672552119149288e-03 7.042321625474046165e-02 5.047650344981289283e-01
3.620382630600300390e-03 4.871745273021635403e-02 5.371105700493632451e-01
1.861563099319135661e-02 4.716386853486630865e-02 5.240395233546056852e-01
7.737832097436253553e-03 4.004101149037718466e-02 4.568019910940662176e-01
2.883152269804083526e-02 2.234401922143306948e-02 4.569906237969069140e-01
1.464127172114251633e-03 6.036919511928070387e-02 4.615362697056523689e-01
1.344755433739487291e-02 2.418850151737007501e-02 4.514497904931888406e-01
-3.076751435211112079e-02 4.579437900414862206e-02 4.556605225896793177e-01
