2.232100965293730074e-02 1.646164656448045882e-02 4.507559355395427958e-01
4.001856897981229122e-02 4.111824659296219042e-02 4.870317288237051567e-01
2.004303311736527204e-02 6.962646247271726818e-02 5.024749556433788511e-01
3.858799364797929621e-02 4.533464416699804767e-02 4.919406057254754883e-01
2.670133454757317101e-02 1.549864045205965463e-02 4.526859989495059522e-01
3.010665954904042166e-03 4.631686095257186303e-02 5.380035633369237846e-01
-3.457917132860455212e-02 4.320518556058205312e-02 4.545397659277299329e-01
-3.652079073690098904e-02 2.298234673221715915e-02 4.454930227625494843e-01
-3.096768862793978713e-02 1.162963445874118547e-02 4.415910553463172072e-01
-5.423745487453330086e-03 5.468624707260012069e-02 5.414573257440221665e-01
2.953846274711256076e-02 5.352754420221972342e-02 4.749088097113511875e-01
-1.873364263078166128e-02 4.527806961065267144e-02 4.544860022907331043e-01
1.433763468597825524e-02 4.268878551082217615e-02 4.598036486974159676e-01
2.911480176936656616e-02 3.178904014348445800e-02 5.242694305238853048e-01
-5.075867554619726413e-03 4.365578099606418072e-02 4.552547151131925984e-01
2.493744064970805641e-02 4.641515392182173766e-02 4.667355002858409319e-01
2.413075778960803094e-02 1.656479486559421510e-02 4.517306162442742412e-01
3.756289547506855980e-02 3.932084612567333243e-02 4.748027071380120367e-01
2.106355907721279772e-02 7.230385191334046113e-02 4.944996818730569843e-01
-8.885752754710997056e-03 1.754479981398660710e-02 4.441408393472492389e-01
1.269090752137366773e-02 6.923193226568162550e-02 4.699572139334019516e-01
4.140799510084454405e-02 2.527325771723097983e-02 5.031315797390940592e-01
4.055640618567172423e-03 6.324919289947851520e-02 5.246749703353915661e-01
1.214288238018804145e-02 4.894064443712069917e-02 5.286107761408788130e-01
2.553569807826492830e-02 1.666001032068343407e-02 4.525168874424669307e-01
2.287903517947424518e-03 7.199510801917090308e-02 4.724492404510529653e-01
2.939490741999993204e-02 5.483285298187660917e-02 4.754947989845590417e-01
3.596870990989239208e-02 3.596815237022646383e-02 5.087325258828875318e-01
3.452725087149659949e-02 4.261872013610140675e-02 4.727552375358517467e-01
1.090287627714162100e-02 4.022191057568265393e-02 4.576629910663458367e-01
1.199149340278095333e-02 1.413778389040144454e-02 4.468834203281125128e-01
1.359099340419365684e-02 6.007730184474067980e-02 4.660883973454235107e-01
2.619321745502306564e-02 5.771676740737663458e-02 4.738196137379875328e-01
-1.299130633565370643e-03 1.661043444948800615e-02 4.451490580210000214e-01
4.452820966476723867e-03 5.434121286944020718e-02 5.326192814954726629e-01
-1.465779612055702341e-02 1.202503742529281890e-02 4.410112219323972793e-01
-1.382227101043061526e-02 3.353255541509344434e-02 4.500958806090517572e-01
-5.054430468865490217e-03 5.810752256810652189e-02 4.596846393268186337e-01
3.805941764827258655e-02 4.543114899431847931e-02 4.831677228658019518e-01
2.859416482428466660e-02 8.489699650370816086e-03 5.287768897229445653e-01
-9.053511694012014721e-03 5.774486217543197547e-02 5.330542064851289119e-01
1.688773083372532846e-02 6.045934559921512658e-02 5.206514643150058630e-01
4.366074078199956576e-02 2.904787770308638051e-02 4.834204189076050096e-01
9.040037761909060915e-03 1.503186498517692683e-02 4.465989547709326990e-01
2.251823165174914043e-02 4.191771253732902436e-02 4.631056220471576612e-01
-6.822949638108156620e-03 4.021589178902924139e-02 4.538740933180927528e-01
8.369396340289582403e-03 3.553970812971342375e-02 4.550647880726743644e-01
-2.018709590555354053e-02 2.226684259639409927e-02 4.444033823484932477e-01
2.739920116012144538e-02 4.991304874852115631e-02 5.153324399480120332e-01
2.357450702366100520e-02 5.694981811100759822e-02 5.157882885235322012e-01
-1.396722074168277490e-02 5.121633293354029004e-02 4.570213471685263817e-01
2.038415131274690095e-02 4.115647952718309854e-02 5.275537376233078168e-01
3.325501104556856380e-02 5.372691629774378752e-02 4.984344132162393248e-01
7.759908299177677680e-03 6.404017128014632965e-02 5.211126355091680873e-01
2.470066746425519238e-02 5.508461538083597731e-02 4.711610420910772312e-01
3.817005963199538582e-02 3.209007378432300606e-02 5.056513833620117637e-01
3.474651173194597681e-02 5.236525133731166626e-02 4.859616549509556682e-01
1.521398390980068654e-02 5.035938210033848172e-02 4.632345682428055111e-01
1.507129111832731898e-02 7.620937716694753394e-02 4.808183874347615738e-01
7.098211558897574158e-03 2.236528894351475991e-02 4.491791143773787853e-01
4.274068073288381231e-03 6.379031798338717640e-02 5.147817224637190048e-01
-2.403961385780936308e-02 4.318130454731521073e-02 4.531826061224355495e-01
-2.693419447727232394e-02 3.817808328208440599e-02 4.508887375541052456e-01
2.393666171986228580e-02 3.957381026495677273e-02 5.238854492081634895e-01
-1.053895111068821680e-03 5.897702905814830587e-03 4.409332517759733672e-01
-2.222100260952512840e-02 1.494864273991599116e-02 4.415484560902053213e-01
2.651974902096531500e-02 4.886755926874768868e-02 4.692647438080598810e-01
-4.031121818679799657e-02 2.338493316027115063e-02 4.463396736221348360e-01
3.646155925633621717e-03 4.299884291364583500e-02 5.371005977112736085e-01
3.639911725592954311e-02 3.543649504639768966e-02 5.081021275396219172e-01
3.212680313618886119e-02 5.449440034325360449e-02 4.793747017260387988e-01
1.197944439788311936e-03 5.039469221826844286e-02 5.384941305517133570e-01
3.892640416951712035e-02 3.625099912920724116e-02 4.745708935005084061e-01
3.384167326243020524e-02 1.759431094110812388e-02 5.230075676812198093e-01
-3.536408944036281872e-03 5.692285714071237956e-02 4.595026077598199921e-01
1.441648912125136420e-02 7.678908484354697583e-02 4.819750605421624368e-01
1.246115041328205164e-02 4.420145632151251114e-02 5.330852694347436582e-01
-9.561533141895218330e-03 4.769837083601789415e-04 4.379799694842667623e-01
3.208179003104008609e-02 1.951482083655582678e-02 5.236033779135955690e-01
2.624608641580226942e-02 2.940966968490656488e-02 4.589189947652956847e-01
-8.746092469049168011e-03 3.368931671639366354e-02 4.509125370396567800e-01
-2.700094597287585121e-02 3.406895795347661404e-02 4.490960472551388527e-01
2.860549543068871894e-02 6.164660680643591767e-02 4.795839016269742849e-01
-2.097889947674593664e-02 3.324890630129970909e-02 4.490824342945639036e-01
6.287053320769098695e-03 2.431043134171072956e-02 4.498156156339109257e-01
1.060505297509923943e-02 7.873702345364118338e-02 4.830993785489309800e-01
1.347012316208883939e-02 4.913393298110677043e-02 5.273434033386809050e-01
4.728967674663840139e-03 7.879156108140959736e-03 4.427803368402413176e-01
1.345471400207739338e-02 6.355994153851639294e-02 5.207564682675843715e-01
3.556370127759931471e-02 2.358993565730825581e-02 5.183076368719513605e-01
4.302607442289087952e-02 3.172340127725288561e-02 4.869293113249414939e-01
-1.865062332374342949e-02 2.487366991514854825e-02 4.456231662413779882e-01
3.843417268528819680e-02 2.334240296706938111e-02 5.105127760668953796e-01
1.766029218727182409e-02 2.568856928760756414e-02 4.533402982751603694e-01
2.191693164401416725e-03 5.783806013044349992e-02 5.326711908268066953e-01
4.414323322473462374e-03 6.471998294380067185e-02 4.646594612686885672e-01
1.373854069151237214e-02 6.001109009114921622e-02 5.242460153760206687e-01
1.756045406423079047e-02 6.634058563856207180e-02 4.710133773178238892e-01
7.967712439824418263e-03 5.474602550761271946e-02 4.620325660797392486e-01
5.154958486731667407e-03 6.376423310707823866e-02 5.194716363287906757e-01
1.072388332244724948e-02 6.509959957640285011e-02 4.668122907696082846e-01
2.339254855885757045e-02 7.088523920930618616e-02 4.891739953457365786e-01
-2.158171431169869647e-02 4.057714042346628747e-02 4.522807143925825502e-01
2.872466284820941046e-02 4.054950543188065581e-02 5.176995682134357679e-01
2.014723712370906569e-03 3.885246292577860996e-03 4.407222171159412838e-01
4.144506439748463396e-03 4.210406984031875993e-02 4.566758072701674886e-01
5.987365015960410645e-04 6.078379237024445630e-02 5.167616823887215549e-01
1.108088642305203250e-02 6.087601975617294020e-02 4.653094061618159305e-01
-6.437909185120448824e-03 5.455164395917922598e-02 4.584759251940054847e-01
2.035918717085096613e-02 3.684803781478124263e-02 4.594169731117858646e-01
2.953386174160194111e-02 6.115790430717966963e-02 4.821036533083664644e-01
2.334369822659238675e-02 3.241263577847451616e-02 4.587739618212652304e-01
1.759122848672523692e-02 4.276037705607706879e-02 4.609777659552711793e-01
3.387077471560406144e-02 3.685823892936286594e-02 5.122884433110912461e-01
1.828080196550428346e-02 5.326363298050329487e-02 4.657883276089233582e-01
9.884502091435511811e-03 7.479014433254763117e-02 4.743920849685994701e-01
2.666519518719740606e-02 6.379279056392340996e-02 4.786070400829145477e-01
3.710148282502472722e-02 4.732439188183010931e-02 4.834638371879021457e-01
2.095148869966181535e-02 7.021348158077145296e-02 4.997158495942311540e-01
1.657019935094843771e-02 5.220816326259545420e-02 5.235562699560112332e-01
7.121945874992289746e-03 6.388885735130993282e-02 5.215088295992236223e-01
-1.301788581362594080e-02 5.067505149251165519e-02 4.568988338738969590e-01
-2.627928176374255687e-02 4.334164535864276635e-02 4.533544069105943652e-01
6.179573359125474855e-03 6.230957995487788198e-02 4.640381320244373886e-01
-5.433934299905278202e-03 6.405466805193715807e-02 4.634730924331971202e-01
-3.883697759975579186e-03 1.241476051878423817e-02 4.429908975964416129e-01
4.331816664677080181e-02 2.505716473237722813e-02 4.748614520835492958e-01
2.084122095166912950e-02 4.836462877768235580e-02 5.214429277455495670e-01
-4.282723954883109474e-02 2.586705711376191541e-02 4.475001575850174329e-01
2.911867782213327024e-02 2.333724253141577012e-02 5.248688400599546000e-01
2.434378505740394244e-02 2.369625509529279389e-02 4.551794055443296183e-01
-1.040920740706118702e-02 4.802604858860110015e-02 4.561224472156391041e-01
2.006048942479763883e-02 4.884395796274351720e-02 5.219446623126389184e-01
2.320861831798057273e-02 6.964113067038486815e-02 4.945619046456106727e-01
6.820308727269542085e-03 4.866100565946583634e-02 5.334569903226814569e-01
5.381606713297360997e-03 6.718126301176897963e-02 5.069519172478009761e-01
3.649767105843859660e-02 4.591141824512955799e-02 5.035596956869682339e-01
2.379893433190938268e-02 5.857382912474293213e-02 4.721488579917995088e-01
2.544219966562603213e-02 6.207374107704249910e-02 5.078982849134494604e-01
2.295525118779779411e-02 3.277610152094189572e-02 5.291133692449904169e-01
2.796747544900468965e-02 6.471682685441849936e-02 4.909963948068498119e-01
3.894648284117520343e-02 2.558957865773678342e-02 5.082030309914858934e-01
3.124311070774021121e-02 5.490986562028370155e-02 5.040624901404986424e-01
-2.331392415281175606e-02 1.226824591082433837e-02 4.405886245625329489e-01
1.415384325530854616e-02 7.385900144994146654e-02 4.746581236489310629e-01
-4.012089423398348953e-02 3.434857842273962569e-02 4.496442441976476467e-01
2.278756801193982870e-02 3.796271701260783837e-02 5.274060640123107158e-01
3.135906262471903350e-02 4.981028155316490069e-02 5.105162319453925290e-01
1.406356176684503585e-02 6.921674102662582484e-02 5.092787027902933028e-01
3.669751819068823445e-02 3.985546041486357632e-02 5.077476028634420047e-01
2.539299001699085040e-02 2.841763573599145193e-02 5.274136403761664482e-01
-4.288855402766248576e-02 2.300767286564508324e-02 4.467114947184761542e-01
9.632154726373159948e-03 4.820544126747740299e-02 5.312140816226885720e-01
2.636856766184091441e-02 3.764322285055232697e-02 5.218435593186749877e-01
-1.703131147449842009e-02 2.612659821373146743e-02 4.462858388156482059e-01
-1.371093940860853948e-03 6.600984799687978355e-02 4.650160994400882597e-01
5.538141261019223494e-03 2.009180632337560432e-02 4.479467633720748410e-01
1.444008679356839631e-02 3.877528324743272775e-02 5.336440065116696552e-01
7.578198489218463882e-03 6.924465648420233266e-02 5.067361314121987537e-01
3.541390307116724923e-02 4.494583961756484780e-02 5.067160681486742035e-01
4.119276785690605125e-02 2.428496826084779181e-02 4.694386516964346168e-01
-1.337434033397889334e-02 3.821332914658387425e-02 4.522924934514718220e-01
4.241877752902618870e-02 3.366746505402296030e-02 4.866694366034650110e-01
-3.139963999451304832e-02 1.555430613832298192e-02 4.426204063678245704e-01
4.421716823612787534e-02 2.715144876207561259e-02 4.829416107649526224e-01
3.059774442485510559e-02 3.448830033061774103e-02 5.176695306897506343e-01
4.098370111814931410e-02 2.610239679606591104e-02 5.035022125228828527e-01
2.738157717514387579e-02 1.935148834998774020e-02 4.547816886253565616e-01
-2.183536857922796157e-02 5.908885709940096820e-02 4.638288667340213500e-01
2.922127343386079698e-02 5.912074870204252208e-03 5.311149079272112772e-01
-1.968754094688037869e-03 3.849827309200918452e-03 4.400389490960465166e-01
4.225004695884724062e-03 7.006356392237475528e-02 4.679918356851377470e-01
3.184936087011736028e-02 4.484249144981623802e-02 5.119823210892617826e-01
1.047199107584931375e-03 8.121723085574157966e-03 4.421779535165977215e-01
-1.552347586941417099e-02 3.788407960385056783e-02 4.518446615451532367e-01
3.997987729816779301e-02 3.053469753251292565e-02 5.023362663122424854e-01
3.796034292706289975e-02 4.307723619676639276e-02 5.021325540240308971e-01
8.809155530319136632e-03 7.527473395193520767e-02 4.933375433862658976e-01
2.308093454801418351e-02 1.937466499655961238e-03 5.330994980489969226e-01
-8.735052799361136405e-03 4.340341331083791276e-02 4.547672272077116218e-01
-1.064086201659607787e-02 3.377655127730565254e-02 4.506710944138604957e-01
1.052734582081137418e-02 7.825219716021548921e-03 4.439280403886388671e-01
1.831046664321319545e-02 7.183641583689868992e-02 5.011350168448150955e-01
2.472904941395662887e-02 2.886984949277827950e-02 5.278779014070156261e-01
2.133333543937376842e-02 3.762597971164811234e-02 5.293482831739093619e-01
3.245136385014266156e-03 2.957823016201201454e-03 4.406072517759169749e-01
4.118295929599351257e-02 3.669233427772217171e-02 4.818506894016056918e-01
-2.686763283442016384e-02 1.724776846174133280e-02 4.424543166537840966e-01
-8.154207335923443697e-03 9.978671882581809441e-03 4.413660412700139979e-01
1.618174899617013524e-02 2.041728698305131373e-02 4.504517748721614812e-01
1.244496806029854290e-02 1.990172630352789879e-02 4.493710499079192067e-01
-8.054949504814451142e-03 5.421188128877488244e-02 4.582064552463916973e-01
3.760249553653873672e-02 2.918269073791945195e-02 5.089538384876670651e-01
1.945852087816397555e-02 7.504701120021643745e-02 4.911225860344492489e-01
-1.695062209975158052e-02 3.206560270214336983e-02 4.490008407928663403e-01
-1.236360720231262020e-02 5.755592840755077017e-02 4.593403715032126078e-01
-2.104477229764384165e-03 3.162781336153221157e-02 4.511004313237895746e-01
2.229290025184946927e-02 6.323349729119759344e-02 5.110639218145854867e-01
1.318101972561395649e-02 1.361848194917360602e-03 4.420105769699404497e-01
2.236405991228483311e-02 7.192478640701749359e-02 4.910350042594536224e-01
2.711900849285659755e-03 9.889193286448254988e-03 4.432124221742747561e-01
2.205918835316778362e-02 4.080346133477282672e-02 4.623381071432531297e-01
2.099502145931881822e-02 6.285031065401167072e-02 4.720170719793495007e-01
-1.848305506607739873e-02 2.246574087673294719e-03 4.377389438042680325e-01
-4.281225893769668132e-03 2.229985532156512906e-02 4.468572793699822632e-01
1.678067479147394431e-02 4.365897670305730199e-02 5.282004257654753232e-01
4.213906703203512683e-02 3.076461459409660093e-02 4.964393673893328085e-01
-4.737991830347345126e-04 6.170299239350621884e-02 5.267333226992882977e-01
-1.690542128500217151e-02 2.758400097818758737e-02 4.468870003943627434e-01
3.205186767998721709e-02 4.032819780788013397e-02 5.142479257911981572e-01
-1.869396587621752637e-03 1.794847522370583356e-02 4.455812000763276770e-01
2.007770852170643813e-02 7.427398801076171009e-02 4.930928895231947440e-01
2.599817487389260995e-02 5.293583253143346184e-02 5.154247812109464810e-01
-2.102909288558823392e-02 -4.832940223538709223e-05 4.372691923338687947e-01
-2.238551630690140473e-02 3.757836669926274686e-02 4.509124545931869066e-01
-3.864703690173621614e-02 3.313065023143269699e-02 4.489630508621707539e-01
3.987933218304690747e-02 1.922970612178432487e-02 4.642102669756827393e-01
3.645913211432782325e-02 4.698838450503936559e-02 5.027515481965312283e-01
4.523817739740229431e-03 7.574541175435274554e-02 4.797590722351623982e-01
-8.456374178820566870e-03 2.185448476622063943e-02 4.458989201921601531e-01
9.160849250576873909e-03 7.035481050096652200e-02 5.063827485261223060e-01
-3.052407260663053332e-02 4.283671572172256803e-02 4.532247964736994539e-01
4.315197683182552674e-02 2.193383934105715138e-02 4.718607361309176129e-01
3.142422715315959514e-02 3.279619687596405792e-02 5.184557411277082029e-01
7.104318765616303086e-03 6.804902145570180735e-03 4.428217509747282010e-01
2.439449749524980927e-03 2.885962668178570362e-02 4.509053831993865002e-01
3.210276717916692862e-02 5.681381548355760036e-02 4.949424413331701689e-01
-4.179686663232635990e-02 2.454485979082290242e-02 4.469348766300833553e-01
5.394134580383822680e-03 4.613904863728449796e-02 5.374407217252555879e-01
-1.213984462900906391e-02 3.818473226556689387e-02 4.524498840533474620e-01
1.770392690164110383e-02 4.445048708392137365e-02 4.618610096397494091e-01
4.134750671407745604e-02 3.761329831956354564e-02 4.894025880929603334e-01
5.442105954354788805e-03 6.137603888338339503e-02 4.633446772305849226e-01
1.259174198502128160e-02 6.318624151790898369e-02 5.223616832997668435e-01
3.291856530856086122e-02 5.124112228338594671e-02 5.062904398170611220e-01
-1.368850783613704408e-02 9.601011357496520675e-04 4.376381160355454214e-01
-2.340670031760664488e-02 2.600800985264090093e-02 4.458187002138369048e-01
1.558918555732863136e-02 1.072742360686766358e-02 4.462935510993335519e-01
2.473321452481821656e-02 4.389848091096008875e-02 4.653241617240290728e-01
2.154485999939970489e-02 6.611437261009049660e-02 5.063838888187059961e-01
1.922702408339472396e-02 7.515748341702772894e-02 4.894273744799025327e-01
-2.496665705037024938e-02 -1.640991148505667463e-03 4.373005478366799315e-01
1.988324937859678107e-02 6.071979979339177380e-02 4.698429850248801998e-01
3.354558779407854074e-02 4.456609028194381816e-02 4.729101509667582026e-01
-2.448525084163537258e-02 5.020504958760527853e-02 4.570580249125716366e-01
-7.726579642668146911e-03 5.705261878948744009e-02 5.398951126304086801e-01
-3.976051708755010822e-02 3.105323002944072527e-02 4.483835437183401607e-01
3.778901037273522685e-03 -7.116164495604825752e-04 4.394675327945530841e-01
-4.380044571895224531e-02 2.597215525907800582e-02 4.477139671596924719e-01
7.478596973544178114e-03 4.545740149942398278e-02 5.362690535477807607e-01
2.535279344201013876e-02 4.189161289146069167e-02 5.203481749711018622e-01
4.315564353910138207e-03 2.723510963019029705e-03 4.407259321643010042e-01
-2.859249854288133108e-02 -1.611869964544613600e-03 4.378713765938864744e-01
6.665564788263900892e-03 7.800406088588453246e-02 4.762305662140852713e-01
2.022401180030320225e-02 6.683628663512995727e-02 5.070242123160817460e-01
2.950708233770821948e-02 5.905119937231100014e-02 5.019022924477003489e-01
-3.032411336001379978e-02 4.352385097554152538e-02 4.536933315837619052e-01
2.833938171145678961e-02 2.985470225873697314e-02 5.254543435570150356e-01
3.846513477662721892e-02 3.723429128520725634e-02 4.746083652081637960e-01
1.542470251589547151e-03 1.248638530806986391e-02 4.440539484779871260e-01
3.600819737710415219e-03 4.347845309663169594e-02 5.371895430804103366e-01
2.726138033934955365e-02 6.531011767989892969e-02 4.841852539219383411e-01
-5.671972310647539761e-03 3.479542005321666683e-03 4.393989226584523178e-01
2.300649657344680521e-02 6.775328889882049899e-02 4.999356688471551236e-01
-1.895213483100281412e-02 1.786747657524522664e-02 4.427389570536746088e-01
2.322775941362397595e-02 2.297676601016460790e-02 4.542439697474298099e-01
3.283679336014837247e-02 2.115364153208950174e-02 4.590526048901513723e-01
5.604032401130745050e-03 7.695669424401363479e-02 4.807787734492781073e-01
-2.856839247742810201e-02 3.322887811879340209e-02 4.487215688194002294e-01
2.880241551020466459e-02 5.682000203451234577e-02 4.759795297265944081e-01
4.072237932251294296e-02 3.824151299657903985e-02 4.822395708425835092e-01
2.727583189036298164e-02 4.387258032673714558e-02 4.670206973079952806e-01
2.164186583887830334e-02 7.153430252991699323e-02 4.824925764200382883e-01
-2.622368451776825593e-02 4.791321492013420058e-02 4.561049678201301028e-01
4.068766310743843900e-02 2.069807219644388685e-02 4.661726184680749507e-01
1.136560581614877788e-02 2.040159068572334686e-02 4.493366084137646044e-01
2.195659926969146039e-02 4.509048408913240297e-02 5.215801386794399752e-01
-6.040046742193419874e-03 5.672128270510864989e-02 5.242655598625246549e-01
-2.423779696283931764e-02 1.710466453891870599e-03 4.376790546122066305e-01
-1.721947317890196519e-04 1.779329208673878504e-02 4.458588805199936167e-01
4.099436737261829417e-03 1.023618974191178518e-02 4.436243537242154367e-01
2.856666249659411613e-02 1.875485796924496185e-02 4.551981982529162973e-01
9.836742396272000338e-03 3.609806719091655791e-02 4.556532499564940331e-01
2.487883012579568051e-02 3.685436449001974757e-02 4.618558137526794782e-01
5.988600542824641312e-03 6.630565836153380632e-02 5.091582914516260550e-01
-1.890617123505592898e-02 4.273030315093765026e-03 4.380925313279973587e-01
1.036089905806319468e-02 7.893621683681011081e-02 4.778288341987875776e-01
3.943483265189093312e-02 3.392547159931767753e-02 4.735092098402085004e-01
3.717278829210737129e-02 4.836835545327929087e-02 4.894975177974805747e-01
4.955097733845103061e-03 6.077555740541933094e-02 5.304893011536641056e-01
2.671317812271230621e-02 3.311250725801830053e-02 4.610473250524599886e-01
1.528079120444174495e-02 6.388166375343470871e-02 5.183518978606973526e-01
1.005497477294673217e-02 3.766449492399142479e-02 4.563642378476432393e-01
2.131516844444233255e-02 7.308468906211210148e-02 4.862586817704541708e-01
5.689217945475654251e-03 1.856528745514629541e-02 4.473533354563949405e-01
2.082968660024641511e-02 3.418138128746363302e-02 5.303886495766138021e-01
-9.453123808668690078e-03 -3.885484028758190520e-03 4.370052628849204202e-01
3.607143764466324426e-02 3.060277240932159776e-02 4.666714579742899938e-01
1.512843625437284255e-03 6.289345742967128450e-02 5.268685483544628401e-01
2.174063057209803945e-02 6.534216489408210815e-02 5.081501583368860375e-01
-2.476092970770377502e-02 3.965124205258233753e-02 4.515925236002290011e-01
2.877850698485147352e-02 5.199239719432884044e-02 4.730463038580152157e-01
-2.047939087928393048e-02 5.271134413096673771e-02 4.576194423042470039e-01
3.483177371858670740e-02 3.786734805587452235e-02 5.104076020314926021e-01
-5.427293717298199704e-03 5.822159360728210165e-02 5.268062607015318033e-01
4.230417419928249323e-02 2.673960369177616481e-02 4.989591192964810129e-01
-5.352001640414381575e-03 5.745542112190439588e-02 5.392900729297295248e-01
-3.672244235014794633e-02 4.038294610360496778e-02 4.529929722325105601e-01
3.725888546797778006e-02 4.609149727134517760e-02 5.017175793253827454e-01
2.348529421127354758e-02 7.076215720273815180e-02 4.883380949846251040e-01
1.618313785430221946e-02 6.469285230658480823e-02 5.157380213550033510e-01
4.738283040341718065e-03 6.330223017900150906e-02 5.204050199023346757e-01
-2.175582202250548464e-02 5.630214938676721820e-02 4.598072764576350280e-01
1.671521615087726877e-03 2.807931685109247427e-02 4.504223204435180428e-01
1.554692176803700032e-02 6.579405855389892921e-02 5.135569614087370782e-01
-3.666686815418545436e-02 3.056910420386210053e-02 4.478185616350725540e-01
1.953688765608450201e-02 5.864774800634122570e-02 5.192210533461023569e-01
-2.300226591941997856e-02 5.774901511952046373e-02 4.620400462728376234e-01
3.077192272853204388e-02 2.977733218023733558e-02 4.619193327899708268e-01
-5.890180235182194968e-03 1.180901849781865534e-02 4.424240670045407331e-01
5.333041798333918240e-03 6.959694231980151358e-02 4.679592287427514763e-01
2.284156786306703463e-02 1.796918860163450316e-02 4.516815761065078316e-01
-4.576267025485289408e-03 6.196842606486183819e-02 5.328383329216046516e-01
8.246591346569378395e-03 3.184359417227479450e-02 4.534470272664821722e-01
-5.435578238985288094e-03 4.063133912713166873e-02 4.541888916987604219e-01
3.735563603939546368e-02 3.775896837763138836e-02 5.066484105894171197e-01
2.750429291892331901e-02 5.836198091719490416e-02 4.755032978229881135e-01
3.575843869247591345e-02 3.570783179231706156e-02 5.090301409900896967e-01
2.667365361040857988e-02 2.752769750273938859e-02 4.582425647780103417e-01
-4.594043126667508858e-03 2.108251800114503346e-02 4.463042155187808557e-01
-3.060671237817256390e-02 2.986907298940178965e-02 4.473652326729530282e-01
3.229266260097890529e-02 3.323691919389559074e-02 5.159779826747586950e-01
1.210272868081779113e-02 4.237128783232432805e-02 5.349543816206923097e-01
1.048365037555447528e-02 7.467940970603374751e-02 4.988918454968543914e-01
-2.707781936672957676e-02 1.784653417032587217e-02 4.426766121683012867e-01
-3.904691123295888321e-03 5.643464002727961032e-02 4.593212860370612383e-01
8.738525237154442377e-03 6.507851339301506943e-02 5.140116474165378202e-01
-1.545528281562771888e-02 2.737368378089810594e-02 4.469417837532038695e-01
-1.203836890153439643e-02 6.005283682360978634e-03 4.393719580574941275e-01
-2.396067304951061613e-02 2.055267606170819647e-02 4.436660057667951573e-01
4.078005127445132050e-02 3.800229549020900377e-02 4.817806752944108761e-01
-8.364295974217774918e-03 3.397746250127157974e-02 4.511012448329024815e-01
-2.529959447181960933e-02 7.665524233279701061e-04 4.377062849953438084e-01
3.189490669276357632e-02 4.142623872411164282e-02 4.690470064901832159e-01
1.376826893498516759e-02 7.473558472508676220e-02 4.995818275078936499e-01
1.133816668976983001e-02 5.313191964136064482e-03 4.430638467225184729e-01
3.912446022461951028e-02 3.166747930833806873e-02 5.037950365222486626e-01
4.046119057240533945e-02 2.752260722413999577e-02 4.702117232959275861e-01
1.455081582023874144e-02 6.179200219645734904e-03 4.441614003575959924e-01
3.929266861483931769e-03 6.348751784658164532e-02 5.172146622393340998e-01
5.237384621319948058e-03 5.209924667265024290e-02 4.602521020084542891e-01
-2.296772133994194609e-02 4.688339373185297643e-02 4.552904260907268963e-01
5.581924602947723260e-03 4.842126689972826165e-02 4.592217694259903005e-01
2.496250658525881599e-02 5.984436682220190679e-02 4.739275956982804683e-01
2.237327609024069783e-02 4.570020546297107883e-02 4.648418928830433949e-01
3.442768970664710632e-02 2.805977785231775212e-02 5.164947710706726536e-01
2.104119882610505643e-02 3.764509244314891839e-02 5.296492902287760485e-01
1.480536465757866654e-02 6.376330008118534509e-02 4.683089275269922691e-01
3.642169663951536768e-02 4.562015859854338246e-02 4.788037206530584289e-01
-1.904215615967324356e-03 1.116425713128542212e-02 4.428641435212016808e-01
3.637201688784401366e-02 4.254555005181609451e-02 5.064200159207356000e-01
9.088115668809204975e-03 7.134408322796817470e-02 5.032759466494730605e-01
-1.170678339853246930e-02 2.087491363095267741e-02 4.449416536445316428e-01
-1.215657722440635288e-04 1.036315438164411157e-02 4.428734955730990186e-01
-1.730261604709337417e-02 2.976411582530241740e-02 4.478661278857574701e-01
-2.806873588124069938e-02 1.990288152631431579e-02 4.434747719429893431e-01
-2.198908796801959942e-02 1.223076378024166855e-02 4.405644472993512917e-01
3.432702028802551986e-02 2.338312525674940065e-02 5.199531679147426644e-01
2.807368789116681043e-02 6.396525023298565982e-02 4.840055807855049297e-01
1.947428803848716070e-03 2.921466950589084177e-02 4.509479729669095827e-01
1.910641300946246124e-02 3.789779281397315236e-02 5.315469955542878600e-01
1.404205916748901654e-02 6.929714920165996883e-02 5.091768089514252527e-01
-3.358235677726013890e-02 -1.084797569086254007e-03 4.389741694344626577e-01
-1.268693719064498647e-02 3.142725369430775240e-02 4.492486827158911344e-01
3.858120767578276152e-03 6.183819928579008945e-03 4.419205149707632896e-01
3.800816111689146737e-02 4.626883296503190440e-02 4.940790909150872823e-01
-2.061974125804569291e-02 4.110598321393887922e-02 4.525989862579467560e-01
2.504759647381919058e-02 6.658677363004911198e-02 4.970834914464631882e-01
1.259450841026417758e-02 4.391611869258754686e-02 5.332459520243627571e-01
4.216071226702997748e-02 3.510513925906111332e-02 4.900923604215242646e-01
1.622948233388243205e-02 3.281418111071231214e-02 4.560764380293537146e-01
2.223685129127154006e-02 6.920378156061068875e-02 4.989005075644890597e-01
1.410393534118879744e-02 3.345273124378217531e-03 4.428540751754324045e-01
1.678690228436831647e-02 6.487553598303143210e-02 5.145889516641245498e-01
3.577713921119146656e-02 3.511141845835944603e-02 4.686806280920861045e-01
2.481985676830714138e-02 6.662503410072144472e-02 4.977795649475874051e-01
3.126323148454714096e-02 5.630005720596511359e-02 5.014200983922287858e-01
7.261586209338582489e-03 7.829458960614264773e-02 4.764827178371658367e-01
-7.798135617697135070e-03 3.697989657602655106e-02 4.525467398782416772e-01
3.712375823444791917e-02 2.098370015385678591e-02 5.166638905738730747e-01
-3.268152835301344622e-02 3.444066979896766995e-02 4.492582265159446031e-01
2.217185222497752156e-02 4.135678882603206069e-02 4.626604138897986163e-01
7.183552676546411074e-03 7.459576368151037140e-02 4.732634009182675738e-01
2.694283399928897385e-02 7.137277661770271425e-03 5.307244932963949280e-01
-7.058750090711823390e-03 6.016630384413680643e-02 5.385484038465526702e-01
6.032448367548671336e-03 5.215206427084723845e-02 5.324391250443220036e-01
3.348818366858141021e-02 5.407477341726858733e-02 4.831607972556962727e-01
-3.822350580465026099e-02 2.299054002897389301e-02 4.458297064139159493e-01
1.717355869646578978e-02 7.317630275750094948e-02 4.767142519311253768e-01
-1.258621096752492521e-02 3.747491068780538226e-02 4.520626987121849627e-01
-1.672553702844549461e-02 3.773217821432245378e-02 4.516089716398975495e-01
1.304766425625050394e-02 4.122000074087976695e-02 5.345104614991623704e-01
1.585518202099066298e-02 6.433173673489815669e-02 5.171387889999202736e-01
8.081868872642852808e-03 4.232141086583952883e-02 4.577549602006775187e-01
2.116312115084916304e-02 4.346749402096869441e-02 5.237104745206047074e-01
1.448792598485558469e-02 2.667683087774772033e-02 4.527441111855888822e-01
1.045507452481080806e-03 4.569900753486020456e-02 4.570588229089130872e-01
2.449916751842386858e-02 1.671203722840881867e-02 4.519841536533508175e-01
2.845812912113038912e-02 3.711655970493579759e-02 4.643214443223643850e-01
3.212397031515166340e-02 3.139484008651288044e-02 4.637480718040670191e-01
3.941703707230210380e-02 3.564391028001452633e-02 4.749005861087136626e-01
4.521113604978861493e-03 5.512554632025806756e-02 5.321898939802118811e-01
1.690456086159364615e-02 4.672769340325239745e-02 5.256826227669338936e-01
-1.040244384029796049e-02 3.119651721317338172e-02 4.495019218701974406e-01
3.324921765802005269e-02 2.740290087327868981e-02 5.202214504208515500e-01
4.151026489778702339e-02 3.752235141897694581e-02 4.923307248603313591e-01
2.569730547290310571e-02 2.798494469221744427e-02 5.271744571786406430e-01
7.283407331208463856e-03 6.382585999077658445e-02 4.650766399562386577e-01
-6.099538084345746368e-03 5.674941728209743907e-02 5.250933652680429553e-01
-3.163253402808745285e-02 1.839731490438464845e-02 4.434860408538265908e-01
-2.433581051376202883e-02 3.130804205325903034e-02 4.479468011501896441e-01
3.786808380075506325e-02 4.412610699277584592e-02 4.802226366823789672e-01
-8.147826220820046650e-03 5.901382806426903188e-02 5.355527380046034569e-01
8.467850060875324603e-03 3.055802391571720705e-02 4.529525193304470565e-01
2.777661129356762820e-02 4.722233685386582197e-02 4.692636959905537863e-01
-1.719379673396496944e-02 5.095568702621582069e-02 4.569505379219891972e-01
2.551156021888851752e-02 6.605424123346247123e-02 4.797626092696257172e-01
-2.600370377813157347e-03 1.000414045832244761e-02 4.422712274730458692e-01
1.592214896043334452e-02 2.320556810604055414e-02 4.516595072666351740e-01
3.611396463913884441e-02 5.034772334073120414e-02 4.869952992261220026e-01
2.509774888808167462e-03 1.903408647983143367e-02 4.469050145254670481e-01
-3.440842295714889587e-02 4.442945320266848686e-02 4.554489857250514362e-01
7.504067891707088926e-03 6.929275454544124579e-02 5.065588888731129558e-01
1.919829257211579793e-02 3.369568682726321873e-02 4.574359860984965609e-01
3.605914802845172629e-02 3.391687824098390397e-02 5.092433606374808797e-01
2.425527250988521524e-02 1.943543521518332345e-02 4.531114373817199947e-01
1.741170732069084737e-02 6.452129248805504869e-02 4.700771491902658306e-01
3.483570216320789042e-03 4.707026700821314441e-02 4.581547237300283015e-01
2.547659720060316615e-02 6.705275599238541551e-02 4.939142516762252133e-01
-2.448691428123743116e-02 5.070907195819122221e-02 4.572600515710456559e-01
-1.413272166494604180e-02 6.645244965927053424e-03 4.392605237344583968e-01
3.956890757452921625e-02 3.199221208569253544e-02 5.026604028535810453e-01
-2.699292172143302748e-02 2.606995257313404757e-02 4.458884049456267595e-01
-1.631709266258910820e-03 2.410855260564762417e-02 4.481283010035293501e-01
2.726058500049704722e-02 2.565260878856909926e-02 5.259329349416326238e-01
1.026806579953576208e-02 5.174115677855625761e-02 4.619368535358348571e-01
7.831692270355019095e-03 6.491522004617346353e-02 5.171189377842982937e-01
2.819947875805701304e-02 5.928555818554234053e-02 5.054789272504278674e-01
1.446557608991544050e-02 6.194863186249990883e-02 4.673456259701833093e-01
6.600055369799766834e-03 5.528042223841058561e-02 5.305221404677528119e-01
-2.531655458651045285e-02 3.358821996727871795e-02 4.489116542866000703e-01
-1.645212878931913425e-02 3.584562706359034623e-02 4.507815348277425249e-01
3.207690906803359332e-02 1.955465555567287642e-02 4.578137656386569443e-01
-7.416760407765357610e-03 -7.104784550959176125e-04 4.378477035564233844e-01
2.756814190939311723e-02 1.999436878014701491e-02 4.551787801376154796e-01
2.624065042173411022e-02 1.794400075095619121e-02 4.534889611677792587e-01
3.644718527887665788e-02 4.965457598820682134e-02 4.898956799082799796e-01
-1.486648142370293121e-02 8.953928907500633555e-03 4.398482626244841764e-01
4.048598699530654016e-02 3.212068915811452929e-02 5.004411045164840477e-01
1.743235791934934567e-02 6.788113532181332122e-02 4.717302157223791093e-01
-5.146286816733252126e-03 5.725531900711117173e-02 5.245924140336022390e-01
2.127223136806792245e-02 5.777375285506745201e-02 5.178726243195036494e-01
5.782518892975659075e-03 4.668829039866294328e-02 5.365654629751475113e-01
4.063940098692988938e-03 4.655268245145938177e-02 5.378789662351551870e-01
4.273679155785672229e-02 3.046684796156078762e-02 4.940252765169415583e-01
4.016292415781351488e-02 2.483474966696804995e-02 5.061041466385468590e-01
2.878234279887937480e-02 3.477194086191787853e-02 5.210611595893624992e-01
-2.053942589455635265e-02 3.128921326204699843e-02 4.482477388523377626e-01
1.974084416143680361e-03 5.778015238122349850e-02 4.609651612732222348e-01
-5.784574203183463770e-03 6.123702518333387634e-02 5.348026816315517573e-01
2.843230383620708179e-02 4.882833854884765373e-02 5.146536426733404612e-01
3.150402062947361970e-02 5.854562221000954303e-02 4.917043861865913468e-01
2.064140921304944559e-02 7.016147124560548343e-02 5.004448594535066963e-01
3.668435349692503178e-02 4.460982665312438616e-02 4.783077196158559974e-01
3.015504479845901743e-03 6.073310033385002221e-02 4.621327578360853172e-01
1.056193174446142143e-02 5.682698772987544028e-02 4.637251436134791072e-01
1.676741752826278742e-02 4.850094839606142183e-02 4.631272610659452615e-01
3.391980187804402580e-02 5.388047740396337271e-02 4.846970560302343856e-01
1.289873413599408603e-02 8.354292387029086872e-03 4.446915208051792634e-01
-1.821652102965904199e-02 5.653807071351323044e-02 4.594576841209278006e-01
3.659233501278468664e-02 2.676769416677462696e-02 5.123843304963189293e-01
5.621525548140550790e-03 6.890200158244097484e-02 5.042359880614176726e-01
-1.270763594533216509e-02 -1.438776383167122280e-03 4.372024224509520329e-01
2.244777049462214416e-02 7.168123732052197883e-02 4.913369695733359466e-01
-2.055991626613158998e-02 3.505749088443491784e-02 4.499451148870096118e-01
-6.160740092402986791e-03 4.573096916744612966e-02 4.557801229900709239e-01
3.589813059111775922e-02 4.283777690934392063e-02 5.072524996705811695e-01
-1.530616079673646421e-02 5.469026176572118481e-02 4.583002232155406475e-01
1.592443863713352559e-02 7.718211466485373762e-02 4.863998525105751591e-01
-8.588435446467868051e-03 1.183085924333470221e-02 4.419900699933812516e-01
-9.314922097332100498e-03 -4.816801138940073751e-03 4.368752497928083955e-01
9.857612770460041224e-03 4.590941717436541197e-02 5.337248654230848377e-01
3.210171742809625473e-02 4.700394583730534842e-02 5.109330424553163441e-01
1.310708786511171134e-02 2.005723973589718448e-02 4.495896520486861170e-01
-2.979023675012200129e-03 3.137937592041542545e-02 4.508297942068812958e-01
3.004671377217655800e-02 6.085143861885827787e-02 4.926019371592286755e-01
-1.076402759093838743e-02 2.351416107206691711e-03 4.383875436862753050e-01
1.444528585747366671e-03 6.848985974155173684e-02 4.665983627216162555e-01
3.954744779356938848e-03 6.311774717352466868e-02 5.260882337537049480e-01
5.398024114489785238e-03 3.663397486385501847e-03 4.412519147465727709e-01
