-2.731698077030354083e-02 3.547866844498827332e-02 4.496443842742666175e-01
-2.435138426994343241e-02 5.862876644690790534e-02 4.658598312421111109e-01
2.300694963187522625e-03 3.010617982709858434e-02 4.512378210946321744e-01
-4.958581552273002603e-03 8.409892149250747587e-03 4.412434870346824134e-01
-3.305234468482866339e-02 -2.282903691627215757e-04 4.387918066600207112e-01
2.004789689065117342e-02 7.080182264270583337e-02 5.000915351437335010e-01
4.410716553307302695e-02 2.766739369305771731e-02 4.832359348777299224e-01
2.205779197408616263e-02 5.191834164403546364e-02 5.190331511528614161e-01
3.291085949096896057e-02 5.279296569676965312e-02 4.789432874873362778e-01
4.006699027615080733e-02 2.965656003721587122e-02 5.027797307235428725e-01
2.792570272826885858e-02 6.412344482180198924e-02 4.931969781264570751e-01
2.883322510456946125e-02 4.243734806384483887e-02 4.669496511209323963e-01
-2.423509708032940344e-02 2.405639993166025156e-02 4.449704269971909709e-01
-3.668501389073947766e-02 3.890498152698146361e-02 4.516375405135631405e-01
3.900905732724509190e-02 2.870436308315781407e-02 5.061500367364263342e-01
3.379675334602445097e-02 4.967766405533530910e-02 5.058500012230547904e-01
-3.460498972178858296e-02 3.919773983590223165e-02 4.513865190474565803e-01
2.701160409124789274e-02 3.463284313459292357e-02 5.250298273507659763e-01
3.950519358533337994e-02 3.405111256160204408e-02 5.021440775161323256e-01
2.277153054144551159e-02 3.782365347941932243e-02 4.609216169346430081e-01
1.220198859592920744e-03 6.282888444530972116e-02 5.247643062923166291e-01
2.090195373957887820e-02 6.321947117605195010e-02 5.127029694492200029e-01
-2.902474510711284747e-02 3.031430085921820589e-02 4.474642860106408659e-01
1.831480770002266376e-02 6.740191063963107965e-02 5.077884209228467061e-01
3.944219600526679970e-02 2.049107849707993562e-02 4.640878921050224926e-01
8.809871294448417406e-03 7.178409366678074888e-02 5.013038855915981085e-01
3.436642789346887328e-02 4.835439736724608112e-02 4.769233630228909004e-01
3.536902760294514947e-02 5.173432409202745330e-02 4.865881941246818498e-01
-4.188034037072877955e-03 6.021645155822466511e-02 4.600491914117357806e-01
3.637950388480280968e-03 5.796668699397287267e-02 4.611116735437659764e-01
4.864725402890022858e-03 -8.105016987021308045e-04 4.395903247297790473e-01
1.817995213062626597e-02 3.370642073673664474e-02 4.568541532795185600e-01
3.168248854588776725e-02 5.819557319298716141e-02 4.844923522426244911e-01
1.683060837629767395e-02 7.576295392568323239e-02 4.944560875508738351e-01
1.539691104052104409e-02 2.928107232567007945e-02 4.540036204379894746e-01
2.088073256465377073e-02 5.331907470519275938e-02 4.668127624289721278e-01
5.813914015444027021e-03 5.579561315250843034e-02 5.307049688652603070e-01
2.856411383972569384e-02 5.286575489834206831e-02 5.119590077810631801e-01
3.966938226022232589e-02 1.914838760503384529e-02 4.637013512703492268e-01
1.476769671731003285e-02 4.778708162177864455e-02 4.616161498464796953e-01
1.599200045913963183e-02 7.074686758940430809e-02 4.721247054878660032e-01
1.123974408688713060e-02 7.887328025306163115e-02 4.815730706827407448e-01
3.621333867708134008e-02 3.460803148296232729e-02 5.084439949668695391e-01
-3.821415579099553261e-02 2.645942007722126149e-02 4.467974803279563534e-01
3.560986408316627050e-02 4.478762717061085530e-02 5.062144479378921647e-01
3.515887844085462642e-03 6.010746984232944595e-02 4.616718748437835251e-01
3.613063547729972614e-03 4.642663911105653768e-02 4.576945175763006968e-01
-1.919271581838867188e-02 6.017749090627973196e-02 4.655681635089064518e-01
-3.552883147637947436e-02 4.290191826388942142e-02 4.545581770187139270e-01
9.189275384317888498e-03 7.254925365490186295e-02 4.703667672613483508e-01
3.673662296650748865e-02 4.933022901118307851e-02 4.878955312227997720e-01
3.428469982468793781e-02 1.788999211302912465e-02 5.224365836817831399e-01
1.349151225399852772e-02 2.253297761578869872e-03 4.422989525268900546e-01
4.504973485968712804e-02 2.313666337077460722e-02 4.792224497016409623e-01
2.762557065536482351e-02 1.514868150052583323e-02 4.529335654043424308e-01
3.623708923467783283e-02 2.768697122093661048e-02 4.649470726851914759e-01
8.030736932269879474e-03 2.725634821644239494e-02 4.512877590051567744e-01
1.183079429796549467e-02 5.107072219608275315e-02 5.277104037451263441e-01
2.306245085865302885e-02 7.038056316187835115e-02 4.824191024121330384e-01
2.111689237891673301e-02 4.204094800619236766e-02 5.260672477536654235e-01
-3.233319979102517588e-02 1.395522706012345196e-02 4.424061166210150886e-01
1.871988404923521573e-02 6.744793071546528740e-02 4.719346462430543121e-01
-1.081012287572005043e-02 5.835156636044490364e-02 4.592561952087145238e-01
2.668126567431959584e-02 8.651616640158964894e-03 4.497135863869984873e-01
1.631317821421084113e-03 6.338405606789847269e-02 5.310875490788606879e-01
-4.422197653685326635e-02 3.357805420107538852e-02 4.500013674013711440e-01
6.004795755641756903e-03 5.410373494080265855e-02 5.313968872494857498e-01
2.768362201618744869e-02 5.137039033345072031e-02 5.138071845741010168e-01
-2.466786141876509478e-02 2.530383936909235288e-03 4.378525648411894511e-01
1.858420683505476040e-02 5.772365401528113671e-02 4.672060914709554869e-01
2.254957281806090411e-02 3.173370028613261423e-02 4.578146123014476543e-01
4.086500480965250121e-02 3.795534958856802699e-02 4.827860928012661645e-01
-4.102550890784208149e-02 2.275002527024607563e-02 4.463015596745419922e-01
8.783746980176473235e-03 1.508356929861722449e-02 4.464693966178122642e-01
1.698519946102862790e-02 7.531553087285071391e-02 4.795244581548861462e-01
-2.218924657495594324e-02 2.192577611269238766e-02 4.441741731582442565e-01
1.544023446582895413e-02 5.870450775426701295e-02 4.659478987724867127e-01
3.863214499049815592e-02 4.444729688188171768e-02 4.964241137165522066e-01
-2.216593683562181893e-02 8.666101075451229305e-03 4.393105603727306963e-01
-1.559707896721484631e-03 6.985066622367841482e-02 4.693693484315886733e-01
2.054131554157645392e-03 4.735518304593213518e-02 5.372725887391088806e-01
3.749572965641738420e-02 4.397040597573856346e-02 5.023928938731954119e-01
3.584839709208991615e-02 4.489730879196662805e-02 4.764512127892559512e-01
-3.426075117922651458e-02 2.852405371907349666e-03 4.392642623459145357e-01
4.497810749340159370e-02 2.337790926738689268e-02 4.792291999081103593e-01
7.099953698886708915e-03 7.530936608599080040e-02 4.733924907814583971e-01
3.960240735351180236e-02 3.984723423697091038e-02 5.000176347789154763e-01
-1.749859202058793098e-02 3.152302925852345367e-02 4.486205970988269565e-01
-1.714362816776152446e-02 4.318148341749764724e-02 4.536083591097371248e-01
2.127286253645156722e-02 7.352175861440664317e-02 4.871894740006160740e-01
-1.479485523414400538e-02 2.944198164895013917e-02 4.478927475355713450e-01
-3.210543267959016511e-02 1.304878238132278073e-02 4.421441234795517872e-01
1.617294709062670754e-02 5.804133349591943797e-02 4.660543495385234825e-01
2.616436201531454828e-02 5.550160310342674985e-02 4.719943836077902244e-01
-7.312164527917436666e-03 6.958088760887943224e-03 4.403963199561203856e-01
-7.253824865168012614e-03 6.013060442009530299e-02 5.360694803918983897e-01
1.175626996118288997e-02 -8.355168526903902076e-04 4.409372186296010576e-01
2.722900302503680758e-02 4.054451134184967886e-02 4.649540516269257684e-01
2.507292505598144455e-02 6.187369306332807239e-02 4.745086106737693155e-01
2.472552783638256452e-02 3.078694832032472309e-02 4.585288029781435792e-01
4.252697765010740594e-02 2.856415696160488626e-02 4.972016508523736666e-01
-2.869058109053728572e-02 -1.125983108493558427e-03 4.379522976805693135e-01
-3.040904816469870361e-02 1.676709988643475258e-02 4.428211781679947112e-01
1.543065696630318250e-03 5.639290912647765969e-02 4.600452591919424461e-01
-3.085972405047156947e-02 4.954300066367609695e-02 4.578712873025576613e-01
1.931622462407725505e-02 1.775815081847324783e-02 4.499349045506045308e-01
4.240508621871641459e-02 2.557091793558916373e-02 4.726521003546291233e-01
-1.838364055149591461e-02 2.082925028360026881e-02 4.439594520208744455e-01
-2.272246942892274663e-02 4.296291949431131629e-02 4.530958593768794618e-01
3.114640517348938806e-02 4.574331052419533528e-02 4.707471697345576578e-01
-5.247006271199091201e-03 1.806448927515109590e-02 4.449023650457391565e-01
6.432460046529320415e-03 2.605592850519992260e-02 4.504334872547499646e-01
-2.926373841277708776e-02 3.643222574244057294e-02 4.500351624174799281e-01
-2.118694926596082634e-02 1.454992773033583590e-02 4.413754668684545246e-01
3.450723984988775250e-02 5.156395662488929416e-02 4.988448672077820389e-01
2.112779166755305443e-02 4.475821788208866198e-02 5.229322423684785726e-01
3.164109385261342638e-02 1.973897365126730738e-02 4.574265021210652815e-01
4.387170073098312778e-02 2.382579094881437029e-02 4.970261568834417609e-01
3.643873351302785030e-02 2.597876289599918356e-02 5.136808152922832660e-01
1.044973933305762617e-02 1.809866845302766231e-02 4.480534807414908172e-01
1.396757087957261473e-02 7.130250655607245011e-03 4.443887342762665171e-01
3.347600025264607301e-03 4.748938283836658808e-02 5.370481139441560803e-01
1.054542884159103203e-02 7.709239685681935905e-02 4.866900478169652322e-01
2.394688525868055029e-02 6.359963591924729098e-02 5.081866386915423472e-01
3.946354493768600147e-02 3.094542968462618907e-02 4.708340324926967302e-01
3.227666311437965563e-02 5.714291012030985051e-02 4.836142691776096902e-01
1.194358911804464796e-02 4.724077737236994506e-02 4.603984904522517296e-01
-2.834840360467812126e-02 4.516384674394978427e-02 4.544600703340503367e-01
-2.277434884859718105e-03 1.218050677995149988e-02 4.431541990119345353e-01
2.380080960678656460e-02 1.718622946765007223e-02 4.517010015875728701e-01
3.574885428536003773e-02 4.027507368126926474e-02 5.086647832423129012e-01
2.899985190900367105e-02 3.429445516229415875e-02 4.628477665534202479e-01
5.151714394192324561e-03 1.164791298087359053e-02 4.443490571546193646e-01
2.624290481261130382e-03 6.152029757929773635e-02 4.619387549239317714e-01
-1.585988681609166312e-02 4.390336541753762228e-02 4.539877193484587736e-01
3.549435389362128046e-02 5.058104218021024223e-02 4.950094793153376194e-01
4.086574747211381420e-02 3.667587599415939731e-02 4.967888694586237164e-01
-3.463109395088867504e-02 3.738993060700367826e-02 4.505388453834369145e-01
2.617091676740707085e-02 4.127009960905765606e-02 5.199531570082047693e-01
1.862502423070574488e-03 4.401853199089822422e-02 4.564738535888965831e-01
-6.549737984627360468e-03 5.727278501100505070e-02 5.250661873180714201e-01
-1.305216389985699652e-04 6.037040656064243671e-02 5.167888059426831715e-01
8.235466459849266618e-03 7.099844874137316297e-02 5.026883355790918717e-01
1.535706113719953296e-02 4.717654322514539672e-02 4.615843792209667895e-01
2.585343894021066569e-02 6.774458237431793539e-02 4.889423189436737371e-01
-1.477201445766795559e-02 -7.127001843812435719e-03 4.366612784639082312e-01
-9.779342495041698502e-03 3.603446272624133417e-02 4.516833812460305797e-01
-2.155824330458018523e-02 4.599395360829884594e-02 4.545211397676829912e-01
3.078234181353688842e-02 5.888664099942787084e-02 4.959169847983835311e-01
2.880422821443000096e-03 3.711386725435593392e-02 4.542013003349700817e-01
-2.254505075456801622e-02 2.101934813112521852e-02 4.438267920542599554e-01
4.117894346747805190e-02 3.333420196993157336e-02 4.982174591971578193e-01
3.004247704723119958e-02 6.048671848002164231e-02 4.943871686240939312e-01
7.470696612640828453e-03 5.800988682638094640e-02 5.283169391321069774e-01
9.178482871884184602e-03 7.363935254760675675e-02 4.986507782042277070e-01
3.339951531544756852e-02 4.062697627868900457e-02 4.694248109063351992e-01
3.695123156215197879e-02 4.718148928367305039e-02 5.010919921912206920e-01
3.015377946216443381e-02 4.509536249188586532e-02 4.694612507016416858e-01
4.093781660606280598e-02 2.927708330904136083e-02 5.006723726419871623e-01
1.521933622777837426e-02 1.986674933399726686e-02 4.498486020237677518e-01
2.604318131990023683e-02 6.752501947985362074e-02 4.854312015395055302e-01
1.136485438319880404e-03 4.807419759595181474e-02 4.574433742557854066e-01
-6.978333189491023325e-03 3.631367125200289647e-02 4.522177420590667296e-01
4.119184351291236418e-02 2.848235803379411957e-02 5.005315990415085681e-01
-5.339250071943042047e-03 6.092952941667401090e-02 4.605360689931162210e-01
-2.871964732537521381e-02 8.946166561171831413e-03 4.401818246934847689e-01
2.407801116808099343e-02 6.211217258600595231e-02 5.099507488345924600e-01
2.767460321725623285e-02 6.373902918741981838e-02 4.955844457836584005e-01
-1.135699964421773255e-02 2.411489479363907937e-02 4.462028993886799633e-01
8.421174100895757048e-03 5.920906830499746143e-02 4.631558582166548921e-01
-2.624846912120707559e-02 1.379085978533424114e-02 4.412389859865636921e-01
1.897900539865867570e-02 6.061971232537442106e-02 4.685065262539565567e-01
1.859482117713460655e-02 7.563774360175393174e-02 4.858229827015134727e-01
4.210434062817637602e-02 3.536509966518572301e-02 4.891456842475435662e-01
3.572156632128965087e-02 3.196657584031022820e-02 4.667324088618379219e-01
-7.058156897847876234e-03 2.382096656813661659e-02 4.468385970823658404e-01
3.146853749268029368e-03 6.349150274681314432e-02 5.297069883600160622e-01
3.647519634420701151e-02 2.404862193121949307e-02 4.631115854075241733e-01
2.310531576021583600e-02 6.320671690558964106e-02 5.098092751429512681e-01
3.256277687568313178e-02 4.759093695148038095e-02 5.097387148327495732e-01
3.657889555869782428e-02 4.869285682847036140e-02 4.947251434739314835e-01
3.061705725780036746e-02 4.472600514862967724e-02 4.696089855204341190e-01
-1.417492040471420717e-02 2.872149955372023389e-02 4.476321463770593923e-01
3.907914035257337160e-02 2.961949956750137974e-02 5.053170895073539892e-01
-7.745040959815606245e-03 2.307889373247702658e-02 4.464310960448500398e-01
3.896780547185647176e-02 3.578027539184459177e-02 4.738382569233419717e-01
-8.178090035073129135e-03 1.949534477898269905e-02 4.449557717185577133e-01
8.646179834759621166e-03 7.659348804951074396e-02 4.748598293301488082e-01
-1.397888735908372343e-02 1.483525491652049229e-02 4.421942017089766641e-01
2.723597044296691139e-02 6.589614950218918021e-02 4.894699831327585793e-01
3.663863417546429219e-02 4.801957707400027892e-02 4.997998810557244265e-01
-2.727115875756411408e-03 2.229277876188675428e-02 4.470832405715703950e-01
-9.530789280686126699e-03 3.560074753872061876e-02 4.515266140414752050e-01
3.820882074719766930e-02 4.596547459731032542e-02 4.868725987592715243e-01
-2.972868429386249164e-02 2.174716129917892912e-02 4.442675960464893548e-01
3.128608365965044463e-02 5.080317530364281131e-02 4.746975400182512628e-01
3.517069436540739419e-02 4.667393227529815364e-02 5.057063392845295713e-01
1.092452638426738912e-02 3.127927181514014721e-02 4.536313815323513854e-01
7.611517994223892386e-03 6.552897987511667466e-02 5.112175506799032654e-01
-2.921004148135410670e-03 6.829629854710544956e-02 4.658782552652525610e-01
2.757783539050088356e-02 2.144973297739449780e-02 4.556702498096509291e-01
-1.170598901406595151e-02 5.732544713636148620e-02 4.589239326399526253e-01
-9.727818280763234765e-04 6.380528262727173938e-02 4.630541695091218157e-01
-2.520697678762037069e-02 1.312702979357693346e-02 4.409030412085483408e-01
3.182388428890960824e-02 5.137202580392169482e-02 4.756530664180352863e-01
-2.018953231078474478e-02 5.688432256434224066e-02 4.596892528175042791e-01
1.877075097662907546e-02 6.994826753991570389e-02 5.035868630133832902e-01
-3.671191481515281851e-02 3.271919353148505100e-02 4.486882012446597456e-01
3.367237278626760560e-02 5.211827162374918498e-02 4.803395068561487902e-01
-3.683526421924948613e-02 3.561265138021249554e-02 4.498772360492488964e-01
2.497371677464988587e-02 4.009023263703174328e-03 5.323050240332540817e-01
4.058839453320300245e-02 3.940533615396656086e-02 4.947977901942448020e-01
8.621472568988552271e-03 5.216475585550810895e-02 5.300579663402803510e-01
1.265081841864200765e-02 6.637427051679639645e-02 5.147883543857777466e-01
4.071933018357901113e-02 2.002915572499334995e-02 4.656734713947741078e-01
2.121351043032497150e-02 7.047087337690151332e-02 4.984059379904238196e-01
3.577998144993211477e-02 4.751943254649532850e-02 5.035068290529586266e-01
-4.413222633068688248e-03 5.859456702007309614e-02 5.378089363859140937e-01
-1.072868343674661211e-02 9.944376655346498853e-04 4.379412449027185739e-01
4.396069909865724101e-02 2.554331483542020970e-02 4.948741733771560569e-01
1.613602900650960500e-03 7.472033298894251684e-03 4.419692349901179207e-01
-1.580982575027493377e-03 -1.307340593338002580e-03 4.382452774336090262e-01
-3.236927660138609608e-02 1.829204721200695591e-02 4.435564308988768079e-01
3.179126274909638977e-02 5.813018978936339287e-02 4.911484384555699911e-01
-1.533944133510098048e-02 1.422884790940211718e-02 4.417352562610876165e-01
2.859639909654000667e-02 4.840696258599588853e-02 5.143919172152421337e-01
1.478471317091684112e-02 5.839822419971771317e-02 5.229981589339798287e-01
1.689206272352017368e-02 5.756332615032540984e-02 4.662278762531583132e-01
2.831117719746163719e-02 6.288223251376064138e-02 4.957660044497814722e-01
9.759995311048319522e-03 6.368513668637042213e-02 5.256390859382822356e-01
3.673547961170852555e-02 4.459637889386163651e-02 4.779172233986604956e-01
1.596643752414722908e-02 3.481307815437936770e-02 4.566493709709208426e-01
-1.909236373584917478e-03 6.053193907577527483e-02 4.604549308860069745e-01
2.929642982903882600e-02 5.757361216067814758e-02 4.763146479855594473e-01
1.264520945836641701e-02 6.500694293510461685e-02 5.196409032670108452e-01
2.721290243908824208e-02 6.314213659497835973e-02 5.007545015611429839e-01
8.519340421538405123e-03 7.377441898222839023e-02 4.979080876463193306e-01
3.256110536867368871e-02 5.141855725741843047e-02 4.764837665665319077e-01
9.362320429527729720e-03 7.619120251377473063e-02 4.888167958219818976e-01
1.505159755433331525e-02 4.848741728243481652e-02 4.619965964130912650e-01
3.375563670488140530e-03 4.264243518038249303e-02 4.564256058926492443e-01
3.010141973790334685e-02 6.104563282685494807e-02 4.869497825780079725e-01
-1.258710317096094558e-02 5.660255978569124491e-02 4.586629840500091038e-01
2.953829649625548323e-02 5.561253828253975157e-02 5.089213987283269791e-01
1.738685470786612355e-02 1.296864528785513816e-02 4.475668322755998463e-01
1.535420624337350236e-02 1.725257731427644672e-02 4.487984632927589090e-01
1.862963894449123220e-02 5.495057597271649219e-02 5.208860141054028059e-01
9.436496357786466199e-03 4.142083901620900038e-02 5.347471970542713171e-01
-2.394233920505772079e-02 2.503073007459746813e-02 4.453988917173994366e-01
1.156852498292912888e-02 6.348855499335706587e-02 4.659692829222403243e-01
1.326058641078980624e-02 2.062422317897171994e-02 4.497266721449524329e-01
3.868513161116694798e-02 4.112911983574811525e-02 4.784396971651115327e-01
7.074615077665114167e-03 6.924683195116701495e-02 4.674660848468970564e-01
2.278564700715024136e-02 5.661542935955193173e-02 4.697504001849459598e-01
-1.312406497872674674e-02 3.488865574660828667e-02 4.507000269416989169e-01
3.796520521233619910e-03 6.402227076376820758e-02 5.146090994818997011e-01
1.385263648757604701e-02 7.451544126668954715e-02 4.996921407603745480e-01
2.237432865841551544e-02 3.687639689057803372e-02 5.287234082792978684e-01
-7.255372798298453767e-03 5.897572079218014324e-02 4.593390190085580582e-01
3.461724751042444259e-02 2.421297344818859262e-02 4.616419381435746261e-01
-1.956793352581057133e-02 5.415018974243906297e-02 4.581818480338862298e-01
8.361058027917964153e-03 7.302477579403995889e-02 4.707312303521301033e-01
-4.645585806950986753e-03 6.188596611962026567e-02 5.303617609895207030e-01
3.173823810705386078e-02 4.159256969842577145e-02 5.137865760937101456e-01
-4.320027695047783806e-02 2.370765125414280375e-02 4.469846152443084919e-01
3.424562461073903802e-02 5.110802557375836858e-02 5.020243086347189188e-01
-9.627151129909639060e-03 5.236384722372500189e-02 4.573557319662058807e-01
3.157691142662207712e-02 1.940050136365418371e-02 4.572333925838152902e-01
3.285150596478846052e-02 3.976947085232193646e-02 5.129120134376253803e-01
-1.592999988333030107e-03 2.930379537431281652e-03 4.397362873914406056e-01
7.606949705868757544e-03 4.582681240795336702e-02 5.358490008103375946e-01
3.684226173492657908e-02 4.903305911658144278e-02 4.892896596754270910e-01
8.102678152235498824e-03 1.535956101411233531e-02 4.464429781093372518e-01
2.385421407940831184e-02 2.016759650239264429e-02 4.530960956532608108e-01
-3.585316221965051398e-02 3.859252818185496259e-02 4.511661504356426211e-01
-3.503250944376543052e-02 2.977831546479293903e-03 4.393850691898726901e-01
-1.194216621569376725e-02 -5.523415043332981569e-03 4.366106552858065037e-01
-3.007808154649009233e-02 3.123302838008513386e-03 4.387410340015163168e-01
2.818188072305110800e-02 8.959394200242769279e-03 4.507764202462476444e-01
8.039089994687199925e-03 6.435002530582518976e-02 5.217857211015481944e-01
1.990119638268493876e-03 2.680878778434469048e-02 4.498411777604595652e-01
2.666671309209358784e-02 1.261501481681084717e-03 5.334301646072715508e-01
-4.294679243472449004e-02 2.643687319005988065e-02 4.476929576564359081e-01
2.239830898784817351e-02 4.036470303331177872e-02 4.619657718521931744e-01
1.500597485840840864e-02 7.713580493030483543e-02 4.830947124343960564e-01
5.636961317865519724e-03 6.936758187609709525e-02 5.027313224665116431e-01
2.171493700451269937e-02 7.127372076680582591e-02 4.949393434713393325e-01
4.156978363728551507e-02 3.559906818702133352e-02 4.821178522243327880e-01
2.680225350500185788e-02 6.648250582823690691e-02 4.886238429870238265e-01
4.006555878483276933e-02 3.979980874843522948e-02 4.974313484272969710e-01
-2.606377556356081690e-02 3.095704471833349292e-02 4.477340031838387135e-01
-1.352127455150039723e-02 1.774629966919211155e-02 4.433740053508294365e-01
-1.132354895695171504e-02 -4.441457473150669036e-03 4.367968454156647695e-01
3.388789156014061776e-02 5.229443044399093021e-02 5.006016519660512198e-01
3.892424385012972776e-02 3.290030958720509269e-02 4.713608791046416391e-01
-1.577542851222375059e-03 4.507300635446629539e-02 4.560594868421124493e-01
2.059421867623697014e-02 3.040416023765712614e-02 4.562124645919388155e-01
3.086624415218380130e-02 4.918076632642688628e-02 4.732009287513762041e-01
1.851952416326799883e-02 4.157522690173084262e-02 5.301270581836142748e-01
4.160298315575156926e-03 3.945638414724703807e-02 4.554164755363326877e-01
4.761036073082028017e-03 7.312473587985837686e-02 4.717076259851960551e-01
1.305680492824864460e-02 7.628517111160798558e-02 4.910309615880782963e-01
2.375726714949120619e-02 6.948909718919953071e-02 4.818631206767067798e-01
2.980303966664351462e-02 6.007950694049438850e-02 4.978378453790771596e-01
2.254694829406822532e-02 6.192475739220201086e-02 5.122208854120129384e-01
3.418053994795413469e-03 2.913687727786106602e-02 4.510755672772026603e-01
4.715699561054392461e-03 7.262603721864133166e-02 4.712791803624838405e-01
4.245518089381443427e-02 2.396564713614776285e-02 5.013872297801923450e-01
-1.060734671388512129e-02 1.484367221082857381e-02 4.427684526853875036e-01
-2.780791800768556143e-02 3.342283297908470868e-02 4.487643327382343506e-01
1.894169317553409670e-02 7.321887242090380221e-02 4.785872410048972458e-01
2.183249592856902760e-02 3.656983699689702466e-02 5.293774654404536095e-01
1.739172368165347107e-02 2.049318882477570158e-02 4.506105548572871822e-01
2.355492300741233308e-02 6.184602267129020448e-02 5.109894837121939926e-01
-5.473552079493246639e-03 5.100272351457888625e-02 4.571831050739459390e-01
7.300927770452593675e-03 8.344384806493456916e-04 4.406114806486015611e-01
2.379898532029239497e-02 7.002460465288344593e-02 4.909175286526865634e-01
1.325210736523623964e-02 7.371484798191831056e-02 4.732079978914353613e-01
4.377978294308189355e-02 2.873329148628792074e-02 4.832182804640008378e-01
3.411355252202119027e-03 5.439364859752932047e-02 5.332694083668849672e-01
-7.424267573715573332e-03 5.849183007133958168e-02 5.295961851634982676e-01
1.827166201448211444e-02 5.458369363553419729e-02 5.211958303286148286e-01
2.728968300426529159e-03 4.734141682530962347e-02 5.371293035997393162e-01
6.874584988155499690e-03 4.707670951599684378e-02 4.587838093871770551e-01
4.322588187609360116e-02 2.905781039188251591e-02 4.933048539327842263e-01
-5.117726491383716228e-03 4.161891013439358855e-02 4.543554230366326774e-01
-2.282349851161481410e-02 -1.663054921059095928e-03 4.369492945842333165e-01
2.217338210410070218e-02 3.932014464165681233e-02 5.274536525057624825e-01
2.364662750988967901e-02 2.915126723406402665e-02 5.281789906884568619e-01
2.751417628858265907e-02 6.382401255543163066e-02 4.959844376322706250e-01
3.738882108345149141e-02 2.435861039933175445e-02 5.128334794731026491e-01
4.232429463589431479e-02 2.840686312849519113e-02 4.749356277034638696e-01
-3.462557764806967545e-03 5.856578112238356587e-02 5.214090084888335364e-01
4.221300926799933378e-02 2.470393779413029151e-02 5.013523017434202700e-01
4.119170712600128681e-02 3.847997021418089747e-02 4.900889417801082004e-01
-2.539117214882435913e-02 1.938245481420759753e-02 4.431924085133525093e-01
2.944453806927085915e-02 4.218970753791494166e-02 4.672339040774153851e-01
1.602880973404646053e-02 4.665793017878666626e-02 4.616187145174271422e-01
3.738255067582866437e-02 2.227682792437752149e-02 5.154170081424264138e-01
4.087095910332710913e-03 9.991248763057939200e-03 4.434575147546525598e-01
1.784812264110639465e-02 7.485773788234729997e-02 4.968290546072108294e-01
-9.361193905912711458e-03 1.550498103197540944e-02 4.432331977890748287e-01
2.048181071745046669e-02 4.721449851100661954e-02 4.640740850744913271e-01
-1.764750117847473793e-02 4.600149583347755422e-02 4.546658354660917944e-01
1.689563394579007491e-02 7.569060364184042322e-02 4.808034443486432497e-01
-2.606344400815524542e-02 3.689664038841785482e-02 4.502657396099623011e-01
-1.091543880211064826e-02 1.585681202804792300e-02 4.431001367830044724e-01
4.226212599336621328e-02 2.512530182604894025e-02 5.007354188238135606e-01
3.615482950238122634e-02 5.041421595948156892e-02 4.876739812448284139e-01
4.125983228724198343e-02 3.769179462693812710e-02 4.872624352707732309e-01
1.200946126139899178e-02 6.635027414380113842e-02 5.134591366850719263e-01
-1.134765196886231009e-02 3.466126039738626208e-02 4.508501159811256764e-01
-1.366987386702986536e-02 1.478274288990501922e-02 4.422263757505274229e-01
-3.978006958270679377e-02 3.669470751837040218e-02 4.507878287467942391e-01
8.752223671531125793e-03 3.172682972971046372e-02 4.533163650131949440e-01
-2.047879568607753262e-02 2.868993465810450172e-02 4.470134849647545150e-01
2.941102684525923397e-02 5.408092189254000426e-02 4.745069905014789313e-01
4.062359751762029819e-02 3.813397048862837008e-02 4.798688067895226506e-01
1.742306327261089862e-03 3.577694083596507507e-02 4.534286925301304061e-01
7.880706988798240678e-03 6.967770384010048279e-02 5.059626364863126780e-01
2.841023768386875120e-02 5.828625579306019600e-02 4.757461743871391757e-01
2.242192574877245950e-02 6.714162939299125887e-02 5.020628737609449388e-01
-4.218167539235319341e-02 3.600834660186925246e-02 4.508962163158479197e-01
3.889803072337122414e-02 2.658757597351694979e-02 5.077533895943597830e-01
-1.575259249570126058e-02 1.174511281921156690e-02 4.406882556349089319e-01
-3.146828804728272339e-02 2.655384608187565110e-02 4.462420781840175654e-01
3.444153958926620546e-02 4.924806036452959029e-02 4.784053990525903299e-01
3.493773297380966571e-03 7.271073876902064970e-02 4.718460578852284315e-01
1.392797411119724507e-02 3.865778152371499021e-02 4.576099532289598648e-01
2.541207645830781403e-02 3.874062652775770582e-02 5.231017945691103233e-01
1.104208669227379515e-02 6.946584175920803017e-02 4.687016704417619195e-01
-9.370007865053438245e-04 6.003157525613819767e-02 5.200776210314261849e-01
-4.013450121340889076e-02 3.408236213427678213e-02 4.495332896443620663e-01
-1.557321697821672374e-02 9.980956286967639784e-05 4.373350592686751637e-01
7.178761957497893989e-03 -6.816318670130258606e-04 4.400843755032846083e-01
1.165698134787294254e-02 4.083946169870102116e-02 5.342185716053234890e-01
-8.584673177946693101e-03 5.979952389146143271e-02 4.598090630803225998e-01
8.381175518532509722e-03 1.706153204020975298e-02 4.471822814849006344e-01
-2.472219105716252051e-04 8.843798923941579432e-03 4.421785637575897931e-01
1.571632552907263614e-02 7.736556979708547610e-02 4.852280889853113899e-01
3.385915788160665657e-02 5.435873758556928476e-02 4.910096267398540437e-01
-1.069211013078048486e-02 2.098261596878003843e-02 4.451062218090596767e-01
1.943720306300789069e-02 3.429745338663973270e-02 5.304380074513730392e-01
3.564390177176383900e-02 3.916170955554589689e-02 5.088609958971781477e-01
1.985545740685485186e-02 3.892012436689328697e-02 4.599644217379924016e-01
4.165988671539706464e-03 6.188543166653049515e-02 4.626733884830362964e-01
-1.418611283702482517e-02 -2.232809229088938887e-03 4.369534458606786909e-01
-3.026155034511200659e-02 1.927338683432039054e-02 4.434972613564646671e-01
3.150813227112454068e-02 5.805897263623270577e-02 4.942690309847534436e-01
-6.415317580221986150e-03 2.206650656473914049e-02 4.462622933718818907e-01
-2.745829161440064767e-02 4.738844241063187857e-02 4.557287517482728201e-01
2.961882885966997392e-02 5.743824385661777665e-02 5.044411245151995127e-01
-1.975668079927572068e-02 2.298287874483478585e-02 4.447016241337921616e-01
-2.903694344280781381e-02 3.578383910394973035e-03 4.386506470846064931e-01
3.682293085528971603e-03 3.129413540897512530e-02 4.520123525768637851e-01
2.774858321071558068e-05 7.021297601403815591e-02 4.690641131818831244e-01
1.285425816020017639e-02 2.990848838525272946e-02 4.535029069681785208e-01
-3.911728331397845530e-04 1.867353357194204491e-02 4.460943531139180962e-01
-2.341258570284289985e-03 5.616642185961810002e-02 5.383296191196192959e-01
3.589996952708659171e-03 6.293783598486696329e-02 5.220537556703855886e-01
-2.223785957464448695e-04 5.840968410993942206e-02 5.341000804635590571e-01
1.951016403688224030e-02 6.928265867890441576e-02 4.739747097266102105e-01
1.863888250994374246e-02 5.013685885556248834e-02 4.642557885867528711e-01
7.701136938982038743e-03 7.537244967847053778e-02 4.920673512663910620e-01
2.962555270232996099e-02 3.136997306382577344e-02 4.617396789607277618e-01
-1.800457577281452948e-02 1.288098990787885090e-02 4.407629816632326891e-01
3.591364190686677227e-02 3.339467863650209117e-02 4.675726318111563251e-01
-2.552794215591864396e-02 4.237601347115833167e-03 4.382231225416150511e-01
3.506261235763070971e-02 2.454505021234837034e-02 4.621619005122069579e-01
4.264123170005924141e-02 3.284730266161522971e-02 4.852475967891324848e-01
2.730647384458913945e-02 2.382457623288120746e-02 4.566268250257513595e-01
-4.015243737642954641e-02 2.703305647745668852e-02 4.473163695261449524e-01
1.086696965912924140e-02 4.968717387982148070e-02 4.609744712309211123e-01
2.964542795186266011e-02 3.476604016362424415e-02 5.201215232233661334e-01
-1.184125472711316726e-02 5.968988736036442283e-02 4.604478161542806536e-01
-6.695691394737425181e-04 1.462200585963836438e-02 4.444121108356150485e-01
4.396053864905670461e-02 2.884361085503435451e-02 4.869062244470319101e-01
4.328981299638006569e-02 2.994254773823876517e-02 4.816171037879147798e-01
-2.958832938783154294e-03 6.240397901325115543e-02 5.350013236261947913e-01
-4.001832779619354102e-02 3.551578031525324392e-02 4.500615966459377004e-01
1.116105598128341002e-02 3.395248218596332024e-02 4.548124211266327821e-01
2.724209558174572887e-02 3.961946325413069625e-02 4.645081146013947393e-01
2.272171212791379569e-02 3.198334749489087359e-02 5.287673427386356817e-01
1.029975334469920151e-02 6.531141454992714368e-02 5.183399888821147439e-01
2.070731186513450478e-02 6.798774766152156090e-02 5.041376027499517853e-01
-2.357166100959942265e-02 2.319626299584156767e-02 4.446478339664568513e-01
1.606068032518991051e-02 3.839649802988287508e-02 5.321933670904834823e-01
-7.194851700148416178e-03 5.805612228117421753e-02 4.590867675580262985e-01
4.082930479732184426e-02 3.917022209921027648e-02 4.936977905387004983e-01
-1.775982969322770916e-02 4.374502621250993262e-02 4.537599584361730054e-01
-3.052234246661247180e-02 4.584199722994335841e-02 4.554825281377069546e-01
-1.618386831981013727e-02 4.279287993688937058e-02 4.535858732487331180e-01
9.199011697938439674e-03 5.487530010825666764e-03 4.426408221567027512e-01
3.882840563440368570e-02 4.370996296558932181e-02 4.825809006559540482e-01
3.414409660289946524e-02 4.244384651186380863e-02 5.096906772635406702e-01
1.942660056366483923e-02 7.340055287722448141e-02 4.797512334335146678e-01
6.421396899728593066e-03 6.573195164071576890e-02 5.098016758034472629e-01
2.838929581071268637e-02 2.799943748744433344e-02 4.592660768709976304e-01
2.364455714877366707e-02 1.757947500728586354e-02 4.517905420343935607e-01
3.624718445124015809e-02 3.877130536862831434e-02 5.079853226895428842e-01
2.486654574523976952e-02 5.568421403972975692e-02 5.149558643399030355e-01
3.671484001314058443e-02 1.983587663154755612e-02 4.611145310287303456e-01
1.413817101419538071e-02 7.771806740385345247e-02 4.838314984367513838e-01
1.514358868938660459e-02 7.637754101330168632e-02 4.804134799967415548e-01
-3.439658042126315929e-02 2.252895116908700326e-02 4.450545562934425381e-01
5.713410582652598407e-03 2.170843038721064627e-02 4.485152800746444179e-01
-3.642131540418473701e-02 -1.053953337305142202e-03 4.397159696600994039e-01
7.134082825497417742e-03 5.950823261438925593e-02 5.282071583248271196e-01
2.355457286840540246e-02 6.600646277545633989e-02 4.758212052361416866e-01
2.614768608212976811e-02 3.589252957884179335e-02 4.618431485076642806e-01
1.441125700319181163e-02 6.688522746018325804e-02 5.125141904414094451e-01
-1.060640233613453082e-03 3.089747145192415275e-03 4.398810594736609625e-01
3.487978649372416168e-03 5.856531370897644778e-02 4.612211092994940587e-01
-6.882130527220421158e-03 3.033774132560346920e-02 4.496016295726922851e-01
-3.863925658607329089e-03 3.273930906864127438e-02 4.510916247443725324e-01
6.553785771841092248e-03 5.333370417174460032e-02 4.606369660905579311e-01
5.082891883713605737e-03 6.876537311334877944e-02 4.668586384725428862e-01
4.915548498816225791e-03 -1.033595409318268515e-03 4.395247806013116709e-01
2.893344836767094627e-02 8.428886656307263761e-03 5.288433071791851514e-01
3.401631810009681650e-02 5.230314996153494905e-02 4.993929310379383035e-01
9.463444836372458813e-03 4.792306583928257480e-02 5.325398995849807138e-01
2.094522540265197214e-02 3.243270746546694783e-02 4.573380409983633932e-01
1.942204323638088703e-02 7.501333851564595534e-02 4.921306364545254830e-01
-1.211752441022524891e-03 5.985260976012021089e-02 5.197902874069648682e-01
7.838941098511133590e-03 8.616678777227781277e-03 4.436432216170881904e-01
1.351598805578036258e-02 4.432161664259780254e-02 5.324108984027441371e-01
2.615162802182816743e-02 3.817929932766821882e-02 4.630649169790586051e-01
4.192388678949617725e-02 2.070945339609886124e-02 4.683128846127174727e-01
3.596084138258096030e-02 3.156179487412926615e-02 5.110881160175210214e-01
4.078732959487255116e-03 7.182845808003955612e-02 4.708207782765760352e-01
4.500964379645487450e-03 6.364084269584005527e-02 5.188790169769984528e-01
3.147949193076648305e-02 1.792997534836961171e-02 4.565188979248663292e-01
2.832300813800213424e-02 2.427349102736856695e-02 4.573733855131402737e-01
3.545511321262470594e-02 4.861308882157057421e-02 5.030759837268645729e-01
9.204783994073576295e-04 3.018260295399618695e-02 4.509852165742710972e-01
-1.799975543227001068e-02 6.179036963656026234e-03 4.386112721273709436e-01
2.093593436583344319e-02 1.193365200511385150e-02 4.484700228320935844e-01
-1.421920065468296884e-02 3.560762291675665520e-02 4.508710878690647683e-01
-2.049366146600941491e-02 1.734401723056917463e-02 4.424418743867915005e-01
4.062549221828924001e-02 4.003748237643483393e-02 4.930325365461876164e-01
1.054470879062178491e-02 3.436093321292101044e-02 4.548410837184170830e-01
2.780244646972398689e-02 4.014344077878754385e-02 4.651377502635375416e-01
3.968056614766622692e-02 2.149995379171392579e-02 4.649646814134552053e-01
1.470692511396099605e-02 7.653617448638981580e-02 4.902144629714197399e-01
-1.018819697982164922e-02 5.301237186501873283e-02 4.575239168980797522e-01
1.800479777130489789e-02 1.338804397420117163e-02 4.479782180830914617e-01
9.823478020904684305e-03 7.248448107127797302e-02 5.010598129836015824e-01
2.421613844184320949e-02 5.964473771762132670e-02 4.725237722067077706e-01
3.063391769976907958e-02 3.884638497988270045e-02 5.156756089630043505e-01
-9.690837892509609509e-04 5.368667528774018899e-02 4.585542957879607529e-01
2.905969514190621245e-02 1.013020446753582632e-02 5.269159994316628959e-01
-1.414669236548165079e-02 9.200193884450605375e-03 4.400298720020924814e-01
-1.201052347508713668e-02 6.159905991333036734e-02 4.622837608094292339e-01
-7.863589712572317814e-03 5.932641827546064617e-02 5.333514323645776045e-01
1.597438848501828504e-02 5.520408700624070131e-02 4.649418881028634098e-01
4.064626687806662669e-02 2.794234312820149252e-02 5.028067051179485603e-01
-2.557762729492971815e-02 1.873680544255190358e-02 4.429482108441151755e-01
1.894934023107381488e-02 3.806048675449946045e-02 4.590518090046121213e-01
1.342690539209597661e-02 2.309256898441931077e-02 4.507960749244593890e-01
4.186657272999497886e-03 7.546251089234537468e-02 4.793696954300305513e-01
