6.220142395119811554e-03 2.494738034346668729e-02 4.499314126830301630e-01
3.803275177136133250e-02 4.652169425604600617e-02 4.927534246230231840e-01
3.436297817881295291e-02 1.449156407231606825e-02 5.238351439697868095e-01
3.334009390810152573e-02 3.811433543264547419e-02 5.127283318578309546e-01
3.345776933160334726e-02 2.042708400039615346e-02 5.220211861146993870e-01
3.905514361281957336e-02 2.358373423951740794e-02 4.652264834884586309e-01
3.492813161519579129e-02 5.248297686400757445e-02 4.903459550492181296e-01
-1.647612764378754424e-04 7.096398835215998735e-02 4.715467454432288874e-01
3.652233424205644785e-02 4.974289469266447716e-02 4.876493478420872996e-01
7.676647437723884901e-03 6.645428596067824711e-02 5.098072791553855954e-01
-3.363778130069926264e-02 1.962821079748184108e-02 4.440944339364242266e-01
1.486540178705255885e-02 5.069225094629538353e-02 4.628026406089603695e-01
3.505345348748124118e-02 5.055521356105814601e-02 4.822218069524888961e-01
-2.104145486132071377e-02 1.299931365566817272e-02 4.408187867742770494e-01
3.023592917343688458e-02 6.023272939319337937e-02 4.940474198715900100e-01
3.098261948384443271e-02 5.941204810663052588e-02 4.847148434729700583e-01
4.148354553734438094e-02 2.743285575219118338e-02 5.007110576765139154e-01
1.425646570172604474e-02 3.794855511966230277e-02 4.574183908032324331e-01
1.895985854685003358e-02 5.949823076468404442e-02 4.680671095499496781e-01
-9.613274671054449633e-03 2.633938586964149411e-02 4.474275537376554146e-01
3.954245664252916542e-02 3.790122700756533985e-02 4.769953647508979322e-01
2.746858351348136634e-02 6.262529531179174269e-02 5.012137260700418873e-01
3.201821746646534711e-02 3.404252841769951632e-02 5.160427188766854023e-01
1.649384543341168852e-02 7.476629957801619875e-02 4.776031020938715232e-01
2.928616822738745046e-02 6.092592722593737076e-02 4.979939032871744109e-01
2.359103502042533482e-02 5.998501667394845471e-02 5.128666066009134328e-01
2.342301119732435530e-02 5.489495953101201919e-02 5.171673038937809608e-01
1.397463163065288186e-02 4.007190781313244021e-02 4.582234914110049351e-01
2.882248883938296272e-02 6.332424231830614814e-02 4.885466764563192732e-01
2.719992184785820916e-02 6.060147710197160559e-02 4.758642229284282821e-01
-1.402020434771338551e-02 9.457628430505363171e-03 4.401325092573127873e-01
2.912942335937816415e-02 3.448427688863490298e-02 4.630319638285071981e-01
3.487826049618124313e-02 3.212350192541706811e-02 4.660870520878694911e-01
3.401657999780972191e-02 1.842656836338631490e-02 4.584699452337367975e-01
1.996069514727521338e-02 3.908839396731421389e-02 4.600984830706206230e-01
-3.215056136836266093e-02 1.391196296638144182e-02 4.423602715662721119e-01
-3.925406692924963276e-03 6.279878974449820683e-02 4.620195404089776359e-01
2.299263095412869273e-02 4.178804752808649992e-02 4.629249547945599175e-01
2.515927592372466104e-02 6.536937055820944698e-02 4.773679812083936880e-01
4.423208908211685199e-04 4.779723409605148715e-02 4.572208320186467168e-01
-2.710038860587452025e-02 2.054361776691734920e-02 4.436222101069650092e-01
1.683885437893521686e-02 6.443815766960991898e-02 4.690932356085966703e-01
3.263215085708326413e-02 4.860334248233568605e-02 4.747520893001944131e-01
1.479273663832019088e-02 6.719259550594666730e-02 5.116688529062891622e-01
-3.675913671781095866e-03 6.230865452728025222e-02 5.297693675516162992e-01
2.981320845575019529e-02 5.538943225255598540e-02 4.756612472848085194e-01
6.143709922998683362e-03 1.913197849447192608e-02 4.475694638304557604e-01
4.235641740980801428e-02 2.848446066950383396e-02 4.976756543243096020e-01
6.955604639418375666e-03 2.980732918315820781e-02 4.521057886663988890e-01
-1.117156856449315686e-02 1.693455843199759975e-03 4.380941334912080709e-01
1.080909682268877715e-02 6.620674217503354220e-02 5.125172172699762330e-01
2.680804554656656541e-02 6.648585082269885260e-02 4.875116320374640044e-01
2.066998639080705122e-02 5.080096871404685133e-02 5.205032455006577408e-01
-6.222412866468228845e-03 3.595801382959185749e-02 4.521691008558968439e-01
2.637529749709864590e-02 5.071871870423882989e-02 5.159293511821220202e-01
-1.401626462989838395e-02 3.779865847838900089e-02 4.518885763173077219e-01
7.070835550813094929e-03 7.513823286513325594e-02 4.731490186009383314e-01
-1.161421607386707577e-02 5.198975910532058903e-02 4.572169425307867074e-01
2.475988508854640863e-02 5.801767960133841218e-02 5.131227208434094855e-01
7.053796769110970422e-03 7.747132394537825650e-02 4.808153390342581046e-01
4.108990173268427942e-02 2.828485115814811934e-02 4.718744217075341307e-01
1.352653316269257500e-02 6.952777145686832652e-03 4.442005013842833527e-01
1.476286756825939857e-03 5.755891146898063637e-02 4.603438019962015626e-01
-9.275121150498704531e-03 4.252593809094766530e-02 4.542313187195636814e-01
4.618817297543867037e-03 1.535172048715679333e-02 4.457395918925764478e-01
6.551950938072578778e-03 6.411417150468617931e-02 5.232152527324149816e-01
2.830036216103409136e-02 3.411885432566571369e-02 4.622975174626043349e-01
-2.234522415991977221e-02 3.365853478526643905e-02 4.490544201756231923e-01
2.286284559701864949e-02 6.354956087169394419e-02 5.096933103918578345e-01
1.373117917686520612e-02 7.202748474497092102e-02 5.043557070945619003e-01
-8.083830244440003143e-03 2.504175803576170426e-03 4.387522851452374528e-01
1.468484794367518921e-02 7.585317624904679146e-02 4.963191101455813325e-01
7.340058746343063739e-03 6.859875137652808597e-02 4.671712314541947020e-01
2.726165518364324913e-02 3.896489716280568394e-02 4.641983497105987566e-01
1.276116561829515952e-02 7.125712865875870328e-02 5.067333058450997907e-01
4.297231616106023805e-02 3.149566757239503217e-02 4.838440958382754786e-01
-1.808022721826651243e-03 1.458998756071671482e-02 4.441864205954693667e-01
2.845518177801632798e-02 6.385382751484217079e-02 4.879596575997745544e-01
3.363512083522145896e-02 5.020179900325537348e-02 4.775755917924777716e-01
1.107802729426595953e-02 7.527127155077743825e-02 4.745002588296070578e-01
2.545653630292077016e-02 3.430330399104796618e-02 4.606271724715451099e-01
2.417781784206282647e-02 4.876955616797093440e-02 4.670173384268765937e-01
-1.718241788365193999e-03 6.030670942397597933e-02 5.347585601549834644e-01
1.187249762116847525e-02 3.964268805043848903e-02 5.339946283206693511e-01
2.076156392446921670e-02 6.891075741793153964e-02 5.022962776465665913e-01
2.917237491457656470e-02 6.084102214654972529e-02 4.793364958992332725e-01
2.129085698647199733e-03 3.250603216214430907e-02 4.521831717738090672e-01
2.000971923598384924e-02 4.737872391768001290e-02 5.221285630042273862e-01
2.321386344587123094e-03 6.211200774285002835e-02 5.176746538247010143e-01
1.213428658988310524e-02 7.791181115868961449e-02 4.785259078774455332e-01
3.100225821963779882e-02 2.815928859267865375e-02 4.609600405752691255e-01
2.595697852527941926e-02 4.692599644288146521e-02 4.672667173094811055e-01
3.519184431975903860e-02 2.712494329729233516e-02 4.636690672762971421e-01
3.717221788780744607e-02 4.744054420172676145e-02 4.970480793433096900e-01
4.100952019536781290e-02 3.728160399806027675e-02 4.951856108899491682e-01
2.579490143734531477e-02 4.214302975341313595e-02 4.647854096320155892e-01
-2.253936966235467118e-02 1.132891762281632367e-02 4.402209383134643161e-01
4.737557460429824355e-03 6.433535021979959467e-02 4.640101655985186535e-01
3.013995829996484258e-02 3.159224978192211319e-02 4.622120126364094306e-01
-9.009262981893701415e-04 5.423423792600633175e-02 5.389656329478255126e-01
9.654776670071179429e-03 3.815167822685933130e-02 4.562099166968102693e-01
3.958125174712587985e-02 4.227223100141902501e-02 4.855308010484964409e-01
2.291397461649241976e-02 6.275286800733365089e-02 5.106656372959382795e-01
1.791374047942081993e-02 3.190933082289224010e-02 4.559722823229448441e-01
5.581195680546421900e-03 7.231686472148543543e-02 4.706307836653790821e-01
-3.193855575726076840e-02 1.374684977440148587e-02 4.422793824117464134e-01
2.690678518396017686e-03 1.578986474164518691e-02 4.455361602304766522e-01
1.405277566042417020e-02 7.696765846963994628e-02 4.865918012581796348e-01
2.613716722627525829e-02 3.490476902061618453e-02 4.613297217165997499e-01
2.770805786098274118e-02 6.308564482635667381e-02 4.792272566474600204e-01
2.231760584972783401e-02 4.484189422000687403e-04 5.335172463910071716e-01
2.684090289533074339e-02 3.869493494925036609e-02 5.202477314704245792e-01
7.142091226109602113e-03 5.320407679138453028e-02 4.608081825775819373e-01
2.285795149404865403e-02 5.308922311811913736e-02 5.182817344222730993e-01
1.663629764842319142e-02 7.350547192858147838e-02 4.757550226520304015e-01
1.962875793295647958e-02 6.887405376352527531e-02 5.042578227970826443e-01
3.899181760865054469e-02 3.330434968352283254e-02 4.718187361927366208e-01
2.000189731664449994e-02 6.746789040752083910e-02 5.060092385235545054e-01
3.319917921125503657e-02 4.845035708181707340e-02 4.752439756428848416e-01
2.714921758658515177e-02 3.998813265488549568e-02 4.646262303063922738e-01
1.990638649687498547e-03 6.429573836607570259e-02 4.635246677298225926e-01
1.114352456625302898e-02 1.772225735372347927e-02 4.480567672590929362e-01
2.017866427490261003e-02 3.090321287885960250e-02 4.562610674794737031e-01
-3.910319857625525752e-02 2.910248091788735988e-02 4.476872177942441411e-01
2.835654251084258198e-02 6.350892503528272892e-02 4.833539745185924663e-01
-3.315988577338014470e-02 1.797148891616042951e-02 4.435911974742184349e-01
-2.459254588425001387e-02 5.835237064029412390e-02 4.642494351468714475e-01
2.556984046480206829e-02 6.282316348330115041e-02 5.061545503446717165e-01
2.339136375838831317e-03 5.149288510682316355e-02 5.368734887286341628e-01
2.930751709168035596e-03 5.408537273628821751e-02 4.597754708527821421e-01
-1.191077988793963136e-02 1.469347529474272773e-02 4.424895324659620099e-01
2.264051553223112023e-02 5.872028675530333031e-02 5.151393189843568310e-01
-2.305825662672954940e-02 2.961863748817464975e-02 4.471899145112310237e-01
-1.220667858561837356e-02 4.592344931014055720e-03 4.388518235775357712e-01
7.082587624767378888e-03 6.772456311633932857e-02 4.666789143937178919e-01
2.772952700991970776e-02 3.363017309320361081e-02 5.248341474144372354e-01
-5.052369139518001449e-04 6.566111843729843800e-02 4.642979151652304459e-01
-4.077183323897597828e-03 4.446891442617085383e-02 4.554240396156152282e-01
2.082762050267183626e-02 7.398218692727887014e-02 4.900042421484785415e-01
6.878278127568273476e-03 4.759537615277707051e-02 4.589564690690623450e-01
3.954810176933619414e-02 3.112720496961484534e-02 5.029704104948459209e-01
2.894232780035368990e-02 3.395587693309889965e-02 4.626284669613283107e-01
-1.844256449903250786e-02 6.043822576776332334e-02 4.657818693273814703e-01
4.083259386730734436e-02 3.896384498055482232e-02 4.941199998527619486e-01
2.266548621395788124e-02 6.632021478198628361e-02 4.749233659529934481e-01
3.968566016016279729e-02 3.593496241988234502e-02 4.753229626072651981e-01
2.103622567820285019e-02 4.513148634174004442e-02 4.634971172273353868e-01
1.722514640155477228e-02 3.890986739572403069e-02 4.587622576589807655e-01
4.425004660475192336e-02 2.681839052668861037e-02 4.815370643083703439e-01
3.718841215111646364e-02 4.752480155764572667e-02 4.959430208331328527e-01
3.716458779143648472e-02 3.963033368910832271e-02 5.064539100914017267e-01
3.611586771770906867e-02 2.883114397146567184e-02 5.123273785754535181e-01
2.639361304656696883e-02 5.951314807809891805e-02 5.098014224919910076e-01
2.217773309672161838e-02 6.463741852683221878e-02 5.090850735074237132e-01
2.480821993560015752e-03 1.498424319170350849e-02 4.451689755691262684e-01
3.464380968871246663e-02 4.724981158795314024e-02 4.763816998704377137e-01
9.980331732768190148e-03 4.938000111581567625e-02 5.303128136224033451e-01
2.139403055231925768e-02 4.122389018255175758e-02 5.265903189570831922e-01
1.815728345812965550e-02 7.521103577055092415e-02 4.950712048842771384e-01
3.316187137740644192e-02 4.896287309087678230e-02 4.756307499717352116e-01
1.979026428191188111e-02 4.276846455198428376e-02 5.268786052366312145e-01
7.721274014534743393e-03 7.132103119289549820e-02 5.007724909725348450e-01
-3.648840635367370938e-02 4.058684323224993201e-02 4.530322070537072809e-01
-8.383744738107271749e-03 5.083973686947992204e-02 4.569538052637677761e-01
1.920284707149425008e-02 4.222679788397315503e-02 4.612212032127561145e-01
2.592778885841132488e-02 2.800892953030133248e-02 4.578587039472729603e-01
-3.481068091830954309e-02 2.218456950438396288e-02 4.449894543004188074e-01
3.497341183917265089e-02 3.276575383427897392e-02 4.664721577646491202e-01
2.219000018476178712e-02 3.201826469323123397e-02 5.290611650461922721e-01
1.472101831083997420e-02 7.651215163676340636e-02 4.912124359262731166e-01
2.276566308597794894e-02 1.968118497635020295e-02 4.522977231814852561e-01
2.834247414122764708e-02 3.283774227804095447e-02 4.616418931122753810e-01
2.830799081085513119e-02 4.813389019211754272e-02 5.148602000799883394e-01
2.775034155161116081e-02 6.056136803675563063e-02 5.045547117305309026e-01
4.568654246595060461e-03 6.368773782872545752e-02 5.278854384474201966e-01
-3.953467353820851529e-03 6.185467259414633573e-02 4.612993264740081201e-01
1.776075045279275344e-02 7.505330930837600389e-02 4.798199580212708093e-01
3.793569910870807360e-02 4.146155118866651224e-02 5.031885975277959888e-01
-1.359029076741156061e-03 6.928069405000379655e-02 4.672984374281595188e-01
3.641908939457135647e-02 2.309582971708883450e-02 5.170833385783660807e-01
1.792852332091022724e-02 7.305605862677953810e-02 4.766686986180820318e-01
5.044115904338040274e-04 5.138293333173203636e-02 4.582403837324573459e-01
1.705044463344420821e-02 5.474733980431495395e-02 4.652525549785725412e-01
1.888201427771142582e-02 2.627781978852394840e-02 4.538097882277524198e-01
-3.709363445401439585e-02 3.983802319418994903e-02 4.525934456810729034e-01
-5.620010081280414627e-03 6.176834410128180519e-02 5.346669567105276633e-01
2.486538918170221046e-02 2.556865858085663121e-02 4.561550707072225541e-01
1.178404393976811328e-03 5.323721697656107199e-02 5.371348006348668491e-01
-3.547655409061549470e-02 2.841380190555806845e-02 4.470551294872788239e-01
-1.063963776802576665e-02 4.676204209371773862e-02 4.554362622635989566e-01
1.091137516807448929e-02 3.313968766521317028e-02 4.544104999059795924e-01
-7.780212217878184136e-03 4.668195880510211254e-02 4.556520210197420040e-01
1.006772656778905616e-02 2.758081926324238917e-02 4.518890162409843203e-01
-4.026005433461284783e-02 1.877942838750413374e-03 4.412733746948512281e-01
1.764654696389552843e-02 3.164458501897375597e-02 4.557695899679686802e-01
1.536535757732910949e-02 6.796739492098265167e-02 5.098605895142147570e-01
3.282396524159797435e-02 3.889413418608576173e-02 5.133941513308967197e-01
-6.390343172572992073e-03 6.088173887552970898e-02 5.328027748714235790e-01
-1.572348370114432653e-02 1.914687639007679396e-02 4.436456716606846373e-01
3.468925837073220247e-02 4.301538734368984263e-02 4.729219691547953408e-01
3.589281458521171447e-02 3.478897906306577248e-02 5.090758859683777171e-01
3.850221912723619799e-02 3.204813665097232256e-02 5.048971536763928736e-01
-1.356912327993037640e-02 2.228056163021896810e-02 4.451112290111695624e-01
2.805044761404674319e-02 4.474051627855208518e-02 5.161964736154506239e-01
1.231488965667079660e-02 3.523848960403334202e-02 4.556862413968356118e-01
1.555310473117270040e-02 6.871933205550934121e-02 5.084744996634911196e-01
1.423233124663021015e-02 5.784305070845404545e-02 5.234495889998459495e-01
2.131814522825889457e-02 5.137312175988375390e-02 4.663101048879075838e-01
9.978534542130351737e-03 7.461148654461811913e-02 4.981681853693047946e-01
8.924084716501728270e-03 6.508103136369196295e-02 5.190765929861538286e-01
1.359465626771300291e-02 6.792862458117028546e-02 5.116970943315914955e-01
1.681455531071993775e-03 6.178299046287446389e-02 5.223798721044375926e-01
-3.762413037803830074e-02 3.070125792384211655e-02 4.479021092433350115e-01
2.728772044983495890e-02 3.644758953012043612e-02 5.227396652759503937e-01
4.166337293423331284e-02 3.408495373129876577e-02 4.782831059305501231e-01
7.222934612782509062e-03 4.665045454129422564e-02 5.358773032457415653e-01
3.818667094387089705e-02 4.227211959689872872e-02 4.785304767698536632e-01
-6.857197518655022347e-03 5.251097817200783141e-02 4.574947036050922566e-01
1.645248557401550113e-02 7.581378705864735834e-02 4.952278646287391894e-01
-3.024845581868563713e-02 1.825654647836284783e-02 4.432303404050008666e-01
1.095490278692669815e-02 2.147386851981466713e-02 4.495598800451697241e-01
1.998151796609517160e-03 6.286861233139595662e-02 5.237807107143209739e-01
2.245408887837506071e-02 3.657329183730770317e-02 4.600866454349256673e-01
1.213083577930856166e-03 6.293254261751760059e-02 5.326352039297601593e-01
3.697449799481541954e-02 2.341394346997171388e-02 5.152888666355754932e-01
3.848621231420604194e-02 3.347913059189137203e-02 5.047275542511538982e-01
-1.465139674852067309e-02 4.797714021137815948e-02 4.556316431164226799e-01
6.861828341499787154e-03 5.839284912181115506e-02 4.623338438984967436e-01
2.901496896644238654e-02 5.966665581351025816e-03 5.310517890157396836e-01
5.023883753859234406e-03 -1.365103139229202275e-03 4.394340747251086476e-01
3.761219736104493699e-02 4.734707537832156393e-02 4.871162180545947074e-01
4.244395222786081362e-02 3.084782971266330359e-02 4.949275996106630715e-01
1.250083749949758120e-02 7.611597456212047808e-02 4.931144858198365233e-01
1.152904123394840954e-02 7.463257385144531075e-02 4.738314774618700431e-01
2.874234236715230567e-02 6.335587703043130126e-02 4.876522834448437926e-01
3.128521614133574630e-02 5.895698221049588267e-02 4.865707125709635150e-01
4.184666138410963326e-02 2.358923275428020591e-02 5.032849950957110075e-01
5.777374830754808746e-03 6.498324123384313644e-02 5.118440380290205649e-01
1.017236734170519526e-02 1.757832462507174370e-02 4.477796741059129615e-01
-2.813446362481413637e-02 1.700929515486785185e-02 4.425480041122497599e-01
-1.545448540806331449e-02 5.824887898573266609e-02 4.598708031810330721e-01
-2.959409556321348448e-03 -2.336767196430434429e-04 4.384255305298409566e-01
-2.277718312344134688e-02 5.898192670471750360e-02 4.647751705229247743e-01
-2.064358541997479007e-02 9.198525349710471449e-03 4.394620009353329415e-01
2.302504016924077079e-02 7.079644655595310199e-02 4.834859272853563317e-01
1.993584900299416596e-02 7.087629106767133480e-02 4.765138552855711085e-01
3.172950609520409221e-02 2.815830053167235614e-02 5.220784683114705338e-01
2.763473001827966916e-02 4.549391662636725203e-02 5.163612244314037536e-01
4.395264377767869185e-02 2.820832861988802412e-02 4.834129883247904047e-01
3.131822428015843679e-02 5.883974222639828944e-02 4.846879741116377205e-01
6.906836673300744550e-03 1.274309172975226362e-02 4.451502966141872020e-01
1.308018260296061643e-02 4.603780262717822175e-02 5.310034721708166705e-01
3.129437815634000808e-02 5.439696347156233042e-02 4.767333812973271745e-01
3.407797482847021303e-02 5.021334550079620263e-02 4.789390556196921889e-01
3.113915112810308056e-02 3.481119439277805677e-02 5.167904085475464315e-01
1.256344316902210934e-02 6.925325021730793784e-02 5.097470951288516350e-01
-1.948442763704289968e-02 2.938444736253165157e-02 4.474296756560622867e-01
8.980283128360350489e-03 2.583166032814943405e-02 4.509036211733600807e-01
1.873290069956376133e-02 6.955613002205716933e-02 5.043705687649572278e-01
-4.128478565047082049e-02 3.749710055658070362e-02 4.519649060045248246e-01
2.325671520992210473e-02 4.320119439632240377e-02 5.218057125613767555e-01
1.428115063947127741e-02 4.330981797274021522e-02 5.326885944196675382e-01
3.070723035256941319e-02 2.924505786780783392e-02 4.613357571843609284e-01
8.527228494471440767e-03 7.836950697879624395e-02 4.759824629537573459e-01
-2.058590088733321111e-02 3.860210481702532753e-02 4.514628643170602307e-01
4.101939209796379160e-02 2.650388640668089116e-02 5.031385396005116917e-01
-8.346571552226712820e-03 2.318980489665968536e-02 4.463706922090353579e-01
-2.045925967144284624e-02 1.445843114190574312e-02 4.413361210423555336e-01
-2.756633657785274166e-02 2.844559601603518714e-02 4.467582755207744616e-01
2.880214753771150049e-02 5.500047224336922225e-02 4.743435852564368838e-01
2.656696129995975500e-02 4.439246201597608910e-02 5.174109606353102242e-01
3.287232454689628137e-03 6.268047758408554215e-02 5.310141829783685541e-01
1.116915991783656512e-02 1.401716539058808775e-02 4.465526220185560557e-01
-3.600570759883640198e-02 4.256437023650241208e-02 4.544616457234388340e-01
1.067874581013531117e-02 6.733625804840545626e-02 4.672729913506037391e-01
-1.994531368526663781e-02 5.999989651502618537e-02 4.659729851285314139e-01
2.570167359353640185e-02 1.009115404032068404e-02 5.278896984917699209e-01
1.983858887272503882e-02 3.134637389214869202e-02 4.563389889446061165e-01
4.189804712330945369e-02 2.639416302441409401e-02 5.005253453360737348e-01
2.718116837874828481e-02 4.184654616889426498e-02 5.184305369855970458e-01
-2.279241960317269708e-02 1.226556468914898404e-02 4.405678276534876203e-01
4.185255336879354499e-02 3.519751282920880603e-02 4.844095479039597363e-01
-4.890816186991027784e-03 2.566711050036366709e-02 4.480373889203621007e-01
3.611091099770349228e-02 4.733029056457221939e-02 4.798489714061441869e-01
2.508105827316383860e-02 5.727542502283425319e-02 5.133489169824225762e-01
-3.908505493341246639e-02 2.934877928075367917e-02 4.477520276389084786e-01
4.096681860569616890e-02 3.801030052319390867e-02 4.845935107548083876e-01
4.280045777764005660e-03 4.963549349963725793e-02 4.588542100096866805e-01
-3.465563950036051888e-02 4.303814305192442402e-02 4.543511495285326718e-01
3.753266926967137318e-02 4.213245817566683288e-02 5.037348192706502248e-01
8.925671767930375144e-03 1.794738439654349968e-03 4.412472998931785129e-01
9.034111679608557849e-03 4.444510184523503549e-02 4.584189046769111542e-01
5.717158718415867556e-03 6.382215022902026913e-02 5.262139932861819025e-01
2.723568622613994558e-02 5.047292991313842569e-02 4.702751445161563182e-01
-1.551586705458555399e-02 4.426051319224032221e-02 4.541409133739708892e-01
1.557988816416859545e-02 5.921279803508257278e-02 4.662148564947619089e-01
2.685939024682652831e-02 4.267916147591331588e-02 4.657554240498049669e-01
3.785171495869660979e-02 3.224578113166053084e-02 5.062672620216531749e-01
4.065656207704534952e-03 6.414672530197797207e-02 5.144669101307867143e-01
7.151126729669063722e-03 1.289904641180616117e-02 4.452631915104667271e-01
-2.025207555630180543e-03 4.077047063152167139e-02 4.546189963080952690e-01
1.665859772955647494e-02 5.473008257337328222e-03 4.442861115288724294e-01
-1.051796512992552238e-02 -7.468416706762481296e-03 4.364794723790759168e-01
2.244772316723454841e-02 2.610913431178697730e-02 4.551439922005079963e-01
3.215481232499843578e-02 4.582087771969513973e-02 4.719094749682489209e-01
6.627030637295677935e-03 6.764649339980926407e-03 4.426479817126403038e-01
7.221484808618080717e-03 6.762077641275583695e-02 4.666482664374705380e-01
3.880314274710751354e-02 4.378677649452680787e-02 4.972941206395831704e-01
3.600409516686196160e-04 5.569197919513162870e-02 4.594827223929183191e-01
2.350401410304569713e-02 1.339798441209053871e-02 4.499631617851042598e-01
-3.033777272241647283e-02 1.894812510341640707e-02 4.434239432217807475e-01
1.443922989375187940e-03 3.523134292699094117e-02 4.531473124002603492e-01
2.569815889407771684e-02 2.772161971951750403e-02 5.267518297555541240e-01
3.813500567069579017e-02 4.646109176923526873e-02 4.920451190588329693e-01
2.343629201800234707e-02 6.416979048283884268e-02 5.081255808004953023e-01
3.107357955974489327e-02 5.914264258686074277e-02 4.924938890385565649e-01
1.170137551242823870e-02 4.355029024023431006e-02 4.589865604403148280e-01
2.849045820308131194e-02 4.568592781622057841e-02 4.684464146191449352e-01
4.840891140823889820e-03 6.372953241718835871e-02 5.217354435142649294e-01
1.604799848292499942e-02 6.560488594132807272e-02 4.692043366771866397e-01
8.232051830820420052e-03 3.688020404334203112e-02 4.553433025353953445e-01
1.366336679843156883e-02 5.539252044246453094e-02 5.243349213069347092e-01
1.220206034207672527e-02 6.970807678732407475e-02 5.089560306218293695e-01
-7.064376929200717053e-03 5.524646846197610317e-02 4.582903431701512709e-01
-2.098959647855508023e-03 1.994841814748643180e-02 4.462731634771673339e-01
-2.192886721974176070e-02 2.343660012381887023e-02 4.447505446220879621e-01
-2.365207729210048668e-02 -1.132863445547688599e-03 4.371581845514614373e-01
2.284331479177635280e-02 4.363795498440192766e-02 5.219236641154169076e-01
1.552235376296953566e-02 1.422571350870271110e-02 4.475826096480726157e-01
-3.309961827603146584e-02 4.003864886280145141e-02 4.517041045334587723e-01
2.323773567390139544e-02 5.751744734730040304e-02 5.154519222670290723e-01
4.302157820758149148e-02 3.039508020267606830e-02 4.927103250905145448e-01
1.635420162783599377e-02 7.610295848757277215e-02 4.814173384746571749e-01
3.282766636101128871e-02 3.082201544909500199e-02 4.636819076066721612e-01
1.153156755847911837e-02 5.949071099341177865e-02 5.250761868111828434e-01
2.170139296134295306e-02 4.559156914520773318e-02 5.216458043866538663e-01
4.041436390584025005e-03 7.152725691786866735e-02 4.705430441782381124e-01
-2.368356959077173168e-02 2.511608271198018799e-02 4.454363711891428101e-01
4.478111797450128745e-02 2.410979741972760909e-02 4.793711387584029260e-01
1.659503310137389401e-02 7.419675667396613550e-02 4.768149448982450522e-01
3.637817004263493165e-02 4.900158557726102398e-02 4.949819842416640636e-01
7.431725981834943345e-04 3.974497456770267889e-02 4.548041028570495303e-01
2.312152395498577248e-02 7.002230650103878629e-02 4.815475447188767300e-01
-2.177266471917249646e-02 5.077284285731830521e-02 4.566603032917297411e-01
3.790862263282522571e-02 4.685307664361081093e-02 4.891981753676356015e-01
-1.007135731866997362e-02 1.327220499976272238e-03 4.381490004410583672e-01
9.532020873750230577e-03 -2.109533322797712412e-04 4.407047526649618963e-01
-1.587625127405623872e-03 6.309631046770788898e-02 5.322599864054589069e-01
2.324918872336774467e-02 4.016146189332589489e-02 5.249079088217593059e-01
-1.276507282541370584e-03 6.258562316442158047e-02 5.273030467942447785e-01
3.836961070522369038e-02 2.836861352121147414e-02 4.672897564281824345e-01
-1.909169209264401784e-02 5.920077147502808557e-02 4.619142991083781125e-01
7.077572937173665785e-03 4.471538734088677247e-02 4.580297312852695812e-01
2.865810585072024047e-02 3.597592653177578148e-02 4.635204768752109183e-01
2.304280140183957368e-02 6.972820986365441120e-02 4.947817202958437743e-01
-1.695232113741694524e-03 2.883465978559631229e-02 4.499214970139631675e-01
2.961666849328800644e-02 5.101601097814782021e-02 4.728963478967152523e-01
5.757488419866152105e-03 6.490806210567071077e-02 4.645659288465527337e-01
3.544367230218133102e-02 4.462711063288231361e-02 5.067372745867009254e-01
1.742582419408908803e-02 1.207800650104385795e-02 4.472054348423254999e-01
3.894173586747601799e-03 5.455484282789943573e-02 5.328425578697197906e-01
4.007065382147186050e-02 3.437206303943368679e-02 4.748015086565191001e-01
1.285104697591098709e-02 7.277346843024254386e-02 4.718875255966307747e-01
3.457375037701317794e-02 5.250863688480675306e-02 4.838667674412009401e-01
4.177667850818398559e-02 2.611370191653273470e-02 5.012194251928323574e-01
2.857588301975619652e-02 4.336442526585980450e-02 4.672319262702595566e-01
2.534788858658559157e-02 6.341548768521002022e-02 4.760367030646978082e-01
1.002758963544798064e-02 6.388256741446536602e-02 5.250165991651023489e-01
1.018988076622280754e-03 6.132371290206265618e-02 5.164073118601815171e-01
3.268849372304681589e-02 2.113733438963961986e-02 4.587584874635254328e-01
1.535931838003635683e-02 6.995161064125911266e-02 4.710054724743176213e-01
4.546560110793856219e-02 2.314410751154745080e-02 4.831111947832446019e-01
-2.540920851200739045e-02 2.863540932369070327e-02 4.467909071705091772e-01
1.185586484051696053e-02 7.573547068329637699e-02 4.949310324662972715e-01
3.789060301646394319e-02 3.363926381377920632e-02 4.699215205067318046e-01
2.838341671846642336e-02 4.114519373472809438e-02 4.660141543796664787e-01
1.740380160758611683e-02 6.300838696684250839e-02 5.174433343354399861e-01
-1.384543425246131249e-02 3.007619829444025880e-02 4.483343455686258361e-01
1.267955415010384862e-02 5.746980954983352957e-02 4.642708991546794506e-01
4.198361635829719885e-02 2.557700711516191702e-02 4.717834373669561598e-01
-5.318327198700782688e-03 4.616493161258721639e-02 4.557684422533035407e-01
3.693207061635709471e-02 3.177742070326442653e-02 5.087098921147551467e-01
3.142264963357165042e-02 5.576685153631897457e-02 4.784251038366432174e-01
-6.848235752078084965e-03 2.082366744098121739e-02 4.457029779210336939e-01
2.248234761958347802e-02 6.544466943629104194e-02 4.740855758305982381e-01
3.860322322839861847e-02 2.462886928805660403e-02 5.094900466575930098e-01
1.267786937868423461e-02 5.868628621337124845e-02 5.244000426816465277e-01
1.715975163127357594e-02 6.689436486763820910e-02 5.098769613932242484e-01
3.355039082678860918e-02 3.380919408718821573e-02 4.657833987814179455e-01
2.162719019046386443e-02 2.334040078030241716e-02 4.534246903235901738e-01
-4.073165734798941430e-03 6.283133495307821614e-02 5.321705754529756360e-01
1.072035568798254332e-02 6.294235221440321049e-02 4.654130028869502556e-01
1.072527413909378155e-02 4.237792056560600595e-02 4.582089467751823686e-01
-8.221212016414548851e-03 5.904514950041188370e-02 5.336864084849879397e-01
1.677058451554133689e-02 5.805452202587983029e-02 5.216823544003946767e-01
-3.698965065671365286e-03 2.636913937137920928e-03 4.393282977789904620e-01
2.259675803297032937e-02 4.600807861102768764e-02 4.646893533370660689e-01
2.001751554344587819e-02 2.016739389208473815e-02 4.511964324715980190e-01
6.635911388017286250e-03 6.988731285381377667e-02 5.031655250588252803e-01
-3.236622355476818230e-02 4.672350662734678362e-02 4.564835161420082166e-01
1.096543525853324597e-03 6.324488542141214198e-02 4.627818730344134268e-01
3.902868218018710339e-02 2.493922048463653035e-02 5.084233800183319829e-01
-8.738126164874572901e-04 5.700410385383763989e-02 5.353349395121577148e-01
2.951471577165733218e-02 4.888951799299798978e-02 5.129809907349278664e-01
-1.945071436567909554e-02 1.909987414016956625e-02 4.431534181328091737e-01
3.741467920468000141e-02 2.117921846708151895e-02 4.623346449417077286e-01
-2.924482360350052698e-02 2.176885372532989804e-02 4.442205354397116279e-01
5.912149611002906480e-03 7.476513455200441312e-03 4.427935808572527332e-01
3.386723101881775055e-02 4.795695496448670186e-02 5.075898407420070813e-01
-3.043563394739335140e-02 2.075561020650011634e-02 4.440100848511334131e-01
3.862889177757382331e-02 4.421102734228506831e-02 4.827263950906254264e-01
4.294533374689083610e-02 2.367294133758873764e-02 5.001620934161565835e-01
1.130455248864672274e-02 3.967889332998018881e-02 5.341143531971832559e-01
1.981477604234184106e-02 7.497502076123087333e-02 4.903958557320950429e-01
1.029019139418670126e-02 4.926901527895784227e-02 4.605975543770718383e-01
3.474595023699491442e-02 5.218118306196620204e-02 4.840194574064959898e-01
2.837185561963933775e-02 5.739947061295866404e-02 5.090667455780397699e-01
1.085013132474317403e-02 6.545625760608686505e-02 5.180327545210668960e-01
1.205997611453751318e-02 5.428827080222556334e-02 4.630186409077222121e-01
-2.984163731550014322e-03 4.777862493000478022e-02 4.566402994226828604e-01
7.282962335765131440e-03 5.119301896827604947e-02 5.317323792582685504e-01
3.470696197144308021e-02 5.183065264903819608e-02 4.957776981966178775e-01
2.679654332773964698e-02 2.258932279133413559e-02 4.557810724429765536e-01
1.427646440221276569e-02 5.687006310514082508e-02 5.235715206809707922e-01
3.539620084011867174e-02 4.940500250307511276e-02 5.017424248171253875e-01
2.522899566546799727e-02 6.517996576669941866e-02 5.003897345652056350e-01
1.312242629182045969e-02 5.454119745445285689e-02 4.635072824309350303e-01
1.579172366926833576e-02 5.037294046821362559e-02 5.245133704193633006e-01
-3.437071985711669109e-02 3.939363592040236867e-02 4.514662269673281880e-01
2.284971522426516854e-02 4.749302439300039091e-02 4.654523093392538557e-01
7.303365730584043813e-03 3.774634700375516239e-02 4.554764496206348823e-01
3.603768060295822057e-02 5.061869393857973409e-02 4.865755732820336577e-01
-1.398651255199371071e-02 1.300033701622141900e-02 4.414982451784906226e-01
4.285203448916216629e-02 3.264457500949256158e-02 4.910055973543759333e-01
1.808883873482390950e-02 5.439511747063145025e-02 5.213584362002368078e-01
2.731725521239473237e-02 2.595031979014712775e-02 4.576279276414255692e-01
3.698038255630366894e-02 3.770600679930494886e-02 4.719708906783047220e-01
1.958285106921611382e-02 5.011288302746774725e-02 4.647136100629318256e-01
2.838451108391271821e-02 6.351182533039484435e-02 4.837933775849710960e-01
3.513021321182969309e-02 3.686676767922376224e-02 4.687281022525435770e-01
3.482872024769245040e-02 2.224556957840222171e-02 5.193191919102814191e-01
3.445597361250952312e-02 5.311349625200334490e-02 4.921317076130365398e-01
2.348558477802193886e-02 6.916140884677957068e-02 4.803555354386896403e-01
1.071438025945716313e-02 7.599038005692962394e-02 4.750941742820842806e-01
2.674019290643419450e-02 6.626041266763205151e-02 4.843067971630007906e-01
4.040158846713303581e-02 4.042319430558769661e-02 4.938711288981018632e-01
-3.830145626721007113e-02 2.827476985960134664e-02 4.473094247136191193e-01
-1.120630942992380599e-02 4.841342064484952662e-02 4.559621984272363426e-01
1.206976138088892286e-02 7.341732028421736611e-02 5.019025452460423864e-01
-1.579085279718780727e-03 5.604248319778007414e-02 4.590568712236383075e-01
1.173883133284176448e-02 6.946220556856442380e-04 4.414394919613515711e-01
3.039247998311156440e-02 4.580598354839243019e-02 5.131687574743017954e-01
6.286810415404445532e-03 3.161204705560222150e-02 4.527029831848511376e-01
1.165587136509352653e-02 5.277645558072011078e-02 5.270932689730520870e-01
1.520159486706174415e-02 6.006169463718456780e-02 5.224850229042020677e-01
6.654813140341989640e-03 1.258655758868073085e-02 4.450356107083200397e-01
-3.612326588700792013e-02 4.175293162305932643e-02 4.538651309023785663e-01
2.383256135750327215e-02 4.820254173453444868e-02 4.664927457975895364e-01
2.664331450825856845e-02 6.661636951412271135e-02 4.902396168286435318e-01
-2.596570531473082685e-02 1.383954228277412685e-02 4.412110317299925422e-01
3.006939600186786174e-02 4.452961185277824058e-02 4.690169879510499018e-01
-1.898056614285818094e-02 3.329757797993235929e-02 4.492538385395423162e-01
1.412559553354101119e-02 4.897973257837651140e-02 5.268690517906369220e-01
1.999081047389272142e-02 6.911621203820574044e-02 5.032652443057891167e-01
2.613935689202739540e-02 6.511547969734185481e-02 4.787300496113954251e-01
3.115012665153607530e-02 5.492746455977935011e-02 5.045947709546662052e-01
1.882775058504534277e-02 4.390974587719256167e-02 5.259913054026295054e-01
1.726063975202288964e-02 5.550341140409602997e-02 4.655990933146320621e-01
1.448431459036939040e-02 5.337355724127604978e-02 5.244577813601409844e-01
-2.447097628401640954e-02 3.573377267260232498e-02 4.497894807984239574e-01
1.678225540969008334e-02 7.178845847016619708e-02 4.736251329629856954e-01
3.422935085655001014e-02 5.240488011472094892e-02 4.970565624773529700e-01
1.639613437443659602e-02 5.078042798406447872e-02 4.634973374548945757e-01
2.103365258116986908e-02 7.039445032245955636e-02 4.776192724954727575e-01
-6.158998723988577152e-03 4.500484651684180659e-02 4.553094183763712888e-01
-2.218234789929399847e-02 1.850676284052354612e-02 4.428784441338551869e-01
4.012160497636969858e-02 2.752645243946965845e-02 5.044606252421339754e-01
8.016553609587057094e-03 6.448577062917204561e-02 5.213201860840765978e-01
8.200891626179530403e-04 4.275924822831798228e-02 4.559105256203207501e-01
-3.700197606922084326e-02 3.910011611018582300e-02 4.519178853158231646e-01
4.169137576439290588e-02 3.705776333819651297e-02 4.909005736467826897e-01
4.133772409527805732e-03 2.373292701823977776e-03 4.405253509145973245e-01
4.160823931027473992e-03 1.306126079880913851e-02 4.447265907613631719e-01
1.753835690389782265e-02 5.437657301392093134e-02 4.653430399782788052e-01
1.963704310815577239e-02 6.912932187055152722e-02 4.739601209658390601e-01
3.648673966160043830e-02 4.900117883730938789e-02 4.842672204516751955e-01
4.458838501163678997e-02 2.371347751543246077e-02 4.774898892259893945e-01
-1.593840469798209897e-02 5.133314313327377171e-02 4.568185297440046089e-01
3.113496687901316437e-02 7.227498837914983661e-03 5.295860121534372578e-01
-5.291033700392295050e-03 1.767500076923132074e-02 4.447428128777048406e-01
3.875503278468311885e-02 2.311760503500655956e-02 4.646824039208766743e-01
3.949504779577608232e-02 2.390920550356148006e-02 5.080292951496510057e-01
3.797303598675652592e-02 3.897032323191892272e-02 5.046104967888151993e-01
1.517375606027971877e-02 2.706624159761005302e-02 4.529596210900269093e-01
2.805828398983200092e-02 2.944296940827615533e-02 5.254594323262457012e-01
3.383774215997575885e-02 5.077060209480607766e-02 5.043267557472397300e-01
2.735154450264613152e-02 6.542762706960049413e-02 4.858769499476683351e-01
1.539169925991934994e-02 6.794976112381796718e-02 5.098622802397809739e-01
3.961606147768885478e-02 3.248595188718160498e-02 4.723880150558763535e-01
2.421919224746853228e-02 5.423488790407746118e-02 5.165415267215809347e-01
