2.542557508917393100e-02 6.758073645048820466e-02 4.925613188800874176e-01
8.307232355198661614e-03 1.630758779833954911e-02 4.469209527232981261e-01
3.922104167992225554e-02 4.400325168953578281e-02 4.925321273255767185e-01
2.548772569121118825e-02 5.605380645973344345e-02 4.718783029220178782e-01
3.149070546399390658e-02 4.318171079722408351e-02 5.134563807752610121e-01
3.621865055681450229e-02 3.296062757087833001e-02 5.097680108947260091e-01
-2.153358879546720187e-02 3.874967615515053504e-02 4.514852843341235489e-01
-1.338154040254223992e-02 1.490535321819729496e-02 4.423495455943412535e-01
3.093127488498061128e-02 2.474676124946374040e-02 4.593305667584538510e-01
-3.285483246574185529e-02 4.005206201821063378e-02 4.517476666391132545e-01
3.620134104886168873e-03 3.561007473233498283e-02 4.538539614505608943e-01
2.803388443002347713e-02 3.473136994275666245e-02 5.236503553959805934e-01
3.164157803840926542e-02 3.807184365541887300e-02 4.667500704010328350e-01
1.854785191087715557e-02 5.741381172143362327e-02 4.672511195197013301e-01
3.404297450870364533e-02 5.398960131687381009e-02 4.858546528086218341e-01
-3.163374445709875304e-03 5.419340437272245070e-02 5.403809825708347780e-01
4.275808370161476857e-02 3.227945149854074408e-02 4.839381206274497305e-01
-2.227761473959994146e-02 3.261207839367485928e-02 4.486337530486027569e-01
3.575644522638770501e-02 5.032828592034958165e-02 4.944993033881202038e-01
1.302569897941975932e-02 4.239496898604466768e-02 4.590603075470100491e-01
4.115205424517155708e-02 3.204272640487283025e-02 4.752558316158305707e-01
-2.362535851508377333e-02 2.403766522733041811e-02 4.450028236312434382e-01
9.138070082011492956e-03 6.487637400542316246e-02 5.198915261592511605e-01
2.552427997842915755e-02 3.248369140757419865e-02 5.274033475911568125e-01
1.459993525341123435e-02 4.384622154565340907e-02 5.321110178752558317e-01
1.439070172265852383e-03 8.293983779711588261e-03 4.423035853752286806e-01
3.471470517515079512e-02 4.496329371928999702e-02 5.083180508368071449e-01
5.429264535299143171e-03 4.970981317492665502e-02 4.593601420980421013e-01
-1.368170431070917480e-02 3.339698031722835442e-02 4.500145239476875392e-01
3.224425814855868405e-02 5.033404466664593430e-02 5.090702112157189374e-01
2.152377323138016454e-02 3.221613085745188981e-02 4.575988665071699657e-01
-2.246697137444093537e-02 2.925281056027304039e-02 4.471049132144557792e-01
-1.996396917589702766e-02 3.959434426892566306e-02 4.519909768307229792e-01
3.392522772004469972e-02 4.663188157923951749e-02 4.748465043933602914e-01
-2.521799801026505111e-02 2.696341160439399975e-02 4.462089606415091669e-01
2.491590040355999916e-02 2.615710209422323490e-02 4.565433257023793212e-01
3.294564369293200012e-02 4.999335148306199156e-02 5.078249318065289897e-01
8.498143636660428907e-03 7.288098096963088746e-02 4.990689511112003096e-01
4.946520969647456335e-03 5.221684338568278322e-03 4.417262578408464035e-01
3.459135630771884712e-02 2.173652005109424218e-02 5.198694432817646538e-01
-1.923089278859584431e-02 3.540069888556467148e-02 4.502166354033409479e-01
2.021253575343552600e-02 3.923297461159762356e-02 4.604176597498955137e-01
2.304407589760712818e-02 7.003160272629363470e-02 4.941180932006250526e-01
-3.149457385350756117e-02 1.142041947372931035e-02 4.416584276315690394e-01
5.049332116455198909e-03 5.113261209253595202e-02 5.339633640850833807e-01
-3.621430908738435331e-03 5.716949811435391438e-02 5.390830048363145499e-01
7.205082109698032582e-03 6.619535782119063960e-02 4.659387192523767318e-01
-4.306526057260885894e-03 -7.342367142620530220e-04 4.381425422256533531e-01
-2.960437044169235074e-02 1.802302833436070229e-02 4.431043640938884254e-01
1.721498654914243188e-03 6.692075668694476287e-02 4.653067008496762358e-01
1.465577705267925510e-02 2.617886404976481340e-02 4.524854670122635536e-01
1.540273758918772433e-02 4.872469600114830851e-02 4.623708391522709515e-01
-3.485359552712279964e-03 6.365932479258919197e-02 4.629343680356542978e-01
2.162872557114992045e-02 5.746497382669166210e-02 4.693643145247313742e-01
4.174248275965897204e-02 3.618285988354028038e-02 4.871170102617538578e-01
-2.320321997541337916e-02 6.484078996199600133e-03 4.386196336593009004e-01
4.242473304465618766e-02 3.254060008762527101e-02 4.934469728064952987e-01
4.025183227714024259e-02 3.802084613297799370e-02 4.992637656872460084e-01
-1.155541568584338629e-03 6.942221399148192085e-02 4.679957031039405080e-01
1.444503516757875659e-02 4.307451437132070460e-02 4.598020531183795168e-01
7.945464519618083976e-03 9.053434742922698147e-03 4.438872059084856825e-01
2.991053445963357330e-02 4.329875210749778436e-02 4.682926811069960671e-01
-3.102590589597449544e-03 5.873882871288620827e-02 5.214051439795002185e-01
2.518845260776417933e-02 5.971307906983167740e-02 4.736176350759405129e-01
1.927377724578497806e-02 4.083727605609939471e-02 5.299875898777526295e-01
-2.312457149926237451e-02 5.885360853824298660e-02 4.648756197880550278e-01
-1.230651387025502239e-02 1.740197530351216253e-03 4.379529610940464113e-01
1.844976882226890061e-02 3.115556317446449563e-02 4.559131806277469390e-01
1.539344722063237976e-02 7.649895145424588649e-02 4.927081628583575568e-01
8.551846681645752096e-03 4.842369005936879300e-02 5.331639722804523140e-01
1.960081262652356784e-02 7.417912620701237747e-02 4.828196367519172472e-01
8.027973563931265280e-03 2.016085645988074243e-02 4.484190017705735332e-01
3.771309852347476399e-02 4.247649883399579052e-02 4.778793021039953182e-01
1.173794360542509616e-02 6.996254058955227173e-02 5.085937611002069314e-01
1.840951602166860518e-02 6.929679764503846040e-02 4.731919709303118449e-01
-1.619455947361635650e-03 5.060689201448984736e-02 4.577804466810153627e-01
-1.034832082637913639e-02 2.059064901704108635e-02 4.450524395826053747e-01
2.750090828767452408e-02 6.505150821856089949e-02 4.842284414775401280e-01
3.842117543165059906e-02 3.056933278777176563e-02 5.063490739151951248e-01
4.144515606114736184e-03 3.169444526803482515e-02 4.523571488998144874e-01
1.664486708792807523e-02 3.544907771107667915e-02 5.319683460809048192e-01
3.005576047065837073e-02 4.162462834675186019e-02 5.156076075282589599e-01
2.591464378797537962e-03 1.147088353604850015e-02 4.438128655545522938e-01
9.076895465057362167e-05 6.051054338126045373e-02 5.165096710639700550e-01
6.696672586500398462e-04 4.343218366645686807e-02 4.561800368846952169e-01
-1.296617051816865984e-02 3.386710088804846530e-02 4.503269287140416743e-01
-1.494325625092578561e-02 3.863935845545164727e-02 4.522059387957776400e-01
2.093168799892730636e-02 2.113794880617920341e-02 4.521369802721894593e-01
2.577331486238385039e-02 4.291857631326256861e-02 5.194329228949889909e-01
-1.341564915571708330e-02 3.661398051637204665e-02 4.514970384853737029e-01
3.999272994613654354e-03 1.070226411728664520e-02 4.437713952058724431e-01
5.728180667033245729e-03 6.087724340026681030e-02 4.628879600652009985e-01
5.118899765947377244e-03 6.406365640729477784e-02 5.235047690902602247e-01
3.154251382705312162e-02 5.831265072536281208e-02 4.932464539546417837e-01
2.874730300028075988e-03 6.444724102863141901e-02 4.638762874562871730e-01
4.036326563782345611e-02 4.063496973289377340e-02 4.939446994915510092e-01
3.542442361130347661e-02 3.528647080691142690e-02 5.100535924188362991e-01
-1.469143033597178176e-02 4.158711672943469356e-02 4.533874567091855101e-01
2.149608501379114342e-02 7.212353554870254424e-02 4.829859756768669077e-01
2.277225180413762831e-03 7.736103861744897045e-03 4.422343975577905373e-01
1.191010070235442100e-02 8.541063885475756734e-03 4.444898519029228945e-01
4.001758576519132832e-02 2.821388736861988808e-02 4.697043065313237231e-01
-2.406705989677780655e-02 4.368770465798944846e-02 4.533895460650674836e-01
3.470660112839718536e-02 4.050764726931855436e-02 4.707700028414865678e-01
1.208470068978522924e-02 7.681256291254404123e-02 4.763515604345323617e-01
2.296163551654117549e-02 6.963129321787810133e-02 4.801990695239062301e-01
2.157556329337114928e-02 5.567268766374540434e-02 4.685075346566857646e-01
-1.275508286458499306e-02 5.904814964298869123e-02 4.602725439401742502e-01
-7.169427969446843900e-03 2.959453040175710412e-02 4.492951331350784061e-01
-4.868103704059035391e-03 2.394074144225660783e-02 4.473630464442016064e-01
2.995733538137414220e-02 5.940830315946186990e-02 4.997390276170609047e-01
1.601087613327508916e-02 8.709649173410178441e-03 4.455550012429463913e-01
8.150190550871853207e-03 3.497504113410893761e-02 4.546421800697417748e-01
-3.403557054141581606e-02 2.932690247210133216e-02 4.472987017544948762e-01
1.318521991084713012e-02 1.723561899830515151e-02 4.483831937487344765e-01
2.049104947589980991e-02 4.082507783731740419e-02 5.285426195409921313e-01
8.663948722110445533e-03 5.926769178235654495e-02 5.274962408410940329e-01
2.422262641666424188e-02 4.550383644135290451e-02 4.655357931995833254e-01
-8.717988392894553129e-03 3.004294303828519003e-03 4.388713324756742251e-01
5.046373396350020343e-04 5.820800627905171193e-02 4.603697701730928848e-01
1.259785256866164174e-02 6.521068660115433846e-02 4.674056631132171291e-01
2.429418349506592620e-02 6.572587474239989513e-02 4.767458931980828041e-01
2.462773532344673597e-02 2.217034657417832691e-02 4.545140104940103010e-01
-1.269668525835690800e-02 6.157299695073146367e-02 4.637793521936331431e-01
3.632435424445321775e-02 3.207562413142265451e-02 5.101126451489227387e-01
2.501765399516098221e-02 6.620113596923928034e-02 4.784102538118360504e-01
3.449339195649238354e-02 4.932511321324514059e-02 5.048886599911497353e-01
3.745186834481309401e-02 4.702853708851091608e-02 4.971407155469713679e-01
1.956949845847344091e-02 7.405440252321919548e-02 4.823390487179479713e-01
-2.786647448672010738e-02 1.950344115147933932e-02 4.433248890112135299e-01
3.392829255593104304e-02 3.795874145504671976e-02 5.117279713866323965e-01
1.922526635622946040e-02 3.435800887239624096e-02 4.575906005921511754e-01
2.478499853735314021e-02 4.172741020776103010e-02 5.215040392958892879e-01
-1.284588759848524255e-02 3.386768656346778733e-02 4.503444134559754231e-01
1.018272696955256282e-03 5.169330374121741678e-02 5.385391977771150085e-01
7.482034664331564840e-03 4.289388677901792568e-02 5.356774366052214909e-01
8.464069382738715133e-03 5.190564681742951096e-03 4.424142679369182929e-01
-2.466703007679385551e-02 1.998054912660263138e-02 4.434504497458909844e-01
3.529215206750663247e-02 3.593188175942526458e-02 5.099295585880442294e-01
4.251291415798214013e-02 2.487468581375049115e-02 4.724421730694147170e-01
6.507139889971050306e-03 4.430063311536203835e-02 4.578781860076874821e-01
2.391898525989341259e-02 6.847805772934817403e-02 4.957039309732310106e-01
1.449778179528568751e-02 5.151294619475148273e-02 4.631639278183785624e-01
1.398946802766474345e-02 7.704337792764083537e-02 4.812465995165601806e-01
-2.915600222099811595e-02 3.316116464027053096e-02 4.486854777833714225e-01
4.236708465783553534e-02 3.478875754972125811e-02 4.913148934220619712e-01
3.013483908907719361e-02 2.196980735739623505e-02 5.244391952203490970e-01
-3.700517217946153702e-03 5.124699417046142680e-02 5.389749706105904092e-01
2.156022423920354869e-02 6.635837239932627918e-02 5.063528455733141698e-01
4.111098575583387038e-02 3.692798399445218482e-02 4.810468585017889653e-01
3.459256663777047353e-02 4.467263821747884806e-02 5.085761508520730834e-01
4.142246651497345084e-02 3.651559322754824310e-02 4.939479709648608718e-01
-2.722710659665142710e-02 3.654764432640747462e-02 4.501523762090311465e-01
1.405014724221153796e-02 7.525254681071408269e-02 4.756986200755371486e-01
2.737449949519748377e-02 5.429350387268579159e-02 5.130335644795230854e-01
-1.854895076033147641e-02 3.578837991980392957e-02 4.504650470645039095e-01
-1.912092758505988706e-03 2.362520720871698690e-02 4.478285865317809811e-01
-2.200294539134388730e-02 2.138846821161342285e-03 4.376277519465729959e-01
3.075655885158368533e-02 6.004997758059080204e-02 4.906478256014912831e-01
-1.825836640691001940e-03 6.193830404708718096e-02 5.273662640789822387e-01
2.727263164404008025e-02 8.153067497144061981e-03 5.296295973291195169e-01
3.768089142227027538e-03 6.340892340394607696e-02 5.176888597214882592e-01
3.070843841291012732e-02 5.728829554526596729e-02 4.784580457145570787e-01
9.706801599660195776e-03 4.135395449506653470e-02 4.576145626656225041e-01
-2.854962946259482701e-02 4.287142546199021464e-02 4.531377567606025281e-01
2.666809768354572521e-02 6.273738378139900873e-02 5.038364259913663545e-01
4.440797821721705063e-02 2.700366514009083091e-02 4.845155084588130823e-01
1.215074690597062190e-02 5.301959961044289127e-02 5.268869133185319908e-01
2.516869154719885912e-02 4.321923736616663236e-02 5.198789067997688917e-01
1.610523169208252087e-02 4.251882185812255049e-02 5.318393161154523208e-01
-2.991656796263209711e-02 1.272079361726882740e-02 4.416665276385831618e-01
2.676049549098271155e-02 3.233329979485140976e-02 5.265136952980611351e-01
-1.055214914498365554e-02 4.788451175598289894e-02 4.559262245194927732e-01
3.735714413503157111e-02 4.800487623523532615e-02 4.871448656014182865e-01
3.467616076240000872e-02 5.219145808033502643e-02 4.948446597975044714e-01
2.549237432356589797e-02 6.588639202792262450e-02 4.979227440181355213e-01
4.277310744887305449e-02 3.194286755382404891e-02 4.825300689053358405e-01
3.310215424040470478e-02 5.600494358534353206e-02 4.883761765965101698e-01
-1.996125293911172379e-03 1.593215594511658562e-02 4.447180693722934675e-01
4.328178324838787699e-02 3.054601443679356640e-02 4.837174858349059803e-01
-3.551499885877206636e-02 2.411210141417483369e-02 4.457103998228709174e-01
2.335089095483325675e-02 5.190584411263753084e-02 4.680520908562521565e-01
-2.451678407788655811e-03 6.296168010860914155e-02 5.320056029370913153e-01
2.154459263200355842e-02 4.254247471303747308e-02 4.626850067964028423e-01
3.271369426897937499e-02 5.460395075589821040e-02 4.997610769406306552e-01
2.037066352304660322e-02 3.786234929820000983e-02 4.597995420562208668e-01
-3.701045900781632474e-03 5.126811473349088960e-02 4.576043699681958121e-01
-3.595826544642875822e-02 2.970099288364937747e-03 4.395216343942802140e-01
-2.391604357359780955e-03 5.607286975524873596e-02 4.591416720811425378e-01
3.784686441949385721e-04 6.306009155763397933e-02 5.335790744586912382e-01
1.755485670626997369e-02 3.417984007332145607e-02 5.314730254141043497e-01
-3.509900624004282099e-02 2.651741410823365078e-02 4.464830144418204805e-01
3.961674512585788149e-02 2.325393982237782681e-02 4.658660407100275180e-01
-3.248424194751946270e-02 2.919829359894197951e-02 4.471967958979726210e-01
1.513545654800566714e-02 7.580988922554335319e-02 4.784751843691883444e-01
2.532736181909367099e-02 3.786767284802526612e-02 5.243825280236713571e-01
-2.357030980782611265e-02 7.670841379556721414e-03 4.390000541374976528e-01
2.282674865124584285e-02 1.652182115233900156e-02 4.509772256460410911e-01
4.320416538202666995e-02 3.021408916306310768e-02 4.814094234126366501e-01
8.239226939138716982e-03 6.858660505199493107e-02 5.079329847080371607e-01
8.142144178432543511e-03 5.877061702368526624e-02 4.630923208664009527e-01
-3.231057573514968528e-02 2.472301537171069444e-02 4.455987095923674701e-01
-3.331874477457139223e-03 5.054551665696758317e-02 4.574772416638606676e-01
1.364509859886679777e-02 4.571256436701864184e-02 5.308145589314655632e-01
-3.328415768479271036e-02 1.878499242968090580e-03 4.390115477088981089e-01
3.395185730345497144e-02 5.320878348775524846e-02 4.961257935204684832e-01
3.054042109985194431e-03 4.861492302908878432e-02 5.377888555221451705e-01
3.160167489399368784e-02 2.184447821349632529e-02 4.584324349605171101e-01
3.763833659182292540e-02 4.676554595479313209e-02 4.967760973336862729e-01
2.099441941408749374e-02 1.833150025850406595e-02 4.508227450700792449e-01
1.531557138106949371e-02 5.001157931253373545e-02 5.255514988756109229e-01
3.121432753956111458e-02 1.957269057027557005e-02 4.571441556196113587e-01
3.853555245270235546e-02 4.051238961710776354e-02 5.026230290237656551e-01
2.056926767202883408e-02 6.901462546754935645e-02 5.027524592073295828e-01
3.754668130314624264e-02 4.107750984374862468e-02 4.761906633156615110e-01
5.133772555796405415e-03 7.360229818472040220e-02 4.722600549143969872e-01
4.138036819889547024e-02 3.520888438791255903e-02 4.787381148764485728e-01
8.772498306843040661e-03 3.790990780089940893e-02 4.560005585346425527e-01
2.805533526434215996e-02 5.803585005967849819e-02 5.089449619800067159e-01
3.224770849579334381e-02 3.989857754930825617e-02 5.141855309507556981e-01
4.167485391183982368e-02 3.140649073773495864e-02 4.978021040682795162e-01
2.712180890768900801e-02 6.342047178695417453e-02 4.782563959580665158e-01
3.494126440489124519e-02 5.135471372804815970e-02 4.964253833436375607e-01
3.684472030421076516e-02 4.732879664854111601e-02 5.015025841219105107e-01
9.584884191368679696e-03 6.653551163800158763e-02 5.112441144781539881e-01
4.320588854956439184e-02 2.479029517658476803e-02 4.983105874977507010e-01
2.574414545033472911e-03 2.216474547258129313e-02 4.481374438763464640e-01
2.428702219571844331e-02 5.759761295034949991e-02 4.716383426190507433e-01
8.449600403197234100e-03 7.533622028105819990e-02 4.932670718244248076e-01
-2.304458721703241467e-02 -1.349841569430660672e-03 4.370468695342935028e-01
2.092400109291520094e-02 1.724024612200968781e-02 4.504216599051252268e-01
8.918127713679236020e-04 2.251088056083311306e-02 4.479416425396769430e-01
-9.932936506475857630e-03 5.684951585318149397e-02 5.322459407216368898e-01
2.939256389872802605e-02 5.089702385650990424e-02 5.122311719690573195e-01
-1.811454728270072909e-02 4.980635075105695198e-02 4.564131643589424692e-01
-1.163836906907745120e-02 2.477516008257793848e-02 4.464604690630805117e-01
2.055380634980701060e-02 4.532080023638752203e-02 5.234371178001366864e-01
2.176693126515281962e-02 6.823171107466598218e-02 5.016753090098934331e-01
3.758898715662508522e-02 2.524599514768905914e-02 4.649120697147365311e-01
3.523529641386097949e-02 5.224904617308600424e-02 4.876828395355720103e-01
1.998277165731290189e-02 4.230881919017747544e-02 5.276200472907208727e-01
2.661125944168261925e-02 4.528527288719343818e-02 5.175103010940833581e-01
2.538271056047006549e-02 5.200186126297530465e-02 4.697396191941533017e-01
-1.465653495485275820e-02 5.505411042503950865e-03 4.387946364835346724e-01
2.172090525689340454e-02 2.717821488081351156e-02 4.553607861172112581e-01
6.251366922815630722e-03 3.824014231181369766e-02 4.555336810511781409e-01
2.867524977735065594e-02 6.367053220286578163e-02 4.896485224505836564e-01
-7.973581171978701880e-04 5.136307453760954878e-02 5.393516369275720423e-01
7.399258791653271286e-03 4.192840899261499749e-02 4.572575555973507622e-01
2.686966007255163491e-02 4.610841062194685758e-02 4.676093647277214660e-01
-1.305980291487890584e-02 4.023551348265408042e-03 4.385607122617610765e-01
3.826500069557796195e-03 2.181098079410520585e-02 4.482446042096302485e-01
3.913855662982822919e-02 4.326929632500586820e-02 4.837177558193989091e-01
2.387253896883698157e-02 5.759514634406601857e-02 5.148991538319368511e-01
1.175160173086993920e-03 6.606485839839765228e-02 4.648100689814248510e-01
3.704177233205041987e-03 6.283845370306359590e-02 5.211314426631521446e-01
-2.093241479708153607e-02 1.888558281680318557e-02 4.430588223281658466e-01
1.636724518636813869e-02 9.402908100346508632e-03 4.459153574282030408e-01
-2.114654404078977756e-02 4.091478752513634520e-02 4.524189085586713399e-01
1.125413429868388562e-02 3.645309271600755130e-02 4.559987247711583258e-01
3.634332746783103946e-02 4.009770394084825884e-02 4.729770094160321570e-01
8.313364475065834064e-03 3.445577694563052573e-02 4.544602151047263394e-01
-3.510528189096480400e-02 3.179908282746733532e-03 4.394369445226838922e-01
2.159314902036771344e-02 5.944661617427442896e-02 4.702753621789254601e-01
3.476968999472263705e-02 4.743071776214157625e-02 4.769182634153874556e-01
-2.350070917237374185e-02 5.625050461901886373e-02 4.602559852418590114e-01
-3.768100125476631611e-03 5.291236736414625663e-02 4.580528641574126980e-01
-3.503627805792185884e-02 2.201721638584083762e-02 4.449861553291535321e-01
-3.215635109429283017e-02 1.601593172288509268e-02 4.428941977747539727e-01
1.137616641877101792e-02 6.408615394529867948e-02 4.663079841615489496e-01
-1.638060338757930945e-02 4.949520114562635208e-03 4.383377822868723683e-01
3.931608057123898298e-02 3.456471873960072216e-02 5.027245378810470955e-01
1.256021945104715543e-02 3.003133385960001997e-02 4.535803252714159517e-01
2.511411858478447903e-02 1.522875384656726880e-02 4.516290795820253612e-01
-2.649540313721369250e-02 3.518767841870092117e-02 4.495738895256325973e-01
-2.234976985586790976e-02 1.476411506679783069e-02 4.414898682040498956e-01
2.819029795189808424e-02 4.599673245032460944e-02 5.161459276710260724e-01
2.857488901959732291e-02 5.689847255704140461e-02 5.095876344742295005e-01
3.857048410306186670e-02 3.585984795189475077e-02 5.042233482006511780e-01
4.049311496495832524e-02 2.015453626046843222e-02 4.654737325882267185e-01
-1.890909503774801381e-02 4.304141254722646664e-02 4.534995928019649458e-01
-9.845364648279527828e-03 1.552029270741743516e-02 4.431892114992570519e-01
5.434060766140594648e-03 1.073193206485331935e-03 4.403668789670857064e-01
3.347843048704331192e-02 1.730078839650684569e-02 5.234438516437650568e-01
3.628186431656936495e-02 4.679779040115832761e-02 5.033532148499761938e-01
4.028771460449152853e-02 3.944976296036063756e-02 4.806156889844107050e-01
1.781902149459821741e-02 1.058388275690049299e-02 4.467749841028342273e-01
1.987224609580821866e-02 6.063919466585154100e-02 5.171699486516676547e-01
8.190884234097872002e-03 7.208308523366771525e-02 4.696727170918730265e-01
8.023467810867617248e-03 5.128070492727819507e-02 5.313531904249163551e-01
1.429998391966461752e-02 1.398661921907438412e-02 4.472775610098937427e-01
-9.624142434278891087e-03 9.091671461666716095e-03 4.407957472705770763e-01
-2.488871776667727839e-02 5.837869756496705947e-02 4.654994568112783004e-01
2.531583070254200471e-02 2.328061258732014999e-02 4.553999156423403916e-01
3.266250308030036603e-02 4.977394372690681357e-02 4.758127326921424149e-01
3.918633421588402221e-02 4.395895371766347232e-02 4.905746416767591267e-01
1.346614807267152575e-02 9.480213687519500887e-03 4.452388721771212143e-01
2.255785946344026835e-02 6.717522987598871509e-02 5.019699416538849768e-01
3.968094840877012947e-02 2.394543937144889487e-02 4.663270624222449756e-01
-6.995902057393846643e-03 3.676718108128580742e-02 4.524764898030809168e-01
2.434189186015781395e-02 2.528713020924844290e-02 4.558295809649673402e-01
6.335656169254363403e-03 4.910069148997892735e-02 5.345123662775894680e-01
9.884513224015905805e-03 4.244004677221653588e-02 4.580959367748543842e-01
1.716312258504157015e-02 6.989105437700554591e-02 4.725625112674721739e-01
-6.945199230124305886e-03 5.852035811568004342e-02 5.390903933944759530e-01
1.636185905221794468e-02 7.626899106379464444e-02 4.823932291643382442e-01
2.280347695372432482e-02 4.233528304647243140e-02 5.232107528942241403e-01
-5.729229015414709185e-03 5.736802064390155581e-02 5.245730677149029741e-01
4.186378830760658504e-02 2.419626010029900937e-02 4.706091194913644693e-01
3.391325382338974959e-02 4.985735150675119770e-02 4.779917820106934778e-01
9.892167167682975465e-03 2.393707818037416404e-02 4.503932932668098799e-01
2.511291921222539442e-02 4.225164190284576293e-02 5.207139495288012343e-01
2.641183965415399432e-02 2.540566723051902731e-02 5.267238980201307541e-01
2.559188560558525727e-02 5.723276943288195528e-02 5.130484438172651096e-01
2.868223224521915856e-03 6.377763889602691694e-02 5.252666265189127603e-01
-4.101538411249352339e-02 3.705299294350021533e-02 4.515210423195087919e-01
6.773489232080005112e-03 6.848406400147361017e-02 5.065727657995585664e-01
2.506493501489268777e-02 4.069542098378878259e-02 5.214400828385385989e-01
4.259179443098765755e-02 3.302324919019394150e-02 4.849710734904947862e-01
-3.917748045248125449e-02 6.124901015953556488e-04 4.408634102176476333e-01
2.882411913858093019e-03 2.085258665951248563e-02 4.476741927729835924e-01
3.904180357636084092e-02 1.929115068587177254e-02 4.629263688055226811e-01
3.707296799329484055e-02 4.100957821027544775e-02 5.061111198601797589e-01
1.847936816199508697e-02 2.309034509081233505e-02 4.523721429890757428e-01
3.402104771048035381e-02 3.567743529165380567e-02 4.673016494736091930e-01
-2.563875988522869645e-03 6.247973424697842587e-02 5.350325135700718659e-01
1.775870379043318356e-03 6.524068954713142798e-02 4.643378884946139373e-01
1.153035191702058218e-02 5.918968006890731881e-02 4.645372737118684259e-01
-1.460541474270923151e-02 6.178236465723314225e-03 4.390308774982535911e-01
2.696374266107174136e-02 4.448872454032926776e-02 4.668605162267001063e-01
2.213288627632953309e-02 7.022787456316878507e-02 4.969189199659892475e-01
3.762760841285617969e-02 4.751624836170195015e-02 4.887052415264534488e-01
7.530656752919229723e-03 7.451079775530311533e-02 4.727209379536156386e-01
3.753957890551997550e-02 4.736349476273599146e-02 4.934439472856583797e-01
-3.086518818632704927e-02 1.069709614541179861e-02 4.413622888579658565e-01
4.080273154281687832e-03 5.253102052902411390e-02 5.340345741159913118e-01
1.822282761487879765e-02 4.404023373443250594e-02 4.617087740809509566e-01
3.807936099052385004e-02 4.055946419293121608e-02 5.037944779924142802e-01
-2.322658563359844552e-02 4.605056608334163332e-02 4.547319490122565533e-01
3.038891080778833437e-02 3.388602931504747229e-02 5.200101441514614065e-01
-7.673297959471638355e-04 6.116693002470591917e-02 5.344937049051083910e-01
-7.073636704161103024e-03 3.156687670096656323e-02 4.501721018615531533e-01
1.438167165647228317e-02 6.543889542911744683e-02 5.167135925734800406e-01
1.943817956304112315e-03 6.849074431314366995e-02 4.662134999254911594e-01
1.213030804169753021e-02 1.954611127796277228e-02 4.490869721760958333e-01
1.881012825500060978e-02 4.533073049508631880e-02 4.626067199672334040e-01
-3.793686970502401640e-02 3.916749842491845657e-02 4.523556132781341166e-01
2.538004291897631368e-02 5.358218870401850603e-02 4.705731519313150479e-01
-4.051312649357600992e-02 3.926230568269421795e-02 4.533355152462761328e-01
9.538398409303788794e-03 4.330266383103133221e-02 5.353259827803201754e-01
-7.208822467228825220e-03 5.522875889711943015e-02 4.584096291763867237e-01
3.400400764490649208e-02 4.196991296656273768e-02 5.104824227195818853e-01
1.991644185751502080e-02 7.478456233088330574e-02 4.892558072805796021e-01
4.355796072438663895e-03 4.990285162672083302e-02 5.357346930973967414e-01
2.826985010946854796e-02 5.214025874833577712e-02 5.129868298517364922e-01
1.989815553132234273e-03 5.141306581254498353e-02 5.375728908145573914e-01
-3.888211823117441318e-02 1.713994220397650151e-03 4.406415989863071703e-01
4.003193875596035289e-02 2.589723552407472221e-02 5.059563502862811646e-01
-3.013159383432776478e-02 1.282411732193947801e-02 4.417330408304674938e-01
1.229818572952507717e-02 7.503115563285114864e-02 4.748424928375717946e-01
3.220332494009515295e-02 2.911212210613584039e-02 4.624395381541459571e-01
2.761705336442477066e-02 6.274175614756825892e-02 4.783389716826656479e-01
-1.383636024912666788e-02 4.378906499613671732e-03 4.385524674925131428e-01
-6.461697017925389225e-03 1.246782668541949329e-02 4.425731118220010973e-01
3.682078839412903856e-03 5.387054573464861162e-02 4.600836486165829631e-01
3.924820102634748314e-02 4.333332941568489305e-02 4.855547924599611931e-01
-3.061755560245696048e-02 3.814100768068738601e-02 4.508312987838517527e-01
3.665871302549016109e-02 3.918107415340157940e-02 4.727498905904637394e-01
3.717039725606072730e-05 1.788309548153182993e-02 4.459061923504538671e-01
2.294149126855726979e-03 4.541865012010255082e-02 4.571086305213862278e-01
-5.875948412127241817e-03 4.082555288031468332e-02 4.540921599259808428e-01
-1.489366736024705200e-02 2.250514896127545766e-02 4.450578422327065575e-01
-3.710790115312228438e-02 3.175351371370286474e-02 4.483378604022938974e-01
-1.235954967842628482e-02 4.913921402370963892e-02 4.562458832148131860e-01
-4.201032087015826866e-02 2.683316778026954841e-02 4.476492531029745980e-01
1.278943887896934195e-02 7.605577700365007132e-02 4.938187078197766033e-01
3.203733484551342381e-02 4.599161648980658323e-02 5.112868603619699082e-01
1.244825328903589358e-02 2.056745309865444168e-02 4.495894273366607963e-01
3.611606020316075749e-02 5.028148210656163686e-02 4.914641661112383320e-01
6.036924661338370288e-03 6.908329178382589808e-02 5.046063622059788756e-01
1.026566366538974109e-02 7.526216843395719391e-02 4.972735960042333203e-01
-5.533460111424497261e-04 6.067436573493554391e-02 4.609280433551475875e-01
1.721303316899132699e-02 7.682440243116675505e-02 4.870487391420918466e-01
5.455965416207132247e-03 5.313841421429930240e-02 5.326724299207666879e-01
2.071897170132764102e-02 2.921944703148448425e-02 4.558162037836137603e-01
9.719461576892338139e-03 6.964586048347018443e-02 5.076628660673381255e-01
2.186184898767344620e-02 5.569295454044632943e-02 5.189009927896577334e-01
3.003696573745616091e-02 5.972963213702160712e-02 4.802197370595548964e-01
4.466803066674369244e-02 2.340823009756935399e-02 4.773298171963573644e-01
2.221658039858286082e-02 8.017350075490136188e-03 4.473921973742908675e-01
8.221579871474952658e-03 4.120180048563003294e-02 5.352805779150113796e-01
1.430144034042720239e-02 4.086143891825482627e-02 5.334468336546561718e-01
2.359824353073783701e-02 6.940334374765617931e-02 4.940084143046486465e-01
2.202608260826765391e-02 5.841609046260918398e-02 5.164595726238919715e-01
2.200637191234379453e-02 7.079178813925378344e-02 4.806871439236479748e-01
5.578658483996209658e-03 5.922320990185411804e-02 4.622772574799842160e-01
4.854833738471506406e-03 5.326962219021162681e-02 4.602574755907885007e-01
-2.042670505821727461e-02 3.729167005282234271e-02 4.509461722587876364e-01
2.584675480938780287e-02 5.053400146503413126e-02 5.169942061971793956e-01
3.166481433674844109e-02 5.757015837196696045e-02 4.955078696054521781e-01
-2.343948155222740429e-02 2.513394717689675095e-02 4.454783207741364603e-01
7.454715699085688423e-03 6.966429947941284173e-02 5.056458359047297790e-01
2.941286316594776337e-02 6.117004446069232437e-02 4.965251333870881467e-01
3.153525064344289003e-02 2.854535657945562327e-02 5.223751036541099957e-01
1.328390670192516193e-02 7.490237640741945202e-02 4.991180772979414426e-01
4.197669265519543211e-03 5.136252071533701363e-02 5.349812882180758900e-01
-1.901058385853446331e-02 2.088818292881303162e-02 4.439544304022595700e-01
-4.076639637023539778e-03 6.895632282932814827e-02 4.691531817369396506e-01
4.045952139042799205e-03 4.359811508531042518e-02 5.364687150482465583e-01
1.247942484558568939e-02 5.076978160269314533e-02 4.621356580480421861e-01
2.991992736004920467e-02 5.630346224089260304e-02 5.061510573114904599e-01
1.235257523473423658e-02 5.384804838380165271e-02 4.631616663269610967e-01
2.351360439224956574e-03 2.197100952678607277e-02 4.480157352824808981e-01
6.734742677382343085e-03 4.718391590973675109e-02 4.589203711570997157e-01
8.777517200514778697e-03 5.461942911135973799e-02 4.620346332961465241e-01
1.831162095950242263e-02 7.243962658270426680e-02 5.001509444856934161e-01
1.190800319930923612e-02 7.615984685367990781e-02 4.898601999683083741e-01
2.330068723767928646e-02 8.376490485255658897e-03 4.479650881247853600e-01
3.692247951028130443e-02 4.444601102155615324e-02 4.782504794478623644e-01
-2.441590174418782275e-02 5.077466399385370532e-02 4.571855412201226709e-01
9.269986189407377827e-03 4.304599067072589769e-02 4.581272563519409036e-01
2.883937176949024142e-02 3.532551173632115377e-02 5.211806456090809503e-01
2.886808276319826824e-02 4.625284628534759301e-02 4.692791983338312489e-01
-9.164880647833965541e-03 4.308368583007404773e-02 4.545089797205715820e-01
3.220236103376850068e-02 5.641074688481988175e-02 4.963419731318412520e-01
3.467287577151489247e-02 5.324105793978673590e-02 4.878776023585748578e-01
1.384974235563926452e-02 6.379203794878200717e-02 5.205319905298563254e-01
-6.717766243014277987e-03 2.160871253859159014e-02 4.460772467883675207e-01
1.845632362644113525e-02 3.498092220581927592e-02 5.311499428075788787e-01
-1.095907272497991317e-03 3.027837799337729230e-02 4.506806691542855070e-01
2.706451724596726366e-02 3.130024392182455262e-02 4.602103313773793225e-01
-5.314693829417952396e-03 6.240599208593621688e-02 4.618224502303149848e-01
3.659206599247108449e-02 2.382455049568310557e-02 5.159398436141433564e-01
-4.235280466748803790e-03 3.372403281719288382e-02 4.515409569390273492e-01
-1.852372067473833511e-02 2.015082995523619080e-02 4.437018059596078978e-01
3.649976200991436603e-02 1.922083429653316522e-02 4.607299934756510229e-01
-2.864872250310616236e-02 3.676479961107271405e-02 4.502295562875018864e-01
-6.195032100334346356e-03 3.960684612266462956e-02 4.536363153484128108e-01
2.646605310000821245e-03 4.405517550590595105e-04 4.396353317197442268e-01
2.058547984856719248e-02 5.849243628462143241e-02 5.181650812338205458e-01
3.060995223811888155e-02 4.574807660943032428e-02 4.704177478095367682e-01
5.840998344794009339e-03 7.666899279066015371e-02 4.808136937120613963e-01
-1.468406457738379023e-02 6.006207339580823396e-02 4.617644709019759763e-01
-2.317308107585314830e-02 5.872391878197248671e-02 4.639393155551667092e-01
1.022115359462878216e-02 4.546258432887460149e-02 4.593133847874252274e-01
6.438121295027909863e-03 6.596538850304649315e-02 5.097966055906627547e-01
1.587904882108693780e-02 2.748235664914347107e-02 4.534556147115095248e-01
-1.710009183567676519e-02 3.602982085229419068e-02 4.507378310516848563e-01
1.244588593734493459e-02 1.182839673661566053e-02 4.459747912806313330e-01
-3.094968328013444903e-02 1.997286942354414840e-02 4.438303524202868999e-01
-2.354623637583393766e-03 1.477087449245134167e-02 4.441937164294534335e-01
-1.182962302088984632e-02 2.560580195902636622e-02 4.467738832037801977e-01
2.638063930612341047e-03 4.267349127031927480e-02 4.563664950552292487e-01
1.664280943922481423e-02 2.576400769944844557e-02 4.529435938101337156e-01
3.018089766318525404e-03 2.413740380965649635e-02 4.490163450616274643e-01
9.225980753366508011e-03 5.562069401466090968e-02 5.282954348994368665e-01
3.090504443004825352e-02 4.253383606376302112e-02 4.686465881023251789e-01
8.968541182585191771e-03 7.182255571575084374e-02 5.016493621125025504e-01
-2.002529528943510634e-02 4.802500955779977904e-02 4.555235358944020319e-01
1.567692455423280035e-02 1.106535587228612075e-02 4.464030128948123233e-01
3.380633028383802502e-02 2.255792393084279576e-02 4.602506991379453627e-01
1.353622720612972057e-02 2.849725937828568451e-02 4.531605095984134746e-01
-1.000551168497748958e-02 -3.222226939460781647e-03 4.370707890706562182e-01
6.575320560891263939e-03 2.734532396558272266e-02 4.510729819390920659e-01
-2.010811677010944203e-03 4.246440499768356497e-02 4.553377872853646147e-01
2.583064012658178041e-04 4.363607123929099524e-02 4.561514226141893946e-01
2.677123936091136899e-03 7.053262898838383310e-05 4.395164074645764862e-01
3.665366699458022515e-02 4.377053345700930576e-02 5.049237153215125895e-01
3.699159889092511200e-02 3.021920856773276098e-02 5.098953289273205902e-01
-2.642351305292695018e-04 3.373293753455089417e-02 4.522649589117561097e-01
3.507833866233985021e-02 4.794956242443026290e-02 5.050090254054533379e-01
3.926772061380175843e-02 4.361827256078325971e-02 4.886628315951399570e-01
2.884805010799611907e-02 5.354641315532013279e-02 5.116184837023267651e-01
7.130888048677086824e-03 3.166872629167491460e-02 4.530088409244089620e-01
-4.061694066791933511e-02 3.700101707537099827e-02 4.513544885637614246e-01
3.930768636280630723e-02 2.282955965346150640e-02 4.651953343521407769e-01
-7.987719395886045196e-03 5.129967354557607440e-02 4.572168868112936879e-01
4.888704237008456924e-03 3.204942144689681277e-02 4.526620422226038110e-01
3.286928786191348206e-02 3.159366842694685124e-02 4.642155175989104432e-01
2.141974651291833273e-02 3.786303062517270418e-02 4.603504712617390027e-01
3.222368344036009857e-02 3.545818202009456271e-02 5.147124066757335914e-01
1.478771514622454278e-02 4.104658342017548922e-02 4.590291358517895048e-01
2.392226735726298362e-02 7.031574059455381054e-02 4.855243252743978166e-01
1.714829015644030868e-02 3.334598904798537905e-02 4.564727013267154687e-01
-1.091788355701097182e-02 4.323279653910420961e-02 4.543687153231252829e-01
7.681350032600628777e-03 6.387339599363794918e-02 5.243122929669683518e-01
3.322434389796131288e-02 3.473363114514275291e-02 4.661402674520518929e-01
-1.701777362075859376e-02 4.267777511103369031e-02 4.535296563725856878e-01
-3.385977717550442412e-02 2.746475131483617008e-02 4.466973906429909658e-01
1.935975890718929712e-02 6.703490916508912656e-02 4.724560233033017753e-01
6.875518509894000888e-03 5.332609308234619733e-02 5.314366005338444499e-01
2.154429114065672946e-02 3.060834577066864903e-02 4.568906636862921089e-01
2.344655707373856368e-02 5.981246234525481459e-02 4.721256179628618987e-01
-2.809396000458114911e-02 3.864198635509950158e-02 4.510866404897324045e-01
-1.206912605683135506e-02 -4.896323451205291180e-03 4.367017479502573463e-01
1.678060635066126738e-02 3.299372756050390765e-02 4.561975275845370215e-01
1.142216861241042089e-02 7.605087151392811440e-02 4.909018761325908420e-01
3.298825542385790122e-02 3.482091748358030064e-02 4.659974745943006869e-01
-1.895653999996441824e-02 5.359696251183901534e-03 4.383649430432370320e-01
4.168151492065328562e-02 3.541894872211472090e-02 4.824941561637780540e-01
