1.076154440309738496e-02 1.944735241631261047e-02 4.487417618626877158e-01
-1.574585833866314760e-02 3.863279089640180713e-02 4.521067609918891783e-01
-1.614210677602193056e-02 4.047190368023732138e-03 4.381337124931818372e-01
4.414875191728644122e-02 2.819487107255235284e-02 4.863343401041043679e-01
-2.488368490300526224e-03 6.961675985656774757e-02 4.699132944988816396e-01
2.637170552799782824e-02 2.607138744286501691e-02 5.265396752009436909e-01
3.441147818029994393e-02 5.343024309495539304e-02 4.912932945357236791e-01
1.903049790801131930e-02 3.256891551473924812e-02 4.567444475576525331e-01
2.609046292281126667e-02 2.014324145701609781e-02 4.543416612235672281e-01
5.245951380061560781e-04 5.340400373045578464e-02 5.377604026439033458e-01
-5.847579204314640178e-03 3.485218225014741211e-02 4.518187229936654892e-01
3.778265259801161235e-02 3.543617117655507853e-02 4.713533861342744657e-01
2.738626268078016984e-02 2.084442707434840461e-02 4.553694517838177691e-01
1.914146275534197791e-02 3.994308280589893567e-02 4.602245435513684368e-01
-3.565135915574392435e-04 1.786037437914619191e-02 4.458225494930398436e-01
-9.891549096449716617e-04 5.469076824192391217e-02 4.589901916232930756e-01
1.440806740066998340e-02 4.127651884757681244e-02 4.590290589826932499e-01
2.282560924478590700e-02 6.976955884162996946e-02 4.801748546113868144e-01
1.186584049639714290e-03 5.162842880323185307e-02 4.586782741344783143e-01
1.339327516020155390e-03 6.628269232825992341e-02 4.650038594926012014e-01
-3.254699160003161895e-02 4.108186040663446698e-02 4.522585798877943319e-01
2.142198144218178391e-02 4.763716962924981202e-02 5.210483255095212929e-01
4.091546267807818181e-03 7.527622132986960812e-02 4.801592571253237018e-01
-9.833707872153392600e-04 3.647745332450701844e-02 4.532485336970143441e-01
1.969609559116118624e-02 6.868977742498673378e-02 4.739349637072863830e-01
3.604144259032777270e-02 4.898484050979776822e-02 4.999987945006794665e-01
3.150839327544961710e-02 5.653184163756629771e-02 5.003959775485230521e-01
3.932327693942155866e-02 2.854681117512046160e-02 4.685799798056222709e-01
5.058177079663287758e-03 7.689288176924882756e-02 4.800139959141593304e-01
-1.706140849027103917e-02 3.090278697945921665e-04 4.373655277768788152e-01
9.637227153596678725e-03 3.493104009772821789e-02 4.549881543852618559e-01
-7.928907194905307834e-03 3.137923869599970605e-02 4.499703081171559371e-01
2.640009655157316351e-02 3.490403995746728383e-02 5.256640243874829421e-01
-2.928950782288072124e-02 3.204576038179175745e-02 4.482164479495492904e-01
2.390253240106588947e-02 5.751113627114718546e-02 5.149324188937661750e-01
-4.683996652703851203e-03 6.174788123905957521e-02 5.366020954540110521e-01
2.848415701502169523e-02 5.698433465596782627e-02 5.096469402073106059e-01
-2.690452551870631606e-02 3.925027279722058393e-02 4.513673892934926823e-01
6.976641609851652256e-03 6.480150635756724842e-02 5.152144467730657151e-01
-2.430624216198256152e-02 2.827440253480653296e-02 4.466889250579666459e-01
3.562473293594643070e-02 5.045396451799278453e-02 4.838245701644341978e-01
4.563125857513614277e-03 5.909685035281048854e-02 4.619229992278940378e-01
1.933552845451718197e-02 6.655402576526604774e-02 5.086621736995770027e-01
-5.785249872162407520e-03 5.680001657121711012e-02 4.590506081311832576e-01
3.965819092236078786e-02 4.210792699362284758e-02 4.853428377823971740e-01
2.561271368736023346e-02 3.374835380788977074e-02 5.270206631453734358e-01
4.069186661892139865e-03 6.287518403786895860e-02 5.213944301146495874e-01
3.253607375917981492e-02 4.575646582365860970e-02 4.724332903034783038e-01
2.273128286680381385e-03 5.669851915998384145e-02 4.605361089000051811e-01
3.264098593365536566e-02 3.773961641679061951e-02 5.140482885686742387e-01
-1.971759100382266400e-02 1.070647113661638006e-02 4.399929319300301400e-01
-1.756845769789106351e-02 4.436992576673843419e-02 4.541167152071957092e-01
1.536496640311826346e-02 6.205186928069372082e-02 5.211102674264630474e-01
1.312256756835333826e-02 7.684282696012667557e-02 4.775010622018929785e-01
3.041659536677551040e-02 4.720268546496131368e-02 4.713188482023470960e-01
-5.681383387050300583e-03 -1.384158472033872843e-03 4.378067990013254640e-01
7.961113108376055222e-03 4.582350315055865042e-02 4.587834518782098470e-01
-2.413961997471012963e-02 4.166293001078375836e-03 4.380331350198369278e-01
1.026403727413773351e-02 5.040294422876369362e-02 4.612175039472932170e-01
2.895331779819646303e-02 5.723790119376906405e-02 5.074843096324699321e-01
1.894417128375409237e-02 7.177465048894431099e-02 4.764984566953688327e-01
-9.200059073092632655e-03 6.401377961621692626e-03 4.399506682048270334e-01
4.240761296008521003e-02 3.397842685313163386e-02 4.867056231014836865e-01
6.863994816458558745e-05 3.613893194748382665e-02 4.533212489734856354e-01
1.677399772564112934e-02 1.851622846475448059e-02 4.497179755415489644e-01
-1.781981631199587926e-02 3.437717572896384355e-02 4.499207884635746946e-01
1.597140742149212936e-02 6.277615801710728638e-02 4.681315949914335306e-01
3.036411549842439953e-03 5.168434248876190018e-02 5.360931438698306462e-01
1.032934960199687405e-02 5.787943509418014970e-02 5.265806433450945789e-01
2.641453149962907920e-02 2.640872115867340733e-02 5.263926331425083927e-01
2.318624630980159473e-02 3.372597574473971960e-02 5.288111486763069635e-01
-2.052735458482122383e-02 4.826011037523841862e-02 4.556286386228067808e-01
-9.564529050385853041e-04 6.224867545870936547e-02 5.272577605586982186e-01
4.331171377636834630e-02 3.014550410474581277e-02 4.821574326520356446e-01
4.503551666879260229e-02 2.375693199338073380e-02 4.801860604645317165e-01
2.151474232737233053e-02 4.068036752345386559e-02 4.618145910866754966e-01
2.264203115904019417e-02 6.939272287372860726e-02 4.976624534996747506e-01
2.712717165426301036e-02 6.413456165281040955e-02 4.797633551587666689e-01
-1.065504546324647778e-02 1.384843032757055933e-02 4.424150079840007965e-01
3.232235418469576321e-02 5.325684219596599211e-02 5.043957536835483868e-01
1.239639306385893931e-02 1.371796574783113939e-02 4.467541880547700739e-01
3.329827718790236146e-02 3.306516149950996381e-02 5.147300879068853474e-01
-5.827949748466489978e-03 5.771007711820493741e-02 5.256320465847392764e-01
2.814935393239747716e-02 6.257842611267640243e-02 4.981718368633947236e-01
4.677945538041070224e-03 5.416625648805134530e-02 5.327186994801429432e-01
1.132787133626001440e-03 2.224095691850576720e-02 4.478872860347540841e-01
3.173287432673230213e-02 4.643367694468680112e-02 4.721198773544103555e-01
2.384855557915704222e-02 3.917817422122035070e-02 4.622880875452861638e-01
2.990720787709607795e-02 3.375828595658720427e-02 5.210592171296177799e-01
3.310755562242517769e-02 4.674458249297343965e-02 4.738959513861342732e-01
2.278059245646970460e-02 2.915595376095277830e-02 5.288597777759540541e-01
8.431854336997003999e-03 1.684930796759597990e-02 4.471694043283506725e-01
9.139309489256888450e-03 4.348404042948463000e-02 4.582700958264313562e-01
9.026616106148369068e-03 7.070244135556957854e-02 5.052654247409124055e-01
2.481470592977400198e-03 2.645935264235504611e-02 4.498710028087516410e-01
-8.316381250506536815e-03 5.778741675206445355e-02 4.591236260097664168e-01
2.738287610689627352e-02 3.841850950331719000e-02 5.194356460469574666e-01
2.134188769633397695e-02 4.076699042711951632e-02 4.617676518767762084e-01
-1.751879325561783718e-02 4.488653418332164136e-02 4.543270468901779435e-01
-1.969666919175005332e-03 2.630896047425075341e-03 4.395995762928836537e-01
-3.440470410769851800e-02 -7.663212178766220552e-04 4.391791535462170049e-01
1.878775302185180240e-02 4.456767054744226880e-02 5.254494817624691949e-01
1.197830335354260409e-02 7.558833300106498898e-02 4.960916511747376911e-01
-2.058743239984843834e-02 5.964319997228367809e-02 4.651193132063355939e-01
-1.037426508307748470e-02 -2.914897474928424340e-03 4.370954780801205586e-01
1.268179881351641156e-02 7.624782989218945040e-02 4.888346081133108645e-01
3.477739431446906504e-02 2.797066737928555202e-02 4.638411205021988892e-01
1.975970059159029915e-02 6.427116449999965841e-02 4.713175266862284496e-01
2.511700195628564086e-02 6.613417785419876960e-02 4.785187713428613598e-01
2.391813600740276546e-02 4.746656287618010450e-02 5.191591874771586124e-01
3.751872648793267567e-02 4.189567978217164507e-02 4.769314879519655492e-01
5.232086081516704353e-03 1.957113650810349530e-03 4.406269029147169003e-01
-2.782787762963689210e-02 1.495094704889738529e-02 4.418815584654965933e-01
2.961412409127322370e-02 1.993108859766310609e-02 4.562525248759000118e-01
2.715220257690667896e-02 6.568345587272585162e-02 4.845973110012194995e-01
-3.030270913075386319e-02 1.465182835496455470e-02 4.422108167109991550e-01
6.007132568266373290e-04 7.076667830555910532e-02 4.708588065883658746e-01
-3.949126465400566027e-03 5.779819183193779519e-02 5.381876766160794689e-01
1.006904099761700942e-02 2.586744874103258374e-02 4.512540049527401509e-01
-4.757763848773929535e-03 4.986616141392109965e-03 4.400399993438716129e-01
-1.283301619084683404e-02 1.964554391818457493e-02 4.442571997899971148e-01
3.898307084072387407e-02 3.136791523613348398e-02 4.702698799073367630e-01
4.080341008816119192e-03 7.515635327946897093e-02 4.800400202563671059e-01
3.346235833110929730e-02 2.967972135209953968e-02 5.180232914884724815e-01
-3.176585568970885509e-02 1.322205353184006948e-02 4.421488626864424343e-01
4.245757535488656198e-03 4.138111532785609947e-02 4.562868577303091366e-01
2.400963706236518627e-02 6.871775041269384543e-02 4.809519000677279221e-01
5.139870481038755212e-04 6.297021030097343930e-02 5.322151051454449000e-01
-1.141838919595730174e-02 -5.967632054058712859e-03 4.365882334279937993e-01
2.739749530202511413e-02 3.812402436095309322e-02 5.198588967256361215e-01
3.932428497909802589e-02 2.915338154326982401e-02 4.690931628133692133e-01
-1.548683766476073934e-02 8.777280100958250592e-03 4.396885705078637518e-01
-8.997871215784124244e-03 2.591938294693580877e-02 4.474141537864088636e-01
1.530140420053859376e-02 6.880664299401484385e-02 5.087669418066106397e-01
-2.998338149789848972e-02 3.445442010646952713e-02 4.492341686722806093e-01
5.167046360988765581e-03 7.168991982303762889e-02 4.706409819501428116e-01
1.712063443806979834e-02 3.703256376377570686e-02 4.580815020130854509e-01
3.413790920596604384e-02 2.240811045465580451e-02 4.604383861887546558e-01
2.828330652693854252e-02 5.066162250118057264e-02 5.137842563666613627e-01
-8.728720344729955227e-03 2.971456396583833579e-02 4.491066912333994132e-01
-1.421305749028026026e-02 -4.557648168523318645e-04 4.373196117088757884e-01
2.935844523917454513e-02 5.558033257420249423e-02 5.097354316423523546e-01
7.534546630932713665e-03 7.568856650652278084e-02 4.742438534715242571e-01
7.152382044655900169e-03 7.773694172039401218e-02 4.808852766690509539e-01
3.828174122811126706e-02 4.345059330074383525e-02 5.010576555721224512e-01
-3.393297636145524432e-02 3.180746145848432210e-02 4.482355061840397892e-01
2.847829479891252763e-02 6.382428147325475143e-02 4.877056446544868473e-01
1.831457161944238105e-02 4.689013679616281516e-02 5.245727249871109388e-01
1.017690155951187295e-02 6.845405475871216283e-02 5.092622941706209660e-01
9.125426275053631631e-03 5.097007148116677877e-02 5.304660725120188269e-01
3.337209934187574528e-02 1.703079018171745410e-02 5.236417360208054372e-01
8.666061568784482264e-03 7.272620414359599883e-02 4.993414783326347028e-01
3.840077988942499493e-02 4.553488942430039543e-02 4.858450293165922917e-01
9.642666891021164227e-03 4.377222271490944366e-02 4.585274053153032825e-01
-4.780885436980568393e-04 6.001743544426425825e-02 5.182343682701128218e-01
5.598332559412159092e-03 1.305194532638310860e-02 4.450619862058728948e-01
2.748717775351920689e-02 1.164710594551540690e-02 4.514414039702203674e-01
-3.982144709156597989e-02 -1.181974117274311271e-03 4.404837488179689231e-01
2.953786153562125427e-02 2.409287624741664538e-02 4.580944184205721359e-01
3.185720356775497558e-02 2.627413511130947260e-02 5.223938047466304413e-01
1.089980076593838852e-03 7.067047477260549049e-02 4.702095612287804927e-01
1.594785871523298967e-02 5.451187136260318006e-02 4.649008154989044406e-01
2.741072566736799804e-02 3.307507741046099292e-02 4.612926165800459444e-01
3.538537197079100194e-02 5.149299047152533504e-02 4.923503033820905150e-01
1.981603189712650287e-02 3.695220320770744443e-02 5.307976146052206801e-01
1.115667067027288975e-02 1.581384872998950475e-02 4.473473573921891711e-01
1.303585055722980904e-02 6.043426913282519408e-02 5.243615303010660256e-01
2.080742315847686208e-02 9.948923736685419406e-03 4.476670197655110983e-01
1.780264224963387047e-03 4.451205234476244416e-02 4.567350820737774986e-01
2.329070553110277469e-02 7.042225242746205649e-02 4.920534328286032544e-01
-3.728084472830592300e-02 4.138163047217319201e-02 4.540543149264602563e-01
1.349844030080093148e-02 7.625904412260162135e-02 4.909863270149596448e-01
-1.989198315830717489e-02 5.699557669967981327e-03 4.384529308802551095e-01
4.200617579529085377e-02 3.355210273876529231e-02 4.790840940219084354e-01
-1.496233581597916987e-02 4.225871976532445673e-02 4.536375945524135922e-01
-2.919327895785389301e-02 4.781161649844950512e-02 4.565332872506536743e-01
1.296466006077304917e-02 4.449646724383569257e-02 5.328340764183226996e-01
-2.977294127662432829e-02 1.197346115028381265e-02 4.414624568675008520e-01
-1.406033564711472832e-02 4.213189394489729594e-02 4.536972722686134496e-01
1.417832578346732951e-02 3.319317679590192555e-02 4.554747397038310108e-01
2.592397018142332532e-02 5.687999595304140538e-02 5.129360202249009237e-01
3.883193007545180514e-02 3.550350304317060474e-02 4.733953429154718617e-01
2.247366958409784815e-02 6.005608556797097097e-02 5.144892605135410468e-01
3.008517225032391815e-02 3.442857207476083398e-02 5.196718754779507954e-01
4.181267630449010675e-02 2.762365172189611487e-02 4.997445156959280932e-01
-1.103828602915056523e-02 5.765959374882571875e-02 4.592162651677100249e-01
-3.483860429622975818e-02 2.137077855372772686e-02 4.447610782273483943e-01
3.129345929947699965e-04 6.879307479233728873e-02 4.664516309513143111e-01
3.091678520045001988e-02 2.927055263936604451e-02 4.615998970485808428e-01
-1.682102749327745459e-03 5.150108807886318030e-02 4.580350908075794814e-01
2.193868317968745985e-02 3.901138559355474267e-02 5.281240438722161201e-01
4.387601144582958974e-03 6.334475114770125870e-02 5.192435227904426132e-01
4.388854937738869560e-02 2.386899911004948874e-02 4.751616494101811305e-01
-4.819273414364061946e-03 6.183442453177501880e-02 5.313911247253974013e-01
5.334007165660441946e-04 6.313792564493576898e-02 5.295621165353827653e-01
4.029552865587716914e-02 3.806683077934702036e-02 4.990136139409203642e-01
-2.529216572873066449e-02 3.153773559058620918e-02 4.480308883257743124e-01
2.781920076656016830e-02 6.072851175130938167e-02 5.042663022847292398e-01
4.106701556398808378e-02 2.104311461293318503e-02 4.668178312320055423e-01
-1.863684457673801115e-02 4.561765299090200093e-02 4.545660136755705905e-01
7.711514160628984114e-05 6.796112210478044702e-02 4.659681582748870232e-01
1.642348708983128180e-02 6.980681852429605760e-02 4.719492659961151415e-01
-2.105143659602545618e-03 6.417503526395942903e-02 4.634749778777844109e-01
4.064713444443673884e-02 3.752467776781027997e-02 4.975223149329169869e-01
2.320674263451470015e-02 3.499158292860554686e-02 4.597557121524344925e-01
-1.855092610176654888e-02 5.169325600236233942e-02 4.571415292970520405e-01
-5.952593264718592479e-03 5.751237839302695415e-02 5.254543182499818998e-01
-2.364234650737982724e-02 1.523601668123521213e-02 4.416720360217308294e-01
1.426421714053613746e-02 7.778228829168527814e-02 4.847952375218274601e-01
2.050629996377180408e-02 6.372973140175577922e-02 5.127951418791412141e-01
1.008292927509538313e-02 4.444322597942254593e-02 5.354983364422857273e-01
-4.257583605638008695e-02 3.397960806486912538e-02 4.498956075771832763e-01
2.569480680363944031e-02 3.398141045822958978e-02 4.607270093234623332e-01
-2.122846663176745918e-02 7.670191801319172289e-03 4.390555333773454305e-01
4.417881432216760884e-02 2.173669506976969035e-02 4.740767187409866690e-01
2.274000898334427312e-02 1.994510743239959541e-02 4.524763874948198872e-01
2.336028767383211552e-02 2.844984392154293815e-02 5.285261958399315452e-01
-2.373076142876122049e-02 3.725797741258842638e-02 4.506100981497263569e-01
2.114340082745338675e-02 6.437418812288370207e-02 4.725741081732627302e-01
1.407971970528263360e-02 5.322645372741961756e-02 5.251731523122411538e-01
3.030030138643779666e-02 5.746123181137362257e-02 5.025333637504563189e-01
1.195484729092419207e-02 4.384440165910864079e-02 4.593326092657338822e-01
3.608942883978382213e-04 5.939144675601167739e-02 5.337333035348260646e-01
-2.357857493524510850e-03 8.806606125059814744e-03 4.418422381159761714e-01
2.849546210360804493e-02 2.370180079668828682e-02 5.253728339828250826e-01
-1.870877763610102190e-02 5.894900960990067523e-02 4.616906965598313595e-01
-8.498566209183634756e-03 5.230793435499188349e-02 4.575190404271031741e-01
2.101414405084815057e-02 7.363131920883377035e-02 4.862886552034131338e-01
3.005410911904512691e-02 2.135254802610375702e-02 5.247121732360412460e-01
2.419094981237226299e-02 6.861921338204193810e-02 4.812003346229468126e-01
2.782602514887902792e-02 1.841110062424095722e-02 4.545375046409437791e-01
1.893713837389441809e-02 1.755406555272827351e-02 4.498142098883987083e-01
1.653492470604916997e-02 5.903327236312064935e-02 5.221508288257908914e-01
-2.241046108671684162e-02 5.907056863797713331e-02 4.649991735184761388e-01
3.088759038147611755e-02 2.298590503799589901e-02 4.584831363417505856e-01
3.606978752954856371e-02 2.717972623831353685e-02 5.134902361374237278e-01
3.725786370850202311e-02 4.822680535836268434e-02 4.868869239092212808e-01
-6.617604331419489963e-03 5.673232333763128521e-02 4.589469253971541485e-01
1.780741879250177101e-02 4.530117968115850158e-02 5.259060088483193951e-01
2.059389559859191657e-02 6.933290848126463790e-02 4.757273304074698395e-01
1.090464447331974951e-02 6.622512860927204370e-02 5.124194126221509604e-01
2.533334927287293065e-02 6.829333973165219174e-02 4.906644431933732675e-01
3.162118367764660092e-03 1.718290497195147648e-02 4.462467858177567859e-01
2.179664319596022470e-02 4.338670245850127088e-02 5.234517183480320579e-01
8.437356350167464058e-04 1.941335302428364926e-02 4.466919055366188607e-01
4.120372608510664003e-02 3.086093319919834543e-02 4.742857540381958947e-01
8.978933228463629665e-03 3.540610045652434895e-02 4.550354429446887838e-01
3.258018831289306166e-02 2.196049585570013923e-02 5.222253827068372711e-01
-2.070683768024437349e-02 3.457279006028442236e-02 4.496910453360952742e-01
4.129101206419692749e-02 3.853215841489079224e-02 4.915417421716761770e-01
1.781616740602571386e-02 4.386428171224347750e-02 5.275169118506261023e-01
3.318393708783073937e-02 4.892177632759684563e-02 5.084280916510371950e-01
7.155109833935492485e-03 2.434289245226885570e-02 4.499454694258226417e-01
-3.678914000667437428e-02 3.787677906637065828e-02 4.509197603906320850e-01
1.254621193669481528e-02 5.369738941571528673e-02 4.632232023314608038e-01
6.092211613102341619e-03 7.684509460343815108e-03 4.429544210993215936e-01
2.839955620142083775e-02 6.155780001211209884e-02 5.005682238371901294e-01
1.091863806030754676e-02 7.609031882071734532e-02 4.755877943575244071e-01
2.041119411221006472e-02 7.419705071272476860e-02 4.921753165893944515e-01
-2.179172896744910586e-03 4.001743176209705821e-02 4.544285562755323582e-01
1.729717852884240376e-02 4.376881130612052945e-02 5.285819842263701496e-01
1.127429890175518645e-02 5.949193153531676104e-02 5.257049018450311584e-01
2.391233275985533979e-02 3.941423348858225095e-02 5.247330602982542835e-01
2.133692640644530708e-02 7.344580461182846631e-02 4.889544680228453122e-01
-3.184282299041546471e-02 1.607018025373978254e-02 4.428506251635904722e-01
7.017505017392356922e-03 5.327354123233973837e-02 4.609629615492439325e-01
2.564220588229889491e-02 6.619542735245745324e-02 4.963081092655146631e-01
9.109745946649178139e-03 2.147181223062289215e-02 4.492009515289407950e-01
3.018197588401301534e-02 6.020517413082471930e-02 4.951304823489444118e-01
-9.781173013819919812e-05 6.953389086588201984e-02 4.675113001295809201e-01
-7.994011099745483226e-03 5.825541863607209409e-02 5.311986311716603293e-01
1.916275803325502222e-02 3.136952831905677475e-02 4.562511614530790904e-01
9.933871370365048026e-03 6.418381488528296375e-02 5.225536007275468631e-01
3.513670121765036236e-02 5.129287568139862669e-02 4.951629956912883546e-01
1.284680741632170456e-02 6.082776819800019691e-02 4.657236036928728007e-01
2.924893783485919829e-03 1.579127991633246658e-02 4.456339798950593734e-01
1.465623191708403158e-03 5.147242146137528951e-02 5.380746347909252103e-01
-3.925301649072192312e-02 2.172801773740374101e-02 4.456922918381187038e-01
-8.399588737154884376e-04 6.221446247975848109e-02 5.270584156387374541e-01
4.407375781550404437e-02 2.442716278123547788e-02 4.762368365395859282e-01
1.792363421755686567e-02 7.597960548366339273e-02 4.900368626571867670e-01
-1.132655361569797660e-02 -6.795680776584228470e-03 4.365514558654773891e-01
2.535909056579782259e-02 6.500210101290826437e-02 4.775739733925914443e-01
3.406534911934479271e-02 3.917242127781486727e-02 5.114797817918584899e-01
-3.899951314896075300e-02 -4.234309209522090552e-04 4.405963898811185442e-01
2.790397079510655368e-02 3.430777597600694756e-02 4.622627575788255117e-01
1.455213380072403404e-02 7.631414827102897536e-02 4.928566092432890011e-01
1.670193119689613800e-02 4.221652316285112033e-02 5.314814957037147236e-01
1.105440277160218455e-03 5.022172673030755874e-02 5.387715798264632872e-01
1.297288561937520388e-02 5.669989796902534518e-02 4.643782951524627611e-01
-1.334689022402296178e-03 6.617153911029498292e-02 4.648552088917680125e-01
-2.356866146190572664e-02 1.501362939515531875e-02 4.415916283000351217e-01
-2.445079535081783398e-02 3.830202147008002905e-02 4.510144974707785415e-01
-1.811117691298664428e-02 2.444838940142914432e-02 4.454999865948445215e-01
6.493894503421051428e-03 7.430140102953861070e-02 4.724717709897121032e-01
-1.126090265228198162e-02 9.082600471499200495e-03 4.405268181797386551e-01
4.094182318196259995e-02 2.749071691214888258e-02 5.025377611244429277e-01
9.113389682150897786e-03 6.128637346479850340e-02 4.643731562537738999e-01
3.953289506601706527e-02 3.207772067812991734e-02 4.719572182712185593e-01
3.882741625023411469e-02 4.499889252843251169e-02 4.927839225945643831e-01
2.540309282544932039e-03 6.338408445767532151e-02 5.281951240286949512e-01
1.476450874437613622e-02 7.629547137455279515e-02 4.798371519988903211e-01
1.508849159346329835e-02 4.678186820500968013e-02 5.274807676918552568e-01
1.784045651165506660e-03 6.447951860788118938e-02 4.638985415404153212e-01
3.426792857987278479e-02 5.048234673076931744e-02 4.799507078581635167e-01
-3.670350647407438771e-02 4.119139420991162204e-02 4.536924065394294936e-01
3.273698814798214896e-02 5.548854329072050451e-02 4.961806956589330797e-01
2.213393025504591105e-02 1.048272162440190558e-02 4.483962427664627270e-01
2.161544921650736945e-02 4.991758643827079109e-03 5.318115285439997120e-01
9.434955163542263143e-03 1.120775221011397621e-02 4.450778554405811493e-01
3.177670522144455945e-02 3.494130262421771271e-02 4.652274364965936493e-01
-1.749499943036957744e-02 4.908828097223311843e-02 4.561365760770340616e-01
-5.773973250422807443e-03 1.740050883506594204e-02 4.446009938233860259e-01
1.988753164575735727e-02 6.742854396394698524e-02 4.731620171077662307e-01
-1.616766349321825669e-02 1.305989334389805016e-02 4.411729650119871615e-01
1.927021083380797001e-02 3.866604566204270843e-02 5.311706587088820264e-01
1.155408542706544764e-02 4.507142687160220484e-02 5.335547498971117131e-01
-2.641699558709082601e-02 5.722971262026266964e-02 4.633020473607691314e-01
5.457823573046054720e-03 7.528231483824132653e-02 4.757085093107389917e-01
4.106242132336748729e-02 3.387787022295753181e-02 4.986365531525342454e-01
-1.946405748127917612e-02 5.743652720797857991e-02 4.602509408833382332e-01
2.314449063479286431e-02 7.134831574861955072e-02 4.881890420739433134e-01
1.609681605126081581e-03 4.627467194416163415e-02 5.375739980896451220e-01
3.318311024032465778e-02 2.804220965318136166e-02 5.202987750351363294e-01
2.018142545546096345e-02 4.446426794074686412e-02 4.629207505277944668e-01
1.791293579333845185e-02 6.181637317630203632e-03 4.449914455251970935e-01
-6.053894231567147604e-04 1.977485900507551519e-02 4.465509212985505627e-01
3.897829228772890092e-02 4.437020607349193013e-02 4.884936466581910053e-01
2.784160015325033363e-02 3.157629299294033992e-02 4.608064469706237287e-01
3.489764213568351953e-02 4.995818998121942522e-02 5.025523042750290603e-01
8.605746890308230840e-03 5.135996752422205408e-02 5.307496004670961831e-01
3.612430934561301071e-02 3.521692782541424593e-02 5.084761456882010977e-01
-2.605120503428476689e-02 4.270864407640682578e-03 4.383285623379797324e-01
4.448377793245112538e-02 2.745943149697604654e-02 4.895251893293683931e-01
-3.346507263570751289e-02 1.657235282522266651e-02 4.432853576732265766e-01
-2.661416774280201542e-02 1.979929702370741146e-02 4.433730493970798880e-01
4.444595782850170596e-02 2.647674419917872210e-02 4.822919825074500899e-01
4.237159840723572074e-02 2.961286603891566394e-02 4.762287949205797899e-01
1.525708354070366875e-02 3.903524626323636847e-03 4.432601963085776586e-01
3.981850950355490110e-02 3.395196315173996254e-02 5.016884073245161391e-01
3.621182112421614252e-02 4.871270152361914518e-02 4.999674005386697262e-01
4.080370975651904930e-02 2.208187431736090278e-02 4.669848711567848865e-01
2.702408424745693372e-02 5.020500664537601299e-02 5.156944022319187582e-01
2.858469932844738288e-03 4.085421612948543502e-02 4.557638297141758388e-01
-2.538866735782441611e-02 5.322450761367064631e-02 4.586587428173770631e-01
1.629137032304282112e-02 5.938911109601957561e-02 5.221671237462208737e-01
3.971085409345320727e-02 3.017438374373162743e-02 5.035396954021422733e-01
-8.888315495121824547e-03 5.460153202419040092e-02 4.581465704333316236e-01
-2.852639309534972002e-03 6.370018967294230339e-02 4.631153672988142511e-01
-1.072591577375112300e-02 8.514058719784103543e-03 4.404285411617149260e-01
-1.829729986732448258e-02 5.213268778855888186e-02 4.572875068801390830e-01
-6.665015022997607119e-03 4.973856903549762204e-02 4.568424370125336864e-01
1.528326615791223558e-02 5.759684574532362988e-02 5.232126001254601144e-01
-2.521985435819650012e-02 1.764116348120697841e-02 4.425629341695185293e-01
3.043624487568643427e-02 4.373308788550817061e-02 5.146568904085483398e-01
-2.158622106419557166e-02 5.924511266646377561e-02 4.643623805164209806e-01
6.634469824258889051e-03 4.163589053168952059e-02 5.357528014617749523e-01
1.913348104641545908e-03 6.517830593069096068e-02 4.643677263052193860e-01
2.308671405643969790e-03 7.151164479021612785e-02 4.716199050531494352e-01
1.608490911179956406e-02 1.080307829316355141e-02 4.464021750699382896e-01
1.168742979915934378e-02 4.928972709050451900e-02 4.612842103291141527e-01
-1.462565840943353540e-02 -7.150706379206025684e-03 4.366652067127035908e-01
3.193927660209968517e-02 3.429542562177498310e-02 5.158105380408193330e-01
1.577042962374064841e-02 4.538682188260066870e-03 4.436543065830891308e-01
1.214501851769733687e-02 6.200229641582141737e-02 4.658717081114380765e-01
2.184040998865974248e-02 7.141138515428140099e-02 4.943805119033684026e-01
1.676755236343087374e-02 7.395558825836529016e-02 5.004983951016066523e-01
2.894579082146424981e-02 4.686772544591888412e-02 4.697726044164114434e-01
3.649159886608351056e-02 1.916532134420405667e-02 4.606991836115103545e-01
1.994403403727465149e-02 7.403265789804060193e-02 4.940630302489821268e-01
1.351866407712075044e-02 5.997900242399722970e-02 4.657072185676643383e-01
-4.187336231182845619e-02 1.123038805245202146e-03 4.415954148367175480e-01
2.031738087907414281e-02 7.426827104205563357e-02 4.865812259509900706e-01
1.277482295752000070e-04 2.847070668232597017e-03 4.400267948390859107e-01
1.429182767380974758e-02 6.226121532016398036e-02 4.670615390102937359e-01
-9.856423795915241273e-03 3.657173573321009785e-02 4.519933544042126772e-01
2.079817015620747181e-02 4.968833957935792772e-02 4.653804104105473405e-01
3.877727030101265487e-02 4.383774599397143729e-02 4.978304575408503685e-01
1.591897906070693577e-02 2.899868037940734819e-02 4.541478149029914424e-01
1.174966628282247266e-02 7.849499527549448630e-02 4.791753962205789752e-01
-1.432001302502348972e-02 4.523050013699450589e-02 4.547004536723459611e-01
1.224876130106460244e-02 5.896364119881135346e-02 4.647869187587703732e-01
-1.196787856330379547e-02 2.323968174444749832e-02 4.458028712886682454e-01
4.226592660944125668e-02 3.224934672545328590e-02 4.783984991046274504e-01
3.293910179848993230e-02 5.200576295541780442e-02 4.779538711550421759e-01
-4.116490422940104199e-02 3.425222471390074186e-02 4.497907802692215351e-01
-1.375310961172919802e-02 1.427037765758510778e-03 4.377341108746401477e-01
-2.134532086454099704e-03 4.953238311084478401e-02 5.387238140480462567e-01
3.124428059890629189e-02 5.917008613543906642e-02 4.890635144177540305e-01
3.001086170258377220e-02 3.482535902860908056e-02 5.192235839266012842e-01
-2.181962005547060171e-02 6.330661998020870387e-03 4.386080874265539942e-01
2.192036234550954685e-03 6.135332129890293945e-02 4.618952467021455455e-01
3.205274744013057731e-02 4.720095714394650921e-02 5.108495956513359193e-01
-6.409957668441821840e-03 1.622007121549882318e-03 4.386692853876421050e-01
3.712377072051478016e-02 4.075387283651644293e-02 5.061771742537709562e-01
-3.112578915465315232e-02 3.788641880266284401e-02 4.507121728392953219e-01
-1.798538609256121815e-02 5.887425011268514197e-02 4.614024570492374910e-01
1.599942469060309722e-02 5.142112442232700531e-02 5.243186201288621007e-01
1.112227099389892157e-02 4.681961548029808101e-02 5.322188248339053684e-01
7.756738628219186742e-03 5.963456088747405570e-02 5.281649603382834179e-01
4.075137602164748130e-03 6.354810146605702204e-02 5.175572379086926800e-01
-4.205345727522541432e-02 3.085312265278066651e-02 4.487956134828727239e-01
5.679346834594966101e-03 6.467529402369809333e-02 5.127298345655397771e-01
8.331613044029153453e-03 6.427503334165389492e-02 5.215724875085169243e-01
2.466562583595206110e-02 5.287479564891939959e-02 5.171189833507110478e-01
1.452142569684901872e-02 6.500093362381635653e-02 5.175691000310755907e-01
1.695208445128802699e-02 4.465915033004955181e-02 5.272317452484878153e-01
6.186419067650984066e-03 6.475324253799868979e-02 5.130879803326021671e-01
3.271029598877936428e-02 5.656926102289174668e-02 4.852977359050147377e-01
-3.546453550264073648e-04 3.071368094686688713e-02 4.510188296746641123e-01
-5.423466992169731840e-03 5.970466253801062773e-02 4.599421628070304857e-01
4.141998796184671872e-02 3.360295347214400929e-02 4.974004807074624002e-01
4.147062748619560063e-02 3.546946025068972719e-02 4.796952264803663324e-01
3.478044984814237378e-02 4.717608717977077315e-02 5.065237376694058380e-01
-1.018197931415323540e-03 2.790142352702755686e-03 4.398149980012168725e-01
9.566653406465345372e-03 7.047858643760271380e-02 5.062744578234650294e-01
3.908528249800914678e-02 2.701200238657041480e-02 5.072985065850529329e-01
-2.708058015448264882e-02 7.202032814983816249e-03 4.393264104140383597e-01
1.960714073045594433e-02 6.584236915343426311e-02 5.101204347339143297e-01
1.933542111013855647e-02 7.078081183515104458e-02 5.014671887581545473e-01
-3.915825837826312356e-02 3.537204024281404013e-02 4.499215746221732481e-01
-4.709240291103089504e-04 2.726483516746078598e-02 4.495985304314416564e-01
1.683860304592693646e-02 4.191714987350671912e-02 4.600880599086869527e-01
2.995796236519237751e-02 3.701697599191157428e-02 4.650628489276241728e-01
3.916332724678156518e-02 4.308503417563475796e-02 4.831832949680059941e-01
2.113618775421041707e-02 1.719939341002695889e-03 5.330224696186858235e-01
-3.307227328515879861e-02 1.707789168084755671e-02 4.433567252259537073e-01
3.780937878755243758e-02 4.020891925147820900e-02 4.758615927588949468e-01
-2.998872910904985855e-04 5.108773326277095406e-02 5.393063131589033166e-01
-1.367662439081499676e-02 2.223234093474847628e-02 4.451222346805742691e-01
6.221607637388310193e-03 7.061023704971691739e-02 4.682997028696425090e-01
3.891847331734540893e-02 2.381414711214381585e-02 4.653223855391317998e-01
1.593430559895534296e-04 3.445031493213991658e-02 4.526613543964440045e-01
2.701195476347924632e-02 2.940157447609928476e-02 4.592574446132379196e-01
2.327457274455513661e-02 1.650616167708628818e-02 4.512024885272881702e-01
-5.485754120169291856e-03 5.576308096940826159e-02 5.404971686867084957e-01
1.792815882765035063e-02 7.367901973066079413e-02 4.990606749594224678e-01
2.620952381139676768e-02 3.732278300115301345e-02 4.627745390502272516e-01
8.223746104169035037e-03 6.532742351922696256e-02 5.128245957970765101e-01
2.318883425469399004e-02 7.102616300311499764e-02 4.849195126363441410e-01
1.218632495673337493e-02 6.958947707634763336e-02 4.695265005964910365e-01
7.842194535132782085e-04 5.336477543449509586e-02 5.373510452529686177e-01
7.119929330052292456e-03 3.393552908314872996e-02 4.539735075589181323e-01
2.223255377034994568e-02 6.665490685717904984e-02 5.036447028829065253e-01
1.420893764973990732e-02 6.690110338123979317e-02 4.690869476386513304e-01
-4.094194868197483655e-02 2.913906075904181686e-02 4.480923504430219806e-01
5.871877135961255448e-03 3.309700821974304041e-02 4.533293565417474413e-01
2.612607622389836667e-02 6.743079593116960146e-02 4.886886253373541877e-01
2.514241336995705171e-03 5.453903017478303750e-02 5.342139982270096565e-01
2.244940406519396053e-02 5.642934233941150624e-02 5.176530870442849208e-01
4.849902163006088347e-03 4.786691903456915392e-02 5.368581206651350524e-01
3.332276373325368350e-03 5.663767292549010818e-02 5.325591810049725705e-01
3.794173185255426961e-02 3.954028804797393021e-02 4.754582241886003979e-01
3.032752213136575767e-03 6.134769017837247984e-02 4.621961369717534907e-01
-2.494410154493197432e-02 5.810766466624819188e-02 4.636125842481772508e-01
-1.800774970566946381e-02 5.476595787218289241e-02 4.585645686453359571e-01
3.494602750744101038e-02 4.569562728186864903e-02 4.756004314798426003e-01
-4.203738650908182654e-03 3.534417317395455171e-02 4.522619505371510695e-01
2.639547377035503933e-02 5.870953489098987288e-02 5.108065881525003515e-01
2.175916882284953391e-02 6.625148790382473507e-02 5.060542206705260782e-01
1.372460029812188134e-02 3.539427085378922533e-02 4.563228165643625212e-01
1.364110895023007419e-02 4.441932765917998988e-02 5.322939884242748887e-01
3.199319630293040451e-02 4.219445604035543945e-02 4.693469327913365463e-01
-3.542631067032803172e-02 3.206313802616857916e-02 4.484004536918579920e-01
-1.452359089416008914e-02 3.796654125223809101e-02 4.519743707733388516e-01
-1.863616867755528428e-02 1.784574436198191859e-03 4.376523282270570192e-01
-2.487258009311799772e-02 5.591577689275029767e-03 4.384907366744264512e-01
3.056652246172677362e-02 2.857389826240126079e-02 4.609793661474430038e-01
1.444798998553162295e-02 7.356813915222572275e-02 5.013108404430839382e-01
-1.468623006615825399e-02 -8.138167383097551916e-03 4.366279475705011071e-01
3.244483110778744600e-02 4.006812256431194208e-02 5.138435307973583388e-01
2.792689680911208949e-02 1.086412274602038125e-02 4.514116654166812626e-01
-8.834689957852182723e-04 5.688732473491608238e-02 5.357044897344910295e-01
2.568084577884830692e-03 6.349899171405543052e-02 5.263959616974992484e-01
3.500583518800924610e-02 4.129126980861741458e-02 5.094046657854129911e-01
1.010389540981881419e-02 6.065964961724851917e-02 4.645342298388054347e-01
1.378089368661767483e-02 5.473398892682448252e-02 4.640466004412407419e-01
-7.090162018959561899e-03 5.981023914115262546e-02 5.324105733814458175e-01
-2.409852208804306312e-02 1.360522151616068258e-02 4.410905665298269773e-01
2.175804091941378401e-02 3.594723999100652573e-02 4.595107331094407943e-01
2.574732031091084630e-02 6.636686994525717309e-02 4.804211788313264009e-01
2.938360558161779226e-02 3.569568271737265375e-02 5.192545644291867157e-01
3.140419093006039525e-02 4.953853519819625961e-02 5.104818797651270446e-01
3.324766411637532226e-02 2.948219562883319655e-02 4.634184789174579100e-01
1.224181391667699022e-02 6.765282129661159827e-02 5.116165645075629875e-01
-1.176081680904947704e-02 5.444963621550526212e-02 4.580502861316222418e-01
1.746100371365542220e-02 4.626092271844384901e-02 5.256768753499263536e-01
2.175480650789201123e-02 5.457354050751052343e-02 5.192079526755249974e-01
3.752790283699485030e-02 2.603402544635385202e-02 5.110938830934012023e-01
-2.183121967317000478e-02 2.313417663695417972e-02 4.446782285261010048e-01
3.029130956057736121e-02 2.439373340027825576e-02 4.587359218151748075e-01
5.142540136707959321e-03 3.255177354843595550e-02 4.529368166073628466e-01
4.262765002809799225e-02 3.022323307291878772e-02 4.950735719748377561e-01
3.931607067495260927e-02 3.521541327224397139e-02 5.026075012809471110e-01
3.666196629712210192e-02 3.524374088760577617e-02 4.692885034056427651e-01
1.403971397646591734e-02 1.204261863001292697e-02 4.464153295939198851e-01
7.588102887573562605e-03 3.302711275305454663e-02 4.536973241611303997e-01
4.014554920395203147e-02 4.149992160595111085e-02 4.906877001948338757e-01
2.437798371674997772e-02 5.873821995265150753e-02 4.723880292393839442e-01
2.993173613079730053e-02 6.131865110920888678e-02 4.919588388827229042e-01
