2.929890248300518613e-02 5.071200994670459206e-02 4.722386337697182523e-01
-2.567142415952268150e-02 5.082770643736282505e-03 4.384499480927683823e-01
1.158851718399287259e-02 7.428907660602959706e-02 4.733977224833110231e-01
-3.149969793703419341e-02 3.497699664243912598e-02 4.494425632997801623e-01
2.307583061671624955e-02 7.151454533755347009e-02 4.867216579873637206e-01
2.954096981581511190e-03 1.497861584370887775e-02 4.452788750036089649e-01
1.221746827361181419e-02 5.532239394435078256e-02 4.633853133794403334e-01
9.483886987536004759e-03 4.188620333337059187e-02 5.347686970656234662e-01
-1.770129479547885229e-02 2.543454873321636389e-02 4.459170703890713572e-01
2.741735757229136691e-02 3.883655348627139403e-02 5.193147489536010797e-01
-2.108989601384634455e-02 2.226833419101960365e-02 4.443453597569010372e-01
-1.827460421056827100e-02 6.008645293902561968e-02 4.628155171478586793e-01
3.469787879839204142e-02 5.117467649433452698e-02 5.006795777295940386e-01
-1.042942127872324102e-03 4.239000849753461059e-02 4.554222068454286121e-01
1.249727092516819162e-02 7.007873285065964464e-02 5.085390001254357362e-01
1.563621300513913948e-03 4.836073521648738549e-02 5.375915613319403041e-01
2.722765720972766985e-03 5.844727726053797895e-02 5.321849597079382210e-01
1.443367155375498839e-02 4.023462474179956977e-02 5.330836468753622492e-01
-2.741204758352101811e-02 2.363040529603522080e-02 4.448220518127515843e-01
3.750611813833049091e-02 2.050865393111576604e-02 5.167521208412603206e-01
4.095562387973827878e-02 2.388925890090939572e-02 4.683980204921771029e-01
2.782456527441503485e-02 4.392954600285788741e-02 5.167055649364805658e-01
-1.113871526379222286e-02 3.848276290001387268e-02 4.526062271001101145e-01
-3.226025683020050661e-02 2.968663807426204920e-02 4.473740210977439347e-01
1.151656459006207556e-02 7.442297877678655249e-02 4.994997048026866282e-01
-2.288701387114661784e-02 -1.167452707269896542e-03 4.370516828788765240e-01
-4.096024318385729779e-02 3.215388359750955688e-02 4.489937130282501410e-01
1.491507624691754304e-02 2.884615145728310591e-03 4.428026724263958158e-01
1.761958400885508397e-02 2.037978048146831325e-02 4.506293861011589352e-01
2.078154328248808802e-02 7.193877394964567906e-02 4.795176905812581492e-01
2.157916047082442113e-02 1.465231169395069671e-02 4.497569894972970328e-01
2.522509402407143581e-02 6.097517425918608236e-02 5.101362016731355586e-01
1.091495379254492359e-02 4.830983514879816365e-02 5.305119439407659510e-01
1.427099791575226796e-02 1.302034228911325663e-02 4.468278225094780010e-01
-1.795007765080356213e-02 4.055246084393708539e-02 4.525616005599421565e-01
-6.580892534907723662e-03 6.053973876134374765e-02 5.347549911940162604e-01
-6.894229425793220976e-03 1.676506836117139590e-02 4.441511198968501328e-01
1.835422977481839576e-03 4.372165262965834603e-02 4.564003946847939308e-01
-6.989893863026858806e-03 5.053218143714109135e-03 4.397605971988625684e-01
2.106970252159057200e-02 5.544842254714416052e-02 5.192626853932299502e-01
2.388420527586237324e-02 3.486101930471665472e-02 4.599578865020054197e-01
2.540406138659719731e-02 3.134050871052289355e-02 4.591501750951120786e-01
-8.709567410779064933e-04 6.800905069522546025e-03 4.412864271018472895e-01
7.273182999271413443e-03 7.269612331279522166e-02 4.977176368046168919e-01
4.040649539909915017e-02 3.923176461178162766e-02 4.807345329453173721e-01
3.054567376787191424e-02 2.361765740239347641e-02 5.235429913160406512e-01
3.168845932617709443e-02 3.042590504688725758e-02 4.626261911277628203e-01
1.552016263638807125e-02 7.667830326362631843e-02 4.819895080792208075e-01
2.275973065385665864e-02 6.207220421390612780e-02 5.119934802302091859e-01
1.532344829080384448e-02 4.698711432622866557e-02 5.272511104133413840e-01
1.406339995320009077e-02 7.763684966165415591e-02 4.850622650091407917e-01
-2.018987772553660839e-02 3.664986389099526842e-02 4.506561057710723461e-01
8.871222316458893600e-03 7.429284056793326874e-02 4.975151543793296938e-01
1.283879270461140733e-02 3.134119379580421055e-02 4.541195512276105517e-01
-1.725762301905191210e-03 6.809648567370740757e-02 4.657881216790792367e-01
2.534772240789840564e-02 3.640123819708857011e-02 5.260419761808982075e-01
-4.783552709394307996e-04 4.390731422455920741e-02 4.559791647766029410e-01
2.484139828030692415e-02 1.585881022026332937e-03 5.332120577312448040e-01
1.489881723446106684e-02 5.830252503279032689e-02 4.654715335952488431e-01
-7.611905398151766304e-03 6.260441565478402914e-02 4.621895248622810981e-01
3.862652147479526260e-02 2.618531763167061474e-02 4.662882763260574048e-01
3.429791575294366401e-02 5.407190923752772105e-02 4.881910930616509825e-01
2.362987553304458574e-02 7.078917204591803070e-02 4.854621106370535788e-01
4.211844573325535662e-02 3.501875707876919708e-02 4.863354940880500465e-01
3.278978704015455842e-03 6.166561965072249463e-02 4.622323584515311556e-01
9.247412511289221024e-03 3.028427228561069579e-02 4.528450423651230738e-01
-1.138435677026764306e-02 5.537349792932622777e-02 4.582136698095523597e-01
-9.622357301273674196e-03 3.955189681416809017e-02 4.531617338947485085e-01
4.153810385391054627e-02 3.643568297081201113e-02 4.935587917227819976e-01
-1.430626942894856757e-03 6.326406266847872661e-02 5.311123403383769537e-01
8.697731850838066880e-03 7.190199851960046851e-02 4.692805734642621629e-01
-4.355033188982625897e-02 2.755302682095622444e-02 4.481763342889950041e-01
1.749031287874188226e-02 4.729280696980655424e-02 5.251519162017247444e-01
3.361213145314716211e-02 3.369051554261934256e-02 5.134413876406557220e-01
3.689057234898917431e-02 4.309296116342094946e-02 5.049403768835118989e-01
-6.878534435373043557e-03 3.861408396102516440e-03 4.393600653465813966e-01
4.327463874379425951e-02 2.811066147793850334e-02 4.949101385248932949e-01
6.527271356623404706e-03 1.564806580538431052e-02 4.462598023637706079e-01
2.979662704573390192e-02 2.323924993408708201e-02 4.577859709089938112e-01
2.108718570920233362e-02 6.501975349162315843e-02 5.100192913953197626e-01
4.001619288600129221e-02 1.950119421256121116e-02 4.643370618699368957e-01
-3.627073336903480216e-02 4.061732504935194193e-02 4.530498571897919602e-01
-2.763498751854634103e-02 4.294118941460285666e-02 4.531251937081444137e-01
2.175765060311054405e-02 4.974511394668752057e-02 5.202110734250996460e-01
-1.838795084440859526e-04 6.048070129749794771e-02 5.214941258195289198e-01
3.858899752494968083e-03 2.095714070301994345e-02 4.478707041570860192e-01
4.275216718835782304e-02 2.946157353221303538e-02 4.956684159989088734e-01
1.252558340471454472e-02 7.166600830495689634e-02 5.057475842834909807e-01
7.979148863001493328e-03 2.351777303974778716e-02 4.497175397075017234e-01
3.635173227146036579e-02 2.851685547015124500e-02 5.123043006893877038e-01
1.752305224523915614e-02 7.256350970475421158e-02 4.752278780053249552e-01
-4.536436241629455274e-02 3.094528503346510515e-02 4.494906609065923986e-01
-1.037544610044986715e-02 7.045111907885027308e-03 4.399782185058268569e-01
1.399133777909255215e-02 3.892599433965777955e-02 4.577431807206839287e-01
7.414120069154359928e-03 3.883861431981402990e-02 4.559584833387495539e-01
-2.017339776132831553e-02 3.114753663145451365e-02 4.481951604315706494e-01
1.958957454921377017e-02 7.164225685674185939e-02 4.769561026800722137e-01
-1.586865146884609487e-02 1.840391803282032807e-02 4.433663619914915976e-01
2.465121158267383900e-02 9.436310548045924451e-03 4.488484119715751564e-01
-3.122182590266658897e-02 2.662923444771777420e-02 4.462920323124527355e-01
5.437892566095722108e-03 6.399461269340316061e-02 5.257635531717975708e-01
2.092472047229890567e-02 4.336553416620524820e-02 4.625996134398899229e-01
3.156193870905371623e-02 5.873057848758143906e-02 4.882972970584815720e-01
-2.424846313633082645e-02 5.053594158534528008e-02 4.570291461358775842e-01
2.088865620978734919e-02 5.378258652428036940e-02 4.669607934344936484e-01
-1.813288390275095974e-02 3.658373607633529784e-02 4.508424453464549009e-01
2.844201102160882552e-02 6.310829214335615667e-02 4.949853176848751368e-01
1.226393232088804873e-03 3.011422362320075041e-02 4.510403193184945869e-01
3.436740426882834570e-02 5.248471573950390379e-02 4.965783802986127871e-01
3.441578859341161423e-02 2.498931260559337023e-02 5.196444662919398327e-01
3.842063522863150941e-03 5.843161136026157887e-02 4.612873191015125496e-01
5.844101934835605611e-03 6.373280235880771083e-02 5.281615716559364682e-01
-7.704887546459715693e-03 5.777364382410053734e-02 5.292284013349185523e-01
2.464062576965631371e-02 6.668760085022211459e-02 4.984614773643874508e-01
3.386131079695010176e-02 2.974903693982059588e-02 5.173374695922061672e-01
2.065885618396146733e-02 7.122703292253239338e-02 4.984625425163245471e-01
3.182629109387974387e-02 2.817929217519045404e-02 4.615621567529114566e-01
-1.941329706833993781e-03 2.697224446335340364e-02 4.491546713643144173e-01
1.203490059396754470e-02 7.677454802932835720e-02 4.872046078114762313e-01
-4.103531698399331962e-02 3.087626013970201991e-02 4.486228153084185211e-01
-5.688194155796413680e-04 3.728600092300500893e-03 4.402067674212091219e-01
6.673904965430114793e-03 7.132947471780634596e-02 4.687555405381837459e-01
2.641170626222065498e-02 3.910465875748772580e-02 5.211725215909843723e-01
-6.608755395874149445e-03 6.191500681083204893e-02 4.613506116421372538e-01
2.276460287619159681e-02 4.669125656423360471e-02 5.200664461312435316e-01
-2.026620433395186736e-03 1.702932738172276139e-02 4.451281459060676959e-01
5.378345053750596509e-03 4.515533179679133424e-02 5.360528659216730052e-01
8.176739577918073348e-03 1.271683216953057097e-02 4.454119354257416452e-01
-6.744848650265517984e-03 3.179471323244170700e-02 4.502812754280377527e-01
-1.092490257762762824e-02 1.126465841449768648e-02 4.413820382694002564e-01
5.099369841507692819e-03 2.050961657042524658e-02 4.479367844954911804e-01
1.798809920271639967e-02 4.098787851335185944e-02 5.310649013529462614e-01
-4.552902826228786941e-03 3.577428612937007257e-03 4.395635696797133285e-01
3.737373772963457907e-02 3.398769364356923200e-02 4.690657245378992424e-01
3.858677495198407914e-02 4.459750150266990343e-02 4.975265141435106231e-01
2.332556083661967497e-02 1.874444060212487537e-02 4.521576899821864171e-01
4.051092438015994890e-02 2.895763950533996808e-02 5.024941615799664030e-01
2.582552664574535445e-02 4.039894231717691686e-02 5.206457331502537533e-01
3.174484943537710796e-02 2.103365794560825217e-02 5.232654224706925206e-01
1.254735657088706935e-02 6.048933608762423197e-02 5.244147026215861818e-01
3.489024648478591950e-02 2.681601910346471940e-02 5.175658528743095621e-01
5.346643129616385215e-03 6.470314829177709059e-02 5.127335515362538843e-01
3.746033734702784723e-02 4.497353340481709261e-02 5.020308873017742535e-01
3.014806223243334318e-02 3.090294342757765947e-02 5.234036838192835939e-01
3.069385574746197332e-02 3.305429188466850465e-02 5.209783518977744166e-01
1.046649883866949265e-02 2.406830780532640338e-02 4.505259173259919536e-01
-4.183429786908232639e-02 -8.826355328644171910e-05 4.411869712752043982e-01
2.100432170461244072e-02 7.385711255513928430e-02 4.909001049734615374e-01
1.930893842222800721e-02 1.222035481319127051e-02 4.480033638332131529e-01
2.263991971712267168e-02 3.450698411130394272e-02 5.289439467113504767e-01
3.678816961744153097e-02 4.873493020078773635e-02 4.937400206314133677e-01
2.888536660855128141e-02 3.328482642734437169e-02 4.622126464351870023e-01
8.842636568457757501e-03 7.686040852140979540e-02 4.750472854483656637e-01
-3.949678087743283689e-02 3.653922935235055097e-02 4.506199645294252654e-01
-8.284875603389841268e-04 2.957703255818569521e-02 4.504032801173836198e-01
1.171699135285850582e-02 6.638337012618519828e-02 5.147511048764146224e-01
1.827099971390777622e-02 6.633490261811181808e-03 4.452494854522888179e-01
1.236829216333013015e-02 2.594166215655134902e-02 4.517482201927697227e-01
-3.144575707055605185e-02 2.344281583619887976e-02 4.450713941232885551e-01
1.712464148563087873e-02 7.119083893576315381e-02 4.732978911822879331e-01
-5.879490069736696689e-03 5.423027816776775784e-02 4.581317608884102333e-01
2.357839707371818180e-02 1.078740574446276218e-02 4.489860731247330428e-01
2.621673275077934968e-03 5.899218636752485978e-02 4.610623064233388968e-01
8.176531696684778347e-03 6.448119450190019364e-02 5.216221192105916504e-01
2.391294854279742491e-02 3.493384914483063652e-02 4.600110777494068603e-01
4.079279478051885122e-02 3.627743093912892680e-02 4.983627583668922001e-01
3.023164710390330648e-02 5.559386254749121292e-02 5.070139397725998975e-01
4.854899414595570742e-03 6.695239773742925338e-02 4.656606457657148090e-01
-1.514494242974120941e-02 1.319153867536041261e-02 4.413977651042974015e-01
1.143695319178647876e-02 5.725561398441507410e-02 5.257105319712787050e-01
-1.707938082439200769e-02 1.692521935210633197e-02 4.425887500964751364e-01
3.452611344409772104e-02 5.338182218158164100e-02 4.908740918751263727e-01
-5.130445386061250213e-04 6.938533956831585692e-02 4.669566073029198794e-01
1.522122250746360365e-02 7.482615184663778812e-03 4.448442980140420722e-01
1.253718816555903122e-02 6.557672175593691477e-02 4.672958424487771989e-01
9.710514857825279511e-03 4.817941863787553181e-02 5.325137163836569654e-01
7.043421057239224875e-03 6.420080787054366876e-03 4.426077979132136409e-01
2.721637125490682096e-02 5.825944303018626425e-02 4.744040309934472455e-01
1.972583020614362623e-02 5.081309150114961953e-02 5.214938533662750730e-01
2.285559250564191819e-02 5.971281850412957226e-02 4.712678007644647282e-01
3.863801128958427311e-02 4.465266138083618525e-02 4.837720467584208373e-01
7.918692718935669422e-03 3.029837930238071797e-02 4.525469428555349838e-01
3.317865201561722571e-02 2.425660298809861198e-02 5.212838112888689146e-01
1.437202962216460253e-02 7.456938313369149141e-02 4.995806505259939301e-01
-2.215462089148070163e-02 2.264101274785298989e-02 4.444802252443607049e-01
4.295220567905379261e-02 2.209671180341987728e-02 4.712578286936842109e-01
4.684178741391400308e-04 2.961439114000613548e-02 4.506828720200340976e-01
2.295377427433646991e-02 3.889147351383562962e-02 4.615328395854485510e-01
-1.615338892680164701e-02 4.489028612615224983e-02 4.543268879102460023e-01
-1.451757774102763535e-02 8.135299767355205769e-03 4.396576358973059429e-01
1.337523194954171393e-02 4.614823680938770489e-02 5.310072569899236816e-01
1.546015315713515116e-02 4.664274981734633369e-02 4.613968994815630942e-01
4.294114640458605164e-02 2.640005409337557035e-02 4.977416742847950992e-01
2.431035379195533100e-02 4.302390231261422893e-02 5.210802049084201082e-01
3.387873618785312846e-02 5.278487580386002909e-02 4.992379589854563093e-01
2.956127647278601958e-02 2.594234960799762096e-02 4.589078330364277369e-01
4.148106724330063999e-02 2.742520896050952561e-02 5.010562652597606581e-01
-3.739350340292162730e-03 1.205326869279016791e-02 4.428501701784893219e-01
8.014119392676374160e-03 4.508010475077867812e-02 5.355340171008424743e-01
1.629709962580157961e-03 4.591225436972753288e-02 5.369454159276907390e-01
1.205846058805675261e-02 5.286962040910361815e-02 5.270367665700086413e-01
4.202267317136002683e-02 3.532562750101275739e-02 4.924455731162104000e-01
2.544885816300911791e-02 3.982184683340182774e-02 5.221892287508765884e-01
-1.077545137123188737e-02 1.993217387655721318e-02 4.447063520398166214e-01
1.515634325595595355e-02 5.110709953921824950e-02 5.250926913861267975e-01
2.210636287574429745e-02 7.271261487983173011e-02 4.874597762230087894e-01
3.560432702429301710e-02 4.172673039225415631e-02 4.730698274469669617e-01
-3.503671445752710306e-02 3.381332930856399688e-02 4.491096099177084300e-01
-2.447479548759081205e-02 3.591670891051285119e-02 4.499051215330800435e-01
1.702441911162011576e-03 1.994237507107100155e-02 4.470396894790967246e-01
1.230264629946715808e-02 6.343485537026431753e-02 5.234104663633734056e-01
1.349489671134343309e-02 7.216815733150755419e-02 5.042231674524032536e-01
2.007422625819465026e-02 4.738108155559495743e-02 4.638928644713063432e-01
-3.405596414940759153e-02 3.235621670669108774e-02 4.484718373885830944e-01
-1.040909831615781551e-02 -6.541066960620210875e-03 4.365559118862437082e-01
-3.378801340837042470e-03 6.216456942806510011e-02 5.366083891100811298e-01
1.587256013891951215e-02 4.079269241084811093e-02 4.591368486903160129e-01
-3.327167595781067855e-02 4.016526637193378740e-02 4.518202374357690454e-01
9.848550906271687222e-04 6.121025044517193481e-02 5.218511265213208183e-01
-2.441691446625497003e-02 1.003869026034411201e-02 4.397900535281430989e-01
-1.007527383104042011e-03 6.943800816886566696e-02 4.677765571667564792e-01
2.763667141710987596e-03 7.062653972958202186e-02 4.686803768672533343e-01
2.751613452418279204e-02 3.479166539030342786e-02 4.621233371789730260e-01
3.083759641237958718e-02 7.107744235531958561e-03 5.298269204587671144e-01
1.496655265404848653e-02 7.653298844192805983e-02 4.804863249000509984e-01
1.853796681368847718e-02 4.629147637867923881e-02 5.247804681901986346e-01
3.209218281072461626e-02 1.762429272425394475e-02 5.244169115679182536e-01
1.007288813931284631e-02 7.723679534075685027e-02 4.756777353397735886e-01
-3.869661900146476041e-02 2.329760702633003333e-02 4.460593894318216623e-01
-2.682069185960321827e-03 1.343419437222266588e-02 4.435896563263087566e-01
2.890933289963056735e-02 3.829916533070100437e-02 5.177184489571129422e-01
-3.623367139145804421e-03 6.450340418347237648e-02 4.633991594176259943e-01
-2.433931825972347751e-02 5.685688796804730383e-02 4.614800034506587045e-01
-1.927807043324632208e-02 6.000289977580089418e-02 4.646454140215780515e-01
1.585055417962863075e-02 2.713254690637817435e-02 4.532153597679161594e-01
7.600378396391652656e-03 7.496159759153789293e-02 4.730696721924670389e-01
-1.602221327451463714e-02 1.187446637658585123e-02 4.407176047969502131e-01
2.407331756679875409e-02 2.848582021936941350e-02 5.279426931704356285e-01
-3.126304483798743577e-03 6.344164790075527971e-02 4.626613097408507347e-01
-2.585988117592814134e-02 3.890717154191350793e-03 4.382510612399075911e-01
2.140212824128496713e-02 7.175753730983103207e-02 4.951082872119975109e-01
3.780820848955065983e-02 4.674891725071460974e-02 4.954108704182346168e-01
2.869375292793355584e-02 5.774994612104400460e-02 5.076598786663204521e-01
2.395929162012789236e-03 4.322187129179687337e-02 4.563772274274364715e-01
3.917905578143413003e-02 3.699049749401241149e-02 5.024728440387481454e-01
1.189398436466888344e-02 7.353767387062318250e-02 4.725463401488715909e-01
1.945608224611816012e-02 7.270433045647732573e-02 4.784205429512972119e-01
3.439364087719293250e-02 5.342919927639774164e-02 4.857596772781943573e-01
9.259793039864591332e-03 2.818344252445274117e-02 4.519751479002734884e-01
1.486316392454666881e-02 7.634292470180485679e-02 4.943217130181957741e-01
3.019989775389055053e-02 3.422795396479944713e-02 4.636044439121300154e-01
7.197013348353028216e-03 4.607437845081878425e-02 4.585281310876296867e-01
2.010022276877480168e-02 5.962387334203608086e-02 4.688401729136308371e-01
3.722742459088769496e-02 3.702845406503376541e-02 4.716806570655115993e-01
4.029893727170063417e-02 4.084002751667044351e-02 4.943511018212147223e-01
2.428002523768166276e-02 5.522571573615157187e-02 4.702619516947181277e-01
5.024790017729157884e-03 6.334303424792903092e-02 4.636445794118638775e-01
3.583215970329915040e-02 4.882999890138587512e-02 5.019193803801423881e-01
1.164038098463531130e-02 7.652318863508530966e-02 4.878069475017209888e-01
1.395574525136495173e-02 4.304292769139866220e-02 4.595000957888679682e-01
2.298966618858533720e-02 6.170757037956872693e-02 4.724745691187388075e-01
3.447210316433575034e-02 4.259367608956524803e-02 5.093932243774431656e-01
-1.118233371935415353e-02 2.366149483736524131e-02 4.460822621600412652e-01
9.018547008741594276e-03 2.237078598388815218e-02 4.494909348873389332e-01
1.586485464626954944e-02 7.529563415915319080e-02 4.775084747528873796e-01
-4.107133940702006533e-03 6.100492418321774857e-02 5.369494235781870906e-01
-1.571332616847189931e-02 2.913979154294956200e-02 4.476656418307480290e-01
8.138272252990273042e-03 7.096114453397373012e-02 4.685148308265449368e-01
3.352718315224094414e-02 4.221947218218338738e-02 5.110119005649993440e-01
2.753681438820566180e-02 8.957229168952838411e-03 4.503700125247005470e-01
1.343501045472638399e-02 7.040675659561834721e-02 5.080869269638031982e-01
2.143745807056219449e-02 4.864316532002208038e-02 5.206909935587062943e-01
2.360316689640017292e-03 4.842745805462939090e-02 4.579218643773950159e-01
2.884583723871088010e-02 5.065905061362243472e-02 5.129915658525500133e-01
-2.150061302944531946e-02 1.212483909871208028e-02 4.405320069414759843e-01
3.907789485882059988e-02 4.293985140593545996e-02 4.980649637507948979e-01
3.774454207997289534e-02 3.233469675966260670e-02 4.685915759460178021e-01
2.047647327353741692e-02 1.317824432985377318e-02 4.487964863667968651e-01
-9.750894038771114325e-03 2.928466490814674028e-02 4.486967788546015745e-01
1.609412865477855004e-02 6.737062481254295354e-02 4.699745895294855647e-01
3.855648214108103183e-02 3.030077998339382808e-02 5.063250694023967435e-01
2.918391660443750424e-02 4.866004791966488385e-02 5.138145309299394503e-01
2.325538418254596146e-02 3.400520519035289679e-02 4.591677621183140601e-01
4.354301808412063511e-03 5.836138037183278421e-02 5.309519459951774767e-01
2.219482348843546116e-02 3.996024441369487763e-03 5.321578455270623564e-01
2.524036777403521059e-02 6.673672441010267131e-02 4.964330707514191254e-01
7.334203774283385747e-03 7.738174373956341334e-02 4.749552126051991285e-01
4.364266137735788725e-02 3.058274758120146583e-02 4.891729371206779420e-01
1.306686604901434803e-02 5.615768553324802098e-02 5.248097434640467407e-01
1.951586195039282934e-02 7.083621451386387657e-02 4.756156337040833848e-01
3.934542941234019098e-02 2.881507302674231677e-02 4.687102105001352825e-01
-2.175440593710569956e-02 5.934950753860775835e-02 4.655129942156845391e-01
-2.806143699298787458e-02 5.518123868796898784e-03 4.389392851687773378e-01
3.721863771840459162e-02 4.135042072035081256e-02 5.055406714918032618e-01
1.959317765878525880e-02 4.941993220177844093e-02 4.644221581135616894e-01
2.402128673652465657e-02 5.393488388968933900e-02 4.694270512840191811e-01
-2.401260454930014693e-02 5.024054739721592333e-02 4.568747746096253892e-01
3.367242641040344570e-02 4.287935906691803939e-02 4.712234908863170424e-01
-3.979521177537202747e-02 2.491685270227363136e-02 4.467243444183485734e-01
2.802603874936462555e-03 7.264808570891083395e-02 4.721194202776077264e-01
2.766900460668897388e-02 5.612899976461466212e-02 5.112747305730306335e-01
2.569905473762782930e-02 2.916938332792726185e-02 5.269952094268285370e-01
2.257486437353386360e-02 5.125449111416537779e-02 5.190146203630819910e-01
-2.642452310743052118e-02 3.870216679939486593e-02 4.511087906232986722e-01
2.142048600561995142e-02 3.397090147924419767e-02 5.295980430731391797e-01
2.097272414848955560e-02 2.906269661713025212e-02 4.557811184298727336e-01
3.988875548926060916e-02 4.241910563129878270e-02 4.916759742063042116e-01
-1.634325218321442535e-02 2.133927573322685206e-02 4.444139223319338305e-01
3.629559781147610742e-02 3.592426401272957870e-02 5.081183293036445336e-01
1.483204995775616597e-02 7.538829908526500923e-02 4.763538912414004844e-01
4.131086332262674798e-02 2.512022069287610931e-02 5.037238687753881061e-01
1.639095015733937205e-02 4.695586698822376559e-02 4.618825339881331704e-01
5.607996874061773121e-03 2.983479524186149340e-02 4.518350445289365802e-01
3.051736179072687440e-03 3.991871586317272125e-02 4.553486927875564638e-01
-9.390804415370036101e-03 4.291544388198108989e-02 4.543689002621896234e-01
1.709246468018137469e-02 4.226074827101342080e-02 4.601514907793505249e-01
-2.518874044164209555e-02 1.111765402873375087e-02 4.402411860073767724e-01
1.806425500690543931e-02 2.071603820418764508e-02 4.508735501125888945e-01
2.309481388878154018e-02 7.156700687655316584e-02 4.892304451614852834e-01
3.236838316179140029e-02 4.316068110581755546e-02 4.700041369142308190e-01
2.091093811726705762e-02 5.048103485701643800e-03 5.316910952500814025e-01
-7.233341430359466716e-03 2.747266291219064779e-02 4.483517958298745554e-01
2.502065422925578431e-02 1.187646423147324833e-02 4.501030135559486722e-01
1.567265156416748281e-02 6.358667520763622294e-02 5.187744335273258844e-01
3.737173904071389163e-02 4.764838409993382706e-02 4.938898608123294398e-01
3.972745424499050243e-02 4.277644865683991049e-02 4.925859830050313137e-01
7.725947241844022609e-03 6.039740396322658411e-02 4.632415118543435906e-01
3.674167576463237966e-02 4.840681513926107377e-02 4.961824252909370347e-01
-7.902399243357569394e-03 6.280798457560198000e-02 4.624360149347411797e-01
-2.346912737365141124e-02 4.302831063909289683e-02 4.530969851199805332e-01
4.097080671219669595e-02 2.820058873560064849e-02 4.714564223974845869e-01
-3.674184574089612437e-02 2.025978847491786278e-02 4.448273898511955204e-01
3.234014177556800151e-02 5.048272181149423415e-02 5.087441366367346784e-01
8.609206544675685954e-03 6.353982819942130544e-02 4.647767993735231751e-01
2.829414097366254877e-02 6.413872772056333771e-02 4.864247689056387380e-01
2.596097599196611067e-02 4.568654812547583155e-02 4.665959536936148955e-01
3.553439195142830270e-02 4.828736909995078735e-02 5.035608702385265811e-01
8.190209054345254369e-03 5.952140832636256679e-02 4.631421835133410769e-01
-1.623011562048001441e-02 2.827865340624284574e-02 4.472102383705807704e-01
1.456714925025924794e-03 1.576181480940788346e-02 4.453008240134533890e-01
-4.175516076311864590e-03 5.923420860980325303e-02 5.374684974020441652e-01
-2.019441905137872237e-02 2.164877401425991527e-02 4.441450521494330617e-01
-2.954104405494809363e-02 4.937941091163289969e-02 4.574358462274772941e-01
2.993470069039894446e-02 4.742808477304517878e-02 4.707456775525009629e-01
3.183908809513909949e-02 5.134957626889023047e-02 5.089287058394711405e-01
-1.313922406876890693e-02 4.180007945374000777e-02 4.535994904903672409e-01
-3.601382816117089901e-03 5.300667610088895254e-02 4.579840421046236232e-01
1.028774108824487797e-02 7.348223534372178012e-02 4.719878710718370951e-01
-3.793994327013236467e-02 2.146048798016855080e-02 4.453732664937740116e-01
2.183916490158605006e-02 9.260440030052267957e-03 4.477312760662096602e-01
1.979926900784980889e-02 3.721021959362264681e-02 5.305283944136515162e-01
2.524660464172546331e-02 4.961718655027510388e-02 5.174870789890200218e-01
6.443591046902534189e-03 6.382743573243264412e-02 5.269941837726404010e-01
-1.344333232778840287e-02 -3.910135328591019324e-03 4.367663487454352955e-01
2.921877041189301777e-02 6.235084047702033755e-02 4.838768136105734974e-01
4.144557769846318740e-02 2.240104474959936712e-02 4.683939895600856551e-01
-1.374748331985829221e-02 2.155078214240837425e-02 4.448383580043220320e-01
-4.424434734908033046e-02 2.746463330572280689e-02 4.482866470658075086e-01
4.277096421157888795e-02 2.814510607982788348e-02 4.970967799422675859e-01
3.283794159017919267e-02 3.923991726053938089e-02 5.135407074069699984e-01
2.661095894860377245e-02 5.403254380162433347e-03 5.318739142898328831e-01
4.233864908699733892e-02 3.437171683887293994e-02 4.866173078284025122e-01
-6.434673108529976801e-03 6.210555401724015406e-02 4.614857989775069114e-01
2.433270398145604557e-02 6.614279974474497614e-02 5.001579162721988547e-01
1.402800183950092539e-02 1.906862191608951762e-02 4.492683431639979963e-01
2.661081275092743587e-02 6.238953037127473872e-02 5.048935179565660070e-01
1.168576889941829941e-02 1.179904076281439521e-02 4.457614277038675632e-01
-1.556249164249967967e-02 -4.205455293857730120e-03 4.368191329055906569e-01
2.826492974625402152e-02 3.966524185058475926e-02 4.651758007487186708e-01
8.841864164286065281e-03 7.641544032473819581e-02 4.747545576356078656e-01
2.603055873009380017e-02 6.764723779085810018e-02 4.845373366186065955e-01
1.834810882117913697e-02 5.334172871345861655e-02 4.653246661665218498e-01
-1.218783439852591174e-02 -4.710856255671727090e-05 4.375190749342787733e-01
4.574456405978030715e-02 2.274422846267683263e-02 4.856575598101822155e-01
3.322967766873067413e-02 1.780250738763951290e-02 5.234172983284668401e-01
2.687512826920075357e-02 2.584331126660140143e-02 5.261943761815848219e-01
3.642599597730066668e-02 4.616444872223811335e-02 5.035210319126799394e-01
2.745998866607354122e-02 5.780509571286436207e-03 5.315381261837192062e-01
1.173001886453474418e-02 4.560555709122986884e-02 5.331791122536240213e-01
5.092455264463061765e-03 6.416991862348171705e-02 5.241874425745698396e-01
1.533672712150808450e-02 6.331381526526538850e-02 4.677475062620936042e-01
1.525386871067800458e-03 5.462172490692034088e-02 5.350502124770905032e-01
4.460902257374502883e-02 2.525888536477566629e-02 4.801554871064605545e-01
-1.789247078549377826e-02 4.400431481091831090e-03 4.381525904711823238e-01
-1.861210765033097930e-02 6.127497935070082107e-03 4.386225750297007009e-01
3.460378328595141439e-02 2.737560816561579111e-02 5.177497676740511201e-01
1.490976166583029422e-02 2.467348286639104663e-03 4.426638712740339487e-01
1.657633367612624045e-02 6.711717118785577585e-02 5.101928299715902115e-01
-6.277540174280644460e-03 5.697260944243189018e-02 4.588962403194710160e-01
-5.063891816222215736e-03 6.048007465983468861e-02 5.377424051937665928e-01
9.662206138706386227e-03 5.361747716108064554e-02 4.618752218556096412e-01
2.784948415674979791e-02 6.310431288391996074e-02 4.979910926297427265e-01
3.152129536951224498e-02 5.819757434107314387e-02 4.944850369439225402e-01
-2.048897030860791398e-03 4.652171536262265233e-02 4.564107824671796987e-01
-1.793015384894620923e-02 4.115944122058142092e-03 4.381014569374825918e-01
3.953454668959331848e-03 6.674806163583324459e-02 4.653181117561789315e-01
3.302870278099374890e-02 5.090451571084931431e-02 5.066842668369309077e-01
4.161814377439364970e-02 2.713929073945965317e-02 5.009289331162023462e-01
-2.755591966579704760e-02 4.181625503014882450e-02 4.524565284492291228e-01
-5.872458676006297052e-04 4.504894720053320700e-02 4.562712297541973161e-01
2.278551977887736599e-02 2.201088729118665967e-03 5.328725055037517588e-01
2.217062182036953072e-02 7.261764661619581063e-02 4.891885552414771965e-01
1.513541248503948340e-02 5.881733331369262685e-02 4.657959768528245337e-01
3.308011100826660413e-03 5.423948402178800643e-02 4.599365980423892886e-01
2.874524367695569654e-02 2.414913244855417668e-02 4.575366654586795478e-01
4.099902823592996293e-02 3.938011712051370239e-02 4.903461052775640039e-01
1.866844096744128823e-02 4.110402536586674899e-02 4.603872330411057923e-01
1.053994732912827588e-03 5.724121297871419267e-02 5.340840386142798879e-01
2.580056919963304857e-02 5.546855959590575244e-03 5.317752065408628548e-01
4.282595614605622797e-02 3.355104561987436174e-02 4.905616681836163506e-01
2.531296452246957485e-02 6.196399017227572498e-02 4.746720154598288999e-01
9.270595271015405828e-03 4.284114327756229079e-02 4.579369607142250720e-01
3.879779602072341849e-02 4.484895785102556431e-02 4.869672927663320494e-01
3.188570919651202012e-02 5.776759097045310043e-02 4.936946688001335737e-01
3.934049707092619752e-02 3.631878394002335808e-02 4.749084378874924295e-01
2.951451146066966930e-02 6.143820367621384559e-02 4.815410632140623703e-01
-1.269969736662412106e-02 4.428753928801711093e-02 4.544924234522095818e-01
6.927695242584209438e-04 1.889427975411812552e-02 4.464172427311882685e-01
-4.514513496126044273e-03 7.679498010578985484e-03 4.410447672127550955e-01
1.147881961487325943e-02 1.215113079377371473e-02 4.458626332650035273e-01
3.930305034348398514e-03 5.465132136085009557e-02 5.331125041801265674e-01
3.562342613019835874e-02 1.999418827187134096e-02 4.603319982806474697e-01
2.552441918259394649e-02 6.762842839986381478e-03 5.313061887071000022e-01
2.480170607262403848e-02 2.478058194666977326e-02 4.557498365727931100e-01
3.152403100235297989e-02 3.411564485834013560e-02 4.644643840178914185e-01
3.303311009459692325e-03 5.611134108714752738e-02 5.328828071705764557e-01
2.829097719125496166e-02 6.382094997771571576e-02 4.931802889001653534e-01
3.724546674882987796e-02 2.147923000359845333e-02 5.164533595399894983e-01
4.634335380633175863e-03 5.629553410273861053e-02 4.609317962483476805e-01
1.467542845304669122e-02 8.301107048325526150e-03 4.450336562502569260e-01
-7.969887646715582280e-03 1.539565170667596058e-02 4.434458733757891125e-01
8.497231498692338347e-03 7.960353364212431615e-02 4.773888939068471893e-01
-2.520854192358058625e-03 5.902922019389105629e-02 5.209316676058598494e-01
3.689456932423321872e-02 4.592117485285775180e-02 4.794599930402651533e-01
2.479050499941262004e-02 2.844967232316654437e-02 5.274881281406252898e-01
-1.885179375700622717e-02 3.305960888011948151e-02 4.491928995584593687e-01
1.879552285957837576e-02 5.090412049909161241e-02 4.646178782629510340e-01
1.278842113068604652e-02 5.521107803876630638e-02 5.254032663877781228e-01
-3.187945241996098696e-03 6.737965024281755699e-03 4.408804678623869933e-01
1.479994612470031910e-02 5.882164315204910232e-02 4.656282814295033545e-01
8.944318805256794985e-03 7.971772551390449157e-02 4.779736278640687730e-01
1.271288110971601111e-02 5.122171908089327014e-02 4.622315766948745241e-01
9.677954168186068268e-03 5.445051872583231423e-02 5.284328485375535678e-01
4.463277734480927336e-03 1.914438888226407259e-02 4.472618068347942177e-01
2.236277052095919649e-02 5.896165876626557889e-02 4.704234795911911293e-01
3.311279871921595647e-02 4.443566773070403708e-02 4.717228746929499894e-01
2.995895693407884738e-02 5.923932776996623795e-02 5.004105341838356313e-01
2.810965335779758850e-02 5.426390614092312797e-02 4.730677554818021324e-01
2.960283271824595830e-02 4.572948939256765710e-02 4.693525601623811383e-01
3.506835945169393953e-02 2.623600759668128293e-02 4.630346541627993751e-01
-1.498104099405852228e-02 4.989435792541203202e-02 4.563506721988912496e-01
2.061353968048904028e-02 1.629038151649755614e-02 4.499379797644634804e-01
1.793219852649402535e-02 7.458466253140955127e-02 4.975621263868749145e-01
-1.701638650121907806e-02 5.717801387555070808e-02 4.593388733374396682e-01
-3.968824389479062159e-02 3.335849511651391153e-02 4.492442587396948683e-01
2.139216638907492224e-02 7.225122567468787727e-02 4.936306822831648677e-01
4.114401163304242520e-02 2.597540484439133865e-02 5.034832503319036645e-01
-2.044770574341394850e-02 1.451127679406834757e-02 4.413850028502711020e-01
3.112993986014641126e-03 4.741211088870739276e-02 4.578434396437190412e-01
4.186209620630025607e-02 3.299273080074045794e-02 4.957625169928705500e-01
-9.132269042988503532e-03 6.211379065580875658e-02 4.620711010272769981e-01
3.587042247549745988e-02 4.971820787561054278e-02 4.972564057400576942e-01
2.916625359925043015e-02 6.103158897101600838e-02 4.793288942907882877e-01
1.993336509637181481e-02 6.128764604468443788e-02 4.695496786603948758e-01
1.723192155073629845e-03 4.493938021410732314e-02 4.567127268048206123e-01
-1.901162271701062681e-02 1.422106866515825824e-02 4.412777986730279101e-01
9.843145998314744433e-03 6.198252559977007053e-02 5.260721165901782737e-01
2.402374844721843344e-02 3.277278568830621630e-02 5.281266937783836157e-01
-2.602614725645507193e-02 5.777703093798181033e-02 4.636747158658967027e-01
-3.540589234693166526e-02 -1.054914375420049327e-03 4.394538675477167033e-01
8.353955730403407609e-03 6.903630410465111389e-02 4.675747779055583475e-01
-6.895059106421052783e-03 5.945535595232746828e-02 4.595330651396551946e-01
-4.212479853318950446e-02 3.815247396247244127e-02 4.528690717802462129e-01
1.900708212605871708e-02 4.657478092382063423e-02 4.630228381633985646e-01
3.351755131102030633e-02 3.420537741613886157e-02 5.134604999304593909e-01
1.356968573263602276e-02 7.541477198325176323e-02 4.753888415957566171e-01
3.655971069579472266e-02 3.742825877208814933e-02 5.077349010866685219e-01
-3.137539983537651622e-02 4.665112273456836767e-02 4.562799777341107754e-01
-9.114869908497462425e-03 2.566340754797286766e-02 4.472572218818368084e-01
1.548002580484861279e-03 5.687538747489793295e-02 4.601869466193675984e-01
3.491267488915636430e-02 2.759384732949074839e-02 5.167601420098253406e-01
1.964039894619937221e-02 3.915846118040755552e-02 4.599523305151968500e-01
-1.449177587395582278e-02 1.889460794891530127e-02 4.437391080528196863e-01
-1.136560461000921118e-02 1.951458474074003243e-03 4.381651382437209974e-01
2.148156408623199884e-02 6.530740054664435634e-02 4.730229992583864229e-01
7.858308981203338678e-03 4.507263015603701906e-02 5.355618517389725275e-01
1.961360113423342780e-02 6.359750089675286766e-02 5.141979567721012279e-01
-9.100690692384130753e-03 3.228780766939100960e-02 4.501475790851979242e-01
3.043732695792733881e-02 6.007380640498687085e-02 4.942506175549005731e-01
3.601240511553733398e-02 4.602351460553316675e-02 5.046051013021041198e-01
4.384877736133167836e-02 2.691980134294847879e-02 4.784891879422054073e-01
-1.669121629356723133e-02 5.956605726344563895e-02 4.616776644956513409e-01
-3.675009391513719970e-02 2.999923389220104930e-02 4.476614252159079599e-01
-2.623732241333675066e-02 1.551213955023873423e-02 4.418194389087893303e-01
-3.941571129243614385e-02 4.040656310581777072e-02 4.539660940419998347e-01
3.024187681826284030e-02 5.927899213475613244e-02 4.989594922585889880e-01
-1.525093289257081416e-02 4.303809318855489341e-02 4.538002874180426249e-01
1.232056666892477823e-02 6.965691728110252889e-02 4.692928253952621809e-01
3.094235495238344125e-02 5.987177691530067014e-02 4.897501133179688049e-01
6.114228626588239825e-03 8.954551402870523230e-03 4.434554973801992928e-01
