2.047032562451408383e-02 5.988979492055471199e-02 5.173206674388508564e-01
1.535057815269255319e-02 5.029508349130055317e-02 5.255165210603608417e-01
-1.383489478438922494e-03 6.075059477493582188e-02 4.607287336187044779e-01
4.213245075620474650e-02 3.642930520653081539e-02 4.896476638666377723e-01
4.641957459199640493e-03 4.760565913707177216e-02 4.582827354114483165e-01
2.719575617907118818e-03 1.277852235542127624e-02 4.443408989485397864e-01
1.443432029121738576e-02 7.633568019920522474e-02 4.874400432985250831e-01
3.809762367254730664e-02 4.686527826537079111e-02 4.857150480640862744e-01
2.478953591234717493e-02 2.433009347278234855e-02 4.554319642727460149e-01
1.440618485209598995e-02 7.615026287323677090e-02 4.915536491802398045e-01
6.227748890303192245e-03 3.151839248511556502e-02 4.526311616814159833e-01
2.239392868708255796e-02 7.275743972163553619e-02 4.862198950302864531e-01
-1.869523366688750216e-02 5.891707982506554087e-02 4.617110035313863881e-01
4.121454437753449551e-02 3.632911254079939506e-02 4.785350045942144415e-01
7.676787029279993381e-03 6.467094885014426642e-02 5.188084747768479943e-01
2.575006808596022254e-02 3.147513812083566759e-02 4.592723675219526625e-01
-4.165138284606603562e-03 5.987413145375129059e-02 5.382414473112863140e-01
-2.275971356252204369e-02 3.766369508949488770e-02 4.509114777081733583e-01
-3.435526986147043049e-02 4.052742216920999369e-02 4.524388962238665712e-01
2.755290982219216894e-02 1.110382845396702504e-02 4.511407427583155050e-01
3.639350925660026631e-02 4.854957431789690137e-02 5.010956282414678054e-01
2.076350163469125199e-03 3.688759486369530549e-02 4.539273333077475381e-01
4.131160215962085408e-02 3.894022825724940962e-02 4.928811287618871106e-01
2.889241870410486426e-02 6.086813656898325264e-02 5.015884768585171516e-01
4.026037113412091195e-02 2.648274856340909755e-02 4.683825990796457450e-01
4.651345114931398905e-03 5.950334947956868216e-03 4.419397453725846803e-01
-8.816938418953274709e-03 2.345040338134215564e-03 4.386718593164767310e-01
3.089344162262726637e-02 3.641352792764557256e-02 4.650039550871608030e-01
1.130119082548721940e-02 1.733842205091325889e-02 4.479234197289378994e-01
9.076394218091183783e-03 5.357457111263994737e-02 5.296389165215988903e-01
-2.329961597425141140e-02 6.158849255375416221e-03 4.385624158842461040e-01
-3.123560107592115651e-02 3.428836756893763327e-02 4.492298113010799732e-01
3.686296699410144401e-02 4.921142368041776100e-02 4.926110239368912680e-01
-3.683049278130244575e-02 3.864585668409341312e-02 4.516594394417018377e-01
3.620038358829189354e-03 4.800573893335333131e-02 4.581004776757093278e-01
2.143315115903024481e-02 7.196050031659878554e-02 4.956119084823834564e-01
-2.419082773808806444e-02 5.003657268567628102e-02 4.569481307885639443e-01
2.756975555763693103e-02 1.392368289641203113e-02 4.523062621930213911e-01
3.681238738355861739e-02 3.140689634812597608e-02 5.100551206130974347e-01
1.120733868952404101e-02 4.787643749752796413e-02 5.314238019416593906e-01
-8.748282528385208437e-03 5.194206994510471020e-02 4.573310639280112611e-01
3.639753014918167828e-02 5.006214003307966898e-02 4.926264166590543225e-01
-2.420714523911124752e-02 5.677343287334548488e-02 4.615693798744535115e-01
4.367399485494016104e-02 2.360396759644250997e-02 4.985609280538487176e-01
3.912710675173456873e-03 4.825077976510214195e-02 4.582600010219476383e-01
-6.896258304684383354e-03 3.878907009009640444e-02 4.532254097188926911e-01
3.585190184392011287e-02 4.847673518736539400e-02 4.800130567259071057e-01
3.490110423382681432e-02 4.207929784409842472e-02 4.719668265594552659e-01
2.702576356450156481e-02 6.020495407917917513e-02 4.748827721205302610e-01
3.084948890446877201e-02 4.878730638182235402e-02 5.117146063340554107e-01
2.289382545645431491e-02 5.789641687008598159e-02 4.699778512998158964e-01
-2.820291142688192976e-02 2.500947290293476996e-02 4.454910568049945119e-01
4.116918537633940806e-02 3.954142836788949317e-02 4.923048461818318455e-01
1.035836742620321535e-02 3.856263984846237947e-02 4.565102409796843452e-01
-2.336848065927162738e-02 1.447839071674750580e-02 4.414522837615471595e-01
2.578809043637539378e-02 6.843207474313899030e-02 4.871996434266237519e-01
2.962838580376783715e-02 2.234224096142979621e-02 5.249477786086220732e-01
-2.947066146427318543e-03 5.926151632937447233e-02 5.364455438221997774e-01
3.398304011107976946e-03 6.579326088468562261e-02 4.645168540621004705e-01
1.615453726706178594e-02 3.876586138410822308e-02 4.582646231555105865e-01
2.045355300921281733e-02 1.001685767818222099e-02 4.474715947422067686e-01
4.796847646957170044e-03 9.807785824290244855e-03 4.435365283989914365e-01
-2.408682135791609044e-02 6.831977982480095038e-03 4.387805453673349620e-01
4.394138565242090150e-02 2.829239328882847057e-02 4.809958133267502878e-01
2.781136482003047916e-02 2.968794826744662954e-02 4.596226901980668411e-01
2.773834279042454096e-02 2.844860520094256301e-02 5.257645480896561141e-01
3.477660158714260957e-02 4.724621108964459359e-02 4.758776175906706540e-01
-1.757204795017825588e-02 2.546459268515733829e-02 4.459774392573191415e-01
2.666138214777433180e-02 3.284018176401836547e-02 4.604438660274207118e-01
-1.815799505855151402e-02 1.497067839330484817e-02 4.416628809353114749e-01
3.384280991717607268e-02 4.020532673926941608e-02 5.120118970433662486e-01
-1.725002817513294692e-02 6.078892724309774287e-02 4.673049591722781004e-01
3.988119182406652669e-02 4.174378593048298780e-02 4.825381960895363531e-01
5.276242240157295524e-03 1.689424926211425745e-02 4.464989810631712075e-01
3.455602483398825808e-02 2.007107335012846966e-02 4.594146838319858039e-01
1.258402887874559076e-02 3.866370939095842285e-02 4.571124309681619535e-01
3.848284094507036738e-03 1.634660763124072894e-02 4.459991596600359487e-01
4.365210102570739326e-02 2.521000977128856971e-02 4.969981923993267992e-01
-1.958723702328206417e-02 -1.545769632034883420e-04 4.372952894256244005e-01
2.526904771217291373e-02 2.147043466405525527e-02 4.543608871251114123e-01
-4.044298310633375609e-02 3.964622267798225547e-02 4.538050016230047445e-01
3.260939228038758908e-03 5.304493092106323665e-02 4.594926459516547324e-01
3.774144976385857692e-02 2.393666036812410261e-02 5.132847540444019918e-01
-2.073176011695866683e-02 4.438627182420797762e-02 4.539256442454545626e-01
1.237247558360184997e-02 6.217794310250255446e-02 5.244006066669631982e-01
-6.831284946842914804e-03 1.671168490690870534e-02 4.441554727550024451e-01
1.859122977802207116e-02 9.329284187728659195e-03 4.464636184174041178e-01
3.383501793985269068e-02 5.337288205964291210e-02 4.812392460094306323e-01
3.424214776906191887e-02 3.315620958068329904e-02 5.131852337203104408e-01
8.836600971862314594e-03 1.008639572284943803e-02 4.444484989537011987e-01
3.711274415943507238e-02 4.601177355368978039e-02 4.795191039590590010e-01
1.213407015219026240e-03 2.829547550551574087e-02 4.502883606557693819e-01
2.074304890491739453e-02 6.185325484520473593e-02 5.152023116984770779e-01
2.190515876472001744e-02 5.120481984922305684e-03 5.316308881373111861e-01
-2.707174087067181281e-02 2.529702566587092860e-02 4.456154688469697311e-01
-1.980812076164011060e-02 1.811305726982274586e-02 4.428183585538614797e-01
4.248885711398873999e-02 3.313354630278515789e-02 4.807819233776079448e-01
-4.350578775555121597e-02 2.705702659780511929e-02 4.481577014907947576e-01
1.801347495822393924e-02 5.751959899619755318e-02 5.211077167084469108e-01
-1.434113963454493670e-02 3.920895876771297861e-02 4.524860468677515124e-01
2.189642916283330437e-02 6.678536760148831575e-02 5.048986885809564340e-01
2.070405732453805409e-02 3.533823211606677839e-02 5.300075446937255741e-01
1.968525549635784938e-02 7.281233315374641135e-02 4.783100774861168691e-01
3.552007749585940621e-02 3.842994901233806604e-02 4.695784048273831668e-01
1.664109364611237457e-02 3.900885507250147904e-02 5.320259368002913103e-01
4.464321551913629643e-02 2.371910788261860636e-02 4.954114490289799333e-01
-1.163513838857439982e-02 5.517905626936909363e-02 4.582087264217264422e-01
-4.306652355033769967e-03 9.431370211848363189e-03 4.417718952444149028e-01
1.648667068734861740e-02 6.554799052247359259e-02 5.139360594693039852e-01
1.626172667365580887e-02 6.741334681662858319e-02 4.698196706797168609e-01
-2.016784477421984176e-02 2.019576537345708911e-02 4.436106826067891529e-01
4.004540007394244427e-02 2.741311685402915768e-02 4.686131782310766214e-01
2.289847443709168776e-02 6.841007810464869165e-02 4.771178865554474013e-01
7.133725964937880082e-03 7.239529986133536044e-02 4.703487263884810754e-01
-6.075842224031122348e-03 5.940673323196191818e-02 5.345026132521236706e-01
3.467148254491130011e-02 5.304401698973941481e-02 4.837533001012656597e-01
2.670580681853801722e-02 4.863603497182245050e-02 5.166311300610696433e-01
-2.267297538408111213e-02 3.052747688718754349e-02 4.476905841001931896e-01
-2.479936900005460208e-03 6.206355044077367655e-02 5.297182481625746231e-01
-1.031827802127895446e-02 4.350674556782268415e-02 4.544747949357924033e-01
2.506735869169423800e-02 6.940524350186971780e-02 4.870140130497484510e-01
2.759540603855654972e-02 4.163464179848157254e-02 4.654727016795097150e-01
2.197382645463921702e-02 4.782941462876928035e-02 5.205378263735478406e-01
-3.417840501354529187e-02 3.620611792859432243e-02 4.501450808249649604e-01
3.487680982495295484e-02 4.424744309565326050e-02 4.736368965662637875e-01
6.461166014164559240e-03 6.992184376015314617e-02 5.002952158696063467e-01
2.302489782867658819e-02 7.139063747890149469e-02 4.911184361117738595e-01
-2.402926475443583482e-02 1.434265897803288677e-02 4.414108116293406492e-01
2.559916515830404707e-02 4.607942222293064799e-02 5.180433223045343150e-01
2.510254467928860894e-02 3.661403982766840703e-02 5.264037625337563142e-01
3.768008040094943112e-02 4.754780334769528188e-02 4.847442240700789440e-01
3.419778330905475384e-04 4.285187953361180302e-02 4.558217444770463755e-01
3.018687105044672719e-02 6.168427465135375293e-02 4.879256875839136365e-01
2.726014260446167972e-02 2.582662482599170153e-02 5.260474002728031673e-01
-2.782583967996974522e-02 2.576461751458946833e-02 4.458243105659976391e-01
1.070942617407156378e-02 4.911415447733757933e-02 5.303834473169297681e-01
-2.576834381804406562e-02 2.940484154697952865e-02 4.471856352840312132e-01
3.436624642994556833e-02 4.553796721241349515e-02 4.739108906051300862e-01
3.288140074842655497e-02 5.669074477836176518e-02 4.923010977976196023e-01
4.350409036691013642e-02 3.094879304310323848e-02 4.856263923505446667e-01
1.036011491384122331e-02 2.370288524584567534e-03 4.417203595302051644e-01
2.494594248513554158e-02 5.272726911706228370e-02 5.170214522357859943e-01
3.110846258518836296e-02 5.949071358421097189e-02 4.940062903350100898e-01
8.273231702698276985e-03 2.288938940179688786e-03 4.412930023287084946e-01
4.052704259269519077e-02 3.440494753203329759e-02 4.751850724985637875e-01
4.369315051312308573e-02 2.306249178723158294e-02 4.733266644864731476e-01
3.960175065761044333e-02 3.680087329649838618e-02 5.020216959335931373e-01
-1.779860131608186668e-03 3.150702672428038614e-02 4.509842710332525595e-01
4.195743992800975153e-02 2.655073718478923733e-02 5.009471578857196405e-01
-7.368054059256023448e-03 5.095813320073544483e-02 4.570783032016474956e-01
1.214150792975114690e-02 5.452812453295332457e-02 5.263989361358863972e-01
1.520141623498292302e-03 1.076513885919652518e-02 4.433057746455221770e-01
-3.295388917946320828e-02 -4.011846568409082291e-04 4.388150673134501578e-01
3.264756558984420465e-02 4.767465681552940371e-02 4.735438023765253246e-01
5.221583103718436744e-05 6.274262637529096076e-02 5.323422679687315195e-01
1.227427254691691380e-02 7.161816214764842037e-02 4.702435270725537908e-01
2.581632427073939084e-02 3.981893749551582151e-02 4.634244241984067925e-01
-2.021021500970342222e-02 5.538639949731758577e-02 4.591358053146482598e-01
3.920825497108514079e-02 4.428516017665021925e-02 4.857049209209770013e-01
1.885413467742194432e-03 1.251348597911290488e-02 4.440825501649623419e-01
-1.490350922074488993e-02 6.589692136236040103e-03 4.391413503461549239e-01
2.230807280508331856e-03 2.412671857012613566e-02 4.488018395649024939e-01
3.635106066275148318e-02 4.901662112237134550e-02 4.822018418175839094e-01
2.532698047136980324e-02 6.706778218516089296e-02 4.961226469387727267e-01
-9.207232034793084302e-03 5.409075202197335258e-02 4.579141205989664121e-01
3.921234532953711549e-02 2.566613077517611308e-02 5.082293226621855675e-01
8.695066783561253634e-03 1.159857033055654643e-02 4.450413480175777758e-01
1.470641365753910107e-02 7.164323237348016460e-02 5.043963192629201675e-01
-1.063104955323803183e-02 1.701937367282515060e-02 4.436321673799402676e-01
2.395175898977896373e-02 4.472994802553477423e-02 4.645755324593044411e-01
4.225248121119092037e-02 3.596963259666358798e-02 4.893893853272370809e-01
3.584306928737840403e-02 3.000655674014428634e-02 4.655981081131654875e-01
2.345080316099719051e-02 6.670816489208662714e-02 4.757299461407702990e-01
2.639645436839822487e-02 6.427939756654954540e-02 5.010833959089365797e-01
1.311230182945915569e-02 5.653067959642861517e-02 5.247568083920325366e-01
2.393133347885094409e-03 6.924940514271356318e-02 4.664985433384702951e-01
5.859057494574911387e-03 7.705766642017919388e-02 4.780894837592428170e-01
2.214963010083582928e-02 7.122565120513003889e-02 4.951619898019384292e-01
1.655164460680833699e-02 6.168137321132307477e-02 5.203366227046709591e-01
4.212818773914214776e-02 2.893563643840341842e-02 4.985584456146153753e-01
2.748711734403426823e-02 5.011869246016743829e-02 5.153862655591944231e-01
-1.069975698394344706e-02 3.752324856783183921e-02 4.522557635470003112e-01
2.536216393188135687e-02 6.885827253482297572e-02 4.897782138606092683e-01
2.724242409449375776e-02 3.843658505763346278e-02 4.636906674249679505e-01
8.523198978363304493e-03 5.722834490163188764e-02 5.283580923411453911e-01
4.211159525757809940e-02 3.343227784169721523e-02 4.949966246088832733e-01
6.060211261547887758e-03 6.029550793100303674e-02 4.624663537686886094e-01
-1.157903842639649303e-03 6.085886900365434365e-02 5.260181279744208238e-01
3.386403400479391645e-02 4.885149002666168416e-02 5.075065314976862085e-01
4.928773984314001842e-03 7.123582116942382692e-02 4.700724636643589527e-01
1.150711276775685105e-02 1.205295381907404810e-02 4.458054867617415873e-01
-2.855309016889361756e-02 4.944710933821692272e-02 4.573260878489708858e-01
1.167421075715683806e-02 5.369725308106721579e-02 4.625210495391018917e-01
3.558850767194018938e-02 3.579024339678608252e-02 4.682422965401507042e-01
1.365831186822641895e-02 7.014270817554756066e-02 4.699832768863021482e-01
2.154373325039189713e-02 3.975260992949698757e-02 4.610658777874576120e-01
2.355136880690521933e-02 4.014858723106386890e-02 5.252517628399731020e-01
-1.420579778665605197e-02 -3.766891047275492191e-03 4.368052726003892050e-01
8.731237733475668422e-03 4.840585275409883814e-02 4.596433267448294946e-01
2.354755994119073215e-02 7.133514980751864965e-02 4.864299786166657036e-01
4.558010045088317988e-03 4.566089679987502675e-02 4.576775591916392161e-01
3.827054040816913090e-03 5.265330917639213931e-02 5.352844605966178282e-01
3.076601001379699121e-02 4.731230126224413024e-02 5.125541175389216608e-01
-2.441775331962978829e-02 2.566729713793930445e-02 4.457598531565580280e-01
-8.925080229670156323e-03 3.458901470709283086e-04 4.380406979615304452e-01
-4.002941422054459575e-02 2.929588528091151695e-02 4.481022943674955461e-01
3.322912465225345141e-02 3.676179065102604115e-02 5.136000818578508875e-01
-3.244623537363371113e-03 6.186699904945178186e-02 5.351903921784169071e-01
1.281470027304231797e-02 7.766628874328317111e-02 4.782767199889291221e-01
3.928978225319855466e-02 4.436178296302020763e-02 4.887497431912323775e-01
3.036212178794074623e-02 4.655094563241587990e-02 4.702315547200502377e-01
2.244135433289951367e-02 6.713571712341259712e-02 5.029562611544702300e-01
-2.749502170055650313e-02 3.836031584875104761e-02 4.510136778703415783e-01
3.850739254256614619e-02 3.122094129605278157e-02 5.061809967223331874e-01
-2.846334594830052245e-02 3.867994299597962010e-02 4.511673826586874991e-01
5.275294367761799129e-03 6.330618205364295370e-02 5.176782190784006144e-01
4.138575793538227382e-02 3.713991766090368740e-02 4.950667693208603559e-01
7.749991155382442501e-03 6.017808129149337243e-02 5.282189151588375653e-01
5.173023033014948965e-03 5.581767836041025277e-02 5.317219855311365873e-01
4.238591827716041427e-03 5.930964772140672608e-02 5.309120446675660299e-01
1.862485073698690041e-02 3.170735776436689468e-02 4.560323358564370988e-01
1.994097547924947832e-04 6.057500630943309788e-02 4.608348467956732697e-01
7.194273349075377272e-03 7.732835373405794188e-02 4.803001806142100927e-01
2.555629873071785588e-02 1.891507334844224480e-02 4.533301697618378756e-01
4.155026447730941763e-02 3.737838410280147627e-02 4.856078934261539581e-01
-4.377762140914061989e-03 2.863758273055694303e-02 4.493575249129973526e-01
1.305276916458634161e-02 5.423666764849573163e-02 4.632084192481445428e-01
4.261748696929404390e-02 3.231713324790992659e-02 4.794352160938066265e-01
3.186960414957223930e-02 5.826565773013663713e-02 4.936637941066550628e-01
1.618512771636464176e-02 7.648997226227598201e-02 4.890356009323613695e-01
-1.260187056423504176e-04 4.953559090915340968e-02 5.376347374638114074e-01
4.406907446673941076e-02 2.241473452683854367e-02 4.737974207046294350e-01
4.266594822186515340e-02 2.588375729370344380e-02 4.729335681783228829e-01
1.698115409633308565e-02 3.202875889636640216e-02 4.556521695265458582e-01
-1.944686457074770378e-02 3.210606924817661217e-02 4.487410155410533896e-01
3.454927438843530957e-02 3.062446381748721441e-02 4.647387751435995140e-01
-4.752998029334239496e-04 5.205130310539630295e-02 5.385600793214169180e-01
-5.858658745973751615e-03 2.643991085087490922e-02 4.481964033136679459e-01
-2.572551489160055087e-03 5.952662545005919098e-02 4.600289393167017460e-01
-2.177685029068095190e-02 8.809308679202047104e-03 4.394274069531383664e-01
4.242928976831660676e-03 2.956290592880651130e-02 4.514138050091237586e-01
2.340100426309755371e-02 4.527937641614780684e-02 4.645412680760855895e-01
2.812762878695570720e-02 4.843590142792843223e-02 4.695575022705195112e-01
-1.470947178227627848e-02 7.920880861561358649e-03 4.395879322546528689e-01
-9.950821697373379848e-03 3.738220962989472623e-02 4.522992791633393406e-01
2.434936810999113743e-02 3.882947868790828649e-02 4.620513650507793169e-01
2.168780879681982479e-02 6.842409792756028175e-02 5.021608964643412554e-01
-1.966076691969376958e-03 1.711098777042850336e-02 4.451762833945643871e-01
-1.426043591685065975e-02 8.590960976174146640e-03 4.398734320900429262e-01
1.728233244620983045e-02 1.041747866818576625e-02 4.464611099789366766e-01
2.888936706441673757e-03 5.822252922524086965e-02 4.608546839890497737e-01
1.170633559978586508e-02 6.273245720398759606e-02 4.655285230068195723e-01
-3.631710741539580841e-03 6.719425450028058966e-02 4.652214287091123723e-01
-1.599489956794610066e-03 9.136816815518773033e-03 4.420772748481122671e-01
-2.018024554175341587e-02 3.947222175656530524e-02 4.519352500052081223e-01
3.775657160025105985e-02 4.676614807651997829e-02 4.997951224305524631e-01
-2.537605112946335340e-02 5.717636746870818909e-02 4.627937591913834914e-01
9.741407560512468575e-03 6.375592309680216951e-02 5.233649969507030431e-01
3.340492725408084063e-02 4.603557684388740606e-02 4.730242880155083873e-01
3.740875220733629047e-02 2.802080359756967814e-02 4.659690125769884728e-01
1.329874039441896957e-02 5.224942003461988116e-02 5.264187188215109225e-01
1.051068684357437007e-02 3.895651950943395531e-02 4.567166821980946922e-01
3.952584538729905783e-02 4.403389803647859285e-02 4.918740410937658125e-01
2.354664550425841427e-02 4.690389999610458660e-02 4.653630289271967757e-01
4.080847419243001720e-03 5.576829804287094378e-02 5.326134831802661340e-01
3.490405742756776120e-02 3.811979360055272464e-02 5.105206754027629135e-01
5.674082211349472209e-03 2.153873651020399294e-02 4.484409183812176902e-01
-3.240062367263651065e-03 5.973197582519053361e-02 5.365209231385409394e-01
1.055448038275827623e-02 6.696885419745260415e-02 5.098639255708706797e-01
2.262174241799111418e-02 6.428075658876951370e-02 5.094568247527372362e-01
3.758179036052172045e-02 1.883871727022812942e-02 4.611499394196637569e-01
2.322971279567281194e-02 3.009292564216249632e-02 4.573085001334461497e-01
-2.193906175545378562e-02 8.213414127502344231e-03 4.392587131161385106e-01
-2.268618133539868856e-03 6.601125358663009757e-02 4.645009428199995405e-01
3.820251620066390796e-02 2.439637016135443731e-02 4.646906159719285112e-01
4.917634117623855688e-03 7.724688578882134456e-03 4.427084750454202688e-01
2.622937020294628663e-02 3.859894041612702692e-02 5.227595094052492897e-01
4.823505565887701782e-03 5.947508364045296647e-02 5.304746853089381542e-01
3.063799401394447924e-02 6.036068695860764832e-02 4.935855291589140714e-01
3.326330221002844756e-02 2.855543998654090990e-02 5.204618677332085719e-01
-9.590648242365457793e-03 4.740397156884681301e-02 4.557906442241985157e-01
-3.653949136248754032e-02 3.963802962750710007e-02 4.524267038314069289e-01
-1.316514220281063408e-02 4.535518186464580076e-02 4.548230105043935545e-01
3.472066174268224892e-02 4.926448375486022074e-02 5.049110378693608681e-01
-1.908356290793270047e-03 6.150029137212587732e-02 5.280469713624658112e-01
1.341092878560189161e-02 5.723697759165499027e-02 4.643019985196811250e-01
3.381667710698299523e-02 1.825357560862109901e-02 5.228114840787575490e-01
4.270150363153733114e-02 3.341116410429360861e-02 4.846948776117327995e-01
3.015551552787272896e-02 6.094208190581248269e-02 4.948972784873417741e-01
3.418163099860584142e-02 5.463690561472924617e-02 4.866524996779424406e-01
1.692299946111285036e-02 5.342035638928242791e-02 5.228455103158713424e-01
1.188474540157828836e-02 3.730766075725350239e-02 4.563577699161683876e-01
-2.894194489270062939e-02 2.161784610946059643e-02 4.442542593969047160e-01
1.923933265624598599e-02 4.615587605685703837e-02 4.627965358639841154e-01
3.013861207394464420e-02 2.799663425378792758e-02 5.241566590642083856e-01
3.488088524805364049e-02 2.696627097314090865e-02 4.630677189331449117e-01
3.742926688384287659e-02 4.622623221604049704e-02 5.015161600186972546e-01
-3.028206347524259323e-02 4.365954712121379588e-02 4.538755655553029511e-01
2.673248974942191852e-02 5.374950046817370680e-02 5.141973158367783014e-01
1.967633693877335332e-02 1.906380728391405405e-02 4.504988852079375716e-01
1.097281827867503320e-02 7.515162414693227211e-02 4.956131401694661154e-01
3.270986001330937476e-02 4.812892890354677350e-02 4.739812704571587654e-01
8.719439678557708989e-03 4.147343611119790746e-02 5.346883864909197648e-01
1.031099165588671152e-02 1.343879399504500048e-02 4.461222592132657039e-01
3.820951728950664622e-02 4.396035972431833194e-02 4.794499088331584113e-01
-2.151304067768612920e-03 4.842559519017062414e-02 4.569817513507308249e-01
2.620751604687954553e-02 6.740297281792180517e-02 4.910770828227967177e-01
2.552600781069575692e-02 6.429995110671965497e-02 5.034939098692037263e-01
2.845919250867420813e-02 6.193618898277054169e-02 5.008024655086432686e-01
3.150935139924917333e-02 5.816165202581029953e-02 4.966919781118973587e-01
-8.241136556244392161e-03 3.523436593101169495e-02 4.515896456865743369e-01
3.357079553349429091e-02 5.559548614953137985e-02 4.850594714588004064e-01
1.465048199994551173e-02 7.443902503209774701e-02 4.745546684222665124e-01
1.265761538079080567e-02 6.815496912757802728e-02 5.098292266581515575e-01
1.077444087755190759e-02 5.071755265182262273e-02 4.612199706012339306e-01
1.280401593994023868e-02 7.555670065034832128e-02 4.949674946388168406e-01
3.315523266175822437e-02 5.296453785634618050e-02 5.031260537202466576e-01
2.014812177980025362e-02 7.467148769729350932e-02 4.927505956552501454e-01
3.442073419330039796e-02 3.988929683684327293e-02 4.695161512930569048e-01
-9.710884819613588292e-03 3.902738104166279809e-02 4.529864114692639943e-01
3.350078414500477775e-02 2.548984525886959993e-02 5.209783089528448041e-01
2.829348967076196486e-02 6.367574522668231762e-02 4.808123590642184308e-01
7.809753952534489660e-03 5.070105073342593555e-02 4.601395853151430959e-01
-1.964868127194933922e-02 3.085961042229640877e-02 4.481606397806250919e-01
2.658043325397714193e-02 5.109949964045979592e-02 4.696838032773035798e-01
7.913539581696003682e-04 5.051079595089913443e-02 5.381042749393735170e-01
1.062085155540203572e-02 4.142795403762834089e-02 4.576866607589780700e-01
2.277277887256549255e-02 3.978252763693782001e-02 4.617051590803946670e-01
1.258286997691951056e-02 6.954146387619766778e-02 4.691440767093328912e-01
-1.242391957496750314e-03 7.002672713297264373e-02 4.703609484273697516e-01
-2.996352388863104954e-02 4.054007123008356722e-02 4.520232900752870764e-01
3.203658470843030043e-02 4.532097820133577926e-02 5.116612247727443386e-01
-1.283558526656625350e-02 -2.854530801935897984e-03 4.369785534056723764e-01
1.525187509770016027e-02 4.935318084179778075e-02 4.622576622520331857e-01
3.934087384958404043e-02 3.389409023166502916e-02 4.724223101091118426e-01
-2.893324197738714361e-03 1.386485817684207991e-02 4.437262869294565926e-01
-2.272422521071551169e-02 4.281082833410909672e-02 4.531211984644328838e-01
-8.360033161317125677e-03 3.748740154544687869e-02 4.525629811486765464e-01
3.443231546290746042e-02 3.461115068375157644e-02 4.666696209644632387e-01
2.123099338479031428e-02 7.408778902212841133e-02 4.899351526191675354e-01
1.645384737751869747e-02 6.490691476883325706e-02 4.688023231675003122e-01
3.759074591531989806e-02 3.789855143676624377e-02 4.726877916644132704e-01
-2.847484265804163528e-02 3.201701360043345684e-02 4.482750453220151754e-01
-1.589902408702626585e-02 2.210632479698319136e-02 4.447919834785275528e-01
4.156094890074880227e-02 2.161616271059747449e-02 4.677992259718210533e-01
3.053454801151846837e-02 7.087445189625889153e-03 5.298356081679708174e-01
2.378876764531061977e-02 6.390379454328355691e-02 5.083599765632794698e-01
2.427143512522443418e-03 3.920856006788946135e-02 4.549326824534999925e-01
6.004411776773650039e-03 4.678208900667735898e-02 5.360984598624959352e-01
-8.847341610402729983e-03 3.480020963506813558e-02 4.513092537389414849e-01
-2.464103973094830449e-03 4.788743817341144238e-02 4.567646664403146040e-01
1.912509443658156824e-02 4.280467499664162428e-02 4.612793259926676881e-01
5.215412087799712812e-03 7.028183919001133872e-02 4.675781238070371160e-01
-1.473443013007714672e-02 3.959989484108518421e-02 4.525810186014323500e-01
8.129237468567161728e-03 5.173852809418996723e-02 4.605848398345749883e-01
3.682303108775161760e-02 2.190675427854436169e-02 4.620545978690641653e-01
-4.795309991265149160e-03 3.789252838153812225e-02 4.531142675265034669e-01
-2.591799048854454349e-02 2.319086670777378238e-03 4.380826981844090362e-01
-1.005283848344678405e-02 1.402714531249300844e-02 4.425946838294212426e-01
1.456189460372357344e-02 5.464553198681870727e-02 4.639404068318456198e-01
2.992822873776156481e-02 6.090418245217368853e-02 4.968107261794310614e-01
-7.708707657993066689e-04 4.629511150566392036e-02 4.565455894205952547e-01
2.103966044903910967e-02 4.456152222844031452e-02 4.630377605864818835e-01
-1.306400421076831918e-03 5.893927007122371636e-02 4.600098966118150723e-01
4.188389499871973676e-02 3.536878472850404909e-02 4.940183559945951486e-01
1.854919549308165980e-02 6.519401202092492409e-02 5.126239980914220062e-01
-3.295034316700481448e-03 6.264529786406371203e-02 4.620078271514383994e-01
-1.563603118875581816e-02 1.911209745722096051e-02 4.436990890498277995e-01
1.693939910589523784e-02 7.274507339373162407e-02 4.744727020453017308e-01
1.824720952494396017e-03 5.472676262224563520e-02 5.353893371470070939e-01
1.534290745152272657e-02 2.427646222810753152e-02 4.517427615917361527e-01
2.203427319389787351e-02 4.236862667461163690e-02 5.247385000802180510e-01
1.762495021036204756e-02 4.107711347231987609e-02 4.597059835568131358e-01
9.157313194936959194e-03 6.795044071388596507e-03 4.431657287967512016e-01
4.459845017761724512e-02 2.534358698754084205e-02 4.792484967429662124e-01
1.932293901770475164e-02 7.391379063417928552e-02 4.794291640635398588e-01
-5.937932373733947368e-03 3.541355986497642799e-02 4.520007720755756520e-01
-2.318577580564521248e-02 5.267437199610443960e-02 4.579488202331164493e-01
-7.033887051478556612e-03 4.347337150192005784e-02 4.547977928474807308e-01
-1.807592266679231008e-02 1.777455627514828995e-03 4.376860791106448878e-01
-1.205693113369045791e-02 3.297688878130353163e-02 4.500494249820568005e-01
1.851323899301792093e-03 3.900147856158635989e-02 4.547381963802391014e-01
1.653915875546771094e-02 5.775645439598350167e-02 4.658628389212803311e-01
1.611093910271188187e-02 4.810853408658757879e-02 5.260611597343017865e-01
1.485652239118351488e-02 1.576364552500825189e-02 4.480556633704351754e-01
-2.008197015998294810e-02 5.940767066688566050e-02 4.629372555632821351e-01
3.173706058979039457e-02 4.637804576065726603e-02 5.116522745914373616e-01
-1.401778170505714634e-02 4.593826180475892723e-02 4.549232715526502768e-01
1.159830557454987442e-02 5.157877743667863002e-02 5.282828873256808500e-01
1.708810229486647583e-02 4.080391904888699267e-02 4.594211997878472342e-01
4.560872687844910733e-02 2.368044152278276845e-02 4.853281186487904963e-01
-6.772026800435447524e-03 2.211393995272477667e-02 4.462561326582551446e-01
1.857105149082032350e-02 3.140961267065839335e-02 4.558845678464035767e-01
-1.705384553662976990e-02 4.584281242337396450e-02 4.547182662639939199e-01
-1.740669813567773810e-02 4.112815925316632565e-02 4.528943459136552940e-01
2.020872320767579458e-02 6.567962188333047180e-02 5.098040188908676829e-01
-2.381679539288182601e-02 7.642229139548335076e-03 4.390387764443527407e-01
-1.448761490638756852e-02 5.421908789309784482e-02 4.578974682782538386e-01
-3.584076209563796713e-04 4.501582302019464799e-02 4.562764537239375473e-01
8.575398893903575862e-03 6.689699806410702443e-02 4.664135022993862179e-01
8.340764732614731544e-03 5.582675276413407578e-02 5.292033299305425320e-01
-4.130562710749480053e-03 5.363861660148237093e-02 4.581286118934553286e-01
4.296299655754255709e-02 2.588548889229827163e-02 4.737419162824030305e-01
-2.057764915392472360e-02 2.528137246912117234e-04 4.373740285479034706e-01
2.199769316327661317e-02 7.073250047324647349e-02 4.788985466594845586e-01
2.289849101534756001e-02 6.435638348784472607e-02 4.733493152679149052e-01
2.727022608689603361e-02 3.118913784447400334e-02 4.600136924535624949e-01
1.615393417340662760e-02 5.003764243908043197e-02 4.628869209054979339e-01
2.111897189311481848e-02 3.748312468993005714e-02 4.597255727634461664e-01
3.139929149293550076e-02 2.443101434577205772e-02 5.230107616683477012e-01
-2.060227506214879281e-02 5.115854789686827969e-02 4.569334872559172034e-01
2.104149129654189765e-02 5.506490022002018259e-02 5.193710190946799754e-01
1.496798463847200632e-02 4.376643075273536909e-02 5.320844936734284714e-01
3.840690363047744027e-02 4.570449711872793391e-02 4.839120355141158236e-01
3.694712222724554768e-02 3.267879594248680741e-02 5.088821484610728252e-01
3.996587414242287750e-02 4.170236394776030003e-02 4.962490563144979494e-01
-2.921290871928409333e-02 2.476073931527381783e-02 4.454289138607070986e-01
3.848488413262908525e-02 3.266323906308828129e-02 5.052511694641822482e-01
1.380373143163524455e-02 6.256981067299068056e-02 4.664490473446089025e-01
-2.201751441698934428e-04 4.792041697128633648e-02 4.571145162555454999e-01
-6.281210585616751885e-03 2.418990424304674411e-02 4.471626923962853106e-01
-1.295559030741076124e-02 2.531049773497692779e-02 4.464512747557748407e-01
1.257102839001826566e-02 7.599788172831413446e-02 4.754618509373398361e-01
-1.487309261890097656e-02 2.490763276979601065e-02 4.460163284316991938e-01
3.622662379914549924e-02 4.505212431437106979e-02 4.766141036113059060e-01
3.067521496309045734e-02 6.065891797523348394e-02 4.855701428620482485e-01
-1.996098592583156126e-02 2.590192363993677402e-02 4.459327747641343431e-01
-1.055661808255967983e-02 1.365913980013066034e-02 4.423693015025159103e-01
-6.418243694495472974e-03 -1.425522577779523041e-03 4.377303559559749258e-01
4.241921063777540774e-02 2.325858028879844788e-02 5.027248782359521329e-01
9.754760271877506092e-03 7.178864057131406629e-02 4.694292844616126947e-01
1.193866328666054466e-02 1.934424477718260649e-02 4.488774575195966232e-01
-3.339007758897342970e-02 3.241250065325679535e-03 4.392685150835805019e-01
-8.428640479019481463e-03 5.937274799761620842e-02 4.595874497988742258e-01
7.939503425697452214e-04 1.623142850996739731e-02 4.453578608971858199e-01
1.494392255016512017e-03 7.023206445234402018e-02 4.685995114633083047e-01
3.600601556070409659e-02 5.100742456429750715e-02 4.915481408462508695e-01
3.007450309646599214e-03 6.347707457121046226e-02 5.255774590256891976e-01
2.803832008919760962e-02 6.118591807980262171e-02 4.765033755237792490e-01
-3.437061638299715449e-02 1.782521558339648839e-03 4.391869805812145255e-01
-1.260294544328941987e-02 2.996222644919576891e-02 4.485053527532374962e-01
-1.921708709967502810e-03 4.993859497582360529e-02 4.574247285448093114e-01
-1.462830005284116754e-02 4.851934894422192668e-02 4.559409136634524073e-01
2.219620383754988824e-02 4.578397286158158996e-02 5.214668713816411616e-01
1.649947268152597568e-02 6.266473858075440051e-02 5.195099142579416851e-01
1.112172128702480257e-02 4.269198018723812521e-02 4.583838111559512818e-01
-2.062957210716949430e-02 2.771358688976061774e-02 4.466216794196074535e-01
2.774417171922464315e-02 6.415962330941041292e-02 4.955643650327357652e-01
2.128952560690085608e-02 4.504299001324415380e-02 4.633830368079976392e-01
-1.471528930956235090e-02 4.128891599396415646e-02 4.532492108539341591e-01
-2.710063151824698702e-02 1.225769905781966956e-02 4.410862115916799331e-01
-8.006633615461474299e-03 2.039803930286005103e-03 4.386545686580362591e-01
2.329418915790916825e-02 7.164016593729288784e-02 4.862181937706628876e-01
-9.224956751434573721e-03 1.226379665649351058e-03 4.382854459940123681e-01
2.705927035249401820e-04 5.795957909013669390e-02 5.345424493741320893e-01
2.957983884032899802e-02 2.328443533992978487e-02 4.575379711743063349e-01
3.068810430232304931e-02 6.035361959551555078e-02 4.931736578109658931e-01
3.764172096035916376e-02 4.262917568176131933e-02 5.039522249906315254e-01
7.978580122067476660e-03 3.123234176248446473e-02 4.529079962664320225e-01
2.029299937174048902e-03 6.252584687484238901e-02 5.325809814148525501e-01
1.530753645219855644e-02 4.515950439347508373e-03 4.434746874290945717e-01
1.947136392102951155e-02 7.548114671834225964e-02 4.879817977418311470e-01
2.934500539455208931e-02 2.058639624253304559e-02 4.561928581383878356e-01
-1.600962789334384184e-02 6.090585108516134716e-02 4.657111463603379464e-01
-1.633826443808164899e-02 2.314556286020020420e-02 4.451619554692851088e-01
5.147591862863466414e-04 3.744952365589917370e-02 4.538412925174920010e-01
1.458274429200676590e-03 5.199302421469337993e-02 4.586478776780265609e-01
1.527073984793051245e-02 6.528298812507030147e-02 5.161960501132627499e-01
3.942872403605059139e-02 4.347035625703091904e-02 4.844047623126216950e-01
3.483443324928154478e-02 2.656484485850345995e-02 5.185466483274802085e-01
-2.020222807523586878e-02 3.974143912498712822e-02 4.520432383061070980e-01
-2.425868225459321126e-02 3.303170458171431761e-02 4.487239953670614789e-01
-7.611734447181885480e-03 4.740139754470153177e-02 4.559498686633514097e-01
3.219319665198698208e-03 4.539111528137632079e-02 5.363312893987475238e-01
3.351916492569833456e-02 2.343932900120516624e-02 4.602158150563570582e-01
2.250884461132859199e-02 4.261108705440000421e-02 5.234051205208144486e-01
7.181532275906805235e-03 8.234370440132927904e-03 4.433622802196113266e-01
-2.101816474023524353e-02 2.521245088095061884e-02 4.455576618950157775e-01
1.506846525255163029e-02 5.496065290698582545e-02 5.237633540497552698e-01
2.860010187555071803e-03 7.282508682064711691e-02 4.724878346199583579e-01
1.672378729507269235e-03 1.897579910609527645e-02 4.466360386451126985e-01
-9.903817614297063393e-03 -4.632008808008162073e-03 4.368833496884496070e-01
-1.996649328539905864e-03 6.106224163522833842e-02 5.357642659265799967e-01
3.425255116697311503e-02 2.013382840509642807e-02 4.592362121750316883e-01
3.843994099866774455e-02 4.047512933851528383e-02 5.034762114671061939e-01
-4.380845218224368315e-02 3.348455627685079095e-02 4.500897958640627805e-01
-8.844522632202297951e-03 -7.700451179030769026e-03 4.364890009444420960e-01
4.394531294306844305e-02 3.007772694338557706e-02 4.885130521306189633e-01
2.996519231872992600e-02 5.959283067502341852e-02 4.781468101949834515e-01
3.575979842611775456e-02 4.300831222404780108e-02 5.077293117408289147e-01
3.974392781946832487e-02 3.943700968871473311e-02 4.782514808948670759e-01
-2.353608214563433082e-02 4.898701730891449890e-02 4.564256072748514304e-01
4.047879494509662446e-02 4.089718871147032808e-02 4.869652122767862967e-01
6.189353343144020879e-03 7.097076046280895167e-02 4.683373698017312958e-01
7.979649406458400041e-03 6.136416130217729054e-02 5.279019542042739932e-01
4.668274433344042976e-04 4.034822308123611062e-02 4.549584609832332815e-01
3.989013268337854995e-02 4.277243330334007387e-02 4.886473998355924664e-01
4.265810205328681576e-02 3.100592266829313437e-02 4.950167124871746593e-01
1.913837862490963895e-02 2.205264086518994235e-02 4.519230358791496704e-01
4.012777601618010281e-02 3.371653800735555789e-02 4.738098726111535375e-01
