1.403874848567114933e-02 4.609603451536663232e-02 5.298150746555984059e-01
6.305515660494654014e-03 1.807241851005464417e-02 4.472258904700701088e-01
3.346236759823594670e-02 4.740580821480275958e-02 4.745961657954975710e-01
2.927850033058236601e-02 3.419942109908083450e-02 5.223387662527618769e-01
1.261135772095932535e-02 7.688125138554965932e-02 4.764394948285656239e-01
-1.546613983100697358e-02 -3.352823019140542017e-03 4.368654127480047222e-01
-3.973948374040000425e-02 3.018256015992736019e-02 4.482261780532246775e-01
-3.445366561426341928e-02 4.393450117943729916e-02 4.551534726853251889e-01
2.618679461955392834e-03 7.093564710114280691e-02 4.703435968489348418e-01
-2.160187716993006157e-02 2.426243641574602622e-02 4.451427082902709720e-01
-3.979407465375289776e-02 2.920751158988441412e-02 4.479641027172357459e-01
3.347081352082460423e-04 5.473673197460109108e-02 5.370402489489746189e-01
1.538779770607641081e-02 3.582341321685295066e-02 4.569747386880394502e-01
1.117932118363940304e-02 4.588525502722697741e-02 5.334360391094150611e-01
2.743956179801983544e-02 6.266249048721529713e-02 5.021407931264301183e-01
2.525232979105371256e-02 3.642887080449826176e-02 5.262453964443190024e-01
6.203720407509983464e-03 6.358414188017576241e-02 5.265047175836014004e-01
8.083511703607160204e-03 9.404500493952545198e-03 4.440575243305243114e-01
-6.053782132834507022e-03 2.233459960280872666e-02 4.464940296117296814e-01
2.412442523501462724e-02 7.031460081376229854e-02 4.857246039328542708e-01
-6.140696401243034633e-03 2.363532662556959082e-02 4.469960047416264848e-01
2.340321939725480485e-02 3.916188926031217293e-02 5.262383048959310416e-01
-3.813738167841293492e-02 3.119131043170307940e-02 4.482380068855728039e-01
2.002228740600420914e-02 6.676772419834921257e-02 5.075335638700377849e-01
1.890217753034790366e-02 6.718914224723457340e-02 4.719147483469777193e-01
-3.815352621273820216e-02 4.209220881713277018e-02 4.550142193634455490e-01
2.137582450692483010e-02 7.251058867764928473e-02 4.936113075824358210e-01
2.965540472854416576e-02 5.770392869518881085e-02 5.047117507845534368e-01
2.909960060250907712e-02 6.158347555041191607e-02 4.799950945503946853e-01
5.626454097865629146e-03 2.657650692386880065e-02 4.505524873902326255e-01
-1.911780474821937054e-02 1.990193458580301333e-02 4.435687774470051248e-01
4.466232190991912925e-03 1.611253647208495468e-02 4.460665903346044403e-01
3.219429892176426528e-02 4.360755293892894235e-02 5.123529063268967843e-01
4.951402484048498046e-03 4.108614063105779646e-02 4.562974774523495536e-01
1.906327284385518975e-02 7.215341690617044224e-02 4.996159203444976993e-01
2.173967668469410988e-02 6.137646966880484778e-02 4.712424507153051834e-01
-7.701390754240155373e-04 6.261864889200176310e-02 5.339310916405224372e-01
-3.352742381182355347e-03 5.452475789884613649e-02 4.585825978983397166e-01
2.979852144303027361e-02 4.691987359732425339e-02 5.139399690468257065e-01
-1.705138077987928408e-02 2.286608392927115888e-02 4.449802525226307925e-01
1.215939115628468167e-02 7.597759610538257213e-02 4.916747355228084926e-01
4.080466829831781717e-02 2.729458663822888209e-02 4.703581394394567017e-01
-1.840125775467402192e-02 3.629258481645970813e-02 4.507339322231277423e-01
1.808379351234933735e-02 5.461580037482535038e-02 5.217818480809481851e-01
-3.747529084536655591e-02 3.761210302443527415e-02 4.509199098165047603e-01
2.515696172064272110e-02 3.308131608743835467e-02 4.598677908229438227e-01
3.605246957556437759e-02 2.730528687798828083e-02 4.645403410790732157e-01
2.208287511637776687e-02 7.000434527373311511e-02 4.980478601276712158e-01
-2.132380635673526356e-02 8.014243742074631666e-03 4.391827093536057047e-01
3.910181743477478267e-02 1.968336352829134356e-02 4.630989150574270630e-01
3.283322096687493752e-02 4.463685878891722469e-02 4.716045618745597356e-01
3.819779713676766525e-02 2.500835719887670866e-02 5.105592981514097684e-01
3.832970554702255089e-02 4.470743421149317443e-02 4.813156920794924298e-01
-4.135814334838899820e-02 3.673646097421837120e-02 4.514153749505652735e-01
3.829867786508477784e-02 2.537340533352137883e-02 4.655322639965203679e-01
1.142228213965117492e-02 5.224106872692971942e-02 4.622063514700519016e-01
2.904029428834912011e-02 3.483181652378122828e-02 5.219115467829770205e-01
3.490139148247839440e-02 3.123462372473517074e-02 4.656268310994909343e-01
-2.078002656659506953e-02 1.734591574127425373e-02 4.425050165877228991e-01
-1.662723657896428980e-02 3.866351035619080417e-02 4.520120743551532261e-01
3.335170606970356416e-02 4.395722088416364332e-02 5.105275783787861510e-01
1.808322020755922382e-02 5.407822835131274181e-02 4.655438852755101053e-01
-2.312368616644640967e-02 2.717593061566992568e-02 4.462953317895016481e-01
3.426508072546090994e-02 5.102241975090580917e-02 5.029811425394723479e-01
6.828544733252469787e-03 7.561268827792212710e-02 4.737927448170536349e-01
-2.632612837951188445e-02 1.726289989785550344e-02 4.424587549171616896e-01
2.226077197315636316e-02 1.412545566264351848e-02 4.498330704263811541e-01
-1.780014721246284820e-02 -1.303961802297771803e-03 4.370604624160664975e-01
2.377389873990878866e-02 5.021774636521741941e-02 4.674641947403106457e-01
-2.605240311395379607e-02 7.058899452997365737e-03 4.391517634396605585e-01
2.281356219704683622e-02 4.627682255091763314e-02 4.649675914605605476e-01
2.636671685695084547e-02 9.355031820145643870e-03 5.285151506787185705e-01
-2.389951867133333421e-03 6.015409896488058822e-02 5.258644369873837210e-01
3.680593310909453103e-02 4.930599642177221908e-02 4.858800743945265177e-01
1.469366551646057728e-02 5.491679447341351467e-02 5.242074790225599301e-01
-1.494910419498739380e-02 4.161726909993551660e-02 4.533940491769110626e-01
2.180984491158173555e-03 6.136884956788217493e-02 5.177104243460973754e-01
3.632775054006386062e-02 4.412597191021271764e-02 5.057101119937258416e-01
-6.927450903359007317e-03 2.476661875074072719e-02 4.473069699796949350e-01
-2.325684933187154718e-02 1.798912255521508199e-02 4.427416020081269554e-01
3.163202415239854681e-02 2.392255572043628167e-02 4.593272129645644131e-01
-2.777918622802017304e-02 2.333394302880910029e-02 4.447422489443295102e-01
-3.481111319452320774e-02 2.391806184238978034e-02 4.456323163130693210e-01
2.165775179559865232e-02 5.535614168040811633e-02 5.191340359208325150e-01
-3.058883102215181199e-02 3.236038263921862251e-02 4.483834185425327190e-01
-4.005156836738803239e-02 2.484819537702631295e-02 4.468039949674590949e-01
2.531245737554846387e-02 3.070800960699758206e-02 5.275277391612166467e-01
-2.242246809025722973e-03 5.857803679726561463e-02 4.599120840201490479e-01
2.296523783375744795e-02 6.582397104123197118e-02 4.747681806417174410e-01
7.719390011597663387e-03 6.965627423712011934e-02 4.679588734233644520e-01
-2.014668048450144605e-02 4.665508072666647854e-02 4.549471960091898692e-01
3.707994158364862937e-03 3.842446804331287047e-02 4.549817924011591019e-01
-1.463443116664371428e-02 4.193952440827080491e-02 4.535620937665843511e-01
-6.865027053294595408e-03 1.877010257204881141e-02 4.449545777491347165e-01
3.841540087000417519e-02 3.796235487628951688e-02 4.746068482474944394e-01
-1.929995423406786689e-02 3.781893360476611815e-02 4.513274603096780746e-01
-2.677693844230677120e-02 8.567542468697033481e-03 4.397139918164849615e-01
2.015884978741708244e-02 2.626954428294708474e-02 4.542750177977393222e-01
-2.087979692792770250e-02 -1.534531385403936632e-03 4.370031990779719711e-01
-7.897768088880721682e-03 2.193869058868515298e-02 4.460172142004096840e-01
-9.047923361881819032e-03 5.451711832834405663e-02 4.581125100566271757e-01
-5.747945212499636775e-03 9.335811974055169271e-03 4.415201010106630242e-01
6.516292412096188688e-03 6.963600174554059052e-02 4.677303914780369665e-01
-3.050615700290223303e-02 4.383347806542424452e-02 4.540331525269986068e-01
4.198019587268102953e-02 3.549539600521300214e-02 4.929203617156806549e-01
9.746845320050268047e-03 4.479079110224309240e-02 4.588563918484658832e-01
-3.335665762984421634e-02 3.418863397588109421e-02 4.492419464012735175e-01
3.006741619949448649e-02 6.150145456349288137e-02 4.872391145550429847e-01
-2.609686948945005511e-02 2.096470269742857495e-02 4.438538140631905216e-01
3.983500501401716909e-02 4.222417637377061383e-02 4.946371861354832977e-01
2.043149556103603451e-02 4.180862039455211787e-02 5.279425412236861126e-01
1.584582968944417414e-02 5.149323816036689011e-02 4.636020094243178957e-01
2.378232694342932371e-02 3.802350567538336640e-02 4.615902887653782760e-01
2.402426957117902856e-02 6.179168870729702390e-02 4.734870536697383114e-01
3.756766442248619942e-02 4.781286032088463700e-02 4.864644735173172529e-01
3.758387047481574067e-02 4.786333183475353220e-02 4.874396546586211576e-01
2.995596355463033336e-02 1.721116670868372278e-02 4.551857104817916277e-01
2.931487055770849379e-02 5.914110219912686872e-02 5.031157497522441568e-01
2.659310020922724116e-02 5.148348635450124278e-02 5.156851409757334803e-01
-1.928803415950559874e-02 2.968773574660315759e-02 4.476633008878778686e-01
1.441857279858361172e-02 3.676204558483058601e-03 4.429890942592342729e-01
2.853286118752697970e-02 3.873751146859504002e-02 5.182851620495143585e-01
-6.909312681325651198e-03 5.798483507498674444e-02 5.371261970090620563e-01
3.532185491518108345e-02 5.201773451090407896e-02 4.862999120785956308e-01
4.027353258010541587e-02 1.970083313873378580e-02 4.647871157353133387e-01
-2.899289118868191018e-02 3.929848704080896732e-02 4.514486714926219668e-01
3.315865876111004362e-02 5.354923621229105285e-02 4.802438346603304931e-01
-5.931806870140918925e-04 5.917019124775043520e-03 4.410165577540789972e-01
2.042993093807021071e-02 4.137018692566299394e-02 4.614788928612709173e-01
3.662327013766896594e-02 4.827520679622257505e-02 4.824308022006629781e-01
-5.402196074635129408e-03 3.603650710597656320e-02 4.523882420528965165e-01
-6.660184088651916953e-04 6.777503418182909134e-02 4.658043038680718673e-01
3.658363598031439540e-02 2.293495519449106554e-02 5.172668894412332241e-01
3.302276194599282691e-03 5.927911688320212230e-02 4.614521759196120176e-01
-3.886211672201028006e-03 6.083466657707731207e-02 4.607138621783827270e-01
4.103418402767904094e-02 3.942601736663169792e-02 4.900501904524667274e-01
-7.805518590166091349e-03 1.172959593314991215e-02 4.420863741802557034e-01
4.011847784840114062e-02 3.949731510670706491e-02 4.990580268760372862e-01
8.295053419606488593e-03 7.939120901247755102e-02 4.770167952117224663e-01
3.783958047222953092e-02 1.941422795577792126e-02 5.172592790819782183e-01
3.189755769219097814e-02 2.900925637180793923e-02 5.220584407351481770e-01
-3.670331456599226078e-03 6.179364972820807628e-02 5.301784029309766222e-01
-4.363248118455034102e-03 5.837508253740030656e-02 4.596107534139878825e-01
2.493569780758578269e-02 6.232142851139085837e-02 4.745737682817031677e-01
-4.461866832388271253e-03 6.193659011908797529e-02 5.322681394366991503e-01
5.099706281652831991e-03 4.865610861110840346e-02 5.362774439322338660e-01
-1.541710537785958950e-03 4.705877261512713544e-02 4.567517070382084987e-01
2.669401354966165901e-03 1.454712008588671113e-02 4.450758479048691485e-01
3.306895839574013757e-02 2.634590501803157903e-02 4.615636614968848250e-01
1.884235755330523204e-02 4.182186228601984107e-02 4.608774509338842695e-01
3.973886198084338600e-02 4.291987063474258374e-02 4.905358567469136899e-01
2.518735174008945518e-02 4.631187690332207174e-02 4.664446015463833417e-01
-1.926402787295514174e-02 5.760745774420762688e-02 4.604374263067757544e-01
5.240307433386652558e-03 2.066980208304357997e-02 4.480653103427305606e-01
1.161334403865378444e-02 7.396536432200929989e-02 5.001103755724231048e-01
-2.295419328512008847e-02 2.625058507924155418e-02 4.459378950741303971e-01
1.691756519954859539e-05 5.580926250025447510e-02 4.595187491547835790e-01
1.171305291436808629e-02 6.236980955240668811e-02 5.250198633608281762e-01
-5.687722517933766278e-03 4.613679736719443480e-02 4.558237938621936269e-01
2.902103287267909781e-02 6.280346722475971255e-02 4.835637508068396095e-01
-4.058912512657193022e-02 9.852930256396637190e-04 4.413325405551223324e-01
-2.582996439030042085e-02 2.936496267594819465e-02 4.471510443520164135e-01
3.663475915607614097e-02 3.816687519703385739e-02 4.715691102724996475e-01
2.180347817229577601e-02 6.959924661863441109e-02 4.994109832799003557e-01
3.363097749537857090e-02 3.807981372538420117e-02 4.681598012418022314e-01
8.210279256701237538e-03 1.425185505478208416e-02 4.460676587176389263e-01
6.894732929135527835e-03 5.364720959257445604e-02 4.609382497220734232e-01
2.892416430047996950e-02 5.381478480183246593e-02 5.115358336514846949e-01
3.907705839862388002e-03 3.563868072610431453e-02 4.539115385248008727e-01
-1.637005058070964414e-02 1.717650882321811526e-02 4.428127713191143400e-01
1.775436157126378256e-02 7.586060550532157387e-02 4.829683815453190143e-01
-1.663029592891715133e-02 6.060036421348177771e-02 4.637951502581392771e-01
3.455998982527763025e-02 5.305500280816181913e-02 4.932680336101071816e-01
3.990798098297840962e-02 2.298701419857517372e-02 4.659949424052652334e-01
1.629879378561723685e-02 7.017868408242128320e-02 5.060831844161306492e-01
2.090556324953424250e-02 7.177395222594377955e-02 4.972549704367705825e-01
-5.117451127196713523e-03 1.774079028598416277e-02 4.448509834274924635e-01
-1.364677074653040945e-02 5.782225313822521306e-02 4.594168373351701917e-01
-6.522391024728650330e-05 5.958478053681511705e-02 4.606248229723515775e-01
-3.546992369857748101e-02 2.287409555651434556e-02 4.453670855081386382e-01
1.285792757120452628e-02 6.835735644651297349e-02 5.106438889841083961e-01
1.768979824232573550e-02 3.907463881087112206e-02 4.590528493086475925e-01
1.694641676076029391e-02 1.625584102863421657e-02 4.487880731858631678e-01
-1.071369392135036389e-02 1.130817660805037532e-02 4.414601590029576528e-01
-1.413430680169635439e-02 3.001959303423638870e-02 4.483352326138843047e-01
9.507600227898552192e-03 4.475282681095928833e-02 5.354537369742305986e-01
-3.445380893231442254e-02 4.101770733386583129e-02 4.528417172215310482e-01
-1.112878735504814476e-03 1.761040401565103219e-02 4.455727296578846364e-01
1.002104269328186678e-02 4.637020561359734422e-02 5.340342144150294068e-01
2.181623345905264744e-02 5.833791235816534332e-02 5.169749912271471848e-01
-1.028177048041913066e-02 5.914667401979516875e-02 4.598345795371497902e-01
3.274872025517826940e-02 2.944715327743668842e-02 4.629176642903478078e-01
-3.682045957347997167e-02 2.566471790937505104e-02 4.464248394767085792e-01
7.809820724520625222e-03 5.660279906310555081e-02 4.622314252652283684e-01
1.667200325476663608e-02 7.243537485978822354e-02 5.024884984106333663e-01
-1.566060769553563256e-02 3.208252843595091330e-02 4.491437032940619467e-01
3.266304558188955903e-02 3.691453405330245852e-02 4.667481042062042729e-01
3.152270150179323216e-02 1.885541957127938317e-02 5.244315340913104917e-01
2.499719085623058890e-02 6.920414580250013048e-02 4.846027183076231926e-01
-3.073960197433988489e-02 2.923197135730803108e-03 4.388480162573497600e-01
-2.511261453340615443e-02 4.297457080769913340e-02 4.530845769317922156e-01
2.345846946692556334e-02 7.120083360558111807e-02 4.877742933458237840e-01
-1.907869049959205754e-02 5.985111375416780205e-02 4.634407082455665461e-01
-2.607627793428910976e-02 4.925282389982198888e-02 4.569142376576453279e-01
2.596032995848140349e-03 8.891337703022243744e-03 4.427667707759569415e-01
-2.821755394033358469e-02 1.775805450042554010e-02 4.428792692776207796e-01
-8.575410149346776589e-03 8.928871885742671599e-03 4.409216397558433087e-01
4.565745854931554243e-02 2.302881637548803359e-02 4.897358541111157537e-01
3.459771893238463430e-02 2.268501265956644405e-02 5.198814459287730561e-01
1.419965407850425770e-02 7.335957947331216145e-02 4.733452795700593407e-01
-1.475179606519418443e-02 1.314455575078440561e-02 4.414693116611198564e-01
1.443458425556246039e-02 6.381862582035384424e-02 4.676052535638481888e-01
6.597966517464703279e-03 5.459126749075938340e-02 4.611304947083857408e-01
-4.016548818472460286e-02 4.185820172184095272e-02 4.555414104676810960e-01
1.606852488620013480e-02 6.379559959278928438e-02 5.180407234342537803e-01
3.269813304969693135e-02 2.437396095098162338e-02 4.602538477805834805e-01
1.645621473452919554e-03 2.164416824505932882e-02 4.477452886426948608e-01
-3.125802964608345030e-02 2.434702848237580916e-02 4.454022747251082381e-01
-3.810994816423605991e-02 4.254237000877563596e-02 4.553549145671888509e-01
2.541620607777511989e-02 4.506354692262665163e-02 4.659778936334723065e-01
-1.512678565983039541e-02 3.961053535146812771e-02 4.525664668544617242e-01
4.797515681112861016e-03 9.773477556502364189e-03 4.435529892527747542e-01
6.502794464212189630e-03 2.819991413969466856e-02 4.514004163604954933e-01
1.256999395754701890e-02 6.628268416978344568e-02 4.677397190962849782e-01
-2.012065308008856648e-04 3.992597566794258562e-02 4.547697356542336200e-01
3.274260443602983878e-02 3.255453845721434369e-02 5.172430821617788332e-01
1.875287947326579122e-02 3.764632170295854896e-02 4.588136975954142383e-01
8.920491487901440614e-05 5.712626745744878859e-02 5.351118438731793381e-01
2.120486956509137072e-02 5.128698636825957530e-02 4.662089101874656305e-01
6.293501444875766390e-03 2.061261808039069332e-02 4.482502449625226926e-01
8.041537857493182007e-03 6.054611663365587482e-02 5.280025882084578015e-01
3.855850587937282442e-02 4.573058787692331484e-02 4.886390093310954974e-01
1.513060091709854393e-02 5.739510893306477846e-02 5.233831010871016209e-01
1.775749160991053899e-02 6.145974140501023891e-02 4.682931378411102630e-01
3.568526992457560221e-02 4.785201069032255644e-02 5.039752129465367991e-01
3.861807565387091745e-02 3.894521264541600525e-02 4.759386222328543803e-01
4.200170454139329906e-03 5.064367224335045159e-02 5.359331337333151923e-01
3.187696478709885206e-02 5.413817646525542759e-02 5.046550312951013639e-01
-1.277298266393176417e-02 -6.415043104974182606e-03 4.366343885528842783e-01
1.733926437612295229e-02 2.341217180371582204e-02 4.521097462356211683e-01
3.585911316785197339e-02 4.882007198064464149e-02 5.021433528063157237e-01
3.197353278738135351e-02 5.713025129874053920e-02 4.815309327360410840e-01
2.032030744622877194e-02 7.273198587135105975e-02 4.966219216818160143e-01
1.645987050031074567e-02 4.299097315464623509e-02 5.313800108487041207e-01
2.165128580328879240e-03 4.926573080282696353e-03 4.411089895495209356e-01
3.129680850260093544e-02 3.423681621472708658e-02 4.644022103696588966e-01
-3.259183006072247785e-02 1.617558529903671133e-02 4.430728981809741729e-01
-3.238799493459407208e-02 4.016485094510320597e-02 4.518560934473651036e-01
3.461793312191380895e-02 5.149842619226176893e-02 4.818536920130537804e-01
2.173018863764275208e-02 2.911682825683300363e-02 4.562298852787048387e-01
1.235405943689509706e-02 4.311356906143599954e-02 4.591119408566994298e-01
-3.423441381400272460e-02 1.932339796814224256e-02 4.441894871609298745e-01
3.720928935068475857e-04 6.142341922999300374e-02 5.245705590475824298e-01
-2.775814132790609470e-02 1.117934545624488067e-02 4.408530492829446645e-01
3.463975136151990764e-02 3.839115222533359684e-02 5.108412787153771006e-01
3.216033145395356257e-02 5.398455412682771903e-02 5.039570135470691215e-01
-9.747601455023773703e-05 5.597585660034669341e-02 5.358202855378374485e-01
4.089335114338563809e-02 3.894320135888080375e-02 4.857802684734646714e-01
6.884097942475422838e-03 7.125222084174313852e-02 4.987180787494315815e-01
4.075629685173241118e-02 3.295506309843752868e-02 4.748428440031034481e-01
-1.065850111400281491e-02 2.431201152942704877e-02 4.464609305433557829e-01
-1.639649571156441207e-02 8.473439926727326099e-03 4.394569890978739513e-01
2.188023910395268598e-02 3.345882394103098095e-02 5.295472463245893824e-01
4.318892708449872248e-02 3.156741428395973964e-02 4.855022815498312161e-01
1.909588454783912523e-02 7.426619877649921764e-02 4.959822713076670886e-01
7.911028801671583788e-03 4.598212281206914831e-02 5.360558878231647117e-01
3.729483728017431859e-02 4.787389860113343970e-02 4.845183009474164915e-01
-3.895391713188633975e-02 4.164765920861839693e-02 4.549411528277444994e-01
-1.167650887014222601e-03 6.290455967026566120e-02 5.315375406451924301e-01
-3.518034962118415931e-02 2.349409972036235056e-02 4.455355675868333254e-01
3.904749891422039376e-02 4.452198502332772867e-02 4.938093323212368047e-01
-3.186911205849454060e-02 3.906519834594858465e-02 4.513240637895217788e-01
-1.306300259341663418e-03 3.227784317931636782e-02 4.514458460510500371e-01
-3.880451143661186458e-02 2.742930089895978009e-04 4.407152022869376684e-01
2.421892428554080212e-02 3.906725581032171463e-02 5.250907320119623245e-01
-5.229418767970181806e-03 5.526682546261472290e-02 4.586240757212278196e-01
-3.614238231548565911e-02 5.145056160975151893e-05 4.396098402680641004e-01
-1.404760733814584307e-02 5.049451872830239968e-02 4.566434470219825625e-01
1.864370737131778796e-02 6.634748098857341791e-02 4.712409698569007821e-01
4.158383229755109600e-02 3.340167054804425717e-02 4.974764395952328000e-01
2.824814310672712700e-02 6.141408575410423759e-02 5.020737391175467135e-01
2.659443052674107660e-02 2.844781515736414038e-02 4.584440780521009673e-01
3.160019863475453661e-02 4.616663851680360975e-02 5.119357048882439143e-01
-1.462712453069284733e-02 2.911477021627230030e-02 4.478205736283630278e-01
1.793185459309352969e-02 6.465837913988857488e-02 4.698295174186341017e-01
2.811542395122317711e-02 3.138503502583874644e-02 5.256681713995919880e-01
1.084416380207557130e-02 7.312464021070595212e-04 4.413085378496237610e-01
2.086262529916605921e-02 4.162651719049238752e-02 4.618187178471223620e-01
-2.421025709045835500e-02 5.851108940390467583e-02 4.653268496000108057e-01
-9.288309281842016540e-03 3.909725548681752122e-02 4.531092248282102553e-01
2.442116996270409998e-02 2.672730811271284077e-02 4.564901650890185736e-01
4.127505735247671143e-02 3.851303436032253724e-02 4.933517118030042448e-01
-2.440707615826413074e-02 5.025191651676998161e-02 4.570556946769985807e-01
-1.375347582348804970e-02 3.899319178306174388e-02 4.525172622098342368e-01
2.862858231872811993e-02 6.406012421842580129e-02 4.891653381057372574e-01
1.333512074813739123e-02 5.083100756900233580e-02 5.270463340864468549e-01
7.750537490293588766e-04 5.926444448926785485e-02 5.335868297736230392e-01
-2.730674407985291159e-03 5.346645590812966475e-02 5.396783745525275400e-01
-3.929786925996138491e-02 2.391539630360933755e-02 4.464043846014854044e-01
1.754611378553330367e-02 6.534326769165771376e-02 5.133682826087457851e-01
3.407286651231429542e-02 5.434698132660518988e-02 4.910789203241918144e-01
3.740588909434085230e-02 4.415616265504002103e-02 5.031588854126455290e-01
-3.344447527527392300e-02 2.092263155720423817e-02 4.444930824623173904e-01
-6.935614978526936231e-03 5.933993883965270333e-02 5.322660961965504089e-01
2.091731636717328487e-03 6.344082005764432874e-02 5.269630987430601321e-01
3.206148793507068023e-03 5.539035044454444778e-02 4.603438708784807210e-01
-2.678021231665153948e-02 3.599073420978651794e-02 4.499624901195496962e-01
4.479767645732953690e-02 2.655754504767118482e-02 4.877889612565972088e-01
3.910859026500314306e-02 3.805668268858748010e-02 4.760543370997486479e-01
3.009575303769796220e-02 5.737906056017748335e-02 5.038943005633839123e-01
3.596064348715231201e-02 4.713796796960034730e-02 5.041023672386174548e-01
-1.903651432145193889e-02 1.435593102394008835e-03 4.376028818306553769e-01
3.359718369531342758e-02 1.614381351990852587e-02 5.238958371276835058e-01
-3.389594000353345071e-02 4.488188651954940628e-02 4.557043972559262079e-01
-7.575115458777338488e-04 2.654889268485363316e-02 4.492495565067113339e-01
3.500728877965383207e-02 3.386095990048424570e-02 5.121557585212759278e-01
2.767385926962853682e-02 5.403396682818426694e-02 5.129539932100245503e-01
2.472980035509479008e-02 3.282482036655247348e-02 4.594977009822196479e-01
3.872848430936113445e-02 3.280588009992722182e-02 4.707159955602027712e-01
-1.548312669671035244e-02 1.551792880869572525e-02 4.422471745674562693e-01
-1.907499335750686281e-02 5.435174961770191521e-02 4.584302741423680327e-01
4.382823819880177219e-02 2.908791589971713304e-02 4.911786498063318573e-01
3.209049099783503611e-02 5.590960661524457809e-02 4.801771765323080698e-01
1.153913013053563599e-02 5.743873119846635428e-02 4.638859302824376862e-01
-2.918363899872188257e-03 8.262078328983447212e-03 4.415499352364539165e-01
4.040706591098151140e-02 2.675883095629352434e-02 5.047980022856920490e-01
2.889632307593448940e-02 6.199195657396140702e-02 4.975713362262906836e-01
-2.162904286587810643e-02 4.155510077715949407e-02 4.526941624044188983e-01
7.713910622035886379e-03 3.874981887520094481e-02 4.560644290417767976e-01
2.088751065675509277e-02 6.426850402782864624e-02 4.720056083877990361e-01
4.290533760555825804e-02 2.929867203135824716e-02 4.771687534298507116e-01
-2.774772955752667289e-02 2.846002941984497603e-02 4.468502197454162772e-01
5.981911916844546810e-03 2.705456791518204632e-02 4.508225000487895429e-01
2.749474473974840641e-02 4.301619052076299105e-02 5.175375926229912604e-01
4.469519675995937968e-02 2.336954998005691050e-02 4.952456224733537971e-01
1.832118387951221089e-02 6.352313270171690285e-02 5.160848203219969843e-01
3.012792415329353796e-02 2.543529309409274519e-02 4.590497785908685402e-01
-1.675277846236920137e-02 4.167116959287862910e-02 4.532169426428128145e-01
2.870568486830394131e-02 5.849316539305805113e-02 4.760786085067864049e-01
2.850460894396834866e-02 3.080391686482412961e-02 5.253629309426807170e-01
9.632120397603572554e-03 3.054090383103075235e-02 4.530938558975418640e-01
-1.544640989518549293e-02 5.898555966454246263e-02 4.609231077713799585e-01
4.959737066475514849e-03 6.386046844757160834e-02 5.175071075575887747e-01
1.421325729086925574e-02 7.783574017494990227e-02 4.846195689185272548e-01
6.920479195042107678e-03 1.663621218501089988e-02 4.467677883548602513e-01
1.974141406113648356e-02 2.300465824324084488e-02 4.527143256444278174e-01
-9.021259926220482478e-03 4.729433510971686738e-02 4.558717953552622881e-01
3.021525493774271723e-02 3.870228013641109632e-02 5.165504227702283346e-01
-1.184608203405085325e-02 3.458266954843629282e-02 4.508228264756317105e-01
-1.138900385874827559e-02 5.594223286000406248e-02 4.585616209382484820e-01
2.284196731686031004e-02 4.394996961777506567e-02 4.638969906918473662e-01
7.393461807492024244e-03 7.047412992166478263e-02 4.683192610311384674e-01
3.394227314774821841e-02 3.725625168851235541e-02 5.125910115771042941e-01
2.090394199465370542e-02 4.027148183305181983e-02 4.611928536422515990e-01
2.913025036655171596e-02 3.880618129071331662e-02 5.176598286774639623e-01
8.613091647377779658e-03 6.415560800828820631e-02 4.651927390087428615e-01
1.068366331010487703e-02 5.264331227906305505e-02 4.620486107256572827e-01
3.070730157821525974e-02 2.997724063492947233e-02 4.617393906774258650e-01
-1.194211770740335197e-03 4.357397079454439909e-02 4.558191470816208013e-01
2.839045550453287228e-02 6.169067884463228651e-02 5.010373249330229983e-01
3.012495867662452406e-02 3.015811214135793311e-02 4.614368119605703478e-01
-3.250537581373196677e-02 3.409037829151140980e-02 4.491670327443142985e-01
7.060245836780889087e-04 3.263108094363745271e-02 4.520087083110270187e-01
-1.889307942118243974e-02 1.632562701031558400e-02 4.421265831354465048e-01
-3.050866496613268211e-02 4.690674848059526308e-02 4.563562258474669342e-01
1.498766840880676882e-02 4.591159568955228976e-02 4.610186918531166134e-01
3.103209288573589852e-02 4.688272094839651682e-02 5.123926345006155625e-01
3.320187343363690397e-02 5.478885460945932123e-02 4.968116314323026139e-01
1.804262147807012343e-02 7.284152627812591485e-02 4.764031407533831364e-01
-6.458358873119697183e-03 7.076806855384918001e-03 4.405953846885622971e-01
2.958433316852434377e-03 3.762360453991410447e-02 4.545027487278212042e-01
1.435212040361527434e-03 3.189080742993121581e-02 4.518567231378283200e-01
-4.007699684719601141e-02 3.331437645927011557e-04 4.410295901411160902e-01
2.647621763811597653e-02 6.089730547750769191e-02 4.752452339906392265e-01
3.372569719251719556e-02 4.266202070774334498e-02 5.106412573684605549e-01
3.414801909355735798e-02 1.896594506809878844e-02 5.222496572615229482e-01
-3.356240009683463150e-03 4.652752081004313950e-03 4.401173150077462570e-01
3.765774903602233520e-02 4.677980420451435806e-02 4.834242896714562310e-01
8.345932913226050687e-03 7.540113740045928381e-02 4.915843196990658526e-01
1.984785432949217124e-02 4.983890044383560564e-02 5.219230757555388678e-01
4.621753446314972105e-03 7.583599580647991389e-02 4.798392632150951242e-01
3.644626278561643312e-02 4.862093035664503959e-02 4.825068684739223790e-01
2.464890811485598993e-02 3.278473786411903457e-02 4.594316549526600291e-01
4.376867699820614216e-02 3.004849515144394217e-02 4.875820565569289888e-01
6.166851877529347034e-03 4.342437553136920675e-02 4.574617615123521275e-01
3.301032056103043316e-02 5.638948309915559065e-02 4.870404047092818933e-01
4.447940944243199135e-02 2.767800992596500947e-02 4.877711279789176402e-01
1.624926728203380036e-02 6.497278908498974048e-02 4.690850257849002447e-01
4.167770145831706241e-02 2.587514925075052458e-02 5.023193047618219609e-01
-3.709281072551169622e-02 2.223746140283717771e-03 4.397867188608258759e-01
9.130711405610083403e-03 2.638283488385196815e-02 4.512326874085338946e-01
-2.422480580588426760e-02 -8.693756177084680653e-04 4.373246576308684186e-01
3.107745747306054143e-02 2.279353905160296651e-02 5.234290934319446587e-01
2.997611016417289428e-02 5.042408390569609600e-02 5.118952131110907633e-01
2.801483215175026159e-02 5.536364077023356312e-02 4.735899887503821071e-01
1.850112381799385100e-02 1.073844532689136565e-02 4.470850064827979753e-01
-8.326729155027407306e-03 2.223233962855114890e-02 4.460590378814893175e-01
-4.263605540484301584e-03 3.307586740534653597e-02 4.512592807673357354e-01
1.963857089201906728e-02 6.634245211617925686e-02 5.089348000066257205e-01
5.383339726934942802e-03 5.708092149130344906e-02 5.309902337860343824e-01
3.694406626615955643e-03 1.803174773085989072e-02 4.466925583155380575e-01
2.539836214409087536e-02 3.562989423207563178e-02 5.265473876576262091e-01
2.908196967413301942e-02 3.591461736301735513e-02 4.637771664832726626e-01
4.124607570092385378e-02 2.255711222596164939e-02 4.680320422856196760e-01
3.604141324146147018e-02 3.405499886161753725e-02 5.098199203828620574e-01
2.147398816558303281e-02 3.927586621087188201e-02 5.287198721706718452e-01
-1.379991304902832526e-02 2.966735518455531490e-02 4.482073503477971843e-01
-1.248977070063772739e-02 -1.031732093521592862e-03 4.373180853652525735e-01
-4.276156310942001021e-03 5.911715815726660550e-02 5.379486120016948592e-01
1.974982738913859392e-02 7.497946445140804550e-02 4.915117822052564867e-01
3.034391904528677478e-02 2.395614165310125387e-02 4.584889439571777081e-01
4.728590607569169851e-03 6.729333838433869397e-02 4.660113850429880578e-01
2.623725563472519007e-03 2.232850664022887829e-02 4.482114808988660326e-01
3.497676349667600687e-02 4.704564168571116756e-02 5.065205143386668496e-01
-2.743588711958290863e-02 4.797055162151577651e-02 4.562127367134554135e-01
3.941875256687683154e-02 3.577860012335620093e-02 5.025499503560100223e-01
2.231731566110776999e-02 1.883810235454238396e-02 4.516953756013387666e-01
-3.996002519996657079e-03 4.464142757798461592e-02 4.555995350628032070e-01
-2.487322635333823195e-02 -1.295799162573369953e-03 4.373619932038136926e-01
3.419488948095138203e-02 2.267092883651018395e-02 4.605260742976242661e-01
3.389014020601258115e-02 3.571164880205844605e-02 4.670797519559899968e-01
5.654392256608285240e-03 5.131831704107556874e-02 4.598654215906610165e-01
2.029831939457367104e-02 2.084415062577778255e-02 4.517241893669043939e-01
6.976823714696998684e-04 2.296291917625997540e-03 4.399336321962220020e-01
6.940512912717152968e-03 5.064723525703927753e-02 4.600508662957135120e-01
1.763602829724409543e-02 4.543638888521034369e-02 5.262048789202772303e-01
1.923847294078533804e-02 7.537489623766403801e-02 4.869687471183807848e-01
1.788913646714359630e-03 1.089088703372938921e-02 4.434313530877280196e-01
-1.998408108651547957e-02 4.052706862578114161e-02 4.524020385184469029e-01
4.961601198738415860e-03 4.957092297166332956e-03 4.416251556200718187e-01
6.458788453838886640e-03 6.470549820601861901e-02 5.160832760758838900e-01
1.956025083187653071e-03 1.760161079644997212e-02 4.461742281330384197e-01
9.433348651588674763e-03 7.236025388109602885e-02 4.703675750768138708e-01
1.375243486430194860e-02 1.574982943397337798e-02 4.478782404267186434e-01
-3.032453443373024984e-03 3.796084312421973972e-02 4.534312650378317655e-01
-5.356042337174233073e-04 3.096749323290953065e-02 4.510722993253554747e-01
-3.460194026825449271e-02 2.951468830909525359e-02 4.474425324285020711e-01
2.705903146504248791e-02 2.520954156796913204e-02 5.263426139067860499e-01
1.760720193933625749e-02 1.536491338543751438e-02 4.485691696381739479e-01
-1.924200289638947070e-02 6.017579122790601281e-02 4.665395799639254770e-01
2.603046757007659515e-02 3.544492059076484458e-02 4.615570544526276242e-01
-2.791783185818604018e-02 2.969574593890976152e-02 4.473059797635673407e-01
2.146664372309199306e-02 6.897187238697720379e-02 5.013156772185859422e-01
-9.031593310567968130e-03 2.525478883464116545e-02 4.471379367711295072e-01
-3.765267165074349248e-03 5.883392586943549801e-02 5.374328471325510170e-01
4.065361716765501093e-02 3.714621416851569130e-02 4.988166718560856916e-01
-1.094017134990173633e-03 5.639510667559640561e-02 5.367743611017814498e-01
1.527095065578802473e-02 2.009563980170820524e-02 4.500111746143626301e-01
3.864755004697432994e-02 2.487156184532379744e-02 5.096850554524842147e-01
2.387025855361114487e-02 5.084232248674964982e-02 5.183632212817249618e-01
4.171194617222761386e-02 3.472862093959430685e-02 4.951151797757777917e-01
1.534486738393065972e-02 6.954567397951631758e-02 5.076622592379431698e-01
4.297192975711443264e-02 2.708643639360670818e-02 4.974534972682473355e-01
1.419957902446678487e-02 5.190879722049587114e-02 4.631298205349948516e-01
1.816155422517487517e-02 6.021530783732720327e-02 5.196830730475499038e-01
1.386195471787501042e-02 8.353244346464656564e-03 4.448807821494216719e-01
3.525987582017769441e-03 1.382136460603435729e-02 4.449508171912517351e-01
1.624754830598230254e-02 6.915588417422276202e-02 5.073750658283890935e-01
1.361778737194081724e-03 1.433580233972198831e-02 4.447323175608083323e-01
3.822384135284003642e-02 3.448813349733200612e-02 5.055458615450277859e-01
3.307829800271962911e-02 5.283923309594259349e-02 5.031945085108994187e-01
1.712147818696736074e-02 6.475789524580401191e-02 5.155067754519881973e-01
-7.839094011816791913e-04 5.640133271565559575e-02 5.361926641910623736e-01
-2.845447224886849674e-03 5.492966801106616281e-02 4.587537717733523035e-01
4.397880951304013186e-02 2.850901269495908705e-02 4.832681453109168301e-01
-4.757555132025943247e-03 5.471695319048539008e-02 5.397825583572439800e-01
1.143485757244197890e-02 7.901401135307370427e-02 4.810386628200830073e-01
2.344913056962946718e-02 6.079427096250102601e-03 5.314614145643610232e-01
-2.659419175350816872e-03 5.657298186190894140e-02 4.592632457212389441e-01
1.720490165494668530e-02 4.165299799974900297e-02 5.315036053590158627e-01
3.317560344567258013e-02 5.337827162143651827e-02 4.800604493270589357e-01
-6.480575285480900775e-03 3.054423712514086134e-02 4.498237475423646492e-01
8.721466014995626903e-03 6.355760674577184965e-02 5.257234619972793732e-01
2.228159793068584110e-02 4.743568598942391606e-02 5.205171281236287140e-01
3.249692297109384870e-02 3.245536598488683866e-02 5.179513263945745294e-01
1.857929378084106908e-02 5.836663664935311940e-02 5.206799868273851439e-01
1.150825768701779599e-02 5.002620662022411180e-02 5.291158869573430179e-01
1.415846472932902160e-02 2.199744431787297588e-02 4.505649831028284980e-01
3.359912623048651875e-02 5.424314639685441641e-02 4.959379506215410016e-01
-2.045300975066667581e-02 4.459641983061292392e-02 4.540542811529224565e-01
1.760547731226488194e-02 7.203806712326250861e-02 4.746459260540341618e-01
1.939419919081020877e-02 5.280791701590954040e-02 5.212043765370265591e-01
2.388265310787738779e-02 3.677675321745840775e-02 4.609755476083020054e-01
1.596998767346679768e-02 2.764845575919965340e-02 4.535244455047382495e-01
6.296525422915235683e-03 4.759538723518847055e-03 4.418094121570627641e-01
-1.092335093038822140e-03 4.630117015387222312e-03 4.404601524535530777e-01
1.300029680467627326e-02 6.105534249881104658e-02 4.657319780097649575e-01
2.225455903366078958e-02 6.336188217988229787e-02 4.727420161560965117e-01
5.372424323127768242e-03 5.959134520172446048e-02 4.622473282999030597e-01
5.964539267078812664e-03 3.835125592225548802e-02 4.554856160621166272e-01
-2.679153467090820973e-02 4.732098099887993570e-02 4.557759689510198498e-01
-1.229746416543684752e-02 3.673748862909661378e-02 4.517203296851124428e-01
3.556554425379658546e-02 2.781188188931351182e-02 5.146788342497912172e-01
1.735068634593127379e-02 3.563068842801182107e-02 4.575035623390910078e-01
4.083113739729319659e-03 5.805098689711642862e-02 4.613695581774616694e-01
-9.210286809426693894e-03 6.171678723766546582e-02 4.619219572879358360e-01
3.769022759260676203e-02 3.852974493409520862e-02 4.737866801682678042e-01
3.751567541074574130e-02 2.712864600766015655e-02 5.108164024632053657e-01
5.479988038655391261e-03 6.648815385261047650e-02 4.656683851898437698e-01
-5.175719537392309104e-04 2.222879575355426671e-02 4.475513136973107153e-01
