3.638979979076144289e-02 4.435785053721633814e-02 4.767045035044465418e-01
1.193850639252630984e-02 4.984978203738614673e-03 4.429960917067042314e-01
-2.932907519025989423e-02 3.919967393250738813e-02 4.513723418545255717e-01
4.429626618658014797e-02 2.558044609204793499e-02 4.934189507923290585e-01
4.368952313528996073e-02 2.514182697568390079e-02 4.967260738487763172e-01
1.950563529066420831e-02 7.488801892397775606e-02 4.850742861826744523e-01
-3.198635056050219694e-02 2.474395015684153348e-02 4.456145330648371150e-01
-3.657330620761040096e-02 -4.919497157834101797e-05 4.397219831564034287e-01
1.814576319406901658e-02 4.005755750624398481e-02 5.314127405741986276e-01
2.120316801970274605e-03 3.433772543621873424e-02 4.529626848905489722e-01
5.891444658577452143e-03 4.033056421072052367e-02 4.561761585569864552e-01
2.266800360725822281e-03 2.319876378281590310e-02 4.484549875728671142e-01
3.529614861123437503e-02 3.149852514118756108e-02 5.129483501661121769e-01
2.677474141213453951e-02 6.679573416814232889e-02 4.876279885789506219e-01
5.898210304530263938e-03 2.926274268031451783e-02 4.516673474735357074e-01
2.266089148762003361e-02 3.422531942355751949e-02 4.589516922527893672e-01
2.329629326904978856e-02 7.137794969343416729e-02 4.874871363908988009e-01
-3.298812030747969026e-02 4.340280975608457048e-02 4.542240244664839111e-01
2.088116346829940739e-02 3.891530575203562548e-02 5.294672956238207773e-01
2.823874932588762987e-02 3.049816722116914167e-02 5.255924126887039360e-01
1.263320158306304591e-02 6.539492088593441832e-02 4.672639836869270646e-01
1.871761711602095563e-02 6.756643032186011866e-02 5.072689575636054604e-01
2.192571876170144179e-02 1.709965613342136204e-02 4.506987498022582139e-01
2.719093364691923045e-02 2.200113552786149215e-02 4.556983008953858216e-01
1.386393882387495840e-03 6.979519495366159898e-02 4.670502102223234586e-01
3.086667532595630328e-02 3.365905163657357396e-02 5.196111532298290925e-01
-3.571118587626697163e-03 1.388359544328814262e-02 4.436043291412829492e-01
2.109532841071892761e-02 5.416222729937249236e-02 4.672289994936969504e-01
3.525705940246626896e-02 2.936914464762636207e-02 4.648834730559947559e-01
2.981269128593144052e-02 4.731681474703067214e-02 4.705205125093804841e-01
2.432856502845147633e-03 3.755396940044473941e-02 4.543092412427612858e-01
2.523613311001556003e-02 4.093997951252315026e-02 4.637631243426929006e-01
4.065653045173839297e-02 2.171650885045814036e-02 4.663656001464990264e-01
-3.517456421961613622e-02 2.590316665591448075e-02 4.463414107628202454e-01
1.538918817389691926e-02 5.905943992274838295e-02 5.227351012979464251e-01
1.414650018511130758e-02 6.614441951926527952e-02 5.148666427625222530e-01
2.354816183886404568e-02 2.634601481366574509e-03 5.327294103792552526e-01
1.324688275348638242e-02 4.542619994032470743e-02 4.601774346214234646e-01
1.972239797730798369e-02 7.049541919153556532e-03 4.459721178006508246e-01
2.374015089724644534e-02 4.982115255686968280e-02 5.186316592836986983e-01
1.653864606756208500e-02 6.953867020311338409e-02 5.065208214271957887e-01
3.704169552063801829e-02 3.545094489129152482e-02 4.697220463281998049e-01
1.981139563801855713e-03 3.077347694764520983e-02 4.514699066851950993e-01
1.824032490968904852e-02 1.276335560914134554e-02 4.478123729083403615e-01
8.584010326397849278e-03 1.565031782098576241e-02 4.466756854680380973e-01
1.912183428320414491e-02 3.344563012870868657e-02 5.306254684125362164e-01
-1.175074499918355234e-02 5.770094301511378282e-02 4.591667513515197974e-01
1.059433343916124474e-02 7.111284702604189767e-02 4.694814963879404002e-01
3.669136179896034106e-02 2.688419943231452197e-02 4.648541144719621765e-01
2.213063696714123035e-02 6.639367362836895436e-02 4.741097673539652613e-01
3.420942578183219090e-02 4.988841442911277901e-02 4.783819617306585004e-01
2.184516239212975011e-02 7.110089162026862752e-02 4.958619344944937279e-01
1.595097721451230535e-02 4.207317201054106004e-02 5.321851297399965430e-01
2.130143467061355878e-02 7.103805252377159984e-02 4.976286350949450377e-01
-6.717904744679300232e-04 6.050670880246629413e-02 5.241089207173260656e-01
9.594978304494398980e-03 6.613616492804806624e-02 5.109769205950024373e-01
1.371037396121716455e-02 5.645371239040349737e-02 4.643766238859567408e-01
-1.389177596367221872e-02 2.617068372864411741e-02 4.466357721816886506e-01
-2.491757954044508672e-02 9.424137046375785989e-03 4.396491676745498678e-01
4.060031830943465481e-02 3.886107136878441670e-02 4.810339868934654928e-01
1.281748850507573312e-02 4.453062774135741614e-02 4.597124757085513935e-01
3.110852100478992202e-02 4.563459003066311359e-02 5.125782071654060301e-01
2.877386112504206825e-02 3.111077422874551981e-02 5.249192085442154765e-01
-2.303443281558024969e-02 4.689832420092236720e-02 4.552433479883806200e-01
3.249141641748033715e-02 4.368159286626865923e-02 4.704017624439617018e-01
3.934275746602003410e-03 1.473812107897808088e-02 4.453769707390952126e-01
-3.830363566279265490e-03 5.949016045981421474e-02 5.263207161407339463e-01
2.358939344733356619e-02 7.060949454401310721e-02 4.840424990073735056e-01
3.829039575613102375e-02 2.633198721827157557e-02 5.095186895112586711e-01
-1.929257011558768373e-02 4.670075919601773123e-02 4.549457285392722872e-01
1.024716150961908247e-02 2.393709118123329982e-02 4.504216786548996820e-01
2.121155977354848357e-02 6.653741876437346825e-02 4.733879920176927159e-01
8.971078880696557734e-03 7.200472524369946892e-02 4.999319044759448771e-01
1.979336950001077053e-02 7.042407602612421602e-02 5.014607963479897901e-01
4.176468045435097892e-02 3.678199148032988697e-02 4.883813346210657547e-01
1.683215242121557931e-02 3.721351583454053646e-02 4.579290352433942890e-01
2.237579388981023043e-02 6.916095653148553180e-02 4.778214155291962695e-01
-5.501814158083063837e-03 5.191426015893123302e-02 4.575162974293867646e-01
-1.489665913381411043e-02 -8.151313104688582764e-03 4.366387218151110416e-01
-4.997003218480997912e-03 4.576140383196909342e-03 4.398594505907441610e-01
-3.922303355449890255e-03 -1.173135448228353368e-03 4.380397347940016561e-01
1.536642934691211625e-02 7.467049155213428824e-02 4.758351403856751483e-01
-1.377451270848976950e-02 2.617727041217147999e-02 4.466592164202342063e-01
2.341547261479121067e-02 2.529371736259889564e-02 4.552431251276704560e-01
2.804047278075877739e-02 5.887303091330374494e-02 5.077086566960636871e-01
3.944981809680521423e-02 3.012498683369935898e-02 5.044533459803455244e-01
2.471096776144399154e-02 5.566756373583760242e-02 5.154712114338635409e-01
1.508220961554417733e-02 7.585616549813795073e-02 4.781770353131637452e-01
4.284195510987768782e-03 6.299619580926318907e-02 5.221307680186978439e-01
1.398711893032060852e-02 1.412530671414723334e-02 4.472224959155016721e-01
-1.134887460833983869e-02 3.862486313090430362e-02 4.526566481430039368e-01
-5.493125728385356982e-03 3.188581791425366269e-02 4.505188471362374103e-01
-1.759171103163046507e-02 3.978757009474525458e-02 4.523086107518833332e-01
8.102368603025975058e-03 7.517555307334844450e-02 4.735771679078218388e-01
3.990413036243679185e-02 4.029466345704260655e-02 4.798065153436812391e-01
-3.057792505990175255e-02 4.266510659011100992e-02 4.531280386343085609e-01
2.846418878693386667e-02 3.398907650331355057e-02 5.239753497493487844e-01
-1.533063348820250596e-02 3.680842173697793790e-02 4.513153433053487262e-01
-5.303529474574883266e-03 5.733353608787747357e-02 5.245452860001250661e-01
2.407516935956397625e-03 6.337092513932443549e-02 5.290795026174127669e-01
1.684445295954415181e-02 3.680432249471815576e-02 5.318561079665179436e-01
1.796792452784697720e-03 6.437051872939114627e-02 4.636620859005478601e-01
-1.405618275429351000e-02 3.834061172778133880e-02 4.521779350757617610e-01
-1.151926434301259877e-02 2.377198742753423161e-02 4.460760143436459102e-01
1.104805235858763619e-02 4.142345066255925107e-02 5.344421201580651370e-01
2.577340725157972745e-02 3.646450489746316109e-02 4.618556175849889422e-01
-3.827031302151892578e-02 2.471971825141697915e-04 4.404676819952345057e-01
1.882459446336414918e-02 7.519420535575914444e-02 4.836890030094290749e-01
-2.523114298365531499e-02 4.333890817519259891e-02 4.532679473672034387e-01
2.991305422924492308e-02 3.720795591037066863e-02 5.168861703016207620e-01
3.045451966989439971e-02 5.175260267882678816e-02 5.104847243790655575e-01
3.393108338894434972e-02 1.727055444615914134e-02 5.230881147568740008e-01
-1.360017081336335060e-05 5.401394373499449064e-02 4.588960418872439218e-01
4.162338479924942297e-02 3.749086771134942792e-02 4.895364017036857307e-01
3.629630363563353043e-03 2.414782392648463089e-02 4.491062944171593796e-01
3.489995242261034747e-02 4.686133112626913316e-02 5.066707051245004090e-01
-1.741236436928855075e-02 3.728919998140488301e-02 4.512595004619514572e-01
-1.990028561184307293e-02 3.038995989934589054e-02 4.479005322195184768e-01
1.553848159666529859e-02 3.448535101502207129e-02 4.563718756797109366e-01
5.636098437926422532e-03 6.420828887906741833e-02 5.177849003185157617e-01
3.493060553657546807e-02 2.893316351349044940e-02 5.151713464301724832e-01
-2.905782631455623363e-02 4.926162824516932409e-02 4.572891660058706065e-01
1.756568973069048620e-02 7.518685773429321928e-02 4.798869606236100260e-01
2.628820074780173141e-02 2.464348112502571381e-02 4.564539530356556685e-01
-2.035765206458199986e-02 1.035190111638547086e-02 4.398817924653886102e-01
-1.870973770535644745e-02 3.378096661738869133e-02 4.495473310467037464e-01
4.454091050329577178e-04 4.329273331458997204e-02 4.560160158830217081e-01
4.050080518755642955e-02 2.418320461188568082e-02 4.675877363255451225e-01
2.794808318857850554e-02 3.449354595761190689e-02 5.242210138984998435e-01
2.217699470975065951e-02 5.364425737480225942e-02 5.188591174070996681e-01
1.381309677335834478e-02 7.551090692786119329e-02 4.756753363764952280e-01
2.302148152951995208e-02 5.249197597492138295e-02 5.184688563190447130e-01
-4.043391256658779992e-02 -5.835991081575334603e-04 4.407858282800037331e-01
2.530025752232952993e-02 4.024108203395589806e-02 5.218087655943216552e-01
-2.948429732266492562e-02 2.035306544619622238e-02 4.438283591816241103e-01
1.642460949582085633e-02 4.444268810621278959e-02 4.608763917963060175e-01
3.471482383644395459e-02 2.128801246429016733e-02 4.602189938841857453e-01
1.091599541315016811e-02 7.807902968051876058e-02 4.843294219270746215e-01
3.889338212258876964e-02 4.354560525508923557e-02 4.984483742192485356e-01
1.536079210455929683e-02 7.070634368029592165e-02 4.714760810259983059e-01
2.904280674462348180e-02 2.065831630813791051e-02 4.561388169582767382e-01
2.940013376652061625e-02 2.387185590337479943e-02 4.577865764514478797e-01
2.942868844616271413e-04 6.359476265518443361e-02 4.630698104381531510e-01
-2.594175536521318992e-02 2.038941615320944215e-03 4.380163875003480478e-01
1.697838287939833907e-02 4.293868879057539251e-02 5.308302854173001517e-01
2.154347450667180516e-02 3.889676252988714250e-02 5.287536805897579129e-01
-1.413879708249755549e-03 6.685845746608817808e-02 4.651513347761750405e-01
2.885699061982504449e-02 6.331896500571036757e-02 4.860381707262807494e-01
2.318585572973176287e-02 3.746709557218869113e-02 4.609173339682978154e-01
-2.904953620180871984e-03 1.601204259942221042e-02 4.445637382731358889e-01
2.132613454041672185e-02 7.257248949898874313e-02 4.829010616518718546e-01
8.169114125780359975e-03 6.921396814641447848e-02 5.063156839400427822e-01
3.503518468521579082e-02 5.212390844530842560e-02 4.932026627043603062e-01
7.295638794897161238e-03 5.155845695902639553e-02 4.603462371492939575e-01
1.666453083958809728e-02 6.630709220563414663e-02 5.117747043612275171e-01
3.551432139179838687e-02 2.503597336223067210e-02 5.177945375674291029e-01
1.402350435349507089e-02 9.519949594739878646e-03 4.453520941766423991e-01
3.215535729690476019e-02 5.671770710613353861e-02 4.964186397670879436e-01
-1.562364788233220128e-03 5.050675136863877479e-02 4.576806331294528962e-01
2.296650667311739627e-02 6.181016890686630988e-02 4.724533816430859789e-01
-2.361901824468796637e-02 5.711463943850356856e-02 4.614683438928004477e-01
3.722381257555804068e-02 4.530660052942495769e-02 4.792834317904207664e-01
7.432827437764015499e-03 1.086831025935472775e-02 4.445062701886607348e-01
1.584724741143935314e-02 6.772448755791266040e-02 4.700035992351606073e-01
2.403097538962125496e-02 6.044790671488951828e-02 4.726507896688315058e-01
1.105632942901219051e-02 1.847042827128185516e-02 4.483572053364505150e-01
-2.816090656991303287e-02 3.820028546396134900e-02 4.508910009434370925e-01
3.124754375875352791e-02 5.428678022240745332e-02 5.064999029082286608e-01
-1.222762524974497014e-02 -8.697936301226656328e-03 4.365121421871095420e-01
2.579998466460427242e-02 2.026511393415236957e-03 5.330750899457840086e-01
9.285473219296482700e-03 5.419438618987895695e-02 4.619250322205646353e-01
1.391867799779233222e-02 6.641557631366400150e-02 5.142501479153860355e-01
9.199651360610835993e-03 6.427089995617486784e-02 5.216588000589471585e-01
8.953833322894257790e-03 6.369360271820635744e-02 5.245765794072300148e-01
7.367691580479689487e-03 2.749396372220615573e-02 4.512577198684374347e-01
1.352097729610604593e-02 1.821599510066174502e-02 4.488070984411443032e-01
1.209746761758621544e-02 3.338757200541779546e-02 4.548091957180920852e-01
3.680248965973060421e-02 4.820186379914630920e-02 4.829268251190755312e-01
-1.338478328900227950e-02 3.680577814855800350e-02 4.515701618532543260e-01
5.006803931684187040e-03 5.596452548665894339e-02 5.316061995848041510e-01
3.519610142080165788e-02 2.197116315932397951e-02 5.191191672384652955e-01
3.333537745728014368e-02 3.898084594547351206e-02 4.683410231256023293e-01
2.707123169710998201e-02 4.099566103215664808e-02 4.650053676143816039e-01
1.615764477133054336e-02 5.815093728943261653e-02 4.660392189816927044e-01
3.522371018692914413e-02 3.943387901375636911e-02 5.098230667262135807e-01
2.676550253093821011e-02 6.606214541475120827e-02 4.924485767741989539e-01
2.686923801400141476e-02 2.779945478769419928e-02 4.582340009886343157e-01
2.991301190636631857e-02 4.085702301324300317e-02 5.163205881537719089e-01
2.499294045552278090e-02 4.296877721379197684e-02 4.645953230237551135e-01
6.431041706155661911e-03 6.060682560943360386e-02 5.290774517436814817e-01
-1.283696368255287691e-02 1.174644111853404699e-02 4.412239398940782098e-01
1.964143522553096072e-02 6.978332441767955141e-02 5.028672768326856168e-01
1.276422105657240048e-02 5.783154000434384545e-02 5.247363023839549667e-01
6.865707840211388718e-03 6.878346796763395998e-02 4.672365779673499642e-01
3.070671030731641007e-02 3.086810516031338048e-02 4.621644793303429366e-01
1.073792635261751165e-02 9.216671678613768542e-04 4.413294128726649723e-01
1.289201345573796724e-02 7.399915094640042990e-02 5.004148081558988936e-01
2.833195900156756236e-02 4.801896671111471893e-02 4.697197343094706157e-01
1.208395257802173314e-02 6.764517357487587201e-02 5.108341130124449680e-01
2.132229627093052554e-02 4.340186130542972309e-02 5.238784016269401045e-01
3.424095465545156508e-02 3.303293666267505951e-02 4.658901182628903959e-01
-1.896027291830906661e-03 3.588392294006505917e-02 4.527552475357501383e-01
6.828359318132477818e-03 1.198937874526621004e-02 4.448445357995552407e-01
2.526737109185368466e-02 6.881875293247470549e-02 4.872607328440269892e-01
3.077318093290408105e-02 5.384422965945961231e-02 5.090168164744128809e-01
1.373798704754994673e-02 5.781909888658288976e-02 5.240609458825602474e-01
3.231160224405218301e-02 3.736564478415869972e-02 5.143842289843943982e-01
1.360246571880956677e-02 5.021871610585433576e-02 5.269431784210838465e-01
-3.540346195155403761e-03 5.791674859786967444e-02 5.384979903017150793e-01
2.759902565109154104e-02 4.890376637369322349e-02 5.157953814776138346e-01
6.929348778374888954e-03 6.398521790595301795e-02 5.227931621382311267e-01
1.033158916373805650e-02 2.475251956917959989e-02 4.507807061166369533e-01
1.052812506097408531e-03 3.639691153605390667e-02 4.535577946072899547e-01
-1.121440450043098731e-02 3.511373189695725372e-02 4.511133260033331482e-01
8.547222353551651650e-03 7.193536517708770672e-02 4.693517102015913878e-01
4.355506199923625532e-02 2.984544161983605087e-02 4.832109878675283077e-01
2.765869647002801301e-02 4.746389820841259016e-02 5.161276840680525391e-01
3.601778996892918139e-02 5.070189083050075096e-02 4.913675846665958025e-01
4.118304428737129541e-02 2.551087777299778508e-02 5.037890917743762520e-01
4.238449509669400123e-02 2.558736636841417791e-02 4.724199353293736525e-01
-1.682381057534775709e-02 4.837914724157117013e-02 4.558044431202416535e-01
-7.887678035599256579e-03 1.589261071128897059e-03 4.385140214092125288e-01
1.470432592928880983e-02 4.797488863163493211e-02 5.272196648997184987e-01
-9.407338485249924775e-03 3.649378305756045826e-02 4.519863602943767211e-01
-5.044072491715444542e-03 5.826198814896776240e-02 5.257732772565040236e-01
-4.340011461210338539e-02 2.943222988680281940e-02 4.487074365896829842e-01
1.430640432347683039e-02 4.857149577840325083e-02 5.272398772307571591e-01
-3.038173373268405683e-02 4.964827191175347210e-02 4.579196106975922387e-01
-2.972546289572687572e-02 4.250741456033583360e-02 4.529961839661100775e-01
-5.369303837188729549e-03 5.903373566587288152e-02 5.276031435839967365e-01
4.284614935180827699e-02 2.651454298006899676e-02 4.743435892705556989e-01
-2.094604400930373880e-04 6.309475564790303914e-02 5.299899212297791706e-01
-1.549419361898020549e-02 3.715756344819508977e-02 4.514521736079399328e-01
3.372984064482602296e-02 2.120020546805304051e-02 4.594568300782475578e-01
2.407794821607097888e-02 4.439812959749823290e-02 5.201821048067022391e-01
1.672135813516193933e-02 7.376020735105577597e-02 4.760900393951353893e-01
-2.546512382421765863e-02 4.405787027874556727e-02 4.537049973165245831e-01
5.163819332357162672e-03 7.607514924743501161e-02 4.780990799979201178e-01
4.133478484805989950e-02 3.781188493638197590e-02 4.868294669337446257e-01
4.277429788342128336e-02 3.387180908690691494e-02 4.904238138309958139e-01
2.579418914566847937e-02 6.225522688661887932e-02 4.753606451213305828e-01
2.959985813987781739e-02 4.088804400901435016e-02 4.666282679135949074e-01
-2.673810963282655887e-03 6.963913965106921858e-03 4.410554635925058586e-01
1.937269758838248285e-02 7.034601347748002664e-02 4.746354883023272131e-01
8.900453242543585053e-03 4.594980252268866111e-02 5.353223161739112390e-01
6.716933320792742648e-03 8.656998034209670637e-03 4.434541867302162488e-01
6.782277804349383724e-03 6.777640109829591308e-02 4.666943838876532191e-01
-2.562893474498341775e-03 5.497732266389401823e-02 4.587138705196194821e-01
6.026382022283386340e-04 3.444711125578819172e-02 4.526873581931670221e-01
9.812060572323456908e-03 4.645108566382087634e-02 4.594053957038006786e-01
3.283211914696952151e-03 6.640076771193532956e-02 4.649884607466994169e-01
2.055080830600462122e-02 2.060845561632837497e-02 4.516378336908785096e-01
1.500210001237573323e-02 5.101982873956846520e-02 4.629735488143849609e-01
3.002018514651789288e-02 5.961833234609129756e-02 4.791716503010811645e-01
3.226452641397635490e-02 3.618433054335865734e-02 4.660112891651133626e-01
6.803405592242358670e-03 7.905870184006959234e-02 4.769483825871069227e-01
1.492337295199340497e-03 7.045937258083546928e-02 4.691761407853117793e-01
-2.204157766432080987e-03 5.888119576050443449e-02 5.218746702326112485e-01
9.417524545539724540e-03 6.850816114454480465e-02 4.675537491450628691e-01
2.567273000864987460e-03 7.931908863152183076e-05 4.394861078987771230e-01
1.164620902306441781e-02 4.600926836573869527e-02 5.327399711708866725e-01
-1.583522852921600069e-03 6.901011252599960344e-02 4.668187934742820122e-01
-1.589339028375342383e-02 2.661063334019441590e-02 4.465723485253716984e-01
-1.067519684397332663e-02 1.428680469768630473e-02 4.425748469188495737e-01
5.613497490049480440e-03 3.667150623066967041e-03 4.412580810597613867e-01
4.037787375915706523e-02 3.936928987387552925e-02 4.973661066585836621e-01
-1.526974219396117632e-02 3.996023646294913356e-02 4.526395613070789969e-01
5.086502574470685122e-03 2.212284941356383247e-02 4.485800072004859640e-01
1.205292040119318800e-02 1.516044520536189051e-02 4.472327823798796231e-01
-3.747437215887580719e-02 2.207556009853915355e-02 4.454905202695841893e-01
2.794698282174194054e-02 6.297661569005952309e-02 4.984415801740761931e-01
4.095415377322618455e-02 3.683986318417499517e-02 4.788461843461799816e-01
2.483289932648360607e-02 3.048498732576535031e-02 5.276858870074623287e-01
-3.252903982007763323e-04 7.055085780631048520e-02 4.708450528545577440e-01
2.955527563602227889e-02 5.747530976603287822e-02 5.053215885487852832e-01
-2.084687654159874184e-02 2.410203102570459069e-02 4.450934378353733067e-01
2.311021393816159453e-02 4.970005414186031562e-02 5.191881781892857539e-01
-1.550375367283800265e-02 6.083764429613716662e-02 4.634250130425495162e-01
1.014699484915114296e-02 2.322750101614063159e-02 4.501039554830218448e-01
2.660047658365695053e-02 2.810632302948740113e-02 4.582356103814206327e-01
3.164693071646546008e-02 5.681704577917261190e-02 4.994713601878013054e-01
2.554586645821034507e-02 4.378590161644727724e-02 5.189866942127772109e-01
-8.326132797401786939e-03 4.610236253561067477e-02 4.554845791692866963e-01
2.820340273419845445e-02 4.096060156185433315e-02 5.182010362854990726e-01
3.010352733251907970e-02 8.483165134910135990e-03 5.284371196828134831e-01
-1.878057371310273144e-02 1.475000848298857123e-02 4.414962554692043462e-01
1.754436700101371510e-02 4.124042609605073351e-02 5.313044232323247407e-01
-1.247924402945618143e-03 3.056285368296264571e-02 4.507266965375447132e-01
-2.422135841741661355e-03 6.265213142749839759e-02 5.298537641014146038e-01
-2.210170926554066648e-02 1.907518596691004740e-03 4.375998827956021353e-01
5.337865427057707571e-03 6.345340966245610614e-02 5.281537834267721054e-01
1.792737125489450231e-02 7.236454300677988560e-02 5.010166127685509174e-01
-2.925502123945549274e-02 3.580333388032522213e-02 4.498304201054196816e-01
1.850564025128416737e-02 4.996504094683844321e-02 4.640887894942196112e-01
3.322540175485588776e-02 3.855215843492330874e-02 5.132402891615451823e-01
3.308370698733829884e-02 5.541692430504174122e-02 4.948297816894960399e-01
-9.790534117408765044e-03 1.998619397457906260e-02 4.449041646860142918e-01
-6.494774125093962132e-03 1.971913272429786854e-02 4.453619025171793311e-01
2.743147931699560158e-02 4.129808992308782456e-02 5.188189011621084923e-01
3.125189665784019327e-02 5.218770597816817236e-02 5.093020561489686182e-01
-7.298419705486719825e-03 1.004618540512401161e-02 4.415177360434250353e-01
2.325963939901282487e-02 6.834090768678090233e-02 4.780870404300533449e-01
-1.743643467812782191e-02 2.049162659889209800e-02 4.439610420019493020e-01
2.076121201000590347e-02 6.986605667559231403e-02 4.762010840234765507e-01
2.001414749577016400e-02 7.232822018594792235e-02 4.976578485714663325e-01
-2.121404726558175080e-03 3.654119459631231109e-02 4.529807886488323443e-01
2.190127136795840673e-02 6.954193930714917815e-02 4.775786840387337140e-01
1.419644428122107671e-02 2.827156006063381855e-02 4.531815382290572125e-01
2.109590140562952673e-02 5.154318402657830783e-02 4.661561789917322285e-01
-5.989940326520112185e-03 6.050139459336959652e-02 5.347565521656519882e-01
1.017583991417898154e-02 5.725711124545856262e-02 5.267366960979180668e-01
3.986573777131024315e-02 3.192807163108704605e-02 5.022307815684888821e-01
4.212857358164816268e-02 3.442250368428600993e-02 4.829611998226525649e-01
3.446721091197926801e-02 2.104099564991270682e-02 4.599098464039828027e-01
4.132628712761808598e-02 3.883628505713548895e-02 4.917089940489162703e-01
9.639642053727547066e-03 2.992538373020497272e-02 4.527894498028215975e-01
4.462529195316272679e-02 2.684211863339106344e-02 4.859071942007133216e-01
3.811439585532848395e-02 1.929960959915283034e-02 5.168954593507273376e-01
2.839878824670711427e-02 7.705796073534859625e-03 5.297689073279538974e-01
1.356495216688307498e-02 2.412814309078212260e-02 4.512723572729459565e-01
1.720691256378534262e-02 4.381086522498855301e-02 5.292971377607602612e-01
2.264920757755567102e-02 7.108508241451491627e-02 4.827079095293532185e-01
1.242206287015329425e-02 5.134601104150736395e-02 5.274248102631511337e-01
9.750029400799855445e-03 6.555869311702519631e-02 5.131129486566189390e-01
3.924041606327691167e-02 3.212628093283461522e-02 4.711497664273978092e-01
1.182102929494160265e-02 6.481900254228503688e-02 5.199128610696868158e-01
2.251760077128319923e-02 6.612880722996707095e-02 5.048804315021466760e-01
2.959251412820378471e-02 3.530421975074145985e-02 5.199043673996767145e-01
1.674394016228177712e-02 7.237817889200927335e-02 4.742021362334714607e-01
3.276879963431939685e-02 5.561917518645383141e-02 4.964987455419850870e-01
3.913273572168612241e-02 3.042765559139200965e-02 4.695383553214735883e-01
2.794196425569060727e-02 6.419150212619599560e-02 4.937267993846286007e-01
-1.682374343075411548e-03 7.012404692245918780e-02 4.707508306798224851e-01
6.383870996982121682e-03 5.766589774399372842e-02 4.619464669410199842e-01
1.902035706988844041e-02 3.882134887569414772e-02 4.594580470869288891e-01
1.103778029542803844e-02 7.945617447073426154e-02 4.793784655644970916e-01
2.769226811532062710e-02 5.654840268912311729e-02 4.738160328629266727e-01
2.285116574281750162e-02 9.983141688361483329e-03 4.484054071127912544e-01
-1.050365427686342570e-02 4.245004897442927749e-02 4.541392429427683619e-01
-3.852159832279556523e-02 3.251364369122879128e-02 4.487808790363356226e-01
9.261326986773121611e-04 1.531822922266131565e-02 4.450203013957371168e-01
1.530410834208455542e-02 5.691089005769595088e-02 5.231095664691929326e-01
3.909661382673913430e-03 2.787598883809660338e-02 4.506923436677474637e-01
-2.818382161236925726e-02 2.676990690966671652e-02 4.462132902681048008e-01
1.273948149218596948e-02 5.159083519936297213e-02 4.623936698281456703e-01
4.337155790036919221e-03 4.374341123136561010e-02 5.361270194079797990e-01
1.527026783614608002e-02 7.652713309767346372e-02 4.887701756112158846e-01
2.937625151139926227e-03 6.026969954487786801e-02 4.615291487454918351e-01
-1.369392370951974178e-02 6.138077652670548973e-02 4.645681015542670322e-01
-2.208923068136489296e-02 1.734086230554808452e-03 4.375696621909501149e-01
4.096828295288984512e-02 2.133116943239602228e-02 4.666284005026137272e-01
-3.786779270491327787e-02 -1.618084890364387789e-04 4.403090386893380725e-01
1.368042569763282604e-02 5.207071649282039166e-02 5.259559715716120021e-01
-1.677624610817497232e-03 6.169076223854071117e-02 5.352989434298814908e-01
-6.053641028360432289e-03 4.600620067724001117e-02 4.556845348280877950e-01
1.510493446211389618e-02 6.049119860421731804e-02 4.664549171658004534e-01
2.676813546738917443e-02 3.877944256091241104e-02 5.208028488168336967e-01
1.218600196013447726e-02 7.764989841950711846e-02 4.766635571589218356e-01
2.630287903598888324e-02 3.174575399448902741e-02 4.598425803646046250e-01
3.554736984479042045e-02 4.261984754038737611e-02 5.080713512897845341e-01
-2.832358601534464004e-02 2.810165990544126122e-02 4.467076977753677292e-01
-4.371176476655157933e-02 2.947875880833344953e-02 4.487809893652442983e-01
1.584511395820384014e-02 7.195916071765087740e-02 4.729475673233737298e-01
-3.200850279331220183e-02 4.746958479314132562e-02 4.570274162595276968e-01
2.311573939268910666e-02 2.616785137041919077e-02 4.554977610657910958e-01
-1.014994146838803755e-02 5.143727073277419570e-02 4.571764194865897690e-01
3.091731631719184248e-02 5.633130747108103936e-02 5.030247920326559319e-01
3.952545402911968736e-02 4.349936945064101362e-02 4.913948497006591642e-01
4.370023330974708020e-02 2.629828028008730778e-02 4.958760295772415838e-01
2.607452745210098871e-02 5.894131353510777271e-02 5.109500896923701019e-01
3.132410149190944376e-02 4.295140871402049892e-02 5.139011410280877046e-01
-2.568374588624033547e-02 2.491201868857215521e-02 4.454012590676010852e-01
1.647137756251193866e-02 4.493578504100646104e-02 5.281066811100092462e-01
2.313464652954717871e-02 6.300846659364400804e-02 5.102881012144185879e-01
1.577753325153733940e-02 5.573810243397766401e-02 4.650068188104872768e-01
-1.009276485104389741e-02 3.223858298672032524e-02 4.499598789646895858e-01
-9.715283033609536933e-03 2.227636479427525310e-02 4.458103095599627030e-01
2.353182382410146101e-02 4.815656193247366823e-02 5.192000375556768965e-01
1.086847002926775475e-02 -6.546173410037444719e-04 4.408346959832536438e-01
-1.803420499604718383e-02 5.675607994854989929e-02 4.593721843179017772e-01
3.783366592445162185e-02 2.400281761747464354e-02 5.123864014156607194e-01
-3.263588420311171190e-02 4.491933102605244477e-02 4.553701341901969513e-01
2.709362093437281752e-02 6.598748844694596327e-02 4.912689113230264693e-01
3.925688252491013434e-03 2.335705346183017395e-02 4.488436885181131819e-01
-9.555064757254512833e-03 -3.775574768115202810e-03 4.370183905645335098e-01
-1.448787270733385701e-02 2.844557407471543994e-02 4.474894039176231519e-01
2.182322678836609228e-02 7.298529896954787655e-02 4.905902755318624631e-01
-1.831050154368966607e-02 -9.373263795784446753e-04 4.371220260024769044e-01
1.463400446715657291e-02 6.361581597041966740e-02 5.199354554822228636e-01
2.020499310323176784e-02 4.447164585017013977e-02 5.242752488872756134e-01
3.072374475192654261e-02 1.665415247178134855e-02 4.554144044112799494e-01
2.726923963632188475e-02 4.842602654012552119e-03 5.320086430122759058e-01
-1.924885632623611967e-02 2.838270310743640223e-02 4.470177389222861897e-01
-4.020315683624305081e-02 2.912713246460999980e-02 4.480009569949044979e-01
3.343242880474944778e-02 3.662176235531870716e-02 4.671405277187655192e-01
3.900769561436561589e-02 4.092863706842894689e-02 5.012079808423800520e-01
4.464750130802878220e-02 2.723466728803805581e-02 4.891580220503862209e-01
4.027581905492163411e-02 3.604294300667686829e-02 4.764903223111152664e-01
1.182039900170502381e-02 7.447665500915867653e-02 4.993112075795306248e-01
3.990145409354985129e-02 3.153946816944574322e-02 5.022430872455100337e-01
1.876787043400195837e-02 7.513384113803200925e-02 4.831282045721742580e-01
1.705588975305064731e-02 3.973563059139924997e-02 4.590636991899445518e-01
-2.536289997352408551e-02 1.040700262606184846e-02 4.400556064182977178e-01
3.141352885771361153e-02 5.920173685366612870e-02 4.902786128204666971e-01
3.984825661019583687e-02 2.707278848731996951e-02 5.057574955837488284e-01
-2.498331235576428493e-03 6.445144835888762247e-02 4.634939198844542085e-01
1.037834460818103620e-02 7.893768707321682787e-02 4.817157171498577806e-01
-3.001550800250228895e-03 3.858596905810055683e-02 4.536469122751778937e-01
-1.944640007727990207e-03 2.365286600396808436e-02 4.478071060308676521e-01
1.974307635374753303e-02 3.920529122372886505e-02 5.305387300534525341e-01
6.709641027893198731e-03 6.142342845231715115e-02 4.633044442263078988e-01
-1.240343146783702381e-02 4.672979455713410779e-02 4.553459414867201405e-01
-2.249479651297883048e-02 5.269515316196933530e-02 4.577407817832302994e-01
1.127201275156150539e-02 1.573963121908913965e-02 4.472962763511033057e-01
-1.094274003719564702e-03 5.083873442388103792e-02 5.386500551963894212e-01
4.120786542843248024e-02 2.613962784495692596e-02 5.032712877565199694e-01
-2.478768288327082812e-03 2.956693124262283270e-02 4.500965773188680408e-01
-1.324073678379986824e-02 4.823411829779603206e-03 4.387942174270794138e-01
-2.611956381885219280e-02 1.092006530075459621e-02 4.403620540134689509e-01
-1.489423436486005461e-02 8.110332414713858351e-03 4.395935900058689505e-01
2.754421634543371272e-02 3.412518537031605792e-02 5.249830060756349726e-01
3.170452816917761901e-02 5.830983167545825824e-02 4.930674070123265973e-01
2.027235947394279147e-02 6.725099356793769190e-02 5.061991524033111478e-01
-1.579129388911620219e-02 -2.855281590696070494e-04 4.372702666909303315e-01
6.612392712335225450e-03 7.186600432851338038e-02 4.977163469450134881e-01
-2.354319774806132304e-02 4.526712685836974809e-02 4.543005424058307873e-01
3.675718390010893760e-02 2.293497169876550570e-02 5.167510845303917577e-01
1.713618485371452144e-02 4.150573226151774153e-02 4.598459184397684085e-01
2.692319022932542980e-02 6.400734089729741283e-02 4.995481974588866780e-01
-1.007900063878128943e-02 8.078857450921059224e-03 4.403817042366866552e-01
-2.547030705496208108e-02 4.131253856132683505e-02 4.522408428981637418e-01
-3.668344327218072548e-03 5.460110338746149844e-02 4.584958440371638688e-01
3.450051229283671722e-02 3.207179117023752773e-02 5.139374816061770268e-01
4.471072588307697937e-02 2.442698749812236350e-02 4.929573107272069987e-01
1.184199260782150577e-02 4.700926231617696266e-02 5.314314356695196695e-01
1.263596803479761707e-02 6.462215511409068192e-02 4.669303119880464092e-01
4.100945012204547380e-02 2.731888223984958036e-02 4.707757376418115758e-01
2.620411968167969327e-02 5.932347712617017793e-02 5.104599438268287992e-01
-1.299378741296698843e-02 1.414906525305046139e-02 4.421308485952352152e-01
2.489284583854797436e-02 6.883886981130897531e-02 4.911210056048739281e-01
-1.673990250479597680e-02 2.906671371820404234e-02 4.475588046597979708e-01
2.239753405059041053e-02 7.192104230570353640e-02 4.912380845748636204e-01
2.624401529755143042e-02 6.642247580032006882e-02 4.812551893153660387e-01
4.948874430067003519e-03 1.586482538375876689e-02 4.460328897716611118e-01
3.575942859145840591e-02 2.054682388725524722e-02 4.606717141404931826e-01
2.369292057604980434e-02 3.682616197413202119e-02 4.608398555048756617e-01
1.220208566633935489e-03 7.630211372486265381e-04 4.394704277335766962e-01
1.376101444359829548e-02 1.048737540503689829e-02 4.456686074333638392e-01
2.110563353012038720e-02 6.969607762433471798e-02 4.765223536517940728e-01
-2.587464157770699019e-02 1.368517430401480946e-02 4.412036509616129032e-01
2.485310162026001593e-02 5.775977763353762340e-02 5.135094843889156380e-01
2.362459291488582316e-02 6.723203638574627716e-02 4.997812437037522648e-01
4.213632110646243351e-02 3.508839657396278788e-02 4.861261448622066772e-01
8.955000954469971228e-03 6.350194737070888329e-02 4.649082004115802080e-01
3.120834162787617175e-02 5.342030447724524511e-02 4.759083020813533738e-01
-1.500262239956666986e-02 3.522535839056142176e-02 4.506405159424256568e-01
6.129730555956482141e-03 2.699627524525095162e-02 4.507871976632451538e-01
-6.547871176569741714e-03 5.994673415558349205e-02 5.363495310160244500e-01
-1.621525724726617310e-02 2.077575786831253185e-02 4.442300563541385361e-01
2.726625044367619183e-02 3.555438826487518356e-02 4.623421909478162006e-01
6.486454128903315110e-03 6.485607870762553906e-02 5.166612973569864042e-01
-3.086531858104953757e-02 4.849427099436769140e-02 4.574608102830596268e-01
1.364205022968980989e-02 5.633071775174446766e-02 4.643066255012964771e-01
8.548478597004211671e-03 3.931706521930727893e-02 4.564401532014998875e-01
1.918940368693875399e-03 2.126369517930251640e-02 4.476160149997796545e-01
1.596257761541400311e-02 7.471664401165173386e-02 4.990753333182241236e-01
9.744823256841762815e-03 7.468968832915373612e-02 4.734494373054572991e-01
4.210449139588023915e-02 2.900655833374578274e-02 4.745272868082789919e-01
3.737803778327058318e-02 4.078456624176906437e-02 5.057025111957267338e-01
2.191538115719412344e-02 1.721752673075219522e-02 4.507441599882590633e-01
2.454383216385969818e-02 6.945181778908311732e-02 4.905463221522076145e-01
2.144007093803487404e-04 5.637080750217036973e-02 5.351614997029734422e-01
7.429965853575348604e-03 -3.856164773741745620e-04 4.402456934282416579e-01
-3.322682585902171810e-03 5.752274891122460126e-02 5.393576028382283116e-01
3.690564343692685767e-02 2.527794995677720008e-02 5.136491617784256780e-01
2.232200945517894344e-02 6.125801028211834420e-02 4.715934035355331400e-01
-9.126816815555247736e-03 2.615124385775112123e-02 4.474685814726676036e-01
1.957934422042680034e-02 3.928767525449335801e-02 5.306308458133686123e-01
3.844776154496949011e-02 4.574243547611064192e-02 4.864856525742189963e-01
-3.509082716746723778e-03 2.902035538519153260e-02 4.496837148417271446e-01
-5.649647936296960798e-03 5.413118197922496544e-02 4.581662962664289629e-01
2.759623564191568748e-02 4.822054112725992353e-02 4.692217716540456607e-01
2.244921923584621698e-02 5.570610452777743221e-02 4.689475486882691002e-01
1.749679270468625439e-02 3.238860700991008645e-02 4.560543355863377890e-01
2.657031962353655768e-03 5.648487530912228889e-03 4.414514128034204843e-01
-2.403441659125599844e-02 2.519540149495102035e-02 4.455253054518375500e-01
-3.960299627181158855e-02 3.756133098485947563e-02 4.515915461752544879e-01
2.449724635046632987e-02 6.084063123235931847e-02 4.732748273200228506e-01
3.048789439363135817e-02 5.978002767439145188e-02 4.958102014207035335e-01
2.359004686270927548e-02 4.598822993918528362e-02 4.651451652108113954e-01
-4.158043671930290730e-02 3.972402249214204012e-02 4.541580147715246762e-01
8.096035076891184082e-03 6.679117834200408443e-02 5.092104162161480430e-01
1.017965402229374823e-02 3.361915979187563713e-02 4.544621338938186206e-01
-8.595967870706575781e-03 2.505276560173676573e-02 4.471037132943985193e-01
3.716564208679867809e-02 3.645412518242301114e-02 5.069645328106319182e-01
-1.874382731233485005e-02 4.968543327630402934e-02 4.563184442105406302e-01
1.668041254612763480e-02 7.679155850775284953e-02 4.869206435548648071e-01
-1.799299568920504494e-02 5.257318220392872415e-02 4.573925915984052293e-01
3.187436858474745893e-02 5.599764707498547378e-02 4.795862211504512418e-01
3.851067105020446191e-02 4.606238009620836071e-02 4.914952645361315153e-01
