4.343233314740230916e-02 2.667197783355388166e-02 4.757384920189863808e-01
-2.640654369591794934e-02 2.019365855964933010e-02 4.436107885139791152e-01
3.576210098918272684e-02 3.102275791785630288e-02 4.660907270133374247e-01
1.952372811745964679e-02 4.129771051702616630e-02 5.297597405901619538e-01
9.256973545301663137e-03 5.905350657733481751e-02 5.274251362962566470e-01
3.306420079275313589e-02 3.650909566707583043e-02 5.139758696948090178e-01
-2.314782539264142666e-02 7.132209634948032118e-03 4.389055892583442198e-01
1.490769951668730227e-03 2.687015955782388194e-02 4.498145482985099752e-01
3.504446998463131568e-02 4.900999809178213651e-02 5.045940643231702216e-01
1.367188076211263772e-02 5.716740581493386097e-02 5.244934540406367418e-01
-2.589742706251442483e-02 3.662846150919567279e-02 4.503127405782195170e-01
2.457496373150101776e-02 7.001288702943153641e-02 4.844747177924662584e-01
3.611888937096068702e-02 1.994859861030702855e-02 4.605689147000365802e-01
-8.992952362063455843e-03 2.470635658477787766e-02 4.469267127582222110e-01
3.764537299785930546e-02 2.794330427612242568e-02 5.103759704641658290e-01
-8.441301366057051003e-03 4.217089355056505284e-02 4.543482160631998612e-01
2.137983972326635076e-02 8.083247414164313957e-03 4.470323908765288512e-01
1.612063785099862243e-02 4.840078027430927410e-02 4.623253694561268445e-01
2.717121463269631457e-02 4.166165187523794555e-02 4.652864910048495339e-01
1.420248584309555251e-02 3.157024982994084683e-02 4.546457627653950895e-01
2.449117531688052574e-02 6.771262766325694682e-02 4.787767135348594549e-01
2.606004786946752513e-02 2.816846318903262411e-02 4.579214138546928159e-01
2.377371285937857417e-02 1.752936704263963544e-02 4.517885667761062929e-01
3.022344169213023179e-02 5.490148765455542951e-02 5.093038011548812749e-01
4.555509842097334172e-02 2.377277172808315436e-02 4.840376347460561557e-01
2.813349786596425900e-02 3.185398337476498531e-02 5.255836232823138943e-01
-1.952605185863464862e-02 1.788821050908371429e-02 4.427592749619709833e-01
1.375735109965107832e-02 7.412871037177075351e-02 4.995301148729957563e-01
6.244821961866384510e-03 5.863604216175395678e-02 4.621972330298270148e-01
2.178342631194813209e-02 5.653358485475367540e-02 5.185978997334722562e-01
3.052596892267148143e-02 4.554684949755304080e-02 5.138143840127313844e-01
2.578961525932860904e-02 3.510938557089608725e-02 5.264891822014740042e-01
3.891603528063771085e-03 1.741009344605892045e-02 4.464679332945071244e-01
2.812051575554769950e-02 1.008208716378577834e-02 5.270441331417046182e-01
1.743216500714885476e-03 6.208999265352511433e-03 4.415274464999308091e-01
3.768491294248916407e-02 4.139775321374489225e-02 4.759868118104483847e-01
3.376657336620112609e-02 2.755743038327135991e-02 4.625512058949540206e-01
-3.188736251564737445e-02 1.538377627228206673e-02 4.428188154455567904e-01
3.996296226231104559e-02 4.078494680510812848e-02 4.987298932504405369e-01
1.548157113171762418e-02 6.741233015919792515e-03 4.446023059674125699e-01
3.733456048944436972e-02 1.943475788501153323e-02 4.612619610895167255e-01
-5.037590150380731081e-04 6.087007735099120992e-02 5.268902388694340910e-01
-7.403811180942037121e-04 5.658489653960826343e-02 5.359878568486158290e-01
-1.731223529175393225e-02 2.885119769491657771e-02 4.474653503728356352e-01
2.547491874009606694e-02 4.242207548891162999e-02 5.201769641802058697e-01
3.458361229999296765e-02 4.140946656438389273e-02 5.102020723027209659e-01
-8.187351539611840284e-03 3.653372106895366733e-02 4.522418275855267233e-01
2.820356244370822441e-02 6.514629752281313191e-02 4.904729933483884530e-01
2.118737456009635658e-02 7.393922176111074329e-02 4.869930170687569171e-01
2.492835937362755314e-02 5.996692694243477978e-02 5.117914028718961728e-01
2.337314291250748577e-02 4.828308044600174848e-02 4.660182215002065531e-01
2.412253798988697392e-02 6.080214341707267101e-02 5.120180543200489875e-01
-1.328678284446422470e-02 8.672208569874226627e-03 4.400836851988695342e-01
-4.023399706193375724e-02 2.422588347294486397e-02 4.467703995809736983e-01
-2.725785376285425401e-02 4.505561234194295495e-02 4.545198373446221463e-01
2.670602136217013062e-02 9.993226093800178580e-03 5.275432948549240164e-01
2.089176565920312229e-02 3.937223821216918884e-02 5.294199632911450459e-01
3.244623946410034321e-02 3.152990430152059070e-02 5.194128213480578848e-01
3.707264895460309073e-02 4.378256313523262722e-02 4.770546097868144098e-01
2.293044417498696363e-02 5.810315597904203155e-02 4.702205178311738565e-01
3.631431965212444241e-02 2.783582912686542038e-02 4.648851308264512761e-01
3.201210351850568292e-02 3.236916817480022662e-02 5.190961224692950404e-01
1.278076392992200452e-02 7.194542557761460233e-02 5.036264484296028021e-01
-1.063162085747894336e-02 5.182530630862011711e-02 4.574229162679363525e-01
3.288348373512350875e-02 2.918243475493106226e-02 5.205983043720852077e-01
5.722953027828782922e-03 6.787931906642095947e-02 4.666497262547610325e-01
-1.864697951836082404e-03 5.808645906183296237e-02 5.237379795156876794e-01
3.760713725686265496e-02 4.452665020693399173e-02 4.788236020311886776e-01
-3.123176766863188913e-03 6.077078028014924055e-02 5.370733667550482426e-01
1.612378647133397638e-02 1.639447430674534356e-02 4.486239573275013770e-01
2.182145745840450429e-02 4.859655323796795157e-02 5.206639275230627861e-01
2.853556046766768037e-02 6.407154561758246492e-02 4.926852336569910173e-01
1.802388086778802453e-02 4.640336430701632459e-02 4.623604306904133820e-01
-8.316599245092277243e-03 1.594992831566179742e-02 4.436430765979185731e-01
2.553901667184018537e-02 2.988657475372909211e-02 5.274905252385421184e-01
7.597991101830515494e-03 4.791481873679870329e-02 4.593080401949863889e-01
-1.176929624307253286e-02 4.247348523098740114e-02 4.541122677280631792e-01
-9.617627067146453448e-03 -4.031288362611245776e-04 4.377200424713887372e-01
4.182726679833367878e-02 3.440297259029481691e-02 4.960472531789510420e-01
2.261894652483830218e-02 5.980218061945508090e-02 4.708581884940357676e-01
3.549953942800580797e-02 4.753436727954984259e-02 4.775682638944511726e-01
3.699174765471104076e-02 4.764505863341061964e-02 5.009989948665077852e-01
9.457939042190742496e-03 3.307857358656422775e-02 4.540863850875024865e-01
-3.104938005838660253e-02 2.904865180851742834e-02 4.472146034543498239e-01
-4.376551173800104222e-02 2.592047616513388011e-02 4.479261302847755144e-01
2.903532730320618899e-02 5.905750155855254979e-02 5.050127640946129315e-01
2.371870363759344749e-02 5.840708423798975785e-02 4.710610811457899838e-01
1.414312665398700236e-02 5.913330160646198402e-02 5.239193976132987540e-01
1.132207333017055950e-02 6.134173264744523929e-02 5.256096204123094084e-01
2.595708506669712132e-02 6.831014031213616944e-02 4.875817204977077046e-01
2.920543096141081651e-02 3.819994551667978133e-02 4.649064496248389577e-01
1.588808482806298647e-02 1.632740650040347824e-02 4.485454332249524390e-01
1.729217880052816639e-02 4.417779319782960679e-02 5.278852001232723357e-01
3.451885166296912028e-02 4.529869768046999173e-02 5.086601516381262789e-01
3.274360124799537142e-02 3.505136108077968465e-02 4.656474426005589584e-01
3.635245759711877578e-02 4.423854052762841993e-02 5.059238894796928010e-01
8.525806928511802524e-03 6.910638723505187209e-02 5.053977156840576690e-01
3.279697493614645853e-02 2.972692128859000249e-02 5.202934965872775264e-01
2.827781075609002090e-02 4.073651575724138163e-02 5.182921922372980550e-01
-1.791058973855219616e-02 4.790208061325396810e-02 4.556655071250854672e-01
3.894974614364131449e-02 2.974575530759674194e-02 5.062803616528008810e-01
3.386848537194143277e-02 4.513065572235244738e-02 5.095535308868387459e-01
4.283727486667393558e-02 3.437703631791384079e-02 4.905606615693273165e-01
4.433511410908366757e-02 2.894235769736835939e-02 4.891324390959791435e-01
1.870492842901577690e-02 7.260723390076927186e-02 4.765481420870431029e-01
3.617345255421438449e-02 4.963790501617021400e-02 4.971442964711887402e-01
3.438976425979304447e-02 3.046893662850901421e-02 5.159115430936374036e-01
7.525302296021760262e-03 5.960683578750229639e-02 5.288037647638839100e-01
3.090727787138377800e-02 5.305854029477171524e-02 5.096099828853382085e-01
-4.100617219949524023e-02 2.328463132709039304e-02 4.466541141360256262e-01
-2.136363172174228497e-02 3.221908841109784316e-02 4.486238620051633541e-01
1.105342169425663646e-04 5.239826650360347032e-02 4.585368148824531254e-01
3.294130674527601804e-02 4.845815282025838638e-02 4.745969898302961898e-01
3.540131799964568032e-02 3.730509320519286715e-02 5.100510781803457849e-01
-3.806042070769524027e-02 3.996425392634165435e-02 4.533135688629815196e-01
3.202509797115068307e-02 5.814893235960758716e-02 4.935187524844151796e-01
5.970559762439216211e-03 3.838344536754184633e-02 4.554718296268500111e-01
2.885592211879036556e-02 3.974042473681019261e-02 5.180013083950718578e-01
4.455125629393560938e-02 2.809635572602955586e-02 4.893822589974808346e-01
-3.068313211383895747e-02 -9.482455662352881620e-05 4.384396495454257470e-01
3.937646574988977813e-03 4.833885000308673491e-02 5.373837546555029210e-01
-1.844449458045948568e-03 6.148271709411771285e-02 5.340450849625989482e-01
2.652226832871203838e-02 3.710654842385316399e-02 4.625919081775807240e-01
-2.546754726024403823e-03 5.227777977232295203e-02 5.388189468812603078e-01
-3.033158683444738078e-03 5.886248652354424821e-02 5.266119168601958167e-01
-2.121655220516171581e-04 2.089263395533792755e-02 4.470723801373710504e-01
3.661464602128962353e-02 4.827302216899442833e-02 5.009767249333657579e-01
-1.826790493493141501e-02 1.205724110992078407e-02 4.405408223836549952e-01
9.615208506993860177e-03 1.851269698107530989e-02 4.480593071765163193e-01
3.032774579834680937e-03 6.626648610793874072e-02 4.650606167834211435e-01
1.844589630751634901e-02 5.591745721621256549e-02 5.213255169473739459e-01
2.264318174202460676e-02 3.024142620607449955e-02 5.290630745719723249e-01
1.271420370031042107e-02 5.290791005656987622e-02 4.628145222416266136e-01
-7.737596763215462414e-03 5.749836794208378239e-03 4.399530531593681681e-01
6.319217884278551661e-03 5.291755649219122976e-02 4.604938701956705627e-01
3.191265140301740438e-02 5.881777765776331074e-02 4.897400278930420514e-01
1.963208322371329945e-02 5.763090379729934876e-02 5.201317002431844472e-01
6.872977965330591237e-03 7.039304403361058837e-02 4.988276374503508026e-01
-1.319765218653387584e-02 5.942579087928610837e-02 4.610706924461871470e-01
4.491057204223191865e-03 5.985595968084041207e-02 5.311498845689820447e-01
3.638766785191953346e-02 3.738820162425041810e-02 4.700590664700086685e-01
2.634222574300325651e-02 4.046100500369374797e-02 4.641546310351196136e-01
1.409918968342305234e-02 7.142019388217268894e-02 5.049520983766898619e-01
2.786767557722565070e-02 6.551701766720559317e-02 4.863574421774724543e-01
2.275405041907339193e-02 3.815076308463107024e-02 5.280695199987635036e-01
4.047516280123461541e-02 3.920638248268246834e-02 4.985837938629984478e-01
-2.186010504981820632e-03 2.437164075737937446e-02 4.480872904377520838e-01
1.297074752440349234e-02 3.812484953059982334e-02 4.571004970256048461e-01
-4.197746836939614430e-03 3.818144380833943252e-02 4.533773225803569562e-01
4.204010818609137112e-02 3.629551741664421155e-02 4.871322879330857725e-01
2.210965921236680148e-02 4.368017337898018326e-02 4.632664710103647776e-01
9.518374864638603355e-03 4.064010247388476216e-02 5.347803628315175306e-01
-1.595470942543655152e-02 3.497743574803942324e-02 4.504622545631637998e-01
2.730475286666190354e-02 3.401718836755011910e-02 5.254486530897028995e-01
3.844540852114074897e-02 2.993947798120413784e-02 4.678585874884637064e-01
1.718421732676640376e-02 4.121663053039604369e-02 4.597349636042522003e-01
3.119747204231463136e-02 5.905153588418183414e-02 4.813380168032556639e-01
1.486272189135427399e-02 7.605509004220796510e-02 4.898429972048761738e-01
3.501218864282809595e-02 3.879892026793402282e-02 4.694454659365817073e-01
1.703773922020814652e-02 7.022067600683648547e-02 5.053869428639899963e-01
-1.790080495669777588e-02 3.737819927355640059e-02 4.513117487544843764e-01
2.997550090227420541e-02 5.305540738561533021e-02 5.107596309417651304e-01
4.555027217939561918e-03 6.260260908710106598e-02 5.234234615286823544e-01
2.111767664348893764e-02 6.908449289470597332e-02 5.021838482243302648e-01
2.324082974780837182e-02 7.055124164354546756e-02 4.934893923409156558e-01
2.525965240081163438e-02 8.658142588745872115e-03 4.488041060109422276e-01
2.658443265859034357e-02 9.431331693258888926e-03 5.282062228290149708e-01
2.063215134059108793e-02 5.373766146115348946e-02 4.666743588831245848e-01
2.978557407166681700e-02 6.184761389573598112e-02 4.943064008966369660e-01
1.161048672332881150e-02 5.774814236467711720e-02 4.639144665708785364e-01
2.306153036327536140e-02 1.893992696363076822e-02 4.520618680678631929e-01
4.220293795964050881e-02 3.663376144014734992e-02 4.910377002677264180e-01
1.708967470610655778e-02 6.589956972003761793e-02 5.118426938525145742e-01
9.112062664653485661e-03 3.613447914014752960e-02 4.552907596723335115e-01
4.168394652233777670e-02 3.535538797576217446e-02 4.958267520890908830e-01
-1.262872215603504404e-03 2.534678418358560573e-02 4.486616718222403155e-01
4.392886055848469612e-02 3.007733331058281764e-02 4.901056379258631468e-01
-3.334494024905070540e-03 2.580855120826390514e-02 4.484581040390229756e-01
2.337605732234505213e-02 3.251841046378774885e-02 5.288031001961814859e-01
2.865486523137202729e-02 4.288060206538472918e-02 4.668591790041280998e-01
-3.630494516967899127e-02 3.148533584038758215e-02 4.483296274394039660e-01
1.303281799156675962e-02 4.655413477075660833e-02 5.299647113221827022e-01
1.484242727957243643e-02 6.144627516243347104e-02 4.666777957722906267e-01
4.387311676488353518e-02 2.679346191540682431e-02 4.947921612826652882e-01
-8.240239816073146456e-03 5.641553208316089918e-02 4.587769459842122588e-01
7.377636520473517499e-03 7.764097505608751060e-02 4.755215966227031577e-01
1.115473170669512709e-02 6.179210574445281878e-02 5.256699800974783399e-01
6.858034780968629007e-03 7.662065599454043197e-02 4.807063089626227304e-01
2.868746002875424000e-02 6.447204208685461402e-02 4.891328122604814976e-01
1.406998490949185228e-02 4.526802027922298410e-02 4.603921400035775324e-01
2.788777424541772146e-02 6.552455549910693455e-02 4.867065763209217910e-01
-2.674353387779921862e-02 1.806525262175597696e-02 4.428132851803578962e-01
1.059214163821443379e-02 7.965732541278282286e-03 4.439449790108437877e-01
-3.018208655486654193e-02 1.104809105486737747e-02 4.414259695471696165e-01
7.648215240830669517e-03 6.635966105080801092e-02 5.083834602015645521e-01
4.228449060407220989e-02 2.736376741577049507e-02 4.992494708914106960e-01
-3.934780746895213954e-02 3.236220886056025842e-02 4.489697105569593893e-01
-4.391041632963222502e-02 3.128884611022492851e-02 4.494872543084740824e-01
2.497830068892824967e-02 5.742592468726327032e-02 5.139074170020310195e-01
-4.461264092549172694e-02 3.348517109132552461e-02 4.502948678661100046e-01
-1.110752912779907481e-02 -4.124059506177921858e-04 4.375434799021635235e-01
1.853439521138366963e-02 6.989151108531221901e-02 4.732374086118309453e-01
-3.737329370083398300e-02 3.081547777736492327e-02 4.480989855054918758e-01
1.071195324112279336e-02 4.232367129733535099e-02 4.582037537817810757e-01
8.567401895879588059e-03 5.514269620732280275e-02 5.293303534307229885e-01
2.705523902230481600e-02 4.519367999585436474e-02 5.172371934952786354e-01
3.168994834411877071e-02 5.877787214917028907e-02 4.932068812640407751e-01
7.641286145657314073e-04 1.621298628596067742e-02 4.453711386807157613e-01
2.822531261500384886e-02 2.695484305122900978e-02 4.585355690574848819e-01
3.246415381633168534e-02 5.764359851508073923e-02 4.854200704886535989e-01
2.649514255782412994e-02 1.316933986997607248e-02 4.514262163888214663e-01
2.660521007056840248e-02 6.725671136877595102e-02 4.903378016617645496e-01
1.460188025317453973e-02 2.391145235879929207e-02 4.514256618704470259e-01
9.569604135681742535e-03 4.242988804822968307e-03 4.422304030455652679e-01
8.137696542950597495e-03 7.101803197404660262e-02 4.992072771876308601e-01
3.632104519256577901e-02 5.054350315274770689e-02 4.857224271818146866e-01
3.502626524089290372e-02 5.227547211451874509e-02 4.945279075966369509e-01
9.083710231330668211e-03 1.918237644527804112e-02 4.482132930927266168e-01
1.683414776001811511e-02 7.579998849147773221e-02 4.810243642118788854e-01
-1.729375862515063894e-02 3.216960089769292652e-02 4.490394384509835968e-01
1.273644227777364496e-02 4.128388529650629107e-02 5.342012961224433809e-01
-2.778524669722421889e-02 5.202703398086254427e-04 4.381152369241402833e-01
6.924891602804805063e-03 1.262693985078527058e-02 4.451353971712728175e-01
1.095761809060776318e-02 1.356407882058742638e-02 4.463394760507878867e-01
3.825154809908613146e-02 4.699137615366056481e-02 4.904743235886878661e-01
3.359394493558584549e-02 4.793389543922498691e-02 4.748744882236953235e-01
4.504648195320443832e-02 2.530077695054748152e-02 4.828388537355922105e-01
4.014171809350602221e-02 3.676072186110367762e-02 5.009211876734778190e-01
-1.998023707920016864e-02 3.202838203646567877e-02 4.486869894523471958e-01
2.279708492766312211e-02 4.676266107209883782e-02 4.649862182326078841e-01
3.805576450325341697e-02 2.836497969840092587e-02 5.092604595185558081e-01
1.811214643449876940e-03 7.052575084502282765e-02 4.701469556930535920e-01
1.035771012517509165e-02 7.545503488515664658e-02 4.747710552246940385e-01
2.402222814698221770e-02 5.547906904643026826e-02 5.167665070745187661e-01
-4.224162419222685788e-02 2.867940190086890398e-02 4.484060474242275163e-01
-3.148541906894888887e-02 2.857706437126137505e-02 4.470598446679849847e-01
1.833893279671228171e-02 5.822152982500958251e-02 4.671093970605690315e-01
3.900177657867251457e-02 4.420817794341640183e-02 4.829056513347577684e-01
3.127238773340467598e-02 4.337834645468634232e-02 4.690593372065396949e-01
4.453697789134023616e-02 2.243500453345276258e-02 4.750289387962793874e-01
-1.878862845316382063e-02 5.075189456350487349e-02 4.569294578384032190e-01
8.461327146054152537e-03 3.470467390696686805e-02 4.545436595518314027e-01
3.265342102709366257e-02 4.309740869990891926e-02 5.120939649387319381e-01
-3.213638771075633116e-02 1.084151799581148032e-03 4.388047681622505580e-01
-5.560509665807566136e-03 5.295530197243552770e-03 4.400643171435220657e-01
1.035069274577871817e-02 7.959908645349612899e-02 4.797096057881496955e-01
-4.052676606060359732e-02 2.338619244243935261e-02 4.465903145335768931e-01
4.145013440199693533e-02 2.846960875807641109e-02 4.722384183236753019e-01
3.041970694672355841e-02 4.599387176400083349e-02 5.136992119613829066e-01
3.432913840908630859e-02 2.875864383180534375e-02 5.176056092429108801e-01
3.305960853600167088e-02 4.394137016170734933e-02 5.110174786214797260e-01
-1.103914773926971578e-02 3.765229451359244223e-02 4.523313932025569972e-01
2.047868723236075800e-02 7.185865587178236202e-02 4.782773826027881814e-01
2.866764503960264956e-02 2.115515576731950495e-02 4.560847921884196854e-01
1.122048882024258461e-02 3.841139466474031289e-02 4.567568986144809884e-01
-1.136434290849731854e-02 5.008864513466245588e-02 4.567612452902222731e-01
3.040129339396982835e-02 3.537785217703399987e-02 5.180608923783224240e-01
-2.953980243419956908e-02 4.800146362674318455e-03 4.389997950448926711e-01
3.767076316099767647e-02 3.729857904609973351e-02 5.066579010310942044e-01
-4.106863832246504878e-03 4.247668493635956000e-02 4.549135595561219492e-01
1.868545061894526238e-02 7.509117588988044323e-02 4.938160366887225927e-01
6.309422055670126789e-03 5.191732276798161072e-02 5.327226996698065653e-01
2.316087435401797262e-02 7.100154903567180986e-02 4.923667675729470616e-01
1.024593719926953153e-02 6.744933219885630715e-02 4.673015378446980783e-01
2.012633571577431002e-02 5.418698215974446231e-02 4.665720922884751820e-01
2.812100323424092732e-02 2.237895586106394136e-02 4.563133062923238614e-01
-8.968153927276286547e-04 4.841392942870661326e-02 4.572976376927182507e-01
-2.136475625275843782e-02 1.837753210666505030e-02 4.429406209255305482e-01
2.377579237087811687e-02 4.863917461119254132e-02 4.664732703668591496e-01
4.199403871435237329e-03 5.150074018663965136e-02 4.594427035107004897e-01
2.690185018479826495e-02 3.951435298259416140e-02 5.200755112169388461e-01
2.039100976950838223e-02 7.481220315908207463e-02 4.898478754061313944e-01
1.306044869864783631e-02 6.208971756816483722e-02 5.239745378521398766e-01
-3.012555427144197190e-02 3.538157883590795083e-02 4.497376211594611983e-01
-8.501307423267849203e-03 1.388188459722596024e-02 4.428125584131898385e-01
1.435657221286943536e-02 3.823475759949332420e-02 5.332947413868771580e-01
-1.953265105017179537e-02 7.619516429763418218e-03 4.391092698352638268e-01
3.454722922834961574e-02 3.946194575682606537e-02 4.694466475215697820e-01
-1.749520604098145013e-02 1.026784500111205256e-05 4.373486919546583085e-01
4.170792724476958535e-02 3.638953752458672780e-02 4.827985396408356888e-01
3.940053915411909080e-02 4.409942792267633471e-02 4.938477661734806956e-01
3.405654231930597270e-02 5.245885479742144059e-02 4.805929352691307166e-01
4.222832536994438474e-02 3.398071326490276906e-02 4.941539901091270282e-01
4.571496837712481914e-02 2.385319227979700724e-02 4.882379107689180930e-01
8.671114111084218812e-03 5.952417760602217445e-02 4.633483169658326739e-01
2.915072127141684483e-02 4.029927507406402126e-02 4.659287343821905125e-01
4.688776235454410711e-03 3.767261219747428114e-02 4.548806460233991156e-01
2.673892542672717462e-02 2.566893051417327987e-02 4.571158191995339792e-01
3.768528963816976905e-03 9.188821383211356539e-03 4.430988027149984076e-01
1.779753414354092247e-02 7.369592150677276021e-02 4.999390222117921501e-01
2.014225053204892445e-03 6.484797638230328787e-02 4.642006755317875100e-01
3.549448059379842202e-02 1.987900081096483085e-02 4.600548620846737768e-01
-4.323904628845636616e-02 2.623735496543220386e-02 4.479127862474721611e-01
3.887060885371521751e-02 3.728388384424098645e-02 4.744524585642557746e-01
3.568012745717588641e-02 3.559740108228703209e-02 5.100391324159582185e-01
1.137141765373965441e-02 4.042176346999155206e-02 5.343682546540485800e-01
2.841044550829970733e-02 4.095010494835807369e-02 5.179703387280822913e-01
3.964623346473770266e-03 5.562561618581748218e-02 5.327370115806452366e-01
1.303904399911395492e-02 6.628104620205038655e-02 5.119613301351209067e-01
1.539598386251320172e-02 5.684251723051586547e-02 4.651697726766042540e-01
4.413444088974933371e-02 2.947218128672322510e-02 4.881584111088466682e-01
-4.807451189480674986e-03 6.380883177182707089e-02 4.631248993486699606e-01
-3.130044983756483795e-02 4.773591362241923208e-02 4.572362990623669576e-01
2.903218492974334736e-02 6.055098480543827377e-02 5.020745834576798572e-01
3.693897282933630150e-02 4.305450252719893178e-02 4.760904356657216785e-01
1.445622354993873586e-02 3.833524181444265821e-02 5.332597485013997884e-01
1.225685816711552870e-02 4.485984213685314387e-02 4.596470891498619094e-01
3.720431190565404861e-02 4.294237959715943576e-02 5.049315234098552541e-01
-7.019368540147149019e-03 5.727868926520746778e-02 5.318816204087575272e-01
3.169138934620994996e-02 4.031901816048118203e-02 4.676187974048813256e-01
1.201966818027616277e-02 5.306501392241817772e-02 5.271911819152038658e-01
4.133967739108306005e-02 3.790840068739266544e-02 4.845129930973252064e-01
-3.552733305928496271e-03 2.121111176630958300e-02 4.465442154157276966e-01
-7.465447521568234837e-03 5.381979343025311557e-02 4.580268486080852353e-01
-3.027556722023779651e-02 3.494246463435654593e-02 4.495497688466355557e-01
4.127520949281649615e-02 3.891824177509401600e-02 4.936328992376026181e-01
-2.449045688756256584e-02 4.532804955056318752e-02 4.545267311201819371e-01
1.931947709620305056e-03 5.359528039886841261e-02 5.362040114900401555e-01
3.739932205142028343e-02 3.541136998882682407e-02 5.070581462344934121e-01
1.161560511412649405e-02 6.085058421941008655e-02 4.649758911362128488e-01
-5.385650429776926360e-03 1.250671267969222580e-02 4.427860173645732922e-01
3.611077134561254363e-03 5.127973878878181596e-02 5.365540486333231218e-01
-1.601109250739243817e-02 6.096027281168889950e-02 4.669808200554832478e-01
4.225621073567836783e-02 3.385102915158050979e-02 4.800287216627251441e-01
3.003176407872074072e-02 5.761618146119164979e-02 4.766146983767260426e-01
1.284652050842834126e-02 5.181706848049631720e-02 4.625221487276787724e-01
4.137960937530888589e-02 3.868624867401693201e-02 4.885143828645316932e-01
3.377449405385246628e-02 4.934701649066550178e-02 4.761696167298525850e-01
6.014024890321193265e-03 5.179968986985236667e-02 4.600732008259513783e-01
-1.348125157633463245e-02 1.922747698498105187e-02 4.440506043700095384e-01
1.650249192158659631e-02 1.798128892646967680e-02 4.493669194290256796e-01
8.477395523127611091e-03 1.961046000842624291e-03 4.412363194236755271e-01
3.595908470137904045e-02 3.966949881647497539e-02 5.091865837765836567e-01
3.986769388744659803e-02 4.324417415698671163e-02 4.916989002774784789e-01
1.560442004864789553e-02 3.156809752308067929e-02 4.550835654303942990e-01
4.100827422962374097e-02 3.197008237530270941e-02 4.741353963072368893e-01
4.360621455902105592e-02 2.521405686832494178e-02 4.972203616950467975e-01
-4.670940408446703704e-03 6.113794536393006573e-02 4.610111582145402509e-01
-2.878312252563854090e-02 2.694125003638086699e-02 4.463711885345045260e-01
6.252394252285145559e-03 3.846917991630566247e-02 4.555731349170685229e-01
-2.257712245224986411e-02 5.141161679242693683e-02 4.573683088123552953e-01
5.251176392570795944e-03 3.072147025167618756e-02 4.521573365307103853e-01
3.210001305130019689e-02 5.720155216766599493e-02 4.810714249511531260e-01
1.497097350732577020e-02 5.167280110138935956e-02 4.632207314462343795e-01
4.225860201330271931e-02 3.161457687086312307e-02 4.966173260917879917e-01
-1.053610448707289343e-02 4.383113821831328971e-02 4.546626888225179797e-01
2.112432285066070600e-03 6.029097611877870522e-02 5.209726375931593711e-01
9.996454633476774612e-03 3.353239514460572973e-02 4.544021315011133599e-01
-1.369658025107802456e-02 4.949156477976063284e-02 4.563828889334045069e-01
9.858841305483308920e-03 6.083429060389955456e-02 5.267839238088725118e-01
3.617824284433329013e-02 2.207245513989537777e-02 4.616510787451137410e-01
3.161353263588491391e-02 5.885285770406294831e-02 4.825050520077651672e-01
4.090874300556838344e-02 3.953237501448565033e-02 4.859510278927184346e-01
3.651512880115811294e-02 4.165879637069548613e-02 5.074136932611076345e-01
4.197019262776491982e-02 2.426258985159020568e-02 4.703418865271618565e-01
3.754834258524515633e-02 3.715120955379012241e-02 4.719734226027575974e-01
-1.371480095996719002e-02 -1.426626048811266943e-03 4.371830387888578362e-01
4.004633199862363963e-02 4.177726550236649655e-02 4.959967034499352945e-01
-1.447505315481239022e-02 3.953784609346960160e-02 4.526587047474375791e-01
2.990845478570098442e-02 6.227464410702061859e-02 4.912113413180286825e-01
-2.778875585170806697e-02 1.094487815157929589e-02 4.408322251970820949e-01
2.209111542890285565e-02 2.400444904229701373e-02 4.539109679688215215e-01
9.773753160252435929e-03 4.400732112619352987e-02 4.585206919977754536e-01
3.124172780000409808e-02 4.194310650673972740e-02 4.682015225399939751e-01
2.957587061292059685e-02 2.595195036595875776e-02 5.245549087307360692e-01
2.427363366399519148e-02 3.828036480571120337e-02 4.618392643031781208e-01
8.501384606021678003e-03 7.237640356464243585e-02 4.702692649193215835e-01
1.013445837731895630e-02 5.017958169362996684e-02 4.609143781312851074e-01
2.601944335046727647e-02 6.662442268091137154e-02 4.950960164491706728e-01
7.034823589505373280e-03 1.160987123382093648e-03 4.406917275096740583e-01
2.528023056894952714e-02 6.046607112456030969e-02 5.108939813511940153e-01
-3.545362838963148078e-02 1.375476365882865714e-03 4.394150994579678615e-01
1.133430033412710647e-02 6.153883089411778251e-02 5.255764732339343048e-01
2.489349608038482486e-02 4.720819224586392943e-02 4.665170515936443163e-01
3.483264561086765743e-02 4.993312929023219215e-02 5.038917104980309425e-01
2.946877593595476422e-02 7.795603676250975264e-03 5.292208780230477361e-01
3.510853852852933651e-03 5.551032569767291869e-02 4.604354158983053891e-01
4.004866552011792508e-02 3.594153489970695198e-02 5.014035885346151966e-01
4.218452677635139286e-02 3.039789075432810378e-02 4.754991795475987382e-01
2.360995896039676939e-02 2.927375640715114066e-02 4.571661914232117985e-01
3.203697445523953635e-02 5.477420882226764071e-02 4.775212003234118874e-01
2.120710892742774106e-02 6.649830575192629267e-02 4.731655021356191981e-01
1.978359269472275417e-02 1.717540547806362811e-02 4.498940312440666833e-01
1.263823521471824259e-02 3.943021676763940053e-02 4.575396259422521150e-01
1.479475302479885818e-02 7.560678426085137849e-02 4.956447489487954550e-01
1.117901035065405578e-02 6.212795920037268715e-02 4.652860660510426127e-01
-2.617502823255339270e-02 3.357021158610352246e-02 4.489867333778740921e-01
1.511365033245677669e-02 3.859180919744012450e-02 5.329944672773275771e-01
2.225383294152059530e-02 5.010396949717124682e-02 4.661486229718103114e-01
2.862910221393624027e-02 9.938075870715228424e-03 4.513742910989495538e-01
-1.731273712083038988e-03 -1.214813130721858168e-03 4.382915135153643282e-01
2.287452451456878713e-02 4.124619654032370131e-02 5.247561629912367298e-01
1.235361011985464975e-02 6.717511621428033652e-02 4.679510547803776843e-01
-2.983592490549233020e-02 1.946195706085095817e-02 4.436474022328119049e-01
-1.595827516112849342e-02 6.060556147287790574e-02 4.634215130109162750e-01
-1.358122632552118646e-02 2.023585280715346074e-02 4.444187368814113692e-01
2.895756795802282776e-02 4.625443011601476639e-02 5.155277043578571083e-01
-2.154570992415143216e-02 3.306159759648563679e-02 4.489823377412439087e-01
4.484992490237914992e-02 2.504192317433346845e-02 4.917430854240175675e-01
3.573054458984547405e-02 4.938353797891691099e-02 4.811124152643342922e-01
-6.445140478551316006e-03 5.236194302310744758e-02 4.576809086045203201e-01
4.527559320597966674e-02 2.486725776055584772e-02 4.896373443498651112e-01
-9.384859461071835829e-03 5.748770387942267468e-02 4.592000256645376033e-01
3.143585780364022055e-03 5.884839219317584275e-02 4.612556268979106089e-01
-1.644287276634540454e-02 9.878518241120745960e-03 4.399128547058825944e-01
4.218007511386422798e-02 3.522623198613498985e-02 4.844946483070560750e-01
2.645092801404287305e-02 6.167411389871766542e-02 4.753284842417622169e-01
-4.412374353735541016e-03 6.482966753266617213e-03 4.406465144267442957e-01
-1.973431934020442903e-03 6.196573047729119627e-02 5.314980279158301180e-01
3.272542125048014811e-02 3.929263187171594396e-02 4.678742609311091760e-01
4.131355741121813668e-02 2.228799711594357455e-02 4.676995729668908530e-01
4.285686800570601140e-02 2.651422843495627318e-02 4.739245214310600640e-01
3.475525542820425556e-02 4.826168232597756458e-02 4.768025999243697965e-01
2.963463193233465201e-03 3.725506686117154714e-02 4.543406464506355991e-01
1.697996781754920401e-02 7.237723212469698852e-02 4.743257842739087571e-01
1.445855034114264595e-03 5.703655245107674965e-02 5.340312048457294125e-01
3.718326250697746166e-02 4.735043877398319861e-02 5.009541723972470439e-01
2.256679764530356014e-02 4.635446007462407092e-02 4.647095928410915344e-01
2.462876506146643996e-02 6.564261858742327649e-02 4.762909312053478783e-01
-2.624216431508028316e-02 3.946810744314055430e-02 4.515625197278633762e-01
4.275187763139063485e-02 3.463383054681057338e-02 4.903994825429895954e-01
-2.929057265204433255e-02 4.934459462284250530e-02 4.576460052835107373e-01
3.785654270716408420e-02 4.215334504722240833e-02 5.039671631913844596e-01
-4.032098949039409144e-03 2.231492099637434959e-02 4.468899008586883492e-01
-4.798489141013798261e-03 5.756483613031121438e-02 5.269143690672414282e-01
8.950008878646029814e-03 3.455742787843307101e-02 4.545940378717344688e-01
3.754540346023443886e-02 2.511518211572728865e-02 5.122901306120331011e-01
2.328252469367481786e-02 7.175089842129307727e-02 4.863394724438845906e-01
2.882918357393326678e-02 5.783204215622653188e-02 5.082868310052673921e-01
3.829195087480697507e-02 4.497744910637008209e-02 4.810673482226454079e-01
4.377389244262572254e-02 3.065197403293514269e-02 4.879725051322140184e-01
1.181876345737017248e-02 3.192197936284943416e-02 4.541416924373579134e-01
3.723929526390049038e-02 1.912926880036361701e-02 5.184130779473322681e-01
3.524895020899954101e-02 3.627789606514304765e-02 5.106068213150480872e-01
-3.692331399540915021e-02 3.664557549489005916e-02 4.504830433572933890e-01
-3.716031686694436925e-02 2.271236309790296629e-02 4.457292157748923844e-01
3.123320945933482848e-02 5.958060733726034536e-02 4.930713134518844853e-01
2.567830917551911646e-02 6.648709933489556356e-02 4.969281026343541630e-01
3.635591352527822034e-02 5.051704855765925400e-02 4.910266602757252796e-01
-1.874141290031357265e-02 2.928561630148544467e-02 4.475518991836147653e-01
-2.409203199959954189e-02 1.449767894353859964e-02 4.414900015432848823e-01
9.172646995445775733e-03 3.261775349214830061e-02 4.538260159521110282e-01
2.986665962480852810e-02 3.171479864559585693e-02 5.238785189248161833e-01
4.854463841822928907e-03 6.236540406271221665e-02 5.226193983331629545e-01
-3.198773229196562318e-02 3.803671579024497929e-02 4.508945895811190541e-01
2.977722566003644308e-02 5.714650534938354315e-02 5.062907065089803371e-01
2.956791589428653735e-02 5.336360923328832724e-03 5.311698010928491698e-01
2.477112928496172720e-02 3.982235659652581805e-02 4.628083981685698345e-01
1.474967928661491401e-02 6.201411501233231038e-02 4.668678349325747767e-01
1.343859521668799850e-02 4.592108815519989340e-02 5.306642375361633190e-01
7.094017775860659777e-03 4.915098084138235651e-02 5.337068992858206018e-01
1.848029031051087734e-02 6.243306993990067888e-02 5.172357897252025660e-01
-4.086918728249468169e-02 3.597807628341592734e-02 4.506840676376671073e-01
3.531083759236940123e-02 4.531753670377525189e-02 4.751387736704669185e-01
2.738262216620169359e-02 6.188884420845013751e-02 5.046917319742418861e-01
2.787982853726923838e-02 5.062303494186400771e-02 4.705844096341603167e-01
-1.590326772696146890e-02 1.720093442375071613e-02 4.429080040549523423e-01
2.800141837358172472e-02 5.590313102931106226e-02 5.113134723833939743e-01
2.150768775208061409e-02 2.649735372079129597e-02 4.547872616624900055e-01
6.539977096035608055e-03 4.106994270369009048e-02 4.566488935772801683e-01
7.783620567954466218e-03 1.281627359897487273e-03 4.408748868053926073e-01
1.659552275888539000e-02 7.639215339032165430e-02 4.875567502017940646e-01
1.047413120483855001e-02 4.220892059919012507e-02 5.347923631045818915e-01
3.531293376445114596e-02 4.755954989829414697e-02 5.055277103408937212e-01
2.045725866491865039e-02 7.180081592114863354e-02 4.982799547655903383e-01
-9.281669046972121709e-03 -5.943897496179130838e-03 4.367327841729737870e-01
-1.290178371138397777e-02 3.142895366877110352e-02 4.492224343718529966e-01
3.317028804713784140e-02 5.334082481951478438e-02 5.023137970267412822e-01
1.057479715603917153e-02 6.664931599656309658e-02 5.099754080723454264e-01
2.465336537484011381e-02 1.700226153340615720e-02 4.520093064021424301e-01
6.083221526420419176e-03 1.700359287920165385e-02 4.467325218832899347e-01
2.592926603810227250e-03 2.653954724095351422e-02 4.499028025442355361e-01
3.626133353910258178e-02 4.963174484920479523e-02 4.829476327017162007e-01
3.806189756625592141e-02 4.435696586024831523e-02 4.795558862491401952e-01
3.962303392308808708e-02 3.026358710018331108e-02 4.700663996879140827e-01
1.709492847211010330e-02 1.755511190536370933e-02 4.493246855536058293e-01
1.707286176094806318e-02 7.271116461732436698e-02 4.748009164946347394e-01
1.332188223784288444e-02 1.168856156828648393e-02 4.460704136289178612e-01
1.288241914195327117e-02 1.208991911046883999e-02 4.461423267980473284e-01
-2.327385061429093974e-02 3.839452102926525084e-02 4.512426846022067339e-01
-3.408590445196245378e-02 3.997879123170274690e-02 4.519411265014668944e-01
8.355130462259798690e-03 2.498866315412089784e-02 4.504395037613151964e-01
1.722158098293767592e-02 5.474901415800009080e-02 5.223819845293170561e-01
1.280059696504385475e-02 3.744547195656082895e-03 4.426675776300611487e-01
-4.914121360241501153e-03 1.102246350007072065e-02 4.422968985024132715e-01
3.336811069304165128e-02 5.544804573580829760e-02 4.825320308098035582e-01
3.350062700776861024e-02 5.205540902256647340e-02 5.040344720202449835e-01
-2.284960302102877205e-02 1.525130079173098348e-02 4.417480934715382612e-01
-2.719994950151428947e-02 2.658030087174033038e-02 4.462017366674835839e-01
-4.666939399229445666e-03 5.913669679539745871e-02 4.598690611383808302e-01
2.272951908754612324e-02 4.376059726803471078e-02 5.222708999793789220e-01
3.488295507052469741e-02 3.199935157153340620e-02 4.658013926582207365e-01
2.735329855859200063e-02 6.362210148887172123e-02 5.005481922959488239e-01
-2.891704240443749435e-02 2.158861548522405041e-02 4.442765523988934095e-01
2.209115777196507188e-02 6.935414578443059586e-02 4.772232426955451690e-01
3.368591226167683139e-02 4.041220434362047254e-02 4.692896145106718597e-01
-2.729987609474439358e-03 6.156667526300049070e-02 5.310822515787962939e-01
1.917350092272008394e-02 7.499734823945722328e-02 4.924676675982473384e-01
-3.048857692388886459e-02 4.488165641126043437e-02 4.550057997489990180e-01
1.244962211863313156e-02 7.547960716166160489e-02 4.933331939273066236e-01
