1.915741922829747659e-02 7.223194808757020524e-02 4.756083319591003500e-01
1.159943261968519185e-02 1.485634340939999062e-02 4.468292736084769068e-01
3.429402363555403288e-02 5.030303168947684866e-02 5.044623761651589877e-01
2.653022713655227988e-02 5.001442175665644224e-02 5.155976941505856503e-01
1.802081102925973469e-02 7.355257259919645296e-02 4.760276561180801225e-01
3.537452430586036228e-02 4.004353223616110430e-02 4.703444488111736543e-01
1.346028534232371864e-02 6.036795597560765808e-02 5.230130209971721733e-01
3.378109335385560269e-02 5.184053889185098740e-02 5.034534126443057644e-01
4.044632393500258855e-02 3.460402619795722307e-02 4.746861309321815936e-01
2.304306846822183966e-02 6.988956222096849580e-02 4.960145644675654775e-01
-2.098906669571585018e-02 6.075963878390622588e-03 4.385715991750651077e-01
4.872051849096343656e-04 6.274778123554318465e-02 5.326093772115937375e-01
-1.080217812342492735e-02 6.074273912253343871e-02 4.609862475645509772e-01
-3.769513668994122629e-03 5.134428657569552884e-02 4.571389717961312216e-01
-8.505543411343047255e-04 5.313916860099144462e-02 5.370985563238410698e-01
1.181096691337955168e-02 4.950982752464791470e-02 5.287532652014271806e-01
-1.582643048578949788e-02 5.903501107525291336e-02 4.607421888156290057e-01
1.824736272298147985e-02 4.049857967520043012e-02 4.593459864441851725e-01
1.285728167381944981e-02 3.979031191880207791e-02 5.326629508739544328e-01
-4.867371617160906258e-03 3.044583402408488140e-02 4.498271007181573466e-01
1.122443912496836303e-02 -1.244663295826985323e-04 4.409713237019622367e-01
1.444239493212877944e-02 7.537796094545098913e-02 4.964651087596506085e-01
1.375286331540359966e-02 7.577093029213019526e-02 4.948748539859211260e-01
2.985609244929031750e-02 5.791881577473282500e-02 5.042848712160171720e-01
2.508957927880898359e-02 5.431124226988906512e-02 4.694799707864980021e-01
-3.694420253855089376e-02 3.255111868912136108e-02 4.487512947840803790e-01
4.142417086907341367e-02 2.453436882104664818e-02 4.691369130647700669e-01
1.101860123686062773e-02 4.903320433109197019e-02 4.601973795637954168e-01
8.506584643495353551e-03 7.829708224498252433e-02 4.749145443034615832e-01
-9.888559586670654655e-03 5.646352052741537841e-02 4.583249062723023792e-01
-1.221362845777358881e-02 6.024982419639775266e-02 4.609588402058206191e-01
9.632461730228910474e-03 7.902596746593561206e-02 4.796166259285640221e-01
-3.510877697379900103e-02 1.982057821739720976e-02 4.445043909909852098e-01
-2.540047177866962616e-02 5.058609806183873847e-02 4.571929702202046086e-01
2.185651105720070111e-02 4.259399238958369582e-02 5.250307767273261206e-01
-1.082200270258903106e-03 3.048963975456649503e-02 4.505291488743733419e-01
4.462730136750387572e-02 2.795662006666820021e-02 4.884967274770580237e-01
2.841942665707626603e-02 6.261881444984583600e-02 4.993431149837169181e-01
3.312538104908591130e-02 4.878319830756924769e-02 4.742949886983673924e-01
4.132369980841642948e-02 3.651325003636701066e-02 4.787598441349192324e-01
1.034914704508829806e-03 2.555912635952636153e-02 4.489891563382144013e-01
9.441185633265059690e-03 7.524676115210891802e-02 4.922617234838837508e-01
3.727306484905140022e-02 2.737467147546851845e-02 4.651394233537828882e-01
-1.213225796399364752e-02 1.133919353918562585e-02 4.411690081015207099e-01
-7.827448859563247707e-03 1.774621052600692736e-02 4.443040822972116888e-01
1.244545938963463258e-02 2.927122475189448611e-02 4.528465290426100798e-01
3.470073007512443353e-02 2.447643717959070361e-02 5.194754635527860653e-01
1.412031790329547169e-02 7.377239205022498303e-02 4.995490359891237020e-01
1.143525827558432989e-02 7.076098498951055582e-02 5.046331049890765419e-01
5.809298635715545375e-03 6.309714717625751479e-02 5.193653279394022659e-01
-1.651119824272137548e-02 5.801388544645638690e-02 4.597975303186586649e-01
4.092675667323562860e-02 3.591091469167986133e-02 4.985124754800266400e-01
2.536572457478791093e-02 6.478215820219741794e-02 5.023977574312898930e-01
-1.996309128951109790e-02 9.308899575111738434e-03 4.395353094803752803e-01
-1.638965751992956660e-02 5.938231304601070820e-02 4.612558420554238592e-01
2.760228066030148697e-02 1.501552733665498761e-02 4.525886733037594589e-01
-2.150839541319575846e-02 -4.155440738815279617e-05 4.372798718140891161e-01
-1.138856649509634167e-02 4.616301436740695430e-02 4.550038177900696534e-01
3.591287367793639940e-02 2.685775402477992221e-02 5.157128670039698992e-01
1.382780794962699435e-02 4.779475747896508309e-02 5.278966878795292583e-01
-2.329485305928515743e-02 2.955017409502333839e-02 4.471868039643127068e-01
1.107601426094562656e-02 3.995082833989949123e-02 4.568852551119832461e-01
-2.248810567727770743e-02 1.983232273671953205e-02 4.434197965207908876e-01
-3.969617963831485047e-03 1.550346196538202395e-02 4.440845553665297984e-01
-9.122375524879115273e-04 1.910668779592060787e-02 4.460723738188233645e-01
-3.804261114302012053e-02 2.915285405153320714e-02 4.476613914325818233e-01
2.029551962228333048e-02 6.066373146941755889e-02 4.684937875248364469e-01
7.556048368194626802e-03 2.350544740881491471e-02 4.494127704597348782e-01
4.439147030937781041e-02 2.604787383798453509e-02 4.789101663247977148e-01
-2.834919884850994887e-02 2.144908221571409715e-02 4.440932746035767820e-01
1.514082056442276301e-02 7.109141058034254557e-02 4.705205608439896880e-01
-1.697540483272595713e-02 5.406180729490126652e-02 4.577893308308368936e-01
3.695995599073188809e-02 4.659903129572125907e-02 5.019024137774044103e-01
-1.425469904518033085e-02 6.112566045863123548e-02 4.636923722621271726e-01
2.528052462697883557e-02 2.956676008036039985e-02 5.270293971327384419e-01
-2.433228401309097885e-03 4.831726013021418048e-02 4.565741931187733971e-01
3.877344419453505192e-02 4.303618506273435007e-02 5.001267288808053380e-01
3.108506128963604148e-03 8.734356102361340302e-03 4.426825131057907647e-01
3.572033859253847393e-02 4.432773631165970452e-02 5.066812438610780456e-01
3.563493008560670444e-02 4.903766635681211516e-02 4.795735866430145822e-01
2.935453307982865100e-03 6.130262830774677041e-02 5.182982128798889754e-01
-3.324059294847780607e-03 5.283873410843595297e-02 4.575914564104963111e-01
-2.818075085471275984e-02 1.248294921241443860e-03 4.382526759853697662e-01
1.596318731935313442e-02 6.081073786509769846e-02 4.661437428498381719e-01
-1.047028249671063879e-02 3.943967769600008333e-02 4.528625898213050061e-01
3.072343946789072439e-02 6.038613315929824976e-02 4.934832737923666168e-01
8.081766821692291242e-03 7.058875045214225985e-02 4.675279802561692621e-01
2.885240531578443096e-02 4.486067164801096907e-02 5.150261221295496794e-01
1.015055341866832883e-02 1.440430821944942499e-02 4.463364340631338911e-01
-3.963894773125765242e-02 2.075053893305157243e-02 4.456256290046729518e-01
3.076940345749518135e-02 6.011267360858044834e-02 4.813858959137811699e-01
4.859890451414054097e-03 5.221774545901424619e-02 4.592912512803517533e-01
-1.977202133554146687e-02 3.243527401437455715e-02 4.487663016189116783e-01
1.417058051881020693e-02 5.931975617546478979e-02 5.226493366066317092e-01
2.101915492488064252e-02 5.607917587892659317e-02 5.182861767980455614e-01
3.928852992066092509e-02 3.955165699283074571e-02 4.768684546641671074e-01
5.200675176701924016e-03 5.922203990814454283e-02 4.613427935984593109e-01
-1.457003886688172135e-02 6.650973845071345494e-03 4.391862264013681738e-01
-6.686021834803484477e-04 3.825160716388879834e-03 4.401619104089715684e-01
2.688405972821408113e-02 4.987956859914897956e-02 4.687036311942297528e-01
-2.112092991984191800e-02 5.412203195300830522e-02 4.582292932076066361e-01
3.893838422848174691e-02 2.236367173083209786e-02 4.639163800853223774e-01
2.996838958212255308e-02 3.738002016724969317e-02 5.165834527722590330e-01
4.119483770105798748e-03 5.951222236275095084e-02 4.610761576802648865e-01
1.280987345574540262e-02 6.504871000100277689e-02 4.663102935340082689e-01
7.242695673014260156e-03 5.615360535303873940e-02 4.611570375631661722e-01
1.114616289471806639e-02 4.132205450995858620e-02 4.574402763418145001e-01
1.435103977891290065e-02 7.630145319330658427e-02 4.880110423911528938e-01
1.476554044775360737e-02 6.975355929854201720e-02 4.695370886322899895e-01
-1.474101557958630224e-02 -4.097013863072968172e-03 4.367914858080927942e-01
1.703947802176876414e-02 2.523409718064014221e-02 4.524591379995673290e-01
8.083055546627965562e-03 2.420914580884498540e-02 4.498157974204503029e-01
2.119166962504956397e-02 7.296620175234676264e-02 4.938207250517991920e-01
2.187936144808095770e-02 5.264812277936063017e-02 4.662864553090376174e-01
2.992648286124238721e-02 4.043776012544458842e-02 4.659395286390241586e-01
-6.321597774740280590e-04 6.921431867729671561e-02 4.666550671100599956e-01
-1.815769708640261985e-03 4.619858040601956817e-02 4.560116953891765190e-01
2.159281639883304377e-02 5.534915970325328394e-02 4.672030336361500114e-01
3.207931545977781018e-02 2.266187582356546729e-02 5.224019086988340721e-01
-2.708793600282728004e-02 2.490142519360359630e-02 4.454034569811186617e-01
3.284784213103800893e-02 5.677323322095657876e-02 4.824455248408520136e-01
3.682014514790413889e-02 4.897065845523101285e-02 4.944360879595272040e-01
3.169357231794483337e-02 5.782962847879390134e-02 4.973458533075738597e-01
-5.994628183910123351e-04 2.788935322515714854e-02 4.496032102494138538e-01
4.738525218955621371e-03 6.373291654821021390e-02 5.276394997249290730e-01
2.750857893263872200e-02 5.063734590173452760e-02 4.695585537372516938e-01
2.574575871599156518e-02 6.228350115020552663e-03 5.312012399496154336e-01
-9.883652208342381257e-03 3.759011870444617376e-02 4.522228968958822426e-01
-2.776820214540233825e-03 6.085379939757725593e-02 5.274851615511378933e-01
1.629510116949469236e-03 6.656043226919322597e-02 4.643726091095695674e-01
1.642867765744610714e-02 5.878681361734575811e-02 4.655827592116402736e-01
4.374967336271023965e-02 2.484142720892647607e-02 4.967776417557725477e-01
-8.046008190052342246e-03 1.156131907312607163e-02 4.419168347158021204e-01
-1.658824549101563586e-02 1.508634342496348313e-02 4.418717916906452214e-01
4.513740637706955411e-03 3.765252573860295576e-02 4.544644887014323009e-01
2.149253415084946550e-02 7.250725353314337041e-02 4.810404773844710880e-01
-2.048594925693404678e-02 2.350346776955773709e-02 4.448569734054617641e-01
-2.590886959459859362e-02 2.780588179727035841e-02 4.465473777178654013e-01
-3.761439480856247630e-02 2.452097782812807589e-02 4.463068675725821999e-01
3.029420437748033684e-02 6.148319364323685809e-02 4.851492313786254229e-01
-4.186601814455791735e-03 6.000122305146067536e-02 5.350879807440827030e-01
1.656519157764805086e-02 4.300180205047351989e-02 4.597542368093028853e-01
2.487835656684249733e-02 6.191718671094565904e-03 5.311735503001150382e-01
1.632538201052160728e-02 7.632683035649132086e-02 4.923545214522412894e-01
-4.805226731834985089e-03 1.530679136290185281e-02 4.438595835358810082e-01
4.981065209460909353e-03 9.868494746111160926e-03 4.434967957499487134e-01
1.147535743149601627e-02 2.549577965326588203e-02 4.510930401369163678e-01
-2.703098403655972495e-04 5.320502542257480628e-03 4.407541724041277864e-01
-1.833224729841886544e-02 6.017008387278138803e-02 4.643531647710956167e-01
-7.507207077372596293e-03 2.458512176036004374e-02 4.469949922142294474e-01
3.330851356652352740e-02 3.897441737543611701e-02 5.126681773452153035e-01
2.377349610750036091e-02 2.620362080153204598e-02 4.554941952908544978e-01
4.585617966599582485e-02 2.303269349214722220e-02 4.856366223300572771e-01
1.019704337821286839e-02 7.416828227489793979e-02 4.719806711992466375e-01
-2.887933931215827879e-02 1.631884950978905804e-02 4.425326646967133182e-01
9.316662250610788926e-03 3.828106345162540780e-02 4.558060722136650367e-01
1.404182093280613962e-02 6.955757451665010860e-02 4.690928898941589820e-01
5.832702154813034293e-03 -6.470730938903501012e-05 4.399585540235093628e-01
1.730174338728049724e-02 2.244659962242420009e-02 4.513158286828955479e-01
-2.410503444457252897e-02 2.797586609391282050e-02 4.465665682163467709e-01
1.449984323478960974e-02 7.734098714101614314e-02 4.843124982244364496e-01
1.589419468483273951e-02 6.140571098441281045e-02 4.663454835630866380e-01
3.807066046087255462e-02 3.509588002689857655e-02 4.706011538254471493e-01
1.993532049474244089e-02 6.594477902428290406e-02 5.091607956181547490e-01
4.385408694538161373e-02 2.874589459478528453e-02 4.916273043540254628e-01
4.590256324351642270e-02 2.213015742211783474e-02 4.817127291454637028e-01
1.373384659384212225e-02 7.101727702570656553e-02 5.056570895454719494e-01
1.821121021795475562e-03 1.844884639062366327e-02 4.463276394200820230e-01
1.144254444026836931e-02 6.228555733077527357e-02 5.241819538021682545e-01
1.351826283920698132e-02 1.770989196919063244e-02 4.483860820958541216e-01
2.343659145225106960e-02 4.623977987033148392e-03 5.317102718493752489e-01
-9.159808474148121993e-05 4.474819031901524496e-02 4.559363297913163748e-01
-4.296623835965771715e-02 2.586447285393726758e-02 4.477355270451520708e-01
2.219427364998884100e-02 3.224289408499020348e-02 5.285952808425806726e-01
2.585860383089687992e-02 5.779546793995984921e-02 4.717182886001398678e-01
1.700938770996789778e-02 6.505735428822514987e-02 4.684245717519984198e-01
-2.854504734421203088e-02 3.345470259558273873e-02 4.488281769175410663e-01
3.334644877701094939e-02 5.614859968768751153e-02 4.907569625429983873e-01
2.121438169418433939e-02 5.161931869298501396e-02 5.193277687830575307e-01
-3.422818968924008776e-02 3.223194748959719302e-02 4.484887923222737882e-01
1.694411922008681390e-02 7.663312035043051695e-02 4.825722844393456890e-01
-1.856918000361134496e-02 4.360199813995733337e-02 4.535896341613486760e-01
1.661532451701379018e-02 7.665850997929961330e-02 4.861873293744680136e-01
-2.111744709809335041e-02 5.067713042439339621e-02 4.565044388404642661e-01
-2.604531963632567004e-02 5.002734949598981740e-02 4.570859400671788420e-01
-8.975762552496583183e-03 2.270408978467497365e-03 4.385879387384724049e-01
7.342558034263023739e-03 7.665825314733155926e-02 4.800997215228892667e-01
2.772161860196240002e-02 6.150938262881938678e-02 5.043804197174430737e-01
2.924205389161357686e-03 7.238038899865838205e-02 4.713907263667608816e-01
4.405251357580984573e-02 2.835080268134848244e-02 4.814773194508031873e-01
2.053055584066525857e-02 1.108952493067289803e-02 4.478045124672117572e-01
2.047586287305966715e-02 7.482817786124082438e-02 4.909839317683462045e-01
-1.778147821117060171e-02 5.829377780137007942e-02 4.604811082538237121e-01
1.228341278201500707e-02 7.835519381279111573e-02 4.809290821677335570e-01
3.636822422883236039e-02 5.077021483198637664e-02 4.857089593017262508e-01
-1.271089603758604122e-02 3.844465828773082489e-02 4.522380766280920117e-01
-1.786755182133293457e-02 3.053457344401343948e-02 4.480947363275684103e-01
5.195379809681301142e-03 6.363941392238306460e-02 4.631664840058167809e-01
2.925310199978966783e-02 6.249897497848226624e-02 4.806155594842383971e-01
1.309830468885075233e-02 1.283135732100298618e-02 4.463215118393093483e-01
3.818205787241739368e-02 4.666650715020582985e-02 4.944843353753764492e-01
-2.556397065015592052e-02 3.323228886866130827e-02 4.487298166819980172e-01
2.716405670876181205e-02 5.426946666443386441e-02 4.710522398304248792e-01
1.500128531639356028e-02 9.146327423913356777e-03 4.452798511395321124e-01
9.376123284723524368e-03 6.442109035331809730e-02 5.201281468945798681e-01
3.121527195997773202e-02 5.987892600399551124e-02 4.850198065378625856e-01
3.867731525600641429e-02 4.003660427260839066e-02 5.028894401688627225e-01
1.941144513334675664e-04 5.505076796838260372e-02 4.587731418573555708e-01
6.929944573853871921e-03 1.673348910356045952e-02 4.466179031627823259e-01
2.251226580825813062e-02 6.791979578870990797e-02 5.011281708769425025e-01
1.653966801724521957e-02 4.760480990803796220e-02 4.615791023517682445e-01
2.761053464211619610e-02 3.151890685780476403e-02 5.256920291073876594e-01
-1.234572427735503193e-02 2.669223796861054654e-02 4.470382397684198317e-01
3.014108441894374976e-02 2.593247364861690080e-02 4.588364339235105338e-01
-9.571582960171439239e-03 2.170009652026481939e-03 4.384924443934699601e-01
2.240111787038702798e-02 4.214881296780791098e-02 4.621521270600826847e-01
8.290338728429973852e-03 6.516080088748861521e-02 5.163816630165620758e-01
6.596202043581137625e-03 3.787004401019271327e-02 4.550208813402912278e-01
3.441034190389592740e-02 5.006172918714558995e-02 5.044472594292900292e-01
2.216547466393595928e-02 5.868254076211022741e-02 4.690564790936515571e-01
-3.366466218599989402e-02 3.323989004263798799e-03 4.393081461769997031e-01
1.187341408541314064e-02 6.454185893618211156e-02 5.202876173520590841e-01
3.316889701787633510e-02 5.592829990177786148e-02 4.940711517221224036e-01
1.000002771939718406e-02 6.071804305403724622e-02 5.255026670202538330e-01
2.305526932551525340e-02 6.810364215374117847e-02 4.995106419937599407e-01
-1.023807171037670848e-02 3.608408803252381725e-02 4.515169486626320339e-01
-1.075272898362937199e-02 1.380729126612395205e-02 4.423354410600525699e-01
-4.661455050409615830e-03 3.746317634833965654e-02 4.527437515619077701e-01
1.620142567790283997e-02 5.670537949401516231e-02 5.216214192626636992e-01
1.744592418423790425e-02 5.204790192994961789e-02 4.637470934234161346e-01
2.197795484412083666e-02 4.560321835780178912e-02 4.634832600785759316e-01
1.270273333795130313e-02 4.947632479785877418e-02 4.609370816351835431e-01
2.907353604716437015e-02 6.082375398568960062e-02 4.766737096170952648e-01
3.890084792708616707e-02 3.180730570658999584e-02 5.046726771367258113e-01
-4.519776829737328847e-03 6.011802217269140991e-02 5.308165471347078279e-01
-3.716566610076243310e-02 1.974508675356129173e-02 4.448815297842649841e-01
-1.310454464226517082e-02 -6.160024130939910011e-03 4.366419279048893709e-01
2.593992112104293035e-02 6.249429088047007280e-02 5.067570572357078529e-01
3.245761973941421047e-02 5.771305414828702823e-02 4.916426957243563156e-01
2.213954672666886697e-02 7.166205451910065416e-02 4.939167066134220185e-01
4.191688611407527743e-02 2.401133439596947125e-02 4.697861324746105960e-01
3.083101560750874104e-02 5.789803765239889127e-02 5.008548410468768308e-01
-1.117983138868653553e-02 4.338371844016941647e-02 4.541424404539567417e-01
2.206156633290479174e-02 3.539586716896612768e-03 5.320737672935569318e-01
3.253207285403772464e-02 5.737101166086105292e-02 4.831527810999753370e-01
2.674983419120724112e-02 6.299073492034527877e-02 5.037306688418201617e-01
-4.183461158453966044e-02 3.676878811885617160e-02 4.516435689791124530e-01
3.828680307574922753e-02 4.556661653094903897e-02 4.817526608982686254e-01
2.808762577936475477e-02 6.300948571119166508e-02 4.780173738292687324e-01
1.692756124410224258e-02 1.145300745088142190e-02 4.466258844991903287e-01
2.692232035019454309e-02 6.704046335452139294e-02 4.853557175253120359e-01
2.278238725107745166e-02 6.457173989318901186e-02 5.083733922342751343e-01
4.619161055015828798e-04 5.975260133574844534e-02 5.172063961719731706e-01
1.745978295186516663e-02 7.442347569903050297e-02 4.766724020370882720e-01
1.305576840923799650e-02 1.964907776769413833e-02 4.490625835196496718e-01
-3.163612728509801464e-02 4.543500689514746310e-02 4.555366896339983485e-01
4.166467122762079756e-02 3.703985336387276284e-02 4.845867040395365200e-01
8.624112286310279055e-03 7.409615441274360059e-02 4.714184328974168614e-01
2.016190136484689172e-02 1.746094937454775731e-02 4.498892922004433803e-01
2.864919103420082019e-02 5.613887415492181676e-02 4.734569040175824473e-01
2.774609471080016418e-02 4.620599592304218406e-02 5.156082433951418853e-01
1.099478889615334437e-02 6.591774820034167204e-02 4.657746715659045744e-01
2.121448305974398679e-02 4.298203919717730193e-02 5.253157847219013243e-01
3.939360549634288167e-02 4.364761890949307027e-02 4.959015324027592486e-01
2.684819550612799199e-02 2.667882667145573920e-03 5.326313794663790624e-01
1.800065614785685206e-02 4.587050826760592087e-02 5.251736246939443520e-01
4.012032162611479935e-02 2.329623777304125343e-02 5.075109974115661338e-01
6.500005575654827297e-03 6.714763611277799193e-02 4.654733230615432094e-01
2.014481023329527110e-02 8.347869467060215973e-03 4.465153024652367963e-01
4.210829094392751215e-02 2.751167471149888397e-02 4.992886640525457942e-01
1.526040512610587867e-03 4.486895916879623386e-02 4.562770233813135401e-01
2.799043845547522988e-02 6.120210979283467745e-02 5.040941531018313659e-01
-8.104696778899068282e-03 2.526516979613058905e-02 4.471734168438467050e-01
2.210552566005472008e-02 6.708558058192266860e-02 5.037142467291075842e-01
3.520010014554630223e-02 2.727718717587937491e-02 5.172010628855994163e-01
1.199382512242175292e-02 1.596364218233817939e-02 4.473583933035789051e-01
1.713923946349880240e-02 2.833803906552342239e-02 4.538152807910708075e-01
2.490866624676629087e-02 3.665810885230522814e-02 5.264851952933903290e-01
1.704501216663617535e-02 5.651878617770556001e-02 5.210536267710520475e-01
3.372565174012500527e-02 3.415101522821273328e-02 4.654307231653536658e-01
-7.240090320210470359e-03 3.031712282408951381e-02 4.494338627917174867e-01
3.842799837921079265e-02 2.929768236586231464e-02 5.076899853685798991e-01
3.795923443037650669e-02 4.452717268300716152e-02 5.011786745734102544e-01
-4.287238166515398852e-02 3.376096849798265742e-02 4.500043667947131176e-01
1.385782241252672686e-02 7.604270361165799130e-02 4.921143006359263161e-01
9.124602789056196137e-03 7.301029495629311750e-02 4.969805072343348451e-01
-3.896133574886930569e-03 4.573207952132599813e-02 4.555728450789294226e-01
-1.060050174425047030e-02 2.638584756739816451e-03 4.384859266351496809e-01
3.768093724902266128e-02 2.260729295111757117e-02 5.153024749929606685e-01
1.659317422499147557e-02 5.494981108336524991e-03 4.441505882102115277e-01
-1.781375201709147621e-02 5.452730327338449479e-02 4.581499692642146404e-01
2.898576307513174924e-02 8.754080021566183756e-03 4.509669590264052119e-01
8.562857099116062687e-03 5.495730284242187486e-02 4.612634076079391021e-01
1.769683965801811809e-02 7.565880929488159878e-02 4.935805499491838777e-01
4.520439207205919491e-02 2.570262495217471091e-02 4.874641142662081150e-01
3.893921340400550296e-02 3.036485645474435238e-02 4.684900192636756167e-01
2.541418235905369347e-02 4.346855040795698580e-03 5.319128716596277506e-01
-2.353087306290101155e-02 1.103435477830997172e-02 4.401781582727970488e-01
1.091786522592692182e-03 5.743913818642826935e-02 4.596708854321376880e-01
-4.859397708898528963e-03 5.805368683245479972e-02 5.348543409056630837e-01
1.529485547843729976e-02 6.421575623838585156e-02 5.182298083740841665e-01
3.919563703783740527e-02 3.770101082076538629e-02 5.025295890284451339e-01
3.173412696046433445e-02 3.172966924062910893e-02 5.212118771337354017e-01
6.320216211386841219e-03 4.027310631270001468e-02 4.558681774263937947e-01
-1.270157266698199519e-02 2.233003621037395192e-02 4.452427718393552336e-01
-4.625639172915398112e-03 3.761765112048403442e-02 4.528057550285879973e-01
-2.282151749210396818e-02 3.823718741961439765e-02 4.510643309102734255e-01
2.576960994183009543e-02 6.667153911023331048e-02 4.957679099912869480e-01
-1.475432578107735253e-02 -7.073038129171316246e-03 4.366719839759770072e-01
6.712859437644531566e-03 4.230455164385119038e-02 4.567190648186800761e-01
1.918393615422074854e-03 5.849187884230207940e-02 5.323552941937412797e-01
1.542288509300147881e-02 6.987903203551293352e-02 5.066218472828734054e-01
4.496304639094191036e-02 2.593379235916180164e-02 4.894505979830972575e-01
1.243659108302277126e-02 4.285221486038112010e-02 5.330339128829152395e-01
1.736422666736658557e-02 2.776425353310415026e-02 4.536398719239883581e-01
3.863474722113299786e-02 3.851192703816382762e-02 4.746093140655344156e-01
3.590129848467271678e-02 4.638876475009290345e-02 5.047187070523169172e-01
-4.405421154372895186e-03 5.878720956262775688e-02 5.269800699503542907e-01
7.610442313399730027e-03 3.413020946601098837e-02 4.537568984806522598e-01
2.570830224544916331e-02 3.114134536928982178e-02 5.267746319749792017e-01
3.313842054308207673e-03 6.033123723885712442e-02 5.307313888558309323e-01
-8.195624936682492298e-03 1.211295752872722318e-03 4.383333941918340915e-01
3.733665744514962775e-02 2.632061993953642084e-02 4.646419978981143339e-01
2.358153143184375106e-02 3.600185841315911139e-03 5.321170169433017128e-01
-1.259968306532256721e-02 -6.873639802246296268e-03 4.365926758492515436e-01
1.738658720466812468e-02 5.841585073426934505e-02 4.659048676110273401e-01
1.979547330597708141e-02 6.613424960009790798e-02 4.708540176969106539e-01
1.958452572521701684e-02 5.782736686299654039e-02 4.668373862276592456e-01
2.635772714689181909e-02 3.427836730538070392e-02 5.261589764102402311e-01
2.729017160086133834e-04 1.091396401616042712e-02 4.430518405987521890e-01
3.587658392726639223e-02 4.898353731625306601e-02 4.801153476741044090e-01
2.352430089644824349e-02 6.268853125676322746e-02 5.099113419532093072e-01
2.741025844590391780e-02 1.628294138714802414e-02 4.530055053122614694e-01
3.650923142729783910e-02 5.035640575131309499e-02 4.891823355430843234e-01
2.632733730675200848e-02 6.010090070627963771e-02 4.733340571501987726e-01
2.473137490510338501e-02 5.447466027955584489e-02 5.158223986329916189e-01
3.612521281041783383e-02 4.807725765901275927e-02 4.794034569448624716e-01
2.989330277477460912e-02 6.175454208229186337e-02 4.938629899629661812e-01
-3.658012451300859252e-02 -1.194537140541244730e-03 4.397836610273369584e-01
-2.175222867115124414e-02 2.923761766375918350e-02 4.471448295703550069e-01
-1.995098960230409432e-02 5.388039754527670228e-03 4.383688391393005812e-01
-1.326359726697900338e-02 8.768360389038162145e-03 4.400615031000382205e-01
4.189633065447689875e-02 3.262704863065177957e-02 4.970386790208005667e-01
3.712378807596383723e-02 4.885245972846091744e-02 4.842335348162952191e-01
3.954132615619389279e-02 2.207084964981816111e-02 4.644883760353202828e-01
5.535290403194861181e-03 3.293218861333181008e-02 4.528126959790598760e-01
1.480424627675592034e-02 7.546367467332060208e-02 4.961309139351419706e-01
1.715995395422690792e-02 7.531554103842628967e-02 4.965608708246782577e-01
-5.724836883835003956e-03 2.788374242316430524e-02 4.486735184355431505e-01
-7.030466603645142525e-03 6.257731216498453597e-02 4.617637125991343461e-01
8.180729583273427252e-03 7.941564052035933463e-02 4.780588168645695801e-01
3.421588863295566690e-02 5.337891272946104770e-02 4.967251089199660186e-01
3.189981572350801542e-02 4.818727283338447576e-02 4.725352300332974487e-01
1.451905773067236477e-02 6.666054990633821231e-02 5.119263109350575824e-01
4.582087542366077015e-02 2.328732072634481093e-02 4.863213486241159678e-01
3.265327323110449580e-03 5.518182780212195493e-02 5.330090738177196696e-01
4.499816656269767234e-02 2.421216931651602733e-02 4.792071957925518877e-01
8.261229076933232496e-03 5.631346643433540744e-02 5.283741936960407726e-01
-3.356330959490132215e-02 1.896942524106059319e-02 4.440331920564774548e-01
-1.462579814626429990e-02 5.818588856903305663e-03 4.389044054455846777e-01
4.504903880508245861e-02 2.411048472472127405e-02 4.793375824667848728e-01
2.152173872770530086e-02 6.598590659569170125e-02 5.071804796366848889e-01
-2.499635571975940274e-02 2.044375930117410534e-02 4.436515577937525379e-01
3.023600423837960807e-02 6.016536849695443973e-02 4.982943661994921336e-01
1.742458637653224868e-02 2.065708192866945112e-02 4.504393747229927802e-01
1.133731316940439320e-02 4.266557802385771703e-02 4.580598656695271664e-01
-5.036141008600602924e-03 -1.375419224801299441e-03 4.378274919928038522e-01
-5.402308829429198697e-03 2.051531004684241377e-02 4.457759086703333429e-01
1.641817102085888630e-02 6.195902899572133804e-02 4.668154280895569497e-01
4.214631610720141058e-03 1.192064953631688344e-02 4.441796062278960955e-01
1.201787613765084931e-02 6.885901397186630635e-02 4.677976645920018939e-01
3.316442300532419785e-02 3.786130931521809739e-02 5.129960073367364481e-01
3.126409041082485463e-02 5.151330413862068719e-02 4.738353462170094565e-01
3.921852750648820163e-02 2.946887418370741640e-02 5.056538569409035899e-01
1.000218189472657122e-02 5.099063230528050328e-02 5.295750829145040584e-01
1.664066849315957997e-02 2.973084642656889653e-02 4.542564637367023650e-01
1.853099170556608138e-02 5.981568821343007103e-02 4.669896115857327668e-01
1.477004802522876095e-02 4.703367569950452076e-02 5.278203394656959535e-01
3.191414906775579680e-02 9.119428073640639329e-03 5.271472242026723487e-01
1.986670879468434292e-02 4.406885380085226456e-02 4.617721440818827183e-01
3.072790732325504648e-02 4.148314268397330223e-02 4.669611355152119558e-01
4.908782460370299597e-03 6.339740282619492351e-02 5.218283281602481560e-01
3.046035232685113253e-02 4.409784261529747090e-02 5.139157089049976035e-01
2.116420548721021158e-02 7.097769729336998734e-02 4.980556625590710773e-01
2.791445787498659376e-02 4.332497661209189221e-02 5.163312548897628362e-01
1.497839715926355467e-02 2.063268158425799869e-03 4.424060342647843092e-01
4.450722168142112051e-02 2.713314940155272387e-02 4.902894882750136185e-01
-1.309637746167831816e-02 6.050784040577075751e-02 4.614613372211650022e-01
2.763345285500293930e-02 3.927195241816212185e-02 5.190730756234710475e-01
-3.626609309448932533e-02 4.226402836091219806e-02 4.544783746655489676e-01
-4.102801573004591362e-02 2.494038540080793093e-02 4.470907917984387470e-01
-3.308503810926056304e-02 2.587590975424679252e-04 4.388206832433260707e-01
1.298269832325409101e-02 2.605127247109187416e-02 4.516558099839883544e-01
3.110046489297416117e-02 5.638995622821213471e-02 4.762738972630883860e-01
-5.748078031089474960e-03 5.424719043613820957e-02 4.578031609057803264e-01
2.264035428705453781e-02 4.059863676410725708e-02 5.263901928679850517e-01
1.232206500554356918e-02 7.767761271447473637e-02 4.755740963444336500e-01
1.087383148969809678e-02 1.820219632588793504e-02 4.480107670532749720e-01
-1.076422719514865539e-02 1.936168497863628365e-02 4.444295340331102517e-01
1.994054471721487184e-02 1.030480734405011915e-02 4.472519154967644628e-01
-8.506722266083540165e-03 3.397806168810536820e-02 4.508332236054709008e-01
1.552405596063659472e-02 4.481621194571410588e-02 5.303709673781459299e-01
-1.222100208329131646e-02 3.790868206493363396e-02 4.520584729307211003e-01
3.606047208901821954e-02 3.000685975043835413e-02 4.654204081086918965e-01
1.294005560599129773e-02 3.368009995987065325e-02 4.548289193969153321e-01
3.567261553249063966e-02 2.794151899830045471e-02 4.639783062075755193e-01
1.593769381461086071e-02 4.475545645453630345e-02 4.602491940164956108e-01
1.454560236365506215e-02 3.311608920608619805e-02 4.550739485729256573e-01
-3.397780921766419687e-03 6.125105674444329684e-02 5.300426043015307176e-01
4.922156424499862792e-03 6.360093726875166997e-02 5.288724857838479343e-01
1.218435425898141758e-02 6.717098000833875149e-02 4.669639055366898717e-01
9.887877290338008621e-03 5.049322383587138974e-02 5.299516671031574422e-01
3.726438586019113763e-02 4.722065831695826388e-02 4.810598712919183506e-01
-5.975452034887249360e-03 5.846613493012263463e-03 4.401351918176134026e-01
7.120939588386094796e-03 6.787948876318227430e-03 4.426655723295206402e-01
1.363870363727189700e-02 4.908744657792973171e-02 5.273144170217354265e-01
-3.502703725311542404e-03 3.596489807710889081e-02 4.522989952120426982e-01
1.399885987241511302e-02 4.101284191794304923e-02 4.581529493328398983e-01
-1.477039073484582785e-02 3.558974845880265303e-02 4.507120944900477322e-01
7.148067921705626888e-03 5.234168229383493950e-03 4.420479598842075863e-01
-5.205646790821366263e-03 3.444201436057554161e-02 4.514876106406542910e-01
2.966035780822643200e-02 2.816927273380355479e-02 5.240999435421754837e-01
4.231673155624169486e-02 2.833703331540978615e-02 4.737273491292285921e-01
4.193238243245936414e-02 2.699970899346281969e-02 4.717685463145046554e-01
2.643052247916116357e-02 1.691376873050316407e-02 4.527225769895182328e-01
1.054569879728626570e-02 7.626012136461030044e-02 4.873248415266478450e-01
1.598184383946853800e-03 5.625360573062666153e-02 4.595043769050494165e-01
6.996704319007559375e-03 1.408443622863285796e-02 4.455838996658723072e-01
4.274371668979020517e-02 3.339163405303773036e-02 4.842000402553001126e-01
4.092449541417692016e-02 3.873483449337437184e-02 4.962109142058792610e-01
1.566375614736220667e-02 3.290563748199895611e-02 4.553236631837144777e-01
1.498883647237957660e-02 7.663625993451916862e-02 4.793923262127343099e-01
1.669578477321184348e-02 6.284867546616969280e-02 5.188048703359492420e-01
2.229414557837541486e-02 3.974484203663691817e-02 5.275092367487379530e-01
4.040411761308864563e-02 4.061872496606722810e-02 4.956623918448980759e-01
2.051113145004758095e-02 7.491425256571117297e-02 4.883259666626433293e-01
1.874842415553350586e-02 7.519057676838131199e-02 4.942167517461535375e-01
4.075645772258316979e-02 3.688278037665733422e-02 4.773819457283652312e-01
-1.434416983164683509e-02 1.867619414072252057e-02 4.436432760865579583e-01
2.327784282119044895e-02 1.273448853141532014e-02 4.494018967026727207e-01
-2.032281146877313108e-02 4.618403068782081684e-03 4.381373787504982964e-01
2.529038507919068035e-02 4.246504251170919036e-02 4.638872543816957572e-01
4.003326413003745893e-02 2.688206110566249488e-02 4.678730502828377658e-01
3.429001458472304836e-02 4.036930806399925686e-02 5.107825871166817855e-01
1.186832927155251696e-02 2.470337597394201695e-02 4.508594993518542648e-01
2.121593273286382850e-03 2.476800503944145276e-02 4.488792367554298446e-01
-2.207588624470630673e-02 3.866633418300793185e-02 4.513109365590875499e-01
3.902281657553772348e-02 4.387006004035956530e-02 4.983888068933792770e-01
1.149417988768523455e-02 4.642230226393552484e-02 4.594148184876241658e-01
2.834837842054232365e-02 5.512656773008983713e-02 4.726182125239965504e-01
6.749355332549414506e-03 6.400780927218198413e-02 5.242402756567147160e-01
5.790937690372230211e-03 6.364163758337670895e-02 5.160470311998144322e-01
-3.511766740095296352e-02 2.616014954178895111e-02 4.464687945683742387e-01
-4.335340712162329135e-03 3.830690062653749339e-02 4.530959778387026460e-01
1.858696344732365877e-02 5.596870590021886527e-02 4.656492274834206357e-01
-1.237564822645689788e-02 -5.405529398805796609e-03 4.366428112416759766e-01
-4.300691247371100923e-02 3.301491410388978504e-02 4.497923735666191081e-01
-1.083221347403613699e-02 -3.110762333139666450e-03 4.370253399497173730e-01
-7.077176449432120986e-03 1.778942881954553509e-02 4.444449523533116064e-01
2.013090145950861484e-02 7.504353208935049535e-02 4.900230346026360206e-01
2.457205083973082113e-02 1.327742888867985104e-02 4.502294407226916095e-01
2.421145309687736460e-02 6.451420675048569198e-02 5.063824090577260240e-01
2.996448987733109706e-02 5.493567196951801290e-02 5.088183381405765315e-01
2.811902087848936263e-02 6.061173950950538014e-02 5.049348286408281705e-01
1.585136281152245419e-02 6.060493395915035608e-02 5.213062988854892943e-01
2.592817564797032098e-02 6.839625795314425993e-02 4.853282066787604765e-01
1.497625422449861549e-02 7.676242813963723988e-02 4.798184619369558201e-01
4.339535160054208002e-02 2.892377938729452300e-02 4.781168546240333050e-01
3.055101214386062025e-02 2.101893561241944750e-02 5.243456058335819181e-01
-1.111804097894536145e-02 1.969834817718619374e-02 4.445010766218879805e-01
-1.138512555840429097e-02 5.317277734757291235e-02 4.573324950464788818e-01
5.934372310991031796e-03 5.746625202615503886e-02 5.296484612617442522e-01
-1.932044267784142899e-03 3.765447581997938969e-02 4.532142137365039458e-01
1.713263611771106672e-03 5.357144683185927070e-02 5.372554261462880731e-01
4.555287433539025044e-02 2.360719156326280405e-02 4.829306407161935155e-01
-1.829786676832024020e-02 6.001096106656036988e-02 4.629453635848019832e-01
4.566537939982237559e-02 2.324093646359561699e-02 4.831188985991322071e-01
3.789966699762754854e-02 4.191611865325689523e-02 4.763028952377257319e-01
3.502737805767895674e-02 2.896457355240796006e-02 5.159430752108579155e-01
3.054353632903095833e-02 2.460633920495513410e-02 5.232317289497870894e-01
1.342034366379416671e-02 7.539981645330647020e-02 4.743696946167805795e-01
2.432229335262022993e-02 5.506703522704638892e-02 4.692102915158991583e-01
-2.961177573572615351e-03 2.729657932687314797e-02 4.489448302421203962e-01
2.424901144948264642e-02 4.422069573398557801e-02 4.640384424539311659e-01
2.696157923149028121e-02 6.491617880468404655e-02 4.968687633376251411e-01
-4.429396335276992308e-02 3.341987143847362923e-02 4.501751833956448845e-01
2.388845952045802815e-02 3.036747269320163450e-02 5.277815402854078020e-01
-1.040954701047515016e-02 4.870652965512861990e-04 4.378358197416939990e-01
-1.378423057791296723e-02 -8.357234635600269742e-04 4.372623990928292681e-01
2.486279207831680604e-02 5.803803595458213727e-02 5.128508249461142254e-01
4.289006936105795031e-02 3.022966656180640921e-02 4.770142140509338047e-01
4.430563622073834668e-02 2.479621119854988343e-02 4.762576220641888680e-01
2.703950247545163638e-02 3.781029692484280669e-02 5.224445069024086230e-01
-1.487133138490223140e-02 3.988408006056096827e-02 4.525068378861454299e-01
3.951637589926862426e-02 3.965616980121681318e-02 5.008391564275425090e-01
-1.711153143049930214e-02 5.842992128985402545e-02 4.604290896210383455e-01
-4.818542667331878436e-03 9.698958608756365340e-03 4.417269467588531007e-01
1.329047602664279112e-02 6.379953986076540573e-02 5.217590878360196527e-01
4.233662839428354967e-03 2.425243983577740625e-02 4.490795927357309480e-01
-2.206036633424004328e-02 5.468460301705543175e-02 4.586579555475053804e-01
