2.322241319419418235e-02 4.581753992232896755e-02 5.203814985006522953e-01
3.491122084053549512e-02 2.276541359523635497e-02 4.607014058771464748e-01
-1.536223755533552837e-02 4.142534418100187604e-02 4.532444388148120229e-01
-1.219334572907769488e-03 5.890436344668955465e-02 5.363108755569508945e-01
2.746248667222585607e-02 6.680283467282008281e-02 4.888680988227902535e-01
-3.326906485709772709e-02 2.253618780806136701e-02 4.451774818271184708e-01
1.551678618407847064e-02 4.340472511952245260e-02 5.320416956871876213e-01
1.660256080310851257e-02 5.717874487742596185e-02 4.652542441616827062e-01
-2.046521785397113422e-02 2.313717600259459009e-02 4.448057829235351202e-01
2.082074834542994163e-02 6.471901883138048150e-02 4.710656817924955830e-01
-1.937619746099075377e-02 1.102332803092123670e-02 4.402017518436506238e-01
1.733812605018378306e-02 4.551837236106223705e-02 5.265001316783609608e-01
1.656290818558464953e-02 6.075907805747503970e-02 5.213387865665249921e-01
2.397309356221404009e-02 6.269528196047421953e-02 5.098521777112381415e-01
-5.476204225913985577e-03 5.220266276766764163e-02 4.575218547325365925e-01
-1.382866114602635497e-03 1.925054786318659145e-02 4.461287928070585274e-01
-2.050463989894408742e-02 -2.654492890283135023e-04 4.373083261629943097e-01
2.406381511091008549e-02 6.194102724755359141e-02 5.107090553524807897e-01
1.930260076615222462e-02 2.898628570614587494e-02 4.548869585145094985e-01
-2.385354165405165813e-03 6.036037277269917789e-02 5.366272898590336293e-01
3.432704146528628431e-02 5.232751298418608643e-02 4.798518213199226001e-01
2.519924983731908208e-02 6.875239395557128375e-02 4.810946967404493013e-01
2.481735171462887135e-02 6.272930512958806160e-02 5.086175573446859444e-01
3.091283577151958742e-02 6.079953386696296952e-02 4.926253885113637265e-01
-4.352269524973740450e-03 4.950682792369270196e-02 4.568380609296106010e-01
-5.469834006200737647e-03 1.603307577667329939e-02 4.441127368644314233e-01
-2.126782618878626969e-03 6.088112562331330496e-02 5.354772890905702409e-01
3.058122406887346309e-02 6.169881009354664936e-02 4.865742050077053182e-01
3.400895248555754757e-02 3.696279450894874447e-02 4.671585907809832072e-01
4.119434802540155455e-02 3.987008621901486083e-02 4.935480678383938336e-01
6.784609467622498488e-04 3.430005518318419988e-02 4.525360810959210278e-01
2.216224238247635828e-02 3.985183471944370864e-02 4.611303417249665304e-01
-9.882712687456380110e-03 6.404863612885145635e-03 4.398764997879235361e-01
-1.670663299332452237e-02 2.154135046586099986e-02 4.445046266140199043e-01
7.585561851837685672e-03 6.302341639643194160e-02 5.195579815438108318e-01
3.302522509602721229e-02 5.523733639690840691e-02 4.797563224130999560e-01
2.146004880177799015e-02 3.035375734022710548e-02 4.563000050207943747e-01
7.095456743208291769e-03 5.525959970293635448e-02 4.610578777215609270e-01
7.021919784058533974e-03 3.531033523986108758e-02 4.542663113566100530e-01
-2.668682066869632052e-02 4.682287225089558358e-03 4.386022718953641042e-01
3.505487019754238449e-03 2.342653051910502382e-02 4.487146062647031641e-01
1.239187256275467615e-02 7.737119183334988104e-02 4.758880692664541057e-01
-2.125040448706730107e-03 5.558497326230663754e-02 5.380558264714674355e-01
-1.427908240286030958e-03 6.522531524889503551e-02 4.639607896893410688e-01
2.181979231749024001e-02 7.154022845321889035e-02 4.788897700360780219e-01
3.712701636820259221e-02 4.910486153006441562e-02 4.933432982783681475e-01
1.630905536525753194e-02 5.742222083354228679e-02 5.222336587888372073e-01
-3.491331160058166322e-02 3.182198671563527675e-02 4.484860851316446184e-01
-6.441844744825763955e-04 5.709787113833666300e-02 5.378859308735978173e-01
2.315434580009336288e-02 1.073572158469181942e-02 4.486607578352131420e-01
2.126803905203254828e-03 5.495750511807778738e-02 4.595347324321459870e-01
2.670901022852396195e-02 2.061759499271342833e-02 4.545495315616364107e-01
-3.907780989796803134e-03 2.275850904546935366e-02 4.470374268158187059e-01
-4.257365270570654357e-04 4.145998983717064101e-03 4.403763842098328274e-01
-7.211314002426295194e-03 4.861659607907090064e-02 4.563736743095272996e-01
-8.502347215629455640e-03 1.033313827974303468e-02 4.414557042301819889e-01
1.350944813717380559e-02 7.409712203969695543e-02 4.987464814462538309e-01
1.484824513423934483e-02 6.963077056621734540e-02 5.077896078645727229e-01
3.828281389303799659e-02 3.182999786862771019e-02 5.068856330780904251e-01
1.553275066093014970e-03 5.400643860717412037e-02 5.381660368205704037e-01
4.854900745586699685e-03 4.700137122497207581e-02 4.579860706087423572e-01
-3.406993596776109606e-02 3.356992795215865688e-02 4.491640273822735119e-01
2.969165242478113281e-02 4.785101596295935483e-02 4.699712926648079159e-01
2.351442795459298893e-02 4.196183425606400674e-02 5.232666339576242942e-01
1.015545155020965672e-02 5.529856095036290997e-02 4.621630548813078221e-01
4.151591355494041458e-02 3.735999210644861540e-02 4.960679674682213491e-01
1.906763073361251309e-02 6.560452246943949961e-02 5.106825131748953250e-01
2.629131713501669729e-02 4.300855039764521492e-02 5.189863132427686709e-01
5.347584371994105502e-04 8.768308279887771645e-03 4.423002765082951204e-01
1.572255859497583008e-02 5.596988569460275426e-02 5.229105080505954684e-01
1.875687924841714510e-02 5.473278639448470040e-02 4.654302235037963698e-01
-2.116158149551195140e-04 2.755451853496754255e-02 4.496604043098844650e-01
-3.464794914971156686e-02 3.659622871505188030e-02 4.504378839089935305e-01
2.107974258655950436e-02 1.368101125379126738e-02 4.490481887957135099e-01
3.057092027189172237e-02 6.180502958463599678e-02 4.876208857262699925e-01
1.445416056700959961e-02 3.214557635773587080e-02 4.547561723622328689e-01
-1.011738176593987744e-02 5.834773407388142014e-02 4.593642523003054201e-01
-1.674857201071964369e-02 1.566351700881613018e-02 4.421674731607813102e-01
-4.562209718949938875e-03 5.842869820118382768e-02 5.312602995895997493e-01
-9.348803052634190557e-04 4.475301994517237592e-02 4.559862011342841193e-01
4.151447112423191366e-02 2.336347497416690899e-02 4.683540775883016094e-01
3.394543433595332248e-03 5.402597227202891178e-02 4.596265560897329627e-01
-3.747886615314013209e-02 2.608682089061934925e-02 4.468719395888962609e-01
3.437873393302466607e-02 5.472624079367320593e-02 4.915414664247741428e-01
4.455115765105204656e-02 2.557783416622411501e-02 4.938012784142652434e-01
3.276291810859183196e-02 4.586354729054564067e-02 4.716218961051075187e-01
3.488276935392966432e-02 5.385509238547750432e-02 4.907245750203279022e-01
-6.312800571174470923e-03 2.725172725881207236e-03 4.390633540703132720e-01
-1.719821046022943292e-02 2.308219940683510843e-02 4.450850172733873955e-01
3.134008740456695891e-02 3.390028535145919730e-02 5.193509671254479265e-01
-1.370720141802191615e-02 3.095839783488822661e-02 4.488469667838689836e-01
-6.404563664501570358e-03 2.935385023373641641e-02 4.492626940102170119e-01
-2.258343619141338007e-02 5.826617947172136464e-02 4.628053796352910032e-01
-1.417994876184784821e-02 4.481783963520873104e-02 4.545369893848236198e-01
3.590591017096057130e-02 4.444462513040444568e-02 5.070486284118372877e-01
1.103650269113784846e-02 4.537697322764599334e-02 5.342642977004851135e-01
-2.304921075563303584e-02 3.373522728068721610e-02 4.491419238079925047e-01
1.309357521710760065e-02 7.464146591522274887e-02 4.976275922551870456e-01
-2.979638127379421672e-02 3.887110138147717442e-02 4.513419399368238105e-01
2.825356464643135473e-02 4.715106204977238813e-02 4.683529313235794689e-01
2.150199029687769811e-02 7.283128621688320092e-02 4.813759362159751309e-01
-3.565318345407703787e-02 4.334520182770852659e-02 4.553712265359231015e-01
1.585251025602418123e-02 7.040181270307178940e-02 4.707097183449506228e-01
3.032180026274116855e-02 5.761928661673638985e-02 5.045673381536870394e-01
1.425289031524566014e-02 7.307668270970529845e-02 5.005945733455706703e-01
-1.600345110748761443e-02 4.090619776710467670e-02 4.529652828338385784e-01
1.237379178474191932e-02 6.031570775304664206e-02 5.246610520473817818e-01
1.315218604228123207e-02 7.390702637363621985e-02 4.730380442792610496e-01
-1.713021692977756763e-02 3.972709249172282769e-02 4.523652629785770429e-01
3.550243376971653347e-02 2.841332962921945537e-02 5.157825229886530138e-01
3.218274960803914342e-02 4.465077811229817978e-02 5.120453968673837064e-01
3.186187210073186671e-02 2.374086348219822326e-02 4.589907293326209170e-01
-2.411383444273684784e-02 4.852125618699890119e-02 4.564334723054792597e-01
-2.638847174067233264e-02 2.920044631857356132e-02 4.472013739475423910e-01
4.293126045909503863e-02 3.134104490927278747e-02 4.779899256254937501e-01
-6.615812314237046535e-03 3.826802549909422840e-02 4.530295201947490691e-01
1.416597314009172826e-02 6.351548725709577070e-02 5.211941034941400819e-01
3.150662381604127371e-02 3.344786861715855208e-02 5.196693600415310810e-01
3.080496822364513568e-02 5.824544942844599865e-02 5.016061879120040645e-01
5.497682601706549432e-03 5.435122533500987702e-02 5.322938407168625874e-01
1.618549755919627617e-02 1.853174195878926414e-02 4.493846109091093055e-01
8.813502109351212949e-03 3.769859681931593542e-02 4.556274414437588294e-01
3.201328849290006884e-02 5.930000752705243128e-02 4.890610587120243213e-01
4.000985088712127359e-04 4.454505992189353863e-02 4.561867567185881600e-01
2.262826323768569667e-02 2.666069597594238061e-04 5.334116790482273940e-01
3.923341689656404535e-02 3.226469651891723800e-02 5.043904224652617785e-01
4.182439825976974612e-02 2.576091202506897507e-02 5.027206765317497883e-01
4.246668076065425110e-03 5.912887730126099861e-02 5.311406617836883504e-01
-9.651963448554259223e-03 3.963307363089789426e-02 4.531973754105992347e-01
2.730792847936798495e-02 2.706908623768870814e-02 5.259951161620667337e-01
-2.270775394602473490e-02 1.903285690802444807e-02 4.432182129449110386e-01
-5.036857727125833989e-03 5.689535651452234249e-02 5.284551864627085038e-01
-3.592028358478444039e-02 2.533988475442401286e-02 4.463888975715148977e-01
3.900566688963903045e-02 4.244187216348825620e-02 4.786605215695060034e-01
1.026551112550779486e-02 2.319773707776251470e-03 4.416424844752957490e-01
3.789064829005724111e-02 2.360233764788183600e-02 4.636502856888839452e-01
3.712885811471963032e-02 4.423371766352297146e-02 4.767046828549890147e-01
3.014771160227906754e-03 5.650738497405986133e-02 4.602274591695195705e-01
1.574717587628413767e-02 6.281874713260687804e-02 5.203468089150242726e-01
2.214782932456365455e-02 5.462123191622374890e-02 4.673971223847973588e-01
-1.880418749838658546e-02 4.834480319118226316e-02 4.557669111850173316e-01
3.951369096604922387e-02 2.754728033598649942e-02 4.672297036502894851e-01
3.071125894704097165e-02 1.792023814511947005e-02 4.556869698364698351e-01
2.800338917068191311e-02 9.496685419310302995e-03 4.506688647410871384e-01
1.339332497172239511e-02 7.513611931965620550e-02 4.965657966922427669e-01
3.415775229428544280e-02 2.898954938094822076e-02 5.188504794103475648e-01
1.412661550539081462e-02 6.441895802299037188e-02 5.185418180656056197e-01
1.631173635074592912e-02 7.520605676061586919e-02 4.767788848105680710e-01
6.425556975628172671e-03 1.538595580130361351e-02 4.460713738328189182e-01
2.905735720419320642e-02 5.870106397305712570e-02 4.752208099671803576e-01
2.572069157919269766e-02 6.146938166533208459e-02 5.090019209073010087e-01
-3.962740578430598570e-02 3.248575717901455023e-02 4.491682115415587817e-01
3.809929315461576399e-02 2.343467591322866833e-02 4.637475437689786983e-01
2.316480386965287866e-02 3.155050003836804701e-02 4.576763327368608691e-01
3.730746995858749693e-02 3.630180489835248270e-02 4.701453629975814175e-01
1.354136078984602420e-02 5.958759137585675769e-02 4.647238191964201404e-01
4.498642561383590921e-02 2.659077549477598112e-02 4.849220929672181102e-01
2.181949533954254117e-02 6.057813759348621568e-02 4.698123538655896714e-01
-2.076436759016205003e-02 1.815311494590548039e-02 4.428845312440641280e-01
-3.394081688889467180e-02 4.196084945359658536e-02 4.536484931789170338e-01
-8.931545696192963457e-03 2.497685919957122469e-02 4.470119943213040625e-01
-3.595990344488917724e-03 6.548912395707039147e-02 4.640485521136244462e-01
-2.626184756590616010e-02 2.239906717246339246e-02 4.444940364202905614e-01
-1.222869584449440446e-02 5.564547601082983630e-02 4.584249491823219058e-01
6.890136955711788184e-03 4.118807815847311954e-02 4.565309948768266346e-01
2.444130305482223459e-02 6.272283196125222338e-02 4.731146600716030215e-01
1.106359784070754665e-02 4.812672129102793517e-02 4.600731556503031561e-01
-2.376378508020290936e-02 4.105997762020654335e-02 4.523433760083179767e-01
-3.224070595228188674e-03 5.778815004231627195e-02 5.365188945459415937e-01
3.008867314604423901e-02 3.077606265275914868e-02 5.240897596548796944e-01
2.480875646651080693e-02 4.203320057276910618e-03 5.319661551999042004e-01
-6.646072462781885994e-03 1.139286906129005801e-02 4.421448032873838141e-01
-2.063537399883253257e-02 4.153324370407705801e-02 4.527872294044276713e-01
4.047590948711457526e-02 3.369185218107319940e-02 5.013348544728144507e-01
3.250097837115486360e-02 5.813925604578030343e-02 4.854069261996156182e-01
4.266532325192379932e-02 3.580249122220631464e-02 4.898332262693667616e-01
1.175491028281773834e-02 2.929467781618102021e-02 4.528402781296444468e-01
5.522922494358895387e-03 6.733309891391310587e-02 4.657784432991848855e-01
2.481297587235794036e-02 6.399321582587175206e-02 5.068832504211472356e-01
3.610447148123514111e-02 4.095762145077672112e-02 5.082024172392807237e-01
2.843905629843609256e-02 6.143391072916020573e-02 5.033872631873166359e-01
4.357873801417608446e-03 5.135926465113976880e-02 5.365989006319952237e-01
4.814396452749379954e-03 5.967448065778140076e-02 5.307179280484729533e-01
1.191176446560084957e-02 4.580176491376392739e-02 4.595259539520389902e-01
8.937832250616974811e-03 6.283539979173456691e-02 5.272431623760515107e-01
2.750282517150193229e-02 6.592661229229229702e-02 4.814279665220588256e-01
3.751658613337061077e-02 4.253686032039527554e-02 4.758880092833614461e-01
4.360909581092678455e-02 3.208942537890609181e-02 4.880499206259671929e-01
1.061244605803560170e-02 5.139411029483959698e-02 4.611320772797481982e-01
-2.062103421103201467e-02 9.684822743055193812e-04 4.375432972375834506e-01
4.347974924179581931e-03 2.659079056850666145e-02 4.501652862062286431e-01
1.594627555202788108e-02 7.222187515510258837e-02 5.016354195454764131e-01
9.220552675410564197e-03 6.341482388549693483e-02 5.225921494488809937e-01
4.275277142642817246e-02 2.063389989886579845e-02 4.690921521015104512e-01
2.219263973994824168e-02 3.598557796653033963e-02 4.592333461237151915e-01
1.561173708884487123e-02 6.489972926691363331e-02 5.166218812263290161e-01
-3.685332639831459013e-03 6.400135241516143048e-02 4.629917672430810538e-01
1.159100064875917720e-02 2.187857314912797224e-02 4.497624783637658719e-01
4.133196637148645741e-02 3.288610448113779561e-02 4.993416719055666642e-01
-1.196713101537444368e-02 -2.078328150257472209e-03 4.371640993669420605e-01
1.520347793788557472e-03 5.822074903953517594e-02 5.335380038427887106e-01
2.055166414036568856e-02 4.862300587711854832e-02 5.215012059444121828e-01
9.482981080416338221e-03 6.955455298271102926e-02 5.038026456246860185e-01
2.734457322704758261e-02 3.350076776572259024e-02 4.608790232466892789e-01
-1.409212696415492252e-02 1.581288677179358559e-02 4.426172885040157712e-01
-2.424138980635582100e-02 4.155827562797312358e-02 4.525264305660512965e-01
3.288588743379250445e-02 1.781088598932076966e-02 4.570879085823434385e-01
4.403074193158901077e-03 5.079056714443638126e-02 5.368027287815830828e-01
6.874361012725505385e-03 6.332656469441742819e-02 5.238173014792928406e-01
1.946449549349745650e-02 6.300463350175726507e-02 5.154394662137399274e-01
3.273399458170769827e-02 5.801128215952412043e-02 4.891512127460666548e-01
-3.866140617810151503e-02 4.226056922879955352e-02 4.555940834202243384e-01
1.789780110256520423e-02 7.540585617669025298e-02 4.944838565998209701e-01
5.759351618750560564e-03 5.370026158410315387e-02 4.602007198430553836e-01
9.215747243812357284e-03 6.960419553871169396e-02 5.031350889348632505e-01
-2.384641625563686460e-02 3.118873159794924993e-02 4.480095906834200004e-01
2.691086872166497182e-02 2.833765873896773937e-02 4.581749726660257482e-01
3.495124992711513140e-02 4.602942574617154697e-02 4.743825960542613074e-01
-2.561050739453744202e-02 3.509825511135267195e-02 4.496743847737650901e-01
2.929631116410171335e-02 5.083685108366083061e-02 5.126905037690175915e-01
2.793124899357767033e-02 6.228289404817469177e-02 4.764823482990223624e-01
-2.199102765099738427e-02 4.644717908375024795e-02 4.550209484238639246e-01
2.656817216782476204e-03 5.061845829700561267e-02 4.584203504366214377e-01
2.454898086464214757e-02 4.816236194614902100e-02 5.183777248695550233e-01
4.912232190728352266e-03 6.909894231299044953e-02 4.667206501800379992e-01
2.239093074833601107e-02 4.060140336493569396e-02 5.271829119551492138e-01
-3.310840215757091670e-02 3.120848808383983042e-02 4.481498827704905041e-01
2.012103800624829436e-02 6.431321498563229155e-02 5.127791401953509798e-01
-2.485113397131885962e-02 8.155618585815087307e-03 4.393670281139331335e-01
1.911474622670777945e-02 4.710207518318416942e-02 5.239376982398366023e-01
3.004232373528243401e-03 5.838387859664970203e-02 5.322468041581869258e-01
1.536656083012232638e-02 1.147212563900926879e-02 4.463383112267964026e-01
2.837184119795256240e-02 6.258364954126018065e-02 5.011362263178203991e-01
-1.871838645596169554e-02 1.432256305000392804e-02 4.414094245129958072e-01
1.910003388046823541e-02 3.872102112666398616e-02 4.590609655278315993e-01
1.737864275213862539e-02 3.718112046581260183e-02 5.314500726602704450e-01
-3.731722756491300669e-02 2.758294088641185041e-02 4.472564156683847547e-01
-2.245485221028896416e-02 3.374428310664488728e-02 4.492012533041164768e-01
1.518328026259596272e-02 2.011720474786077295e-02 4.498196221722782773e-01
-3.297434609101439987e-03 5.879846554363753197e-02 5.357256519480838586e-01
-2.637307396050577943e-03 6.038265016162296800e-02 5.357858783981612749e-01
-2.584249041797139629e-02 4.273585197662711777e-02 4.530862492698518040e-01
-1.881432731775691328e-02 6.018632556408831658e-02 4.673310384839108322e-01
3.609262602688850102e-02 2.143327206777726965e-02 5.185315271032088225e-01
-9.148581646286103874e-04 3.175409997319839778e-02 4.511944918989663766e-01
2.268183435088675162e-02 6.635927235960738246e-02 5.050041719469119395e-01
2.024204898639860722e-02 1.265749633935309149e-02 4.483607725418329859e-01
4.135372902960050834e-02 3.465757807929301104e-02 4.987464824766064675e-01
1.508314901536720459e-02 5.820095635781089016e-02 5.230060952528770013e-01
3.134566466375995203e-02 4.313473920314091908e-02 5.139749334281105142e-01
3.949831274740739362e-02 4.393670664109362856e-02 4.967282236716390464e-01
-5.283321127684345413e-03 5.993770059559250588e-03 4.403422757539794397e-01
-3.192861287536997994e-02 3.743285200915399957e-02 4.506584480359129841e-01
-2.022727729766775340e-02 5.416584985952400261e-02 4.584847715510541599e-01
1.833436575489049911e-02 1.776181671529209610e-02 4.495498996061766395e-01
7.148357092049654506e-03 -1.237574817189710831e-03 4.398725051720656087e-01
4.029830745024175903e-02 3.003327764177651793e-02 4.706600301764383709e-01
1.566507496318316622e-02 5.562115715676598654e-02 4.643616918861235843e-01
-9.978561815766427007e-03 2.489569316156489687e-02 4.467978572903993362e-01
1.369558980756856691e-02 7.713683966984978546e-02 4.789425519701932532e-01
2.857474333037163250e-02 3.964333424662645766e-02 5.183368357269931836e-01
3.202596828047936384e-02 5.846546020258436283e-02 4.946057344484522389e-01
3.496935967487523750e-02 4.854197118122293569e-02 5.057562855493280551e-01
-3.124364051758423549e-02 1.382648311038846972e-02 4.423838461950410639e-01
4.000845367307293010e-02 4.362800058964795558e-02 4.914687361323733517e-01
3.260766529949494369e-02 5.656162474702872145e-02 4.982453193346633724e-01
-3.046863009815040796e-02 3.555755938361401108e-02 4.498557079219937527e-01
2.154375326244796496e-02 5.568786597989838771e-02 5.187278242770912984e-01
-6.133521104877504536e-03 2.376701824654776224e-02 4.470081013842972517e-01
1.556127610204992122e-02 4.667011785241863969e-02 5.274917103864544821e-01
5.916455962673023046e-03 4.947329766320556627e-02 4.590205453564794036e-01
-2.845089602591672692e-02 2.473920629144397282e-02 4.454496400788447996e-01
3.755883493463872680e-02 3.640588498703124093e-02 4.706965811391903287e-01
2.639281092339479037e-02 6.249135435230359498e-02 5.066882297779140565e-01
3.315897934658318391e-02 3.585926770803665731e-02 5.139133035980556485e-01
-2.510667053110639951e-02 2.363923562673236889e-02 4.449685845241989623e-01
1.849007548052266151e-02 4.668258488374450732e-02 5.247597809692930992e-01
-1.582928071360980085e-02 2.854934708832464196e-02 4.474337034434569538e-01
-2.950361567160410953e-02 4.823933778136186429e-03 4.390486388835732612e-01
9.995886585746871847e-03 2.720378025755507828e-02 4.515910502282231564e-01
1.606582306409315083e-02 7.610885719216613221e-02 4.889459552362282468e-01
2.227858847264440820e-02 6.865439307732811025e-02 4.755042495003000691e-01
2.424319746294096092e-02 2.324688485987174563e-02 4.544646023693297843e-01
-1.118591613465714715e-02 -4.818013322602930811e-04 4.375321420720370558e-01
-2.844803018438408007e-02 3.903683054362415417e-02 4.514199812581371485e-01
-2.631214121020782407e-02 3.742725881008746730e-02 4.506739523349158616e-01
-1.263928027465270956e-02 2.001122858662009174e-02 4.444472596197985848e-01
2.364459084819042767e-02 5.923205702064630873e-02 4.706620722977908344e-01
-1.825529972563581793e-02 5.247540787866759870e-03 4.384332688059954242e-01
4.470050428027018408e-02 2.549529231005194518e-02 4.929365028023727224e-01
1.120341231821450970e-02 2.855122531438558306e-02 4.524144847428060445e-01
3.217463420453238465e-02 2.422519569865843117e-02 4.594178625899336121e-01
4.123733476964078215e-02 3.040031240801645621e-02 4.727328949978413797e-01
2.250519200633238626e-02 7.174753524682171701e-02 4.815396886838939627e-01
2.941974605745902027e-02 4.351220000222064122e-02 4.671425653822832702e-01
1.668809670876870987e-02 5.619674424441361421e-02 4.649575272879975518e-01
2.247314055462561883e-02 7.326747339898534439e-02 4.895788137722852373e-01
3.241761180338964543e-02 3.554265244043197658e-02 5.147578762650598660e-01
4.061668898618518014e-02 2.859253903349185527e-02 5.035614173580976738e-01
4.400342733584398924e-02 3.072955320606636509e-02 4.880989879733497183e-01
2.037513719937483411e-02 1.690937339249390381e-02 4.498639327254881914e-01
4.010692196549620059e-02 3.163423493698064304e-02 4.715111360436163301e-01
1.357273683366553782e-02 2.512888385909288914e-03 4.423408415200297816e-01
-2.726960373421056724e-02 4.777734266979254824e-02 4.562090251759877146e-01
3.692438990162406204e-02 3.670266132779895912e-02 4.698202171897581381e-01
3.085916720765860197e-02 9.032323582765575468e-03 5.274141682741166903e-01
4.177000464589800122e-02 3.600508442989593799e-02 4.795774959440040064e-01
4.935022003837626244e-03 3.340535418658993616e-02 4.530308951525312544e-01
2.653071614114122997e-02 4.038443855792529097e-02 4.637908119324170575e-01
3.187683792708992381e-02 5.882404375447854161e-02 4.818722251047142802e-01
4.157873431891540711e-02 3.693587667774961281e-02 4.805125349123590683e-01
-3.586895497683301182e-02 3.175074049997444331e-02 4.485015379553326520e-01
-2.548340559825527582e-02 2.214236646900175423e-02 4.443971491946930308e-01
-9.547305524550806291e-03 6.187516038915495675e-02 4.622137594120817039e-01
2.012512851074188536e-02 7.532958315658970505e-02 4.876198120971781957e-01
4.597520386707961565e-02 2.262676299305952862e-02 4.828244835206002006e-01
-2.869009605939666988e-02 2.828542549250690624e-02 4.469152265897921583e-01
-3.613638120366327589e-02 2.414955420444705320e-02 4.460476790121399859e-01
-3.504690566155757581e-02 3.116023877091614325e-02 4.482207402904175852e-01
2.065075194507025313e-02 7.056021527345528177e-02 4.754080673267518931e-01
3.026446427957796628e-02 6.227134199418891264e-02 4.907764829387945005e-01
-2.455736233660480751e-03 -3.366711656477699988e-04 4.384831656789360266e-01
4.080970727004545884e-02 3.682904526492212366e-02 4.995164745864406064e-01
4.007170189827882756e-02 4.263554990384380711e-02 4.847750990774035151e-01
3.050576078897564852e-02 6.131323147298835957e-02 4.831735539407733815e-01
1.522392688901053580e-02 9.451187699938731757e-03 4.455180814753613716e-01
1.487441386661516284e-02 9.551161837436558319e-03 4.454744266034286748e-01
3.898868941574733238e-02 3.238843299374043888e-02 4.699520180499028310e-01
3.493955385759160009e-02 3.854584408538634654e-02 4.687208749809290143e-01
-1.622180082620232680e-02 1.335984089694904758e-02 4.413440329683541719e-01
4.469995348273524127e-02 2.589890493641420349e-02 4.921497760182210746e-01
2.469229707435400753e-02 6.953883600144769583e-02 4.817959878091080395e-01
1.055330155723093258e-02 6.062118829833574446e-02 5.260895049528322431e-01
7.860151847996484781e-03 6.301257940441484795e-02 5.263324161459674855e-01
-1.575207209639194542e-02 5.357221372814948562e-02 4.577465474672325896e-01
1.136524796705159351e-02 4.610337222806329405e-02 5.333246774601981821e-01
-6.951334379878084703e-03 1.749533911639234579e-02 4.444387113126547773e-01
-1.194147691096120525e-02 4.338863705642035523e-02 4.542988327594392195e-01
-3.420682731718852152e-03 1.886217666057936684e-02 4.455848568592372660e-01
-2.608565721412468494e-02 3.528168698124581337e-02 4.497510660012932204e-01
-6.620983930475169560e-03 3.264336835623407596e-02 4.506556848586782960e-01
-2.980790588241125170e-03 5.995731024354838262e-02 5.304160294366035977e-01
1.460703555580091309e-02 7.691276255707268916e-02 4.801527997516101265e-01
2.437037616774001547e-02 3.443360728786961505e-02 5.280223464935954736e-01
-3.426748743773886524e-02 1.938911426854562220e-02 4.443783416943405951e-01
3.856622472324494275e-03 7.030047431882369136e-02 4.680025983874326334e-01
3.868119236828753554e-02 4.594893714161137066e-02 4.841852498007113703e-01
7.650413810090165093e-03 1.378031211080385163e-02 4.456710994213821109e-01
3.046723920899558485e-02 5.899971792709585855e-02 5.013032525590415123e-01
1.225861522893149751e-02 3.059095065448380960e-02 4.534856839222419778e-01
1.587790963104532618e-02 1.009496664872064527e-02 4.459231239424207849e-01
-4.134451610327956328e-02 2.852291524111259802e-02 4.483128232435015792e-01
2.724166091312036839e-02 5.952620834045570936e-02 4.739336904352245416e-01
4.796248312543152301e-03 4.767154420472044518e-02 5.360284600242264386e-01
1.460718023495081314e-02 7.619278593079439887e-02 4.868158373859413635e-01
-2.396031181687708483e-02 1.399480426647189274e-02 4.413488721642291335e-01
1.313521423813006827e-03 1.610589687639431278e-02 4.453796626002881065e-01
-3.598462565782218486e-02 4.262307534406092197e-02 4.549153464645302458e-01
-3.096910023432025011e-02 1.224526351347163602e-02 4.419414199050427650e-01
3.406874361314140426e-02 5.547039853154556166e-02 4.861548979949835703e-01
7.504783809303298969e-03 6.325845931284064527e-02 5.182152844644817291e-01
2.496097026578847702e-02 7.004433414816255143e-02 4.842312284523723753e-01
-1.955317432063036209e-02 3.206091599494332450e-02 4.487411027764211524e-01
2.812180764496665514e-02 2.132548816160169565e-03 5.329222378853547548e-01
4.248407093716807803e-02 3.348203970196481777e-02 4.943242074144584275e-01
6.614703435879797089e-03 4.536870639807449174e-02 5.351651990133495795e-01
3.081146640129052428e-02 6.107131239723494198e-02 4.920995957807045018e-01
3.714223600294180860e-02 4.915203074668985511e-02 4.929531587908981272e-01
2.430919991189707877e-02 5.386077997169175235e-02 4.687427036030970551e-01
3.529300067221452508e-02 5.245777539598369538e-02 4.833364508521195146e-01
3.062122056452129537e-02 2.323391103345982811e-02 5.239338629097637368e-01
6.185570063336552626e-03 7.444367203855124793e-02 4.727433709567711029e-01
4.220316988844918793e-02 3.503637948905435895e-02 4.942701151052014130e-01
1.086624673565285762e-02 6.329165405567284408e-02 5.228313802859588799e-01
4.173717044109243046e-02 3.000834954175086652e-02 4.734040876029031453e-01
7.379541648803491713e-03 1.122115485327339866e-02 4.445835866480806753e-01
6.076970924906511737e-03 7.133174330404201680e-02 4.699753288323718081e-01
4.381884748578525335e-02 3.095300216750980493e-02 4.903095068072260143e-01
-1.291908729305371074e-02 5.160775647370568348e-02 4.570767282650413654e-01
1.337143048884978196e-02 7.407464267798634372e-02 4.987245687509359038e-01
3.542774418991527507e-03 5.466465140150870289e-02 5.338619523262784217e-01
-2.570126549645487118e-02 2.633741933828134124e-02 4.461171171976092142e-01
1.079887056927646052e-03 6.613742627767404958e-02 4.646402837673058728e-01
1.033108414936416593e-02 3.658213371382382922e-02 4.555239469546605302e-01
2.956578860128852501e-02 6.106688736362038405e-02 4.779593185622585394e-01
6.806079139033133565e-03 7.249957875198712043e-02 4.707239869842323454e-01
1.328659055035510787e-02 7.210214235769493718e-02 5.023204221103407807e-01
-1.347121142341316941e-02 1.675652440826241180e-02 4.430747294281434656e-01
-1.645243498946038010e-02 3.401848966201401897e-02 4.499328696972852426e-01
9.175576969074596134e-03 4.612018766072667475e-02 5.347876067914791864e-01
4.514241878540625752e-02 2.540122669567189406e-02 4.821870026757248406e-01
-1.075599365960828308e-02 5.942181670159930873e-02 4.602698768912936167e-01
4.114595781736078012e-02 3.960951187868282791e-02 4.858000986436822322e-01
3.138993923491627952e-02 6.012962421394630469e-02 4.851357711641569592e-01
1.580011219213260654e-02 3.815416148222734727e-02 5.322010141952002726e-01
-3.702584944547753637e-02 4.032564958885338779e-02 4.533734071798301568e-01
3.082425678329002786e-02 4.397561234036180544e-02 4.684964195905303996e-01
2.793421597672669093e-02 5.886938384065552865e-02 4.742369522857184383e-01
3.378778625148815690e-02 4.390647911239522333e-02 4.711603961432066501e-01
3.864222187217471877e-02 2.577014367742911510e-02 5.099077214482176101e-01
1.774110176377420231e-02 4.503730723606400727e-02 4.612660354878240776e-01
-1.235774108671708164e-02 -3.892657307352789808e-03 4.368724357359243249e-01
-3.296569479355342114e-02 3.329479517829894708e-02 4.490000124626946088e-01
3.707738028338455200e-02 4.623984337744055373e-02 5.028946137241938619e-01
1.528891394541292623e-02 3.137794067389475944e-02 4.546750818350163148e-01
1.187382228091314260e-02 7.106019422062512247e-02 4.693559041258293374e-01
1.737381018203624714e-02 6.929736271126774039e-02 5.059924309511625307e-01
3.102560016810066226e-02 1.925690375921900940e-02 4.564758952545608928e-01
-2.600926592699817110e-03 2.322452551364846338e-02 4.474729676037192960e-01
9.278594371517125475e-03 6.620344289913505931e-02 5.083330663110693370e-01
2.048643128029550842e-02 4.370662817432827835e-02 5.248376884748321425e-01
2.705610698045337464e-02 4.199385211307551935e-02 4.648915178356427536e-01
2.644469073698302308e-02 8.292419997208415328e-03 5.294813601916469326e-01
2.386206180711325855e-02 2.389230460834123465e-02 4.545597641485712437e-01
2.533524899481117212e-02 5.597557521486893478e-02 4.704615532940234490e-01
3.214426102743945125e-03 6.232777071008999831e-02 5.249498281435371894e-01
2.863675686388361327e-02 6.101334264769672083e-02 5.035911124132708139e-01
4.082516016635025224e-02 3.026925692696810430e-02 4.718508101437468572e-01
1.783918174597130812e-02 3.661985803067270562e-02 5.312176290454023730e-01
-2.791541669111052837e-02 2.107580109182722108e-02 4.440422143136648625e-01
3.558012580570042716e-02 2.046125566577739266e-02 4.601221026991064722e-01
3.865381125341350171e-02 2.334396179718747563e-02 5.119759120351309312e-01
1.489240188997129413e-02 5.194496952273550128e-02 5.252424176952890100e-01
3.654283057752213265e-02 3.112035690451747660e-02 5.114530292803503020e-01
4.166372299495556264e-02 3.895134593438789178e-02 4.894013908842555494e-01
1.753789339895214447e-02 6.025603672480087103e-02 4.669034696759112313e-01
-2.948417496531968024e-02 4.526413150311784511e-02 4.551340665309955291e-01
3.984826905256100976e-02 3.877533783816666801e-02 4.770067011997776718e-01
8.384885005582563833e-03 6.481305295009255618e-02 4.648866437372584648e-01
7.715440546061554106e-04 3.860702337045064658e-02 4.542779268134430892e-01
1.321935042821426390e-02 7.784160183362830165e-03 4.443957516334791080e-01
-1.356711971937645152e-02 2.475409031738906238e-02 4.461206194668916880e-01
2.468556532769115505e-02 6.028846626595581182e-02 4.720893638532335790e-01
4.563931330574510364e-02 2.446283746444359586e-02 4.860259907784969524e-01
3.136513780478654423e-02 4.446402262578688647e-02 4.692411143104971427e-01
2.253269261625871593e-03 2.827108182519856225e-02 4.504275773711885478e-01
1.078666299683751599e-02 9.387303459112997239e-03 4.444966121441115137e-01
8.281426319117660834e-03 5.170632990550806662e-02 4.603819798938603713e-01
4.207914924010911634e-02 3.029326161492258349e-02 4.744320624411320630e-01
3.734483383980714832e-02 4.875138021760663798e-02 4.930556686768357566e-01
7.699814985743737641e-03 3.683433069913480407e-02 4.550295970695495407e-01
-7.194132225275909689e-03 5.559233287356298708e-03 4.399451196163435274e-01
7.715000386587067549e-03 7.155345834447733588e-02 4.968360212258364217e-01
1.737233904688540581e-02 3.764880015256271556e-02 5.314761230818345616e-01
-1.486585853642691073e-02 5.806654740966082223e-02 4.598755282878588257e-01
9.422332507461060646e-04 6.183182651860754525e-02 5.270964649717616579e-01
-2.452919790236857481e-02 1.890862171502948053e-02 4.431707879155650232e-01
-1.519940511702597315e-02 5.939238314641602512e-02 4.614431525103301346e-01
1.096718732039188640e-02 1.730147426032441118e-03 4.415839859414878443e-01
9.212029005570648160e-03 6.691145787611471607e-02 5.075165469715622324e-01
2.007103817271581672e-02 7.482687329650690444e-02 4.920038689268658727e-01
2.631244925486819070e-02 2.969608146899467907e-02 4.584953320339592020e-01
2.911192130964290053e-02 4.458921288182432496e-02 4.674864834443259731e-01
-2.304115529257893397e-02 1.279003229704604207e-02 4.409027389257876850e-01
2.028398235740852193e-02 6.126023943531545835e-02 4.688499577810493757e-01
3.193650216920465579e-02 5.056971054384671455e-02 4.739948229390828494e-01
5.440546627397617463e-03 5.805008004205718629e-03 4.420094835261804134e-01
3.527883137263912450e-02 3.130131977823656653e-02 4.653828232864816727e-01
1.921998519489434218e-02 3.465509737465605894e-02 5.305066909002010833e-01
3.165430011632578561e-02 2.128279088124440319e-02 5.235614430870293434e-01
2.202766302808923521e-02 3.825882524794462641e-02 5.292104563946258278e-01
1.511497420221740058e-02 6.566234309001037217e-02 5.142907031691269504e-01
2.480652238508929130e-02 3.836739600333242267e-02 5.257751856946025759e-01
2.378762630957514598e-02 5.252159187577307847e-02 4.676770072376538745e-01
5.336076820638924363e-03 5.255868653638508942e-02 5.341631594227251867e-01
-3.812547471219088907e-02 2.670588756073462647e-02 4.471694275145015607e-01
4.211866228755109520e-02 3.598036293733806318e-02 4.834997067125765269e-01
-2.125051745909214626e-02 4.321302700886586745e-02 4.534418320502418553e-01
9.662764805502627175e-03 4.882357243404610025e-02 5.321873777088433899e-01
3.932990491978165248e-02 3.117482054785353229e-02 4.696719810474211942e-01
2.459887161472297176e-02 6.540045608087050044e-02 5.029535270140433889e-01
2.311286691175791497e-02 4.347904113535379367e-02 5.222989419912691389e-01
5.818010228670683279e-04 5.080600948018609148e-02 4.579342555936093406e-01
-4.306848056706939071e-02 3.093004881724842337e-02 4.493458985797157967e-01
-1.681916711010701150e-03 6.518658995418689928e-02 4.639248757611191265e-01
1.561374862198604101e-02 7.512237868886267877e-02 4.756128995450533137e-01
5.983973924084312612e-03 5.916238463263502612e-02 4.618397063910578138e-01
1.831563723339685312e-02 6.344322269027440064e-02 5.160773679319408114e-01
-4.818717905862935150e-05 6.873718889804859844e-02 4.661369411194600243e-01
-2.005343870560263777e-03 4.923006207261678563e-02 4.571308601921115766e-01
1.329425326268135130e-02 7.798741363912731206e-02 4.818770690386463551e-01
4.030808415949205942e-03 4.738204594356622973e-02 4.578620596560103451e-01
-2.019129871029180789e-02 5.767315749042741663e-02 4.609647228159550192e-01
3.926380722083250979e-02 3.017201668989966459e-02 5.056783015992385444e-01
-2.931863393649388957e-02 2.690215518568957187e-02 4.464292895040768427e-01
-4.515637761475203502e-03 7.878281438347619486e-03 4.411380467424619867e-01
4.131962516911625444e-02 3.188276448117093737e-02 4.996238022032544190e-01
-8.274264819400429377e-03 1.194135245716746938e-02 4.420933211624410442e-01
1.948309188047499599e-02 7.370204172979651080e-02 4.782499441009617769e-01
-3.207275047695711673e-02 1.944775568605838084e-02 4.440539005999669664e-01
3.275755978598467004e-03 2.798831067757903343e-02 4.505165391621187565e-01
4.788189248905168165e-03 6.768286514321125713e-02 4.658381211394784782e-01
3.802604820502881143e-03 4.555990582049004173e-02 4.572585351267696718e-01
2.961755511393273504e-02 2.393060830992361013e-02 5.246624892933366979e-01
-1.913196648205029229e-02 4.870517382215349550e-02 4.559186078927345842e-01
2.652238381936327175e-02 3.553162717149495331e-02 4.613897362911345001e-01
1.224602307710335666e-02 5.779621367994183800e-02 5.250863494363426920e-01
2.961206073838979630e-02 2.878954007054920078e-02 5.246883219353353223e-01
2.554651952428550407e-02 5.272118593555735755e-02 5.164001145400732851e-01
3.398562226902564209e-02 2.768147070648811076e-02 5.203540194471177882e-01
