3.540245607352255318e-03 1.906928465732586966e-02 4.470338861202386438e-01
-1.511657937337595667e-02 8.413175921035381810e-03 4.397278016029375625e-01
-1.642179235942957134e-03 6.032143575727408336e-02 5.277697447904133865e-01
2.037795802278783222e-02 1.581315631995046378e-02 4.495594911893656676e-01
-2.613227830094203702e-02 3.303774242231763414e-02 4.488289842296186993e-01
3.678068910576907241e-02 4.953708146304237891e-02 4.831475872962541773e-01
2.999065898437429031e-03 3.853711334362964341e-02 4.547288443836827176e-01
8.543852626622317620e-03 5.117671473511989366e-02 4.603758971272896572e-01
9.899407417596664538e-03 4.927206154391877702e-02 5.320640187696410450e-01
1.511438102119974300e-02 4.491773371287947209e-02 5.313179460369124030e-01
1.788486060846329953e-02 2.250378619693442495e-02 4.516803006347436256e-01
4.022740048871499205e-03 5.387964081586342144e-03 4.416007695481051210e-01
2.861542777778015162e-02 3.415668180691116412e-02 5.244199344984760147e-01
3.231740994766370279e-02 3.634264076346579997e-02 5.149953262416328004e-01
2.877218751189616203e-02 6.300076469128969292e-02 4.977916821744439724e-01
-2.921790764713677602e-02 2.092435606866070025e-02 4.441780038982731660e-01
2.028160811760768359e-02 7.221685033824816469e-02 4.773103166941923825e-01
3.075344550649307396e-02 5.949536424108227417e-02 4.789257362325977652e-01
1.807468448784362546e-03 5.937944269784918572e-02 4.606879708602130141e-01
3.666684700416048687e-02 4.589784071077536443e-02 5.045486022718232988e-01
1.855615380483338628e-02 4.291807631584097782e-02 4.608085793601979230e-01
1.466325409588528986e-02 4.022447581486865431e-02 4.582647268788664352e-01
3.366311185193084088e-02 2.709166016317938325e-02 4.619528777386224805e-01
3.017291149389222590e-02 2.640562300296650858e-02 4.591914047563163681e-01
-2.436901385755821381e-02 5.724554354421704239e-02 4.626671539849195325e-01
2.035847265926912092e-02 6.420633253023541598e-02 5.131405203390382308e-01
3.355417797618177184e-02 5.295712464981329470e-02 4.783577989431420652e-01
8.668998397619979285e-03 6.957968753196500100e-02 5.023629795057817926e-01
-3.678237557966997084e-02 4.006797039098884683e-02 4.531139959224791958e-01
7.894552678258342712e-03 5.383314265784423791e-02 5.310737178639151068e-01
1.956047029736629125e-02 3.808810046795250981e-02 5.306554320437387728e-01
3.570835277891188514e-02 3.979793782071533448e-02 5.098700160295280837e-01
1.111409974274824020e-02 5.730308547251619644e-02 5.266731459482478783e-01
2.815952746796141631e-02 2.235545359601455451e-02 4.561445447637225703e-01
1.980294815120754726e-02 6.136367389762276831e-02 5.174045794076377325e-01
2.578427344069852967e-02 6.149140595564785844e-02 5.091708967071144620e-01
-9.625283499352318278e-03 -4.319101137074496388e-03 4.369787067167271166e-01
2.890222597059133661e-02 6.387638290217108328e-02 4.817243754518686916e-01
-1.870930296674654103e-02 3.873364030668616231e-02 4.518475008327124676e-01
-1.331732822850897023e-02 2.117374223140047404e-02 4.448287649681376132e-01
3.733582039432021410e-02 4.869270819990807742e-02 4.942400204492610749e-01
1.125324481353774837e-02 7.598239473004433919e-02 4.879483499240619970e-01
3.618979066552448914e-02 2.189921149207043477e-02 4.613241444101962574e-01
2.129484726395648037e-02 4.314687976952243098e-02 5.253961119552997827e-01
4.441368608703524790e-02 2.553664936026213417e-02 4.952914153312130696e-01
-1.866992431298818492e-02 2.148270435593126193e-02 4.443307776544938581e-01
2.207710110717552715e-02 7.228982024051325284e-02 4.943085354580637469e-01
2.452547346331885453e-02 6.571750069201923172e-02 5.024705378142639844e-01
1.951796126123362188e-02 6.762170756245339254e-02 5.065301167495714907e-01
4.380035303586535256e-02 2.806281930222790169e-02 4.945581453071536404e-01
3.355037938864117997e-02 3.636644714634534870e-02 4.665405453304254380e-01
3.681033542594318309e-02 3.611149997085691399e-02 4.690597429864151180e-01
1.462231215752394196e-02 7.608119407059135697e-02 4.761871984856659856e-01
1.760431043254246167e-02 7.563574435788764094e-02 4.939726829241097850e-01
-3.766538377591681364e-02 2.000817183642921229e-02 4.452093269169621892e-01
3.115703481048492235e-02 4.362513271238577239e-02 4.686062038751834247e-01
2.309543064661817233e-02 9.575963514794175874e-03 4.482352167073062610e-01
-2.953875707154406550e-04 5.471064882451399936e-02 4.588672550563068775e-01
2.402017358903087846e-02 3.447985931941043025e-02 5.283558993184572783e-01
1.404677575693351679e-02 1.217048200682289624e-02 4.463681679007757697e-01
-1.304853685726322168e-02 6.018677589166820247e-02 4.617398045520165750e-01
-4.253949805357163522e-02 2.782126706090357407e-02 4.483912818065593497e-01
-3.928287755136290055e-02 4.027871680175230951e-02 4.541817474227697327e-01
3.006256029649681874e-02 6.088330617639690218e-02 4.989891211260716886e-01
4.133147873958948476e-02 3.966803417936082959e-02 4.935519665229465835e-01
2.290765344183549879e-02 3.670538194286840361e-02 5.290111835221625869e-01
-1.225300529855528550e-02 7.057330865642932015e-03 4.397669044847025699e-01
3.326729847618940111e-02 2.514611721015533319e-02 4.606825902394184880e-01
3.451282742195064396e-02 5.085056675748412386e-02 4.784699544876131472e-01
3.909491148416167211e-02 4.559841513179900552e-02 4.945590072097800771e-01
8.092521539798350205e-03 3.782148177325125177e-02 4.555726757089148538e-01
1.828642762563755311e-02 7.655127663307834118e-02 4.860563441697983156e-01
2.392585951955239487e-02 6.579184246284221216e-02 5.039687803155008528e-01
2.162570609659312734e-02 4.776957084788627933e-02 5.212083609572648601e-01
3.483842416449322438e-02 3.038754891294541405e-02 5.160234666119639657e-01
-2.491920466727184577e-02 8.373215873519260222e-03 4.394711222419726560e-01
1.724771061633944072e-02 2.777111027841307547e-02 4.537754529428858485e-01
3.436652431728742796e-02 5.192794612560108769e-02 4.794053791740367498e-01
3.645438711453503899e-02 5.123446194818938315e-02 4.868090421000419998e-01
3.160714501898069517e-02 5.261105246558422932e-02 5.090366710483644752e-01
9.270729328683219653e-03 6.154097268322042402e-02 4.638742718093223916e-01
2.647036929746843584e-02 3.087804372743503667e-02 4.591976348282424958e-01
-4.198834910840971296e-02 3.150860752281954558e-02 4.493457263804207513e-01
-1.337269328110031810e-02 5.886055914335153183e-02 4.605193486496783617e-01
1.045770274787907218e-02 7.754353377885289667e-02 4.815616417802873195e-01
2.192721593827815993e-02 5.411552757871049973e-02 4.670635461928202004e-01
-3.653132510570137464e-02 2.120442401527691118e-02 4.452994801366609301e-01
1.142452985889297161e-02 7.337101372752528883e-02 4.982727328106880127e-01
1.769634049068913653e-02 4.855077256072573566e-02 5.248668369170441661e-01
2.047982511493972799e-02 3.319218493064386710e-02 5.300008077675353313e-01
3.002247379095063923e-02 2.981524558823651222e-02 5.245084150046116500e-01
2.515348218310486245e-02 1.264189665818769501e-02 4.503523645745451942e-01
3.891923881302710581e-02 3.085174268178157361e-02 4.686058788084472293e-01
-1.633633849201594074e-02 1.282549896487880474e-02 4.411363461019244259e-01
1.056879115486430119e-02 3.915429794794240970e-02 4.567096376073110364e-01
3.231610788503416765e-02 3.308321906905331566e-02 4.639999849526082465e-01
-1.510959280335947945e-02 4.794631094711286623e-02 4.557702096502403433e-01
3.644252379175867695e-02 4.287644301198293567e-02 4.741398691368348683e-01
-3.428961648391314065e-02 3.221075807564071497e-02 4.486524463913360572e-01
3.482468562834913073e-02 3.435424894028820536e-02 5.125473911069287070e-01
4.036964048073134886e-02 2.971992436857231676e-02 5.036021529322570744e-01
-2.375503954241187099e-02 2.079804946516639053e-02 4.439190544635790991e-01
-3.156540401985507421e-02 3.870948983368245611e-02 4.513060411578809772e-01
7.343869144522597280e-03 7.009119518434527019e-02 4.987265987234070774e-01
-9.834422142369743380e-03 1.560925933344606970e-02 4.432711842924978995e-01
1.631569640496349088e-02 6.015694668174004917e-02 5.221150099628628638e-01
1.978232180114947864e-02 6.907379881667807808e-02 4.728894172340768476e-01
4.375359830483542545e-02 2.050400572992072332e-02 4.710074577955561392e-01
2.245529276154331969e-02 6.658367209874442583e-02 4.734061356876602678e-01
-3.451556948063361219e-02 4.286875412532880486e-02 4.546385824899615846e-01
6.596770533003676849e-03 6.252621994786185244e-02 5.185138341690013197e-01
2.000990409570701720e-02 7.518371388082664697e-02 4.850252933057383475e-01
-5.276500091317454406e-03 3.008011176546570003e-03 4.393181873916254254e-01
1.691875529086784777e-02 1.235241355264827395e-02 4.470887877666605004e-01
1.513157992456212395e-02 8.449395898559280971e-03 4.451425156169588893e-01
-1.252977964070137867e-02 2.815787910228741142e-02 4.477557911012345349e-01
-3.181044296321648701e-02 2.611790816048962724e-02 4.463676326181863496e-01
-1.116729213765309085e-02 9.379559226453221613e-03 4.406984113552336879e-01
1.892050852965850363e-02 6.049405250678730611e-02 4.677376335348495395e-01
-3.588538285561725105e-02 3.570170417396975604e-02 4.501629636934383338e-01
-1.700738043387270415e-02 4.520663564647322413e-02 4.545502401821313043e-01
1.235534754041763862e-02 4.328085247467832603e-02 4.588443653821787649e-01
3.939410506221625863e-02 2.495715281886654729e-02 5.089467759026838900e-01
2.410276652049519325e-02 2.952854120215328559e-02 5.281977008897977832e-01
3.163917674894009546e-02 5.989346175260374522e-02 4.865819412581799952e-01
2.778531950246152654e-02 3.174112699370030405e-02 5.261711865225708884e-01
2.450315403436504474e-03 6.200767010294863657e-02 5.252999336828955146e-01
2.940192294935510542e-02 3.772279040490077867e-02 4.644077333118214468e-01
2.908083981723036393e-02 6.268338164880397911e-02 4.795596138414084941e-01
-2.017173534185589395e-02 1.803935700306788861e-02 4.428722114454536896e-01
-8.005960221852043146e-03 5.562761777788517020e-02 4.584115107041600856e-01
1.485747534323236807e-02 6.033591826345263004e-02 4.657099207589036061e-01
3.170888439880265725e-02 5.721046795976030691e-02 4.784195930738953106e-01
-2.507777723666501299e-02 3.374774618306930485e-02 4.491351471417662222e-01
3.868584838139174642e-02 4.625066008203682077e-02 4.951079101509650027e-01
-3.607688354072095815e-02 2.824803568766925260e-02 4.473352873740183422e-01
3.745112783271084544e-02 3.170370914206931123e-02 5.092974455018692836e-01
3.517603237339182731e-02 4.887935687773057453e-02 4.776760311853034957e-01
2.683894268830813550e-03 6.287717444548243662e-02 5.279722941865575558e-01
3.963417960966331838e-02 3.421530237097075711e-02 4.725491582725854789e-01
1.802502602190913378e-02 7.509977283146147820e-02 4.966756365470391121e-01
8.880695265938765015e-03 1.776549561597513122e-02 4.475415529185479135e-01
1.803122376571163893e-02 4.815857649609548569e-02 5.247763848567941203e-01
-2.876183872151523088e-02 3.317182439192695870e-02 4.488825524545743684e-01
2.463692642376694164e-02 5.997443282837721518e-02 5.124111239959525665e-01
9.926632981445061843e-03 7.879844152733135598e-02 4.800712899719746796e-01
2.007658837749366765e-02 5.051912506718123780e-02 4.645556519302808662e-01
-3.868084776880711256e-02 4.073929980121797356e-02 4.543682747412063905e-01
3.458308903756862618e-02 3.362990084303343896e-02 5.129046113581487987e-01
2.981716140472898818e-02 3.710823480370126215e-02 4.643560976795282902e-01
1.294112757526387145e-03 4.064499190239942439e-02 4.551856369282867298e-01
3.932265615948227211e-02 2.286205184599723189e-02 5.107185736460506664e-01
3.321887653118110739e-02 5.663628309302558977e-02 4.820450173709473485e-01
3.420469466241340961e-02 5.543634693281394160e-02 4.873113924961239851e-01
1.117322569437589029e-02 5.485684517606685684e-02 4.624586631666914860e-01
-3.846929153801876416e-02 -1.026513821777556975e-03 4.403066569575356803e-01
3.609198582146220385e-02 5.166851973967143824e-02 4.856861430413106917e-01
2.950123121148243502e-02 6.838829939787210987e-03 5.303196048468976631e-01
1.562746285734677165e-02 9.535012948875988895e-03 4.456835793548086233e-01
-3.103091743608985681e-02 3.049476931315849709e-02 4.478362833782666974e-01
2.771415380630242592e-02 4.127775586695056620e-02 5.190992441994023432e-01
-1.266759600066626364e-02 2.352622560085318448e-02 4.458320917583343812e-01
3.263083351020376610e-02 5.749835115194319030e-02 4.947263204603722375e-01
3.538788445943613636e-02 4.016539179064702175e-02 5.101450734688608435e-01
2.843458383340297449e-02 1.503477232826157597e-02 4.531434962041173686e-01
6.324989647736731918e-03 7.589715994824523804e-02 4.800249681054689077e-01
1.613384219655287707e-02 6.135141832585874061e-02 4.667354517018115212e-01
8.760314387117593138e-03 7.208950211301115574e-02 4.696307653508645652e-01
5.909137627278024732e-03 5.023594782648233698e-02 5.358824062736896598e-01
1.219537174757184556e-03 1.882339815094679833e-02 4.464902647424558446e-01
-8.090376500108447527e-03 1.653903628954021474e-02 4.439169563914693861e-01
-6.745891427626462405e-03 4.200598495148993861e-02 4.543863644526431878e-01
4.194995306484928556e-04 5.202585997240700283e-02 5.375287848521308476e-01
-1.120557228034992428e-02 -3.102672201809303105e-03 4.370723936063524717e-01
-2.822780466071779862e-02 4.250116497428545193e-02 4.531103221996770625e-01
1.370371238155705662e-02 6.655016790002307725e-02 5.108059195857805879e-01
2.023249283291934930e-02 5.047918169143346401e-02 5.216173352782037531e-01
2.882874454010671272e-02 5.946300175721717235e-02 5.065969285595786076e-01
-2.672698737255977189e-02 3.156049193257032259e-02 4.482010203023819028e-01
5.243906086846689130e-03 6.184916891811549633e-02 4.627282598452148732e-01
1.771676180475027090e-02 5.754703308066858730e-02 5.215074957734872063e-01
3.101027373472189583e-02 3.473446625030789103e-02 4.639327799372094385e-01
4.075004033758018729e-02 3.944593305071793926e-02 4.796733107895149173e-01
2.571804775415204719e-02 1.878657101003115490e-02 4.532416433327239313e-01
-1.908232335274506666e-03 5.911545075528898407e-02 5.260245857467783503e-01
3.547848878219182767e-02 4.749464782936087259e-02 4.765343983191432375e-01
-6.327043839359263594e-03 2.583042285238037333e-02 4.478667678953274223e-01
1.170735506287316936e-02 7.135909008565204104e-02 5.026221345937803564e-01
9.366862886023029355e-03 7.478635410850230369e-02 4.930821581423370237e-01
4.308328022854669009e-02 3.391688005600641126e-02 4.873985828316850233e-01
8.925416906596705946e-03 7.405772010280567419e-02 4.720641623208476356e-01
1.066552908128418249e-02 6.536278299743868148e-02 5.103616816261453693e-01
2.890238497526630840e-02 5.885390952317860053e-02 5.077513825122126345e-01
-6.225921281075991187e-04 6.139367563807979905e-02 4.613444698495415275e-01
-2.386596217665975465e-03 4.718894171092490389e-03 4.402888906724649609e-01
2.543426637875019838e-03 6.101082541927531355e-02 5.234443181240387988e-01
-3.183546473415392597e-03 6.528683107723680379e-02 4.640075161783988600e-01
1.459017630995442481e-02 4.441429104855479371e-02 5.323543623906000777e-01
-6.490680287518256139e-05 6.908335911356666692e-02 4.669250144147275572e-01
4.002938722645464631e-02 3.000454777687412006e-02 5.042217877293507788e-01
4.220470882599238610e-02 3.638165851855792304e-02 4.855225295739200586e-01
-1.069297884300814475e-02 1.872007897549977928e-02 4.443061672321000355e-01
3.361946913911266488e-02 5.090409993389649612e-02 4.760279109169019418e-01
3.750345425224495266e-02 4.742990018649163864e-02 4.815651847602719360e-01
2.962413419902003645e-02 7.811004305583367502e-03 5.291990488062030540e-01
3.350836018156239798e-02 3.822355836877676383e-02 4.674780648589593746e-01
3.409007727673759452e-02 3.972834285007705024e-02 4.687505661052608352e-01
-3.576278085343009144e-02 3.519703572271733888e-02 4.499490564983365526e-01
2.014319436298673410e-02 6.604255422080204663e-02 4.712600411369356479e-01
3.145003569063352378e-02 1.811614563476271131e-02 4.562944231112487925e-01
4.559621015321348864e-02 2.351754721611712742e-02 4.911011582393599584e-01
3.870221806438280121e-02 4.610124178516962490e-02 4.966746870389642798e-01
4.149281092172463908e-02 3.863793773201957410e-02 4.856073352856706271e-01
2.555909275236874917e-02 3.955484410975589060e-02 5.236646527856279043e-01
-1.516946112995228892e-02 4.998795732411870363e-02 4.565669903702248011e-01
2.011036968671850445e-02 3.503495170023534361e-02 5.302576804149342626e-01
4.217967774862393243e-02 2.779626472238875406e-02 4.998434816573444905e-01
-3.442675341980935833e-02 1.943162097929671678e-02 4.444473359771494159e-01
2.331060755342420285e-02 6.240780353643880091e-02 5.114600261681835347e-01
3.810619514886114806e-02 3.394318130905839281e-02 5.063127573568595441e-01
-1.899950986314466114e-02 3.181990728724629069e-02 4.487274032929779999e-01
2.157065885776358882e-02 5.150323588159742144e-02 4.658227245009083362e-01
2.669971973687765981e-02 4.346314474263000827e-02 5.185558970295875980e-01
3.095682526964930320e-02 2.361814953591012678e-02 5.236406567926543687e-01
3.113086311240917045e-02 6.012249091484153651e-02 4.950227399418218321e-01
3.148375924246753221e-02 2.472266917811709666e-02 4.592465182493604137e-01
4.086195491770550775e-02 3.826292117723461422e-02 4.785175521431763723e-01
-3.334070560717486507e-03 2.833184351927355710e-02 4.494401767471001841e-01
1.095457407541118068e-02 4.580777058151130898e-02 5.344853052160158935e-01
3.790253468655496727e-02 4.809453409321743506e-02 4.918291090533373766e-01
-1.840048205335375470e-02 5.285121265136360352e-02 4.576501006761723445e-01
4.288472205006649274e-02 3.313364685490409467e-02 4.818913087710774423e-01
4.102830749967779911e-02 4.055830227393961152e-02 4.875354797146626007e-01
1.894844745288095864e-02 5.320225245484475757e-02 5.216049416519472626e-01
-2.264589698273672749e-02 1.047176667188784785e-02 4.400683080158959148e-01
-3.904484783267990478e-02 4.153728930096672184e-02 4.551837493023882519e-01
4.004618884652592220e-03 6.649860677792067409e-02 4.649854435362220650e-01
3.568956658636653761e-02 5.218133360681385252e-02 4.922068458273898828e-01
-2.860412834407081301e-03 5.666542048128098835e-02 5.379203759344152180e-01
-2.377024240982688469e-02 9.672420273582633260e-04 4.376121764706163986e-01
3.858550300823921503e-02 3.204977079235087067e-02 5.062971765613073494e-01
-1.689081836996552191e-03 8.623998019878184942e-03 4.418911468548334387e-01
4.534492783546946459e-02 2.297415749885843225e-02 4.939027523141181764e-01
3.060162240092361222e-02 3.463586802345563348e-02 4.636053667535309231e-01
2.600132865033007862e-02 3.850984935311886626e-02 4.626169482315413695e-01
1.052370142920241308e-02 3.845293620951972108e-02 4.564077228159535426e-01
1.776653373455333237e-02 7.605744329634164802e-02 4.905894615457884189e-01
2.984845694690215281e-02 4.442599085308460150e-02 5.151780012418837318e-01
4.047878363240433458e-02 2.467235351349484490e-02 5.067255752736271601e-01
2.578058137892030866e-02 5.643655143102578597e-02 4.710827897045231638e-01
2.474122028381993757e-02 6.839589816622640428e-02 4.961483009403108713e-01
-4.047579022481029298e-02 3.682793421236009446e-02 4.514907255626303129e-01
-1.912667245366683842e-03 1.074411272078192384e-03 4.390797925294864235e-01
-2.415946838116306283e-02 2.816966060963286070e-02 4.468122871363736648e-01
-3.890216942269138917e-02 2.484753619033773162e-03 4.406617174312918994e-01
4.226840697511098643e-02 2.895797115715349063e-02 4.988901961891060166e-01
3.535925745483865790e-02 2.659289072401660806e-02 5.183237518211120110e-01
2.268683576213556888e-02 4.969222209218746716e-02 5.198497909206413192e-01
3.525378511451805058e-02 3.434539888522000067e-02 4.668482420028931545e-01
3.656568656650736188e-02 3.448770544490357970e-02 4.679956983966216399e-01
3.657151537765499644e-02 2.534866352991427263e-02 4.634531339931962646e-01
3.666401853065075905e-02 2.815987080999982073e-02 5.132140976155897816e-01
4.504310163819576218e-02 2.393224465268158074e-02 4.780229160306221914e-01
2.833137984451193289e-02 5.399445227375547496e-02 4.720188125383167344e-01
2.114131328944014732e-02 3.116240666369607046e-02 4.565603387501611099e-01
1.460457057967518534e-02 3.434808114872657525e-02 4.558256502992940051e-01
1.157213820625832210e-02 3.173779638976177708e-02 4.538645505033567229e-01
2.138106734200049402e-02 5.057832428624600002e-02 4.652936273040073067e-01
-5.037738360362037024e-03 2.332706646380924842e-02 4.470817390164216198e-01
2.331755715124509895e-02 6.114657658035328042e-02 4.714287420914526350e-01
-1.543456002035795312e-02 2.041102203367976820e-02 4.442698296923203727e-01
2.382652432558659758e-02 3.940781733959992233e-02 5.265991209158811248e-01
1.895935421132835877e-02 4.611733486189639047e-02 4.623506794479112503e-01
3.019585782030059090e-02 2.293732892841957027e-02 5.245613018812775863e-01
3.131125971097094285e-02 3.399156929410458716e-02 5.197722296856166491e-01
1.993650405549328430e-02 7.291892649257458725e-02 4.978752329754631001e-01
-4.888929661200361147e-03 4.105558933598710963e-02 4.542388882198688527e-01
3.419796752319877089e-03 3.678686999511913275e-02 4.541218170207795279e-01
1.083104560165991381e-02 3.417890259893933969e-02 4.547102469381089085e-01
1.749223090850405768e-02 5.968778978227676918e-02 5.213306201651385363e-01
1.682716009466088056e-02 4.928897933923954977e-02 5.252593641369740496e-01
1.699608321936074348e-02 3.639058575047525446e-02 4.574074283659020912e-01
-3.019572178046421931e-02 1.755881260724530615e-02 4.432875846604682479e-01
1.469776997876108549e-02 6.960839295593165311e-03 4.444589399483996894e-01
4.094762127914781946e-02 2.344315157399050331e-02 5.063831056740509817e-01
7.204894056680281877e-03 6.529969076653791005e-02 4.649329394553031736e-01
-2.780324691390640562e-02 3.148502384201422311e-02 4.481675600808756044e-01
-1.983720521477546489e-02 3.788825436297797722e-02 4.513663853642285173e-01
-3.911637306511409062e-02 1.223066844748900255e-03 4.408156799062986075e-01
-2.012978475996708011e-02 3.871966665898416565e-02 4.517066009113783198e-01
2.098703715683573195e-02 4.705730816971476910e-02 5.225590469799521465e-01
2.444411935902963615e-02 6.443811866175695735e-02 4.741421566392975961e-01
1.109977479316223356e-02 4.867232252505440671e-02 4.603546268755764892e-01
3.499623594794642328e-02 2.703724502225805792e-02 4.629208883495301019e-01
1.042593721059698400e-02 3.333397925806950990e-02 4.542690997969910383e-01
-1.363049224448333041e-02 9.849001195633106526e-03 4.404360414586104833e-01
2.539877333889540081e-02 6.897174296285998873e-02 4.821381441724003625e-01
3.989589896182976075e-02 4.364426165639155586e-02 4.873363836959014872e-01
1.135506126113112330e-02 6.503358192532740500e-02 5.164790462757602452e-01
1.489559392774576253e-02 4.496858131521817847e-02 5.314839203579571070e-01
-1.234844439779332441e-02 5.573059301754606371e-02 4.585302996900680328e-01
2.799563264006069835e-02 4.448824785531237808e-02 4.667398712056580745e-01
-1.979338744846146844e-02 5.933615578315325212e-02 4.630498235800409312e-01
-2.803017511740055201e-02 4.438228320014273032e-02 4.542182155829024293e-01
1.983875232484250475e-02 7.555283657769032435e-02 4.881738467534470494e-01
2.722377583356086483e-02 6.103966435204824167e-03 5.313250960544338986e-01
1.773941648395910287e-02 7.517068320379872992e-02 4.964372982232351794e-01
3.610191143227305804e-02 4.956055461577251603e-02 5.012064265121795037e-01
1.291647205879727089e-02 6.327635228388449329e-02 5.238399363117776097e-01
3.955141492722266672e-02 4.429658872303214590e-02 4.854290641751048407e-01
4.203734576954602786e-02 3.828556860979774601e-02 4.907887294541764533e-01
1.573374138279623122e-02 1.179166223429310885e-02 4.465892509543130662e-01
1.087881218053358620e-02 2.794276563768639809e-02 4.521464910754403599e-01
1.693444333210084030e-02 1.052965776573379537e-02 4.463813068704295950e-01
-3.249544825256824032e-02 4.271246065206275172e-02 4.538222354676148540e-01
-1.967857345200382455e-02 5.950567099015354605e-02 4.638568965607753891e-01
3.754745799057451067e-02 2.341626671397458587e-02 5.155687338154191224e-01
2.254618891736701047e-02 7.314985436740675806e-02 4.901047100183222871e-01
2.723263333433007319e-02 5.798490463976681969e-02 5.107689380020292713e-01
4.101188472412249653e-02 3.920259131638415689e-02 4.970940582246074491e-01
1.543456313688056948e-02 5.994252212798162338e-02 4.658306289027511204e-01
3.498669308755476826e-02 5.394668594745084117e-02 4.865130831347687090e-01
-1.745024448617061782e-02 4.454237473021574467e-02 4.542665282102703594e-01
1.200685004344299520e-02 6.894717644997186423e-02 4.682545443665799834e-01
-2.141179766995295400e-02 4.434851703279107937e-02 4.539404441662179823e-01
2.209508456544567387e-02 5.354284575419020198e-02 4.669453482872449879e-01
1.284211575626517492e-02 4.898475832492491661e-02 5.291394385858326777e-01
9.712623647662370005e-03 8.252605382189498462e-03 4.438572683623250303e-01
2.361719648489901333e-02 6.950995601617350472e-02 4.787689195940795228e-01
1.775090597732729980e-02 6.175020816367496335e-02 5.195016377219118242e-01
3.845480935676204998e-02 4.645209023281875876e-02 4.975689176851229578e-01
-3.228876374721299791e-02 3.303828088622409731e-02 4.489011734195580416e-01
1.146173673157571161e-02 7.184623947179363812e-02 5.006563744002744398e-01
5.201915419577313529e-03 2.138256054122979199e-02 4.482742771922909597e-01
2.265444191314201772e-02 5.824567025281547801e-03 5.312768952583587501e-01
3.531681001295253024e-03 1.810145389277880226e-02 4.466427515837197992e-01
3.150486507832921806e-02 2.469376903030653242e-02 5.231438388490857738e-01
8.691379472422721547e-03 5.464776351554922335e-02 4.615052000321747672e-01
1.367541342792891537e-02 2.560163685004807760e-02 4.518023804697861023e-01
3.056287684349581757e-02 6.135277955550734463e-02 4.834838380030895277e-01
3.653044168519086962e-03 6.327286274564586366e-02 4.629541516808991508e-01
4.091871802199773672e-02 4.032922345664333164e-02 4.853413128468031523e-01
-3.761980394720623733e-02 3.645523667926285627e-02 4.505522432278494249e-01
2.081178996751249094e-02 4.785575188658722223e-02 4.639435742282473352e-01
4.094518360458043738e-02 2.729252921423541700e-02 4.697538536158362144e-01
3.869665224450224983e-02 4.008369617464931089e-02 4.759582400901031796e-01
2.348147722762850345e-02 6.859794946695678408e-02 4.772622077622576953e-01
3.133941283012132289e-02 5.933305825496072022e-02 4.968727436140573661e-01
-2.230421446074060815e-02 1.532281722508195554e-02 4.418324325885309434e-01
1.759626064714218605e-02 7.572668824537907850e-02 4.931264662166177648e-01
2.123337116036519770e-02 6.690205342067920280e-02 4.725840166386599539e-01
2.978785692062618784e-02 6.032739440262339242e-02 4.771622734482329764e-01
2.752041964628544959e-02 6.525430938281043258e-02 4.800847010857888786e-01
-1.494147094690039500e-02 5.129852296528224220e-02 4.570085596811940265e-01
-3.674764930772987832e-03 5.729854401922820223e-02 4.592427489726033651e-01
2.235468735332366008e-02 6.907307960712071038e-02 5.005248152830983344e-01
2.614797366753275620e-02 9.064356537777233311e-03 5.287643803131761855e-01
3.269490170704470594e-02 5.776996874114173619e-02 4.837654663002008415e-01
1.860945430119858093e-02 6.526904899957491901e-02 5.123489069805898799e-01
-2.614183075271560297e-02 5.093473061688136294e-02 4.578277017867495302e-01
1.338345122146647991e-02 7.541706113001930833e-02 4.935202486584565618e-01
2.016383359143820650e-03 1.427944178273821835e-02 4.448145227662712586e-01
2.776572118331283728e-02 4.259465322787533981e-02 4.656944578564314319e-01
2.196959070661250527e-02 1.240784148531886774e-02 4.489183620468639169e-01
1.846570319017596913e-03 6.088450393390176796e-02 4.612732132003361518e-01
3.615778953744852586e-02 2.707970428342038743e-02 4.640054242982920019e-01
1.488741585432279239e-02 7.608475523695872045e-02 4.871692739626668489e-01
1.607898883615156704e-02 6.610282984918185167e-02 5.130130614179424509e-01
1.763913980236211237e-02 6.526883470444558299e-02 5.135245471589715560e-01
2.136502169105202256e-02 6.918081406226109231e-02 4.747851878215701982e-01
-2.598884012840050467e-02 4.743443840934891825e-02 4.559484789984135089e-01
3.313465764622177887e-03 9.978721219127661621e-03 4.433229163457067523e-01
1.517108905348238737e-02 4.749662749930617239e-02 5.278113659864989149e-01
4.144020177466219146e-02 3.717651330282018690e-02 4.792475568249554563e-01
2.607237275924359152e-02 6.420544156688275106e-02 5.033919103804849193e-01
1.035217582015253955e-02 3.272101051673527439e-02 4.539984459846442832e-01
3.229566735378548714e-02 2.380583976391632481e-02 5.225388194222638782e-01
4.230764239062724530e-02 1.996263475690339753e-02 4.677693197983315287e-01
2.861845964989141386e-02 4.906406583303577623e-02 5.151356688002217687e-01
2.619082983684150462e-02 6.858864087277465049e-02 4.867078220613148543e-01
-2.373230639329747607e-02 5.178085259747037400e-02 4.577712838166644871e-01
1.150824716368723834e-02 7.333393340260818682e-02 4.719386130179937799e-01
-2.170120434340737370e-02 4.393961098513111951e-02 4.537508322393636884e-01
3.218420197589839243e-02 5.116092726334644375e-02 4.746495067526667055e-01
1.177365363637134388e-05 7.002981450784590001e-02 4.700839146954488013e-01
3.132886505507213870e-02 3.574254747403100146e-02 5.169671140731127990e-01
1.717530408033945272e-02 1.879874496021363348e-02 4.497645778539657857e-01
3.407969177421966284e-02 5.483743566098580463e-02 4.945932389788182393e-01
1.377699097372064516e-02 8.248121461456266179e-03 4.447430640262673429e-01
1.270661686589066690e-02 8.276450885355939036e-03 4.445005326258968936e-01
2.471584671509563513e-02 4.583305007874777931e-02 5.190514396850963719e-01
3.509701213606868792e-02 3.251153928726254611e-02 5.130971269472679452e-01
1.822158681155434598e-02 6.445233967743838055e-02 5.151164676319883728e-01
-1.743698353176924981e-02 1.620803275824469342e-02 4.423357302654799539e-01
-1.418840341221598231e-02 4.966355524327355914e-02 4.564247510199889724e-01
-1.612689854538621945e-02 5.794219745357662849e-02 4.601378792638790571e-01
4.813880754344437157e-03 2.324124369460806028e-02 4.489350559071132452e-01
3.924541634127332729e-02 4.214018791581084639e-02 5.008643193804851457e-01
-2.462005380441076308e-02 1.645165620005260496e-02 4.422693280580359265e-01
2.172704419254554986e-02 1.735093374241757080e-02 4.505553823735325980e-01
2.419782899680729751e-02 2.698420719745837568e-03 5.325596249302457785e-01
1.429411391220209750e-02 4.494998122463624707e-02 4.600542627936071161e-01
-3.923585041821205099e-02 4.115749089677440270e-02 4.549234516867617373e-01
3.253731588532726010e-02 4.793990116331298124e-02 5.103912654979935182e-01
2.317644771395027670e-02 6.314911579459724089e-02 5.106729927791746615e-01
3.062442824770448407e-02 5.037680814322383072e-02 4.724611118141530675e-01
3.979439987836048270e-02 3.187880609458407927e-02 5.037339495127955979e-01
1.397227142890446888e-04 3.656485494746239406e-02 4.533818250651358572e-01
3.241626945262578857e-02 3.284008246399260089e-02 5.189860055186874543e-01
7.591591736238728801e-03 6.972026805092056134e-02 5.001497177050947540e-01
-4.942905263759668662e-03 2.584431971929213381e-02 4.481423066121886789e-01
1.745300616885978040e-04 2.194213182668948783e-02 4.475357737363691024e-01
1.761870701779089457e-02 2.390739695185893632e-02 4.522305058550757928e-01
1.941609801788937023e-02 5.227638729027674069e-02 4.649218842818926833e-01
2.975880113870088897e-02 1.913947957556069376e-02 4.556505529282116607e-01
7.241323385774657041e-04 6.927932091555184801e-02 4.669294131830398764e-01
1.423309321406361280e-02 5.302669716734772359e-02 5.257946575264889066e-01
3.236164455183577343e-02 5.734312617986631055e-02 4.804958011531023088e-01
-1.811520166654136815e-02 4.253699105512975635e-03 4.382263583532270412e-01
4.581313586304334301e-02 2.176394560169218548e-02 4.788780808566691083e-01
2.870428096985929572e-02 2.487388707018800549e-02 5.253820828876847315e-01
-1.926445698083348312e-02 3.078385280168664112e-02 4.482349858018180866e-01
3.440702589574003156e-02 5.430152522184098635e-02 4.827107378237367463e-01
4.106889593713862474e-02 3.310231943984033587e-02 4.744911035116585740e-01
2.816185161777335147e-02 6.585918593230154217e-02 4.866053889270118282e-01
1.022000887312444518e-02 1.551018963801297119e-02 4.469181629577725912e-01
4.929186215826425639e-03 6.286661285278626055e-02 4.631248587474051104e-01
2.582766438817481192e-02 6.863424717537668085e-02 4.905195110049036522e-01
1.622965258431974950e-02 4.109153171305773150e-02 5.323276979772112449e-01
1.765262127203743800e-02 5.213875554225202991e-02 5.231378043930867694e-01
2.016441925701008275e-02 6.238489903399550146e-02 5.158720575460810087e-01
3.252234320129784775e-03 3.357613558459986158e-02 4.528148525624446363e-01
4.281803092683799522e-02 2.986323589219233923e-02 4.760068883923051497e-01
1.767032655442198064e-02 1.595677831998243770e-02 4.487050576045854000e-01
3.030762890625587555e-02 6.185898854725609824e-02 4.840158057060159336e-01
-1.812985990567141797e-02 3.378883006466569527e-02 4.496973012779496570e-01
-5.447120649295718493e-03 5.928236158286345758e-02 4.596489224048482258e-01
3.110234437917770017e-02 6.082519651227728114e-02 4.860646071160667492e-01
-3.215066092813880210e-03 3.864021126640519721e-02 4.535915266648174460e-01
4.208427829461082459e-02 3.816402011656896270e-02 4.908303066341860310e-01
3.031132725481191018e-02 3.030610766890846214e-02 5.241187545485552768e-01
-2.139148766053878409e-02 3.052942920715041170e-02 4.479004493334578507e-01
2.155883478239186898e-03 3.052727527851180692e-02 4.513605146363902643e-01
6.200391966544567882e-03 4.609093250911720785e-02 4.581244044983618924e-01
-4.673752315172869341e-03 5.420927717804959606e-02 4.582569270119513094e-01
1.181738268150766755e-02 2.656420349630672639e-02 4.517789418509920440e-01
-2.231889794782483324e-02 5.666939977115854898e-02 4.606768458202601946e-01
-4.076015784113666898e-03 3.966622628563121200e-04 4.385592790320012591e-01
2.894859259291396661e-02 3.837224553463049193e-02 4.644530407031134400e-01
-2.235214696410022656e-02 4.797285056729059388e-02 4.560143184264817684e-01
-5.674264881848243777e-03 5.716128024310217909e-02 5.306830108589426498e-01
3.622444643396453834e-02 4.922772483569586716e-02 5.015208220174142140e-01
3.790993147958184734e-02 4.309445951185478935e-02 4.771505825243103072e-01
3.512792853606949706e-02 3.348396948379998850e-02 4.663082938733624228e-01
3.489900086254556222e-02 4.967475898119656091e-02 5.049774249929754877e-01
-1.128756767692883772e-02 4.936550293700014969e-02 4.564252409915231512e-01
-3.227785163759597231e-02 2.631587835016330895e-02 4.464871830001021502e-01
3.247126917304159199e-03 5.805768933589020714e-02 5.327200082038596740e-01
2.289754766666083491e-02 6.773827177938006316e-02 4.753101511429483339e-01
2.434849077540095219e-02 3.012369832625004865e-02 4.577152482322716098e-01
2.006796587597085846e-02 3.649862959508094751e-02 5.303493792768267934e-01
2.561779212650163590e-02 3.735190775678685210e-02 5.259104898344278967e-01
-1.228208892559795075e-02 -4.275107127073348584e-03 4.368356088934822745e-01
3.739036129440866801e-02 4.938080334883422629e-02 4.873958666956695884e-01
1.203431775772503126e-02 3.857679686410893372e-02 4.568310177930185456e-01
-2.152783539103337793e-02 -5.601582601749031595e-04 4.372598924790540575e-01
1.775847222900365369e-04 6.164209122881126462e-02 4.616574769986700466e-01
4.007831215467863063e-03 6.094818203032625198e-02 5.181755240053138589e-01
3.339950002220838654e-02 5.508412933736261258e-02 4.806072106461983240e-01
3.825699164554908355e-02 3.217121678408840779e-02 4.683537064093654667e-01
4.264562738413045506e-02 2.694355935670694757e-02 4.730046528486751556e-01
-1.841476883956252170e-02 5.438349157434132358e-02 4.585159220069188191e-01
3.199289800774487991e-02 5.937698577910268533e-02 4.882059664450993930e-01
-2.578150709792172840e-02 1.047206355825716292e-02 4.403000272761381506e-01
5.607823294469876929e-03 3.460946686787481213e-02 4.537169219830511913e-01
3.965968342330213753e-02 2.361657594257527207e-02 5.091132015981570946e-01
8.891213034731344778e-03 4.868260487559238070e-02 5.336106566637567328e-01
4.312323859062459908e-02 2.892115244936425272e-02 4.966831486514412530e-01
-1.323668984590622467e-02 1.090838429082192050e-02 4.409033882125363291e-01
3.241600467754575388e-02 3.285268469123431984e-02 5.189675724349896990e-01
-3.968981729266420587e-03 5.843055168843935138e-02 5.347780508381633213e-01
-1.947150347279253887e-02 2.754579909799672460e-02 4.467257126886146623e-01
4.302598093704623067e-02 2.074289280257965093e-02 4.697036200213428603e-01
1.475580955918950367e-02 7.386468476015808915e-02 4.735023627022275639e-01
2.778126590257383108e-02 3.090474065074345564e-02 5.261677614853416118e-01
3.125386448517362969e-02 3.495422667130830552e-02 5.184267745168598118e-01
-7.060690157605024192e-03 6.024737476093450922e-02 4.602643867814815160e-01
-4.033653799920129679e-02 1.780987979297317218e-03 4.413363781709000455e-01
-2.800281761927484250e-02 3.113459184232776622e-02 4.480194350283847049e-01
1.661726198861038922e-02 3.800623190535849100e-02 4.579491244925705806e-01
-7.268224022927209822e-03 5.404783982992522606e-02 4.579865470217064916e-01
3.110585881322004698e-02 3.033874842205745020e-02 5.232125071065791833e-01
4.380268994791645942e-02 3.154742581067456614e-02 4.879461170344788212e-01
2.800505624598708179e-02 1.642821929225809705e-02 4.534848436256541659e-01
6.087445989563258081e-03 3.362736344054219340e-02 4.534195246430075543e-01
1.791567625560203103e-02 7.616030745483234887e-02 4.895836218638427439e-01
1.060449205288273127e-02 6.721746690643869149e-02 4.667945308007779848e-01
-2.235358165273831736e-03 6.097727023181573336e-02 5.326342789473061945e-01
-3.104409598784816163e-02 4.889612668014819974e-02 4.580880604986412030e-01
-1.301566779190095613e-02 4.441553985720450570e-03 4.387767982635588093e-01
