4.193470099103299709e-02 3.138225203960234161e-02 4.749077594619274811e-01
4.566325980593667448e-03 3.760466565224317506e-03 4.410890386574673472e-01
1.150478645621036758e-02 2.595500791962646395e-02 4.514548747905444137e-01
-1.825825759381468488e-02 5.450357747172972223e-02 4.586215939496477434e-01
9.353265959233709320e-03 7.071728036097907344e-02 4.997001160295027611e-01
3.659323983611511427e-02 4.299005043464951964e-02 4.744239258288882044e-01
1.583763018112120322e-02 6.801417327265867063e-02 5.097949642403279968e-01
3.850331712891311153e-02 2.694711315644050115e-02 5.098588739960432381e-01
9.013996606714395551e-03 7.010445828398478851e-02 4.680275083605659470e-01
2.174193317819825277e-02 6.813898328343374888e-02 4.739623894949607785e-01
2.769177131713344495e-02 5.576883947236695865e-02 5.121053742078611748e-01
1.530950183945780155e-02 7.025775853919352665e-02 4.704412180560714196e-01
6.415052793717816379e-03 4.814423962850901406e-02 5.359652269290617888e-01
1.569249693139514179e-02 4.256514847786439099e-02 5.327195619061275700e-01
2.819538910101445500e-02 5.453710610560733030e-02 4.721123180302918554e-01
6.205623508850099598e-03 6.198563694476739300e-02 5.210292045303658304e-01
2.844618254976024468e-02 3.787469146652528568e-02 4.638477020431160947e-01
3.018468933590642486e-02 6.071742381719841958e-02 4.992502880995030590e-01
2.840000937698036396e-02 6.090903805031482737e-02 4.758457522194999290e-01
3.132873555494485734e-02 5.774268253027291936e-02 5.013509534608182605e-01
-1.834514964295904521e-02 5.651658939206241627e-02 4.595935390583803515e-01
4.092223646827314321e-02 2.046125756025884979e-02 4.654955991094812395e-01
-1.000226298401852253e-02 1.375425266408911856e-02 4.425440333042706675e-01
3.303177087595984829e-02 4.043430103964999051e-02 4.682537265731908649e-01
4.143907480763676932e-02 3.972807898357322981e-02 4.928477611868128938e-01
2.316552844341733877e-02 6.038528649279741034e-02 4.708589691461265159e-01
-5.604176665111616600e-03 2.525417246321383369e-02 4.477690252707410834e-01
-4.609278184722363780e-03 6.043542408124204235e-02 4.603605002098518639e-01
1.179672041263861437e-02 4.187540721144177025e-02 5.337897492280211376e-01
4.618252646855174059e-02 2.279337676869734944e-02 4.862924438173221175e-01
3.625587034182442547e-02 2.859341634568007828e-02 5.139465687875339750e-01
-3.110880378234284066e-02 4.204327152021702929e-02 4.530014854795387791e-01
-1.679928299094618493e-02 5.050345446683127820e-02 4.568335410422796339e-01
-2.616147085226727328e-02 1.138229721834190314e-02 4.407019617213256968e-01
-1.025583438378327612e-03 5.113100519915972364e-02 4.578577110126205718e-01
4.509552196003092234e-02 2.495950463799715552e-02 4.799451531416201178e-01
-2.262555825125135353e-02 2.710409339609618981e-02 4.463924628029691255e-01
3.804551570656565518e-02 4.492601731142890215e-02 4.791106325713773151e-01
1.298595753842738017e-02 2.815046882639252786e-03 4.423563271198996949e-01
3.048324573284399985e-02 6.212688563677387643e-02 4.869762803304317766e-01
-8.317307817002569242e-03 4.648018286921921927e-02 4.556555858512492119e-01
4.104265772411063579e-02 3.521777491314754399e-02 4.761293928986320978e-01
-6.100757154723107645e-03 5.309636436126584369e-02 4.578342343402607151e-01
4.242675314947234877e-02 2.708467191566698781e-02 4.724954818080798202e-01
3.225961030037021587e-02 5.887607712259335102e-02 4.863396709949494578e-01
6.095215117217905702e-03 5.320374374558326652e-02 5.328141441684940416e-01
1.017516527108712140e-02 7.265883494186449465e-02 4.976903060751665664e-01
2.700153191831970376e-02 6.298664432570880156e-02 5.044575946298301972e-01
3.915095171278286379e-02 4.191681341016362944e-02 5.014437275727275933e-01
1.502339458362169505e-02 5.680356962590550618e-02 4.645302906563335554e-01
4.354795967174301431e-03 6.611318760320691879e-02 4.648581131012941015e-01
4.347600511603330956e-03 6.592831064570024713e-02 4.647386851979350975e-01
5.947163389062527956e-05 6.160711148957631611e-02 5.333530261203563994e-01
-7.414873647275599215e-03 5.607207012816706193e-02 4.586101391376135594e-01
3.554160749552268822e-02 5.144929266440664839e-02 4.979276721390690219e-01
1.914093364456194435e-02 7.795670719544990634e-03 4.459728944866320210e-01
1.256180037471104662e-02 7.153951239982200838e-02 4.699958156225395589e-01
4.222969593937940525e-02 3.270753955133943319e-02 4.973910017163097885e-01
3.068236558689831084e-02 5.834861658733345169e-02 5.024501924701949562e-01
9.145300764570022181e-03 6.765397331973038719e-02 5.062144202902530976e-01
4.256941457404621321e-02 3.083441513953174770e-02 4.970365685378465015e-01
-7.616352731039793648e-03 4.816183688230397941e-03 4.396568553544341618e-01
2.063564055131286712e-02 7.196964552847501251e-02 4.982126832220944990e-01
1.434309256728786078e-02 5.819071227967733545e-02 5.239117897740978025e-01
1.330167052311588723e-02 7.507694077194716764e-02 4.953921210017533938e-01
1.221140729817722301e-02 7.066237299939749639e-02 4.693499663186002091e-01
2.226923780487373786e-02 5.545231378825103002e-02 5.185606626938289443e-01
2.627891272787819497e-03 5.977375910351768323e-02 5.187822956069119140e-01
3.508370466610074428e-02 4.520948393644284857e-02 4.738943745531851715e-01
2.008736968224993438e-02 7.480065044387650131e-02 4.833407637530409140e-01
5.222838672700065403e-03 5.619951873256590069e-02 5.320043175730727603e-01
-2.475293473284120166e-02 1.815481548601092718e-02 4.429264955517682734e-01
-4.445751172767304325e-04 3.849711974110880085e-03 4.402976285983235538e-01
4.246775005766883354e-02 3.611629621818363001e-02 4.919908619572521680e-01
3.524955652135328826e-02 3.708349339834218078e-02 5.111790995266549675e-01
2.075582391951391950e-02 7.327104462706014731e-02 4.958838341318911325e-01
3.555148867725332895e-02 5.305712896426539177e-02 4.879778193503769845e-01
-1.793717993377016290e-02 4.285042988394793285e-03 4.382451617095482477e-01
3.942841814478652285e-02 2.278012471050357146e-02 5.105318096047034571e-01
3.311147144746515170e-02 3.111363717067800599e-02 5.196134185210058432e-01
2.782166439441887892e-02 2.827488500803381280e-02 4.587081733377424420e-01
-2.191924076269972585e-02 5.754263438054351559e-02 4.617279773388317521e-01
2.286331515549283946e-02 6.937580472495616379e-02 4.989170716506989844e-01
3.911342375349083356e-02 4.599231643659433544e-02 4.912040548314956512e-01
-2.255938838297890173e-03 6.403567620894694279e-02 4.632760714369365540e-01
-1.762378630462600043e-02 6.056375163644473619e-02 4.680751759661475608e-01
2.567994963894087296e-02 6.934797239205101049e-02 4.850539158799621053e-01
-1.194934312884735625e-03 5.878056024443641808e-02 4.599591114055366914e-01
2.591956232874021576e-02 6.910426502282701611e-02 4.886348441157954414e-01
-9.782177815608923688e-03 3.000399037898268673e-02 4.490594691939931438e-01
4.229082411822952803e-02 3.081363030530585162e-02 4.977596873986234738e-01
3.774608082942126214e-02 4.419398155330126615e-02 4.777367411141073550e-01
7.591747657024616389e-03 6.629571993653404771e-02 5.062757717296607618e-01
3.244327141817694715e-02 5.173029986851773038e-02 5.084600221672902487e-01
3.792592079157706270e-02 4.685454464373647876e-02 5.004463065389859189e-01
-2.298096392584238548e-02 8.707699741337202731e-03 4.394977760280993073e-01
3.125223638550638471e-03 6.006113409747715348e-02 5.156987755959349107e-01
1.357521851815591228e-02 4.911370078641560943e-02 4.613718217189594628e-01
1.590958193645156116e-02 7.084204419858050605e-02 5.049957850394481973e-01
3.279912570187553528e-02 3.413520024125041297e-02 5.159253795859350955e-01
4.534556868402635221e-02 2.489786299086291232e-02 4.819803364846059757e-01
-1.037059676640056036e-02 1.327534733089152583e-02 4.423003112036537621e-01
-2.633360559776329324e-02 1.249524755290453391e-02 4.411236407232591583e-01
-2.651332944080382614e-02 2.960181570776562396e-02 4.474076876349930565e-01
4.149606061240903448e-02 3.756921531159996414e-02 4.807174615386514693e-01
1.632057598681049132e-02 4.720376562886980515e-02 4.615725164684916226e-01
1.718174850440374116e-02 5.406231760439506734e-02 5.227357400722097980e-01
2.927392802501625757e-02 1.851690288230362774e-02 4.550878443973281895e-01
3.836657907100565756e-02 2.353755405248283972e-02 4.640514805408752497e-01
1.340742546105800487e-02 7.123715239055497528e-02 4.701488287407186162e-01
4.561066242766270012e-02 2.391343505652709228e-02 4.816925224191291321e-01
-1.025146735920962060e-02 2.688771959051435012e-02 4.476219005107062165e-01
1.560710226394269179e-02 4.349261477672193565e-02 4.599310878600453845e-01
3.865929914293082109e-02 4.662458239897412232e-02 4.924289450499835796e-01
1.039867566083968985e-02 1.385380231064996075e-02 4.462849115654708987e-01
-2.384036146468181475e-02 1.391511087213043348e-02 4.413575016960784025e-01
4.290104383440201258e-02 3.356563159559998455e-02 4.926692120818337295e-01
2.782113035611560176e-02 2.997161800641041582e-02 4.595272423979165910e-01
2.901735549131629135e-02 3.290002744047275385e-02 4.616516939322790058e-01
3.102973677707777933e-02 3.431602406008311956e-02 5.198293333616701428e-01
2.828394336521038860e-02 4.826083550730556060e-02 4.690700808760244200e-01
2.488279094074746789e-02 6.633045803146402075e-02 5.001836582932226438e-01
3.864701917555286165e-02 3.635745508727833419e-02 5.055461954209203856e-01
-3.673018581317460257e-02 3.797295000831133610e-02 4.512826771379087609e-01
2.752138238257452810e-02 3.666063381553671952e-02 5.236124641425273785e-01
-1.380669121103933689e-03 5.808257954856023419e-02 5.242514723710697266e-01
-2.198840821390215736e-02 5.044468921690330870e-02 4.569859431879865208e-01
-2.170789495018069989e-02 4.508453448507040995e-02 4.542838782541294140e-01
7.211140198363572527e-03 2.699161098355871632e-02 4.509409414122164117e-01
-1.366570394329029610e-02 5.648235979023695508e-02 4.589763692411508722e-01
-3.193369585506544012e-03 4.930154402308516148e-02 4.570493732801769182e-01
-1.361411554229815732e-02 4.809339884560724643e-02 4.559052920274870302e-01
4.357933566421156452e-02 2.964069819580383500e-02 4.788915348030193808e-01
-1.327262225548677711e-02 4.750428005724870867e-02 4.556640842220279763e-01
2.289720993146170808e-02 7.253486129539037097e-02 4.907759783263508924e-01
-1.733022359640176355e-02 5.737693988215941676e-02 4.599395768263294659e-01
-7.866313460631088605e-03 1.036483524543643092e-02 4.415974546712162496e-01
4.060819964844302604e-02 4.218462959584997479e-02 4.899930156498641387e-01
4.171679075004506437e-02 3.728207839856909761e-02 4.956567775153052913e-01
-4.039388342952811295e-02 2.287692934958338378e-02 4.465937496515211547e-01
-9.338757117324781448e-03 -5.436080529652538226e-03 4.368297786330280763e-01
1.816457841007590099e-02 3.418766393270127046e-02 4.568424264596283035e-01
-2.420221495122312771e-02 1.826071809857625003e-02 4.429670472176288065e-01
1.631478973461266205e-02 7.488282584715932888e-02 4.971705378181844881e-01
-1.797041759805030614e-02 5.098909494864108105e-02 4.570372315616547110e-01
1.920690446410142083e-02 3.708645271271239496e-02 5.308215281310125766e-01
3.685728707354384015e-02 4.933039034303798170e-02 4.827544555235865342e-01
-1.113379471361524570e-02 -3.016756866662829821e-03 4.370928481444489311e-01
1.956748602774065898e-02 3.759454995894556673e-02 4.587729966437195106e-01
3.753073259505336490e-02 4.090915560650913718e-02 5.065137183645909147e-01
8.218103869812268258e-03 7.902746964963315579e-02 4.784925676786422333e-01
2.516725597328525049e-02 4.844944113000494712e-02 5.181325203291119452e-01
4.401953454186992992e-02 2.294750678976499592e-02 4.989396979434712054e-01
3.358068901258842026e-02 2.463181342086293718e-02 4.606220845869025138e-01
-2.544132779215464366e-02 1.201932695515864173e-02 4.407697640122931748e-01
-1.551908511466239954e-02 -8.903472332412887963e-04 4.372312805247682843e-01
2.962112668076203464e-02 5.002679976177419607e-02 5.131295827021606915e-01
2.606220593902044275e-02 6.704977600824323092e-02 4.796411886214111409e-01
2.615281200833684261e-02 5.902924198724875116e-02 5.113104841400669676e-01
2.174742008528430040e-02 1.686480218359331928e-02 4.503751711809282354e-01
3.803497895816890934e-02 4.108834866779255413e-02 4.754668070415369874e-01
-2.842337328414629161e-04 3.398968804195964810e-02 4.522749458231846709e-01
4.233009095069055483e-02 3.682243092438837462e-02 4.881031498249839284e-01
2.410256844451376043e-02 7.349526751540373659e-04 5.333070948042690773e-01
4.565245554151731167e-02 2.385853065832752723e-02 4.901971987228747607e-01
-9.191592906715787686e-03 2.393903641955569608e-02 4.465907582231491979e-01
2.762294304762947031e-02 2.587807964543853770e-02 5.261288667527085350e-01
3.536104280056265314e-02 4.140995325983808789e-02 4.713788293183647227e-01
3.005220652771389833e-02 5.132095858020714607e-02 5.117476758212783361e-01
-3.421230406475560953e-02 4.442944524640892595e-02 4.558204162663967995e-01
-2.202883521481152282e-02 3.461403738603679309e-02 4.496869362321097574e-01
3.509621676250462841e-02 5.381942440110400877e-02 4.863575476508322781e-01
-3.630618450172235639e-02 4.236328920832624356e-02 4.549232897635583361e-01
-1.928064850215938618e-04 3.830567195768427163e-02 4.540367343205819473e-01
2.401073956442941956e-02 2.932310400416132321e-02 4.571568721952848358e-01
-2.479729763059394798e-02 3.431761214534833487e-02 4.494017021528141642e-01
2.986508298430999922e-02 2.474192189366178005e-02 4.581746705578773615e-01
-1.662799728837754606e-02 2.936222898806687895e-02 4.478065898846750881e-01
2.221716500832437990e-02 7.128510748366471972e-02 4.791450645916003892e-01
-1.751017597882385118e-02 2.873338320705446855e-02 4.474338408634421227e-01
-3.224973609056365487e-02 4.118502864710704009e-02 4.525507508926154276e-01
-3.234780576041294820e-02 2.137807956036314946e-02 4.447229260952811902e-01
2.055973613263332653e-02 6.536079407254795359e-02 5.098995778154019609e-01
2.026680645261979066e-02 7.166123100528944134e-02 4.763546993843360555e-01
-5.280447408124526974e-03 3.152584071351010458e-02 4.504152547756896663e-01
3.792247809418435034e-02 2.580764287028351409e-02 5.118093512888275409e-01
-2.747526162609586348e-02 5.748232165249769418e-03 4.390850744605566680e-01
-2.061383843633379093e-02 4.830429945353399701e-02 4.559011599626803801e-01
9.578349154249649403e-03 6.438059638757388792e-02 5.130850212242421549e-01
-3.206740550498168342e-03 3.366419230737853485e-02 4.516358990954965624e-01
-2.515453876891297902e-02 1.610346505270849812e-02 4.421639615441649296e-01
2.237039678558586792e-02 4.506163982999508016e-02 5.224152489464733984e-01
2.151205571435978181e-02 5.654106839173073107e-02 4.677259480444728168e-01
-1.513481313440757925e-02 -2.005331421292958372e-03 4.370201668258988370e-01
4.422675385256581021e-03 3.012649795974529573e-02 4.516549478716266330e-01
1.074728313388118202e-02 4.280269367940319619e-02 5.341169939412908629e-01
3.047818145786717822e-02 6.003835668739276876e-02 4.787870670779009186e-01
-2.849937675785212815e-02 4.975984282168003509e-02 4.578037668030664475e-01
2.781291140661043548e-02 2.754057579152275823e-02 4.583387356372261023e-01
2.585058680935280531e-02 1.191063834934845411e-02 4.504084512491957071e-01
2.676417035831209906e-03 5.025286301536184552e-02 4.583902794703477723e-01
-2.726790536208865967e-02 2.092737686133737396e-02 4.439796581641436424e-01
1.193779937306716984e-02 6.582754330119865160e-02 5.102438545014413851e-01
2.269542008317179671e-02 7.306040017167451939e-02 4.901488181890458207e-01
1.551463291665303862e-02 6.096249583344465206e-02 4.662716976231598975e-01
-2.884880576873944877e-02 2.934433035523209901e-02 4.473619897832042946e-01
-6.729175937193635632e-03 9.520385015640139489e-03 4.414601642394709868e-01
-2.909238628826215679e-03 5.627318014689396825e-02 4.590576308958810858e-01
4.146208793011817162e-02 3.144683932210555477e-02 4.738787428090403542e-01
2.414939059006819197e-02 1.060059453427971039e-02 4.489912310935159634e-01
4.368919705301800571e-02 2.453552004391671218e-02 4.983288722319797470e-01
3.176385643747003940e-02 4.056633540237648827e-02 4.673271391582610179e-01
-3.984607968907814476e-04 5.936244731914544492e-02 5.252098275485084233e-01
2.873139898016553728e-02 4.033307072701722285e-02 5.184008071380807881e-01
4.255889795794798314e-02 3.446084137786393359e-02 4.822103093730151779e-01
5.962857127611515332e-04 5.723055900423265618e-02 4.598099654847062623e-01
7.900673234345697779e-03 6.020015334877222568e-02 5.287979474569675098e-01
2.261186956060123182e-02 7.142449436789401196e-02 4.807264038111666027e-01
3.141853906479018244e-02 3.386068473938221024e-02 4.637443997494483661e-01
4.232838637302779872e-02 3.283009181681876415e-02 4.970748558578342302e-01
-1.931163777532948767e-02 2.164737630300716045e-02 4.443474824722616900e-01
2.485800040731048210e-02 6.491927977484182599e-02 5.044031487291404936e-01
4.171777784249802723e-02 3.863447789150360745e-02 4.876558845668472753e-01
2.206169494083913551e-02 6.528960625114001159e-02 5.084248212681619083e-01
2.673396612371744044e-02 6.790648401556412250e-02 4.847057492220529507e-01
4.355776643249494734e-02 3.271099366742848819e-02 4.885880930235182995e-01
3.747943301557529749e-02 3.277757212654741625e-02 5.085954938860945962e-01
8.128530108870112708e-03 6.357629539362044668e-02 4.643684090594979996e-01
2.371335680300015736e-02 6.077268049629654806e-02 5.129624567814718983e-01
-1.753970713803053218e-03 6.086635296630178021e-02 5.325077001540066135e-01
1.342135784626141866e-02 7.120607389778778329e-02 5.040079420693786005e-01
2.804080993109151626e-02 5.966742818526855896e-02 4.747675090394106734e-01
3.218727115504424474e-02 2.920235807651650958e-02 4.618841104935537123e-01
-1.567664379639143943e-02 2.104793800066913356e-02 4.444865334562592696e-01
3.390351871316795579e-02 1.628152241666844940e-02 5.237411779280713997e-01
1.767932435719881540e-02 2.577839270274444317e-02 4.530414357043221485e-01
-1.038871000056615368e-02 1.304133849321997309e-02 4.422071088791513782e-01
3.698637822435696648e-03 1.567024504950224884e-02 4.456960497927196507e-01
2.350808652556054396e-02 6.691883163858917960e-02 4.750912646817041507e-01
2.459291234975395646e-02 4.467409880276133893e-02 4.645944441060362862e-01
2.726894122499554096e-02 2.838127881301496375e-02 4.584347886974616260e-01
3.203097754168508782e-02 5.230279169749468826e-02 5.087013682138882276e-01
2.642204903924231726e-02 1.035582241289285943e-02 5.271851096749707866e-01
1.392123967955750420e-02 1.616485612858654941e-02 4.479776984960994746e-01
3.745165888142006766e-02 4.460832801071933779e-02 5.037526050727766380e-01
9.380397739403221330e-03 4.898573087229148720e-02 5.326870700457720931e-01
3.066389467744705041e-02 4.728188499644117582e-02 4.705066587603553008e-01
-2.552757347871863897e-02 4.736627389476812111e-02 4.559090190241265050e-01
4.230602315112595713e-02 3.756714785810402052e-02 4.905616998203585766e-01
3.907794692841804786e-03 5.052484663056686087e-02 4.588246454692538334e-01
2.727553754333864738e-02 5.375500437389729713e-02 5.140926823248652688e-01
2.080347631898811500e-02 7.048086869564873513e-02 4.754646245216114786e-01
3.075009640049684856e-02 7.050275181032673172e-03 5.296760804101434683e-01
1.042024992256845688e-02 6.468695961012876916e-02 5.141347341212227917e-01
3.859711444086920407e-02 3.449965258039762450e-02 4.707437354955772424e-01
8.285888695707708390e-03 1.105861870887113116e-02 4.447266301393179022e-01
-2.295243677365823437e-02 7.759592977395059904e-03 4.391916660407652606e-01
1.045967298400525373e-02 7.580165815702662180e-02 4.883475267961703836e-01
-7.663071908457154587e-03 3.492383361022006333e-02 4.515707499414950421e-01
2.256926329163651615e-02 7.101778278464507266e-02 4.795064092158203839e-01
-2.097292262334226991e-03 1.949266743490152623e-02 4.461276563782119453e-01
-1.370019337551657557e-02 4.584542418032256511e-02 4.550012856877678757e-01
2.058034306487921752e-02 4.388648005755451526e-02 4.622232050064051245e-01
2.662137148381812229e-02 6.434410813745952695e-02 5.012119812945802222e-01
1.179823656829562077e-02 1.159164878962343735e-02 4.456505546444178290e-01
3.039514873490575461e-02 3.435531169887851705e-02 5.212279887129520617e-01
-4.306158076230653248e-02 3.007663953418054578e-02 4.491626397574636775e-01
-1.920522117805555790e-02 1.660396467336984830e-02 4.423296659726235203e-01
2.432018740724864111e-02 4.903362355366874814e-02 4.665108586025684678e-01
2.254933679099612592e-02 3.097923891407928024e-02 5.290108609335643086e-01
7.452840736641286670e-03 6.579722217280238594e-02 4.653430984229582901e-01
5.927842205060416571e-03 2.969427818272690062e-02 4.517826928714155921e-01
-4.240860787492112260e-02 3.176794649840159607e-02 4.495401896177867451e-01
3.486672046091738447e-02 4.107347541665159335e-02 4.703592934900445721e-01
-2.274304376365924793e-02 2.541062723454888539e-02 4.457441489645603272e-01
-3.252079322003046530e-02 -4.376338560678873571e-05 4.387551354779468116e-01
4.074852185754657130e-02 2.975360340141814525e-02 5.025604837680320847e-01
3.840285501952368091e-02 3.311996862071674153e-02 5.061128127869150006e-01
3.442731117027748172e-02 5.504893102174875791e-02 4.860691082788219375e-01
-1.419197125139819507e-02 7.918419211392097729e-03 4.397370460056034269e-01
1.165944960377341549e-02 5.539051391707672245e-02 4.628001884819563094e-01
2.053898889479197076e-02 4.628772679551386438e-02 5.234339265809110353e-01
4.257358051352964912e-02 2.861823432738967027e-02 4.983779283665527582e-01
3.504214802121913969e-02 4.619408921815974095e-02 5.078503439614862058e-01
8.472618672919950134e-03 6.353891986280700566e-02 5.213894928231067594e-01
1.652915470374191620e-02 4.010569423357555896e-02 4.587892230845057595e-01
-1.558499381222685706e-02 2.776578613229468626e-02 4.471537501263626035e-01
2.160622049517778656e-02 7.346335129648570716e-02 4.931849053412931672e-01
4.477659009657812550e-02 2.622513094693740276e-02 4.916877177452421699e-01
-2.527281322560046700e-02 5.257118279771600539e-02 4.586150995593574198e-01
5.600011955116671741e-03 3.368518416642762858e-02 4.533387204815928495e-01
2.495569624589089389e-02 6.211005639325654221e-02 4.732524248453416349e-01
-1.607297040834798803e-03 3.848761074229339191e-02 4.538422925829149190e-01
-1.475136352977671119e-03 2.251892358099859357e-03 4.395673386676026695e-01
3.534706905448919967e-02 3.154596815479430300e-02 5.139684305111619222e-01
3.888549864755041358e-02 2.923116124318496031e-02 4.674692957814939320e-01
-1.510872541282269263e-02 3.104071948971718828e-02 4.487498319961474857e-01
1.601361969094283050e-02 7.595863831084340156e-02 4.901255847411876143e-01
-1.382993235908969859e-02 2.899296572397717930e-02 4.479119198747140151e-01
4.003778569605499077e-02 3.183837550813784639e-02 5.033178907995078388e-01
2.125638070593402484e-02 3.138717311272043453e-02 4.567012539188977094e-01
-8.116657024098781342e-03 1.609849230795760977e-02 4.437495416701760509e-01
1.888051043476925497e-02 3.239583802586351591e-02 4.562834892351391169e-01
2.905459006123184765e-02 2.334825675917504700e-03 5.326258126121243830e-01
9.238378838568124876e-03 3.632177332399477709e-02 4.552338341370379404e-01
1.226111049450176113e-02 6.534782135046751650e-02 5.115428925722076414e-01
1.766909659673288058e-02 2.330160735498786051e-02 4.519787140727432040e-01
1.692335867122077286e-02 2.078251429928073407e-02 4.505295097427556295e-01
-2.087394895136559028e-02 3.249885556044535689e-02 4.488491181959705090e-01
1.410419833057373340e-02 3.271687225374151492e-02 4.549504861124386568e-01
1.793281081298240404e-02 6.065095321209485607e-02 5.202018087475825947e-01
-3.932990977540175292e-02 3.896380880599118607e-02 4.530726776816719759e-01
3.554932003957805148e-02 4.946590825149009552e-02 4.793829345175377177e-01
1.236560000087259803e-02 3.476208412652387336e-02 4.553161369982043905e-01
1.338609889273516783e-02 7.556436293128024340e-02 4.915538974675707773e-01
-6.032773017075040772e-04 2.203096634272964233e-02 4.474237662706576635e-01
1.798238469547242674e-02 5.270357839225418839e-02 4.644364306038288870e-01
2.825378346873325119e-02 4.048379512925010665e-02 5.188987927231281105e-01
1.979004779449591161e-02 4.241591869571161716e-02 5.290895180356101068e-01
-1.872225985723821942e-02 6.006064209900621731e-02 4.665451099659612133e-01
2.538125927574631097e-02 6.957691751307462646e-02 4.835440879520060964e-01
1.718594024091085401e-02 7.142350932197644164e-02 4.725820161795167285e-01
3.034345632250440641e-02 6.247234991372541818e-02 4.878492778008766684e-01
5.033982661972768481e-03 6.418466054890992201e-02 4.637824922206181810e-01
1.119976796805219419e-03 5.356221976095253828e-02 5.381922284374884846e-01
3.114003379666441251e-02 2.068527259116935066e-02 5.243811564633262812e-01
-2.656054554091243514e-03 -8.263685233817564049e-04 4.383140702514599640e-01
2.197135991462799420e-02 5.043158789170502226e-02 5.201342888521567343e-01
5.851963672856543008e-03 4.808239097074249596e-02 5.360809103227259786e-01
4.340890973245192103e-02 3.285273986191834805e-02 4.870359546532409545e-01
8.692241403692057070e-03 5.164162256450273436e-02 5.314873713279019141e-01
-4.163997598326912852e-02 2.714366733276786861e-02 4.480493194807741442e-01
-3.495057272581630903e-02 3.036022397906080680e-02 4.479706214620992055e-01
-2.859272596892998772e-02 -1.043659813353408662e-03 4.380504467819583136e-01
1.624325167438213022e-02 3.454768880318737079e-02 4.564113262684858507e-01
3.004404540707416790e-02 4.496558940408624389e-02 4.684863108432395506e-01
3.173808086214567614e-02 8.704541544423497271e-03 5.275404347086425361e-01
3.876890335460336789e-02 4.659198010766061465e-02 4.878265612175182731e-01
2.952655287099306691e-02 5.671827778427393496e-02 5.088181072162074603e-01
-3.350429750332931805e-02 1.809293760183256980e-02 4.439671934066520276e-01
4.688547317837696640e-03 6.102818911735279767e-02 5.209201514020208590e-01
-9.800010379168246771e-03 1.484309702753589325e-04 4.378976842600872388e-01
3.093318488162222213e-02 5.565163821238466174e-02 5.075975901993344808e-01
3.564919539458081404e-02 4.942560516252706565e-02 5.034174228689001218e-01
-2.374231610806779025e-02 1.860159450337505252e-02 4.430969154613162431e-01
2.220633536728063365e-02 7.021022382782142468e-02 4.773081930304409193e-01
1.200723765304148594e-02 6.508341311871936041e-02 5.126553182274306009e-01
-2.583957267650954358e-03 3.743028191373989812e-03 4.399174267333725297e-01
-2.568418416492002435e-02 4.546429099974683141e-02 4.547658133666726554e-01
1.573345614459883274e-02 7.607922289823879081e-02 4.790129113355686141e-01
-1.327269495832672161e-02 4.345433453885062802e-02 4.542563005417389888e-01
-2.483925918064381483e-02 4.566559556652011187e-02 4.548300319776918954e-01
-1.006396835892141642e-02 5.641510856070734888e-03 4.396200370440225269e-01
9.809285274423226383e-03 7.319701511935450267e-02 4.712663852281269161e-01
6.046839363656610934e-03 5.369737097596277708e-02 5.326028362089714197e-01
3.067463878965836013e-02 6.115662372498810451e-02 4.826539880080164546e-01
3.148325372291775615e-02 1.871699552291274798e-02 4.565525188697140968e-01
-2.883494452112924256e-03 4.349402359669365080e-03 4.400911942224582374e-01
-3.942325403134388367e-02 2.877099743498005499e-02 4.480681426930813172e-01
4.469046410489353055e-02 2.698398694329658468e-02 4.812649651657045502e-01
-1.649659923147461446e-02 3.728909198932958691e-02 4.514573025995653466e-01
1.850363016608574940e-02 7.609608308786443287e-02 4.883308348101558227e-01
2.049048185609012029e-02 7.507109908129126763e-02 4.872566411671892528e-01
4.228389104337248322e-02 2.901983619097176989e-02 4.988871991021830987e-01
1.612139454011404707e-03 3.372180176320132422e-02 4.525481974339632396e-01
4.620700113519429081e-02 2.273088293228127388e-02 4.864322215354445755e-01
3.485059912167870477e-02 4.904716261895367829e-02 5.059499098100098680e-01
3.442639152019636578e-02 2.101167368578665817e-02 5.212966036485384702e-01
-1.790765477298560809e-02 1.889234877534458693e-02 4.433884021572415124e-01
7.593695014121638887e-03 1.712351885109319322e-02 4.470312410091394351e-01
-5.558613907314515629e-03 4.287758537899566402e-02 4.548065586997345200e-01
-2.500279865566510870e-02 4.391626077194251028e-03 4.383427518974256643e-01
1.083016503412468322e-02 6.775228956084765330e-02 5.074269145626388866e-01
5.526219017820405491e-03 6.461904577574668906e-02 4.641653303075198300e-01
3.910524865202445743e-02 3.377058027272528129e-02 4.711187193146458285e-01
-7.404903737197562549e-03 2.500239469899476208e-02 4.473286448939996496e-01
2.664865763491957099e-02 5.260661415843799482e-02 5.156056313078954956e-01
-1.089686749061217867e-02 3.288143219427321073e-02 4.502142364118419948e-01
-1.390807256378037010e-02 3.115552915332006970e-02 4.489655940240462328e-01
1.257082177586606869e-02 1.123817702479965042e-02 4.456678546645874150e-01
2.041435501064145161e-02 5.051692968689813074e-02 4.647083800608583504e-01
1.293065567286226514e-02 7.184180561642621032e-02 5.024395887194439414e-01
2.734309673275061442e-02 6.697587560898995984e-02 4.838336917759086808e-01
2.228388502608390220e-02 3.962099395861937157e-02 4.611249270498695152e-01
1.003648028824104428e-02 2.999052995915861899e-02 4.528008304318512645e-01
2.729906723290684983e-02 2.275287346973324173e-02 4.558588778412558384e-01
2.434508620120461042e-02 6.168764750994297497e-02 5.109551132088850922e-01
4.308980244108100502e-03 5.527294742389191051e-02 4.603204386306857243e-01
1.371493321216074243e-03 5.372966256173599547e-02 4.590376026783230534e-01
4.557635960698155908e-02 2.456979127797907433e-02 4.840016171294908021e-01
5.893658098553562416e-03 6.181464250175352365e-02 5.303478682339364259e-01
1.962975147674145965e-02 2.506597212663198848e-02 4.533585854033199136e-01
4.249286895426467037e-02 3.188552325822169992e-02 4.766629716568519526e-01
-1.489116602711169218e-02 5.968099485753156769e-02 4.618502665831956677e-01
-9.708378067112570856e-03 1.669020412597772840e-02 4.437069788093730982e-01
1.084211973965368281e-02 3.027662261604039187e-03 4.420145114128382069e-01
1.009537923919152057e-02 7.464164451004642875e-02 4.940238116787429301e-01
2.606412029589177601e-02 6.848525969293141336e-02 4.902788895568087613e-01
1.963822099706302726e-03 1.101043895582395037e-02 4.434969147716444904e-01
3.616119830359990767e-02 3.120083200045123059e-02 5.125679787911563423e-01
-3.049255939522597589e-02 2.034861494354191919e-02 4.441475765016025257e-01
1.124102071512635311e-02 5.719195858284808337e-02 5.265833921925451300e-01
2.744115034466256681e-02 8.978699961839097660e-03 5.284433869452335175e-01
4.534136625134211479e-02 2.277318636639894325e-02 4.776611181561070674e-01
2.525272085859663063e-02 2.518349717968431517e-02 4.559005031812696229e-01
4.517485327848893423e-02 2.524586979088426497e-02 4.810339162964299420e-01
2.583733358375459900e-03 6.222919596760186772e-02 5.314802991088360962e-01
3.868300901062107083e-02 2.648362711395017138e-02 5.097216340787859012e-01
4.630959571099665939e-02 2.254558027429066566e-02 4.882220853322649101e-01
3.049618481938332071e-02 5.264726848772981541e-03 5.308864831832659226e-01
-1.046297328963991316e-03 6.563726074929371324e-02 4.643896861319454228e-01
3.156137503074187174e-03 6.799703837121784389e-02 4.658275428247060090e-01
-8.471418334281857060e-03 5.087366359960913270e-02 4.571369500651277229e-01
4.948736535149425228e-03 3.058671657477333994e-02 4.519477222297525465e-01
6.418173555070438505e-03 5.865084347384715013e-02 4.619102703721865155e-01
1.200217440261696841e-02 1.316978609556311054e-02 4.463442722901951876e-01
4.482393467048328972e-02 2.260545838859989720e-02 4.752259791638471786e-01
3.608762106321820873e-02 4.897490525051987481e-02 4.800511070725581031e-01
4.264475364324707418e-02 3.170173485963254795e-02 4.769392591925480374e-01
9.481679744170464635e-03 1.255247644428055150e-02 4.455693384030238180e-01
-3.400493117151111994e-02 4.201131890229976851e-02 4.538123759051575501e-01
3.338608478771983024e-02 4.488996852972495372e-02 5.105605520684604048e-01
7.441901079145538979e-03 5.316563509590369746e-02 4.606013636678760181e-01
4.357805299457137571e-02 3.057266686629895452e-02 4.806795897320946809e-01
3.926846351133874563e-02 3.275501055850377208e-02 5.046230405069662694e-01
-2.384010617138001414e-02 5.800291605827050112e-02 4.633798727023897279e-01
1.801671448969561010e-02 6.330696862090580412e-02 4.684798664115723543e-01
1.201270562465621070e-02 4.085934086936374166e-02 4.577366808697170830e-01
2.700808559583425805e-02 6.411891889889999308e-02 5.008785417621752778e-01
-1.338917210573320124e-02 1.065544978289861833e-02 4.407871732314074809e-01
9.258834178670103526e-03 4.727058578316773590e-02 5.345214320939593033e-01
-1.984854657652655729e-02 3.647869604327472204e-02 4.507392251558260954e-01
1.118334924578915507e-02 6.959209448004331777e-02 5.056133353410626752e-01
1.233872586761003247e-02 5.414041627549672636e-02 4.626648998544246050e-01
2.376448115216185306e-02 3.666691745840795769e-02 5.284183252248930707e-01
1.122171479065003398e-02 3.977765789205374436e-02 4.571052362478499331e-01
7.168910476801683765e-03 6.274398316954774013e-02 5.284072489116139471e-01
2.005251659216403595e-02 6.273146796965704819e-02 5.154423846177844659e-01
3.099995226822793021e-02 4.964114769536567134e-02 4.723780307725877758e-01
1.025826314718522418e-02 4.967235519597403004e-02 5.311173761206571253e-01
1.586004168908996398e-02 5.890086333663627910e-02 4.656150439670817542e-01
1.063400851410415716e-02 6.377911204049144245e-02 5.201154834901042801e-01
3.561571139384708991e-03 3.354173236159875560e-02 4.528677827546642720e-01
-2.903473050285286083e-03 -1.132949977607704706e-03 4.381852893883552702e-01
2.349956677272072372e-02 7.115601365826418334e-02 4.922692923109922569e-01
2.864009083093492503e-02 5.853832569685171044e-02 5.084392610102502763e-01
3.583599463858044842e-02 4.036148752130697820e-02 4.711395933311647299e-01
-3.265936018542911490e-02 3.208979548922404057e-02 4.485478283195069582e-01
2.649372282767641779e-02 6.267659978428416490e-02 4.752484678743512658e-01
4.226642736802996986e-02 3.284028992764827237e-02 4.769083718603084332e-01
3.510339896361424489e-02 5.316624039983660482e-02 4.836088194316512934e-01
1.105772251432787442e-02 2.752033958133922806e-02 4.520071382642082969e-01
-2.716792633978984406e-02 4.664984981212697696e-02 4.556908301913192849e-01
2.684840802674894403e-02 3.998399547498496243e-02 5.208147010154923207e-01
1.669694604532593815e-02 5.392355749196574288e-02 4.642817103399720091e-01
4.148928842449821353e-02 3.943118430446446165e-02 4.932517054833641112e-01
2.493401875736646518e-03 7.075449171932390868e-02 4.708756327440665745e-01
-1.042923890916684637e-02 5.252747033843501237e-03 4.394335613677429753e-01
4.025884060959605826e-02 4.275863473838074913e-02 4.869413576577686364e-01
3.155408758017597820e-02 4.184958083070800666e-02 4.678817151340649572e-01
2.100472718535472891e-02 6.488841530788141965e-02 5.105877710680621906e-01
-3.967350595908400446e-02 4.009433527594764846e-02 4.541912370948779087e-01
2.127528800186170854e-02 3.564261617701247609e-02 5.298215473945443454e-01
-1.623346059596796759e-02 3.261021409779615854e-02 4.493798760443785678e-01
1.297053182559530261e-03 7.003906374225692122e-02 4.692369240409532960e-01
-1.409801530888400364e-02 6.811621853642883286e-03 4.394088058715412970e-01
-4.053962142922371698e-02 2.521506734496031799e-02 4.472865677045280153e-01
1.973993109016609557e-02 1.448958493778237933e-02 4.488962683791817287e-01
3.952791516026508273e-02 4.020714851283727076e-02 5.017523382949831134e-01
5.900115456430486335e-04 3.671212396616156670e-02 4.535351603121994812e-01
3.156509117552248195e-02 9.541025864245331403e-03 5.266500944486753877e-01
-3.668399589857912479e-02 3.218276181359576438e-02 4.487712036635914670e-01
3.749540960502000669e-02 3.530256594799419806e-02 5.073377279265841588e-01
-1.734459270032403817e-03 5.996886876622526535e-02 4.602678894397162490e-01
2.421602060669574528e-03 1.904370222716688515e-02 4.468093896162522172e-01
1.375698621060274587e-02 2.383670118171595312e-02 4.510902726565250709e-01
7.686742434580469581e-03 6.282517063715990779e-02 5.194050605214269867e-01
1.656253943013021729e-02 2.334113748533698379e-02 4.516427984919030303e-01
-1.512061400731551201e-02 2.257649598782739478e-02 4.451335994409646446e-01
3.117004596407560793e-02 5.617496209221736064e-02 5.053199761853819361e-01
-1.246309959650711112e-02 -1.722945384228287673e-03 4.372256061632844859e-01
4.761828572067850623e-04 -7.687207093721544135e-04 4.388381658940917474e-01
4.015878273598320197e-02 4.281827956826739223e-02 4.949808010901571853e-01
2.899686751406026566e-02 6.227092408314810479e-02 4.783654069007101661e-01
2.190956330378754369e-02 3.973731245309185256e-02 5.287197367320015662e-01
1.245933237152164336e-02 6.308926962907474012e-02 4.656672500290381378e-01
2.309524393598529415e-02 7.109431974087068729e-02 4.942058956213315479e-01
1.368905732829528953e-02 4.758392976836775534e-02 4.608200703619477201e-01
-2.684429845684821112e-04 4.884310502137063220e-02 4.573843452772693996e-01
-2.876966285459391093e-02 2.517878482938071955e-02 4.457114344868134403e-01
2.322736773686821798e-02 6.942043168376804685e-02 4.778374816887123178e-01
2.076378551523764757e-02 1.945544635020433899e-02 4.509635348927172327e-01
1.474858440882075364e-02 2.982823528666483752e-03 4.427492983109082014e-01
2.986379834136866987e-02 6.339535106757328287e-02 4.885229407975620886e-01
3.354962005537886344e-02 5.642997623652920569e-02 4.844740311440449698e-01
3.847848731511396142e-02 4.730009920160016534e-02 4.891868427457308766e-01
-2.386860153741409557e-03 5.655357347032559379e-02 5.378383530226179543e-01
-1.579486495407118191e-02 5.018808957063455867e-02 4.566935994812255095e-01
3.686642991739406267e-02 3.064450705604546479e-02 5.114087990144609019e-01
3.395650290589805748e-02 5.052473678787231665e-02 4.762621066597004793e-01
