3.220809531002707254e-02 4.066744036413354191e-02 5.144261394555630362e-01
2.276267886403112589e-02 5.890135317708427437e-02 5.162793559072591520e-01
1.753252689728801439e-02 4.869169384636554132e-02 4.628369539907865593e-01
-3.646638682418459898e-02 4.262181600995876285e-02 4.552969841526802730e-01
2.800027996915658429e-02 6.152637931967616658e-02 5.054032957604034371e-01
-9.323121527448312643e-03 6.139079540962652515e-02 4.621460438643280044e-01
2.666975859526529019e-02 6.635129749719849424e-02 4.958427170437703091e-01
1.524066855984413174e-02 7.735060460467681198e-02 4.832287131803541524e-01
2.740680491029124158e-02 6.021493515932566098e-02 5.088990028098324681e-01
2.581995364407842913e-02 6.361605098890633914e-02 4.752645200157556427e-01
2.972066549936680600e-03 1.143999756963583712e-02 4.439015641165304782e-01
4.186943363638654519e-02 3.685827178955692479e-02 4.816065813610895252e-01
3.026247154702549347e-02 6.050899217631010990e-02 5.000568832237274330e-01
3.223185917077008023e-02 5.936310660382303206e-02 4.898991578335833985e-01
3.129644751755750187e-02 4.470831758822007423e-02 5.141912410731623861e-01
3.319232897846775138e-02 5.268805317132231603e-02 5.061211611168185964e-01
-1.629099650748953160e-02 1.706791570472669661e-02 4.428873773095092226e-01
-1.451718579697940277e-02 3.699422079152859394e-02 4.516575043381552135e-01
1.969553100038789681e-02 3.778196734959674008e-02 4.590413518786171654e-01
-2.940459524558483237e-02 2.876599172561694270e-02 4.472197308654166648e-01
-3.467618397417817841e-03 7.217047789973547386e-03 4.411087174537420830e-01
2.745120893879024471e-02 1.119060559922041564e-02 4.510343663354219879e-01
2.957200138237684600e-02 6.377979256742978553e-02 4.868504942041366190e-01
1.486584844772620775e-02 1.280963076987446519e-02 4.468627714267689455e-01
1.871285525631084454e-02 7.523440299561921785e-02 4.812713285058018986e-01
2.395542131074970479e-02 5.500677805426777006e-02 4.691335221448965087e-01
3.183962738585041641e-02 5.992071691503739889e-02 4.911017050528895811e-01
2.390870771224084396e-02 4.566612190601831989e-02 5.204101277868956599e-01
4.094118938094362670e-02 2.307713488134118668e-02 5.069111901140358478e-01
1.444293871374466819e-02 2.265172501124115487e-02 4.508460891684889504e-01
2.563225130532386861e-02 6.961520715629927747e-02 4.874761273369476733e-01
2.662167784449551849e-02 6.415375858678265542e-02 5.021455042508770061e-01
-2.976217763756554974e-02 2.067830462683289787e-03 4.387268443950900765e-01
2.131733918016752438e-02 5.332621655264789540e-02 4.665258004558188176e-01
3.329317402293622413e-02 5.716752425099107249e-02 4.860721014518695204e-01
1.669096567960551974e-02 2.417076006590240453e-02 4.521225104664043370e-01
6.543513688943437823e-03 1.910211831959968826e-02 4.476912416850929999e-01
3.416959705675921138e-02 5.358351823989999929e-02 5.000468379994631452e-01
2.043749737654184870e-02 7.501147842611519123e-02 4.858273758826225364e-01
3.415345633432759209e-02 2.707612955445509034e-02 4.623514504061413954e-01
3.548902047076098274e-03 3.872888929901004140e-02 4.550439842213648833e-01
1.404937426088165471e-02 8.547099948144971232e-03 4.449714672569305973e-01
3.375469060982322356e-02 5.022721634014151726e-02 4.758744660640774060e-01
1.020198119623675487e-02 1.140005799812215601e-02 4.452933326165053884e-01
-2.506106831356866294e-02 3.279330658486822453e-02 4.488139155015942183e-01
1.099404167518449986e-02 6.217704700065770917e-02 5.264969960412362315e-01
-2.848939530076798066e-02 2.766501827980047401e-02 4.467923707983647019e-01
2.038908741802636718e-02 4.663295401992864631e-02 5.237361131370716905e-01
-2.962472938349273305e-02 8.868444836651308630e-04 4.385234207291964226e-01
1.192464379485337449e-02 6.535414087247287673e-02 5.108107451694945400e-01
8.946982445690632862e-03 7.431511619604189156e-02 4.728260176268199722e-01
-9.998341840023444033e-04 3.904865999061077342e-02 4.542993181046037776e-01
1.054833128897939877e-03 2.880866089428620741e-02 4.505371750340620984e-01
3.845170636049156238e-02 3.498644123538836859e-02 4.709302090476948921e-01
3.457267579938801128e-02 5.379984217382699496e-02 4.965717233108186135e-01
-1.722632307543170427e-02 3.862004309638411570e-02 4.520488300697395045e-01
2.321967900370218787e-02 6.486994517392134785e-02 5.078304169355417619e-01
1.770705727591579889e-02 5.046714102582636891e-02 5.241617551329913471e-01
1.356991706256251064e-03 1.933687349007346193e-02 4.467849524516590010e-01
-1.264114357064310967e-02 6.608995109668518945e-04 4.377502318180324092e-01
1.250995077544699713e-02 6.516824107775082142e-02 5.118882233609740595e-01
9.119087918115421909e-03 7.006458321382916243e-02 5.007568420205618098e-01
-1.498316592986334919e-02 3.222682420059814340e-02 4.494164136932909392e-01
-3.228498782243176268e-02 1.587044888522904165e-02 4.431967779511484795e-01
3.552374013747194859e-02 5.245865115345597213e-02 4.836199742404660440e-01
-2.447193204696723745e-02 1.096868341434205883e-02 4.403254623569435866e-01
1.315407437726761469e-02 4.691882775846970693e-02 5.313040549436781612e-01
4.164865217536532077e-02 3.091532554514973830e-02 4.997885639581340356e-01
1.249314048095755136e-02 4.752151065314937778e-02 4.605449951223600791e-01
3.396872684978680113e-02 4.679869496330672091e-02 4.737431722405530121e-01
-1.316985895504831083e-02 1.365516988764564794e-02 4.420218849582840948e-01
2.751296285787585560e-02 6.226309296719206854e-02 5.050884966920567987e-01
2.362852898738290047e-02 7.186864774933646172e-02 4.904386433786592225e-01
3.581713306530269481e-02 3.097357230527260710e-02 5.138874950265989172e-01
3.121562078621084937e-02 5.564787621781196875e-02 5.069479863496771932e-01
8.521517928279822088e-03 5.201854260708060201e-02 5.318455724987330990e-01
1.209257557278076850e-02 6.490708284143878459e-02 5.143579483664898477e-01
1.385477729649871315e-03 5.870041696551315386e-02 5.199898390771263701e-01
-2.775523522118683584e-02 3.540375672137237480e-03 4.386567325000149675e-01
1.888963604449413539e-02 1.879771354135165509e-02 4.502250942383071441e-01
1.910264190816698265e-02 5.981110365634131204e-02 5.198940162106771012e-01
3.539267867438908310e-02 5.172964710591040211e-02 4.991708827763152723e-01
2.368036728462853679e-02 6.400318578043159845e-02 5.089707017571670766e-01
4.265903340412274120e-02 3.534895324352739510e-02 4.858820551441357938e-01
4.302094553187466031e-02 3.444950474094238962e-02 4.916661629031782166e-01
1.324116252229276883e-02 7.203431249104295941e-02 4.711579802876832423e-01
1.903443528934684742e-02 7.275969407604386541e-02 5.002639429808305449e-01
-2.105500875051172227e-02 2.486856992373711467e-02 4.455599376146866519e-01
-1.353381031596243358e-02 2.767835103266335327e-03 4.382020598192368221e-01
-7.845118062206621681e-03 2.654876677767504037e-02 4.479594123482728008e-01
3.340423546344782699e-03 4.438949384481926524e-03 4.411595926064549311e-01
1.252853205918479443e-02 7.626224663355714306e-02 4.756681054483768989e-01
-2.674590609109636294e-02 1.243337862287825259e-02 4.412425876785815992e-01
4.393503772399134227e-02 3.009885550231806983e-02 4.918443195230868259e-01
-3.551830728114930419e-02 3.817179668702874035e-02 4.513321532227174693e-01
2.289147020709822108e-02 7.198601820098775306e-02 4.930037540982813438e-01
4.281367606029352207e-02 3.450649525830155884e-02 4.846893305464397561e-01
3.638857107696410326e-02 1.777920394373474350e-02 4.595664295831708435e-01
1.755242097336263268e-02 4.319503385142380719e-02 5.306982631832326547e-01
3.953412776416701663e-03 1.049020709858714678e-02 4.436983658604322645e-01
2.650890311455951498e-02 4.844434990114196427e-02 4.678318007195197969e-01
2.279911245633866462e-02 2.368871868275168602e-02 4.540164276895058970e-01
-9.628014545116704223e-03 3.648133892255829569e-02 4.520784847320117872e-01
2.089237582035524676e-02 6.413577320925828440e-02 4.710157912691105286e-01
-1.700348173711201463e-02 3.055023241328181510e-02 4.484105184709779590e-01
3.942615273385797516e-03 1.396327761804096353e-02 4.451093883401853191e-01
1.009821243714664751e-02 2.767502726711758634e-02 4.519537766082254437e-01
2.256503167643630556e-02 3.012041930308810914e-02 4.568873061351385045e-01
-4.027776821897472576e-02 3.862082509345880071e-02 4.531619031733972736e-01
2.380987430538129834e-02 3.607671760974636571e-02 5.288723616475030642e-01
-1.589025523972446841e-02 1.657614835814243126e-02 4.427314527056885884e-01
-2.851000213724121102e-02 1.039512860502169421e-02 4.409479695128357690e-01
4.070855114605292924e-02 2.808637925372330091e-02 5.043375127654392553e-01
8.704444459177486382e-04 5.658699474005834257e-02 5.366650421539698179e-01
2.484490687644661661e-02 4.684300060587675424e-02 5.191559537213865649e-01
-2.757387401701157786e-02 1.684951012831542236e-02 4.427151487112097050e-01
-1.847630293159917628e-02 2.845536681771309098e-02 4.472821448872059125e-01
1.318967001164765215e-02 4.034518662095974706e-02 5.337047972041472077e-01
-2.250625089744079377e-02 2.362745059934054023e-02 4.450727302846634315e-01
2.937264567276360629e-03 6.752604514610916972e-03 4.419948571342909860e-01
4.359129121155573550e-02 3.037321729590691799e-02 4.798510673247959324e-01
1.435612492394467907e-02 2.755024691304583905e-03 4.426456920548499374e-01
3.423200564271850627e-02 5.507011100760482447e-02 4.937551076840575037e-01
3.598113518433886798e-02 5.189595068292578162e-02 4.852305149086144631e-01
3.534806853699981512e-03 5.422352502939613295e-02 4.599720325790537245e-01
-2.647056945169180484e-02 3.387295065230088581e-02 4.492709016516320264e-01
2.261513664748288424e-02 7.116582490142980832e-02 4.800064893257716681e-01
3.633382282656434648e-02 5.072862316440990282e-02 4.834991483390992939e-01
1.658312927840779882e-02 6.098365502953899397e-02 4.670003375079118668e-01
9.008056577083218414e-03 3.819204228458043110e-02 4.560611414574912703e-01
1.002499694879453208e-02 2.236495727637281394e-03 4.416395631780085651e-01
2.361855420722133031e-02 1.332171703668207779e-02 4.499059811438181899e-01
1.179580482958339505e-04 6.526029300563701563e-02 4.644499467710572760e-01
2.387904629586189154e-02 5.884290253670010351e-02 5.148646129826583984e-01
6.370268658807060232e-03 1.152594818288701917e-02 4.445964165692666836e-01
-3.354420144779789170e-02 3.814134092791513636e-02 4.512150902689151533e-01
3.799150447391165530e-02 2.609698316663486284e-02 4.651870400531793459e-01
3.709152168678071099e-02 5.027250980281848525e-02 4.862385897231747411e-01
-3.378398600863206924e-02 2.953696656152508468e-02 4.476766019545178055e-01
3.967760243695883648e-02 4.383132974499506784e-02 4.834424931152316862e-01
3.916025060837301230e-02 4.022247446309017843e-02 5.032572596346343019e-01
-3.969329979375704406e-03 1.061189378389080888e-02 4.423467305725605758e-01
3.354086639186948382e-02 1.643757846242253906e-02 5.241046329154022132e-01
-1.003724415680880278e-02 2.501905183114202028e-02 4.469389936406603092e-01
-1.290521222452008406e-02 2.317909374911375844e-02 4.457158906204399251e-01
-1.961501445183438941e-02 4.610108586446579580e-03 4.382949420669168816e-01
3.275262740633908508e-03 2.167807938035484772e-02 4.480927709501768552e-01
4.381210218596637979e-02 3.204319287133584188e-02 4.902761117282519732e-01
2.745073098448520821e-02 8.726751555632451113e-03 4.500928977240330475e-01
2.213638470527707486e-02 7.101239560457672795e-02 4.977795841741672889e-01
3.268543153801997669e-02 3.937452037634571467e-02 5.146299454272081908e-01
-1.373499618154830869e-02 1.258862031050222855e-03 4.378154090854888270e-01
2.789442969358864322e-02 6.404492464315204858e-02 4.988891378878223537e-01
-5.809347913061161696e-03 6.574036656853816246e-03 4.405621748230458268e-01
-8.870851230768323631e-03 5.193598295270054899e-02 4.576015801733028798e-01
3.140925749042510623e-02 5.813129858927859606e-02 5.008699536535948793e-01
4.083724003448895024e-02 2.815171789956160200e-02 5.039761636102211284e-01
3.926662735537314597e-02 3.997944744892786145e-02 5.031476854038351432e-01
-1.375325518847294974e-02 5.224945764011282995e-02 4.575055423316812253e-01
1.606755498473360320e-03 5.585747600715842281e-02 4.598975244134310136e-01
2.814308768757603496e-02 5.074924325572027078e-02 4.703398460694612759e-01
1.955273352737307152e-02 7.444554931061718450e-02 4.965741928442661823e-01
3.045274357753815445e-03 6.167671821112490071e-02 5.257932088972504525e-01
8.264481482776064522e-03 4.707843755953958209e-02 4.591082351005741358e-01
7.553722340498643731e-03 7.106147007409714667e-02 4.693987612716684632e-01
3.285826398023153350e-02 5.710450633713474305e-02 4.960832262838849038e-01
2.863898063239962710e-02 2.888165066849332496e-02 5.257826650585980532e-01
2.758404632115893027e-02 6.640751393224809951e-02 4.823094004329518403e-01
-3.074412516965623066e-02 4.897636990925920836e-02 4.582506576877960480e-01
2.190917439069068121e-02 3.608362873231184959e-02 4.592848968965152490e-01
3.288938983149069899e-03 5.308376237528908415e-02 5.377087152160486827e-01
7.166098969202908120e-03 3.622152308295042977e-02 4.548415747232723572e-01
2.657835363642203214e-02 5.841625347641329902e-02 5.116968653804633282e-01
1.511311467192029412e-02 5.259720794983935993e-02 4.633954560657724264e-01
3.311244033033923506e-02 5.774593781692671096e-02 4.894884645512374566e-01
2.932463215891274039e-02 6.344531266848281448e-02 4.815616421663264646e-01
4.139609902854379797e-02 2.334118456666596161e-02 5.057634543142321970e-01
4.068763917797458413e-02 3.193003828472270461e-02 4.727478228584712783e-01
3.201391930706336958e-02 5.632547884815129052e-02 4.777924613162127798e-01
3.320578773279715679e-02 3.880149431823143313e-02 5.141350427615101193e-01
2.227075781050731271e-02 6.618747271417904643e-02 5.062689263812814033e-01
-3.815605502323232701e-02 -1.433027886557794754e-03 4.401188283077349106e-01
-3.775876842560195457e-02 3.683687834179866227e-02 4.508125645529675318e-01
2.471537497844945516e-02 2.189906478692757105e-02 4.541945409769228559e-01
1.565990667247341844e-02 2.301114044827827151e-02 4.512767821463783413e-01
1.503617808211823309e-02 6.062796129428443814e-02 5.235415553719457993e-01
-2.964923227619058188e-02 4.208956587353762657e-02 4.530433694139103240e-01
3.468381533976405695e-02 2.315622434150298170e-02 4.607894518067512935e-01
2.956833775818013335e-02 6.330144428295843284e-02 4.931037358543723936e-01
-1.779503884279416345e-02 1.601581104583778628e-02 4.422549560377463940e-01
2.417608273802631866e-02 6.716685110534120762e-02 5.006343359706867391e-01
3.401784285890595977e-02 3.640151701746319191e-02 5.135439081326350630e-01
3.398775404250993504e-05 6.761911157562905395e-02 4.659419002123330045e-01
2.582137408343405244e-02 5.864867443492948612e-02 5.124852071501965201e-01
4.022190363609384756e-02 3.531921001703773599e-02 4.744610520272823928e-01
-2.523812587197615462e-02 4.973945908185949116e-02 4.573921519354607890e-01
1.524089130912002418e-02 3.231122600021943403e-02 4.552289944860322124e-01
-4.672565718293783012e-03 5.705797779852891938e-02 5.304484436659306912e-01
2.516376819408184390e-02 3.171651776534466921e-02 4.589082696519133364e-01
2.513166441509627480e-02 5.145814084440012565e-02 5.176882240755679154e-01
3.957416388169179150e-02 2.557448804824212843e-02 4.663408509573157557e-01
4.432221616482343723e-02 2.726414426816039377e-02 4.933217334241183361e-01
4.453113401539889743e-02 2.616927707070842990e-02 4.782582657324336850e-01
1.116368236189844640e-02 4.059221909926133409e-02 4.575371570078634598e-01
2.959034363524662425e-02 4.623960989885948086e-02 5.153987479936683602e-01
2.596027511893259782e-02 3.972082576950339283e-02 5.229936501970371410e-01
1.754168338830104992e-02 4.799863860165019813e-02 4.625580215668826933e-01
1.859937057224613985e-02 3.548016476473702524e-02 5.313408671477789502e-01
7.724109188115682589e-03 5.864770954605115494e-02 5.295315948189817101e-01
-2.388666910327465892e-02 3.807957865919972540e-02 4.511605432008135019e-01
4.204365059547791189e-02 2.632850273057964902e-02 5.022450007072298828e-01
1.223476379746204351e-02 8.330485917688260772e-03 4.444562534290397160e-01
-3.416970742521413529e-02 2.532556722111570235e-02 4.463235375892547485e-01
4.203282273048019463e-02 3.719941298496391713e-02 4.850268665287037484e-01
1.812836487645342470e-02 4.874901618016073968e-02 4.631252947497389583e-01
4.199159805010897750e-02 2.085109183555300394e-02 4.676144295565419773e-01
-9.837212984319084266e-04 6.079999893039390868e-02 5.298298003696132463e-01
3.952159071704852700e-02 2.292703335425322342e-02 5.102913697740074639e-01
1.277684722847359858e-02 6.938028719533789745e-02 4.690835408091680869e-01
-4.044338492060520207e-02 3.710661909487986132e-02 4.518300281842569932e-01
3.011982114828438625e-02 3.943192386537999403e-03 5.316521383677250689e-01
-2.147640970261433663e-02 3.751821190905917612e-03 4.380869021658500007e-01
3.346003967512811705e-02 5.031154146352868894e-02 4.756071159544557614e-01
-2.119169634180317202e-02 5.909509863927180778e-02 4.651369060420980639e-01
2.095794439679624435e-02 2.029388691599703226e-02 4.515500087193147771e-01
-1.260086452698133165e-02 1.730866904265029871e-02 4.435019200536950978e-01
3.352360884858457402e-02 3.030335789724580495e-02 5.196374474526539444e-01
-2.980711212276420871e-03 5.023268859356906646e-02 4.574811108496419920e-01
3.120609794183801938e-02 6.001485824783125977e-02 4.811665933553397889e-01
3.506103536389087311e-02 2.925887565429940301e-02 4.641844402612147480e-01
1.071190875497177869e-02 5.962201931746987510e-02 4.639302766683801038e-01
-1.763800501857782504e-02 2.523113382901516488e-03 4.379384662142818962e-01
1.029426979946865620e-02 6.468686235243886751e-02 5.114127137972629411e-01
-3.076221803626086326e-03 5.262136584474980117e-02 4.581318424066899708e-01
-1.845852210430194706e-02 5.313695752290299029e-02 4.579687826929730310e-01
3.441001983867934821e-02 2.864073581909625660e-02 4.633156534153459738e-01
9.256307368898401486e-03 6.276770625214155019e-02 5.254874236965002554e-01
-4.018630043112047384e-02 3.855106576196471596e-02 4.530707056759007978e-01
2.404188207869435365e-02 6.670105909449905446e-02 4.757252961048996087e-01
1.637798608266335249e-02 6.421096672687019724e-02 5.176450269408831018e-01
3.447764910577263281e-02 4.908563559009049282e-02 4.760465524020595085e-01
2.519390398271772677e-02 1.535623339965637608e-02 4.515284374644082388e-01
3.908275958850673804e-02 3.071453064325941132e-02 5.063994806151890238e-01
3.883542415068159948e-02 4.668802246826601887e-02 4.914351377577230173e-01
4.000195479303261803e-02 4.231279430048211915e-02 4.812354923193083445e-01
8.679451000883641604e-03 6.297861012129517266e-02 5.241769146628493248e-01
4.173596415956782463e-02 3.703511084365991579e-02 4.966622433726827768e-01
-3.473737215692554274e-03 2.300148919330205401e-03 4.393393025108467964e-01
-2.875329167135677946e-02 8.714972922778797468e-03 4.403755579804908282e-01
4.139202634378968439e-04 2.995315663486034907e-03 4.401742325691422320e-01
-3.222705677380639094e-02 3.466870621355012949e-02 4.496591207353679009e-01
4.554368623585570292e-02 2.327396507651454879e-02 4.793572594429943434e-01
9.275223758160731219e-03 4.995657267992790335e-02 4.603857964004196002e-01
-7.239187722096905066e-03 4.114828941932856254e-02 4.541690478312568335e-01
1.041352014577647152e-02 6.451857344114471371e-02 5.124914076064995827e-01
-1.432502945922970242e-02 1.820901252977223661e-02 4.436156481503987226e-01
-2.051990893777765057e-02 4.768155737361774726e-02 4.557860921232151918e-01
1.839928743588233745e-02 4.083027607917224383e-02 5.315647432269698935e-01
1.000997568835219204e-02 4.413415557862513522e-02 5.348487764987464033e-01
2.162526206651472355e-02 8.121833411656648183e-03 4.471115988852912837e-01
9.420393118158929685e-03 6.753147259371279632e-02 4.670815930968083562e-01
1.993615017966254843e-02 4.627399437745589178e-02 5.243588237373377758e-01
6.438440429748357695e-03 3.456520819859761756e-02 4.539985485081654559e-01
3.068327351184793952e-02 6.166433594823884229e-02 4.928230979000410295e-01
3.528443653559681231e-02 2.914865533830509475e-02 4.643305099895793098e-01
1.646802782376256824e-02 7.119394857334106208e-02 4.720621473834393789e-01
-3.171406521756667263e-02 2.700115147056553200e-02 4.467396610346750507e-01
2.465623629192909482e-04 7.032197747352880723e-02 4.716597784682827199e-01
-4.625176533105702752e-03 4.775617780167141363e-02 4.565497272351884406e-01
-1.800037922132048662e-02 1.591361254213543436e-02 4.421860274631273513e-01
3.011239344725497730e-02 4.213040473524583968e-02 4.670997156542834317e-01
3.017293017143037742e-02 6.056365126848052560e-02 4.785588644441950423e-01
3.200913637662352283e-03 3.120303259986238059e-02 4.519402014458980821e-01
1.190292489748117147e-02 4.004669575520268532e-02 5.339497791984241237e-01
2.374596242791036926e-02 6.450530912405980088e-02 4.736010573058601625e-01
1.419944109900764771e-02 7.018931024576940958e-02 5.064225836961859795e-01
-3.247259712465346004e-02 2.103457434889713373e-02 4.446690143199951706e-01
3.831036030835514861e-02 4.595935917745291172e-02 4.813235595623953644e-01
4.092759971812584552e-02 2.346210292353882731e-02 4.671369213034231582e-01
1.197408043455989134e-02 6.634586948502937953e-02 5.097200932973399157e-01
4.541261377455037967e-02 2.508854816213779149e-02 4.828907191959961875e-01
3.116814832712918107e-02 5.658268441026936130e-02 5.048425335419592930e-01
-5.930532817775591679e-03 9.063001818552447394e-03 4.414548880626507077e-01
2.329509181346479593e-02 6.253475144714287781e-02 5.116653018398538144e-01
4.470518336609927146e-03 5.229475771749134139e-02 5.367531115083917781e-01
1.739739379577223341e-02 5.517713707780875360e-02 4.651740278768786707e-01
-2.609361879572468651e-02 4.912538605926073526e-02 4.571452273919123233e-01
2.621139365539433899e-02 6.379701799522710659e-02 4.758875395668487052e-01
9.583666511208501979e-03 6.743624426528195548e-02 5.069663724364366075e-01
1.300992179624760152e-02 6.470841465330857967e-02 5.166363293864291162e-01
2.362838520046493460e-02 1.341431674061125366e-02 4.499450633195781202e-01
-1.623573119931009251e-03 3.026129205317968848e-02 4.506071186215816482e-01
2.861468922109347210e-02 3.369825366587668458e-02 4.619051480494623663e-01
-1.968011946001574364e-02 4.588566307899877295e-02 4.548314234985312843e-01
3.590116758203883152e-02 4.197504017885115429e-02 5.086716211302797497e-01
2.838918214408799739e-02 6.041567676358346184e-02 4.756821491406484914e-01
2.558671065268900216e-02 3.700554300710752476e-02 4.616881915555486326e-01
2.652100827614711429e-02 6.800564212648080309e-02 4.906030386865535275e-01
4.160061993846527612e-02 2.929577705842769525e-02 4.725111750110671527e-01
2.784037333503690953e-02 6.116913420718737837e-02 5.065992458345776051e-01
1.447347311806781132e-02 7.176638245334072963e-02 5.035081878178402359e-01
3.051163919465915003e-02 2.888394409337072255e-02 5.244247098217102998e-01
-1.301899312830975992e-02 2.120452374820181590e-02 4.449387209141207333e-01
8.424211502736455789e-03 5.674908573270819045e-02 4.622485206197253782e-01
2.985808666320902832e-02 2.098549120534886486e-02 4.565671523700747247e-01
2.479419912047738182e-03 6.571409164885567977e-02 4.648141952184990933e-01
1.878905992576796261e-02 4.323536404654090837e-02 4.611858887693055520e-01
2.064449992702974482e-02 7.339541655529938091e-02 4.799480006123748588e-01
-9.307386839014194016e-03 6.966580328456358460e-03 4.402205560442961629e-01
5.996189857595207381e-03 6.280025062681209025e-02 5.251226428144648573e-01
1.573073811109883258e-02 4.759825462717673372e-02 4.616899100549878843e-01
2.018047444998306850e-02 5.145264064023204881e-02 4.651417497489474528e-01
1.046544790471665674e-02 5.469930126848526059e-02 4.623383097708951839e-01
-1.814350497905194842e-02 5.896334833558806998e-02 4.621668479698987086e-01
2.062439368726526681e-02 5.043293526272128041e-02 4.649470201618464693e-01
-2.798228777270424066e-03 3.406869882122406934e-02 4.519719552352442493e-01
3.838447275968872446e-02 4.428714920521401033e-02 4.790756490222746189e-01
-1.465069532660945827e-02 4.887582848947192617e-03 4.387110663586915038e-01
4.199939430117480971e-02 3.683118212877960901e-02 4.831920319087009696e-01
2.921399174166500884e-02 6.364437097164886425e-02 4.816347822762900854e-01
9.496427123717940399e-03 7.062603892033493536e-02 4.998532817190722288e-01
3.757966943176349606e-02 4.431340986195395765e-02 5.041427913715677001e-01
2.178514273636717596e-02 2.582094876106078019e-02 4.544969283554228801e-01
3.252175279364388771e-02 4.318823214503156316e-02 4.695265580059428956e-01
6.737579351413833413e-03 4.995526329242636066e-02 5.354485733085504462e-01
-1.441453988979760417e-02 4.933429481830717972e-02 4.565104859334781495e-01
2.389894812426580917e-03 6.098218174862168189e-02 5.337243914624079100e-01
-6.743797061938238552e-03 6.054683150807001202e-02 4.608081324446768878e-01
4.072899517822813065e-02 4.048046231673440437e-02 4.818166060559184727e-01
-1.399490498505378449e-03 2.177821449281495264e-02 4.472331391256424982e-01
-2.877301707029005645e-02 5.530048716214224294e-03 4.392413484808346258e-01
-1.703730960761619742e-02 5.946899396657947395e-02 4.623915964738168904e-01
2.850669427464893810e-02 6.343643675787068170e-02 4.982419722725769939e-01
1.899904778137944880e-02 5.780881807509791193e-02 5.210740748809289391e-01
-3.970557783487453640e-02 2.177740035691605458e-02 4.461826225999752094e-01
1.994491441618522973e-02 5.440974417812209640e-02 4.661885878597742394e-01
2.596643421586184580e-02 4.608883997357680895e-02 5.183963798486003194e-01
2.917984697105286025e-03 6.346384613627477356e-02 4.633684123033677826e-01
-1.453610702279978933e-02 5.353803688091762769e-02 4.579755332614947050e-01
2.735608341081660622e-02 4.885836609235244543e-02 4.687808714144887645e-01
3.201107982965027687e-02 5.909737342278494066e-02 4.941022713567007063e-01
1.827480637017427426e-02 4.830889414637599272e-02 4.630106881095976123e-01
1.619093774688264847e-02 7.132269430017192102e-02 5.037595723368452072e-01
1.226621012551759246e-02 5.073454441515803937e-02 5.291313929940073546e-01
-1.774235352936161941e-02 4.675152177866338972e-03 4.383574913050753974e-01
4.384842123299690503e-02 2.441194335529019155e-02 4.740057135686763234e-01
7.319657107386248578e-03 2.756264449593167146e-02 4.512902913728714105e-01
4.250397093048630115e-02 3.023240638576267861e-02 4.752128167222062216e-01
4.189833978922526819e-02 3.836825112860164921e-02 4.879504084287790144e-01
1.413406631131676298e-02 3.068592671986073578e-02 4.541672195440880078e-01
4.078415161737513304e-03 3.145069799965747454e-02 4.522202434750790534e-01
-3.332383891282578083e-03 3.951578282082077176e-02 4.540283926520572999e-01
3.263375613780489931e-02 4.530937681206594070e-02 4.711364259754233785e-01
3.953302282869228940e-02 1.943989417523112051e-02 4.630449581038406093e-01
5.339281144012019732e-04 5.981202694419569810e-02 5.258187223491620488e-01
5.780709962804411045e-03 2.337432267476852871e-02 4.492521590933990505e-01
5.711394245521863970e-03 5.266960407415537809e-02 5.341663426229208422e-01
3.861231781567367460e-02 4.175458943137026063e-02 4.771921286374128379e-01
4.950590411883285663e-03 6.248178122328657685e-02 5.281098390117845431e-01
2.780173039153781972e-02 1.907964166315034502e-02 4.545632189702501491e-01
2.613816909099365288e-02 2.862357471143060078e-02 4.580176866348855125e-01
1.182203552298115995e-02 7.660616327459654484e-02 4.865473955838783837e-01
-1.613121422192297441e-02 5.823285057871107478e-02 4.607577255227632285e-01
1.193330150218152239e-02 7.163253910912530109e-02 4.701661244630499503e-01
3.644932866879401628e-02 5.152306395804223671e-02 4.875422158685844831e-01
1.908485128569244876e-02 3.987167868910984625e-02 4.597492360211815066e-01
2.772753363367171098e-02 6.134975254595875088e-02 5.065045971047916762e-01
-3.878348933752613636e-02 4.052179001842493716e-02 4.543445075416676637e-01
2.796454961403662190e-02 6.126104518206015870e-02 4.758336211077923150e-01
-1.262388543181237107e-03 5.244657318565522364e-02 4.583328888144652113e-01
-2.108258910832353557e-03 5.901889392829510333e-02 5.284381820489482129e-01
1.221763739516924796e-02 7.185355854793963604e-02 5.009056611002327131e-01
5.296339306356704496e-03 4.276126886186091408e-04 4.401389369063310464e-01
2.914308361760542185e-02 6.311564071949356258e-02 4.958488252874937441e-01
3.920882291078946202e-02 4.194143811128667881e-02 5.017462252623230423e-01
3.320234866510597682e-02 5.388347062198136500e-02 5.031676624658149022e-01
2.987442192562355520e-02 6.291016012660487211e-02 4.930581152661164812e-01
2.040572844266029182e-02 7.006323970257614941e-02 5.023244269513180704e-01
-1.815832389984978895e-02 5.890299629506668029e-03 4.387149096145970817e-01
8.353282796306779265e-03 2.271155678553674583e-03 4.413358550798837099e-01
4.372409376549798304e-02 3.049992736391926237e-02 4.924759435723361500e-01
2.473482621117916586e-02 3.314440308235460514e-02 4.593259437595740846e-01
-3.328437609179490768e-03 5.485487831234406308e-02 4.587879847611996964e-01
2.075472789006832606e-03 5.831860121685165932e-02 5.339699571737869244e-01
9.071411704393968212e-03 6.791588800047435037e-02 5.056400936868800100e-01
2.038127222504917610e-02 2.814310142770921550e-02 4.550173426239952912e-01
3.256806692199871317e-02 3.428037127084525293e-02 5.164469188546452205e-01
3.017711105826661674e-02 5.546963869619799675e-02 4.748140336341041268e-01
1.700842645472364946e-03 8.491831157745160716e-03 4.424722360374097052e-01
-2.216508104018299896e-02 3.895263435053880618e-02 4.517027001811720899e-01
-5.383848540283705034e-03 4.347548533774521495e-02 4.551398392459325426e-01
4.328153699833474366e-02 2.464065996848663342e-02 4.999045773359228062e-01
1.611594345938647047e-02 4.799548506273245557e-02 4.619778873810214126e-01
4.076369312191681360e-02 2.877563150568679742e-02 4.704792888737479584e-01
3.465573821452506281e-02 5.415630297686414157e-02 4.941178931762051918e-01
4.680932247639020896e-03 5.404447832489481934e-02 5.339709725251389205e-01
4.071607839797927036e-02 4.100743538463311882e-02 4.963680063675175447e-01
-2.148874239353093518e-02 4.479420695825803156e-02 4.542369067272776784e-01
2.593213057475824562e-02 6.563745770956466719e-02 4.995563851196548888e-01
2.371424341406381045e-02 6.721368503523890425e-02 5.016059568715121042e-01
-1.248250462526154236e-02 2.249104168264113180e-03 4.381946169337612718e-01
1.143454496893449475e-02 1.206864493943282830e-02 4.458278422473729852e-01
-3.645185579761903855e-02 3.341809182620820301e-02 4.493239922886912985e-01
2.829743035069673743e-03 3.094331951935785571e-02 4.517582745735084226e-01
-2.139363470910716700e-03 6.373745113806848772e-02 4.633169880789557715e-01
3.794433800804965229e-02 4.851267697220188607e-02 4.858220199803208739e-01
-2.753733795742597211e-03 2.419079653444587003e-02 4.479394744873407275e-01
-1.088862563932908520e-02 1.586777392336484807e-02 4.432395209215962972e-01
1.662896932522436172e-02 6.893790304644564770e-02 4.706182218920236804e-01
2.680575020715931719e-03 5.320383432866620382e-02 5.383840603874523456e-01
4.465845343040680815e-02 2.891932816638653064e-02 4.879299622794832647e-01
2.867799014756152592e-02 6.366942327555204229e-02 4.960680412467361466e-01
2.385527237801190678e-02 4.169599647369007928e-02 5.237069313117806990e-01
2.945365999073211796e-02 5.557392846820784216e-02 4.741064005642960377e-01
4.143755723035917604e-02 2.871219944154005527e-02 5.017280881956709404e-01
2.080993415774821248e-02 4.269030350244226724e-02 4.619306186242486123e-01
3.741778888326246361e-02 4.840443587034542333e-02 4.829224149258550258e-01
-1.288600387085609041e-02 1.275302192107533733e-02 4.417212770309486558e-01
2.083569978497429309e-02 7.055072356541146339e-02 5.007293576543030422e-01
4.322293424114708599e-02 3.213574263391980046e-02 4.811325716831430510e-01
-3.042920535852702228e-03 1.725571277937708835e-03 4.391928923507856797e-01
-1.532990861985274005e-02 3.435794421594508957e-02 4.503509517038352117e-01
-1.441104725524989735e-02 3.066041374777720915e-02 4.487196749689991715e-01
2.819148126955789077e-02 4.576629854400261072e-02 5.166430147825270547e-01
2.349941475618805113e-03 6.129959915242774726e-02 5.338378383462220045e-01
3.267504978983087893e-02 2.259104108610298853e-02 4.590943695357202481e-01
-2.344326610463243893e-02 4.193940328697781661e-02 4.529017766937165068e-01
-1.638316202062697641e-03 5.658214592713408514e-02 4.594575318334824243e-01
1.334578049014131795e-02 5.930852124590618030e-02 5.249945021184365679e-01
2.901927053677631416e-02 3.228302550499492773e-02 5.251190934552618650e-01
3.319169063872490222e-02 5.758742933452509760e-02 4.904901200326670652e-01
1.097876231543969648e-02 7.525494011430121366e-02 4.895912381723002138e-01
3.041212060802114467e-02 2.417947764715366529e-02 4.583421002970188840e-01
2.665110895722968935e-03 4.976792985353546694e-02 5.375986751745956971e-01
-1.343296188341628217e-04 5.946239894582910218e-02 5.356792395770378912e-01
1.385069023332689830e-02 5.926721578690020975e-02 5.246296490452798666e-01
8.556677862630862955e-03 5.889163896455092834e-02 4.629191336523330036e-01
1.818264576273118799e-02 1.444627960161238428e-02 4.483846559899442030e-01
9.789137607767103844e-03 6.270066173999316872e-02 5.257417214066261169e-01
1.726670939952307249e-02 4.532840687601422808e-02 5.275884725550624710e-01
9.552673721305780102e-03 6.842627043426989519e-02 4.675589551049150194e-01
3.259713222444382552e-02 1.698109935950742333e-02 4.566163869798349761e-01
2.378418725119990293e-02 7.196856149098218580e-02 4.880152490173531032e-01
-1.898516956025526892e-02 2.494922566519639992e-02 4.457718855425252813e-01
3.306750956217632126e-02 4.865080260403649437e-02 4.742127273433157653e-01
4.584280938597155158e-02 2.378730102355158110e-02 4.839028278051392129e-01
1.149619487774592927e-02 7.187694107628435358e-02 4.996909572251370113e-01
3.435169407504711642e-02 3.483946426572234051e-02 5.133701220260321607e-01
2.905321970416326754e-02 4.637361660128820617e-02 5.158102205951794472e-01
1.519851126823267354e-02 4.102293759469880646e-02 5.332452377886046646e-01
6.948261916296586196e-03 6.337995722585960945e-02 5.146021538341766233e-01
-5.378978200973243660e-03 5.997875719332129707e-02 4.601915648809847825e-01
1.519387246952110318e-02 5.427908266290797090e-02 5.248007011459698834e-01
-1.595614797624417963e-02 2.777538266940104625e-02 4.471907986387099188e-01
4.238212092659791874e-02 3.507561433404604578e-02 4.814598428607709812e-01
3.961011882642855031e-04 1.165968054382109272e-02 4.435246237461787366e-01
2.636723747544122975e-02 6.416800447629399107e-02 5.028457140630173683e-01
-3.438729608316321712e-02 4.344808178031901724e-02 4.552164890558587085e-01
2.359770972601041295e-02 3.844654280793473322e-02 5.278102084337507049e-01
-2.050319613358814186e-02 5.050239677574166336e-02 4.569209511731506801e-01
1.578776773204753486e-02 4.560856174016080650e-02 4.609322649199065758e-01
4.525496355822421213e-02 2.571316251325322239e-02 4.832126720674780329e-01
-1.305120743584962592e-02 2.312956394217276571e-02 4.456715583883385512e-01
-3.664210842448472477e-02 4.165607957165605446e-02 4.545829958096523904e-01
1.519077731680937597e-03 4.282170135376010822e-02 4.561408231754056630e-01
3.452841627301739963e-02 5.184319977745831254e-02 4.794795597878754312e-01
-4.806049173408800512e-04 5.988747574566604531e-02 5.361004867827954268e-01
1.808980269563524243e-02 6.553874775106353912e-02 5.120175765789395372e-01
8.711516855287662620e-03 4.085915677274627733e-02 4.570392559766150442e-01
2.259848511155727185e-02 1.290893200320124105e-02 4.493840633624626157e-01
2.367416642087358941e-02 7.128414316289673203e-02 4.918187498574462246e-01
-2.647925320104273575e-02 4.774356649251155355e-02 4.563167428319208074e-01
3.265857260372455328e-02 5.850070323526292138e-02 4.886986670170175295e-01
-1.909970310350488087e-02 5.334466528018386861e-02 4.581522824260557680e-01
1.773609004950494131e-02 7.558195012301990867e-02 4.934355887744396041e-01
2.720571960046673857e-02 5.143971117472584398e-02 4.699450522831972732e-01
5.984677584753420911e-03 3.522161853426810513e-02 4.541662917913878439e-01
4.326045700978543851e-02 3.383105990801464624e-02 4.879489691234166759e-01
-3.201092631443961528e-02 3.372970076871562722e-02 4.492592499901977288e-01
1.861229284090637481e-02 3.922714021104431459e-02 5.315792947779528488e-01
-2.817909138354408177e-02 4.098453350370751674e-02 4.524165186559164220e-01
2.813811378146923586e-02 5.872303205231879653e-02 5.093631754633451969e-01
-1.909976206022609424e-03 6.362947850529067362e-02 4.632608972954829207e-01
4.518208238885636219e-02 2.499606015353052213e-02 4.802712476455528456e-01
6.966102044341635456e-03 6.787738904597249989e-02 5.031023547239701355e-01
1.463604758138909931e-02 6.057245751375674864e-02 5.238447035968943899e-01
7.995819825969537054e-03 1.748241249737986919e-02 4.473198178176159279e-01
2.037847247439547940e-02 4.728360063126402918e-02 5.233713507846751156e-01
2.650666324908613342e-02 3.161290611866288125e-02 4.596284554640739373e-01
-6.334821115009697974e-03 2.398437585163418206e-02 4.471563304156127572e-01
-2.425461967851082201e-02 2.683612153417359175e-02 4.463898781332085730e-01
2.401416895815659033e-03 6.167132038100393843e-02 5.266506432041407892e-01
1.048732512567073297e-02 4.741709234298481512e-02 5.334221481526293385e-01
3.082029458619547219e-02 3.423573143346447800e-02 5.205856303463110013e-01
-2.627963006462211148e-02 1.869931429355863733e-02 4.431755417502503125e-01
3.377635481801127132e-02 4.691273586271166307e-02 4.736289928906160518e-01
1.250393309283866390e-02 4.840317161778113358e-02 4.608919778741069617e-01
1.687159314022318272e-03 6.175873242172544297e-02 5.322157999940647644e-01
7.177145575711820456e-03 6.341085604678541043e-02 5.150600715078792469e-01
2.923769831378462275e-02 6.111738298932997693e-02 4.770859409192992895e-01
