6.022579090291902554e-03 2.648717487479370844e-02 4.505259156224514783e-01
3.769060573878217635e-02 3.548715190787083557e-02 5.073828800586681620e-01
2.316081503526424418e-02 5.205673186933001961e-02 5.188324588088016887e-01
2.152048667904002399e-02 6.621461064524551687e-02 5.069411768865447199e-01
1.833656641132898682e-02 4.483841738097045504e-02 5.273706863773260922e-01
-2.104379883224521963e-02 4.189666893748027199e-02 4.530406628590630258e-01
-8.776429634201990057e-03 3.148202317691457114e-02 4.499255490029165916e-01
3.490167879845883919e-02 3.133597962679873783e-02 5.158615891878750581e-01
-1.925605472315097474e-02 3.090417077998853720e-03 4.380270777954093364e-01
3.238877227099571515e-02 5.824629378387823075e-02 4.955613655902535997e-01
8.552134836228076666e-04 5.862391869777162923e-02 5.348112718625452899e-01
3.741580259967499517e-02 4.872064990772269344e-02 4.831362958412874220e-01
2.998216792241744505e-02 3.270106620850524171e-02 5.239427316522831113e-01
-1.077857678042247989e-03 6.439434619985934249e-02 4.636450855155080930e-01
9.049964398009185257e-03 6.252587077837283569e-02 5.279729547050585614e-01
2.615142121047869112e-02 1.196691178531719690e-02 4.505878721663938435e-01
-1.300803967034079751e-02 3.058182830116397757e-02 4.488430547391289438e-01
2.640798005544581217e-02 1.811880450700109613e-02 4.532815584072666937e-01
3.959974636567478029e-02 4.106210733327639306e-02 4.781922931678153077e-01
9.190163736857623854e-04 6.418797630189536363e-02 4.635864420002483999e-01
2.422726358306537264e-02 3.979568441792631639e-02 5.259706846398389812e-01
-2.026255326726714937e-03 5.227571434748695678e-02 4.580416122430728820e-01
3.698107395634063488e-02 2.889290410620386565e-02 4.655974798389470592e-01
4.896324849566613749e-03 1.151048975921480783e-02 4.442713350652052751e-01
1.302501187782422604e-02 4.692702838609948829e-02 5.316122640824788581e-01
1.094370036616384989e-02 4.858660590372336496e-02 4.602667578250339564e-01
3.753161196941389582e-02 2.415125957604706899e-02 4.635664887024551484e-01
7.192526099224564630e-03 6.596120084521026050e-02 4.654217055938025260e-01
-4.305139823006338962e-02 -5.814966929760399719e-04 4.412291710964489910e-01
1.784878227032586293e-02 6.068251961459043137e-02 4.672299572547535251e-01
1.037445852261115187e-02 7.054308892559757460e-02 5.009589581045459372e-01
3.970279728118240176e-02 4.473149694129452403e-02 4.941594759074317555e-01
-3.861848195994589672e-02 3.148272121403575263e-02 4.487868340481518947e-01
2.939669518477926180e-02 4.426836273355770623e-02 5.158087866349349015e-01
2.065110350345607595e-02 1.244793564183462910e-02 4.484596804870916720e-01
2.380753565669783967e-02 6.166596779482362567e-02 4.719006372020353446e-01
7.709583698661243330e-03 7.311182350792914952e-02 4.713614303503414482e-01
3.126300514719402429e-02 5.822982766395909393e-02 4.777421487504025510e-01
-1.555340430339014271e-02 1.427727551325085747e-02 4.418627554568506643e-01
2.375451280762893788e-02 4.566371071585313690e-02 5.206811862521080192e-01
1.251057374063182896e-02 6.422165551188328825e-02 5.182447300286013858e-01
4.542379428662041835e-02 2.457944494164521904e-02 4.911670909370789984e-01
2.007794362494421184e-02 6.958247025525211849e-02 4.733406737078853510e-01
-5.197625398729843402e-03 5.461046731933906495e-02 4.584290246256494394e-01
-4.081710703688744973e-02 2.975389174158853123e-02 4.487166825085714406e-01
1.027534892474448770e-02 5.529449082934641442e-03 4.428756511417088482e-01
3.982676429263028173e-02 3.297844865816199761e-02 5.040595848375378774e-01
3.086065074633062566e-02 4.317712407305752259e-02 5.148355376430934216e-01
5.803369019782169888e-03 3.617349039105133973e-02 4.544161562527426201e-01
1.653175462167873200e-02 1.712509776503679665e-02 4.489382063232577047e-01
-5.117298011014690187e-03 6.289994307505147875e-02 4.624937171689782467e-01
2.013870175486180344e-02 4.240967249581181764e-02 4.613087137348195754e-01
5.057761852734362316e-04 4.316554581674258984e-02 4.559345427001933460e-01
-4.765048225500930455e-03 2.145996964742281216e-02 4.464269805089525756e-01
1.533449137887044240e-02 7.557444182006131661e-02 4.928948869151315026e-01
9.914273903814505365e-03 6.740113973339413589e-02 4.668498797847174808e-01
3.759840401056101060e-03 1.684966112497860401e-03 4.402666959015449910e-01
1.041828128950108906e-03 6.173967079548673548e-02 5.323039930533984831e-01
2.833933482933157725e-03 1.145725049979576943e-02 4.438572719402157918e-01
1.652970251940341986e-02 7.155651851271223329e-02 4.720898199670531814e-01
4.439420788165567011e-02 2.550887889541097672e-02 4.958733073243902223e-01
-1.826807952749536987e-02 2.930400514245182133e-03 4.380219904327542491e-01
-1.281680053288788979e-02 4.646915166296098493e-02 4.553584266532998415e-01
2.595700318037905824e-02 4.294883851855456347e-02 4.645942308157363088e-01
1.141251613873814873e-02 5.089488757239566535e-02 5.298885363582696018e-01
3.477067027221079909e-03 6.179726869028659419e-02 4.621228199611290832e-01
-1.834801871910279880e-02 1.587007115010479613e-02 4.421227745746278415e-01
3.646497665596257903e-02 5.018742021522231561e-02 4.980246253121513034e-01
1.275636172486938058e-04 2.137758606592580699e-02 4.473308817036025786e-01
4.222408448932593594e-02 3.625730087914166150e-02 4.829517172410689452e-01
-1.260333596510689394e-02 4.814576537794650057e-02 4.559755961055680928e-01
-3.601916983636900375e-03 8.253960672167654292e-03 4.414825350952473748e-01
2.712846496341136948e-02 3.789460861206388198e-02 5.233423108292211134e-01
3.372583193161896031e-02 4.430119110271776850e-02 5.106530407551942430e-01
-2.132350002077232007e-02 5.919171856440086366e-02 4.663749327249108179e-01
4.049322249703070364e-02 4.067775478488071250e-02 4.798212197974492388e-01
3.781437591945682047e-02 4.286274848400292020e-02 4.763719042744106735e-01
8.228423692213266208e-03 7.254572088202380920e-02 4.706254216956856640e-01
4.968134390956457230e-03 6.846119145137205542e-02 4.665263094424917933e-01
2.950377811773507997e-02 5.524564338656042656e-02 5.104150328660165270e-01
2.721875981644641951e-02 4.798041942738730942e-02 5.168066124978804021e-01
2.602864535738851418e-02 3.626384914790493214e-02 4.614353083660689969e-01
1.244312208056288192e-02 3.557027564053196617e-02 4.557013033645399003e-01
7.121411267209107505e-03 6.208106358251914980e-02 5.190870024000006078e-01
2.571532489581249484e-02 2.942530557552764867e-02 4.580482106322173452e-01
3.716630419374360172e-02 4.674521423687483940e-02 4.791465595968920077e-01
4.091363173570907591e-02 4.175470006982873183e-02 4.896764747612781243e-01
2.084421146810822977e-03 3.493366224809559689e-02 4.531555782428653423e-01
1.724293579554093264e-02 6.135232907232784916e-02 4.672082931394738736e-01
-6.553803757014880008e-03 6.602412195953942520e-03 4.404677473799374354e-01
4.486475308125873612e-02 2.458432520945376745e-02 4.950885456550150887e-01
1.958457326178805399e-02 6.996773855233831552e-02 5.035683793130771857e-01
-3.125075065502858768e-02 4.511872244441288843e-02 4.556337535695831331e-01
2.533516265754006194e-02 3.188458113713189129e-02 5.277766109374771863e-01
-1.075339158128134354e-02 3.759039753118009752e-02 4.523687819225414852e-01
-3.930226041847131868e-02 3.978611594179261995e-02 4.538948030162051062e-01
3.759321552284745210e-02 2.403383423794239887e-02 5.153623875034030188e-01
3.480412104332948620e-02 3.992158651421007232e-02 5.115934979105374314e-01
6.736517248920997555e-03 1.014793290845912403e-03 4.405852750143603447e-01
3.989479169845788070e-02 1.853446818087712764e-02 4.629955710242449896e-01
3.791080624484217954e-02 2.925773847340102513e-02 4.665901495569898527e-01
2.858079958166886633e-02 6.463725992584543056e-02 4.932751076231184362e-01
2.882785819619240048e-02 2.844966836792047621e-02 4.593563404925084526e-01
2.569430361766594784e-02 6.032044430534348745e-02 4.728123086299274580e-01
-6.022050648634235011e-03 3.895822803720826177e-02 4.534689166275776562e-01
2.778248972073603038e-02 5.897782711828424007e-02 4.739629682192252891e-01
2.659442602995661098e-02 6.476996358610866145e-02 4.767047863021797172e-01
-1.845978703716482511e-02 1.512315175931840464e-02 4.418013056572029362e-01
3.932976292053715767e-02 4.172649924223106876e-02 5.016146868760710253e-01
1.842034450009810004e-02 4.273813733686355337e-02 4.606080513875255300e-01
2.006045494986232955e-02 4.114177665205287493e-02 5.299527253098860191e-01
-3.162134217870471702e-03 3.959593069754266392e-02 4.540031806495373190e-01
2.734182128073604084e-02 6.405901824815209145e-02 5.006351846340736378e-01
3.513021223481799238e-02 2.443915592369167930e-02 4.616408556427894494e-01
1.539810658002389171e-02 7.539843289887514233e-02 4.942438629765477653e-01
-4.301612472020825001e-03 4.646379871286026447e-02 4.560921551132058882e-01
-7.882941103618232997e-03 1.856600852710194385e-02 4.447553807538817683e-01
2.573185083387413349e-02 2.357081360164422004e-02 4.553998395637898211e-01
-9.643119525016294671e-04 5.385471806456400973e-02 5.377026704588225847e-01
-3.608955009663167464e-03 6.384266363105114972e-02 4.630971075857624464e-01
3.735186327929139460e-02 4.911745658560074529e-02 4.939988988806673920e-01
1.577878361957668271e-02 7.592564767827021666e-02 4.877449986415948735e-01
1.000333656563383994e-02 6.445341872639243075e-02 5.150694327937951345e-01
1.122069844703267247e-02 5.341447880829178207e-02 4.620201893823968620e-01
1.840974599388483374e-02 5.988057539188540446e-02 5.206550492711599087e-01
1.186456963560616855e-02 3.044052549222654724e-02 4.534083454456863671e-01
1.561570759898886149e-02 2.077695765677691278e-02 4.502475139665288451e-01
4.504479051838433667e-02 2.753200011463675240e-02 4.869063760297855370e-01
3.454218779337497967e-03 5.649524538796070472e-02 4.604452143690699883e-01
3.201197649516908383e-02 3.820915672839303445e-02 4.662425016088229124e-01
9.704143849263746277e-03 1.620566534110155082e-02 4.471006711867049899e-01
2.725391098708459039e-02 3.879974311668224485e-02 5.221572060397358106e-01
-1.734417221049064373e-02 2.775007463279030237e-02 4.470457064043510398e-01
1.120752458172112088e-02 6.941630686314782805e-02 4.682166874184234828e-01
3.568692638448853899e-02 3.622200258773818765e-02 4.680219557920758944e-01
1.121946088010959512e-02 5.266087415528849375e-02 5.292321606131676903e-01
-4.547283425134517054e-03 2.604442300257452103e-02 4.483372553249007630e-01
-2.108248392774405428e-02 5.270369118310985757e-02 4.578992283844198208e-01
1.523748832552135161e-02 6.423958611693643406e-02 5.186369979555843779e-01
2.689335230732898055e-02 6.226379216935765126e-03 5.312801939349621749e-01
3.084237064287222770e-03 6.812572802646281456e-02 4.659941081195462798e-01
3.830798522252049088e-02 4.509823931159080701e-02 5.016472098635630372e-01
2.640984861922827595e-02 4.692086440846243711e-02 5.177026450338227948e-01
2.528185009775686318e-02 1.886306414118347000e-02 4.530233730801414560e-01
3.137011250254267275e-02 5.396114463580577170e-02 4.749604406728032968e-01
-3.894158837858231748e-02 4.223090195087999404e-02 4.558854732233846851e-01
3.436305144636362524e-02 4.163970439138944130e-02 4.699581530136026086e-01
1.179980350204179289e-02 4.658699267684405371e-02 5.331717106964515285e-01
2.111907380063265602e-02 4.494785609956898631e-02 4.629273698471124132e-01
2.875583890429445413e-02 5.949762804202442246e-02 4.751730932661685780e-01
1.537363839247272296e-02 7.197254908001700369e-02 5.025966421685524876e-01
2.822109664113164190e-02 4.964907423330991443e-02 5.155282716044685687e-01
1.199860724503940684e-02 7.632144124035364352e-02 4.868619930383960015e-01
1.717603437654606144e-02 6.589002456877032787e-02 5.122107702124223394e-01
3.931044968097522491e-02 4.517848597795635912e-02 4.973711631852083537e-01
3.957828171575506621e-02 4.122781735301266764e-02 5.013004649665141477e-01
1.491486938203891166e-02 1.275280424394173266e-02 4.468020515267432935e-01
2.912693670818962063e-02 6.425351242232323068e-02 4.836397512567664481e-01
9.339886284879151020e-04 1.925283546306164658e-03 4.398627085282781901e-01
-1.251997813510188212e-02 4.120307892399230169e-03 4.387835762820651575e-01
3.111807451200872612e-02 6.044825053805477633e-02 4.811851038433121452e-01
-2.663814070259788030e-02 6.637109515801930225e-03 4.392986856052408240e-01
1.543408383101867870e-02 1.645443864927250907e-02 4.484307449969472392e-01
1.462839770352974619e-02 7.521516395657402987e-02 4.752460841325501506e-01
4.162189970188108490e-02 2.768205438795043674e-02 5.023766555568561776e-01
4.172117682661807825e-02 3.616758935286704113e-02 4.782008294781499580e-01
-4.089567379869832320e-02 -6.406841507241342170e-04 4.408449797514329416e-01
4.166579955850074207e-02 3.838857370514867084e-02 4.956065606580884464e-01
3.062522409860939793e-02 2.654023300775835287e-02 4.594715252237180914e-01
3.613520648188995373e-03 6.315050170579952771e-02 4.630055873726527382e-01
2.661566118173351939e-02 1.100855494618720176e-02 4.504352153714785145e-01
2.961254605214535054e-02 5.997207332476402197e-02 5.038412296150840408e-01
1.330194241190466031e-02 5.935505488652820238e-02 5.248097719981471565e-01
6.046907502967586653e-03 7.055267992020551604e-02 4.682817248197458371e-01
2.263174226543974640e-02 4.670149747503100912e-02 5.212200430183968614e-01
3.654836947982088163e-02 3.972107018454089367e-02 4.714407440962343765e-01
-1.328886567568746471e-02 3.717121046245965704e-03 4.385401048198207530e-01
3.304029888316417640e-02 5.252101932397729156e-02 4.759747059861338947e-01
2.493926350807538009e-02 3.486622124023448788e-02 4.601336732738443569e-01
1.422331515017350237e-02 4.731324128354130049e-02 5.294692171003343439e-01
-5.919282231918907358e-03 2.291286260257786173e-02 4.467815384705348114e-01
1.127280709263810306e-02 4.850307098181593640e-02 4.603463719823709943e-01
-3.621736218684195457e-02 3.907581604440929501e-02 4.521804792278563689e-01
9.008788162833944457e-03 1.784185286842436893e-02 4.476149546970236703e-01
2.031875296218191296e-02 7.184806100738390378e-02 4.764218025541972490e-01
4.454093184111988790e-02 2.514587749752887971e-02 4.763989701286258094e-01
3.159092713973631755e-02 4.939439880179957720e-02 4.727143521823625738e-01
3.826966007022318539e-02 4.801478885716045641e-02 4.891209630588134183e-01
-3.881570336648253530e-03 4.813524173892241159e-02 4.566786699985854181e-01
-9.116854133625673651e-03 2.722054577308256201e-02 4.479901063872244182e-01
3.295636760026346423e-02 3.349176163188908456e-02 5.171394822315549256e-01
3.012607004163687235e-03 7.074593995980946182e-02 4.709049132900983148e-01
3.237264148985324191e-03 1.456072752161361589e-02 4.451835606782927335e-01
2.120020269054827960e-02 5.555954008989203580e-02 5.195766289036718444e-01
1.873575636716509965e-03 7.954990877050260867e-03 4.422654436657316168e-01
2.290422209285196756e-02 6.922328549407998077e-02 4.996661104740948711e-01
-2.353397768393507370e-03 4.730325412441861721e-02 4.566401306611697630e-01
7.530781780211171991e-03 5.119432362405922088e-02 4.600713467830415127e-01
3.172139527965193301e-02 5.633236797828981846e-02 5.035890212747029526e-01
4.049523092852105183e-02 2.882339377672300806e-02 5.044090254881575808e-01
4.428204784925020288e-02 3.075724225878007784e-02 4.893796441200954361e-01
2.021032653064257570e-02 7.530820074360498884e-02 4.887881784685907949e-01
2.072836391700688674e-02 6.685140334448398669e-02 4.719622609623270737e-01
1.255344291994142138e-02 7.009759948814275887e-02 4.691306239411378032e-01
-3.972468973919088958e-02 2.208724506473492416e-02 4.463058069932675509e-01
1.033582762625025880e-02 7.629404735298504769e-02 4.747148606370468205e-01
4.259923033162998918e-02 3.064136250203036010e-02 4.755762849216087496e-01
3.691527235371248883e-02 3.651196777580294900e-02 5.085879970814124462e-01
3.506052255225387826e-02 3.733036971155563599e-02 4.681032319388722662e-01
1.543465425399316582e-02 1.642712187259471115e-02 4.484196772178886126e-01
-5.939824030465196136e-04 6.050204229831460112e-02 4.607271186789269057e-01
3.113572520025200199e-02 2.084578189324323011e-02 5.245074783731623613e-01
3.485177917151237661e-03 5.432745039604189308e-02 5.365311484668272568e-01
-3.592043507526705010e-02 2.205168165235363298e-02 4.455155764597949486e-01
-1.709101693456559559e-02 3.029188444390999019e-02 4.482600542220128714e-01
1.347753320092573252e-02 4.058175439677729618e-02 5.333022645999625500e-01
-9.619605985530573639e-03 3.311942578704803186e-02 4.505394958150159002e-01
2.532007316309475495e-02 3.236909884334856352e-02 4.591726476513413036e-01
2.555133934524862240e-03 6.016055594910250243e-02 4.611324640110329165e-01
-2.106531789952338293e-02 4.333964068546292125e-02 4.536363429854771701e-01
3.314781014548311144e-02 3.805217781899657842e-02 5.141908563217781891e-01
1.162329125438551179e-02 7.299536728121130968e-02 4.981680313990807796e-01
3.312662993517366539e-02 5.659776578311425527e-02 4.968416138582005259e-01
3.661613197747271703e-02 4.310755203772739103e-02 4.743089115712977866e-01
2.619245031597637607e-02 6.898163966929465873e-02 4.867422381549120214e-01
5.507271719691399572e-03 3.083816459013827456e-03 4.410554095187231849e-01
3.109366830694950887e-02 5.764531594341273241e-02 5.032119701672893575e-01
7.935521469384781978e-03 5.888241522749981804e-02 5.291696190288368573e-01
1.613933670035266194e-02 7.241978666488314842e-02 4.727622075112359323e-01
1.839679832453841243e-02 7.611557130261605020e-02 4.834574054460940573e-01
2.335896858551134332e-03 4.130782491574930271e-02 4.556628387472116959e-01
2.054096575958504894e-02 5.563986883922856716e-03 5.312428613597427463e-01
4.004971931004570190e-02 4.167494136167829849e-02 4.795961461700780637e-01
2.322346879152192844e-02 6.277658141941876158e-02 4.719557382062853357e-01
1.749927318565014031e-02 4.128640057542697084e-02 5.319505880863117930e-01
2.504283848393918863e-02 6.473957093397171569e-02 5.051535511461288097e-01
1.411489034233696580e-02 7.573251573300995854e-02 4.877963565578202765e-01
3.517540581469311839e-02 4.544580179540188419e-02 4.739923626591270311e-01
3.422704375095398516e-02 3.253954562282856261e-02 4.649888713101301141e-01
7.636646864364198678e-03 6.298126847998966604e-02 5.169306345617368237e-01
1.866772807040887466e-02 6.137272285080766498e-02 4.679024276264711069e-01
4.210943795979613796e-02 2.659842686897732900e-02 5.018921726465870314e-01
9.474487410833865378e-03 4.791456838912436234e-02 5.341076310086704249e-01
2.966246252806458913e-02 4.914992389604150996e-02 5.140270720090787115e-01
3.116904120243995865e-02 5.015169277024699584e-02 4.726850892817791028e-01
1.735372650237023903e-02 4.072842879747548550e-02 4.593021251232266011e-01
1.953664316938142492e-02 4.266443586162910195e-02 5.293837869187260070e-01
2.939417551148597665e-02 5.319954648780837042e-02 5.119792805477737518e-01
1.161192306489929396e-02 5.974788682496025294e-02 5.261161895366921470e-01
1.883679093559708154e-02 5.369313992782298595e-02 5.218165859749638313e-01
3.625526617514047284e-02 4.795713546386804610e-02 4.785749800314482161e-01
4.178079319014593035e-02 1.932095464550965744e-02 4.661018678435486784e-01
4.322594885445649876e-02 2.544465794487180132e-02 4.993497069580254966e-01
3.890590171029288148e-03 7.214305081999521085e-02 4.721004945919937135e-01
3.238052909209179070e-02 5.182328396316868147e-02 5.087773527757877279e-01
1.939661917238443001e-02 5.803290292333893735e-02 5.205033139698828082e-01
8.196569775741142558e-05 5.901255525766938015e-02 5.248311127003253418e-01
2.363670656736329562e-02 6.901450518012332280e-02 4.983549631215694053e-01
8.388972639073677406e-03 5.290995176991156873e-02 5.314943713526749658e-01
-2.617504187801306809e-02 2.271790025908335814e-02 4.447149757578252594e-01
1.639553086555687461e-02 5.087427836725506858e-02 4.630241591964744385e-01
2.888820709012383803e-02 3.291315769698844457e-02 4.615315959523004219e-01
2.895517839168934224e-02 6.454095056788490548e-02 4.835969596788382563e-01
-9.127687814698966923e-03 -6.155769998380726353e-03 4.367512016791832430e-01
7.983740919552210005e-03 6.962236575695959773e-02 4.676529220327803604e-01
3.672092443149731905e-02 5.091013146597977296e-02 4.908696470226513453e-01
-3.594443475378153452e-02 3.388612738709122912e-02 4.495092160796123615e-01
1.263498504164469773e-02 6.713079924813694643e-02 4.674619490896429475e-01
2.684145507979675445e-03 1.403716910651239651e-02 4.448671871371898678e-01
3.041859284622753026e-02 3.525151607404518328e-02 5.204141534811118630e-01
3.429072791195645481e-02 5.212359585909972365e-02 4.787407011996883122e-01
1.146562041513095320e-03 5.847721725764774836e-02 5.221894049968863749e-01
-1.244145737870592551e-02 2.020780574950210157e-02 4.446249547069870967e-01
1.021190458272061216e-02 7.967167985617740894e-03 4.438514213344943449e-01
3.058188617235861606e-02 6.095039585061989146e-02 4.802858065582801261e-01
9.758312177146528238e-03 7.904268965887803478e-02 4.766360216513766956e-01
3.245136387694559643e-02 5.885188027731853150e-02 4.860180138442095066e-01
2.330933484297056935e-02 4.525281447722295097e-02 5.215558976877880948e-01
2.855021968109953609e-02 6.238354139251128805e-02 5.022242162058814241e-01
2.706247740413604552e-02 4.612700765943313075e-03 5.319117582659707022e-01
4.274811323003796515e-02 2.442386389307175248e-02 5.020722738028168264e-01
1.523365827644173470e-02 5.937001439905222749e-02 4.654473521114930734e-01
3.627945265272018716e-02 3.083320939442469460e-02 5.130967154345627002e-01
-1.705334594265726922e-02 5.584858887518304345e-03 4.386240520853999514e-01
3.237607364614496219e-02 5.711827779935350208e-02 4.794741631518361080e-01
-1.425479137146151362e-02 -7.144817835365986809e-03 4.367076808210911265e-01
2.535256386797899233e-02 6.972275394793768510e-02 4.901592829910674243e-01
2.722981282116886462e-02 2.746322994664238473e-02 4.579457713285203235e-01
1.539557661182348533e-02 6.578518109462475061e-02 5.132456505038514027e-01
-2.418989709495504570e-02 -9.617092652823601429e-04 4.374125841263012404e-01
4.125772135200217461e-02 3.917597714987573060e-02 4.825345453072991120e-01
2.218143387269046890e-02 3.757879394263159006e-02 4.600650955714833956e-01
4.092360742263362328e-02 2.347900656653807358e-02 5.068015654543149839e-01
3.005861302552434444e-02 5.154846543438638962e-02 5.119562821775228700e-01
2.728473386133710432e-02 6.581455770585885323e-02 4.953390289493024290e-01
3.260574405148031207e-02 3.866606365496960684e-02 4.668779711009861666e-01
2.163326337922422821e-02 4.299649952397003282e-03 5.317865261408660782e-01
2.058467281621653711e-02 4.638554158175371700e-02 4.632148067903484878e-01
1.854860660184941626e-02 2.231897962969467755e-02 4.518018034886933099e-01
2.222514758609881597e-02 7.053056978544597344e-02 4.775228552161676632e-01
3.160838393365446308e-02 4.877030605302895561e-02 4.723721088594425299e-01
3.218411646631910011e-02 4.957646643395480918e-02 4.734779467612723614e-01
3.455196711055738557e-02 5.190707420838293340e-02 4.792100643567115403e-01
3.429689096405093979e-02 5.084591257952907062e-02 4.771754820218361282e-01
1.345117215636343691e-02 7.498946188166820404e-02 4.945821480763656908e-01
-1.265238250710196827e-02 1.775745410177363703e-02 4.436522458314592909e-01
-1.305256373334292772e-02 5.434332569369109550e-02 4.581489717154216268e-01
2.797793213011967595e-02 5.852789622451201601e-02 5.096414028638637239e-01
3.998707741929958398e-02 4.252631520843695723e-02 4.812084488274783189e-01
7.597464546204716826e-03 7.637439738131802935e-02 4.753991553453859598e-01
-2.329499362611903157e-02 2.617337582587472150e-03 4.378453007995473656e-01
-1.465124639070491779e-02 1.197881269048387161e-02 4.411126446746826968e-01
2.294520306421345135e-02 5.045289830163171563e-02 5.195888738363166892e-01
4.046094316611036773e-02 2.181783019411379088e-02 4.654120047257570558e-01
1.140139493480132535e-02 4.686809825194610674e-02 4.598048042401204349e-01
-3.797640631484295454e-02 2.215212477207876424e-02 4.459729234269254605e-01
4.029377576208915263e-02 2.372645911736009916e-02 4.661193318223232906e-01
3.102889924724569481e-02 2.992651713281105699e-02 5.237156034935707138e-01
3.886185324144934145e-02 3.635055242546934851e-02 4.726930816768734056e-01
2.433882945928693767e-02 4.731117236270402510e-02 4.656201322598133574e-01
3.558328287045883082e-02 3.157543752439639223e-02 5.138142948801296406e-01
3.037081148735679137e-02 6.175885664460217112e-02 4.812008995546392387e-01
3.520277815093728752e-02 5.119850716762503612e-02 5.018040269432283429e-01
3.865686744401887476e-02 3.214578422996895724e-02 4.688318633518584466e-01
-1.951014548032676404e-02 -1.104873673004025045e-03 4.371902194660208241e-01
9.650792874912701366e-03 -1.609148469660804520e-04 4.407486579570090712e-01
-2.500573341691254142e-03 5.784432136000441232e-02 5.357020927028710577e-01
-1.459010405797845668e-02 1.548923081174197018e-02 4.424782943605232721e-01
1.478448432575429211e-02 6.091855540096210303e-02 4.658539708722440609e-01
2.305970574067853912e-02 2.483110470356020977e-02 4.545874472163206059e-01
3.183589331218412283e-02 5.531075738120706797e-02 5.056825771182760221e-01
-1.409976552031526331e-02 3.980420619840854823e-02 4.528523579694218038e-01
-1.880142197633831100e-02 5.026673818200760868e-02 4.567968186902334748e-01
9.546970701218559022e-03 6.857579138428654408e-02 4.673806167798102429e-01
3.392820374158533880e-02 2.292776448890837537e-02 4.599772180299609436e-01
2.260223088411333556e-02 7.233790766177876363e-02 4.825135962876123674e-01
8.392635398756047999e-03 1.884398938655149763e-02 4.478955231343981769e-01
2.555220240933572806e-02 6.961934086431409430e-02 4.835915444871951019e-01
3.291639088126471768e-02 5.716129829683115615e-02 4.960722978908270742e-01
3.896084527662870001e-02 2.332777676276603582e-02 4.644129162600586502e-01
3.584692990008873231e-02 3.649675003876124563e-02 5.106809469905454479e-01
-1.392202968539685455e-02 -3.321085866407982781e-03 4.369122011321853183e-01
3.355373440276282482e-02 3.107086146770511245e-02 5.191860618882294665e-01
-2.240464475961684646e-02 -4.872463365250519554e-04 4.372863999992887551e-01
7.029014306581968241e-03 1.213054586564125438e-02 4.449386616655955917e-01
3.242584529926008634e-03 2.024988558655040419e-02 4.474769391735521906e-01
1.345726187035502751e-02 6.280141677415439216e-02 4.659734692961542968e-01
1.687059780204563930e-02 5.839613785375148691e-02 4.658591321070711944e-01
2.465268043575577495e-02 4.617869776336088611e-02 4.652800796132373073e-01
3.556253759386539259e-02 2.754918943184766697e-02 5.174760426783814315e-01
-7.413708653832563368e-03 2.707159564469596019e-02 4.482214225340649394e-01
-3.056269939748919653e-02 4.953027810626405014e-02 4.584929637082643117e-01
-1.123973746879858814e-02 4.619551834735845935e-02 4.554064127207532175e-01
8.084149984834653607e-03 7.505510037323716299e-02 4.732295788884269827e-01
3.100846984625094810e-02 4.583385659593797873e-02 5.139755471225486705e-01
2.940511300371632594e-02 6.247287546462296226e-02 4.982369958607279492e-01
3.196432026963436784e-02 5.165299791561678289e-02 4.744101390380848216e-01
1.232024458830726678e-02 6.262115422386606289e-02 5.251375667471839259e-01
3.234029667166948147e-02 3.183906698127660778e-02 5.210924952930299225e-01
1.801726437730376273e-04 -8.004961839199534190e-04 4.387950089903632778e-01
3.492855805436090311e-02 1.522774473489834496e-02 5.234367147122427344e-01
1.036580775954310668e-02 -5.263253673550511227e-04 4.407655959837769033e-01
-4.444890318447369988e-03 1.985348909758081690e-02 4.458511574733476368e-01
5.273239786299804659e-03 6.096433157647707796e-02 5.175557498853300409e-01
-8.876524293580757364e-04 5.268774899899453940e-02 4.583244247441407571e-01
2.862812840256223970e-02 5.803482309399928679e-02 5.091823188850449489e-01
1.127537544819127383e-03 1.737496184556249282e-02 4.459155438142096695e-01
-1.830909438214888343e-02 3.315019710726597318e-02 4.494531936368235114e-01
3.193789409857556577e-02 2.459907890518754289e-02 5.230580577836941858e-01
3.563468982553300024e-02 2.765909933882305244e-02 4.637213951955553859e-01
2.558113050981827147e-02 3.790600923471222974e-03 5.321607648380847211e-01
3.341180839606849862e-02 1.711985364149693975e-02 5.239093443475895118e-01
3.544952010834111211e-02 4.134197055062428794e-02 5.096622585239065639e-01
1.966261987901133171e-02 6.483430299222285587e-02 5.122003290898794470e-01
3.323186856943294298e-02 3.057837434980028787e-02 5.203224984603519454e-01
4.089690840784652309e-02 3.483815487820506041e-02 5.008434645923606210e-01
1.354265260343366292e-02 6.608265414531160065e-02 4.673768661407278202e-01
4.025120527116989727e-02 2.622613784605426143e-02 5.067738002115144136e-01
3.162354384382778938e-02 5.569422660220868515e-02 5.056099350404406056e-01
4.155692477067059881e-02 2.157059920243743767e-02 4.670649305596700218e-01
4.087780974907910536e-02 3.010793939814825418e-02 4.715470477855162046e-01
1.996080268113633455e-02 2.712680119335917836e-02 4.543483938376439712e-01
4.289256994237949927e-02 3.456760340670211179e-02 4.850433340763560808e-01
3.846872524402752958e-02 4.448929031999947908e-02 5.017426534626412415e-01
-2.280522224858114871e-02 4.462969568866206188e-02 4.541683468742725438e-01
-2.235033999972949048e-03 5.832472762654951348e-02 5.274695031000651291e-01
3.273746937281157843e-02 4.978817568908516095e-02 4.742145205468747959e-01
-4.027940405435112559e-02 8.389903103405932459e-04 4.412316288952791155e-01
-1.565368182694886270e-02 1.312776171152858426e-02 4.414088392640340142e-01
2.335768455544092598e-02 7.143054483205456273e-02 4.824041273476891711e-01
-3.445574539729679558e-02 3.468830098296942638e-03 4.395624405876305540e-01
1.267459524577702230e-02 5.186638320230640975e-03 4.432033413426851864e-01
4.034457767022671393e-02 4.200579968908078887e-02 4.825247378823556699e-01
1.219812605321303738e-03 6.151908337895631296e-02 5.277780265280576089e-01
-2.250869718012515203e-02 3.731498410021454049e-02 4.509237706921385147e-01
2.503684179815467842e-02 4.689207745856868031e-02 4.658800861930888493e-01
2.399477097004322490e-02 2.021933970076159742e-02 4.529716673615246103e-01
1.852401549244405560e-02 5.076259295318123060e-02 4.639171619940734570e-01
4.098476873418225447e-02 3.808398321958639948e-02 4.782288302283280168e-01
2.512133012644102853e-02 6.421544298874638790e-02 4.744881942505203010e-01
-5.063401927161475559e-03 4.007055730678157207e-02 4.539518970259514563e-01
5.728423792568243522e-03 7.128242849426799643e-02 4.705361271447882632e-01
3.784291435447294932e-02 4.670196323882788714e-02 4.808292544757939990e-01
9.600544539187128024e-03 6.057459938837900237e-02 5.277469668372264389e-01
-2.619525067398468035e-02 5.742372711152975845e-02 4.643524655844865068e-01
1.177125139282402845e-02 6.784355121592558491e-02 4.675223950384558291e-01
1.429281364392560871e-02 1.000589656531094759e-02 4.455593588534673133e-01
2.842642518476762650e-02 2.761172725861850766e-02 4.587062686494409736e-01
-2.097859743654581846e-02 5.664188245745679223e-02 4.603352769044377624e-01
-1.767594972699447139e-02 3.678055460819053962e-02 4.511437453433098099e-01
4.265956157166409662e-02 3.276572795670365523e-02 4.775195274924525224e-01
-3.573952383478028183e-02 2.592891313457574773e-02 4.466869950609043682e-01
3.039967132452422310e-02 4.305718953300585738e-02 4.675627952433584200e-01
4.487264478513150467e-02 2.537563873584794405e-02 4.786397474665865515e-01
2.272259818603691514e-02 1.747864477525722798e-02 4.510898809981198632e-01
3.009999027567235655e-02 4.743418384880967315e-02 5.144291342655710197e-01
3.484863056405416298e-02 5.131773486783691024e-02 4.793202930517407312e-01
-2.495764937819688195e-02 1.095695042294018810e-02 4.403786345817786718e-01
1.193034598233986762e-02 7.536328827972299527e-02 4.895665405062113451e-01
-2.398727203287244480e-02 1.385572085939014778e-02 4.413841660023545832e-01
-8.276389429310221368e-03 1.099802125740317535e-02 4.417979758650532052e-01
9.067484086659692230e-03 6.404212250147357788e-02 5.130351409503616233e-01
-1.655952643125650769e-02 5.833804780260762324e-02 4.609252859628275023e-01
3.131224820137813725e-02 6.100106904001358077e-02 4.868398116815764731e-01
9.025558138056081689e-03 3.731033655677452876e-02 4.556010009134952576e-01
1.734892031772797966e-02 2.873016474509322224e-02 4.542186740085480956e-01
1.974866469485638681e-02 5.726507666346215830e-02 5.203664360182101989e-01
2.661359171545937125e-02 6.688155061575500049e-02 4.945678459810726180e-01
2.136777234745357301e-02 6.012872388877610330e-02 4.690705840582687913e-01
-1.682221657585714070e-02 9.066430477233423241e-03 4.396825961519810200e-01
4.234578421870136694e-02 3.748844320058830615e-02 4.921231831902929676e-01
6.099240450881477683e-03 7.497852337071181372e-02 4.803309770360479902e-01
-3.036850548974736122e-02 3.862704164681964036e-02 4.513524197955333106e-01
2.673308076107239889e-02 3.782476390292980467e-02 4.626770191428947743e-01
1.402956790402126556e-02 7.520444967189780783e-02 4.938240771899115589e-01
1.610375053523641076e-02 6.342151009995818274e-03 4.445272336361396626e-01
-6.531239689845983604e-03 2.188437533601132745e-02 4.462728111938261688e-01
3.479479106654429638e-02 2.906672203116495573e-02 5.180986085719694323e-01
-3.885208321006056176e-02 8.109782536485279220e-04 4.407238299668608805e-01
4.587542845248094442e-02 2.182130754782788187e-02 4.786395752450194885e-01
2.950719367502043985e-02 4.356452635315893884e-02 4.671775238157973575e-01
1.120395410640125100e-02 7.577817675391031182e-02 4.746332694959646270e-01
2.232745980156115168e-02 3.733852455014008420e-02 5.295351688010885294e-01
1.008115389760923589e-02 2.369972365351861315e-02 4.502247118835285278e-01
-4.430000676104371010e-02 2.795968940616152046e-02 4.489018120515185228e-01
3.909698035387248333e-04 5.701409260492543846e-02 4.597152644194599791e-01
2.753818839102224053e-02 6.447306137739232390e-02 4.778547576672301234e-01
7.783743173312568375e-03 5.824691079590457732e-02 5.292945596848493972e-01
3.200614708944914122e-02 4.024206076679058552e-02 5.149481579339195703e-01
4.403524253493497354e-02 2.999803851403576305e-02 4.826214695708674340e-01
1.102791934569003797e-02 6.046565675809004170e-02 4.641387401325940409e-01
3.174325662010997647e-03 5.969725546234137814e-02 5.172869906642211246e-01
2.051773343039381414e-02 5.133434198165959944e-02 5.213232001429355389e-01
4.172810541499512998e-02 3.937700226091511019e-02 4.927464400200211592e-01
3.153093657094156038e-02 5.335315487741210116e-02 4.748199817737719930e-01
-1.646484850402697014e-02 5.538644108651643444e-02 4.589644683237069644e-01
2.249147129094374465e-03 4.770442650968129139e-02 4.575305718913413311e-01
-4.002824751941626985e-02 4.040802483260169664e-02 4.546986175229885685e-01
3.539919977496277376e-02 5.082331757650408732e-02 5.019078744413639770e-01
-1.459082304114748575e-02 4.747314198899353632e-02 4.556741196595214261e-01
1.700685347087400531e-02 5.102594543469633759e-02 4.633546736300221403e-01
-1.301835791994449508e-02 4.891799604245444105e-02 4.562550568939592321e-01
1.197844567821655659e-02 5.309449052409131314e-02 5.283072435429252423e-01
2.703607483546884710e-02 6.767336019063899255e-02 4.895075286074231369e-01
8.921149443970120829e-03 6.981269700793826805e-02 5.006080103247748658e-01
1.611602005108171351e-02 2.235908756879308526e-02 4.510220409009497722e-01
-9.059355677755752401e-03 4.046901078636238464e-03 4.392523285585830939e-01
2.863087534162910008e-02 1.360745918163046991e-02 4.526301610130440412e-01
-1.162064564001398948e-04 6.017426910822014363e-02 5.357122076986713388e-01
2.785227795480794619e-02 2.628353922450963123e-02 4.577342680556673038e-01
-2.397841717419691918e-02 3.283120735423422643e-02 4.488245658240629932e-01
2.708027659775804480e-02 5.189065241081281671e-02 5.158895824613901615e-01
-4.114556958923549362e-02 2.926645714607821469e-02 4.486436516758025017e-01
-4.185050508684525633e-02 -7.337234915717185876e-05 4.411946520991726350e-01
3.344462782009024245e-03 5.775164603407197117e-02 4.607481466198365405e-01
3.700814892817067686e-02 5.054215067801225841e-02 4.859406487107531536e-01
1.244310403507758664e-02 6.761250896211519479e-02 4.676475468562110716e-01
-3.355389478525741542e-02 1.774284260716870593e-02 4.439473817490692253e-01
4.359271999576761619e-02 2.597611780196104961e-02 4.744260636724736413e-01
3.112635805130119573e-02 3.784030593562540817e-02 4.654796181948003819e-01
1.277779906438073800e-02 5.381954117876063676e-02 4.627103467770227185e-01
4.434302299887437487e-02 3.007431640877195750e-02 4.898474143412727133e-01
7.675934203559353110e-03 4.354208260867847152e-02 5.348920094189504315e-01
-1.603381884499197746e-02 5.375928611264334245e-02 4.580675904860657677e-01
-1.609921912541937075e-02 7.904296671579611258e-03 4.394427182329246340e-01
1.539283309032322446e-02 8.427204075749513204e-03 4.452019864908646207e-01
-2.042891007673010469e-03 3.810345181162434758e-02 4.536373481367363958e-01
2.748167117925021455e-02 6.719797577259090104e-02 4.868590555167255918e-01
3.097907262783686569e-02 4.000372311779467477e-02 5.163129592810447033e-01
-7.699155900928025820e-03 2.422627398161981624e-02 4.469891477858333184e-01
1.745104503056916709e-02 7.172342582492310936e-02 5.019508279627256098e-01
1.128980926473987373e-02 2.743303925610866487e-02 4.520403741020332933e-01
2.166515616552401949e-02 6.647885638418352117e-02 5.062097057834615832e-01
7.247385302999497306e-04 4.435749588634748525e-02 4.563044194796700981e-01
2.912054730387354795e-02 3.223393847891219133e-02 5.250842587739510403e-01
3.356287209983022102e-02 2.249620368688343836e-02 4.595160538587410026e-01
-1.604538718542154047e-02 5.835934767031879244e-02 4.607988421489668807e-01
1.018042041002028067e-02 6.984696148006441785e-02 5.026450919879245083e-01
3.849028258025388033e-02 3.951888253444647142e-02 4.746693167474241859e-01
2.844162562585415832e-02 4.069761968041818445e-02 5.189411075259904305e-01
