1.463816811279069520e-02 1.982940207238228017e-02 4.495279790953352617e-01
1.766859915343244394e-02 7.449682645579161488e-02 4.765339789722021213e-01
4.117123617310453065e-02 2.658126124493481734e-02 5.042677918464775200e-01
1.481541538472256128e-02 5.070439968261242908e-02 4.621834651841882358e-01
1.358739004628616714e-02 6.031220395602884810e-02 4.648150491096545434e-01
-1.414136629034380005e-02 2.608022100702090187e-02 4.466291639788632639e-01
3.893308508286672659e-02 3.307503650435877907e-02 4.697135793530628489e-01
2.817843392388247326e-02 2.553725784774494093e-02 5.258520467412431953e-01
2.703307550732261810e-02 9.852325093348147239e-03 4.500945534941782067e-01
3.320848360637002061e-02 5.674370365060853183e-02 4.966259669187363390e-01
-5.235171423172627417e-03 5.479207675540320038e-02 4.584021840802690595e-01
-2.335759128784458110e-03 4.691887694223509375e-02 4.564246574039278470e-01
7.067696507881851206e-03 5.479229992877850119e-02 5.309702193045031660e-01
-2.802473071584139080e-02 4.259338535754374211e-02 4.532597895519021591e-01
3.932378551193090044e-02 4.393455554080123726e-02 4.998421189192632785e-01
1.803978221167239909e-02 2.691260909307624863e-02 4.535020661485721361e-01
2.678742847194844762e-02 6.333239830804326953e-02 5.047627424184518707e-01
-1.705970334749675604e-02 2.550329608267104878e-02 4.461365402562462168e-01
-3.224153617727046339e-02 4.582124840883984584e-02 4.564420734826626913e-01
1.568256573930062667e-02 6.521639689930015804e-02 5.124305647005324982e-01
2.696562642984492303e-02 5.253549490205062372e-02 5.153785912154200677e-01
1.367242045708470972e-02 1.753411013569608837e-02 4.483947187724315331e-01
2.502475523501133253e-02 6.363884302357854239e-02 5.072623148391222081e-01
2.879277588939992139e-02 5.200662407267808013e-02 5.131304673914433012e-01
2.420889356250402816e-02 6.117189923094098342e-02 4.715730514551049746e-01
3.956734123206721854e-02 2.932918119979576604e-02 5.062416406293381854e-01
2.206224583599521866e-02 7.359875810335689272e-02 4.925842296183413072e-01
1.389106706730943233e-02 4.195966747322440321e-02 4.585952502167066069e-01
2.183960792664297809e-02 6.925257477835161657e-02 4.746972096137573316e-01
3.292426201721471157e-02 5.629645718195337711e-02 4.994873452683481485e-01
4.177703748307710907e-02 3.980157478941010601e-02 4.909148111185206997e-01
7.696275749364625725e-03 7.581068797699164197e-02 4.757637063370017683e-01
3.607596733874748191e-02 2.375468605730615690e-02 5.188042463138157201e-01
6.099939929476557755e-03 4.650324804566327574e-02 4.581185666222163388e-01
-1.723964256441849058e-02 3.336041573341721328e-02 4.496271188647917860e-01
-3.019518914899556317e-02 1.690014665088239443e-02 4.431719166450016623e-01
2.915118717578114513e-02 2.216497964559498851e-02 4.563987084478655643e-01
-2.332733113143276721e-02 8.836856343278076675e-04 4.375765758384965176e-01
4.007026315127792254e-02 4.307176285370502289e-02 4.978785443898562924e-01
1.211283379612182465e-02 1.390950353091614453e-02 4.465990554014320768e-01
4.443876495707001738e-03 6.034352205393876678e-02 5.318056853176225118e-01
1.582321256404552873e-02 4.747302403735341458e-02 4.612857876124242806e-01
6.562306597775733816e-03 5.506334483587106698e-02 5.312490330756255430e-01
-2.450324273984639395e-02 4.831980316774814321e-02 4.565149182995986710e-01
2.127344892143251398e-02 7.403196898549962990e-02 4.828633432811059167e-01
1.883209906753976690e-02 6.800096498438339132e-02 5.064669446744195502e-01
3.271162972586987711e-02 5.487895401846676346e-02 5.033669072921265197e-01
3.286677557883886658e-02 5.809932471692232786e-02 4.830078274585973830e-01
2.756430636536850651e-02 5.559646610172543080e-02 4.715615052866153900e-01
4.094676122935794749e-02 2.351584806429694169e-02 5.066603864824822390e-01
-3.487892938190041529e-03 2.097524373084410504e-02 4.464266460856860519e-01
-2.947089619291614476e-02 1.427421279178267728e-02 4.422678648685205438e-01
2.274308893671181039e-02 7.356674790456441126e-02 4.883889631189380909e-01
3.751332238534983016e-02 4.814015461074915014e-02 4.815009352450621005e-01
1.109615511019948660e-02 2.320507006271678094e-02 4.501421002494157553e-01
3.038522437108700375e-02 5.447617052037290880e-02 4.737191110610440847e-01
1.518459376234788591e-02 7.083866788154706551e-02 5.039180416206862079e-01
2.991916446755384269e-03 2.252295023754619444e-02 4.482515443170831393e-01
7.105454631555012911e-03 6.005857429426031402e-02 5.296817962205796482e-01
1.066364951927844217e-02 7.692415082993760145e-02 4.750111597913747596e-01
1.717715037386054883e-02 2.155564753531949082e-02 4.508003583926799562e-01
2.155380590979246933e-02 1.022166990741489243e-02 4.478208959717823179e-01
-3.681601743441564878e-02 4.190644332595818561e-02 4.549079202303386582e-01
7.340212140265868837e-03 5.420230533319940480e-02 4.607037347223256751e-01
2.176983280890298217e-02 6.929401113678292090e-02 5.014100335539309894e-01
4.544579790104011363e-02 2.623452000701699538e-02 4.863358163597882866e-01
2.287729063371945343e-03 1.493511071143411792e-02 4.450935077837933629e-01
-1.710288343453291240e-02 3.786754937144724137e-02 4.516542681423664218e-01
3.019200386883557491e-02 1.746962202362090447e-02 4.549959081439846065e-01
2.208572674237853709e-03 2.044040138518463806e-02 4.472842880498637541e-01
2.062027632468649979e-02 8.708902188407774761e-03 4.468342711398392009e-01
3.007841050782127101e-02 3.931038541561358846e-02 5.171776879247924619e-01
1.193328391374395489e-02 2.653758801882353038e-02 4.516882498694148595e-01
2.586545810306844356e-02 5.503983253079207383e-02 5.152141601847335384e-01
3.526219535720320070e-02 5.299170258115352972e-02 4.959143410090344761e-01
2.637374928472966534e-02 6.702917992668164238e-02 4.956141280746076960e-01
3.126145491084750955e-02 6.927903614562182406e-03 5.294393699819432975e-01
3.520747444840120061e-02 5.264870136223341601e-02 4.981768892666006976e-01
1.656327539145014544e-02 7.671378332187701876e-02 4.823248394115083326e-01
-1.718579834962338099e-02 1.021326457353088912e-02 4.399776706242115032e-01
-1.887961870756079200e-02 3.466917332090079309e-03 4.381033052174546083e-01
-3.099765159050268254e-02 1.197844317967191805e-02 4.420064378792433191e-01
3.877714127942633038e-02 4.431171254122544256e-02 5.010116747208893662e-01
-1.944074267824682026e-02 5.318862247967768436e-03 4.384965331299902069e-01
-1.267482729834565509e-03 6.866000033702768235e-02 4.680479067358068179e-01
-1.013958004702693837e-02 1.533786932424595004e-02 4.431232959177811015e-01
1.433022959518692914e-02 4.818652422264217000e-02 5.279942444981226002e-01
4.222613203717238972e-02 2.595285335920259617e-02 4.708206419452761748e-01
2.802426154473337469e-02 3.238461634405524758e-02 4.605088687522838620e-01
2.638404215361698016e-02 6.637601142798336962e-02 4.780455773315026580e-01
-2.043697888035755743e-03 6.179182029633176199e-02 4.615326562419755918e-01
2.877068075620709334e-02 5.514708814361775346e-02 5.111644779289933327e-01
3.842782702913512261e-02 4.642524475844230641e-02 4.999188605971912058e-01
-1.718711509075582190e-03 2.101324744350105411e-02 4.467740192407294031e-01
4.148195875283496037e-02 3.579982969274165400e-02 4.768572662300751275e-01
3.858298199891782576e-02 3.756343169767286522e-02 4.727892001569334868e-01
7.398219440987309319e-03 6.117637461498318108e-02 5.294665980698071150e-01
2.063482215896364838e-02 4.150338633362345153e-02 4.609195066030117860e-01
1.996100630505243112e-02 4.722183531884963786e-02 5.231669963997350736e-01
2.358754781823655874e-02 2.463444840609615299e-03 5.324659284230115475e-01
1.796098817138719328e-02 2.071724669777954414e-02 4.506258647258518657e-01
-4.324560590430992155e-03 5.305358379603501706e-02 4.579525416036106522e-01
1.698851580830924510e-02 6.344550223270874201e-02 5.176954435480221051e-01
3.230488508615420029e-02 4.892739030328269179e-02 5.100975336747137767e-01
2.235009353297900958e-03 5.615346419270788453e-02 4.598536587974874634e-01
1.275911381276787458e-02 3.951666122814791703e-03 4.426498727912039355e-01
1.328335570171594766e-03 2.392488701583382008e-03 4.400477225462209319e-01
2.026683828107790630e-02 4.773542146649703555e-02 4.632892956907869730e-01
3.946583237868675487e-02 3.210256685850688269e-02 5.045968914332832345e-01
-4.218918310085919415e-02 2.852192254121749954e-02 4.486930734549240407e-01
9.317688527563393330e-03 1.806406340382171391e-02 4.476791170533371833e-01
-4.537828538912996520e-03 3.550852178166780115e-02 4.522336067507745638e-01
1.073085343174473572e-02 7.000230308078773944e-02 5.009048352339149357e-01
4.285479374478957937e-02 3.627112189356044430e-02 4.907927103339412289e-01
1.488342863247588480e-02 4.363459159076021887e-02 4.595770789839251913e-01
1.655825217805758157e-02 3.652766471851034980e-02 4.571531378848207039e-01
-3.375134834376103486e-03 1.918957168314551834e-02 4.457390922389862786e-01
-2.109553616324973471e-02 6.150763097870842570e-03 4.387386973940518575e-01
2.705790941930256641e-02 4.959222608673357485e-02 5.159760450739662163e-01
1.818009929104869721e-02 4.426899255445972126e-02 5.276589336757675497e-01
-3.504859336362594387e-04 5.866102806210662934e-02 5.270100383328951699e-01
-6.644252486672061822e-03 5.295935497479626469e-02 4.577457893390106669e-01
2.498323697208205268e-02 5.140365343906291851e-02 4.676189018596754732e-01
1.500889157740926960e-02 5.700649771523934317e-02 4.642940294144339841e-01
8.596988023396007206e-03 6.302487666457572135e-02 5.150643411153460471e-01
2.176769566222964622e-02 5.173565528842639927e-02 5.195290479789617111e-01
3.502070419541562091e-02 4.456697139392555573e-02 4.727091821098605706e-01
3.519643179825548279e-02 3.549178344271597396e-02 5.120485144037155711e-01
1.763896909041729605e-02 6.923086580559131842e-02 4.707372350601330413e-01
3.733447492571800863e-02 2.794254188267682182e-02 4.651612031740069986e-01
3.272137031455268213e-02 1.959651239401965020e-02 5.233155367813406844e-01
2.607400780864198298e-02 6.708521074222451031e-02 4.786378108531211262e-01
-6.747100807216716879e-03 2.293715199663946824e-02 4.466007983081560218e-01
1.315216667306381287e-02 2.859819006839280434e-02 4.528026364091775613e-01
2.238336361825709470e-02 4.672610679761445701e-02 4.639822075421440317e-01
2.731863795801972930e-02 6.720709551021611383e-02 4.904644137368772139e-01
2.681379566228984067e-03 6.143868319417197799e-02 5.277914421211535867e-01
2.973337905837361225e-02 6.273039671392971472e-02 4.951751043184691170e-01
1.853680743180543405e-02 7.982737641938658646e-03 4.457361374601253035e-01
2.683687027720918494e-02 1.392132333576299834e-02 4.516348458640721542e-01
3.976436816396224094e-02 4.497307648678082470e-02 4.927417885334912651e-01
1.525948606442709132e-02 4.338461226384499742e-02 5.323190458958918514e-01
9.032550873756903936e-03 3.086343076602853300e-02 4.528378734452748744e-01
4.101989510826394014e-02 2.505468141989209557e-02 5.056213441925258012e-01
4.439524587219075002e-02 2.273467014221096025e-02 4.981631880631496867e-01
-1.874226226508528964e-02 4.153638483523368341e-02 4.530339047783179529e-01
3.389755422331413443e-02 5.645464270362634401e-02 4.851902518166164580e-01
3.910748493155734307e-02 4.459157382754549981e-02 4.806467326883389068e-01
1.318141403741680644e-02 4.678312998358286068e-02 5.307718509541820007e-01
2.777923865085294916e-02 3.546315642208457131e-02 4.618966962816895561e-01
4.225333224168262292e-02 2.340458586964360571e-02 4.693027572859159169e-01
2.095492004459580115e-02 6.839079294319219682e-02 5.039251071034848151e-01
3.367900582119102287e-02 2.306324189112968215e-02 5.217369837824700207e-01
-6.632716373322994352e-03 6.103264820982749750e-02 4.611352603461771338e-01
3.003184340809684008e-02 4.406134648667179438e-02 5.149199395561776527e-01
1.107736594712504293e-03 1.738269112283607684e-02 4.458535919119330226e-01
1.310716141472098931e-02 3.917539347561437707e-02 4.571896770580989311e-01
-2.570473518315342931e-02 5.089974909101829814e-02 4.579336836502490571e-01
2.940358073919353485e-02 6.454136459888060173e-02 4.859590559036701674e-01
1.282478313528711417e-02 5.427626316248806981e-02 5.263612546307498974e-01
3.617776917037840434e-02 4.956261002717501918e-02 5.017689830547711338e-01
2.199743111198463469e-02 7.385233487050275880e-02 4.848976794951774250e-01
-5.659679306198123205e-03 1.010505397241212404e-02 4.418424413331427103e-01
-1.093330826881087729e-02 1.266829640530461702e-02 4.419819286863959640e-01
1.041325104012606577e-02 8.194968862414820504e-03 4.439128884730179636e-01
2.393212989918938258e-02 6.859475575479749565e-02 4.986442633875330932e-01
4.065896267656625429e-02 4.039010250802045621e-02 4.794333046317775238e-01
3.174166447986465078e-02 2.685743762484856662e-02 5.233786575797308993e-01
-3.475549482849414618e-02 2.229247456861560214e-02 4.454135024549357724e-01
9.787075479494297681e-03 2.774201427434113201e-02 4.517253264885649489e-01
4.020039604504527936e-02 4.397432245527221895e-02 4.924016499750203946e-01
-2.402699489994184617e-02 4.566408487476573269e-02 4.548582662531377996e-01
1.622286634487324353e-02 1.368977456312819342e-02 4.473638528047375607e-01
3.394350952694097368e-02 4.425113055892072184e-02 5.101163284059686553e-01
1.979784278952041385e-02 7.571289900495183078e-02 4.846536283040480120e-01
3.844147448990915122e-02 4.281799542869652725e-02 4.770437315974298542e-01
1.121429774192750882e-03 1.345752282213337307e-03 4.396455053063636487e-01
1.700034189508278434e-02 4.351981808391276046e-02 5.303750505576299012e-01
8.405159119705366000e-03 5.066132296470546303e-02 4.599890520291629592e-01
-7.554852495278317412e-03 5.054947129564094782e-02 4.570712694072390780e-01
1.472853986016802591e-02 6.491315577189550601e-02 4.671832077183169507e-01
-1.704986710415737003e-04 3.414823379491964406e-02 4.522996375101175914e-01
2.173895609398335954e-02 6.254626201483026726e-02 5.135632550579325439e-01
1.398908764539598046e-02 7.479859733664373511e-02 4.937965262765959262e-01
2.340429851004643610e-02 6.783695516356473554e-02 5.013889044470664080e-01
4.506458858252193611e-02 2.753569195745647277e-02 4.892201548085240437e-01
1.276421302257727507e-02 4.744037171199301517e-02 5.304884540262138071e-01
3.747882683546487764e-02 4.024320645197573126e-02 4.729915571013535991e-01
9.257749018316132478e-03 4.044596686770202815e-02 4.567462030268690243e-01
4.132463859880083218e-02 2.222118984407688708e-02 4.667401901388231744e-01
1.062465487182975149e-02 1.325123963245510537e-02 4.460217600800534532e-01
-2.526346902009777087e-02 8.638835242829276742e-03 4.396784066532286595e-01
2.601553242684858172e-02 6.502340501821500529e-02 5.009526710112716108e-01
1.746397916940164649e-02 6.331134080167480360e-02 5.173032105209250942e-01
2.281745384797579518e-02 5.604237955508761804e-02 5.179515704301741463e-01
1.833303214598115335e-02 7.633120453251208970e-02 4.850788573360595435e-01
2.077516055620233504e-02 7.248561391119445751e-02 4.775525940623028265e-01
-2.642356356797384218e-02 1.650874709610513150e-02 4.424369081593044206e-01
4.466704457582196947e-02 2.516141121494766195e-02 4.766255489677759805e-01
4.400849341487384631e-02 2.532593340184853201e-02 4.968993682244259302e-01
1.188787121526073756e-02 6.254334416200199587e-02 4.649918303913986861e-01
2.058440724917675116e-02 8.799151856145367989e-03 4.468581648471397494e-01
-2.201426889278685836e-02 4.152514841009107005e-02 4.527811813451877443e-01
2.450207754292669377e-03 2.720559192986050576e-02 4.500293393634036132e-01
-1.904405556825911755e-02 5.963384408857434760e-02 4.649702988854057528e-01
-1.859208621213510534e-02 3.895860506498873693e-02 4.519901579648875622e-01
2.783255577653948737e-02 5.854270383918624976e-02 5.095511886569146220e-01
2.369421987564368157e-02 7.036984758294104192e-02 4.957336050113411718e-01
1.040808330512051072e-02 2.068903041322782757e-02 4.489776950676233058e-01
2.633372746991546193e-02 6.904540269371750583e-02 4.854836734480165727e-01
1.845092183344443013e-02 1.058676761350246451e-02 4.467879999797721990e-01
-1.495071680072554941e-02 3.993761957169800203e-02 4.527518186594577387e-01
3.924822116878966954e-02 4.609347220755907054e-02 4.872722645002253161e-01
-2.546225012997793344e-02 5.962347539307912350e-03 4.389080516554334510e-01
-1.934710340016474947e-02 1.248281191070835239e-02 4.408122446024502206e-01
2.830375203659282052e-02 6.909739644106631558e-03 5.303084311827003239e-01
3.390768904898522340e-02 3.648017167870064303e-02 4.664700561192178241e-01
2.673551255039219310e-02 4.588014516981150231e-02 5.172459218441475270e-01
-2.056466659382440859e-03 3.849871225193175761e-02 4.537058635212137259e-01
4.397086020009331048e-02 2.349738025533733288e-02 4.987981326001432736e-01
-2.570910368910411803e-02 3.261653893781683161e-02 4.487278322479716364e-01
2.336332502461486646e-02 1.619692052908434585e-02 4.507483846609594003e-01
2.598255478034248306e-03 1.136013004175513708e-02 4.437206991013765145e-01
2.527401672036185334e-02 4.334606778256216292e-02 5.200416824940796712e-01
2.537530767443183649e-02 6.432850339985730914e-02 4.743707264601815243e-01
-9.114613747153962539e-03 8.991795072771863531e-03 4.409043644934272366e-01
3.670270043846785707e-02 5.047287324011334730e-02 4.942422410420060364e-01
8.252579412961346880e-03 6.253943148819267328e-02 5.221854563338994559e-01
1.502561398069806632e-02 6.704214578002194724e-02 5.090134721253970485e-01
-2.299143877817383039e-02 2.547457712381656289e-02 4.458257492032461355e-01
1.702717362851575642e-02 6.531403572242522326e-02 5.128062847303168637e-01
-5.212196200984268828e-04 6.235605026099697024e-02 4.621717801464181319e-01
-2.522788436540957663e-02 1.083142670891751314e-02 4.403908918937059491e-01
-3.633415947914168248e-03 5.716275308459220494e-02 4.592225582720474431e-01
7.839492726992931988e-04 8.222671560597962989e-03 4.421315642507039900e-01
4.409287752916163892e-03 2.579129000996596005e-02 4.498345461745436036e-01
4.328436532516673901e-02 3.259263919774062213e-02 4.815710606013442474e-01
3.855035128785839343e-04 6.286005211564507644e-02 4.626196829470582417e-01
5.231961670699640174e-03 1.980189096157520395e-02 4.475972062421631481e-01
-6.134231028652535611e-03 3.703633337177882068e-02 4.526558137430226059e-01
3.683700652084954952e-02 2.735301422779050362e-02 5.138398293938026828e-01
1.232363368085058475e-02 1.138872741941369601e-02 4.456105501526760326e-01
-3.212465326789676334e-02 2.915927567927175182e-02 4.474980582434098797e-01
2.724821164394312240e-02 3.990580042751724205e-02 4.637258865453525170e-01
3.225772573968697238e-02 4.664434141503151499e-02 5.115271076758103330e-01
-2.361347436363678623e-02 4.401731064387637976e-02 4.538550083355683551e-01
1.342301745196467465e-02 4.073562740012106470e-03 4.428279929624081568e-01
-7.263931627991121291e-03 2.391879252389110880e-02 4.468958570688813525e-01
3.325214801551410609e-02 5.770874375346485979e-02 4.861234872931046169e-01
4.205122560761200001e-03 1.483233361688059138e-02 4.454121576497499513e-01
3.843535231218523501e-02 3.213484170951096119e-02 5.071190986257356759e-01
-9.981459363122849315e-03 8.028361207927619050e-03 4.404485280778957512e-01
1.469349413590094987e-02 3.267840682458613560e-02 4.549700303881309416e-01
2.900925924151062998e-02 6.410630853265254780e-02 4.936258632931972423e-01
2.803203400900540140e-02 4.281379148304614163e-02 5.171162275997540636e-01
3.093042934692815521e-02 6.180634711816883342e-02 4.921092399584406918e-01
-1.537667176924013834e-02 2.345476255059669723e-02 4.454633911872733498e-01
3.567142551997332101e-02 5.218827737307019099e-02 4.958050918158465881e-01
1.132625600080475713e-02 2.044281604654967985e-02 4.490748233663680589e-01
2.940327031662160612e-02 2.393451896269539747e-02 5.251672498874370154e-01
2.589696476937290714e-02 6.093413102961934419e-02 4.728600665516893287e-01
-5.899071441483744183e-03 5.247374986123427842e-02 4.576516187895983134e-01
-1.809442434746553509e-03 3.257307977557415742e-03 4.398552747166469268e-01
2.178965083546021558e-02 3.518671049333035872e-02 4.584668758561362689e-01
1.555043979229318168e-02 5.204630116735572964e-02 5.248401339237492857e-01
1.558770334943604917e-02 6.331368284994082218e-02 5.191723211139486205e-01
-1.407577812478239855e-02 4.920509804197071430e-02 4.563598055899742434e-01
3.294978631672265679e-02 4.636929934555545502e-02 4.717113641591610951e-01
3.415758936254430223e-02 5.212238914324651001e-02 5.040583530194480133e-01
2.661045649098504190e-02 2.627347808884333835e-02 4.569016712334834640e-01
2.210862055336010670e-02 7.249495059023747245e-02 4.805550075006586597e-01
4.225726479751180237e-02 3.258702723665943268e-02 4.759539779596481113e-01
3.327219208629454694e-02 5.507825632755727896e-02 5.006563061966748940e-01
2.208172200259867282e-02 6.665609909626536711e-02 5.050538072929704470e-01
1.498582257073919830e-02 7.054348514331550135e-02 5.043612237841279544e-01
2.378764985476842370e-02 4.574274319554037099e-02 5.199161943494096105e-01
2.038594532726649769e-02 6.531762297742284284e-02 5.093963208509603158e-01
-2.180190759424311883e-02 4.409239964220571656e-02 4.538668156314012991e-01
2.595939157559078864e-02 2.555913792203212340e-02 4.562452750513685817e-01
8.222835340158647296e-03 1.110384783034865097e-02 4.446802463044631226e-01
-9.710520934735143717e-03 1.309767915140705279e-02 4.423400486896521544e-01
2.919947870420580571e-02 2.626803063740778751e-02 4.583083250501413519e-01
7.490611963575602439e-03 9.245934239112121519e-03 4.437843617375265004e-01
2.586980242626077051e-02 6.176726917913215320e-02 5.086970818113013548e-01
-4.949979156696850124e-03 1.216110820535076451e-02 4.427291328877359100e-01
3.958778348427346300e-02 3.888645204117369830e-02 5.031525290120097971e-01
9.496196136415654965e-03 5.593166591016459493e-02 4.619797658219549907e-01
1.122683232684000033e-02 7.319277061852844102e-02 4.716600319053009249e-01
3.045104371268807578e-02 1.948146355807868838e-02 4.560302271545226271e-01
6.751038789297519709e-03 1.620638078455880968e-02 4.464440296120838481e-01
-1.211298295363571684e-02 1.372103968795337220e-02 4.421904807036470819e-01
-3.686339413312841873e-02 2.934273025100648732e-02 4.478580545902480781e-01
4.141545557198855754e-02 2.896387161255179615e-02 5.016782233309770023e-01
3.951575576761633818e-02 3.210714269899222345e-02 5.045177538542509055e-01
4.380398028758836909e-02 3.277006673484694765e-02 4.885859674503549299e-01
2.915645994573300148e-02 3.621838684874202630e-02 4.631467211992852939e-01
2.084738987953396738e-02 5.308432496020062258e-02 5.198837997531998711e-01
2.364843881575168227e-02 3.919074941919246935e-02 4.613410601062034044e-01
2.083157529671232633e-02 7.356634926671204444e-02 4.795089336480056197e-01
-7.878518441768827402e-03 -1.255493268475143046e-03 4.376826953113748808e-01
1.088949010226597340e-02 4.599841837691605317e-02 5.339367277445483673e-01
-1.871588413159267980e-02 4.479908612475410126e-03 4.382940989189093584e-01
-2.590186534416462696e-02 3.040454611501521368e-02 4.477889830085849954e-01
4.157818055787698697e-02 2.966330677822637610e-02 5.007241639852773041e-01
-4.192472346768395808e-02 3.641724402480963491e-02 4.517047905924878037e-01
2.036611948782908466e-02 7.257536113199091789e-03 4.461326700003150347e-01
2.597276358491342613e-02 5.389152979460511139e-02 5.159200091419606782e-01
3.461545509876062798e-02 5.130208908011681807e-02 4.779547835896018615e-01
2.451497628674825097e-02 7.134974331682407411e-02 4.847682406418960532e-01
-1.944874624579785022e-02 2.359100269420436394e-02 4.451518342982230814e-01
8.423517837282552476e-03 5.115762546105034891e-02 5.317495899097626211e-01
2.051774331943351411e-03 -1.057974586001309697e-03 4.389976393653437503e-01
1.974250216837788313e-02 6.094706282982138845e-02 4.679548461082037036e-01
1.325303009545268293e-02 7.593708484269194592e-02 4.868377104615477791e-01
2.842340959560678282e-02 2.137036093203720927e-02 4.556526868945111053e-01
1.140882184398576624e-02 7.494291839200065142e-02 4.903714925998737817e-01
3.522975218095709959e-02 4.532461931779149106e-02 4.735497702587542768e-01
3.001750501654501871e-02 6.263950130797162064e-02 4.940483974011231072e-01
-2.352365394940807847e-02 4.441272160506593708e-03 4.381749320997471164e-01
2.739638812764207815e-02 2.211533628907845841e-02 4.554401096783076697e-01
1.735601857835428197e-02 2.940229942760221038e-02 4.543602698180496113e-01
1.134823928108821475e-02 5.077657336001147742e-02 5.295092869297942650e-01
3.001410136109215060e-02 6.102577949196557466e-02 5.004407198744700302e-01
7.980864069057021226e-03 2.352119849944209803e-03 4.412089485396949451e-01
-2.120183476345952750e-02 3.815823511256274253e-02 4.514051683363410339e-01
-6.662135144085418528e-03 1.022261930018086157e-02 4.417302035684237405e-01
-1.392825295025529146e-02 1.581474277109937848e-02 4.426890253906604622e-01
2.094881475056262904e-02 6.692842705373901191e-02 5.058522089338890471e-01
-1.837862812951258917e-02 3.786991437667856786e-02 4.515314453295583563e-01
2.192825179550182690e-02 6.478812387620924707e-02 5.090568931364941596e-01
-6.869239731285461947e-03 3.845619379645880825e-02 4.531256390334326145e-01
-5.488138105590187679e-03 6.185765078631831615e-02 4.616429736983839183e-01
2.833685636420327919e-02 3.404566713266281991e-02 5.248390853165024739e-01
2.287079344956041704e-02 5.171774748854624654e-02 4.663056671314977919e-01
7.929316739462628771e-03 1.584899550140568547e-02 4.465279253753218769e-01
2.202473666338414238e-02 5.506125820008499899e-02 4.670402841311641073e-01
8.736808745609645627e-03 6.323140728054742199e-02 5.135654933771754971e-01
1.618182784814653930e-03 -1.348512019727805822e-06 4.392767121889927795e-01
1.755791727366463537e-02 4.430020109481166979e-02 5.287548389606453458e-01
1.356356615124071699e-02 4.049781127666147312e-02 5.329529335996715522e-01
2.837930206766477864e-02 5.601731151681692972e-02 5.109636476945059735e-01
3.232571653852800431e-02 2.766494826211605279e-02 5.226227900597099074e-01
2.023386717443733870e-02 6.747127388918673641e-02 5.057789069575101548e-01
-1.592434478687462102e-02 4.624146725447628864e-02 4.550714404998253415e-01
1.762218080781324803e-02 1.483996743928244974e-02 4.481406510053156933e-01
2.292028361012315302e-02 6.146720220488806341e-02 4.706425005809623530e-01
-1.436126638562411524e-02 1.592129752465502868e-02 4.426597358781204639e-01
2.413715733802997143e-02 3.146634300407767648e-02 4.579435301735615971e-01
2.960818894230708015e-02 5.766302596899998412e-02 5.078961391436001005e-01
-3.099535351836713026e-02 1.491458433945108165e-02 4.427359401724809684e-01
1.584080759503758012e-02 4.361033014565595528e-02 4.598619345327175090e-01
2.624658928710177017e-02 2.883407719291841004e-02 4.578620941326021487e-01
3.786898911946273705e-02 4.898167111051565659e-02 4.890654477033256065e-01
2.330525180684905190e-02 5.405217990474076029e-02 4.676046014027251951e-01
1.836132670257034638e-02 1.821515404811406211e-02 4.496799208347685983e-01
1.690187303935215823e-02 5.158760780996660827e-02 5.237665516195120219e-01
4.269697189289238526e-02 2.059814118563779717e-02 4.684587499480761807e-01
-1.600199112734967608e-02 5.451219037747337577e-03 4.386884846763456358e-01
1.025136006488331676e-02 4.632063621673594006e-02 5.342356493428372932e-01
2.441059892706666512e-02 6.278744812116382468e-02 5.094774009184454000e-01
3.901897181024800709e-02 3.472176566171649575e-02 5.052536614732222597e-01
2.439574930535796243e-02 7.166419188035449972e-02 4.886403548863155200e-01
3.550667869634464846e-02 5.185700467147518616e-02 4.810778784777299810e-01
2.756285769395402235e-02 3.578055789083150334e-02 4.619208762041825955e-01
4.258095044098880733e-04 6.017639590663048654e-02 5.289436688064433900e-01
1.875789434766881453e-02 6.997746855374470387e-02 5.040208616810504250e-01
1.957502154174413714e-02 7.099052931982963166e-02 4.736045046564421046e-01
1.317955063393371450e-02 2.424988131975054639e-02 4.510278779403934513e-01
2.985641585680256366e-02 5.639051970148899195e-02 5.086321681773185999e-01
2.337649054317898767e-02 1.495399717314484407e-02 4.502355012371264120e-01
3.570084407812521010e-02 5.228777035646441085e-02 4.949926509023399590e-01
-2.342771377041267394e-02 1.600008093332783154e-02 4.421509103799076135e-01
1.745162616712826048e-02 7.381628612996070371e-02 4.981337164658197203e-01
-3.820377455489026852e-02 2.652952729935904863e-02 4.473295056391004554e-01
3.421084424562749124e-03 5.810505271894007145e-02 5.324798591640570455e-01
9.661991691098903781e-03 1.275132311241981321e-02 4.456250411350460294e-01
2.615040098235263399e-02 2.742316939943532580e-02 4.571797535490779163e-01
3.731014694103850643e-02 5.013105863347001867e-02 4.874218038749869586e-01
-1.154031426609230734e-02 -1.450028489772040539e-03 4.373451472153982444e-01
3.878956411450831809e-02 4.416318606539066521e-02 5.011022185544584673e-01
1.068838371006371364e-02 5.591154188652818630e-02 5.273647651793871294e-01
4.318027204517486950e-02 3.450185965982027758e-02 4.867485254990977506e-01
9.824628893769213334e-03 6.220466153404762000e-02 5.246439918742229480e-01
4.425157933334235294e-02 2.584519623493750085e-02 4.757513956132154442e-01
3.207238067477489324e-02 5.288530606403067658e-02 4.746689776849462028e-01
1.717846719968982956e-03 6.003224305693891094e-02 5.264554886929165844e-01
5.480964811613341266e-03 5.985058401898985664e-02 5.309440124942469419e-01
-8.693281267197244117e-03 -6.850288250638126089e-03 4.366568391286536066e-01
-2.382133591447740256e-02 2.602536022365893945e-02 4.460594164972616626e-01
-3.286074708057091370e-02 3.682896295085651833e-02 4.506049702827965575e-01
2.440820482507961159e-02 2.974301159436178871e-02 4.573403097337271350e-01
3.921428033781640399e-02 2.530501392858097720e-02 5.095578257325839022e-01
-2.221146550336591460e-02 5.876300430554474985e-02 4.655169547327733248e-01
3.201688927333297408e-02 5.377189661191886239e-02 4.750518885050792894e-01
2.330944752733739994e-02 4.728664921319773035e-02 5.197654743083308659e-01
3.123293578174969956e-02 5.738853283528538157e-02 5.035703280096200940e-01
3.896209782984914882e-02 4.610707058267468628e-02 4.965438555964103440e-01
3.077256977585694775e-02 4.470025575427054310e-02 5.141763713900571187e-01
1.377321766126262531e-02 2.874987852282098050e-02 4.529987029297478651e-01
2.702763537915137820e-02 3.449060043100758699e-02 4.609355729932460011e-01
-1.608706262158366221e-02 2.152663920941471493e-02 4.446286121639696498e-01
7.481081077680232574e-03 6.231137849382149818e-02 5.238018939709102595e-01
2.493627280070655899e-02 5.983776165909138883e-02 5.122921505238573481e-01
4.139440906218261329e-02 3.397085012420803657e-02 4.751465402030901619e-01
-1.282861469026793863e-02 5.114695090496669018e-03 4.390430928020482293e-01
2.934782824300986512e-02 2.589186241203641006e-02 5.248575171589729971e-01
3.680016965740834367e-02 4.768255237345367381e-02 4.790365237714488411e-01
1.885211413843423250e-02 7.508435519946013437e-02 4.935713837953990546e-01
2.087897045553135239e-02 7.241753735340793197e-02 4.776181277116096635e-01
-2.458770429264758514e-02 1.756154843622604114e-02 4.427465691242664647e-01
3.758659927332602679e-02 4.179804635914569771e-02 5.060517798238888254e-01
-2.122900891716470936e-02 3.105968555215778484e-04 4.374644359016863215e-01
3.255211272819678869e-02 5.919858353708152415e-02 4.881051472157081350e-01
4.967429558697101372e-03 5.703544408926352477e-04 4.400566928395562849e-01
-9.794653490811766616e-03 1.455138690287075681e-02 4.428827620213954264e-01
-2.112266218190003708e-02 1.341086539144768081e-02 4.411804258822473179e-01
4.107823813472247232e-02 4.008048041511473591e-02 4.969444442571346876e-01
-2.111262575958637935e-02 3.171591276384656821e-02 4.485008374239998763e-01
3.776604694721386740e-02 4.360210505356701405e-02 5.042354028836946167e-01
1.229965047215371421e-02 5.147492146505990712e-02 5.282493227128773894e-01
-1.924967847684317876e-02 5.744915985234942679e-02 4.607711203182553450e-01
2.363979206835066169e-02 1.842660628309992880e-03 5.327158274753995837e-01
1.052235281941545433e-02 6.288564144988631477e-02 5.201215695097605174e-01
9.624537691983299503e-03 3.747103957074369301e-02 4.556623283393183010e-01
3.477391638286798231e-02 3.400698076198477304e-02 4.658769862615231849e-01
1.396366603551107109e-02 8.695246282230577675e-03 4.448876399500155676e-01
4.255523401548686434e-03 6.060115660249800612e-02 5.239153418847465327e-01
2.969546644341392039e-02 5.798570661265427251e-03 5.307023575501312873e-01
3.042664573318546936e-02 7.835230981978190054e-03 5.286514796171246644e-01
1.106412733062928262e-02 3.946199397419075661e-02 4.568086830256861131e-01
2.296119639502057150e-02 2.842995918449264456e-02 4.560234205172309374e-01
1.072113711334151537e-02 7.591031684941862596e-03 4.437256053087805796e-01
3.119599603528385931e-02 2.760238411069605713e-02 4.601259673511519654e-01
1.172238810883880628e-02 4.272403376442511502e-02 4.582712359838567728e-01
3.968265855285640908e-02 4.505979313368890793e-02 4.935306898151962107e-01
8.683770267960629757e-03 4.736800228302957133e-02 4.589992289663584191e-01
1.133300901732162136e-02 6.790016666256896982e-02 5.060801035327058273e-01
-1.826556768855790158e-02 1.373025311244498864e-02 4.412529457948800582e-01
3.683854253826693292e-02 3.541580070808653807e-02 5.089125690154381321e-01
3.040349054185247438e-02 3.679027839245060938e-02 5.175054977246881238e-01
3.151862730433863113e-02 4.628435024624419358e-02 4.701519697839013356e-01
1.318743745885708231e-02 3.881086140152013864e-02 4.570685739410035864e-01
4.482783077434873698e-02 2.860093344101394958e-02 4.891509849430611401e-01
4.062165184848088445e-02 2.303787279003248478e-02 5.076653464262119719e-01
4.784210262872451783e-03 5.350497446051388772e-02 5.347895040661333477e-01
2.310705672147722253e-02 1.524349623141217983e-02 4.502219463705021685e-01
2.770636590637670302e-02 4.625242516184378122e-03 5.317602930988406529e-01
-2.481627634133050375e-02 3.141986950658068323e-02 4.482183053923708416e-01
-3.538306567536976532e-02 3.896979376065238393e-02 4.518277907859319376e-01
6.857981099705754043e-03 7.489759455988939663e-02 4.803025630852176819e-01
-1.858415081781339753e-02 5.329494275473734000e-02 4.580121856133219649e-01
-1.254349408997953476e-02 1.309233211005070459e-02 4.418842157447422925e-01
1.759627177808797786e-03 1.076390958490726357e-02 4.433310259122811847e-01
1.252193441552131199e-03 6.090538584522803278e-02 5.311541596263068543e-01
1.100954696119674572e-02 4.924352456792133181e-02 5.305919007439900970e-01
-7.371911852519223707e-03 4.830697027801622578e-02 4.563332090671628483e-01
-1.998185487226957976e-02 1.309556322952826202e-02 4.410476282066719267e-01
2.057335103858871569e-02 7.472774093432198173e-02 4.906437796182349653e-01
4.279170134563359262e-02 3.361843372416578601e-02 4.946505880987147608e-01
1.865371671589270697e-02 5.387981241421591766e-02 4.647874305111391879e-01
1.322552431057823046e-02 3.703065010315007705e-02 4.563702253701626410e-01
1.406455066243818448e-02 7.755110039766421881e-02 4.781791336824284810e-01
3.368170562937964491e-02 2.387199783135011272e-02 4.600618800255260044e-01
3.814708495442347552e-02 3.056765580859886061e-02 5.088698152349008241e-01
-1.430046076327846222e-02 1.068479451146669805e-02 4.406547767605261678e-01
2.114541461638194675e-02 6.956640191228849468e-02 5.019402084813082698e-01
1.933668144765977176e-02 7.443659122843752918e-02 4.787180842246095414e-01
4.265687468710942232e-02 3.488305366537459290e-02 4.939726561941978344e-01
-3.717188288285332154e-02 -1.631170533812928251e-04 4.400224363893970314e-01
5.070182191758532998e-03 6.794170622974388118e-02 4.660822772949905768e-01
1.411868725766021043e-02 7.649752865605509433e-02 4.854788357014619971e-01
2.621988237056826002e-02 3.159544660502539709e-02 5.271470451463149409e-01
3.864688795101369617e-02 4.082440638880349693e-02 5.042377587094660774e-01
2.645354978878976596e-02 4.500639837987083225e-02 4.655916664458856213e-01
-2.698527540553557688e-02 4.392094739216572535e-02 4.540007522920806449e-01
-5.545744495168754978e-04 6.253430257090704381e-02 4.623129270195400764e-01
4.262075294083945282e-02 3.429284446057156988e-02 4.798680207663171826e-01
2.064998019538230242e-02 4.594049497578842067e-03 5.315021127939630885e-01
-9.386551857995058604e-03 -1.854355171586502841e-03 4.373749207005172002e-01
-1.130352831533442369e-02 4.419941812547269200e-02 4.547039963380543059e-01
4.093060949500033907e-02 4.168896356838683315e-02 4.869896364287690793e-01
6.331975173629425177e-03 5.136333092446420528e-02 4.596148165190486745e-01
1.306128867622584691e-02 6.393163537813582875e-02 5.167620882771560842e-01
6.697751188919346364e-03 6.085486135507664485e-02 5.209029678842254096e-01
1.211801577989258735e-02 6.505091630049675278e-02 4.659909721943295002e-01
3.701605598354052590e-02 3.634900688342541930e-02 4.690628018960206758e-01
3.737375600048960245e-02 2.740488549510980421e-02 4.649178610981187787e-01
-1.106795776741658667e-02 6.092828400020086632e-02 4.621440821407710731e-01
4.520310434894517226e-02 2.399353842255749075e-02 4.777889236573133469e-01
1.047033616553382646e-02 7.260269099424002115e-02 4.706113050195745995e-01
3.462676958558118939e-02 5.132383580097314019e-02 4.780119532450098352e-01
2.322924913732960644e-02 5.980346320671948990e-02 4.700771119574503887e-01
5.671276943737778298e-03 1.996038560840944845e-02 4.477433116073778474e-01
9.399568735259258498e-03 7.296946113837318379e-03 4.433550944272086070e-01
1.105540611015749450e-02 6.214593315259728246e-02 5.244518470761849738e-01
1.420223687593464082e-02 7.890381202679428926e-03 4.446308347905266189e-01
-4.452936235181006314e-02 2.993501985586538225e-02 4.495681636015921301e-01
-2.175339728510797613e-02 3.312649323861113770e-02 4.490673072575768754e-01
2.287722580852567453e-02 6.635519718040787385e-02 4.729970163959474894e-01
3.344134406468476234e-02 2.449202276701731296e-02 5.218524202362518905e-01
