1.623302959087346772e-02 5.540200800317039015e-02 4.642006437350104098e-01
3.173062403082784616e-02 5.558907430702896696e-02 5.061152120491683171e-01
1.565425542843725676e-02 5.505451055826666995e-02 5.233438067947420169e-01
-3.055144720480920326e-02 2.060577293796356235e-02 4.443369920875158141e-01
3.398510062486952144e-02 5.660861166581693943e-02 4.906988344358344523e-01
2.910612445545394250e-02 5.576906421825380405e-02 5.101622300108732411e-01
6.488411516458220292e-03 7.160076946275790999e-02 4.706010877127518865e-01
-3.898493064478151388e-02 2.535886230561964008e-02 4.471774050122593880e-01
4.044448528325633035e-02 4.303884451619350432e-02 4.858613199163464014e-01
2.657656493479199078e-02 6.599893163533886165e-02 4.975133361931365350e-01
1.458281178269833257e-02 4.688622206945933235e-02 5.285348886188508954e-01
4.447313002105110491e-02 2.585978789982715242e-02 4.953604417256383119e-01
2.772896276646577562e-03 1.967364714687437274e-02 4.470679879767265885e-01
1.548859634329466904e-02 7.049400619231271925e-02 4.701832583560347500e-01
3.558210168699142348e-03 7.061210808907718295e-02 4.706458924337474925e-01
-2.042079679944586515e-02 3.625717813942309908e-02 4.506105290867715718e-01
9.058589667656271119e-03 4.292140022500967600e-02 4.575540195742316407e-01
3.618799077760649630e-02 4.485024997957430537e-02 4.744198388514342946e-01
-1.188180821855237129e-03 6.011860758999719445e-02 4.602881970091493580e-01
-4.073390181652526004e-02 3.817087281985320768e-02 4.529674960753919399e-01
3.834498788831879057e-02 4.746749959284011361e-02 4.940268727852255570e-01
1.499546562296100519e-02 6.361030136038976768e-02 5.175464950611242676e-01
1.354114635443485169e-02 7.734730468118615476e-02 4.835851343997987217e-01
4.473477160750793241e-02 2.950888119082673358e-02 4.882976661103075600e-01
-1.219233393592965287e-02 2.918116574411483075e-02 4.482597877404854159e-01
6.803216164037334882e-03 1.734810323625662551e-02 4.468901997458649689e-01
8.468267461769936333e-03 6.230732325180247944e-02 5.234022782428230380e-01
1.451223890308975598e-02 6.962164295919313906e-02 4.692743070391469096e-01
3.893473481912795853e-02 2.375051318463295563e-02 4.643153445986990535e-01
2.407361525286192197e-02 1.071903887831481689e-02 4.488723303811080756e-01
-1.427056493336655713e-02 4.580124894169258776e-02 4.549481688538559720e-01
-2.034175613433249902e-02 2.207577021038009679e-02 4.444707989983343044e-01
1.207799810035169868e-02 6.738905506575859627e-02 4.670591690133271134e-01
5.079301308882275268e-04 5.451448126905877878e-02 5.369970585054959500e-01
2.058155542482962078e-02 7.481146779123257207e-02 4.832308909241863071e-01
-2.520441272550241057e-03 4.732559002386153846e-02 4.564928946336277438e-01
3.973063738095641145e-02 4.385176023842105031e-02 4.819399762325744518e-01
3.202882825602539757e-02 5.944830907227301175e-02 4.817817440552524255e-01
-8.407362565138472299e-03 2.213473069866835063e-02 4.460082884522599822e-01
3.166158901638652795e-02 5.896697120280642440e-02 4.790377214846289200e-01
2.105314143895627849e-02 7.410939933561754012e-02 4.819385703208700078e-01
1.316596160868247975e-02 3.510992716081326459e-02 4.555236008689972915e-01
-2.793596227195795090e-02 2.837852157368466431e-03 4.385976791921948892e-01
2.917137106818326608e-02 4.037299136134188393e-02 5.176660476515660969e-01
-1.910754601099000187e-03 1.513271472811767923e-02 4.443945111943078397e-01
3.088293776852222422e-02 4.775692044103169165e-02 4.704360101934795813e-01
3.012641800305828482e-02 5.304615646778882559e-02 5.108489745453030917e-01
1.286431005717400934e-03 6.921029966953495816e-02 4.676221970033696551e-01
3.971563794754419396e-02 4.494193381420018285e-02 4.954291532724141023e-01
2.927856346333684856e-02 4.685381493500696826e-02 4.684820664756598751e-01
3.318192956309696379e-02 5.602624159448396646e-02 4.992687959496800998e-01
4.608552666303323414e-02 2.329431188548235568e-02 4.832852527492776384e-01
3.132755966731010783e-02 6.047886313308980383e-02 4.958693472165817684e-01
3.030565803850363352e-02 3.667994196310474242e-02 5.180405539274327564e-01
7.097889243313572002e-03 5.066742552303431929e-02 5.347222280863105359e-01
9.826195210343070460e-03 5.907533728171958896e-03 4.428623653128033744e-01
-5.075554129544690429e-03 1.655747345718326657e-02 4.443950487837204921e-01
-3.578793102679507510e-02 3.381718115605691216e-02 4.495119589464180998e-01
2.092162111937007421e-02 7.472994642090477480e-02 4.841892726881914522e-01
2.203468978352276023e-02 1.172689479697907114e-02 4.485371923510373393e-01
2.683122670664590814e-02 3.697347564480316789e-02 5.245365036631801647e-01
2.354050842142734953e-02 5.385040630395883376e-02 5.176639621792882284e-01
-3.021038478610918107e-02 4.054885884982255967e-02 4.522923660766633991e-01
2.079601199680792406e-02 5.087090631692249565e-02 4.646026661178786488e-01
3.758588182553576629e-02 1.788795771194737205e-02 4.601854236346201721e-01
3.509975355646773737e-02 2.335633117131336728e-02 5.202205901148073686e-01
2.728956308868472902e-02 6.776205990675626678e-02 4.839587640325026530e-01
1.873329403752487660e-02 6.890921518225830156e-02 5.052953528346488810e-01
2.221499714395345354e-02 3.616946707214856865e-02 5.293015895366514068e-01
2.835097424628879939e-02 6.342356207509942945e-02 4.771625471015817355e-01
1.007880233019153512e-02 3.487188025765701471e-02 4.546741386476901292e-01
-5.697323790436688989e-03 1.947970868954973164e-02 4.454195834493691053e-01
-2.898370946740815371e-02 3.467971233681644422e-02 4.496192165020421183e-01
1.741757888610562764e-03 5.699222666064924364e-02 4.598866316112157349e-01
2.640171380581787450e-02 1.966055596245214199e-03 5.327357503814548201e-01
-3.194592222522945474e-02 1.478084773943285149e-02 4.429106122990887906e-01
2.904913267973208840e-02 5.993040427884126220e-02 5.063870365545892760e-01
9.519958549437629314e-03 7.002853678445447594e-02 4.985255805399904094e-01
3.669964067631065890e-02 4.664035079383178212e-02 4.770893425695745815e-01
-3.518994005073003417e-02 4.021847577212260549e-02 4.528891800579121218e-01
-2.056373911558563930e-02 1.153997755614595729e-02 4.404921097986509992e-01
-1.957319420111981387e-02 3.386273714816419311e-02 4.496149252161688037e-01
2.714486857377412451e-03 5.812597703593606890e-02 5.212042611627841771e-01
3.644288081500519222e-02 3.432712993457200101e-02 5.107288447856820346e-01
-3.712171978888256091e-02 3.316728769203144966e-02 4.493092477073638569e-01
4.470625754659820345e-02 2.927431077852380575e-02 4.890907399586577609e-01
2.120517922158027951e-02 7.379687225672837414e-02 4.944967865716443645e-01
3.161278028602140799e-02 3.617567162712669732e-02 4.646065050604118452e-01
1.961193256911568025e-02 3.533423802100511824e-02 4.575339939639266884e-01
-3.430471400580412111e-02 3.710581546459599395e-02 4.508023509453836231e-01
2.324112528607128955e-02 7.139609926387525951e-02 4.946351020300524537e-01
-2.304654838856998178e-02 4.428254600386566375e-02 4.539779872107010950e-01
-3.373541823378853333e-02 2.657390285860828424e-03 4.393629660913900836e-01
9.096428152943269313e-03 6.783091028374142739e-02 5.032931723402926938e-01
4.535461370187762742e-02 2.257126427704493621e-02 4.950881500820268344e-01
3.881061508438486685e-02 4.670723775518656473e-02 4.931422412551844103e-01
3.745953032059068377e-02 4.935873078490625454e-02 4.928917826927875501e-01
-4.041086091248045908e-02 3.680367020482899071e-02 4.516190055604623610e-01
3.311726732501740073e-02 4.030142181960760794e-02 4.677442722182967305e-01
2.031406816999441894e-02 1.243355553527021769e-02 4.482000866043811538e-01
-2.127230575546924275e-03 5.061768731420313028e-02 4.574565819492358298e-01
4.495160577008596586e-02 2.622153011481100082e-02 4.798987031586384178e-01
1.268240584427080334e-02 5.199740807079996502e-02 5.276179965997788157e-01
3.405228743330545454e-02 5.406067335719231398e-02 4.999968096619972213e-01
1.193897258889964515e-02 5.925469374287341967e-02 4.637318296391889638e-01
3.602879050244386233e-02 2.714491585274784319e-02 5.167620633301589494e-01
1.652154514799497945e-02 3.361679984519799075e-02 4.558815659553478450e-01
1.565837001194292366e-02 6.367635140557996454e-02 5.173988368732657106e-01
2.371567590512321452e-02 1.460683062420095601e-02 4.502280554267430457e-01
2.159722965016059107e-02 5.354578254727062475e-02 5.191614535618332971e-01
3.550004715135789829e-02 5.233827910231315939e-02 4.975568781753333392e-01
-2.217475094357442694e-02 1.465136164784997148e-02 4.416511980814316618e-01
2.219649729144581706e-03 3.737992514533475252e-02 4.540108520570288464e-01
-1.599199442176143376e-02 4.076243458419714916e-02 4.529788987904059261e-01
-3.394705084141714374e-02 2.507996550660762658e-02 4.462505443917812453e-01
9.346082896897594736e-03 5.016541342012335175e-02 5.318624659869630733e-01
1.339170739178258650e-02 6.656760363421269922e-02 4.671576044901689095e-01
1.486716548882506886e-02 6.334728033101638678e-02 5.184420239104413630e-01
2.523305319261895559e-03 4.508862918734618530e-02 4.566850603507111583e-01
3.993070325759298655e-02 3.515445301555072261e-02 4.730673284738046713e-01
2.291227319726141243e-02 7.313750265909817194e-02 4.848361394083942622e-01
3.950634892140549720e-02 3.082074445364811621e-02 4.690098871824188165e-01
1.903209101331788944e-02 6.418852964086894930e-02 5.136270387519379366e-01
1.193281909903637708e-02 4.869798449393029222e-02 5.299937081263603744e-01
-3.089608384313322770e-02 3.421195155807649213e-02 4.494398589952531831e-01
-3.208257741533742519e-02 3.656795587456104085e-02 4.504733751750595316e-01
3.194960202158953801e-03 5.852648787413893688e-02 4.606761200265380718e-01
-3.260461171357083299e-02 4.442960495517176561e-02 4.554389493222844587e-01
2.596459389801030609e-02 6.773400587449338039e-02 4.952901113185139703e-01
1.080289536115618815e-03 2.328928017915251822e-02 4.481828507826637886e-01
2.789674355302595651e-02 6.360609369132856628e-02 4.766252700313379775e-01
3.008154355070173994e-02 6.018408366969883044e-02 5.023049114307027718e-01
2.318185339582789009e-02 3.633320997564473687e-02 4.596547744289986026e-01
2.658878498518194716e-02 4.027543745702152206e-02 5.210237920681215495e-01
-2.440175884367027509e-02 1.294732431736791978e-02 4.410736732254909032e-01
2.960361202199655178e-02 6.001668370409131426e-02 5.044895454638599341e-01
1.458559183358095444e-02 2.068159653555088490e-02 4.498406448622390696e-01
2.720291275421886715e-02 6.341500967201366135e-02 4.757027408461881879e-01
3.056781750202461345e-02 3.959226863053778855e-02 5.165902632763873514e-01
3.586240795388870306e-02 2.258522984741943504e-02 5.192757952620516981e-01
2.977902141773470287e-03 6.221827091726431225e-02 4.622438873842474871e-01
1.878765123592216618e-02 6.553539865455511315e-02 4.693339593942448262e-01
1.847440570622844308e-02 6.279947203704373815e-02 5.168442115476298282e-01
-3.633775786788267376e-02 2.856020403237152089e-02 4.475897524455865750e-01
4.119424650287450279e-02 3.653489110464201023e-02 4.996891899194870201e-01
-3.021446223284397162e-03 6.037623767313200773e-02 4.603797310298893275e-01
3.626758371864932662e-02 4.748585500001119286e-02 4.771941023316308428e-01
-4.042456150717980978e-02 3.646431227815659371e-02 4.513129682843414758e-01
6.650011094730731015e-03 5.727083512159481665e-02 5.299718669851295472e-01
-3.928309362880794131e-02 2.976896352682253249e-02 4.484867743352083935e-01
-2.080733193226329270e-02 3.150574076091816611e-02 4.484379365480955504e-01
1.184319914857034223e-02 6.398110503103150715e-02 5.125059260040177866e-01
7.419017385987705746e-04 2.099949657025771202e-02 4.472162466286802029e-01
3.017118121100764369e-02 3.332937466908356822e-02 4.622580243320568161e-01
4.006366163048916823e-02 2.513789970752909955e-02 5.077988885228470473e-01
3.585649061536338306e-02 2.615089048299163582e-02 5.182385271199821952e-01
1.302311037333531499e-02 7.516065469590359205e-02 4.889736267686616289e-01
2.060722827155498250e-03 2.358914104682974938e-02 4.484822690273387313e-01
3.707269970694423988e-02 4.727558450782731736e-02 5.026515026434541511e-01
2.138501456181128579e-02 6.498962602712918257e-02 5.090389456230745013e-01
3.098285712800225022e-02 4.652458680465466900e-02 5.133836757338515744e-01
5.367653303390899217e-03 6.013966091534005132e-02 5.148724889720868170e-01
1.097429145173215576e-02 7.413464420497428709e-02 4.942788127652949504e-01
-9.696524464591032948e-04 3.564161909886553320e-02 4.527213179705951718e-01
1.040971168216035629e-03 5.672078772094591576e-02 5.364693163330488401e-01
3.124740401592034436e-02 3.393890196578928237e-02 5.201368867168123522e-01
1.906950243138320206e-02 7.111805837133187980e-03 4.455551517850475651e-01
2.142879193985313888e-02 4.052738161936492167e-02 5.287032592105693762e-01
3.294358006705994796e-02 4.946879042812742794e-02 4.736479692146067233e-01
1.312199024192427579e-02 7.215581180484031965e-02 4.708017594890793744e-01
1.109502161065879788e-02 4.130022738352294442e-02 5.334559446253981374e-01
-1.757472859248964889e-03 5.029964334695054273e-02 4.574299780170573149e-01
3.226160893917510986e-02 2.257350768343450997e-02 4.584575564234516509e-01
2.480832076223550564e-03 6.091047512820883109e-02 5.308406291443932279e-01
4.172214440713212930e-03 5.907351268994891214e-02 5.183620013694698603e-01
1.723078379273264293e-02 7.559566326784204759e-02 4.792045613636993218e-01
-1.616337356723267574e-02 2.332388524865165735e-02 4.453384658228780602e-01
2.456873054435910683e-02 2.510863278628987227e-02 4.552753120296247902e-01
-5.876886682272472462e-04 5.617317431898630198e-02 5.217861367351056545e-01
3.734357107900605766e-02 4.257702371338203950e-02 4.745921918086699609e-01
-2.043025024006169671e-02 5.368221570860176595e-02 4.584227087683309110e-01
1.806319280058071852e-02 3.151680874745092786e-02 4.554390094563172675e-01
3.892728260236871102e-02 4.441136992727326427e-02 4.795567485191071788e-01
3.174760168402791100e-02 5.890849136036414163e-02 4.987970750256305874e-01
1.222921951319394344e-02 7.804202441072569107e-02 4.760564341245346331e-01
1.506144347781406337e-02 4.907375615184389472e-02 5.267711843695417340e-01
2.528110661897537206e-02 5.599399167096587304e-02 5.151687755752225595e-01
1.861253071773669859e-02 6.700360982297545731e-02 5.082280636944607188e-01
1.738299337394054456e-02 1.207139982986798164e-02 4.469741495891046967e-01
1.248955088578360302e-02 7.094669051078290878e-02 4.692559612480868836e-01
4.012382712508624771e-02 3.817867715426912639e-02 4.760329399683115303e-01
-2.213428534016458060e-02 4.241436810799986690e-02 4.531519740139421382e-01
3.088716620920688161e-02 3.842266992737058962e-02 5.164066288463891041e-01
2.676647518077075738e-02 3.138567402132357020e-02 4.592655182258492119e-01
-3.636520479364534902e-02 4.202227395565369394e-02 4.548638800858700315e-01
2.367577631368722110e-02 1.427473595576326040e-02 4.500745545805487358e-01
3.992283235429068544e-02 2.680593868957256015e-02 5.071675388308761745e-01
6.805163283627039747e-03 7.529020445065061351e-02 4.788077005512803019e-01
2.609341680957730225e-02 5.331346862364566563e-02 5.158798474922958732e-01
-2.005407430691133128e-02 1.267318969039440621e-02 4.408991101929410350e-01
4.555687850659557309e-02 2.465849481380378086e-02 4.903945197865587358e-01
1.923322368453831907e-02 7.308407166701522129e-02 4.761097923779452068e-01
-1.949823585941105886e-02 4.866573542730454061e-02 4.560148399107119555e-01
1.249514169603417948e-02 5.889168119701465587e-02 5.252140215409925039e-01
3.274429985410972493e-02 1.793827282198619255e-02 4.568076003845267796e-01
1.526376424780831118e-02 5.550770445403364894e-02 4.638540351778911441e-01
2.475327922520715804e-02 7.130767192067080651e-02 4.868799362040021061e-01
4.092124405007228211e-02 3.710274794396718756e-02 4.766033835504438487e-01
1.879082947183830649e-02 4.274942444690672805e-02 4.605077957241646702e-01
-1.492784215203873249e-02 3.460361068239447419e-02 4.504379060589141504e-01
4.498523676442084396e-02 2.490675879764921163e-02 4.940298184093862011e-01
7.903443410286790233e-03 5.756349883087762132e-02 4.618374732189556853e-01
2.617966100505706231e-02 3.411946799981854794e-02 4.602019522987499389e-01
-1.856845614715705098e-02 5.875454070943479656e-02 4.621277929933949591e-01
3.358720931510261049e-02 5.364763395964208120e-02 4.775757801199403962e-01
-3.348826254206835329e-02 2.544329510212470918e-02 4.463596152427786734e-01
4.245050560247239785e-02 2.737498318327857491e-02 4.999361401499438085e-01
-2.192901673753133024e-02 1.447551778087470022e-02 4.415837119452373782e-01
4.024877339273561644e-02 2.470671953257770614e-02 4.661609500896607972e-01
1.309467610701215735e-02 6.255936854265690961e-02 5.209737265552670804e-01
3.318621808264467926e-02 5.578965671600145948e-02 4.789892182857043434e-01
2.229002724879268135e-02 5.056794816738510029e-02 4.653912661344587476e-01
2.750768945086018435e-02 6.265727282644242835e-02 4.754658021152730063e-01
1.874349335489125176e-02 7.502483995897440971e-02 4.796834383761092724e-01
2.835591571378787840e-02 5.478143527143065211e-02 5.120265795818799148e-01
4.603851894208956831e-03 6.184937183886591444e-02 4.622936170244909548e-01
-5.024158732335096134e-03 2.690943584367033736e-02 4.485287205590864357e-01
1.677049891808046755e-02 5.542518816435436368e-02 4.644195898395289679e-01
-1.901433324840880873e-02 5.156119339458089396e-02 4.573415792584480388e-01
7.766838010264501789e-03 4.652915872473020048e-02 4.584586399178190441e-01
-1.760847243516485468e-03 2.944107347707275446e-02 4.501117364366761797e-01
3.729081839490228090e-02 4.925521527238658354e-02 4.952924078742146352e-01
-2.079864415145612003e-02 3.671459953094389356e-02 4.507842261686624274e-01
3.043868806796019844e-02 1.885201912440132369e-02 4.557014990041277636e-01
3.908106140940011825e-02 4.584866521952533913e-02 4.833374213703568456e-01
1.013156729241328734e-02 5.818428045875900095e-02 5.272149074563371451e-01
1.650155531596009251e-02 4.480170827466210814e-02 5.294785906961670952e-01
1.919569080171854361e-02 1.983256587051174941e-02 4.505000885606141869e-01
3.926754259531908126e-02 2.540089754199112079e-02 5.094607098319163807e-01
1.417686444583431994e-02 7.132576362948828130e-02 5.020536328651824531e-01
-1.422496996549389714e-02 8.391582569894882881e-03 4.398991903291094574e-01
2.568415196565638353e-02 6.604376383531801453e-02 4.995754326724166638e-01
-1.183795942329785716e-02 5.978618616116295609e-02 4.613015749099232399e-01
9.703240829472280921e-03 6.628668005175826494e-02 4.659507760941438148e-01
2.461425904121507247e-02 4.359415362066807603e-02 4.636757599823100318e-01
-1.170871882291384808e-02 2.910587925490811662e-02 4.483091616902932786e-01
2.992511072663483346e-02 5.305696983608353123e-02 4.723766526232785479e-01
3.819513536675113452e-02 4.844094228940628438e-02 4.893561181442663277e-01
3.055745369630405786e-02 6.194017357453551753e-02 4.815777560235456334e-01
2.716351610718545015e-02 6.373923344770578148e-02 5.021912061307334252e-01
3.306357737281390846e-02 4.724502598569953193e-02 4.723681549381530398e-01
2.842562064051360957e-02 1.520299856541984518e-02 4.529985626723834757e-01
-1.272459533330844682e-02 1.288262841371061234e-03 4.378643174455024711e-01
-5.524925236501077377e-03 3.626863430354686224e-02 4.524066352718106310e-01
-3.306936218272204381e-02 -6.003886946409826321e-05 4.389298568272916312e-01
-3.527987893010368133e-03 2.283515827625423600e-02 4.471418759301470369e-01
-1.614117594245835854e-02 5.103986003997821458e-02 4.570590824887448833e-01
1.459253103964329792e-02 4.955121702180452503e-02 4.615941423118080644e-01
2.313221926423391847e-02 7.301500672641139666e-02 4.853614961619154289e-01
1.945932992744654061e-02 7.441144615224111469e-02 4.786701123540182956e-01
8.911293956849111048e-03 7.455886506544269487e-02 4.726666947725662871e-01
-2.201223409313860652e-02 5.745465399756932712e-02 4.619372575582244567e-01
5.503534236989781996e-03 5.278688120955701141e-02 5.350087227033211157e-01
4.087202508665352396e-02 4.089480069256919842e-02 4.822982948465848185e-01
2.474687706402297141e-02 4.854906601992880870e-03 5.315240421744733545e-01
4.118098759931042296e-02 4.153786222405556755e-02 4.913631868403182668e-01
4.435640868890234484e-02 2.234793222982181526e-02 4.730533059478808089e-01
1.148667787276464597e-02 2.634502079227413543e-02 4.514798651221911818e-01
3.320661126443338190e-02 4.215391865342173194e-02 4.688229354446263319e-01
3.819746188181297186e-02 4.607353021115321440e-02 5.009984251694437063e-01
-8.852131357858429583e-03 -6.206415435025662911e-03 4.367452050099834837e-01
1.631204972035768877e-02 6.821440172771135735e-02 5.081093970144392458e-01
1.375278634485405452e-02 7.711749161775384442e-02 4.758906711311697846e-01
3.236697516157081844e-02 5.897440047374165328e-02 4.823922603181069468e-01
2.750367441809288202e-02 2.735830327657099229e-02 4.577932038430600481e-01
7.097461251714544395e-03 5.756451972289865909e-03 4.422863703164782168e-01
1.397024991712849350e-02 6.275990914315321412e-02 5.203942286775804504e-01
-2.647677230446203456e-02 3.538112657051056820e-02 4.499200752982864815e-01
2.746152734800257067e-02 6.638399050805562918e-02 4.932518031467709174e-01
3.109252300470079569e-02 4.649793308663437846e-02 5.132221626397457381e-01
-1.871396122953608923e-02 -4.764735213163206681e-04 4.373206613196892745e-01
2.234621955779670863e-02 2.461618222517664156e-02 4.539319935339052314e-01
3.847309981002704216e-02 4.740647365815409131e-02 4.837664355461219756e-01
-1.816194057188596014e-03 6.171768523739134399e-02 4.614530401873971899e-01
1.604906669039438127e-02 5.270473554437102304e-02 4.632462207034494517e-01
4.245851970541518472e-02 3.528882974102726111e-02 4.953389353512726023e-01
1.336596044325778949e-03 6.903723230074594597e-02 4.667139788848044812e-01
5.834385863512410106e-03 5.548591719877793427e-02 5.316003371558286617e-01
-2.587344352923202917e-02 3.370844323492322436e-02 4.492003989957212284e-01
-8.126660770274801368e-03 2.905662511441743298e-02 4.488993017847056066e-01
-9.708275663694129753e-03 5.726309215921848716e-02 4.591415460582640717e-01
4.088232659454113516e-02 4.134693946639114714e-02 4.958751845199850239e-01
2.755703477400197471e-02 4.340399763514997400e-02 4.654504057194804312e-01
2.780283816729036545e-02 2.241235838121836271e-02 4.557348848708927536e-01
1.993125563183285875e-02 5.323819092965894478e-02 5.204543298196592227e-01
-5.276298240198661754e-04 3.202828874929669611e-02 4.513584615028528590e-01
4.118119857449719506e-02 4.128968648006586112e-02 4.878862493723077343e-01
3.814917688605543727e-02 2.533048907274190395e-02 4.644550758847261207e-01
4.594265081183866728e-02 2.123972793566118039e-02 4.774731101148152468e-01
9.514292981587466405e-03 6.221663451642873294e-02 5.241712273306002867e-01
4.337906447485032763e-02 3.080315583372760652e-02 4.776886975166895200e-01
4.603552385802596805e-03 3.236751781321471622e-02 4.524921891069517699e-01
1.330449415328328021e-02 5.362815285612226868e-02 4.625355530798019865e-01
2.627224555438013517e-02 2.959586639368614810e-02 4.581625155620129841e-01
-2.410122313996725107e-02 3.015801516585454520e-02 4.476897140211922310e-01
-3.297725132476539422e-02 3.874049801524347830e-02 4.515024429492011659e-01
2.914680596824490225e-02 4.608570436738494702e-02 4.679167964804640811e-01
-2.611372303514434418e-02 1.971224674077312611e-02 4.435806075293602935e-01
-3.532761553390368486e-02 4.001398654627863483e-02 4.527564903656197126e-01
5.465513445375884578e-03 6.018902516976377959e-02 5.217437068726459293e-01
2.161066051652081599e-02 4.372907554211732245e-02 5.235881973911173937e-01
6.289548471366401480e-03 4.518031054842320399e-02 4.576767825993611760e-01
-2.745837323049726136e-02 2.241361380277032828e-02 4.446134601048487567e-01
2.691915083739200923e-02 2.179803163048350118e-02 4.550046308880942303e-01
1.086705522843131946e-02 4.245681471764156667e-02 5.336026332908785363e-01
2.841207464849214784e-02 3.588532934418491027e-02 5.231039948404110351e-01
3.348901195064303560e-02 5.737614737768688411e-02 4.917927911426737131e-01
2.323900015911622638e-02 7.130044038533034367e-02 4.949842022959132226e-01
-1.679856972692770137e-02 1.163410861582708615e-02 4.406132375449796634e-01
6.934567530088936275e-03 1.125088872924858915e-02 4.444793023322933800e-01
2.416488198842056678e-02 6.638512871941330828e-02 5.025640074151088710e-01
3.005275833154895035e-02 6.230570798299136376e-02 4.955868033995025623e-01
2.525685838061051715e-03 5.843444298127112996e-02 5.225815396572743854e-01
3.213194978201278085e-02 2.416426129571179124e-02 5.228519722758011579e-01
-2.067309596606606639e-02 4.250394040201092849e-02 4.532961128857404542e-01
-1.940256684736996542e-02 2.445181984947919496e-02 4.455075121186554687e-01
1.335940384720656245e-02 6.458840675757801519e-02 5.114333424840818987e-01
2.159070133385367768e-02 4.468426320221724479e-02 5.230476192096613630e-01
-3.053415554731557166e-02 1.030573344140083523e-02 4.414413529799707248e-01
-1.725504331345231518e-03 3.889165979582318716e-02 4.539006357923011103e-01
3.607078256026495511e-02 2.932402517053842028e-02 5.145244947629132870e-01
1.772500942579905217e-02 6.976232104300300607e-02 5.051946729351438625e-01
-3.645970893089640202e-02 3.657632570219785523e-02 4.506855354836283856e-01
3.579750172048098977e-02 4.325558938858679869e-02 4.726856450464377302e-01
1.355621556942867081e-02 3.121281290451950047e-02 4.539464915339310180e-01
-7.142016480925065559e-04 5.668224685121128065e-02 5.238598493873320994e-01
3.187564674182496657e-03 4.731951175943083232e-02 4.574945970430419617e-01
1.414592519797115873e-02 1.892623787521766424e-02 4.490273590604131893e-01
2.699058219115210364e-02 8.586807093631361465e-03 5.287576411831217404e-01
-3.017906138086554405e-02 2.850282906465449392e-02 4.471853968533563983e-01
1.536270346165396344e-02 6.997450178858423409e-02 4.698532077434561249e-01
7.015467491818573771e-03 6.141048036241993774e-02 5.298093773951075836e-01
-1.239096045275853500e-02 6.847865977270379059e-03 4.396949972339838641e-01
4.043132938676141652e-02 4.280787977705190206e-02 4.959749057463502253e-01
2.851807685243949297e-03 6.146441191476059718e-03 4.416574527865455568e-01
3.512627103621715485e-02 5.294238686911082598e-02 4.810230534021320836e-01
-1.258738224481375026e-02 3.426115520889339017e-02 4.505848337681597204e-01
1.790825743340666507e-02 7.311765764622310537e-02 4.989367942810663537e-01
4.001790978554828349e-02 2.321929591077692007e-02 4.651264890141202368e-01
-2.719464454520457639e-02 3.595392864505435326e-02 4.501659299664892422e-01
-1.998331462563746747e-02 4.885696319452049324e-02 4.561428461664249201e-01
1.337637187195162003e-02 6.787389216920756974e-02 5.068827193222060767e-01
3.440940613737757114e-02 5.153287828870451587e-02 5.046980869391116675e-01
-2.674020955791946499e-02 2.293738039211200286e-02 4.448110601705961842e-01
-2.954682307451709025e-02 3.112527710640832987e-02 4.481196608082671506e-01
2.150632352802619301e-02 7.335179756667876971e-02 4.806052070242826657e-01
2.766520238249989272e-02 4.568319743551818579e-02 5.164619920905967332e-01
-2.353955323754169937e-02 1.271229242143627827e-02 4.409738640439310187e-01
2.347996928047326945e-02 7.103546012338333993e-02 4.948326476472737490e-01
-5.067694389873406320e-05 5.794587784622741433e-02 5.253678291332413153e-01
4.558037848133108388e-02 2.495949774367436924e-02 4.898409320183222948e-01
2.987285577925808885e-02 6.352909221566145626e-02 4.839028023977844373e-01
3.779936202983869703e-02 3.113478104821278125e-02 5.094616483158239673e-01
1.848075414130308930e-02 5.264756202512808902e-02 5.219061491726709745e-01
1.190280139184099820e-02 7.895750036224501167e-02 4.765621745932289710e-01
1.959995965576612209e-02 2.155309775528229180e-02 4.515770247875357524e-01
7.627287094408459305e-03 6.874821241729994759e-02 4.669371484656403837e-01
-1.407255413180074147e-02 2.000228066538262475e-03 4.379438049920537090e-01
1.032630786221533370e-02 5.534693697644689492e-02 4.620122072726371432e-01
8.761390424296966462e-03 8.189910918468538970e-03 4.435819819955529875e-01
2.152015323203767053e-02 7.321052210264793192e-02 4.950675522910030768e-01
2.142217034042924462e-02 6.849182363373675086e-02 5.033126725037825322e-01
3.041201940968838585e-02 5.459475903714326728e-02 4.736330580825444114e-01
2.015971852236939435e-02 2.438094829303610531e-02 4.530522900993662616e-01
2.089570739164662780e-02 5.986989384122211322e-02 4.680366476909141316e-01
3.806223097650013321e-02 2.214697828973662477e-02 5.161482861479120832e-01
-2.731481364622367035e-03 2.726677931215630915e-04 4.386728452583010807e-01
2.961509296359435273e-02 4.646784582799223101e-02 5.146877215264380467e-01
-6.383908923512744346e-03 1.480095068889454232e-02 4.435142966084528182e-01
-3.502766139793516559e-02 2.031513858827597302e-02 4.449329129766126378e-01
-3.910904822694599020e-02 3.574253064524325618e-02 4.505624455620442226e-01
2.550917474477443214e-02 5.797047850243298994e-02 5.131480806663535343e-01
1.697658195536854570e-02 7.032825107999501890e-02 4.709483937105142792e-01
2.332731038235853066e-02 5.327704739131487038e-02 5.179337815379903009e-01
-3.211922015092363164e-02 2.717153821367657499e-02 4.468635911019220863e-01
1.321166991387070187e-02 5.475612590672931240e-02 5.257330183189503625e-01
2.058370431306307674e-02 1.987409854247592852e-02 4.509738365303374574e-01
3.486195287909762963e-02 2.479146925801475887e-02 5.202769188854520221e-01
-1.724316388950923942e-02 4.335622602332295239e-02 4.538571935095851440e-01
-7.234770735142928913e-03 7.791919522141041790e-03 4.407742275427846135e-01
1.192153843000956330e-02 7.220281097558717276e-02 4.978198799395704421e-01
4.520851604039730770e-02 2.453432735511577520e-02 4.931511804901845264e-01
2.039104111895910423e-03 3.661628231836959457e-02 4.536737911646669952e-01
-4.257831451441470433e-02 3.668548158490239630e-02 4.521729965644826765e-01
1.677743191982784127e-02 5.822334228694923952e-02 5.220122623374239268e-01
-1.837058631420994056e-02 2.849036398043065452e-02 4.472695312362633957e-01
1.111536066776879633e-02 6.314116505547737179e-03 4.432694186378469126e-01
3.503590462586757270e-02 5.057680773080531350e-02 5.043346711833632812e-01
-3.744525208345435285e-02 2.992920018012203490e-02 4.481611379707807763e-01
3.049824122929281622e-02 5.874768302285030691e-02 5.038345432630350063e-01
-1.601615549672354838e-02 6.043616799605246170e-02 4.643833839387417339e-01
5.846497684827842850e-03 5.520355990849141331e-02 5.317397050571525119e-01
2.100300045604316934e-02 5.939919086010626154e-02 5.176581920648286594e-01
3.440488491530854787e-02 4.015437968391186857e-02 4.686752436453991977e-01
2.535264337849849753e-02 6.128659365081895460e-02 5.100563430795119757e-01
4.375446634393535122e-02 2.637964009534269835e-02 4.746647729858368692e-01
-5.256147827266913902e-04 1.002722283680730977e-02 4.426217225903921193e-01
1.309696889812020544e-02 5.133657286599832559e-02 5.275457642657380708e-01
2.745911773255492114e-02 4.601321753361135858e-02 5.165621155137585241e-01
1.417209913492197340e-02 6.195297208871895778e-02 4.656066777442319782e-01
2.074966518085697570e-02 7.517467371867005144e-02 4.860930788125510937e-01
2.844720501693763504e-02 3.514406132105648423e-02 5.239156422125605950e-01
1.164360557396227486e-02 7.554925755801437937e-02 4.877962637268303814e-01
-3.689529980884491238e-03 4.734843785362102819e-02 4.563359531676984826e-01
3.253401270722668104e-02 5.702390781352448257e-02 4.787168003172110331e-01
3.131467349882431639e-02 5.995998252470291501e-02 4.979171785895177282e-01
2.615814806878135473e-02 4.581738950369082519e-02 5.176765563381615642e-01
1.411333747000423702e-02 7.457876134242216737e-02 4.956807021803029678e-01
3.852864627433102290e-02 3.294186400870831311e-02 4.687373653425856990e-01
-1.986140579216675445e-02 4.007650408983028101e-02 4.523282419981766167e-01
1.113635255191111964e-02 1.586343065279180106e-02 4.471608973446097313e-01
8.063587423369020929e-04 6.037470348944049686e-02 5.295636726998655952e-01
-1.622114939248690477e-02 5.832700264059158257e-02 4.608714299475679677e-01
2.801109721632591074e-02 3.618212592939371725e-02 5.234428902850286613e-01
1.399240510004344518e-02 4.381705412484018097e-02 5.330577948955128598e-01
2.465526607816194080e-03 5.636471972004548914e-02 4.599204258820632774e-01
2.286186016263790782e-02 6.697696685958076657e-02 4.732520106212310673e-01
-2.379678692290218556e-02 1.918845876695069938e-02 4.433747543495161203e-01
4.154045607353013675e-02 3.094821306149615064e-02 5.003237679568978136e-01
1.645497225758451101e-02 7.421608314965821851e-02 4.971780190510642350e-01
3.560906753208475939e-02 5.346917635130896129e-02 4.853535201407923605e-01
-1.890187096603722708e-02 5.322068880628686403e-03 4.385138089179137499e-01
2.069270926841734748e-02 9.049747595727641175e-03 4.469796546503047030e-01
3.477520812367091568e-02 5.522904044083781078e-02 4.870181257715506806e-01
-1.131491971806852445e-02 1.929655440833791952e-02 4.444278037652577562e-01
-1.531211506291035168e-02 1.810131544577064933e-02 4.434174971344196914e-01
-3.441331666383485449e-02 4.177076899964005108e-02 4.539528342491482849e-01
1.646175645273496510e-02 6.996417780645278195e-02 5.056775244480032905e-01
-1.685683431983266492e-02 4.977531461161738280e-02 4.566028324143260320e-01
4.009008891120695306e-02 3.128192204052599595e-02 5.036530343922549502e-01
2.420470644833624257e-02 6.810026840148052096e-02 4.766070968110865946e-01
1.240863583911070919e-02 7.437672255305111113e-02 4.942372102024581992e-01
-1.079096005534168137e-02 4.977732005312932723e-02 4.566346189904865183e-01
1.032538558298864984e-02 6.357475022937604525e-02 5.133023349674918911e-01
3.544274805471231415e-02 5.288994595432734008e-02 4.952789434377193323e-01
-1.242973756034229660e-02 1.357646509217170887e-02 4.420844229378624313e-01
4.175068490375809238e-02 2.427184911185488805e-02 5.044643861645415894e-01
1.521162730900198039e-02 4.413681141355824816e-02 5.315534388536876653e-01
4.212229757265092966e-02 2.284245400713405538e-02 5.044359909847414558e-01
-3.237973611941476204e-02 3.233922981592510931e-02 4.487354451742501249e-01
-2.602708173480719131e-02 -6.072756011991815861e-04 4.377601850019660623e-01
2.901278843784963965e-02 3.676646260585381132e-02 5.210368342510411921e-01
2.777553128160344803e-02 6.711512393061005999e-02 4.850344130827197175e-01
3.919754048015847148e-02 4.525803261457616439e-02 4.991792443542606983e-01
-2.223229547506246767e-02 2.044884861109434390e-02 4.438511506364767878e-01
3.813689001025271502e-02 2.813265818007464752e-02 4.659013611772648278e-01
-1.760347525774697344e-02 3.754976251915308899e-02 4.514572982590002170e-01
1.835105660279554018e-02 6.321352751976372364e-03 4.449657811397710883e-01
2.979089308941146319e-02 6.278841764659347235e-02 4.949786423369995636e-01
-1.572964871002986362e-02 4.595501628423744045e-02 4.549557006305785523e-01
-2.848797636101408140e-02 3.268457096338282797e-02 4.487687208598549748e-01
-3.012823697329964495e-02 2.874937670708825263e-02 4.472731566660478886e-01
2.173625327874591923e-02 5.819184808484682836e-02 5.177230933551459913e-01
8.435133919798901148e-03 7.817501047782948742e-02 4.770422468130410265e-01
3.203067058801173980e-03 1.215470555549348283e-02 4.441368737108455922e-01
4.179568032132707778e-02 2.441761894620664980e-02 4.689123907009505321e-01
4.002086816025565014e-02 2.070889613360218234e-02 4.639267156600289099e-01
-6.400451919830446763e-03 3.452747980270435505e-03 4.393305080957418118e-01
-2.044140722056738899e-02 2.429783884131014177e-02 4.453521358735904601e-01
9.323417634226772305e-03 6.497737387158954159e-02 4.650551815516833498e-01
-1.080408104558765528e-02 2.629505178059425140e-03 4.385474687021792550e-01
1.222633274614879501e-02 6.453800343687574048e-02 5.103382865199751484e-01
2.575797050649681133e-02 3.416548064590184397e-02 5.273916753912983868e-01
4.339585519127378554e-02 2.648679541481446797e-02 4.737640714306131096e-01
-3.562529779368102389e-02 -1.240126105760215721e-03 4.395509066087395222e-01
-3.125801680821764517e-02 2.467400468085372695e-02 4.458231481211650249e-01
-1.993835349065268235e-03 2.240455825338652507e-02 4.472608654728285615e-01
3.094410448226998442e-02 1.956349146049368368e-02 4.563276975769313681e-01
-2.184419939314397041e-02 6.220412844112212236e-03 4.387527516842827380e-01
4.259845209834198232e-02 3.436672837388009272e-02 4.955165518316794193e-01
2.482620007979418134e-02 4.917725843984129507e-03 5.315024794218371484e-01
4.777526129762069834e-03 8.915417663025801062e-03 4.431212266506968644e-01
2.913901714401113952e-02 4.810852364241952062e-02 4.690860764663805638e-01
3.576142438455007927e-02 5.341450719623077464e-02 4.867336197040922907e-01
1.806457462852756324e-02 1.333065575354503395e-02 4.477492619786631045e-01
3.914755503316928037e-02 4.566995303339974749e-02 4.832690131997972038e-01
2.477020542484578876e-03 8.849335677132731670e-03 4.426750975319394543e-01
3.013542720538449002e-02 4.722555947208893767e-02 5.140981997080199539e-01
3.419149120507919415e-02 5.497216781383375273e-02 4.969040193551849671e-01
1.634139596240815479e-02 7.540326659914256546e-02 4.913649208119909573e-01
8.377058069399784257e-03 7.727125876112549141e-02 4.758592910917340268e-01
4.444041978609755000e-03 6.610277999501935897e-02 4.647132310358660923e-01
-1.338797433934744117e-02 5.585777955051842575e-02 4.587651561652038579e-01
1.074430378261692458e-02 4.540794895695201422e-02 4.588464409137527622e-01
-2.041255973718475100e-02 2.492048446302150624e-02 4.456059578311416525e-01
-1.355037951922177276e-03 4.134206325410314659e-02 4.548441838334680298e-01
2.652462206954631432e-02 4.740516515939607878e-02 5.170382523660985719e-01
-2.718624771132372581e-02 5.801277559058342671e-03 4.391214551308699199e-01
3.915477368761519084e-02 2.289998178384324012e-02 5.119274811877397857e-01
1.087252770928396825e-02 6.424586879703682307e-02 5.101201473786961538e-01
