4.633356007579426949e-02 2.319692770750494265e-02 4.879992879673404338e-01
5.129148705800079880e-03 7.071278455871091162e-02 4.700628994593276100e-01
-1.224985768426864290e-03 5.737586622153566240e-02 5.258398056423813083e-01
3.143154729494330307e-02 4.370715013893151230e-02 4.685322528699317757e-01
3.769670319427143729e-02 3.132649734584064261e-02 4.671232691342703802e-01
3.102389537733337907e-02 3.587131398260173798e-02 5.176740552767296055e-01
3.632611267835918201e-02 5.058439963521165622e-02 4.987178849106227441e-01
-4.365455961409346608e-02 3.033811902718614589e-02 4.495205246232720775e-01
9.220344616739534552e-03 3.881171659069847929e-02 4.561924380474359775e-01
2.244167494899408644e-02 8.639392520300590017e-03 4.475373317294841224e-01
4.574764792516462092e-02 2.286960460360394631e-02 4.925346059165248702e-01
-1.951213646570591417e-02 6.368023014406049703e-03 4.388584703056391256e-01
3.468875579523335306e-02 4.257898950871106397e-02 5.100097612357936683e-01
1.814030155250400192e-02 7.392931802899933846e-02 4.981133794821007710e-01
4.045426861156688203e-02 3.834945879455282924e-02 5.012390955990804198e-01
1.798908330124051810e-02 3.283680128415552429e-02 4.561068368371437587e-01
2.942102882165320218e-03 5.512186715216974703e-02 5.357874094023428180e-01
4.404501675273998079e-03 1.826700928175842634e-02 4.468642749405993264e-01
2.571472207727958786e-02 7.779643522598946037e-03 4.485438865358660765e-01
-3.691933243195916203e-02 2.580682718921272281e-02 4.468911130867725401e-01
1.181185214098221491e-02 3.497408559963615521e-02 4.552092703739631374e-01
2.768260873852883622e-02 2.779537927777740378e-02 5.262494077641414192e-01
1.362265568016956911e-03 5.689438862602928804e-02 5.370234797997609499e-01
4.078468470915519450e-02 4.113395119589095122e-02 4.827260251265406699e-01
-1.202588783390222925e-02 2.347071489395278349e-02 4.459515344895892408e-01
-2.140409176317292078e-02 1.391706658637300101e-02 4.413847877148455723e-01
1.213739983619299689e-02 6.422446308103907375e-02 5.131096592185511174e-01
-2.635111270745486844e-02 2.005574347840857752e-02 4.437195496389625404e-01
4.025699606462830593e-02 2.314385035433092624e-02 5.085393972082461467e-01
1.320535517502278468e-02 5.036673871610370529e-02 4.616182755351713185e-01
4.301882004475147958e-02 3.390207340736434843e-02 4.827996461251903293e-01
3.139911696634737747e-03 4.045747519196583181e-02 4.554635193107082758e-01
-1.879456112988026409e-02 6.906480443698639893e-03 4.390202006940418511e-01
-9.015633688499623960e-03 3.448229458320906798e-02 4.512134549850924659e-01
1.208355027117375552e-02 1.503060420130271010e-02 4.470906507402345187e-01
-2.974753412616303050e-02 2.772491785021937577e-02 4.468899033788048536e-01
-8.413135301778840169e-03 5.374792500457812455e-02 4.580376972524777268e-01
2.582940003988325878e-02 4.753967432208503624e-02 4.665205336639504097e-01
-1.784906125614475411e-02 3.462648307149555904e-02 4.501643999609589719e-01
-8.706564063536360171e-03 1.015112342582704698e-02 4.414092312486572744e-01
-2.000473096885996283e-02 5.214063773327844153e-02 4.576349761292743956e-01
-9.990892924915466614e-03 -3.504955514230206296e-03 4.371037456683128930e-01
3.715568254481001198e-02 4.572249363588237747e-02 4.772938616020070968e-01
2.815146036198940341e-02 2.477015110591197083e-02 5.261933742992137564e-01
3.527210656842953013e-02 5.356586080096108204e-02 4.835987415098627618e-01
3.759432111891058276e-02 4.775640851045192398e-02 4.812572484299031395e-01
2.698336823871972170e-02 8.276609488091548825e-03 5.291780822925901129e-01
1.231649240495797173e-02 6.998689294672852390e-02 5.039348251505648690e-01
-1.547541425695429275e-02 5.456100715434334530e-02 4.585463356672059843e-01
3.343106674465963490e-02 5.653768591984773689e-02 4.958789482559106121e-01
3.387083534114825045e-02 5.664317825754703467e-02 4.864841063569940172e-01
-9.282245830319914986e-03 5.569447788169402946e-02 4.586199931778366934e-01
6.151038268201256508e-03 5.125070479986393313e-02 5.356028961024693613e-01
9.271025375487119274e-03 7.119844470605100895e-02 4.691847231808513041e-01
-2.915907264553000908e-02 3.184211145536287868e-02 4.484230270140749375e-01
-9.534786441823150938e-03 3.956934533683224148e-02 4.533035541351734810e-01
2.230100034889010568e-02 5.163571492393412288e-02 4.660295802232856666e-01
-1.477422400105140102e-02 5.181262406914604463e-02 4.573504077430605164e-01
2.271526321735251389e-02 3.272385137528256022e-02 5.291243344741709542e-01
6.952118730235289090e-03 7.074722216200579616e-02 4.690401217757499963e-01
1.479684497649925295e-02 4.302583766499874091e-02 5.331232230593886401e-01
1.723711303227647151e-02 5.352753343989916091e-02 4.642003926148222104e-01
3.322389839921950638e-02 5.178585047725847712e-02 5.076389837213831635e-01
2.424678194755671215e-02 6.911212311972986244e-02 4.970336425392244961e-01
3.193807162426315349e-02 5.658208494081759521e-02 4.768559078088031034e-01
2.100205340979707097e-02 7.356755168663352273e-02 4.801717878408497953e-01
2.289499907205995444e-02 5.885995722878408637e-02 5.160676880149603907e-01
3.837920970034505285e-03 6.550979861028380369e-02 4.645308269235747800e-01
1.389223180084173635e-02 5.833820822456067812e-02 5.244162257710621722e-01
2.193481608188570936e-02 7.256055941788470964e-02 4.955339671649398592e-01
-2.516004503003563264e-02 2.097521175121784195e-02 4.440689044877693115e-01
3.203458891616507015e-02 2.376225786210976743e-02 4.589646510530158152e-01
2.442671300092780912e-02 3.862628558373579213e-02 4.615553544462926427e-01
2.559342318944493599e-02 6.944998605636421019e-02 4.827112887872452851e-01
1.566385557506751181e-02 7.563404710490710670e-02 4.874860276099629575e-01
2.085813787607929820e-02 7.451904837056483322e-02 4.912889206421784949e-01
6.144720429206156943e-03 6.936730168806434782e-02 4.672175823053297816e-01
4.566589192016237003e-02 2.375936544181277491e-02 4.913787362638115663e-01
2.136574635744254574e-02 1.898907916711527200e-02 4.509766555013698941e-01
1.883783753797776267e-02 4.037433755759646525e-02 4.595905569592539930e-01
1.723887279991542006e-03 5.786686598854452052e-02 5.341215630325781838e-01
1.823368167771402190e-02 4.827994756519102260e-02 5.244733103720188305e-01
3.603696841570873388e-02 4.869401624137760509e-02 4.786273931442457941e-01
-2.394114539919310961e-02 2.959195156188797887e-02 4.474696587903516098e-01
1.184684103470655045e-02 5.651217203969809838e-02 4.630880365806398502e-01
3.963408622165578987e-02 2.865991538244430301e-02 4.677686430905818038e-01
3.270198869121064555e-02 2.135824500438562867e-02 5.228844779633585738e-01
3.932411340139391892e-02 4.571930274537198274e-02 4.936226097883451014e-01
-9.158379567030663221e-03 1.387064563683280786e-02 4.427459324044600297e-01
4.303951692356028369e-02 3.556433777409687830e-02 4.886844686373758018e-01
3.214035001517410312e-02 1.996400663597058117e-02 4.573697142999076926e-01
2.361096707166545142e-02 5.946705704870514780e-02 4.703571953069541900e-01
-2.366985885451737548e-02 2.689278786194857634e-02 4.464154312173350125e-01
1.482008928657679858e-02 3.749385523595696185e-02 4.571003725926299222e-01
-2.492582996272817847e-02 1.529787255980132737e-02 4.419369485023176836e-01
-2.442014060747273521e-02 2.478555629612506570e-02 4.455668524029511857e-01
-2.816021530420290131e-02 1.681578316173019602e-03 4.384514675032807340e-01
1.298536249102684448e-02 5.952022117634654663e-02 5.249987562577728140e-01
2.261199503108872119e-02 3.180431101756906603e-02 4.573887559945511438e-01
2.827079272436032811e-02 2.174884868217259563e-03 5.328114049177076206e-01
2.664373994654358965e-02 4.478930723347974291e-03 5.318396305823628323e-01
-2.185419732599747783e-02 2.421695649199835307e-02 4.453119930813790872e-01
1.000274784056342028e-02 4.316126719273690598e-02 4.579850755985986899e-01
2.824835603242756635e-02 3.722199576607158888e-02 5.219379383365784220e-01
2.143889241199425921e-02 5.341273941766281480e-02 4.662154210926065523e-01
4.550956382845143533e-02 2.530742649786463933e-02 4.833416528353416397e-01
-9.938877563865966547e-03 1.498057807488403434e-02 4.430427073706841856e-01
1.096929078248115065e-02 5.422582109396242855e-02 4.620747566421262720e-01
3.666859555645266000e-02 5.011007755124510799e-02 4.970408644333514925e-01
4.498356517564689599e-02 2.702549817612436706e-02 4.828144895106090684e-01
3.782049590477502138e-02 4.872033501054387483e-02 4.923267605535137648e-01
3.157469055892787174e-02 5.684676044184990701e-02 5.035480068550932664e-01
2.876189932408998451e-02 2.593025887301152535e-02 5.253469193149462590e-01
-2.797905713205537173e-02 4.697739869682985604e-03 4.388989447403124355e-01
1.493748914386798521e-02 7.146632189936599766e-02 5.028170456970870728e-01
2.901216228290375010e-02 2.529153002955652346e-03 5.324679576244538692e-01
-7.951685035276535168e-03 2.165777722142612355e-02 4.459337628684796329e-01
9.310147593272481009e-03 3.165163563518376411e-02 4.532817158894600351e-01
2.538122398964710175e-02 1.753210702141917363e-02 4.523848171722701372e-01
1.835967219246854160e-02 7.604057051833540415e-02 4.859490264602607801e-01
3.791049367148679322e-02 2.694747711190704706e-02 4.652399276941392992e-01
3.891453139300427716e-02 4.612801087303683434e-02 4.834931927977965116e-01
-1.709285716931487412e-02 5.575684291160738076e-02 4.592876728025898081e-01
1.580979495177657276e-02 3.072214001121618271e-02 4.545199844515874776e-01
3.574154732212460328e-02 4.988175242338752785e-02 5.030297580742539854e-01
1.841669350976183825e-02 6.207476451490836870e-03 4.449866251785722926e-01
-1.526720759069840130e-02 6.080103530603434697e-02 4.662646932804175859e-01
-1.220616991831491825e-02 6.116010239175921626e-02 4.630093579868875819e-01
-3.682480176315802364e-03 2.562673723792730299e-02 4.483043154546188513e-01
-2.567056997275641086e-02 4.594531746846047815e-02 4.551755917526760231e-01
2.826609952413312518e-02 6.585327334359823703e-02 4.820536777651478477e-01
2.813190150568240649e-02 6.456694781578202480e-02 4.965566925891778949e-01
-1.630822152707384412e-02 5.324639270411984232e-02 4.578978012410339637e-01
1.490342991472108115e-02 7.336545375042684280e-03 4.446131776349237508e-01
2.075077798880677407e-02 3.398202351204315103e-02 5.300739733717229063e-01
4.456546990133997826e-02 2.635790672225450659e-02 4.941361772115792084e-01
-2.347732191597645332e-02 5.321536239982492533e-02 4.588084267828675955e-01
3.332777540961466556e-02 2.693622601013521967e-02 5.217220836030795894e-01
2.497281591308581766e-02 7.011816397587423977e-02 4.911877030631202623e-01
3.700353646500469107e-02 1.793109966905152841e-02 4.598771185457889987e-01
1.950566546149426483e-02 6.355753311641099135e-02 4.691034052995747827e-01
3.446967252964428657e-02 3.277828503254146680e-02 4.651064834130926307e-01
2.798129559013411843e-02 3.602828240661043457e-02 4.623942714063430937e-01
-1.883213390427955058e-03 5.742020685102165733e-02 5.278740867372003764e-01
1.674710625870092992e-02 6.689249620712781064e-02 5.104026963759079605e-01
1.554531558898953995e-02 2.510411180844017431e-02 4.520135995310477495e-01
3.561068511900203348e-02 4.484195740718129736e-02 5.078218814677882831e-01
-1.507254660403259741e-02 4.980333777576757825e-02 4.566632286218151315e-01
7.842710846170358741e-03 6.125073231379572075e-02 5.293027562540897346e-01
-1.668301946433624339e-02 2.389680779550876558e-02 4.455514396049342629e-01
4.502139337960724130e-02 2.727150761084990230e-02 4.842563556226461841e-01
4.008714747830732089e-02 2.817330536466698676e-02 4.682689644869363899e-01
3.172502973073450250e-02 4.756802277998792294e-02 4.714627515908922928e-01
2.036001635951849298e-02 6.538015202735009135e-02 5.094710935057676915e-01
1.834803048690256469e-02 1.072473966909862075e-02 4.468424698563827069e-01
1.263718378058041603e-02 6.349647554278292638e-02 5.184299725962583372e-01
8.839809084632752750e-03 7.728284813611875637e-02 4.797778720644377271e-01
1.285062007038666014e-02 2.852427901658311643e-02 4.527691958633185965e-01
2.695367549199948268e-02 5.326205131662299641e-02 5.151450157972640165e-01
2.767214704792647986e-02 2.503233450490240097e-02 4.569570968512328135e-01
3.962650919161566504e-02 2.520648367989745259e-02 5.087994096780146247e-01
1.761671993601221162e-02 7.560170343185231012e-02 4.919937686203565974e-01
2.939072346599267901e-02 4.457923533904759733e-02 4.674170967651852249e-01
2.500580226674695150e-02 4.705777053443147701e-02 4.657539063720181338e-01
3.241823742536853459e-02 5.228533873381861763e-02 5.084470283209198138e-01
-1.383536504313751143e-02 4.696419633633286406e-02 4.554992047746054262e-01
4.246572117853621500e-03 5.182777912204784149e-02 5.371896685711842201e-01
5.827040749226268176e-03 7.143338012027522499e-02 4.708800399091809807e-01
3.826298971097737839e-02 4.820841399486464063e-02 4.901806265495087245e-01
2.277285760916901783e-02 3.180228705160612762e-02 5.290526946305206257e-01
8.856606585877346144e-03 2.676000659692065117e-02 4.511718727679167595e-01
2.890416760039086694e-02 6.531069933111877113e-02 4.897487694421777671e-01
2.116087033855764549e-02 5.503561369367331035e-02 4.666782327026771093e-01
-2.081550527778003659e-02 4.164177247384684422e-02 4.529598727851800732e-01
1.260089223178166573e-02 7.016620853474510311e-02 4.690945081760422020e-01
1.835804736695978434e-02 5.992148519014888625e-02 5.205587127173869622e-01
-3.753169651666198037e-02 3.718155650158067732e-02 4.510287850368692175e-01
3.173782112351588441e-02 5.928553049423127691e-02 4.803264395922133834e-01
3.360588190166573924e-02 5.584508928673091038e-02 4.974789103302429960e-01
2.463596018723713740e-03 6.330186286919885219e-02 4.630946751182525301e-01
4.308737473102831200e-02 2.691726005513765674e-02 4.985274323885033332e-01
-4.081584367266095220e-03 2.888773545058684333e-02 4.495353162149804405e-01
7.282361156803106306e-03 2.508159710544370993e-02 4.501438959051527466e-01
-2.357812084597315366e-02 6.855728972136899795e-03 4.389335681015026358e-01
4.257267728933552403e-02 3.694302097598866491e-02 4.878979315656200022e-01
1.017869214743023776e-02 5.756517861728219221e-02 5.274444838872146546e-01
1.955153156422578115e-02 5.894504440347747565e-02 5.199176920638927113e-01
-2.674196243374949745e-03 4.964690673755938095e-03 4.403441387693888265e-01
1.714526920591856810e-02 7.466621051057001357e-02 4.763047245114153672e-01
4.250560285635542057e-02 2.668945820016055751e-02 4.718901263947105074e-01
2.999155077878911876e-02 6.318641900511043352e-02 4.840222305282005366e-01
3.372380188187110855e-02 3.958677280233523221e-02 4.680402596516425318e-01
3.534076065978647430e-02 4.702007053862098523e-02 5.072456876994759778e-01
2.964906363045011206e-02 6.267363358807927221e-02 4.797886588985449396e-01
3.320816668119298126e-02 2.818413923737680959e-02 4.619173185971753304e-01
3.977124429307260511e-02 3.337886012756491327e-02 4.715679972922114938e-01
3.833463065150342214e-02 4.472945689321373292e-02 5.020183982152754965e-01
3.196217787649986014e-02 2.852289491614925718e-02 5.229966124700324848e-01
2.568329980959495329e-02 5.973020281324131070e-02 4.722190116959392170e-01
3.768023132512348522e-02 4.055213424899026947e-02 4.736913822297200705e-01
2.612455842939813075e-02 6.638860917044768495e-02 4.776369656093077398e-01
7.376070323252728600e-03 6.988573660544668276e-02 4.676745200029887028e-01
3.875325756479799152e-03 6.074839639692006937e-02 5.247693738395902141e-01
-2.722515680242995617e-02 1.353023591471478205e-03 4.382594323755885646e-01
1.040247245770383605e-02 6.338813151205402452e-02 4.648655142723858713e-01
2.213857879722111108e-02 5.673871808412808693e-02 4.679427681496080016e-01
3.865594753728354011e-02 2.190449865113366576e-02 4.632049808317100226e-01
-2.353240115820148803e-02 1.047769670539475638e-02 4.401541031973711937e-01
5.169470762911165460e-03 5.989636719198990905e-02 5.205592857245860960e-01
4.250325781292588895e-02 3.645211136726697609e-02 4.854111081895062796e-01
2.476206527525932899e-02 1.854973658374731854e-02 4.525247676230068627e-01
2.911394000617123848e-02 4.776414877646459334e-02 5.151077645400969907e-01
-9.381315780454084485e-03 1.216815759957945962e-03 4.383226719269569527e-01
4.636522837192309093e-02 2.222096687667736784e-02 4.894056013147238260e-01
1.904923220316338817e-02 6.526510219573281035e-02 5.110742510513751613e-01
1.764548332039569262e-02 5.765433133939350252e-02 4.657900533807863286e-01
3.255942157201583559e-02 5.905954107385338187e-02 4.910885415671788490e-01
-4.197887669709773895e-02 9.590643265914896697e-04 4.415588615903880965e-01
3.147999648685390062e-02 6.056546918642246452e-02 4.835548184196510890e-01
2.609260836031819519e-02 6.313521594674055548e-02 4.744987193053191721e-01
3.874173061571134502e-02 4.673267415282461590e-02 4.936943649119683863e-01
1.442245541081758897e-02 3.927411906189878787e-02 5.328454894944321119e-01
4.137400931410095684e-02 1.994262182407448292e-02 4.655768607805870762e-01
-2.220589470152953965e-02 5.890323802243939422e-02 4.668984181575001058e-01
-1.780264921401299508e-02 2.928680092535040913e-02 4.477243362182014019e-01
-1.259938453787697032e-02 6.529026502921476439e-03 4.395719403132328784e-01
7.292216182143018352e-03 4.166654894445846746e-02 4.568305628932167184e-01
1.587993872558404393e-02 7.296103955586262513e-02 4.998834553989811025e-01
4.057052706649008633e-02 4.244678638681451815e-02 4.951859077964186340e-01
4.593341475338551944e-02 2.342867618841963998e-02 4.818885503167678608e-01
-5.039092210291256421e-04 5.955853703527477089e-02 5.345063353069277046e-01
1.148275306296308793e-02 5.960348464373062261e-02 4.638856564831719265e-01
4.135701607831918786e-02 2.552188966005703580e-02 5.047142282159254867e-01
2.859695559404094173e-02 3.391709562438723069e-02 4.617104601496794247e-01
1.708142101968304627e-02 4.131376422072642607e-02 5.321198960273364476e-01
-4.358561834000447208e-03 4.591096752088727473e-03 4.400041465713797062e-01
-3.653979324710523308e-02 -1.424973050617674500e-03 4.397865232184158812e-01
3.146721115144979208e-02 1.853843886823119957e-02 4.563220441891310819e-01
-6.487327766051779500e-03 3.192987061438530560e-02 4.504418936362727943e-01
8.074580767447788951e-03 6.020442912457211332e-02 5.291717365817256713e-01
3.997443352640675171e-03 9.089759048860571178e-03 4.430822636458294217e-01
3.643901952461519461e-02 4.656650004501687590e-02 5.053024603286568883e-01
2.150827746230316723e-02 2.275395828889284489e-02 4.528894579372310103e-01
2.235947027131022710e-02 7.305001813279211886e-02 4.932063694495520956e-01
1.362845908914401410e-02 4.738919152224980308e-02 4.606166145978558557e-01
-2.618136321608376116e-02 4.822787732222037771e-02 4.566161530022487258e-01
-9.223968079427155749e-04 8.664741842183585133e-03 4.420315493747781765e-01
-3.182176697947102645e-02 2.705820984589659903e-02 4.468118098942061023e-01
-7.421348086785481066e-03 6.153612598076944884e-02 4.618678992254234839e-01
3.653712797454908984e-02 2.666439017972038403e-02 5.157845067907146364e-01
-9.287444075140887170e-03 -1.885365130869453253e-03 4.373893019273187854e-01
-3.216784883782288981e-03 7.618316808248303332e-03 4.412760065119302189e-01
4.343236385334689822e-03 7.021335402067038767e-02 4.686742951807104096e-01
1.173136170790156640e-02 1.137833107147365533e-02 4.455198041748466009e-01
2.651171879945619231e-02 4.319770179900377788e-02 4.648861910249144080e-01
4.353999573858637756e-02 2.982109836954165150e-02 4.948922308554829508e-01
1.460966058509454921e-02 3.214496830416307960e-02 4.547797414599718535e-01
4.633882044976803290e-03 5.308245585114267084e-02 4.597324952839882406e-01
1.182648426158936991e-02 3.913851320791965349e-02 4.569492820739111671e-01
-1.163038955739949948e-02 5.579708792947074558e-02 4.587194721844145562e-01
1.574468056414666042e-02 3.989442793449159141e-02 4.583643940422557628e-01
2.289100614260443020e-02 6.472833328406354947e-02 5.083479837275683977e-01
-1.237466776014616281e-03 9.786232235925016246e-03 4.424307508310747483e-01
-5.926283729180388885e-03 1.125414389573737607e-02 4.422547784546504990e-01
3.980426535302042379e-02 2.214393402636945923e-02 4.644502615581870830e-01
2.978271464208771119e-02 3.302613172069200631e-02 4.620073865466560181e-01
1.716490123299554624e-02 6.886322162294422622e-02 5.070825901455728868e-01
4.456319507605832619e-02 2.325448189323363335e-02 4.744812794841961612e-01
-1.840638175760984669e-03 3.121171472637926728e-02 4.508620850028526306e-01
7.161257550270911168e-03 1.961018509053042910e-02 4.479253893502340711e-01
3.700544186024284921e-02 4.168671807313375360e-02 4.734664818785382923e-01
1.647609261923686091e-02 4.138244151654824066e-02 5.323973379849856746e-01
-9.239703892572111860e-03 2.686162176133059451e-02 4.478047397067710933e-01
2.275284284011015040e-02 7.251545887386134925e-02 4.826982996234961409e-01
-2.575547792806445746e-02 2.038484940634255078e-03 4.381459170098175315e-01
-2.060211717280602262e-03 -2.872274134825469546e-04 4.385853964560560425e-01
-2.157262878490069993e-02 5.357199630458276546e-02 4.585962111610676906e-01
5.600533287945576658e-03 6.129769613588902794e-02 5.233664261945436547e-01
-3.754416769605426613e-02 4.021806863064911891e-02 4.537271408867769584e-01
2.197106680288796882e-02 6.406396027346845934e-02 5.109099334319855412e-01
7.636903876895547068e-03 6.166127807205536854e-02 5.171655654429975213e-01
1.726325524017629370e-02 5.935909123853842090e-02 4.662629211552334341e-01
2.207275570839987121e-03 9.901628038717535246e-03 4.430893361539327557e-01
1.974652324417768348e-02 5.934516206038611269e-02 4.674469828513377889e-01
3.857872342129516074e-02 3.537000092827437270e-02 5.061006543507716726e-01
7.727412571041359507e-03 6.221027663692506315e-02 5.256329224090932062e-01
-2.406706463002316471e-02 6.159486480334035174e-03 4.387472029841158472e-01
2.300428336299877030e-02 7.053426060088707761e-02 4.783869378972981923e-01
3.840868945879338109e-02 3.425139211496969899e-02 5.063858946331470934e-01
3.035481834230010362e-02 2.514950902411598743e-02 5.242237784540458856e-01
3.649186196177417463e-02 1.855433935441154134e-02 4.597727836858386263e-01
3.616081114692035192e-02 3.004378031326343165e-02 5.139181021731467069e-01
1.951206289085989296e-02 5.308402356887278323e-02 4.650129474465256041e-01
4.282115696425025514e-02 3.568432131798147944e-02 4.918899838108599654e-01
1.044961749782350943e-02 6.442514924465869708e-02 5.096967999706689678e-01
1.505826160796889211e-02 6.951632022279158329e-02 4.697353413842006442e-01
3.365469751762071443e-02 1.943085943064412971e-02 5.226795130476007412e-01
3.756996560054931544e-04 5.007278251262800919e-03 4.408423526115082258e-01
-1.301471003671928958e-02 3.128109160464513649e-02 4.491789026485111247e-01
4.524472897023225360e-02 2.526869469735126827e-02 4.802589303339567239e-01
3.324565298714420719e-02 2.991421112697403156e-02 4.627862612579242141e-01
4.452285945226371056e-02 2.484576589752689191e-02 4.757126510386779916e-01
3.598108336514832528e-02 3.405122932779896389e-02 5.115536068955616189e-01
1.310040846865117257e-02 4.690978979661548226e-02 5.309763760059960092e-01
2.724488294453376175e-02 5.264381217377721300e-02 4.700588225922265884e-01
1.850307216073854288e-02 3.685179068998460650e-02 4.579536978777392631e-01
2.004603340840238265e-02 4.927357397810428613e-02 5.222654909848252203e-01
-2.289050559896096959e-02 2.496156260580426056e-02 4.456346989401730463e-01
-1.649473145084093609e-02 1.156702973364998055e-02 4.406475119119920292e-01
3.892897938577441486e-02 1.859798343172923418e-02 5.168250232306682568e-01
1.322368909812453308e-02 1.285872236121525340e-02 4.464401042518155172e-01
1.151271489473994561e-02 6.918599956570274656e-02 5.048672152046108641e-01
2.900904339220118991e-02 6.498809327262239366e-02 4.846221241959914328e-01
3.696177660013966887e-02 5.035860038168928077e-02 4.924336574499109109e-01
1.100188599741756292e-02 6.239528562355930313e-02 4.647273677679788495e-01
-9.938964600861579027e-03 1.391767455852858243e-02 4.426397094768055318e-01
2.196433279493084645e-02 5.565909942167918123e-02 5.188623206982915237e-01
4.536858782155057251e-02 2.595331659090322277e-02 4.839047564152198500e-01
1.702633274159037757e-04 6.888691151031528515e-02 4.674217515586444049e-01
2.501298154986381084e-02 1.780837116731296028e-03 5.328333785207272077e-01
4.270658200251830489e-02 2.674441211631011991e-02 4.997886158018982616e-01
1.164268587376950104e-02 6.429442625583924042e-02 5.157596066413235869e-01
4.572955789054428816e-02 2.243174110963069498e-02 4.935185634127489673e-01
1.535157350813807359e-02 3.399043415492049303e-02 4.558131193562934280e-01
-2.911068115520826227e-02 2.891369216860445804e-02 4.473006911108702854e-01
1.175268712145905933e-02 7.333571586059579872e-02 4.721585119777457762e-01
-1.433949473610567765e-02 1.033878328661086594e-02 4.405336285989011613e-01
-9.947168670757476627e-04 5.621363158851536840e-02 5.226627091876785425e-01
-2.054601428753430326e-02 1.171499902918125575e-03 4.376509461509272003e-01
-4.900172368224201512e-03 5.905968263202736324e-02 4.597441888628437390e-01
5.038684345477799018e-03 7.233313530524709822e-02 4.720476932038051854e-01
7.791079945751847730e-03 7.369755015700887868e-02 4.721231670445712458e-01
-2.615221925005669495e-02 2.247573761815680957e-02 4.446428206759913682e-01
2.095309387741246809e-02 6.039188636416842337e-02 5.171594474098263339e-01
3.396244502326433573e-02 5.637782603800920583e-02 4.922312155763195474e-01
1.589436140338261125e-02 7.370363840609815698e-02 4.985755684613812910e-01
3.859098260613403469e-02 4.253486857165617030e-02 5.031638126839204084e-01
1.611840556691346293e-02 7.469637130646469836e-02 4.964117621590829477e-01
2.353589044979653364e-02 7.269084017399304876e-02 4.893187424026855248e-01
-1.596433337990144780e-02 3.959990650517250521e-02 4.525518991628675325e-01
8.600735822922474932e-03 7.087671755911888194e-02 4.684864896334846596e-01
-1.246258049950124333e-02 3.004716197427467067e-02 4.486439000766774265e-01
-2.804983083880169953e-02 3.349048685918789431e-02 4.491269215195439202e-01
5.410700939741227601e-03 1.577852358797952187e-02 4.460537957096515904e-01
-2.102592764857212290e-02 4.438476041899604152e-02 4.540863106266517235e-01
-2.965058577745465634e-02 1.076761874081522304e-02 4.414016996085338707e-01
1.073964963414080799e-02 4.880302668981018055e-02 5.313781393533401065e-01
1.165515214301658144e-02 7.543565496459689323e-02 4.883739199337412962e-01
1.422287029044583956e-02 7.736070656480835417e-02 4.778319859645057677e-01
2.473710502189878715e-02 6.415752370033132868e-02 4.736186461490880517e-01
1.212064478813842244e-02 6.215042662093107906e-02 5.244390486048605693e-01
-3.065228705321050920e-02 4.884205365715602737e-02 4.582047656221595600e-01
2.896715445758331342e-02 5.219586494333508520e-02 5.130248737314897500e-01
-2.359874292739842089e-02 5.147169733858001500e-02 4.578591646819194505e-01
3.736176196673057781e-02 1.936603371855554964e-02 4.608071677414371514e-01
-4.446318472545395667e-02 3.018627804190901140e-02 4.496395620204361454e-01
2.176089793520569887e-02 6.402699443955009451e-02 5.112102957426680749e-01
-2.062117318573707461e-02 1.398352119681298480e-02 4.413968954123821398e-01
6.012071784554513278e-03 5.699363887453425676e-02 5.310076773915054504e-01
3.238893640887439973e-02 5.929927955900145958e-02 4.859491270725744272e-01
-1.339823810061304028e-02 2.686195831835916023e-02 4.470956579053634306e-01
4.037069665800156054e-02 4.292884205964804523e-02 4.845918912346976470e-01
2.932637496496341700e-02 2.999206109686344129e-02 5.254083724479780004e-01
-3.197606317300415082e-03 5.710007385492905929e-02 4.593313449029570172e-01
8.671150317448462347e-03 6.851120259752620234e-02 5.018982996404780517e-01
3.465217488155536429e-02 3.923069330823665546e-02 4.685801941409343252e-01
1.184882448102742188e-02 4.432809399178765791e-02 4.589598700586443591e-01
-2.227423842202786927e-02 4.968322470782893935e-02 4.569138439464666135e-01
3.840527383997643235e-02 2.164753016978722758e-02 5.156423145416937359e-01
3.211404272822737660e-02 3.525177985080606841e-02 5.160282384211105633e-01
1.198739999226586250e-02 4.696753592474822020e-02 4.599330343200840332e-01
1.988600176602718650e-02 7.300613597720247150e-02 4.771231015069426484e-01
2.476251974778746409e-02 7.114880751788521529e-02 4.865813989041690157e-01
1.322839184877951275e-02 1.194982912001436685e-02 4.460671797736481259e-01
1.752492429478856237e-02 7.171758961867409632e-02 4.729128622947143534e-01
2.404850452580509917e-02 6.615336125437365489e-02 4.743064827682800244e-01
1.736590610042638289e-02 6.132111480998454073e-02 5.206369800816000870e-01
3.262653482551965828e-02 3.177647002262970477e-02 5.202544882996786857e-01
-1.495182231351721742e-02 7.764895394922985764e-03 4.395966224489240570e-01
1.505967425536086125e-02 2.476723119678833282e-02 4.517180286552989754e-01
3.885846258866487712e-02 4.216586381227037383e-02 5.027725733950961784e-01
3.651176582119584901e-02 1.239461677115209250e-02 5.232710252543208984e-01
3.495151658952178053e-02 3.125017838452009977e-02 4.647960590539296777e-01
2.914461774045281131e-02 3.860832068945542483e-02 5.184981148803728956e-01
3.035320662234787525e-02 4.834055600252197202e-03 5.310399127260905239e-01
3.600077378546985563e-02 4.889952027505994198e-02 5.037733518717792958e-01
-2.433260565905683015e-03 5.747000384281488600e-02 5.333303858758127181e-01
-9.446365475314029425e-03 3.961462170390286225e-02 4.533282175742960884e-01
3.745206036570340041e-02 4.566358780166533682e-02 5.035433968729331466e-01
-5.839630563297389804e-03 1.128361208058501104e-02 4.422794408830834634e-01
8.625394186713561048e-03 6.320281669253700885e-02 5.134040788963113444e-01
-6.805952481388941391e-03 5.935241057648285579e-02 4.597643916668419650e-01
3.000431158516569247e-02 6.318792454331370601e-02 4.841640483720400234e-01
3.766029568789140691e-02 4.134464503285448234e-02 4.743497661801006071e-01
1.209178622377246604e-02 6.458235737211712180e-02 4.659385810740922507e-01
3.492062899375199259e-02 1.549024353592438549e-02 5.232922500877082994e-01
4.119800675269678220e-02 3.900926482455774336e-02 4.796359444232420333e-01
2.699038590524384558e-03 2.793889950307844317e-02 4.504182907957608450e-01
2.167430143959676869e-02 3.741127265147388414e-02 5.298265967350692662e-01
2.009304376360464273e-02 3.246666364044188680e-02 4.565977335030332873e-01
3.932388563171205359e-02 2.805126776784904949e-02 4.670250709892065366e-01
1.211496541714386817e-02 1.182027614117015825e-02 4.457816308888963297e-01
7.692342749812501601e-04 5.525274637602654165e-02 4.592785258357617306e-01
-1.657234379209795647e-02 4.840371021481715275e-04 4.375258991969744882e-01
1.769078860077302404e-02 7.058747570628635948e-02 5.038284495285298981e-01
2.319414755824059787e-02 5.425732094723140914e-02 5.181829957285510879e-01
2.120002410846996699e-02 5.996092430360405040e-02 5.172038495392643487e-01
2.607584636998567032e-02 8.055393200947780219e-03 4.488689813702558262e-01
-1.764078891432489457e-02 1.317223934260991144e-02 4.411044440719085191e-01
9.448393367307659357e-04 5.158287439853402601e-02 4.582925192051344743e-01
3.287844777831796378e-02 5.720428167166337341e-02 4.803347402147010170e-01
-1.128978237695067201e-02 1.698664782528650635e-02 4.435787879448824245e-01
-9.467195810237910916e-03 3.237164011409222886e-02 4.501835594431417564e-01
3.237263159073023450e-02 5.943115471623840185e-02 4.870433410359537585e-01
-9.139563163193130738e-03 1.276599574668576924e-02 4.423225098733891136e-01
4.174153371965218240e-02 2.975930083433199133e-02 4.726289767532049768e-01
1.651512945991034584e-02 4.357386586124414873e-02 5.310276049144934118e-01
-2.858326360070910163e-03 5.337499954628474597e-02 4.582524733408198103e-01
-1.584302404603259856e-02 2.014321229748827768e-02 4.441611859736207535e-01
-1.163568484923424226e-02 2.280855161084389265e-02 4.457611309925283427e-01
4.269466048343961706e-02 3.056952993041091304e-02 4.974094094703032654e-01
3.765631499947622030e-02 4.842824909246672832e-02 4.964238483185519080e-01
9.100565086873069198e-03 6.369788910773008239e-02 5.115795404798091361e-01
3.080907609063407784e-02 3.046427822965120172e-02 5.239224026428673797e-01
-5.849371657338793551e-03 1.467034913793195932e-04 4.383241316416479072e-01
2.866352030993665062e-03 3.717745846759244049e-02 4.541516712010781331e-01
1.438559296715734119e-02 4.764376262884404550e-02 5.285114280429695777e-01
4.516672993591364788e-02 2.284845080791469973e-02 4.955499928364025530e-01
-3.166258462688145703e-02 2.113353058028045670e-02 4.446574629553260438e-01
3.731548895951823652e-02 2.437122822194621313e-02 5.158976436994009429e-01
4.446510766107543422e-02 2.517175970709504065e-02 4.758270983771638596e-01
-3.920801119620280495e-02 4.011488990658487047e-02 4.542212905868668327e-01
3.336147270109486584e-02 5.671693529858119753e-02 4.956640732153792528e-01
3.394714152348517894e-02 5.669880135331708398e-02 4.894133534556380782e-01
1.184209821509956892e-02 6.299010898084014820e-02 5.200879881751546696e-01
3.292680066995805344e-02 5.204791519595188681e-02 5.078979536417866925e-01
2.028295633797712674e-02 7.476667784799896632e-02 4.824500777387316641e-01
2.481528967441758160e-02 1.329343231520966652e-03 5.330049078790759509e-01
3.064379579908637838e-02 3.873641057783450137e-02 4.654543235973204740e-01
-1.556557904785524707e-02 6.057365120363984723e-02 4.646018947555810019e-01
3.524476034484447240e-02 1.873310816137938040e-02 4.589145197195635406e-01
1.569470218121866295e-02 3.204625329382516929e-02 4.550652607978406539e-01
3.213256687102671733e-02 5.772674326147751722e-02 4.997185071482073693e-01
1.110059459653444172e-02 1.546767253120055405e-02 4.470571452496487908e-01
2.333527100747415789e-02 5.029066156784925759e-03 5.314816887563369452e-01
1.244132301708344469e-02 5.826561784317879633e-02 5.255738930754306759e-01
2.141495886149037339e-02 7.455525542971415398e-02 4.896210145740256814e-01
3.327437442934726153e-02 5.295948390780443049e-02 5.059157276736194753e-01
4.048788158521571950e-02 4.317516036009495795e-02 4.926678301439352814e-01
-1.539910648413145809e-02 3.441410792881829939e-02 4.503351395994639184e-01
5.894921894708497409e-03 2.588072455677409289e-02 4.502066291539057463e-01
4.163040563488931700e-02 2.394696939199124699e-02 4.684480905762269942e-01
1.798477950475115689e-02 5.498715150563161791e-02 5.219112507577952087e-01
2.004886482210833584e-02 3.866753097483859036e-02 4.594008707835838812e-01
1.420747662779486484e-02 4.147297747862077610e-02 5.331011844131253730e-01
2.265037377560768367e-02 1.156160827370316529e-02 4.487619541797528422e-01
2.477705819856230399e-03 1.966088414526921332e-02 4.470606131444053166e-01
-2.601780653994220302e-02 1.439801098873158026e-03 4.380901470532226338e-01
2.161186896705296831e-02 7.140036315945111345e-02 4.979965486283572940e-01
4.954302244115109041e-03 7.239431181583648456e-02 4.721403013783854741e-01
2.683312494234761300e-02 5.176486286933079661e-02 4.693164473045773333e-01
2.196668929377235818e-02 6.548510965340847978e-02 4.719849998055024032e-01
-8.235018957053644867e-03 3.983203557575855369e-02 4.535182074633037352e-01
-2.875232268047805267e-02 4.342666265970906991e-02 4.538271851455104033e-01
-6.930325338084207532e-03 1.352040824136986966e-02 4.429633284989767938e-01
1.040045655453897613e-02 6.280867756835142868e-02 5.210406290011738717e-01
2.037965400722042617e-02 1.809369470770697680e-02 4.501999492009026715e-01
-1.327433327172259508e-02 5.947059712453210689e-02 4.615033877650289718e-01
4.062362463520554495e-02 3.941730675468499423e-02 4.998942265996225154e-01
2.064866153520406727e-03 5.803587497442426468e-02 5.218468919942074180e-01
4.070194411203082591e-02 3.904745434856162628e-02 4.781693064374435420e-01
2.837917080104042714e-02 5.454262553646078981e-02 4.718413653650935791e-01
3.524598690770386344e-02 2.126049868035015736e-02 4.600631105183155545e-01
1.630674045824241289e-02 4.263404146420880780e-02 5.322431814264189098e-01
1.499296009435496443e-02 7.060077582589731338e-02 4.702776278167721258e-01
2.522833573349498801e-02 5.957176683070653650e-02 5.123333795717497363e-01
1.667574539683760147e-03 4.956461979607426627e-02 4.578792953834446289e-01
-3.391171110311961417e-02 8.581517766221430366e-05 4.391336461846724326e-01
4.256494204417224370e-02 3.665595525713079283e-02 4.925022381392011872e-01
2.242803207919906450e-02 6.552933899175926447e-02 5.070174118955098619e-01
1.190658468403830647e-02 6.343424209616020659e-02 5.185549734038270575e-01
6.901082172305226733e-03 6.122222737500634948e-02 5.213719936124194820e-01
1.932569834263825684e-02 5.986678413870458182e-02 5.194691133039505138e-01
2.603169990087523915e-03 4.909119067886587306e-02 4.579827918898448091e-01
7.498427331684730246e-03 1.749837749627927708e-02 4.471412872917159831e-01
1.375263416573990066e-02 6.575609986220208592e-02 5.099573534356381943e-01
2.228637279732276905e-02 6.775129198692829424e-02 5.035756567211514545e-01
1.168018386528981052e-02 7.044808854221944194e-02 5.014718059976264186e-01
2.561506835078336888e-02 1.134078990631456375e-02 4.499579890864372489e-01
4.110748212680816888e-02 4.155003348402130925e-02 4.892932984660462448e-01
8.662479947018979567e-03 6.071607134978519726e-02 4.632320456817689558e-01
1.971240710371657129e-02 4.143468506231241105e-02 5.299125517010951913e-01
-1.797652954990046695e-02 6.001058713435945130e-02 4.656545255998261190e-01
-1.937615758988505549e-02 4.176857979446074558e-03 4.382355499473963301e-01
1.418068793608373915e-02 4.935399341405997953e-02 4.615569001133875138e-01
1.679502401612707405e-02 2.000359658865155307e-02 4.501220103743543421e-01
2.809671198656632507e-02 6.462851848445821945e-02 4.965023939584288226e-01
2.429742548894022261e-02 2.071219677210569057e-02 4.532621043557694129e-01
1.448161734667857345e-02 9.270482877862726984e-03 4.452675914760345632e-01
-1.020473789699194098e-02 -4.929256527190948797e-03 4.368755707825794365e-01
