3.544005002859283715e-02 4.354642407619391253e-02 4.725102442380064716e-01
-1.435385230633560820e-02 6.066104445369049220e-02 4.631970201031894718e-01
-4.107295557395782698e-02 1.181360104788253167e-03 4.414794048341457722e-01
1.072659565393039444e-02 3.593827150469567494e-02 4.553431102592171431e-01
2.957005331657580616e-02 4.697909147428296767e-02 5.148263690033006990e-01
-6.149693357142251883e-03 1.741809919621104680e-02 4.445846439991909538e-01
3.819243119726539043e-02 3.681144390165559666e-02 4.714658788081849128e-01
4.616157890305298134e-02 2.325634206140099816e-02 4.842693385234098646e-01
2.355477173483019535e-02 5.656392370581869028e-02 4.688644782848018777e-01
-9.589300994936784256e-03 4.814864699220555017e-02 4.562081584594341876e-01
2.368571815633420050e-02 3.307607559630629246e-02 4.584086802967962671e-01
-2.367088185275697393e-02 4.315824738871319732e-02 4.534131148858976390e-01
-4.008347695045257064e-02 7.612812351159385909e-04 4.411727162842091210e-01
6.281803287359966417e-03 4.642566767397615646e-02 5.356000801218627760e-01
1.330291656866208413e-02 4.423154092180049679e-02 5.332161034726431437e-01
1.509643363361565065e-02 3.351043600591231686e-02 4.554924453699561449e-01
2.918436756623420114e-02 2.030711075710256441e-02 4.556316096801167892e-01
3.439851260668986416e-02 5.286893341463812929e-02 5.014816111039278601e-01
4.293363221948951619e-02 3.336127147306636176e-02 4.796923868699732862e-01
3.446184260185367054e-02 2.810190778914865156e-02 5.197543740253683930e-01
2.035625037809631749e-02 5.958855798866604520e-02 5.184074421476311256e-01
1.393216660198364105e-02 3.727702832740702882e-02 4.567201017945462516e-01
4.202862458678450347e-02 3.920864371173079371e-02 4.897086129561376011e-01
6.679371188508790094e-03 1.943455404049737253e-02 4.477452507474758425e-01
2.631794292450190254e-02 6.890908843424012331e-02 4.830470040005315213e-01
1.380370479211934752e-02 3.616576178200470171e-02 4.562438901489800358e-01
-1.670587606664252628e-02 5.819034246562973522e-02 4.610043066218023622e-01
-1.311666800228356846e-03 5.767315253010962123e-02 5.292487794887344998e-01
4.677979481048056068e-03 3.748847854375091104e-03 4.410852134357593490e-01
1.575568176624525876e-02 7.401626137455395715e-02 4.976308085829121430e-01
2.608160741228263829e-02 6.792923976070600056e-02 4.942453416630638863e-01
6.166102663007988482e-03 6.104010507135897851e-02 5.233569008828921065e-01
7.828586614843539154e-03 5.130050962926636232e-02 5.322066922359073304e-01
3.793173904925492557e-02 3.103472169735095945e-02 5.092570318466015378e-01
-1.004251271949822832e-02 6.063750060439657835e-02 4.617506359475003763e-01
4.318122533865739049e-02 2.713511084298672257e-02 4.737404196951033319e-01
-8.562549674790546385e-04 1.167929793221006082e-02 4.432562224977035781e-01
3.597081810301500614e-03 5.808389978036515230e-03 4.416755060567903457e-01
-3.872434721523522472e-02 2.599001823959607924e-02 4.473241610847036864e-01
2.369015106903342438e-02 4.671369116344642469e-02 4.646766171417860969e-01
2.458905083758986670e-02 7.121189577511675972e-02 4.898210409493327644e-01
2.037242387823663334e-02 6.880336885395881008e-02 5.040747458108365553e-01
3.154358368578911997e-02 2.716786806614689478e-02 4.601527163165996526e-01
1.454930903046425077e-02 3.874257239442042977e-02 4.574875067872984924e-01
3.020581357802507028e-02 3.123730805020471721e-02 5.242337950723213735e-01
2.756620460472626252e-02 2.860708640793526228e-02 4.585065715034925549e-01
-2.575037635083275364e-02 1.886678738741218858e-02 4.432728417022482326e-01
1.826211891793311920e-02 4.712695384698333684e-02 5.248578125246710080e-01
-2.111506871155439946e-02 3.540795065368194938e-02 4.501983226317010645e-01
2.797418314509946338e-02 3.366677452992290070e-02 4.611262087679410260e-01
2.581003950661248797e-02 3.478173770086522010e-02 4.603936424332540911e-01
3.691088705800864983e-02 2.364024702658869270e-02 5.177613782934028519e-01
2.853983265843054382e-02 5.548595888697178263e-02 5.113421085693959922e-01
-2.367118165162319585e-02 2.850839115367438670e-02 4.470389047024228568e-01
5.267636027928230061e-03 1.173043324122111444e-02 4.443858165459994014e-01
2.579271193348263783e-02 5.240266196658483269e-03 5.314537121346685211e-01
-1.488504763171315942e-02 6.082791642114647457e-02 4.661727598528022098e-01
-1.665934668805522240e-02 1.034473991501905915e-03 4.376420449311576033e-01
1.744953894749717155e-02 5.849558967602735970e-02 5.218128060353920405e-01
3.646130923757112674e-02 5.079599691293434222e-02 4.822786125387665268e-01
2.321372870895262869e-02 7.088677276775701142e-02 4.962118171602604155e-01
3.744662552853565696e-02 2.018769854802754046e-02 4.611934820431363158e-01
1.259490527413182487e-02 6.176870822516166565e-02 5.235894281420252483e-01
4.058087312578532307e-02 2.746525554898369276e-02 5.052080018722198140e-01
6.288197347218478506e-03 6.140766181097640636e-02 5.271283231366147293e-01
-9.130618803283948107e-03 4.824749346267550448e-02 4.562757452841560424e-01
-9.265602957302838949e-03 5.485769378389012546e-02 4.583764187539870472e-01
2.064237831172321957e-02 4.126981595213418536e-02 5.289015569091450875e-01
2.720772034159225569e-02 4.883431456739356635e-02 5.161558684854523626e-01
-1.266761874598032293e-02 -1.002129894908469418e-03 4.373919999140660209e-01
1.226429798137364593e-02 2.923235499047500963e-02 4.529044292434309948e-01
2.868814100557579017e-02 2.491279977234896886e-02 5.256307579658244800e-01
2.039086794784122220e-02 2.386576173835512973e-02 4.529719996259329862e-01
-2.628937459807742169e-02 1.741323984306780356e-02 4.427401363167813853e-01
1.723427739516691579e-02 3.838384108301278602e-02 5.319167651193572599e-01
-4.128158321896908262e-03 1.995975103322290140e-02 4.459253389559799663e-01
2.373046281978590313e-02 5.649542146212224725e-02 5.168235504415737980e-01
5.767028318276780363e-03 1.488011793009341374e-02 4.457460504058237682e-01
2.586977787938755935e-02 5.175351035109614084e-02 5.166038017391715309e-01
-3.993841731390976313e-02 2.754639605006172984e-02 4.480066374016794528e-01
2.582924823347861748e-02 5.457256571116621963e-02 4.697817512106780558e-01
3.865433354471841526e-02 2.224178179319728083e-02 5.143189586015421977e-01
4.008606651885644051e-02 4.412713702176628700e-02 4.866595925655318178e-01
3.250137054761849387e-02 3.488179262306952827e-02 4.646740179966747375e-01
1.417924600502312379e-02 7.769220483970955271e-02 4.828895228768073089e-01
3.878307534533903533e-02 4.650230386769640262e-02 4.964555331552585882e-01
3.714340577496848955e-02 2.845125731558578383e-02 5.125962114688156213e-01
6.205621041417777768e-03 5.076656359969848598e-02 5.357599016926269941e-01
2.762429834567924070e-02 6.560741525009412822e-02 4.954522995010789965e-01
3.216313754742021469e-02 5.492552650123008057e-02 5.059049644001799573e-01
3.945943342153181155e-03 5.877879853115266368e-02 5.161679523248392520e-01
2.383364091145792271e-02 2.746691186532709480e-02 4.560321491560808127e-01
2.779380778498536167e-02 3.815968221260773036e-02 5.213226349567013918e-01
2.560710512260346017e-02 7.029435322217394977e-02 4.880726294008648214e-01
-3.654192838664794413e-02 3.662034684642691273e-02 4.507305550960111762e-01
4.253519610507047050e-02 2.850750195656914787e-02 4.731425311061719929e-01
3.412269377809104554e-02 3.674288796680698355e-02 5.132128210959466807e-01
6.620464103077947603e-03 4.706679043834852139e-02 4.584960028734733073e-01
2.258945683444239447e-02 1.136016239914206666e-04 5.333637629791904144e-01
2.426180584489464470e-02 6.523375811037815386e-02 4.736841292856191488e-01
1.274031546648776714e-03 6.044937525574674286e-02 5.308077029129739666e-01
1.698504314238702753e-02 5.563097880091640718e-02 5.224260573851190470e-01
-2.520403970788591061e-02 5.742312299435679140e-02 4.640492410739929796e-01
2.237834978934905017e-02 5.568973484765379206e-02 4.675969016732974826e-01
6.426370634325252740e-03 6.124980121005057371e-02 5.284439146876093174e-01
4.176182304540076995e-02 2.669496012760210271e-02 5.028385925097084153e-01
1.852462267237396654e-02 6.995995319293045467e-02 5.043796238234463658e-01
1.629354728231521832e-02 5.250345547734348167e-02 5.239749163895638384e-01
4.353646364863169443e-02 2.608651061155554257e-02 4.978472697519162327e-01
1.571543704771487943e-02 5.932475519094543293e-02 4.654676113760038980e-01
-8.942369091178903329e-03 1.170510004187078068e-02 4.419475300813463514e-01
1.395133958577065084e-02 5.048775255780442450e-02 4.618842668283892894e-01
2.691694342539621004e-02 3.099515021215301300e-02 4.592537102924459380e-01
2.118111322611148165e-02 4.577765380035748316e-02 4.630726756554736645e-01
1.294873792500360506e-02 2.605452145318531282e-02 4.517443219673594745e-01
-1.513922843472804459e-02 5.951544229358646937e-02 4.620405464635256587e-01
1.761243717985789756e-02 5.910680264276817197e-02 5.216370300938594218e-01
1.627210587769103295e-02 7.183137158835189995e-02 4.719818553841304554e-01
2.278628265518217733e-02 2.858994070420486228e-02 4.560262800349706991e-01
3.768601897453112588e-03 4.076241524839306629e-02 4.556785528525024165e-01
-2.088640609677337376e-02 1.199977411246577232e-03 4.376525432553584061e-01
4.896164563891474905e-03 3.489912255120077023e-02 4.536436670465124887e-01
3.450328155942966601e-02 4.229260773609849755e-02 5.104113446166277379e-01
2.700493086555434685e-02 5.539044133227397082e-02 5.135114900091068968e-01
1.967871678036041752e-02 7.334220404460636833e-02 4.773039612000340992e-01
-2.617873519361451837e-02 2.972536353922906188e-02 4.475481915233143759e-01
4.387702340397609674e-02 2.369208685951257679e-02 4.990308360063900883e-01
-5.908535661432678075e-04 8.548234540360308623e-03 4.420333615104404812e-01
4.433861961864694196e-02 3.029657133054169255e-02 4.900871432737883837e-01
3.591411179158283951e-02 2.658205587919225746e-02 5.175508932432437703e-01
2.943248010508416404e-02 5.151053354822413000e-02 4.711078920915505175e-01
1.616125542492615613e-02 3.603435049007028268e-02 4.568858537344512860e-01
4.215464588195011290e-04 6.841896588876471286e-02 4.663454076077369614e-01
2.082692812608183397e-02 6.188402265631472166e-02 4.691606092443448839e-01
1.638334745851312323e-03 4.651375024723068685e-02 4.570219745627738805e-01
3.134884175428116759e-02 4.829213514414369690e-02 5.120079453589672092e-01
2.830316402772253825e-02 9.363393010583689544e-03 4.506872847654519454e-01
4.518072122345853647e-02 2.379205608666794952e-02 4.771201226948813545e-01
3.557480542612311697e-02 4.754630478432845392e-02 4.757391762308822991e-01
9.294790646138582565e-03 7.394907935299616097e-02 4.722631218601290870e-01
2.359853021841592721e-02 4.224021339745585163e-02 5.225833846684390105e-01
4.451513926579943325e-02 2.126376671979842911e-02 4.726605652776140198e-01
1.749165239393670260e-02 4.032907964337237305e-02 4.590434914049854598e-01
4.359761151836882148e-02 3.072807679467330286e-02 4.789307293996628023e-01
-4.137003177848740804e-02 2.615962276166314097e-03 4.417729501262023240e-01
-1.314102241021558419e-02 4.940037385627788630e-02 4.564896074890817945e-01
-1.745040479346860254e-02 5.891454461846938606e-02 4.620309506274442590e-01
8.958048270836734689e-03 6.800807673361508598e-02 5.027344102577198104e-01
-9.036343656474845470e-03 1.768779568776003910e-02 4.442140373165400780e-01
-6.761353670501257275e-03 4.404021491497373680e-02 4.550941468109876431e-01
2.892001638940053937e-02 5.873587603429560045e-02 5.081089054405162342e-01
-7.911371725325289789e-03 1.006815502642054508e-02 4.414952973467293207e-01
3.569769197894834267e-02 2.568929639050903518e-02 4.624992668450474409e-01
3.984792558647034383e-02 3.135897193685562717e-02 5.042957605253594044e-01
-1.725152241994270044e-02 6.017426088296704695e-02 4.656989887998408406e-01
3.205788401354465328e-02 6.016223793968857037e-02 4.908022493605458392e-01
-2.265272009381650437e-02 2.721530882455993131e-02 4.465249599523037349e-01
1.465300163635081462e-02 2.965067783947348407e-02 4.536671201767913386e-01
3.472548237562494283e-02 5.039556175380108943e-02 5.055415236698280745e-01
-1.243456058340462224e-03 5.545779802551462079e-02 5.355808921482360097e-01
3.495356827375066533e-02 2.466208239383108070e-02 5.203009437187946506e-01
3.963596979825247113e-02 3.592499775706953224e-02 5.043258144711195712e-01
3.641505040190760878e-02 4.100538946504822535e-02 4.719930786373811027e-01
-2.235262324521131161e-02 2.595520244499040230e-02 4.460299539362642118e-01
-1.943244640098152438e-03 5.653814388839133176e-02 5.278581131921858960e-01
2.513514469715060970e-02 1.375528691072843562e-02 4.506726315428939977e-01
3.578488892145331723e-02 4.022620542886717887e-02 5.096102759841073526e-01
2.936028532197097057e-02 5.541287627179619646e-02 5.102859355625242177e-01
5.091961531207309793e-03 3.014679397764603516e-02 4.517576117529271129e-01
2.182054274388127782e-02 1.907207672300152701e-02 4.512099707480665689e-01
1.809353061448968139e-02 7.231364978007503996e-02 4.740186346431763953e-01
2.013188926296721401e-02 7.517347913574230767e-02 4.834168506187574432e-01
3.861914175862547066e-02 4.760063506098846653e-02 4.901179275309983097e-01
1.324351120817495592e-02 1.234237330464791303e-02 4.462087370947611098e-01
-2.231129752264571914e-02 2.060951436541152287e-02 4.439340759462342967e-01
6.430537342943985768e-03 -8.929902589519455799e-04 4.398448291714474601e-01
3.173959721953273361e-02 4.780050639042665583e-02 5.117625445412674612e-01
3.906736522981202331e-02 2.687916591462038290e-02 4.661683308000916792e-01
3.237203031686814586e-02 5.674127474252538966e-02 4.779895778802523143e-01
1.499941562363043927e-02 7.557842811665571592e-02 4.755624785743908789e-01
8.911034043424135784e-03 6.192638018849651316e-02 5.174444852586791432e-01
-3.263488359281065121e-02 4.476224997012443613e-02 4.557793044178769515e-01
4.450236093523251418e-02 2.402972976238808983e-02 4.748115976786292380e-01
1.870502839541055180e-03 5.837946658666857969e-02 5.243255685434526914e-01
1.772303850513643614e-02 3.624498171690321985e-02 4.574311454114767805e-01
3.040291699112219678e-02 6.337232579622165130e-02 4.883623600064467274e-01
1.327487558642986669e-02 3.185746815512999208e-02 4.542184372251941715e-01
1.894609478552262624e-02 7.462655079190100293e-02 4.957814272583657145e-01
-2.734745336433659982e-02 5.949310384871876745e-03 4.392077951047170803e-01
4.020658554310165347e-03 5.038905218210552178e-02 5.369093954043374639e-01
4.463249730273010328e-03 6.208121718336131328e-02 4.625281201267119058e-01
1.877884798907312677e-02 6.922385618979777500e-02 4.716763731592676923e-01
3.413713293418807471e-02 5.634774644691728507e-02 4.868990526024775667e-01
2.717699329541382533e-02 3.282871943444816420e-02 5.267463783892404328e-01
2.958116789858153753e-02 3.756941710320812339e-02 4.641175113488529291e-01
2.353976951042619989e-02 5.314839588667155668e-02 4.673961262159220809e-01
1.829120648383232572e-02 6.702192643221560608e-02 4.699552176206240883e-01
2.327040855415157122e-02 5.212732347043785158e-02 5.184461828342197265e-01
1.606456937105095809e-02 4.580207967305464228e-02 4.607894066312640535e-01
-1.275587594757316215e-02 2.511008969577072092e-02 4.464699539571006515e-01
-2.442202432662615025e-02 2.614752008139057879e-02 4.461561685658508858e-01
-6.710830937861618321e-03 5.184116442607106245e-02 4.575380143480343165e-01
2.900850597298873165e-02 7.060629531226887690e-03 5.298594747138143379e-01
3.624015489980147997e-02 2.780510684854018560e-02 5.152917809932573423e-01
9.762395415197926488e-03 5.947036280557781857e-02 4.631861078614743499e-01
2.659397542257801311e-02 3.451939015474599776e-02 4.607194787372076994e-01
1.002267607537677980e-03 7.491313683848713212e-03 4.418911196406899999e-01
2.747894722363936754e-02 1.157691906301573127e-02 4.510299155993745535e-01
2.926349591285934762e-02 6.235893125499161749e-02 5.005736210710051148e-01
1.141723914844237995e-03 5.525087195500958531e-02 5.371723356231584701e-01
3.604585204850388469e-02 1.408270684010179408e-02 5.229159598928917463e-01
4.267973335255879908e-02 3.533405965120148956e-02 4.830105816131275986e-01
7.903712829666115561e-03 7.291190032228672679e-02 4.715450926641162610e-01
-2.348532903253126858e-02 1.123534029230870840e-02 4.404416743617865504e-01
4.363563564247863874e-02 2.993401325020281223e-02 4.944058567976609697e-01
4.234417772339468811e-02 3.751466284897340270e-02 4.866713517518488352e-01
-8.545324402743243244e-03 1.880415430482167138e-02 4.447183481101799618e-01
6.760136993139652037e-03 6.034290638146381364e-02 5.177536961645380353e-01
-1.155256919601031426e-02 2.107796318246113812e-03 4.382844470756551702e-01
1.548118087420697481e-02 7.600520902334577389e-02 4.862406638579917506e-01
2.670415277502470597e-02 6.782222692210315707e-02 4.813416826865873910e-01
1.423704851094614518e-02 5.660571510970559272e-02 5.243048531356212516e-01
2.443850619901701340e-02 7.114809386346621078e-02 4.906154540390444407e-01
2.564990120421261829e-02 6.971129110190917022e-02 4.899975501244107079e-01
1.239852175226331850e-02 6.406171200630988993e-02 5.151422048862975833e-01
3.649753719004051331e-04 5.427833744244677655e-02 5.373456863625508673e-01
2.433478611099772204e-02 5.175127703996616757e-02 5.177325193214763477e-01
-2.016517149936283143e-02 4.086536079946943845e-02 4.526746279416224983e-01
4.487990778346322845e-02 2.777695784936733137e-02 4.837290225382357423e-01
2.932498686495896983e-02 6.500500868087709383e-02 4.869073836655458676e-01
2.464935181347933935e-02 2.980748333799645988e-02 5.281239745639025873e-01
4.265188152241832648e-02 2.705646588236049546e-02 4.722632511554453738e-01
-1.618701337431593945e-02 1.005436686505958681e-02 4.401063042046745588e-01
3.788068345472499210e-02 4.201698088898131456e-02 5.054708995196414145e-01
3.631635511288534846e-02 2.403008745865386694e-02 4.621686172094290335e-01
3.789179173682778734e-02 4.492707216981558366e-02 5.030688420207972689e-01
1.048484125287038257e-02 5.680723741001848792e-02 5.272196334473456814e-01
-1.516282682588811041e-02 -2.602071676611331704e-04 4.374157589579333316e-01
4.283759724209192793e-02 3.331805583748262412e-02 4.786229765530286007e-01
3.143221947216962714e-02 3.029484074682500458e-02 5.232515357162144110e-01
2.692947549127509138e-02 1.884574415685438299e-03 5.328212513706180875e-01
1.705710168003660501e-02 7.494632497582504049e-02 4.768953412557906946e-01
1.388059900381603123e-03 5.699787874844987334e-02 5.348506460763908787e-01
2.482928718812680777e-02 4.901892513015915220e-02 4.664891674214824424e-01
-4.589424652563561281e-03 6.141890721619953225e-02 4.612909422779734037e-01
4.108593107189782018e-02 2.482915075754867085e-02 4.677897518541802024e-01
-3.943315899267205160e-02 3.190190976205977552e-02 4.491780706129780976e-01
3.146488843092982296e-02 5.137364316367697831e-02 5.101344001417635887e-01
-5.414600296775263534e-03 3.944912694695287131e-02 4.536866526299789815e-01
-3.092939859668993388e-02 1.548939525605583754e-02 4.428989129423417936e-01
-2.238129168013110876e-02 3.017048586453070433e-02 4.477249259478263133e-01
4.577519978453383626e-02 2.345948335281624469e-02 4.912867833331868717e-01
6.026010811839265999e-03 2.315206551937303361e-02 4.490963157519038407e-01
3.712150806690460436e-02 2.785573973498066749e-02 5.129841708111558818e-01
2.859852566773315660e-02 5.465063382854989243e-02 5.119581595334720125e-01
-1.533459028612536509e-02 3.960538948811864746e-02 4.526256917693400328e-01
-2.369113946079916960e-02 3.772582275642705294e-03 4.381150317708766284e-01
4.331195515731320854e-03 4.349110979469589938e-02 4.567781930374752442e-01
9.826701616933863556e-03 6.566843048888999779e-02 5.071043375516091078e-01
-1.793738180602805904e-02 1.298658265141861001e-02 4.409964509678121480e-01
2.875200173635284254e-02 6.455743527857536745e-02 4.805324750751046037e-01
3.417693227451125415e-02 3.721473835095824578e-02 4.670610210813132546e-01
-1.123138268530764899e-02 5.972863334704185678e-02 4.612365469730724254e-01
2.565788437793155297e-02 5.503606179668919102e-02 4.698432073710635537e-01
1.089602849594432411e-02 6.240241801742629074e-02 5.207958771278601295e-01
1.813536899998905230e-02 7.340109398769965876e-02 4.986308922457197701e-01
2.581185321019131146e-02 6.774026161833598958e-02 4.791563324189416218e-01
3.654226440988379149e-02 2.893905065151462785e-02 5.136828231888138641e-01
3.800076970349081096e-02 2.164998105703239140e-02 4.624055079186435990e-01
3.475037455968047872e-03 5.548479355343009095e-02 5.336474750044054582e-01
4.174053943973850961e-02 2.304185284478782805e-02 4.679932938890546401e-01
-2.242888133082809529e-02 4.689140033506514205e-02 4.555653236784920068e-01
4.353581705187248990e-02 3.018206143905778627e-02 4.776219476815117826e-01
1.738984915371207321e-02 7.215111533039481051e-02 4.732589994661837718e-01
2.063021474894674925e-02 5.842278369780875419e-02 5.189630280590610267e-01
1.740448628738977023e-04 4.458150584217932672e-02 4.562127088711356859e-01
3.867664914929359529e-04 5.961956365033167782e-02 5.297741636566688506e-01
1.583427242795914375e-02 5.125484516790850681e-02 4.628092306447862403e-01
3.056886314824180592e-02 2.232080433005503156e-02 4.573343404829721126e-01
-3.233722762091759823e-02 1.421612463224783754e-02 4.428661818340389189e-01
2.242597638882232527e-02 6.112150529260251125e-02 5.145213634859368002e-01
4.236160447017630476e-02 2.907360296334529637e-02 4.732151217539559140e-01
2.527741731853315812e-02 4.053818361161819206e-02 5.223750485338742866e-01
1.299995964498534308e-02 5.763412742168557562e-02 5.251584847044978854e-01
-2.240310973830755836e-02 4.071407263070782323e-02 4.524401783700534585e-01
3.097392877705938338e-02 5.966167419272739442e-02 4.780550415311988210e-01
4.370223727365586674e-02 3.275873117468610513e-02 4.863647517600625525e-01
7.770387235847870874e-03 7.585296421376581943e-02 4.767415833533635849e-01
2.773614277325098243e-02 5.341926414635641412e-02 5.140244806574134628e-01
-2.874137405321194882e-02 1.306718271769681007e-02 4.418515605546881608e-01
2.394753174311788427e-02 6.672800187039303055e-02 4.747335173958615595e-01
6.349030471006181404e-03 2.424629845582447138e-02 4.496037394058245984e-01
7.759112063482933620e-03 6.285880992993600480e-02 4.638998738365466834e-01
-1.571877222128546456e-02 1.993782370723906974e-02 4.440996985444936596e-01
1.562552675321753765e-02 4.690347184199705755e-02 5.275182806488523113e-01
-2.111602675682336654e-03 8.680385456689797621e-03 4.418508206993880805e-01
3.717282233460431767e-02 4.986237742453929200e-02 4.836161586903603982e-01
-4.183650808368661461e-02 3.490695658667722356e-02 4.506875004493766101e-01
9.577630504451354124e-03 6.908038070028323097e-02 4.676512924389958359e-01
-2.388127099180036364e-02 3.605759480400391737e-02 4.502595863549956334e-01
2.766478852571342684e-02 6.294104907767411605e-02 5.034460474842685773e-01
3.286888776404957996e-02 4.458932478521852871e-02 4.702575440692763342e-01
-1.571848154140819548e-02 5.875754500432445876e-02 4.613512722638586361e-01
1.839739429047212299e-02 6.015189095089037291e-02 5.202488051525283597e-01
-6.012684530617434450e-03 6.274261095678936029e-02 4.627691135356434837e-01
5.038245267793853288e-03 5.562024186186117353e-02 5.322719524100989474e-01
1.168938653359283264e-02 2.225453137703079995e-02 4.499146829437268291e-01
3.919099382197303166e-02 4.601943927270997492e-02 4.933334067741179108e-01
2.186874567764070243e-02 3.343305248592121776e-02 4.577443412375751808e-01
-2.205479412186778232e-02 2.056869782711549799e-02 4.439183194709522273e-01
-2.113383539027709548e-02 3.145221961126359184e-04 4.374824667473644624e-01
4.188781651271008405e-02 2.824634078394797077e-02 5.009951011246805974e-01
-2.188299460490351206e-02 1.957901551406748125e-02 4.435389983642483158e-01
4.967772944349121977e-03 4.881669159389340901e-02 5.364095505009777165e-01
1.936679847654168563e-02 4.765492173180980312e-02 5.234901055457275021e-01
3.116953473915162406e-02 6.152931350301005242e-02 4.923421139784283640e-01
4.216675425946721234e-02 3.696650660344909245e-02 4.828035342251434381e-01
4.395118675174901346e-02 2.747975694841208599e-02 4.761620736204862925e-01
1.110058181397022108e-02 5.124436543629858065e-02 4.611790432397471218e-01
2.757029574204821962e-02 4.805944236531808217e-02 5.161566579842603586e-01
1.437194940743459839e-02 3.067696434853929566e-02 4.540320902379449963e-01
1.853948329657488514e-02 1.301950814706479345e-02 4.478360738112964201e-01
3.875255538205273770e-02 4.683662207043386844e-02 4.931142608641515546e-01
-2.725304321675662764e-02 9.625641818057762908e-03 4.403997451558491760e-01
4.432145184186019049e-02 2.283519949581383837e-02 4.733635848218139541e-01
2.936204812285334032e-02 6.290186425445262741e-02 4.973566455419616839e-01
1.919188712506236577e-03 5.480105806245341715e-02 5.373764909269094225e-01
1.878196891532756853e-03 6.383155227601634840e-02 4.634763209733331335e-01
2.667514315792542806e-02 1.965816968820562408e-02 4.539702634794750002e-01
1.682762574530711694e-02 7.252018821000935644e-02 5.000923068119949022e-01
-2.908450165084082439e-02 1.237408827746192853e-02 4.417480711225209022e-01
1.653178277565332810e-02 7.664613127267359827e-02 4.822708207638017330e-01
4.588792431691947338e-03 6.430145470166030719e-02 4.638765863754873986e-01
2.505637714298877133e-02 4.903929303428175568e-02 4.666502837556671945e-01
3.942063110189352598e-02 3.844910706349262408e-02 5.042229595456213520e-01
5.259233812447235666e-03 6.615750178802329295e-02 4.651298850119306438e-01
-3.233374458281399605e-02 2.069430797410807057e-02 4.446123055560834425e-01
3.243300402606189708e-02 3.177684593951521363e-02 4.631035617601331755e-01
-3.678187675690766656e-04 6.860007033684042965e-02 4.670569564812199204e-01
2.657576703782235997e-02 5.671754150285992363e-02 4.713325902023109415e-01
-3.629126961386559217e-03 -3.297629051527430598e-04 4.383719957234272768e-01
2.548406857166056472e-02 5.129912784867799586e-03 5.314843212784839954e-01
2.383795183912851279e-02 4.998819975549554512e-02 5.185616202224678783e-01
1.680640400683652835e-02 5.365238359804686691e-02 5.230802773809002382e-01
4.420419663472574708e-03 6.086164900744907985e-02 5.303448565517531188e-01
-1.722054669477639331e-03 3.197269586004713483e-03 4.398602862436061245e-01
-3.190472689297670084e-02 2.319800707583748178e-02 4.454166448790931598e-01
3.263560574599221054e-02 2.039921498296310906e-02 5.232315767421344965e-01
1.234741378800378354e-02 7.215711457400947326e-02 4.708346267059705381e-01
1.873310912979009660e-02 3.577073005454925458e-02 5.311007215784298019e-01
3.768004246680984465e-02 4.953225061175729749e-02 4.878064727706412085e-01
1.018316105373470726e-02 7.045357346176106539e-02 4.982811007523391122e-01
2.427194504842166908e-02 3.987925051386975728e-02 4.619818379319728385e-01
2.010747771216558899e-02 4.083422935284385102e-02 4.603845216849465904e-01
-1.761023652205703088e-02 5.988364709801978492e-02 4.639698193661196401e-01
-3.658959896257010791e-02 3.676820642304589465e-02 4.507943195356360344e-01
3.612778846463741977e-02 3.153916758847098017e-02 5.119773315062960961e-01
3.104305064241110607e-02 3.257066619599936763e-02 5.223182816688243246e-01
1.028179151895145839e-02 5.453965493570382683e-02 4.619022026277925241e-01
-1.079163846305466329e-02 1.382958550150516740e-02 4.424614550530527879e-01
4.359945057232434557e-02 2.214719922443384240e-02 4.711266324091579194e-01
2.024797613539932456e-02 6.344493394727467039e-02 4.694950554660939912e-01
-2.559853696948468510e-02 2.197887652637955588e-02 4.444617936253956181e-01
7.990104129395082799e-04 6.505170024120793260e-02 4.642578906493656232e-01
-4.087951051551489551e-02 2.304396204609242618e-02 4.469072155451829231e-01
4.080616629506357562e-02 2.997056337328393716e-02 4.708965955576046580e-01
1.511151086213630146e-02 7.635378892588047528e-02 4.777762041656318792e-01
-1.736365349192523985e-02 3.740548200228994286e-02 4.514624696268726423e-01
6.455010675316024196e-03 6.105241147811329289e-02 5.145143278967901912e-01
4.000853434594126706e-02 3.676154368277646106e-02 4.746237545597787322e-01
3.199680516285859783e-02 5.586204683117738934e-02 5.043020280699148650e-01
4.471750157817368579e-03 2.749794797709625288e-02 4.505687855216272686e-01
1.467881675741763634e-02 6.360411734099140346e-02 4.666962454701364948e-01
1.793627537896908680e-02 5.180981332835329911e-02 4.638931704768267106e-01
1.514539072640658582e-02 3.947939680110214289e-02 4.579755217094501063e-01
4.392195648807348252e-02 2.013586610451640474e-02 4.705327897462191489e-01
4.401563687599520380e-02 3.057837428627673687e-02 4.826455098282754208e-01
3.134596256702235073e-02 2.443326148408405535e-02 4.587661531175977747e-01
3.513107231220989612e-02 1.864771787453986182e-02 5.217314048897858658e-01
3.777643632156481301e-02 3.412531133578284442e-02 4.683754128116919269e-01
-1.174269794246896731e-02 3.883392794611094379e-02 4.527798343206535514e-01
-4.020331864113892151e-02 2.478422300982572116e-02 4.472733120846584809e-01
4.462943329336671594e-02 2.973077952259173609e-02 4.876839240007148080e-01
2.671630399327138208e-02 6.673075674079127773e-02 4.793672341985817931e-01
3.905599882719681948e-02 3.859039665935495161e-02 5.051697551471434622e-01
2.481445527487619040e-02 6.947945536580353576e-02 4.944864175982036092e-01
-1.898260560070673050e-02 3.544670170765455708e-02 4.504200357284167122e-01
2.760103922429796297e-02 4.532980759343276794e-02 4.665089048557800044e-01
9.900905638717981058e-03 6.319734853914392436e-02 5.136238219594684296e-01
2.049422710238801501e-02 2.799334629744480718e-02 4.547574338612820899e-01
3.935700953993984119e-02 2.633927857196629099e-02 5.087752685199868896e-01
1.203111855694552826e-02 7.007990114286159755e-02 5.020378390399256041e-01
-6.346378622589921199e-03 3.325846152943283396e-02 4.510335551572210999e-01
2.824881230945280527e-02 4.357351693051697561e-02 4.660956902129474999e-01
8.365924047479220485e-03 4.229504508283217501e-02 4.572992431135240454e-01
2.684645971470421208e-02 4.693778992928580168e-02 4.668060501350531077e-01
2.539209952062724748e-02 7.039477738672705875e-02 4.855143169262425284e-01
1.598412697097527368e-02 7.432283448995494202e-02 4.970550707608442087e-01
3.344866426929942946e-03 5.188609110484414255e-02 4.590017982840700617e-01
1.674957449526416273e-02 6.109771488675247442e-02 5.214447547477479850e-01
-3.245217912785792330e-02 2.188161808633802899e-02 4.450297151268342022e-01
3.032394808595318542e-02 3.840124373310818684e-02 5.172018368888804396e-01
1.417312536091407983e-02 7.755589595439095485e-02 4.801292587421239211e-01
-2.742850550892432862e-02 5.017010993809324637e-02 4.579878400532629290e-01
3.861905792246021069e-02 4.364954021761312947e-02 4.780381162914629223e-01
2.589275552600350458e-02 2.301881473691541613e-02 4.550823692688235056e-01
2.913789124797017821e-02 3.999800937337775336e-02 4.650016368479177875e-01
-3.452169080432031245e-02 2.694056993343642292e-02 4.469784981150562997e-01
-3.651643100179840368e-02 3.882420437164239846e-02 4.521603243402114169e-01
2.259762289948698613e-02 2.234294346641541723e-02 4.530782978823683638e-01
-1.811514335930635225e-02 5.995858201413537675e-02 4.660383462283062550e-01
3.589001215809024120e-02 3.027546370952488575e-02 5.144033224931697790e-01
-1.413423325622225994e-02 5.365555931466766543e-02 4.580045917686951795e-01
-2.251375630383180282e-02 9.207113727406691581e-03 4.397058476615375300e-01
8.511665476048082754e-03 5.450172473801834228e-02 5.299593207125958827e-01
-4.809856480663531920e-03 6.191577042325673540e-03 4.405142472928336717e-01
-8.506131422785279984e-04 4.726553347589137685e-03 4.405385748334654794e-01
1.328525266675465930e-02 7.433434811319407365e-02 4.949796613686344715e-01
4.149583389608843542e-02 4.078250376060901100e-02 4.910013670093336668e-01
4.120619639275491936e-02 3.858449452644033273e-02 4.989282865497848829e-01
3.213246674004747311e-02 2.658782275819016050e-02 4.602919273957182811e-01
1.688426163213389841e-02 3.098920523487681128e-02 4.549299089219160375e-01
-3.477630468842735079e-02 3.196951170860005964e-02 4.487197893046466768e-01
3.652735362447006445e-02 1.285763724132864272e-02 5.230346793967577401e-01
3.664804537133521667e-02 5.021252821069374650e-02 4.971717452454711417e-01
-3.517067003542383857e-02 2.556176708082611923e-02 4.465849497329351103e-01
2.452967921224988648e-02 4.095210722194136954e-02 4.625851273099833572e-01
3.709859291875974852e-02 3.036746323873210432e-02 5.115024505422754997e-01
2.709610193407028557e-03 6.972615778465822423e-02 4.683687079113363350e-01
-2.336546618270437387e-02 4.857740593888732611e-02 4.566722078382972616e-01
3.137868469506149838e-02 1.982436378013285871e-02 4.567681737954510379e-01
1.946217942886287189e-02 6.120873501367321556e-02 5.180714425267390899e-01
3.187343557648755071e-02 6.569087817362941582e-03 5.295845953401535633e-01
2.566162625123488694e-02 3.424837265107853052e-02 4.600547599552468059e-01
-2.551779028888187181e-02 1.503398778818533510e-02 4.418589684706901721e-01
1.580506101583653913e-02 4.427570497721271953e-02 5.306070151325453788e-01
4.393905861733318763e-02 3.204055997031837744e-02 4.869060973381288959e-01
3.016604643499810889e-02 6.039218655444258260e-02 5.016591208621685727e-01
3.354355261849559927e-02 5.336354985160531722e-02 5.038933839383999969e-01
3.065259099748880375e-02 6.112649675815180067e-02 4.975795498199936939e-01
1.305875130183366435e-02 5.355214672925261848e-02 5.265724030303524650e-01
3.073281487424111072e-02 4.464091443995566594e-02 4.684521899172312542e-01
1.881964001940367864e-02 5.072161247153525454e-02 5.225373119975392777e-01
3.981272464944729528e-02 4.402003406716330225e-02 4.983879083349586070e-01
3.347463637910007284e-02 2.490369196565824644e-02 5.218891561805770740e-01
1.358196491533753339e-02 7.388850119070233813e-02 4.971964074369800701e-01
4.363264677011725878e-02 2.981422762090926715e-02 4.945774649043532256e-01
3.857930589916640923e-02 4.140349043799813888e-02 4.759801244737167369e-01
-1.967871380398052497e-02 2.517033586077735419e-02 4.457943619652819378e-01
2.636483445056477318e-02 2.148711262180619946e-02 4.546351222816161219e-01
1.381061847753878823e-02 7.223458481857826519e-02 4.994182914660855732e-01
1.657805238066508910e-02 6.044909739192815684e-02 4.663284458704730073e-01
-1.485257243571674705e-02 3.091187706263939794e-02 4.487541824887377184e-01
1.107883908915868743e-02 7.697569708297687108e-02 4.753553054138145439e-01
1.697407823397165463e-02 3.039806904025621828e-02 4.547022852795121195e-01
3.132954564982061429e-02 2.694616791605770195e-02 4.599005358841989910e-01
6.472732210100559484e-03 4.402723123702752955e-02 5.350728089029276324e-01
-1.918926958098604932e-02 4.543747077469777185e-02 4.546725994699876705e-01
-1.132168422365977672e-02 -3.078009887738761448e-03 4.370934323709014246e-01
2.827981588571578525e-02 4.290795425078648001e-02 4.658044463489635634e-01
2.585548516762338142e-02 6.588488929296186514e-02 4.996355463831317345e-01
2.927891347993736432e-02 2.506259532732478881e-02 5.250249692161468307e-01
3.652214076740665019e-03 8.962061281828227755e-03 4.429537402472842889e-01
3.092544108612608339e-02 2.931241811059051919e-02 5.240585680152061165e-01
7.744319999862276684e-03 5.338769020917935593e-02 4.606653587381768222e-01
4.494126465272711007e-02 2.432413257334609460e-02 4.951600813438727378e-01
3.906267987976783096e-02 4.652408475568149682e-02 4.858940760307269291e-01
6.897686583200125440e-03 6.035831538516368833e-02 5.193268190679163343e-01
-1.658335308745324116e-02 2.886993531932795579e-02 4.476237488371617723e-01
1.821005904708335871e-02 6.680892268818537649e-02 5.090125690837558059e-01
7.425821884086332772e-03 5.507298110660187318e-02 4.610687457331866246e-01
-2.822628255535086436e-02 4.111274206823477967e-02 4.525179445286703350e-01
1.913080895536694442e-02 6.195935560467552561e-02 5.172969436016960909e-01
2.300565149394379755e-02 5.917949804176709377e-02 5.156114590946048182e-01
-1.893054750752944798e-02 1.779348637575403538e-03 4.377973499236009758e-01
9.322054978620564550e-03 3.801676085583823722e-02 4.558662619154533191e-01
3.323742564048550591e-02 5.597397628145022591e-02 4.794581329688573645e-01
-1.884682835937779785e-02 3.298335232028097586e-02 4.493294918367162216e-01
1.588333945461014099e-02 7.726282351163904494e-02 4.834383945909883074e-01
2.801049982077254835e-02 3.304998906923467539e-02 4.608365718362111285e-01
4.072512814610437099e-02 4.046043369126209321e-02 4.988329349962995485e-01
2.405888776027029219e-02 6.528754040228984534e-02 4.734910190539363128e-01
3.495571236460957854e-02 3.172707423540808980e-02 5.144733059491259919e-01
-5.969246054248665556e-03 1.355489255726331430e-02 4.431223873278605785e-01
-1.167195192494420442e-02 5.186180044883259566e-02 4.574544294459719218e-01
1.051595056669088479e-03 1.374239643076832773e-02 4.444075375315693077e-01
1.517749102879615772e-02 6.007068200280359788e-02 4.655124171655105614e-01
9.837253306514089080e-03 5.341552833098082292e-02 4.613983768291179954e-01
1.473789886881271723e-02 7.314537730169812235e-02 4.990819405812634835e-01
2.726195991543196168e-02 6.723825271984973373e-02 4.912373788088469362e-01
2.352504752930748011e-02 6.626531527418351442e-02 4.735541907337175171e-01
3.699356191812842171e-02 2.455721305176231106e-02 5.165940469816526770e-01
4.027056921153682884e-02 2.350345760976832454e-02 4.656597466670696628e-01
9.902751113735978536e-03 1.497387837914018749e-03 4.412907890531709287e-01
-3.879636981152168734e-02 3.925247083337182058e-02 4.533434135169351342e-01
2.833948119143301497e-02 3.004667542313568460e-02 4.596251972231507055e-01
3.084494379578303289e-02 2.743284564258841041e-02 5.241993196439984626e-01
-3.494333659999181163e-02 6.371743399014953048e-04 4.393900431461570943e-01
1.104236495618760375e-02 5.415919829147954750e-02 4.620502714863040095e-01
3.056881559606069304e-02 6.281296755579686419e-02 4.867198872863781056e-01
