5.119321753335901587e-02 1.943137048738983325e-02 4.497132683302944578e-01
-1.350891771220739425e-02 2.900581998557855840e-02 4.447713712995758906e-01
1.027379341030879439e-01 4.066244868619914299e-02 4.609761530714210909e-01
9.705364175286054773e-02 3.382533066354488638e-02 4.892122472758489438e-01
-1.474965744556423937e-02 3.725280777132277538e-02 4.471126622887018898e-01
7.388676143064014379e-02 3.673138609071671841e-03 5.028370216034732110e-01
5.741350357785537407e-03 6.109863206750247230e-03 4.401419430943796507e-01
7.386551226002517623e-02 -4.398981025216937638e-03 4.784425161465628018e-01
8.776882700530380665e-02 1.656788786887070097e-02 4.950865904084286728e-01
1.315572612285540420e-02 5.752203512918243472e-02 4.500311913565337441e-01
1.008664843882046552e-01 2.454927601724747610e-02 4.683419590833534651e-01
8.440597467817750887e-02 3.526667000916354489e-02 5.081505270126297491e-01
8.419461589013041425e-02 1.136909705422017858e-02 4.974537319660937151e-01
3.604801580692745117e-02 4.590618829603457240e-02 4.456036435170757093e-01
1.013386531627520626e-01 3.632609666304245644e-02 4.611829292748192421e-01
6.646387288689767532e-03 -1.542283741786146592e-03 4.383893408743688158e-01
2.848202008108475722e-02 4.190772609967599593e-02 4.451304632739511713e-01
1.069372372005374279e-02 1.582550502751685351e-02 4.416460168616052062e-01
6.975036892547827050e-02 7.641448971056325964e-03 4.593595291044320073e-01
7.505130747933118351e-02 2.379278825523852350e-02 5.212372013153244721e-01
-7.268402537982963929e-03 3.206665958782896342e-02 4.441091094599842748e-01
3.660677283169971874e-02 1.111845069779076635e-02 4.452196086563504629e-01
4.794349146889023694e-02 -9.571902594492250754e-03 4.501835579714694724e-01
1.623155100349396238e-02 5.133873534491650847e-02 4.448923915639931836e-01
8.056434530253481219e-02 3.967956042733396249e-02 5.055348672904050877e-01
6.249551082946216973e-02 5.926252418673525618e-02 4.529200584598532808e-01
7.495674704855577464e-02 2.994765258828954290e-03 5.002244236629698193e-01
1.111462730350145645e-01 3.010527638943486656e-02 4.727928262099225232e-01
9.021406060506352576e-02 2.532122358959195546e-02 4.978159115696310644e-01
9.451909322317135487e-02 3.048467348973201568e-02 4.929939200345508921e-01
8.372746780047513049e-02 5.816493264946298591e-02 4.585392726899039095e-01
7.505300532846383155e-02 8.189176380004733677e-03 4.622509268533234184e-01
7.027743544711180512e-02 -8.554797840279184176e-03 4.943813056472297629e-01
8.726847438066438756e-02 1.158228040939773135e-02 4.886419216880225069e-01
4.460452564941348036e-02 2.510758531575184305e-02 4.478284001408969206e-01
3.245338106584365334e-02 3.238127278134705217e-02 4.454937574538377909e-01
8.495330987667984446e-02 4.698419093468981372e-02 4.972895553807082369e-01
8.458114495134258504e-02 2.376732548884098739e-02 5.092279934307433198e-01
6.289819576634650411e-02 3.321864756482355990e-02 4.509157820437096342e-01
9.295342049520409489e-02 4.609996573837103068e-02 4.910209235446275078e-01
9.369998370234568219e-02 4.411124164632510697e-02 4.546896943946107106e-01
9.183790162919058808e-02 3.665962937827613177e-02 4.598994166408299500e-01
3.250728920025856145e-02 -1.047864451422653295e-03 4.424585696547221336e-01
6.587396711815208042e-03 1.292696386961786174e-02 4.410014022777318798e-01
6.455386272660014468e-02 3.555170255348941849e-02 4.506579675594536427e-01
-2.569155155662943349e-02 1.254958427711863785e-02 4.466802436004055910e-01
4.194535657003561901e-02 4.792760998594802063e-02 4.460135611341191075e-01
8.322151554745838009e-02 2.608022872169691794e-02 5.113928089596644355e-01
3.595391680335349033e-02 3.351983713579034622e-03 4.441076420681226433e-01
4.870771148392076533e-02 -1.560928221141606037e-02 5.314292051992804966e-01
5.660400992681654392e-02 2.567718960900889497e-02 4.510321248805955752e-01
4.204064929196384137e-02 5.368696175123548880e-02 4.459523912545150792e-01
4.863443896312841241e-02 -9.407957751821380971e-03 4.506166238356206222e-01
1.028482926530578379e-01 2.617967556991983302e-02 4.677015343085377252e-01
5.690250726691147704e-02 2.385069280618597187e-02 4.512657439502002488e-01
4.728256953046870714e-02 1.737398865682655835e-02 4.485263036749261301e-01
4.230036156474674403e-02 3.780516577120417859e-02 4.468621828845716348e-01
-4.863946242831006239e-03 3.992550527775309832e-02 4.446496351752531329e-01
8.112904516160128476e-02 5.608353036127316366e-02 4.519676198872831230e-01
7.664413369095959827e-02 -1.034919379251189077e-03 4.816905590006296811e-01
7.632781716853971610e-02 2.289378918911272320e-02 5.195829953458417361e-01
7.774486511871463168e-02 3.021138246325011725e-02 5.191415530524080557e-01
6.650423824611512158e-02 3.572171152081348583e-02 5.174409722115387300e-01
3.139411719838275383e-02 2.865822856331154498e-03 4.428207949754156547e-01
1.045798759917602877e-01 3.412457009354705195e-02 4.622308912593687813e-01
1.801813214442829145e-02 4.060670770344525227e-02 4.439578307373887589e-01
8.202968569287578948e-02 2.134530404164442299e-02 5.122138636780676491e-01
2.546409606132184200e-02 4.515659465819842761e-02 4.447312191099683787e-01
5.266328048701231224e-02 -7.710459820170600942e-03 5.258268350599537566e-01
6.168047035975877078e-03 1.583614145946438470e-02 4.411992816442390497e-01
3.469243491427645432e-02 1.264871278715817317e-02 4.449053723457473408e-01
8.007927226087642458e-02 1.037497376889830181e-02 5.046424771493417394e-01
9.827204134353953457e-02 2.194456654017066383e-02 4.778749237308045905e-01
3.667078068761441684e-02 5.749817961178764480e-02 4.461017923788829775e-01
1.000885158774589556e-01 5.012968897390628759e-02 4.679874357525212192e-01
-4.019119404119989893e-03 2.977668081553318594e-02 4.433606705605611653e-01
-1.750557845999887140e-03 3.697032832780720174e-02 4.437717350387391235e-01
8.780564266093292269e-02 4.192997728100186089e-02 4.989627677688491247e-01
4.315241814664794867e-02 -8.825584522886020106e-03 4.469733049375748113e-01
7.738371714843247928e-02 2.451180142619330260e-03 4.706752167791962149e-01
3.619947871630343518e-03 2.970803687936447376e-02 4.425897044770762401e-01
7.959823547884538331e-02 1.331072664088048946e-02 5.088896557977092838e-01
9.334226028139652742e-02 5.073430292012731657e-02 4.869515235293754851e-01
9.605842365907181490e-02 3.493964996500144998e-02 4.904129728268829536e-01
9.624037119860170963e-02 3.569396442830479604e-02 4.900692892827560043e-01
3.954129873520050714e-02 2.795564126776525857e-03 4.453133143225063706e-01
1.094064765623635818e-02 3.147580718613816539e-03 4.398001346650604049e-01
-1.105167684653546659e-02 1.609696192154848327e-02 4.417865257331276552e-01
8.762332033792449848e-02 1.502926011664049849e-02 4.931316732886148468e-01
1.413645383452115378e-02 3.706148895557432460e-02 4.433569878345829385e-01
6.590679333033507351e-03 3.319525063033614692e-02 4.428492569058430917e-01
-1.286193261579672217e-02 2.539725478365286934e-02 4.440497134510126287e-01
7.893892771501695438e-02 3.085610039263065804e-02 5.168748514962302476e-01
8.672131458715091890e-02 4.770893833225242631e-02 4.951385375619092311e-01
8.907815508627757450e-03 2.298533451198478926e-03 4.394814871233108100e-01
9.882964710380448548e-02 3.986700042460218640e-02 4.587473202087155033e-01
9.151539673825687116e-02 4.224535965165338719e-02 4.947569969985151084e-01
1.674326443755872959e-02 5.541298251626947807e-02 4.464689455272179974e-01
7.296506363148759500e-02 2.646744002224660913e-03 5.025894541209200428e-01
7.247599176221256045e-02 4.553713411132744027e-02 4.492806470916300143e-01
3.138963182342582175e-02 9.436001255917578212e-03 4.439686214047689483e-01
3.663396596218662649e-02 5.754836709525093519e-02 4.461151370717562625e-01
1.028386259056451035e-01 4.337357315660675394e-02 4.652027437011048150e-01
2.037711815926538522e-02 5.193505926964019775e-02 4.451254086813384303e-01
-4.212705819887110209e-02 2.461239700624836407e-03 4.454961888397737657e-01
1.117917380395820615e-01 3.489419767423562746e-02 4.668365795501520088e-01
9.287635076274532164e-02 5.945338846586800674e-02 4.593089470175614752e-01
1.089134362253300209e-02 4.138500718535321338e-02 4.435835105779166732e-01
3.479751758350036091e-04 3.046288044385990837e-02 4.428767465173026885e-01
1.104121088921884153e-01 3.347203911862360604e-02 4.747136881412710729e-01
1.041942688630830838e-01 4.265954671928453429e-02 4.722117136818695382e-01
-4.484786815984914340e-03 2.257417865136519472e-02 4.421022839970517038e-01
-1.458571874234202218e-02 1.341998061470758494e-02 4.423976498080565145e-01
1.455215289412230273e-02 1.118207766221223330e-02 4.416813644275787709e-01
7.261271047184572613e-02 9.246031206865891645e-04 5.006521059258178807e-01
4.723372531600191632e-02 8.757867932779758724e-03 4.482619697354339183e-01
9.268309996090226544e-02 1.604669701497022163e-02 4.811881657397378276e-01
3.361813276646311022e-02 1.901476280304696675e-02 4.451704293722386074e-01
2.124975643559640082e-02 1.070755269217232505e-02 4.423941897770872211e-01
-2.238240720177596052e-02 9.226626195814135664e-03 4.435914925057001246e-01
6.712552191454497497e-02 2.615641446787535934e-02 4.538707124057045350e-01
5.929169434886704532e-02 -5.814015594061522699e-03 4.564001466191588974e-01
4.373703785438049635e-02 2.890363973914435863e-02 4.475814910645420364e-01
9.301357135270491017e-02 2.493347926215166294e-02 4.920429314884675054e-01
7.506573600813107316e-02 5.455287974934499434e-02 4.494254695288750767e-01
6.874077263622274669e-02 -7.095174065880895456e-03 4.694824216920543414e-01
6.785109673902663119e-02 1.479254245045478339e-02 5.235342360081328694e-01
1.831197180072456285e-02 4.495738166780364684e-03 4.408401084704703377e-01
7.956094096424451423e-02 1.248519181049674923e-02 5.079524830577483163e-01
9.240031651419897130e-02 3.152055168340869851e-02 4.620375141535718044e-01
8.448122134814627093e-02 2.649148115487847538e-02 5.096458227365898708e-01
4.638854822699815805e-02 5.138503693601861877e-02 4.462223360878803669e-01
4.286202819360290794e-03 5.282810344827379954e-03 4.399211398076861013e-01
7.115266980622335369e-02 -7.913556228143624194e-03 4.902937498688825224e-01
1.510755798203649788e-02 7.976877318306548059e-03 4.412863839388361242e-01
7.425093861159254294e-02 1.751286817515866623e-02 4.587507680470731541e-01
-5.440552859536170946e-03 1.145205657359663065e-02 4.402192135739807499e-01
8.915099490804889726e-02 1.796148101249332024e-02 4.925257402705604526e-01
8.813245005944886357e-02 2.678427404940766227e-02 4.613289145655167789e-01
9.886928943331475123e-03 4.218413455560170860e-02 4.436338984247013006e-01
4.938554434562681533e-02 3.150327214200048659e-02 4.483879786674208057e-01
7.149966068861780648e-03 3.818399006147841362e-02 4.432838496696399067e-01
6.849767753859811736e-02 -8.920099402670602501e-03 4.991675179477911284e-01
6.467343954011177398e-02 1.445700346331970504e-02 4.550971453040532633e-01
6.410422464061722898e-03 3.725625812490501038e-02 4.431671803585818803e-01
7.202474684396494020e-02 -8.145106536543315900e-03 4.853590715793397181e-01
5.037326139627376458e-04 5.042850218600389983e-02 4.452484306504906342e-01
-1.992892614900333356e-02 2.561901736905453780e-02 4.468630659806660521e-01
9.621113125581227943e-02 3.005156234444890731e-02 4.619865637279892967e-01
1.455479021582039775e-02 2.976157415388697158e-02 4.428070115507329874e-01
3.855581104669767584e-02 5.901482759630074376e-02 4.463912534223927753e-01
1.081235587869751325e-01 3.169046970538306335e-02 4.660621962986156719e-01
9.201837419975647525e-02 5.422353710498196977e-02 4.764746766823759194e-01
6.762476814297110894e-02 -5.764905213438831569e-03 5.033513842872697763e-01
9.181167392455377718e-02 2.616964269576717989e-02 4.953467004659573014e-01
8.821430770630614426e-02 2.179803257977688119e-02 4.640023153404862488e-01
-5.644741443720738966e-03 3.157196177648861901e-02 4.437947548156377375e-01
7.366475357013310687e-02 2.611493460160339841e-02 4.558155846971214120e-01
5.846745410112486052e-02 -1.115167198014004740e-03 4.544570474024127171e-01
4.878506690967288062e-02 6.010516179315350538e-02 4.476231062701216401e-01
3.488586235101832217e-02 5.852256245317952882e-02 4.464134118695441966e-01
1.051152529320479173e-01 3.395298602942643795e-02 4.799848915809606931e-01
8.394923002508436483e-02 9.110477319753347569e-03 4.709803151735977300e-01
5.994191159259151802e-02 6.061917191022139773e-02 4.546191119701190608e-01
8.792316181943843345e-02 4.918190801530451794e-02 4.924106913152349607e-01
-2.500315837793794758e-03 1.384585041944255343e-02 4.404849588407422911e-01
2.984400619305037361e-02 1.444130026936904510e-02 4.440736918356317231e-01
7.301597722617308994e-02 1.125424331293832514e-02 5.149320461924195014e-01
1.064429269754356144e-01 3.406773946249521540e-02 4.635412475262771781e-01
8.211791425100372840e-03 3.623399385426658709e-02 4.430975220480541932e-01
9.244457520853920085e-02 5.080972122973991673e-02 4.541510183416466173e-01
1.119512997595791121e-01 3.122364463438200011e-02 4.705833541284525912e-01
8.034306966472108680e-02 6.412006350395757157e-03 4.695989842484102894e-01
9.640161974954233881e-02 3.309307595948716985e-02 4.900532668051065244e-01
7.920010816932430975e-02 3.407311721275436273e-02 5.130368341219451178e-01
6.913255734450851619e-02 2.063589471431458156e-02 5.256504268393596968e-01
1.091127189942823691e-02 1.996217994178139249e-02 4.418778755348349851e-01
8.732270141051090562e-02 3.613894708384178533e-02 5.034259601655369787e-01
8.366360461398608672e-02 4.499087796279099133e-02 4.514105735809705311e-01
7.358695975098715480e-02 3.791906698779225204e-02 4.529683873114899173e-01
-3.024977708532515866e-02 6.933429139979416581e-03 4.474585328938568418e-01
7.264581949495886593e-02 6.804792221046653683e-03 5.099732832497498869e-01
7.659269161191932518e-02 7.205669224616696386e-03 4.643295242230144892e-01
4.948871739325746283e-02 3.525148526474338601e-03 4.491983408995447458e-01
6.855519631992851304e-02 6.023754595972996562e-02 4.541361691796341193e-01
8.413394575575594558e-02 5.447071556385289781e-02 4.517332481919529297e-01
9.165979860296230575e-02 5.712468459140174204e-02 4.578188138010181873e-01
7.186471118819080794e-02 2.539938166524113861e-02 5.250162833412003183e-01
6.883328198509540419e-02 4.232969072228209839e-02 4.497274031127410643e-01
7.886733380946353567e-02 1.768262899018950042e-03 4.772357521102514877e-01
2.159730438351067927e-02 1.798061489767421514e-02 4.431096386158164258e-01
8.048904257781852589e-02 3.406344798304380278e-02 4.578587485411073077e-01
9.815575603540650784e-02 4.192094692372182185e-02 4.569419604122513801e-01
6.160230877039055142e-02 1.910102142469931666e-02 4.531673855233251391e-01
7.843495405421545968e-04 3.648167563746895856e-03 4.394276152300580218e-01
4.560067543627167180e-02 1.756837204466647068e-02 4.479830644297566056e-01
5.084194800537310960e-02 1.914739925940028148e-04 4.500527201268964550e-01
9.652816043815388991e-02 5.465243167398354390e-02 4.688082169449631076e-01
3.983450343302796792e-02 6.528843105993994977e-02 4.505569576870406823e-01
3.022995069398362600e-02 5.779156457748058778e-02 4.464505559430620441e-01
-6.058088868759777326e-03 3.019314196661021174e-02 4.437366325126728128e-01
9.304651456736860726e-03 8.895999670838462825e-03 4.408852161592614061e-01
9.398521138160571831e-02 5.351791788620442747e-02 4.759714629355596971e-01
1.163478786106530993e-02 5.830309561208184971e-02 4.519032012457743774e-01
8.540339037168243053e-02 1.066241156125646850e-02 4.921337030464427165e-01
1.161271892393816833e-02 2.086282440888164239e-02 4.419873547000312541e-01
-1.561552357200749266e-02 1.602359878698581680e-02 4.434088693280975324e-01
8.695683427647706021e-02 1.816156225028264098e-02 5.002576055047076586e-01
6.417147949722028233e-02 3.648912589758239672e-04 5.145823855746876063e-01
2.203284980486486071e-03 1.226242094109044299e-02 4.406034864062763345e-01
1.021528817752965501e-01 4.532523911762686292e-02 4.740364797493563098e-01
2.218919908700453525e-02 4.194843268962400451e-02 4.445202375168443298e-01
5.011768562943540867e-02 3.665091283895745983e-02 4.480658399300614936e-01
7.846870862419408343e-02 2.578023240467704202e-02 5.181128609874489088e-01
1.084381427312575419e-01 3.046029153668135953e-02 4.670633898892553870e-01
6.221694670596219362e-02 1.298367071934945077e-02 4.544356859457774345e-01
6.830066199231009383e-02 4.681907935716701774e-02 4.483887345368456900e-01
9.816220600150117603e-02 5.241898732348723722e-02 4.630987882237598829e-01
4.555534333561150201e-02 1.608329713775052874e-03 4.476414162493478344e-01
5.714472488702800057e-02 3.531081357444811053e-02 4.493188496470301163e-01
4.856713844805563007e-02 -7.009610650307168678e-04 4.491530701420292648e-01
8.829231537171709776e-02 4.870803786453100498e-02 4.525662660396294612e-01
-3.607607011893803738e-03 1.907758435356166765e-02 4.414694593826467561e-01
7.419870597178902794e-02 4.725486832022230549e-02 4.489925021273826200e-01
4.824855241091838970e-02 -1.022661814532941499e-02 5.301807335167717516e-01
7.028292336861227674e-02 -1.424510741897561106e-03 5.018185085082216279e-01
1.483434618174845482e-02 1.391048935635426018e-02 4.419409960760329326e-01
6.001353395473890684e-02 6.077443131718137520e-02 4.547953954037640689e-01
-4.064902444354762112e-02 -4.872126011077986246e-04 4.408541812949483552e-01
2.382608813936318987e-02 1.051225932378403467e-03 4.408751756994188087e-01
9.204918206166640138e-02 5.654959900832687986e-02 4.724748759359997941e-01
7.052484081659371462e-03 1.186150007187209560e-02 4.409576685824265763e-01
2.424043733872109294e-02 6.065216158040112604e-02 4.493941880914255615e-01
9.772264569653382749e-04 2.489682237719329644e-02 4.421034636412578545e-01
3.046425379883717019e-02 2.181198636293220708e-02 4.447228659649374305e-01
7.466981145927396868e-02 3.013172757653078022e-03 4.664396149561313432e-01
1.010819263187420353e-01 2.744563239496179002e-02 4.810935181311337128e-01
7.078359480132126458e-02 -3.150154287261514984e-03 4.979452967603114066e-01
8.063137374903030230e-02 4.174299996320875866e-03 4.901001991043550943e-01
2.907270634292587891e-02 3.467475849312304237e-02 4.450834703527429825e-01
9.942820527409888809e-02 4.939124904189128723e-02 4.765824277277222465e-01
6.815994087208829266e-02 3.374441246305861369e-02 4.520934160592872120e-01
3.620225821012923798e-03 2.001757130804394935e-02 4.414536432861551063e-01
1.023252149322380067e-01 2.644366372857133440e-02 4.792792623038170108e-01
8.933111697143321372e-02 1.333727842674546117e-02 4.726623525064065912e-01
7.842758363036834990e-02 3.294490135495684036e-02 5.152759713391041885e-01
4.069011129664071996e-02 4.756822454019733748e-02 4.459714437050574243e-01
8.567915422078822840e-02 3.289010454275638484e-02 4.605009599653691610e-01
9.397281816459501086e-03 3.419875973220712351e-02 4.428971104944407489e-01
6.596018500847419461e-03 2.309190002861908134e-02 4.418349262002727595e-01
8.527537296401102584e-02 5.792801761369215097e-02 4.585625334498034666e-01
5.057195297812168422e-02 4.365733907558365379e-02 4.473899740935518010e-01
7.475064496938640946e-02 5.939636442357683344e-02 4.536707407323857799e-01
9.595214481412073226e-02 2.008354979757647277e-02 4.804095854816797240e-01
8.996974300021150228e-02 4.095529128975870792e-02 4.566521976280491502e-01
-2.013841521388289382e-02 3.082184581496091175e-02 4.481389952379235542e-01
7.677767568371232643e-02 5.901404462882244017e-02 4.540880237403815411e-01
4.767754075091933802e-02 -7.584297910985990029e-03 4.495527154155541938e-01
2.377250739114650929e-02 1.488922376417745920e-02 4.430797322038913522e-01
9.472456181996427582e-02 5.751355912693024985e-02 4.682987291004053754e-01
7.336996402474015022e-02 1.843576319323133456e-02 4.580332918828114996e-01
4.356009120138218393e-02 7.744850837062072606e-03 4.466559258772545005e-01
-3.909192121801981223e-02 2.952463451373491757e-03 4.441159146919794187e-01
7.914021816686378497e-02 3.756000413651369718e-02 5.096313906413479922e-01
3.037227763359684821e-02 3.542802825297493817e-03 4.427459019102198967e-01
7.756978057250031588e-02 4.388707563060386882e-04 4.878932812636528893e-01
4.165220832022034636e-02 5.828885091527995221e-02 4.464371670532349401e-01
9.250596288931660360e-02 2.833009688859284766e-02 4.617846000334234202e-01
3.574807624053170235e-02 3.326448459031185884e-02 4.460321339942971974e-01
3.216875747285777298e-02 3.227511804251413652e-02 4.454450322717820043e-01
7.475130697655534007e-02 4.076475859715119471e-02 4.515559742793234244e-01
6.462551300728314185e-02 8.188713971439647715e-03 4.562712443420797737e-01
8.872475282582276135e-02 1.263635628419783677e-02 4.862776867130605973e-01
4.016251083860317844e-02 6.487410156669344563e-02 4.497852385077140691e-01
8.006117576427081162e-02 2.484682795892168353e-02 5.160613446616861832e-01
9.158073683180019409e-02 5.417901142707871875e-02 4.556442627646348220e-01
1.005261671827271802e-01 2.416406011503667919e-02 4.801303804837122602e-01
1.071387014352693096e-01 4.014135345170275621e-02 4.715777900641096032e-01
-2.013291656029307999e-02 1.541729840697074298e-02 4.452317579988303020e-01
9.899446239050395391e-02 4.976532202517684050e-02 4.771528744746459383e-01
-2.448470736957548965e-02 1.198594486603365115e-02 4.455349665327094644e-01
7.585637923709497021e-02 4.756745818443764567e-02 4.491863068399238879e-01
9.238902149111566375e-02 4.493083357049905413e-02 4.540849200226889648e-01
8.037481708438173889e-02 4.341972950307534940e-02 4.516365836305054615e-01
7.084473359812025473e-02 3.244835669770775727e-02 4.532535485542300013e-01
8.383615010595074635e-02 3.112160371246117802e-02 5.106704863938843486e-01
4.082582576374591682e-02 5.916589778187862636e-02 4.465171671322194502e-01
9.285712660336117863e-02 4.652417545566683160e-02 4.909709943106013164e-01
8.725753721042450728e-02 9.826977770180871097e-03 4.797429176259766503e-01
1.558709558356413845e-02 5.183220905452205936e-03 4.406562590864543383e-01
-4.526171787058173683e-03 5.397319024337014770e-02 4.488373179399821611e-01
6.912242067607220208e-02 1.499987992259077703e-02 5.223558094038348587e-01
7.216095011568679496e-02 2.537785328026303730e-02 4.554615018060610976e-01
7.379786471703768391e-02 2.872362464841203555e-03 4.654194838163941972e-01
-1.672987116383175404e-02 1.445974947885696540e-02 4.435540360066471122e-01
-1.195906107424465209e-02 3.346030248583457822e-02 4.452661832491541238e-01
8.117692432880332931e-02 6.010566150410959901e-03 4.952112823098093752e-01
1.031923949617583047e-01 4.415875977098885491e-02 4.713824694968096751e-01
-3.217316314593528931e-02 -4.563482896477659249e-04 4.408177325818351533e-01
9.124993087484330190e-02 4.995636578654077953e-02 4.536485947180989853e-01
9.172920869190874515e-02 3.516358268407040327e-02 4.971847288013525046e-01
6.944279832520727780e-02 2.163641384461780989e-02 4.553247935443711092e-01
-1.791412913135705803e-02 1.327744738923732418e-02 4.436804420273668947e-01
-1.026890360393100006e-02 5.179016855297203376e-02 4.505994068622601323e-01
6.634337080087547578e-02 5.755813947065342717e-02 4.510106863397136956e-01
8.386029972764566520e-02 5.430605421306612668e-02 4.513504684583000692e-01
2.459680926793156221e-03 5.418058579031875127e-02 4.469632177144807206e-01
9.213842273192689170e-02 5.263536156006097533e-02 4.548338067648481919e-01
3.913763561651988077e-02 6.639846645697462107e-03 4.452946260923088539e-01
3.291084783128535307e-02 1.524677180900707932e-02 4.447169629674946889e-01
1.015992895320743522e-01 2.895797456596246877e-02 4.812830477915899796e-01
8.697821363172177078e-02 5.512480576905428448e-02 4.819027098580884738e-01
1.046092750758826212e-01 3.153711092383880421e-02 4.640337731422954914e-01
6.253117866487402365e-02 8.421678259989344006e-05 5.170218568710155393e-01
1.062334484080284108e-01 3.029095929630465714e-02 4.776578671844899371e-01
7.573787239546145300e-02 2.751397610775149771e-02 5.215194384613310863e-01
1.117925811727993324e-01 3.149298972439273925e-02 4.737489746083724529e-01
-1.803294743391832891e-03 1.811050957602729564e-03 4.388597032797689201e-01
8.998145727360530588e-02 1.289283766277294838e-02 4.809223332541956442e-01
1.050606348544534940e-01 3.945553896712713365e-02 4.628733665737430614e-01
7.048447432060123141e-02 -9.181297772654693420e-03 4.923639769773628938e-01
3.050301523334192355e-02 1.167814438363942199e-02 4.439797996301494964e-01
4.608930012317885572e-02 3.761247818266079401e-02 4.473866006053054400e-01
7.903140406672287677e-02 6.721373780150079191e-03 5.012330631364901867e-01
4.710300162305224025e-02 9.589672671400000306e-03 4.482548803764352940e-01
2.196566384666097035e-02 5.621339855473783675e-02 4.465676683471062614e-01
8.675555945357252274e-02 5.003979915923542632e-02 4.521162628783849669e-01
9.244660319717819957e-03 2.987231706327270198e-02 4.424482794150514375e-01
7.467164323552498428e-02 1.169320041578485875e-02 4.606970302171317089e-01
4.369361668385984138e-02 8.117649941293878998e-03 4.467009858347246731e-01
9.264685616517842615e-02 6.036298075103063709e-02 4.605911966653449263e-01
5.848397197358654043e-02 -8.830153627107782677e-03 5.205235969286645670e-01
7.669593967730391204e-02 3.514672214399865158e-02 5.143872059840784994e-01
-4.302658342800841536e-03 1.128173154874700934e-02 4.401658153402711604e-01
2.686730035556233326e-02 2.500987471685697100e-02 4.441400609421468637e-01
6.887108137882937131e-02 2.053361288861508399e-02 5.258529446384259121e-01
1.028413569224275598e-01 3.964090246858218564e-02 4.812148456895689597e-01
8.358249783997463711e-02 2.292550795626827412e-02 5.105908882305633112e-01
8.187165424397659097e-02 4.670294078168601981e-03 4.858162319429152332e-01
7.938565410171072312e-02 1.684408300784550477e-02 5.124200360405617438e-01
6.932383652082604875e-02 -3.546590237153760677e-03 4.663935487658468770e-01
4.360247437885893945e-02 3.305194052219059386e-03 4.466571379055840896e-01
1.383269597790566172e-02 4.928198205328705034e-02 4.444850659974437512e-01
5.359874582195289956e-03 4.127555416437256319e-02 4.435703230644408301e-01
6.258523185352059259e-02 5.086003487657968919e-02 4.473284095709882391e-01
8.624555448572186755e-02 4.182562113300469786e-02 5.007240433405065749e-01
6.481559912925750899e-02 4.582955727212739347e-03 5.186731696213996434e-01
8.913459524987055183e-02 1.498811535754959560e-02 4.886844245251276697e-01
1.099030114895708232e-01 2.930560154246046600e-02 4.720568443141819337e-01
7.626017972913040621e-02 3.502277870564978607e-02 5.148377187083881257e-01
4.176593379032022928e-04 1.850872422920465943e-03 4.389542279856604168e-01
5.572503871679144322e-02 3.532011412400069134e-02 4.490487031268064477e-01
-1.995194068695253092e-02 2.726453175732122466e-02 4.471784483075316174e-01
8.506459049335438061e-02 5.796071530901179131e-02 4.585627192612413694e-01
9.838097597736274180e-02 3.437236923054367427e-02 4.875191193966004755e-01
-1.848779585693490282e-02 1.189720508859022467e-02 4.433806531708118781e-01
5.928204740357251312e-02 -4.043597010149328763e-03 4.558718741315593848e-01
6.159695199811717620e-02 3.906707126821237774e-02 4.491534073426319273e-01
1.089178199734558844e-01 2.867474675066294942e-02 4.714680645492638766e-01
1.021252294558319812e-01 3.090075097870875753e-02 4.631973321928816723e-01
1.142801528167144108e-02 4.542886327383564155e-03 4.401436677726136004e-01
7.084868968364736730e-02 3.187767941498124979e-02 4.534498065091209229e-01
9.333788604360324093e-02 2.129217487036224460e-02 4.882504078893951660e-01
4.842039403553567017e-02 6.059660199546428733e-02 4.478123448484196967e-01
1.078174245695326244e-01 3.242772393126402281e-02 4.654002301675948527e-01
4.856347682404554139e-02 5.493822263984241352e-03 4.487365881738475393e-01
6.981534160808516853e-02 5.750343638117627609e-02 4.510175873356537801e-01
6.590488261313159901e-02 3.409869205133819747e-02 4.513701555214532091e-01
7.970359615830079070e-02 2.786625315509050349e-02 4.577589027892912665e-01
6.344616516909448375e-03 3.303451272472671119e-02 4.428488731981428117e-01
2.586065689984075669e-02 3.190395736481048405e-02 4.444596970806562464e-01
7.945371617844471102e-02 1.323001287232302564e-02 4.626868859675030143e-01
1.048586202167531810e-02 -2.826209975631921271e-04 4.389110377757119985e-01
-9.478702859021650995e-03 4.389822402534982598e-03 4.395615666635422913e-01
1.027817471584349246e-01 3.905035126280432395e-02 4.597875543158248535e-01
7.177251889243618788e-02 2.030709244137576461e-02 5.230435319249137072e-01
4.047026943470311694e-02 3.597576374399643478e-02 4.466729876438845781e-01
-1.294312015376081204e-02 3.911861579634479807e-02 4.465781765690436389e-01
3.987671357788014764e-02 1.588219310849087185e-02 4.464462126320422608e-01
9.611061536041394515e-02 2.017179754329583019e-02 4.726919589858714632e-01
5.911465394006697877e-02 8.165663955101222157e-03 4.533939854592901608e-01
8.312001260779627865e-02 3.281660818259918289e-02 4.594123998851691315e-01
3.643597144964309809e-02 1.249180630592510235e-02 4.452863519112222335e-01
-2.141926000403048674e-02 3.548512256963325812e-02 4.506122024015696836e-01
8.416741774852440350e-02 1.810934887881000821e-02 5.064458730577694467e-01
1.061368750998347571e-02 1.048575663568484390e-04 4.390159536632741721e-01
2.028276519766258196e-02 5.304160163342565987e-02 4.455315448140013124e-01
8.238486711466316836e-02 2.517627301379937038e-02 4.595495466787776206e-01
9.946437514604736241e-02 5.024849763200219671e-02 4.734645429665711447e-01
7.720668748545024551e-02 4.108934275629385485e-02 4.523934544299572647e-01
8.195347452012470557e-02 9.038256126548006170e-03 4.986714555588028785e-01
6.853082054433209946e-02 -1.244345279023972330e-04 4.617946296826628272e-01
8.449317037573018940e-02 5.185780640214958381e-02 4.514473790900092598e-01
-4.824824888445291421e-03 4.848014790649633060e-02 4.456381319112635020e-01
1.037555152946674913e-01 2.826920255645932328e-02 4.662622805493035760e-01
3.023868109899484000e-02 -1.270364986794733121e-03 4.416853322494476708e-01
1.454036209136162425e-02 4.599346720617673856e-02 4.441559174258211673e-01
4.093472884602658568e-02 3.007626490224010740e-02 4.469084186002211800e-01
9.335097951855626797e-02 4.947083766926622245e-02 4.547253080946973003e-01
8.627048190637069680e-02 4.560458968449507267e-02 4.520302226825028691e-01
9.809514853128156742e-02 2.541071685972708452e-02 4.851236655145781951e-01
7.026068302811067090e-02 8.054652654160821684e-03 4.595450638431045065e-01
2.062916290225372956e-02 2.372036980938639975e-02 4.431856498897491226e-01
1.718813024131303491e-02 4.340697166155803310e-02 4.440222604545073781e-01
8.492481261666325054e-02 4.545040084444961631e-02 4.516886818443195395e-01
7.155519307581369171e-02 9.272922564996137831e-03 5.144641353235832604e-01
7.935448076486982527e-02 3.968173457171756541e-02 5.062672227027955607e-01
9.443240834662986610e-03 3.252751168789660280e-02 4.427086938555702678e-01
7.017536896284438941e-02 -2.789719726587764313e-03 4.666742616237464225e-01
7.454950748989838671e-02 1.196091158580021158e-02 4.605447423079479519e-01
9.035747038177616153e-02 1.645874969440457025e-02 4.882069619535785998e-01
8.331579411155448645e-02 1.057531060280050839e-02 4.981165563089212101e-01
4.133023419792476033e-02 4.874117960848937253e-02 4.459901171384197949e-01
8.935070169518342931e-02 4.920868142492253183e-02 4.529552015143489263e-01
6.987226282747992234e-02 2.004061992491512970e-02 4.557782273463198974e-01
8.428575087558796974e-02 7.007164949660730884e-03 4.834925793544708195e-01
3.771146973337103497e-02 5.367608587137412748e-03 4.448356396620461450e-01
-8.874909314457774326e-03 2.251458501481934382e-02 4.427863461812302504e-01
1.006430715921051017e-01 4.512992762680455988e-02 4.621282671326790714e-01
9.161458689069627848e-02 3.726071809544983376e-02 4.594395511970680301e-01
8.092046540505513919e-02 5.500770668696834675e-02 4.506540312663846470e-01
-8.910231345135681547e-04 5.423230899848261594e-02 4.478534081280288182e-01
9.150280750665072682e-02 1.849993301865920925e-02 4.886245029379303051e-01
4.409036856154090189e-02 5.223382954210762513e-02 4.460166618931658000e-01
5.062427690468360858e-02 4.427630426534798214e-02 4.473250853204211452e-01
7.305701287934410204e-02 -4.306082984757843984e-03 4.902294284294771431e-01
5.249122881844970473e-03 1.944925101970364223e-02 4.415008369965470192e-01
7.534208782758512746e-02 9.594084936905464787e-04 4.697981363776830843e-01
9.931131811548482569e-02 4.794099802150820350e-02 4.611228616293191473e-01
8.745493268022236366e-02 2.528835284456929650e-02 4.614906632112566465e-01
3.280093619270976757e-02 1.432788709865846603e-02 4.446157422075591170e-01
4.111096229285369358e-02 5.570595018117609903e-02 4.459834474936776871e-01
1.995226962276367907e-02 2.290598418995367855e-02 4.430883048432444071e-01
2.388318195135063354e-02 7.798874495149898424e-03 4.424642993632904031e-01
8.361729955392203928e-02 1.339437158208527621e-02 5.027206528565835164e-01
1.370562398715012911e-03 1.842499790133871398e-02 4.411788779155763063e-01
6.329083779839621282e-02 3.622050902026588328e-03 5.200594901437153306e-01
8.655156517086549928e-02 2.242797773776008738e-02 5.050688856095303381e-01
8.049643989623340989e-02 2.930751984865994156e-02 5.155819334627431694e-01
-1.263699102822160927e-02 4.774390446203131966e-02 4.485375011271293122e-01
9.419825579990383224e-02 3.485809722408871741e-02 4.931115622845887447e-01
4.408455745587705650e-03 5.161349836248906725e-02 4.455760411861787174e-01
7.034085113289259561e-02 3.215517588544813954e-02 4.532193002178565577e-01
-4.109267036972877318e-02 -6.367257835492765548e-04 4.408796071676228667e-01
9.155685869435695179e-02 1.614472283868611385e-02 4.722871279477107165e-01
9.320523318588819217e-02 3.525498921772936278e-02 4.946576101256631719e-01
1.180577471464831427e-02 2.967368546492926695e-02 4.426074126862051816e-01
5.134645049328108446e-02 -1.468977305715689526e-02 5.290712471628303826e-01
5.947575317757899938e-03 5.122025301748031612e-02 4.453097623299216434e-01
8.972211304830336742e-02 2.541642497902488543e-02 4.989138995855679215e-01
9.589913917110834407e-02 3.600087946803060684e-02 4.904617149495962281e-01
7.963181056993859364e-02 2.837445504268489016e-03 4.753766679223032643e-01
6.933503059583873140e-02 -7.791980918394803349e-03 4.714881715165176734e-01
1.060620475217228936e-01 3.164692479689110854e-02 4.649493656828133092e-01
6.314339205809098299e-02 5.667247809136539277e-02 4.483239228203170224e-01
9.289797804463098552e-02 1.792198804825229780e-02 4.725120310484262620e-01
9.660931275546978669e-02 4.483131846675315890e-02 4.872604949758441162e-01
8.272900762192229862e-02 5.525498295169736958e-03 4.868302071627334526e-01
9.816381276705113401e-02 2.169983200906748511e-02 4.786496234059966493e-01
8.821892418977496375e-03 4.198715403863381539e-03 4.399428430861636041e-01
8.525642719001338965e-02 4.133315941192846482e-02 4.549385872053022251e-01
7.801184701613879391e-02 5.778566238431256247e-02 4.521996094897074436e-01
8.261534064058634330e-02 6.954851772582725834e-03 4.924388474186214282e-01
5.084386438311318257e-02 2.016001776168687559e-02 4.495692292287735703e-01
2.062109404324759948e-02 4.839825842236528813e-02 4.444438879227365358e-01
6.429229848981068973e-02 5.819405607569185651e-02 4.514646971522711660e-01
-2.128014287649924313e-02 8.169881500605304103e-03 4.426810655053312060e-01
7.566001693576933362e-02 2.822598145180555546e-02 4.560585621178689375e-01
8.229981706601327551e-02 9.265376170413902254e-03 4.982501403470265822e-01
-2.890473733086655964e-02 -1.393468258950002203e-04 4.408711075711361227e-01
7.132847710537768005e-02 -8.391976925008639773e-03 4.809029883490107959e-01
4.782472724685284116e-02 5.531252245014224578e-03 4.484202092288673280e-01
2.000084510413204300e-02 -1.556171963999155097e-03 4.396734961545744058e-01
7.923740132539699998e-02 3.284207879566717128e-03 4.921973023833011163e-01
9.857482937570689885e-02 2.805508593857968663e-02 4.641515653836078004e-01
3.954137071281534771e-02 -1.763672224065326172e-05 4.452093738042142146e-01
3.086304147683104071e-02 2.250107534750556484e-02 4.448243022530045665e-01
6.671671312006953458e-02 3.010131954152579781e-02 4.529382337497197542e-01
7.387013594001262673e-02 3.862213030377036060e-02 4.524935525594075969e-01
9.462260386899191966e-02 3.481704217170089599e-02 4.924081780021963839e-01
1.835404592671222024e-02 3.876654923590542451e-02 4.439374171544633318e-01
9.316279379741074229e-02 2.919757186569392829e-02 4.946515257296615342e-01
7.370025479614361608e-02 6.689088605351833916e-03 5.082430988584408782e-01
7.765838063078070452e-02 3.968717396339984521e-02 5.072892830384728713e-01
6.761004543429453839e-02 1.030101167153155313e-03 4.601774516874616028e-01
2.495389723681547961e-02 5.730751137324907596e-02 4.466880276331451904e-01
8.893555005303771521e-02 3.622836218363086058e-02 5.015369291399380813e-01
9.720506956646808583e-02 2.180136568981855261e-02 4.820627563055537301e-01
8.207014164620803076e-02 4.820690459108637610e-02 4.966586190989156768e-01
4.289732241973327753e-02 5.851100748944099844e-02 4.465272158943001113e-01
8.639049384446161051e-02 4.683898149992427734e-02 4.965582782196003020e-01
1.093577630803498485e-01 3.836712835285739642e-02 4.725037426733406098e-01
2.387949995512242060e-02 -2.545860411182115316e-03 4.400855170202535027e-01
7.289781893358518450e-02 5.784325383042368540e-02 4.503519267722750352e-01
7.005338803475277820e-02 1.449794460466217842e-02 5.209241515530003142e-01
9.298456234424612443e-02 3.474470739668691216e-02 4.952000282470453429e-01
9.509038390788884798e-02 5.389873999514310787e-02 4.598680766440620404e-01
6.799538629005795476e-02 -1.363673601114097226e-03 5.061672501721994344e-01
-2.263148896344906874e-02 3.324865435545857478e-02 4.509546611347585165e-01
4.900453322777994364e-02 3.779759817801644356e-02 4.477445313664500381e-01
