4.565990441608503911e-03 2.439729881506124895e-03 4.391479992663018805e-01
3.737438191085808159e-02 -4.741360287768532980e-04 4.440138716483585379e-01
8.399364726500414824e-03 4.829037724074658477e-02 4.437557472432797634e-01
7.914675392606755622e-02 1.023748124650551705e-02 5.067771534557590218e-01
7.169971295471364026e-02 -6.701499552412809591e-03 4.932449338109467507e-01
6.948145339739721094e-02 3.262933992290676516e-02 4.513575580581851154e-01
5.013471146265404549e-02 -1.497374523335436372e-02 5.302328954823708473e-01
-9.527247717222943335e-03 3.207621877372241609e-02 4.443008049385576141e-01
9.298413157940951801e-02 4.114509935510746175e-02 4.936860075682708571e-01
7.005253993807840363e-02 -1.819892238583794251e-03 4.635883725429995605e-01
6.701265097953573724e-02 7.472151001283432355e-03 5.192048371066669832e-01
6.289725939530527166e-02 4.917186738107084953e-02 4.462953983617056197e-01
3.468889355873051687e-03 4.969441119713697425e-02 4.442352610640786792e-01
3.106215118564169611e-02 1.885384326761509188e-02 4.441316902371520436e-01
6.956676372299476496e-02 1.119772744527229406e-02 4.570314613727881614e-01
5.369761173849888630e-02 -6.350725736107572239e-03 4.524271309338572244e-01
9.139302062942002147e-02 1.690304175380200058e-02 4.890239414841613397e-01
3.288495853157853699e-02 9.535714249116061803e-04 4.424555722232927923e-01
1.061905344808754675e-01 3.137370323076195400e-02 4.784200696507040496e-01
2.812308675126584667e-02 2.553471803686274515e-03 4.418146892154557470e-01
6.016360276451267891e-02 2.816227063428602614e-02 4.504788972497728583e-01
1.402564008458679831e-02 3.505104379392266767e-02 4.427077280899532341e-01
2.754678136707450903e-02 2.243390319588420279e-02 4.436502040062589858e-01
7.444466284816671220e-02 -1.393922473528718536e-03 4.951777909008371892e-01
6.438033867797771093e-02 -2.460670541190792138e-03 4.579607688093793594e-01
8.593974747821399307e-02 8.359265211192672129e-03 4.883568271570530861e-01
4.056002250997742253e-02 4.352804689023486752e-03 4.452214989641985476e-01
8.287746523502315110e-02 2.274234846738404370e-02 5.122691444255348392e-01
9.381460836548846660e-02 5.955407553684933381e-02 4.587045425555810185e-01
6.626688354421404747e-02 -1.051957065303293221e-02 4.678914588016067633e-01
5.285139758932037857e-02 3.335263523337495071e-03 4.500826571310657664e-01
7.074093680511331361e-02 -2.463717386746354810e-03 5.006342247400544787e-01
3.059579194062474194e-02 2.348923549611052139e-02 4.442062801577177367e-01
9.888657056025608461e-02 2.245683217035024382e-02 4.664871450510211237e-01
6.996083500920453890e-02 3.960364922824258227e-02 4.492218089320622054e-01
6.721882154996654257e-02 2.275582841734782955e-03 5.128818564269720381e-01
3.436266055114382822e-02 3.709429777102293130e-02 4.452162072957175365e-01
8.662216231025553215e-02 7.766838296624959705e-03 4.831861419609709829e-01
1.003678125909855112e-01 4.536441783831142438e-02 4.566768177293750730e-01
5.543152433895921077e-02 2.353549905332832058e-03 4.513227974633843842e-01
8.313188521767583827e-02 2.284401951278561965e-02 5.118890056849257908e-01
1.146932747235894067e-03 5.336456851547088931e-02 4.461323377261732781e-01
6.075651774335822514e-02 3.848239724380677490e-02 4.478413268200923114e-01
6.766850582155302385e-02 3.929251515702857078e-02 4.488725573094128896e-01
7.336771132806681195e-02 9.764723991711403428e-03 5.134854872726434261e-01
3.744888731930129389e-02 4.441199753376868370e-02 4.449682911024708809e-01
7.930007338476609269e-02 3.281835806398421262e-02 4.556963792464876484e-01
1.494491042525222108e-02 1.220282993617278350e-02 4.415006162556772140e-01
2.596346945248440702e-02 2.410608507430991865e-02 4.433893714835130950e-01
7.782984181387564426e-02 -1.157832770612848838e-03 4.834341067856121055e-01
-3.226588018364548449e-02 2.951090692282936669e-03 4.431342677541765807e-01
4.993059577332564780e-02 -6.625768547806771061e-03 4.501568623443104600e-01
7.828022269228326890e-02 3.430796163583151731e-02 5.137786852568620999e-01
8.046241848896726334e-02 1.021889100799601435e-02 4.633601821924576147e-01
-1.675076818876246321e-02 3.606006160221618406e-02 4.477492328616911599e-01
-1.273639701568106755e-02 4.336462299142419125e-02 4.472416068403406442e-01
4.520538416674385607e-02 2.015907541975031636e-02 4.472434409663815780e-01
6.878502959641252801e-02 3.830647401681445269e-02 4.493426961803334563e-01
9.330014654596324730e-02 2.614542224291535252e-02 4.608171907946399526e-01
1.033711898725358201e-02 3.016927412098192873e-02 4.421052293428850977e-01
3.883057198109335362e-02 4.506744768806551782e-02 4.450242967053741894e-01
7.493880812450939843e-02 6.834890398247974244e-03 5.076387636966861461e-01
8.912560765086613435e-02 1.166456534648260997e-02 4.866007663031969854e-01
1.240799447543310813e-02 1.141319801724060071e-02 4.411862659862451075e-01
8.832175984948423264e-02 5.620852313558668406e-02 4.753458065064934956e-01
7.191904035565230280e-02 -7.448501741281561908e-03 4.755350295649530268e-01
7.738423492675249038e-02 3.386574729502932896e-02 5.151235564495446617e-01
5.989944120465526961e-02 4.405035843913073651e-02 4.468258530135277851e-01
5.021391027711461646e-02 -1.057464810569593190e-02 5.287062467447439795e-01
7.960864818343785232e-02 4.514335938718361946e-02 4.486398649996021226e-01
6.437846988848795748e-02 -7.781522463921528715e-03 4.624190436703221052e-01
6.350299364515804568e-02 3.362307052248031392e-02 4.496730593755410843e-01
-2.017930017337112372e-02 1.250574941027610479e-02 4.441933557233265217e-01
5.558059012003602195e-02 6.222922059963032632e-02 4.524319380079828701e-01
7.635581700897044188e-02 1.355814492097966867e-02 4.595466988173507739e-01
4.247011872086731143e-02 4.394720099799331869e-02 4.454717418394263384e-01
6.004431949932233226e-02 2.589497016333510218e-02 4.509160515561356219e-01
3.760501345632292353e-02 5.015518390589410180e-02 4.447582363735084199e-01
5.354958744939515569e-02 1.120189267399457518e-02 4.501114756534700945e-01
1.596641783747530102e-02 2.596176973087713571e-02 4.421926744229550676e-01
9.152604132507914658e-02 1.305339146326149266e-02 4.828408639209395004e-01
2.814226109086774216e-02 -4.605939275324369073e-03 4.403473226095931947e-01
7.772896831353381941e-02 3.579678970621395090e-02 4.539563324730767069e-01
-1.915492282061197898e-02 3.626442454964627637e-02 4.490874912798268892e-01
9.931448156786078230e-02 2.813721521783904556e-02 4.615557590735691607e-01
7.953118539319808944e-02 5.815953893456904389e-02 4.520858751781619000e-01
7.259509990104794086e-02 2.380798734426147270e-02 5.236726296394638158e-01
-1.426106986341666404e-02 1.581539221369529513e-02 4.428040932007920039e-01
7.934953222018208130e-02 8.469926838733472449e-04 4.764432332219676880e-01
9.526281824829932465e-02 4.290933442159015898e-02 4.899219797270886190e-01
5.039127613765091718e-02 5.496287898499205293e-02 4.452364769349388962e-01
-1.799373434332217359e-02 4.777993777033409314e-04 4.395027175207083525e-01
8.546003830001057400e-02 3.898800868590162477e-02 5.032366497844166231e-01
-1.231691004678561047e-02 2.220232087990621148e-02 4.432066345388740447e-01
5.315592066365133067e-03 1.014581277936910629e-02 4.403446418629614056e-01
8.951441126207569654e-03 3.346377452044287191e-03 4.395742339850927660e-01
4.776013627972350295e-02 2.035293187094502562e-02 4.478533533160911073e-01
7.008912345873347105e-02 7.788997466888906637e-03 4.581601010429824927e-01
8.739153650823236474e-02 5.112198931900618915e-02 4.502143345450412282e-01
2.220901526367932352e-02 1.898464714226744121e-02 4.428278077426926473e-01
5.126338157016173402e-02 -1.457273692858424962e-03 4.498600060147787127e-01
7.922099087218528735e-02 5.674447231096070576e-02 4.488349399995142930e-01
-8.374442534219879442e-03 4.866875137780748983e-02 4.473718816082291605e-01
4.307299341607832843e-02 1.574842149731046567e-02 4.466216649297977126e-01
8.622980416331475773e-02 4.022782418971418417e-02 5.016500956534039046e-01
8.998190137277377321e-02 1.656841431743706280e-02 4.912335428013770988e-01
2.524003577705471318e-02 1.646730603093622680e-04 4.406844606394645369e-01
-1.641102310106893822e-02 1.301112850367266982e-02 4.429422731665339508e-01
1.023784044621785794e-01 4.338828296716930322e-02 4.600311414450208303e-01
2.624973088876585842e-03 2.911431523834394700e-02 4.422817344210626667e-01
-1.739838241461997767e-02 8.663558368765566717e-03 4.417195044778696733e-01
1.046082525810467373e-01 2.357467303479460902e-02 4.744839686332479878e-01
-2.777011387846185092e-03 -6.793752106474034574e-04 4.380967257628807232e-01
3.015786344737682659e-02 -6.991303593914519054e-03 4.405389423538535465e-01
2.328033115387495317e-03 3.932023386855416219e-02 4.432354211945938038e-01
8.334879410309589676e-02 2.778900858120426226e-02 4.578317634525443935e-01
6.491233596818597740e-02 6.004224843887311786e-02 4.527373228373940961e-01
5.202843943784148800e-02 2.654131104209780587e-02 4.487649036661883195e-01
1.100186260927508153e-01 2.987008167872809428e-02 4.750251228978049078e-01
-6.075782815428322145e-03 1.110122515003443382e-02 4.400747630683642941e-01
1.153898599593887464e-01 3.150600723124082764e-02 4.679882711847193066e-01
7.692083784268584357e-02 2.728991640774349262e-02 4.551919452751981288e-01
6.965727172074950846e-02 5.811180586795054032e-02 4.505971008256408616e-01
-2.598912539557208384e-02 1.706953066728309279e-03 4.409838890301055470e-01
8.024101127851589188e-02 4.264835919379075801e-02 4.501202818663818661e-01
9.854065567620154398e-02 3.125139640260487378e-02 4.879556512085485576e-01
3.432031512246324495e-02 2.051395450237479805e-03 4.429977588949238210e-01
8.717053021269402513e-02 5.138989930517586652e-02 4.501501010984040874e-01
2.347474202937842314e-02 9.447932723143852990e-03 4.423183578549415573e-01
1.072041405666022129e-01 3.768777689033484674e-02 4.601362093515133367e-01
7.084467112172178338e-02 3.974215051659459041e-02 4.492967150894048300e-01
8.138810078212910248e-02 5.845100750519015287e-02 4.569107904165467526e-01
4.836770814264663987e-02 2.085023482471951711e-02 4.479982190965987598e-01
8.599040931381389530e-02 3.989973523296011515e-02 5.021091523043686999e-01
1.038268344494534395e-01 4.092834714532254947e-02 4.608401027319896093e-01
-2.037488058338649335e-02 2.739050354898958997e-02 4.474740901688081252e-01
-2.747141794819867033e-02 4.728495262944090206e-03 4.427402697517809349e-01
8.462470366513355491e-02 5.152065329748507783e-02 4.493687293045202646e-01
7.909207350758108712e-02 4.715998519049357379e-02 4.481733147151754637e-01
1.074235188197337695e-02 9.029138031028612760e-03 4.408167041386461538e-01
4.003807631476280493e-02 3.612277475176284280e-02 4.458207533541234113e-01
6.135582286189602413e-02 4.290585182211534981e-02 4.470786378397824667e-01
3.861914621923890484e-02 3.544499666070576732e-02 4.456665759608161026e-01
1.044676489433514141e-02 5.714554343162861483e-02 4.474112176909100236e-01
2.210432224089314487e-02 5.212940259887409444e-02 4.445108215417858388e-01
4.290553578717586775e-02 -3.865754133318508902e-03 4.462222038608660291e-01
1.116149649007881356e-01 3.038707151557600017e-02 4.740456350233216432e-01
8.081832175866973667e-02 2.262756337169070237e-02 5.151529109888469682e-01
8.087276916983558717e-02 3.842133906006183625e-02 4.534048904656846624e-01
8.641096967074965440e-02 3.047130386182925199e-02 5.076526839426648285e-01
7.437353320339197549e-02 2.018946080222118813e-02 5.205266956286308533e-01
8.891452670789673496e-02 5.638857539289759968e-02 4.744968439281573303e-01
8.240886938022917718e-02 8.602497234793660824e-03 4.990834052763062911e-01
7.795331069103099420e-02 -9.489453998947246227e-04 4.828113979004825529e-01
7.182382337342906042e-02 1.947338734964483217e-02 5.226962734556461765e-01
-5.435407118128496307e-03 4.944093710518276258e-02 4.459241265766145657e-01
7.511890773480216221e-02 -4.408395923548281969e-03 4.814397902620470848e-01
8.161441941276430245e-02 1.138406432251217078e-02 4.633234316222849536e-01
4.461616674245856562e-02 4.305163184233901791e-02 4.457862248282288831e-01
7.223021758171192797e-02 3.318075291714523561e-02 4.519488857683328087e-01
7.507934744463404253e-02 3.501781070298984333e-02 5.145194408163247246e-01
3.083813392594967825e-02 1.369865299298292025e-02 4.437489383647081898e-01
-1.771722520605397214e-02 7.885636862893992058e-03 4.415641655172971025e-01
5.900792108107619921e-02 9.583520893014084441e-03 4.524073677612668321e-01
7.997928889307408251e-02 2.012285795458642907e-03 4.728786887122859439e-01
8.145736564768209231e-02 5.753753739166206013e-03 4.691463643121593363e-01
9.962409081111320286e-02 4.085136187739574209e-02 4.851752959073299398e-01
7.617290119001260407e-02 -3.295301441133575895e-03 4.843889079634791095e-01
6.868887851733718186e-02 -6.511851083500892756e-03 4.669240146586439155e-01
4.974815122393471539e-02 2.896883832410326182e-02 4.479008415861875370e-01
-2.642327901276881816e-02 1.080572815595380251e-02 4.465257136386249770e-01
-1.676254873457195052e-02 3.557195359901423048e-02 4.476313641945322552e-01
9.063520867721816532e-02 2.341908672652215362e-02 4.970603616826525517e-01
7.144331954030831711e-02 4.533400603574654769e-02 4.476811941181149113e-01
2.166732086114784087e-02 3.380049752423864434e-02 4.433592919617357353e-01
7.197524684715417287e-02 -8.851759414004383569e-03 4.819089500950062277e-01
2.436578560940657126e-02 4.881446935980857105e-02 4.439604580011609070e-01
7.782749477583203457e-02 2.696022181738301233e-03 4.969343003239612422e-01
7.447278181823323295e-02 -1.978047557263511082e-03 4.701773815599818440e-01
-1.924794593713341365e-03 5.303156369264554193e-02 4.466436830662695034e-01
6.980729857448993159e-02 2.968247058929144797e-02 4.524956711899431605e-01
3.471587930924929788e-02 -9.508173517927033264e-04 4.429976768681032628e-01
1.077473085598991132e-01 3.692887659369224751e-02 4.767090337041082759e-01
8.593961458334715975e-02 1.487955493984740099e-02 5.010623309179526030e-01
9.512221033983644936e-02 1.731941370217888673e-02 4.814608395448257139e-01
8.530810231641942909e-02 6.374110546369054706e-03 4.809074399759882268e-01
6.889081040680845869e-02 2.196050856792019362e-02 4.539328383235185504e-01
5.624356156131170292e-02 2.442112742709872525e-03 4.516880064160914698e-01
9.455455611129695223e-03 2.990619512017519011e-03 4.395105980002798618e-01
6.368460833866940174e-02 -2.771642695492840779e-03 4.575058941194502515e-01
1.003601181961765038e-01 2.770493001558762061e-02 4.841346833295200325e-01
1.856857851394369454e-03 5.386488443219657890e-02 4.463596802993150536e-01
3.265070223408069600e-02 4.470609890335035946e-02 4.445670194473088643e-01
1.047598220211260339e-01 3.862857658000194011e-02 4.793538963942953202e-01
6.724395485781392567e-02 -9.050878118111975110e-03 5.030927668797431362e-01
-1.117819155587662042e-04 2.647847271020912011e-02 4.421277259106688451e-01
2.515268883312951186e-03 5.410715958879992044e-02 4.463895545211541416e-01
8.533896217751167634e-02 8.155791210866259258e-03 4.710234293940085415e-01
7.323161803537350800e-02 4.691924376851883127e-02 4.473689109410654563e-01
1.244820634813443606e-02 7.215279098792421950e-03 4.405920250562729290e-01
4.424189196933543677e-02 5.590239300679004236e-02 4.452012238912391728e-01
5.965729969718142761e-02 1.116548424051129126e-02 4.525522869828246253e-01
7.023287209917945806e-02 2.264260064865786237e-02 4.541316241607045723e-01
8.302182654498299619e-02 4.293601417123414990e-03 4.806901196509094643e-01
7.742268248721541346e-02 -1.150544455289473529e-03 4.876303091351847363e-01
-2.705348922467828293e-02 1.400897220361352336e-04 4.405370467245537935e-01
-3.760385012931233284e-02 2.718634802169133356e-03 4.428970873380136397e-01
-1.901164780953692665e-02 3.562329213105192016e-02 4.487726475299265716e-01
-6.938723935713215184e-03 3.461726354294939606e-02 4.441896508517318987e-01
1.036472669649002587e-01 2.553499201856301512e-02 4.783344297941773404e-01
9.381557870627361961e-02 4.192981416001442113e-02 4.922462067880926107e-01
8.816921382251471928e-02 3.859984033652902324e-02 4.560008199188364530e-01
1.131883662428287973e-01 3.233690934175634940e-02 4.650250357213990826e-01
2.013802589956387168e-02 1.615168828742931731e-02 4.423556792100718504e-01
7.642711942131938385e-02 3.415794822734132766e-03 4.658856466957442266e-01
2.875273278263596605e-02 5.388259930368923672e-02 4.450049925090840408e-01
1.092030532767689216e-01 3.705214814675713425e-02 4.637390281504590872e-01
9.087475376757801759e-02 4.027154228985886653e-02 4.549490307939693667e-01
1.023477117875082470e-01 4.630966868288177718e-02 4.754401764765857075e-01
1.002196595223155823e-01 4.743213832356874687e-02 4.800886480706011983e-01
1.056844882520669437e-01 2.382523056181007348e-02 4.702458712608386104e-01
7.452737901557744682e-02 2.433949219183223836e-02 5.220518785762398029e-01
1.514876360600118238e-02 1.730811234949070423e-02 4.418770585796409911e-01
9.131325986328368838e-02 1.561132309452308888e-02 4.688442014456367102e-01
9.088999996532949599e-02 1.163602885781231389e-02 4.764628828652368586e-01
9.200676467155340099e-02 1.515440081240301134e-02 4.856306570677022538e-01
3.093497367825608080e-02 5.998988794972313215e-02 4.468392598526802484e-01
4.399910523762599890e-02 3.902788202785997113e-03 4.462489482321650436e-01
8.370326885743117895e-02 6.722464783321002724e-03 4.918788878244918505e-01
-1.533897367662543504e-02 2.686150235383901602e-02 4.449928464028393704e-01
7.407980598057078980e-02 4.701245859877424549e-02 4.474271389093783524e-01
-1.437730300649868800e-02 3.956585210484767079e-02 4.473704260308068448e-01
-1.528137560552024835e-02 7.878367622617260535e-03 4.406981562239869477e-01
6.465949573763661584e-02 4.116580085239395642e-02 4.478135803115477209e-01
8.191316815899060688e-03 3.319638339906819113e-02 4.423945176647849920e-01
6.392281537457228380e-02 -1.905813475375885482e-03 4.572566717412617776e-01
7.912479683336670622e-02 1.424473493007682307e-02 5.111833985872353825e-01
5.225098426798012452e-02 4.410698853089159432e-02 4.464137056834962536e-01
8.364650088553042540e-02 5.785434442198378324e-02 4.555244752207380787e-01
7.807561272394490659e-02 2.506105185223312520e-02 4.560454766450087738e-01
8.111054763551470148e-02 8.422746537144580603e-03 5.018630943304961400e-01
-1.830917373299870143e-02 3.014579194751637603e-02 4.470312767285880562e-01
9.520349126368982118e-02 5.252380916146909273e-02 4.773925464451244660e-01
7.076241999973192920e-02 2.154919359039737456e-02 5.244799405659640312e-01
6.572107534514633198e-02 -4.834434925719615847e-03 5.087232072141100181e-01
-2.636815916031831630e-02 1.001793366816866940e-02 4.461168412052989862e-01
7.822031580203266110e-02 2.571899057829531848e-02 4.559478345594889515e-01
-7.739986629694485705e-04 3.812174883282871962e-02 4.434417245147516118e-01
1.773065910593967995e-02 2.698937677562727663e-02 4.424270414959849407e-01
6.394960885864421629e-02 1.878462183921462275e-02 4.529460716865396086e-01
6.455261019194474814e-02 -3.072585646355254982e-03 4.586834643132018940e-01
8.741869119323980586e-02 1.067988484187817888e-02 4.899057519933376348e-01
4.234735779505590519e-02 2.534349489897946839e-02 4.465173322568832814e-01
-1.389609214138367611e-02 3.006139940034579378e-02 4.449973646885981848e-01
8.609212891922009281e-02 5.665381703051082518e-02 4.731312281017553967e-01
6.774787430306832003e-02 1.315995541298093860e-02 5.226061223527884714e-01
6.632854694504010384e-02 -4.326265964524613969e-03 5.077321640761461863e-01
7.403490199449756781e-02 5.328932108441478133e-02 4.475869552139251639e-01
6.664965116632357023e-02 3.975090701838945167e-02 4.485602839805264974e-01
1.085073839737756701e-02 5.850582998039149246e-02 4.510158462200013485e-01
9.110461256961385756e-02 1.676233515583568090e-02 4.676335176810887950e-01
9.649742665656654839e-02 5.042969500112350067e-02 4.819800808281662907e-01
9.343812438762998107e-02 2.664981617961923246e-02 4.945247409319768472e-01
9.223109382239702558e-02 4.818468969303387611e-02 4.901759447144167225e-01
9.920675882891594188e-02 3.915675237255262370e-02 4.569504179730364823e-01
8.381121701482154018e-02 1.522232576921541194e-02 4.624568628958115046e-01
5.872343247320525872e-02 4.695519798658984861e-02 4.463765323563712584e-01
8.101513360230723146e-03 3.304160142812728653e-03 4.395221819808480257e-01
1.013862767498139306e-01 4.455020608339966409e-02 4.584537810624224607e-01
8.821178523732657595e-02 4.793187075034999883e-02 4.504219350756162865e-01
3.750152683088676941e-02 3.349532169823588729e-02 4.455111476053248976e-01
7.370903448579849138e-02 -6.536878121072768437e-03 4.852129098572206534e-01
-4.811893643697149649e-03 1.269936807895280344e-02 4.402528948219365801e-01
1.324605959437172471e-02 1.393348194719338899e-02 4.414629597562675922e-01
9.815440880438229543e-02 1.959726623143292698e-02 4.774742821579643914e-01
-1.040592840017958917e-02 8.117831382716274302e-03 4.402070574523788693e-01
7.658206382029068837e-03 5.374643819847754744e-02 4.457982172981191371e-01
8.725574694174745294e-02 1.413779407621434947e-02 4.965057711953111963e-01
8.012729627199471905e-02 5.841576326095285904e-02 4.556213591382733963e-01
1.410922756083047257e-02 2.123612611651015669e-02 4.418974819691753875e-01
8.666060181719346944e-02 3.838256390588363348e-02 5.022796025429835387e-01
7.408778872896165657e-02 1.665568309608991479e-02 5.187274259745370264e-01
3.861458867243352383e-02 5.468522265527103743e-03 4.446440690913818217e-01
-2.254249945664405994e-02 1.752126946509411851e-02 4.469638858156466665e-01
-2.043424062871427097e-02 3.442275186978571017e-02 4.496055231828762766e-01
3.344488706918946619e-02 5.678557670538137564e-02 4.453325774393645520e-01
4.268502300795896931e-02 5.577532502084052435e-02 4.450875081350405549e-01
9.265992740120479465e-02 2.825595537386921610e-02 4.969856300001951332e-01
9.628516073985054352e-04 2.123440346219996819e-02 4.413253221066936738e-01
7.547888644563998523e-04 2.758220350172175053e-02 4.422281108099049285e-01
5.770643692316225482e-02 2.302739686977347232e-03 4.524206676797287718e-01
7.624155540338729831e-02 3.116931062805277167e-02 5.194129210165491228e-01
5.247602671217088677e-02 6.303453043693911517e-02 4.515287169381048127e-01
1.014285079700829872e-01 3.807046132986625225e-02 4.835238114479841753e-01
-1.775884211463729656e-02 3.862871733610117458e-02 4.488895655697881515e-01
6.794057305230434551e-02 -3.704071812076659143e-03 5.046557991625266748e-01
2.870609884977067330e-02 -1.936307310853827447e-03 4.408809422233589403e-01
9.213800140447411802e-02 4.041371766281669914e-02 4.551950386380660962e-01
8.740447976252208040e-02 5.454003196043317320e-02 4.531034771050661547e-01
5.388771740254506143e-02 -8.158092366824768946e-03 5.249455369704781882e-01
1.078050773906757791e-02 5.605326284577445695e-02 4.466245457792986651e-01
9.311246865088129709e-02 4.501906268196170097e-02 4.914156317185369716e-01
1.082192369837142037e-01 3.375639860304925632e-02 4.774186717616349385e-01
8.206117547859026473e-02 6.020261737997903949e-03 4.695728396595619247e-01
1.672770240710671694e-02 3.680372782839366058e-02 4.430860413234398720e-01
6.048349089776269144e-02 6.188987621637030874e-03 4.533472807358800427e-01
6.660026950187208916e-02 -1.364543586254962290e-03 5.095672244428842701e-01
6.445626536085286018e-02 2.934259284081865496e-02 4.512205590515420695e-01
1.021575726862408301e-01 2.899464105172799497e-02 4.619799179626892793e-01
6.976122765856687669e-02 1.108972973669084677e-02 4.571561917263193831e-01
5.331647578525521014e-02 6.061240960012893170e-02 4.472520232662435258e-01
4.548706416462816593e-02 5.569928346709691891e-02 4.452469148867952975e-01
5.392452190124383954e-02 1.488711855828802298e-02 4.499288020118428211e-01
8.235893315833943407e-02 4.079272536439314256e-02 4.524863024091250185e-01
5.234089364582748122e-02 4.178735623417401124e-02 4.466507806922242474e-01
8.990628754030684233e-02 1.105235216061788844e-02 4.731051242439303639e-01
4.697237008638961708e-02 1.626569168797449907e-02 4.476918915613309902e-01
8.210321812025492272e-02 3.393509621610461737e-03 4.786681280402174110e-01
5.401188744862131519e-02 5.800708564890617869e-02 4.462231485194003699e-01
7.424852406242993252e-02 2.272451657428634086e-03 5.013123376027426303e-01
6.447132301161193069e-02 1.608285792695721139e-02 4.536053620152081245e-01
2.022019759441358658e-02 3.041045272293826929e-02 4.429487519138510243e-01
-1.633026184941986994e-02 2.896115982136540992e-02 4.458254454310691117e-01
1.055425782034871782e-03 9.144800972854270904e-03 4.399331024481308861e-01
-4.673239740947934991e-03 7.486784010743541273e-03 4.397272504252061065e-01
3.033951727790507730e-02 5.554345875340763010e-03 4.428195748764284789e-01
9.822047420141408192e-02 5.408168577406546190e-02 4.679702795232374424e-01
7.808776599606635782e-02 2.433067449998189621e-02 5.185719578303583654e-01
7.568893987264281586e-02 5.908234770371282446e-03 5.051446654348829002e-01
9.387066092513508819e-02 2.471302498275115486e-02 4.919872487043193687e-01
7.811779125218289328e-03 1.783026878569286475e-02 4.411977528008236837e-01
-4.234796012090192435e-03 1.766718247283467769e-02 4.410442348217127884e-01
7.155432620065586835e-02 3.454156264890906325e-02 4.511925560780548072e-01
7.886827702950302554e-02 2.740021379010772890e-02 4.559812043274798499e-01
7.027609322536335079e-02 9.518008562714079870e-03 5.171581922472182624e-01
1.017664101295652213e-01 4.480773213133593114e-02 4.801558512724625749e-01
7.806561384572825724e-02 2.732332882333819712e-02 4.556494833952626222e-01
-2.009438398501863995e-03 1.078982580774309058e-02 4.400510887427561135e-01
6.274653521950969426e-02 5.835513803195065130e-02 4.496255940216581370e-01
8.158714636895547656e-02 1.448238347114908474e-02 5.084773054118776336e-01
4.783449559523689915e-02 4.959861764977906845e-04 4.481402783802900247e-01
9.447341058364180921e-02 3.305842367758854428e-02 4.940893311387439812e-01
-3.713848123537825952e-02 4.546476562244808686e-04 4.412540470304636142e-01
4.469621068985651230e-02 3.056092654528987443e-02 4.466924552395906134e-01
3.931415353695089099e-02 1.237496806452868456e-02 4.454789083808293748e-01
7.470369512472099793e-02 3.071231935881140948e-02 4.539931015764592237e-01
9.615148680080899679e-02 3.411184632141035789e-02 4.909287007528715385e-01
7.985488940562597560e-02 4.980000097982079099e-02 4.482775984001421410e-01
7.322067803860068946e-02 3.823068997499681071e-02 4.504786004553959500e-01
8.247758099069867066e-02 3.774475448180936599e-03 4.806858366978137842e-01
7.718927382203577547e-02 2.504674918077751979e-03 4.974924328142023011e-01
7.143768287985563514e-02 4.946151474187866076e-02 4.466913560877717737e-01
1.000066548740401462e-01 2.233377262230321070e-02 4.672049652374706818e-01
7.565811211373527079e-02 3.186700714039343574e-02 4.541221868528618200e-01
5.988794337319414823e-02 -1.321761976742148910e-02 4.619420117131660675e-01
-1.498735365886594631e-03 1.919434269552314221e-02 4.411634203514675501e-01
4.030081784142101192e-02 -9.007971751972634368e-04 4.450182488180148277e-01
7.612573478094811219e-02 4.662832860237119820e-02 4.477583694775353340e-01
1.108108122296768139e-01 3.709886624523447973e-02 4.696256151642030918e-01
2.729395917910801619e-02 4.307795358241912204e-02 4.442316006492798008e-01
1.095404499451358704e-01 3.766927577481726797e-02 4.673776597839761071e-01
-1.085157180848650080e-02 2.284010823857985858e-02 4.430748287550149156e-01
3.462994595455027441e-02 5.689917416186810600e-02 4.452609421310370075e-01
-1.913179482938013112e-02 1.999560939968003659e-02 4.458667937426067929e-01
6.548161685208493676e-02 6.559358723789437615e-03 5.201998648196749508e-01
6.130260802847910251e-02 -1.193161560623230873e-02 4.625426102616711499e-01
7.255086690821806183e-02 1.756505334789364853e-03 5.033158049461314842e-01
9.966832195267653904e-02 4.707222200495427000e-02 4.819480816885626795e-01
1.956691847002055631e-02 1.469353786663383024e-02 4.421751355693658292e-01
8.562062882412073417e-02 2.591839367903441688e-02 4.586917259435937533e-01
-1.959250267080263341e-02 2.436726420165941098e-02 4.464763129365300620e-01
7.970904616672731813e-02 4.959432133746646300e-03 4.679972421407470606e-01
4.978289855568236721e-02 3.048618196264368807e-02 4.476315830774505455e-01
4.256934766287139016e-02 3.550543403459356651e-02 4.460864796206565064e-01
7.195157354002713890e-02 -1.523769834824184512e-03 4.995871798745264436e-01
5.140827210650199958e-02 -1.351524336418538641e-02 5.286493798108812259e-01
6.326290110397847499e-02 1.985819378002173785e-02 4.525757325688165023e-01
8.588772377318257267e-02 2.192159038491150319e-02 5.076517458968839991e-01
8.386301739857049409e-02 1.533144504340840097e-02 5.054995908192084775e-01
7.072003820162417465e-02 1.187082481775005201e-02 4.573770904579158025e-01
7.954936013261029726e-02 1.997933515698862433e-02 5.149892742407135016e-01
6.158785483942195993e-02 -3.065305092144144251e-03 5.164633625346691792e-01
2.329924423314158610e-04 1.094983913441150564e-02 4.401607249885658435e-01
8.859776302585836705e-02 3.919960158535731182e-02 4.554735072702080778e-01
9.455249128235479472e-02 4.113517664846944727e-02 4.915835231807594297e-01
3.083708588445862459e-02 6.236594114042685183e-02 4.491795249158123671e-01
6.831920425491574966e-02 -6.720179301138566944e-03 4.666498277055264876e-01
1.024060148920917235e-01 3.742748335051170744e-02 4.824108127706038807e-01
3.849753119682426672e-02 4.207035079515408782e-02 4.452551331818358493e-01
2.088026744390749506e-02 2.633613169116584551e-02 4.427641673898666252e-01
8.112522292686218106e-02 2.902938907574829919e-02 4.569534233199268325e-01
4.425712500986753173e-02 1.380407127801366353e-02 4.468667368931475981e-01
9.343089165171933330e-02 1.472825648355449192e-02 4.809400908124020768e-01
1.016420959063529111e-01 4.895844147520247991e-02 4.709153674834224423e-01
1.383325808779087805e-02 8.301714760654915759e-03 4.409711889614816860e-01
-1.598134463416651246e-02 1.780594823057475226e-02 4.438230920514639188e-01
8.722466615991505967e-02 1.865625753718459789e-02 5.024016858563959964e-01
8.994161791959573438e-02 4.959175333355769072e-02 4.899496887218940389e-01
8.396580616679313880e-02 5.202050647597319250e-03 4.840753208011351338e-01
8.383676454846801518e-02 9.947760947345186608e-03 4.669829844284938969e-01
8.739870588028854359e-02 5.630547744303269347e-02 4.762119056269698558e-01
1.058895944416200913e-01 3.737288079355480935e-02 4.784198915752961856e-01
4.076210551717020236e-02 2.727151027024721577e-02 4.461740092601801377e-01
6.418243752832117344e-02 3.007846843884858998e-02 4.509328895495293699e-01
-7.018138740569630080e-03 3.948079619043064203e-02 4.449047627338526545e-01
5.961375232198996149e-02 5.881561790107026066e-02 4.485823343377848826e-01
9.902716772841006765e-02 5.499461666662595893e-02 4.614629916758862249e-01
3.352976434365539937e-02 1.650076553231522025e-02 4.444280022010966835e-01
8.256898856827066258e-02 5.690106714715618963e-02 4.528775450978872463e-01
9.693086434977521426e-02 5.799537712356845481e-02 4.586811574701067373e-01
6.907948489745281695e-02 5.951902575092893333e-02 4.521206996600659056e-01
-1.612398604080846065e-02 3.890491176655844902e-02 4.481649631140751100e-01
5.761306475237145536e-02 3.561070905325082470e-02 4.481182141182436518e-01
8.296034740083851888e-02 2.882638200106309168e-02 4.577012517471958919e-01
9.309377768636420414e-02 2.560382036144339193e-02 4.942317141553480009e-01
2.298570356032288153e-02 5.225863996816107471e-02 4.445583859172773100e-01
1.122736439194957775e-01 3.112794305828854927e-02 4.654243373646637649e-01
9.149779362729956733e-02 4.895826723696069388e-02 4.514758556438106529e-01
7.088128749784292082e-02 5.739759064890722490e-02 4.498120136589292550e-01
-6.389518555183057794e-03 4.655081908224534271e-02 4.455274108823320534e-01
6.558992012216643963e-02 -2.184609633495206496e-03 4.589619995354690674e-01
9.013355553524766972e-02 3.918249674688092238e-02 4.979863612800836115e-01
2.018263671589139857e-02 3.316927428590602661e-02 4.431625046985560035e-01
8.251069622750441257e-02 3.798711460116389882e-02 5.063055641448566124e-01
5.015233745259001230e-02 5.900763537667385455e-02 4.460561030716221897e-01
7.358995625311476330e-02 7.365056501679517406e-03 5.102667842937146370e-01
7.471161068288652285e-02 -4.922087438156448960e-03 4.815575359273358003e-01
3.133762273869153403e-02 -7.953685924289452536e-03 4.407035112618452044e-01
2.183506395552724244e-02 2.881651588876994047e-02 4.430528411820905954e-01
9.700289020359399716e-02 5.672423476201260417e-02 4.658759765428405197e-01
6.131039166010292252e-02 7.069683261258728410e-03 4.536742343282788026e-01
8.578928585976425270e-02 1.277605979687032947e-02 4.985755917715977148e-01
5.878760262388806751e-02 4.111081102859095310e-02 4.472067713062721772e-01
1.034203196403562092e-01 4.357357753575472753e-02 4.778729200245809272e-01
1.008561114551980858e-01 4.807317836564551500e-02 4.768720178148803668e-01
8.758762900109400007e-02 3.678785129233811541e-02 4.571326486163363456e-01
9.847666581623186477e-02 5.555326378916434354e-02 4.629158354391730845e-01
5.607197026472562906e-02 3.154581495666125557e-02 4.488086674883585148e-01
6.157921091219157456e-02 4.477269685808929478e-02 4.468100307806880944e-01
-3.219444327098043568e-02 -1.011001233871838649e-03 4.403803161035814706e-01
8.646321766115754037e-02 1.322727586885558831e-02 4.663186520091697762e-01
9.027352813982672530e-02 5.166288177409920912e-02 4.871406855905399125e-01
8.382724606149917490e-02 6.738371753466367367e-03 4.913643853892550317e-01
6.545153109815880776e-02 5.371863270217449270e-03 5.189204999058478762e-01
2.124916551567661641e-02 -5.125612822464467068e-03 4.389602258507666055e-01
5.941991848906977292e-02 2.440071629498064693e-02 4.508967746230140849e-01
7.370538335848186851e-02 -2.424309365799721602e-03 4.694771052261920152e-01
2.464973617296623010e-02 -2.434072137005271943e-03 4.400118777062961839e-01
7.774012366456965750e-02 1.659880788806872287e-02 4.592381183543988166e-01
7.203778467527698071e-02 -5.380061637213747264e-03 4.709865785480865652e-01
8.965894119908851545e-02 1.781117109141226382e-02 4.654380493018520082e-01
7.453598961862473171e-02 -3.295234063581780216e-03 4.912208349017788134e-01
4.470166114233192073e-02 -3.459362323520353416e-03 4.469538911333533204e-01
7.982525578247652576e-02 1.361501659451621465e-02 5.097307216157714871e-01
-1.511847705151218857e-03 2.075323347996293685e-02 4.414291112325053890e-01
5.903182045521244981e-02 5.366541636800006843e-02 4.456206747565346626e-01
1.040995140457605522e-01 3.756965428176608363e-02 4.586389077267266634e-01
1.725249125078261170e-02 5.533685018373188380e-02 4.457578984541780143e-01
3.753662653529683813e-02 3.583788294375351430e-02 4.455516226005187264e-01
7.177314235772420947e-02 5.079779088086469607e-02 4.468774454717791556e-01
8.765618384236496807e-02 8.858554515985191460e-03 4.826844435529842325e-01
2.682330744891606514e-02 2.794346494769607905e-02 4.436620293904953161e-01
3.286067925583507909e-02 2.298070891126941049e-03 4.426962447299636061e-01
7.461021453688719551e-02 2.697358314719964720e-02 4.545267117654705480e-01
9.664558516042599801e-02 5.493785093156613314e-02 4.699176269126582595e-01
7.428303924223153554e-02 5.315456642459460285e-02 4.476173041970420985e-01
8.500777738416052942e-02 2.121488605964074944e-02 4.609531825331754651e-01
8.927948245057620857e-02 4.158039982999257866e-02 4.533102475380819674e-01
4.527445072458614883e-02 3.739288835276646794e-02 4.463384816303843650e-01
-2.728424174314305131e-02 8.196371251892467860e-03 4.460111922675875085e-01
7.970431974465422287e-02 2.173245492300386605e-02 4.581446120084303186e-01
3.289895550311539713e-02 5.933462143648743359e-02 4.458607191155362637e-01
3.455909339900435640e-02 6.327208368039102804e-02 4.488429031109662515e-01
7.987572517441975106e-02 7.538353802484664898e-03 4.655019802498238657e-01
-2.083483793956689492e-02 1.513802616680725785e-02 4.455242573253384575e-01
8.590851639795746286e-02 5.553401009962690565e-02 4.534613192052175390e-01
1.106888212854121797e-02 4.866457982046046293e-02 4.437726662339666617e-01
4.442350735489640490e-02 5.792190976994331109e-02 4.454860932611207081e-01
6.296875609728178058e-02 1.048567957222444440e-02 4.541172930918187522e-01
6.351086739102979051e-02 -1.019592430503674617e-02 4.637397617993895826e-01
9.278743122101189289e-02 3.256388497551034045e-02 4.610046598886573532e-01
-2.078033114313405927e-02 1.957988860376419157e-02 4.465135466696057986e-01
1.747908942298462276e-02 4.877142520971409351e-02 4.438405799563107657e-01
8.940883908567612282e-02 1.454272464686060320e-02 4.679805370647681095e-01
9.834301739599342340e-02 3.960835713366861466e-02 4.564993063041973276e-01
3.066487301453249548e-02 3.829576110213071122e-02 4.447659788396587932e-01
8.901842269003698571e-02 4.205604890016191588e-02 4.528087638874557230e-01
8.709006252551675792e-03 4.482772583196804189e-02 4.433768545275418860e-01
5.183908490380956247e-02 1.914310681562786734e-02 4.490759706311234778e-01
1.001109334857824551e-01 5.027856462704788365e-02 4.747892375707888912e-01
7.760946083887877711e-02 9.872360058504715125e-03 4.614966079587672354e-01
6.951296945724555476e-02 5.956964100856444733e-02 4.521697391740299721e-01
-1.372244271378525449e-02 2.002699591850230429e-02 4.433396881101234754e-01
8.409120040905715410e-02 5.203400996104839971e-02 4.492118008886359370e-01
6.334656027089649588e-02 -3.029667597770054586e-03 4.573162730513168350e-01
4.783525625932420061e-02 6.266727400947139093e-02 4.476544762520341947e-01
5.235433564523001709e-02 5.830420531883765550e-03 4.497433431497142031e-01
3.608699514200940095e-02 5.475690653090886650e-02 4.448718489909315732e-01
5.075692774545554481e-02 8.036277074023320116e-03 4.491325370490579783e-01
-4.369804623186624402e-03 5.406835415613052420e-02 4.485224072456550637e-01
