5.193024100691603917e-02 -8.797236039776185762e-03 5.265873546362269675e-01
9.490500498397580476e-02 3.310914374597632298e-02 4.921865519721455029e-01
1.067832915698593288e-01 3.987739293604183888e-02 4.671379319861387325e-01
6.185937830979256619e-02 1.084466145386092650e-02 4.532066055986399555e-01
6.245449353689466743e-02 3.350861307076585111e-02 4.489351654922781321e-01
5.886077277234678246e-02 5.813164526515857133e-02 4.465155619196028436e-01
1.081117906501999903e-01 3.827222322881180389e-02 4.730782483287853113e-01
9.827974545840341414e-03 1.821293329564247984e-02 4.412198768876682275e-01
4.681581960019097488e-02 -9.508879881299763664e-03 5.307287679007756109e-01
9.089717520337343981e-02 5.549947164732862981e-02 4.729364305010667624e-01
6.044507305570828368e-03 4.826336495026001261e-02 4.436707529033072639e-01
7.987693388145661322e-02 4.308695835065632501e-02 4.486424186746969522e-01
7.822587733792486786e-02 1.608648538145629817e-02 5.131934279603461713e-01
1.524393665188177732e-02 5.138866671239980533e-02 4.441402510782948010e-01
1.081651679671560666e-03 1.161694404330865238e-02 4.401659385766976129e-01
5.155051534858588053e-02 2.906831939743353271e-02 4.478562389149572942e-01
3.083469610082504794e-02 5.878417931795449497e-02 4.455530915284818816e-01
5.579027912769004421e-02 2.153279343544962574e-03 4.512185582418369867e-01
2.201093467558065328e-02 1.843578074227889343e-02 4.426060481933094537e-01
6.652482625587026466e-02 5.645071398458881284e-02 4.470834767477919747e-01
4.631564297430974288e-03 4.247045412492488070e-02 4.431752087314365651e-01
9.411818155220937065e-02 4.663004015246280387e-02 4.883466416269531263e-01
1.043738695031460606e-01 4.127143806571657164e-02 4.611560365449076104e-01
7.596507304517881309e-02 2.962726824790499081e-03 4.994460984084522215e-01
5.738252729198450863e-02 4.152626778232342691e-02 4.465229098520110962e-01
5.769733396878955894e-02 4.423258927760247844e-02 4.461245938789023535e-01
6.993419997362709806e-02 3.282022996240913093e-02 4.507378507920634658e-01
-2.155410790665331783e-03 3.830923196907887185e-02 4.435164246727644755e-01
4.516086547536612983e-02 8.636385144232028993e-03 4.464725546682535851e-01
7.319649851475282243e-02 -5.122446218406561183e-03 4.896700168452243762e-01
9.078502589998818650e-02 1.564374644729536398e-02 4.675219044644454702e-01
3.268622585702884997e-02 2.098015587033653234e-02 4.442864109992719635e-01
8.470027538716276561e-02 5.853223116037444690e-03 4.797897665190050676e-01
5.048151539505563168e-02 5.057469355528870086e-02 4.450712328025860920e-01
2.204571024976271706e-03 5.356310760213580519e-02 4.459872691055548066e-01
9.927727829487527356e-02 4.575057460032989909e-02 4.547439754012547186e-01
9.112713769014280096e-02 2.831014452202856510e-02 4.986990294517744116e-01
9.032238239408615921e-02 2.306812054726927949e-02 4.966347114027341303e-01
-2.173623398179837587e-02 8.949538170569660764e-03 4.431481319096948202e-01
7.732818391099093025e-02 6.890627073460067753e-03 5.040541874780676279e-01
1.149716207439916565e-02 4.590951072773136882e-02 4.432797462563084490e-01
3.099255375792101669e-02 4.129770414477670903e-02 4.443834350712613790e-01
9.467224377900596011e-02 4.801882882141076531e-02 4.871039107733810547e-01
2.657123681625303199e-02 4.216047675182684612e-02 4.439882551320253889e-01
1.074821255181207802e-01 3.022247948561861824e-02 4.755736512961626361e-01
3.021340100484357777e-02 1.623029963284696592e-03 4.418975423356304444e-01
5.695862023002871283e-02 4.468545013640880248e-02 4.460338353331453343e-01
2.297949938336446216e-02 1.946306417495628077e-02 4.427583389968940408e-01
7.158651587566666752e-02 4.625820639418598557e-02 4.466841389846765709e-01
4.046456588629844531e-02 4.567557816633570356e-02 4.447423008233227781e-01
1.054421611594301075e-03 2.156649799842893026e-02 4.412456352042415375e-01
2.665342481854640622e-04 2.663377277446032573e-02 4.420105902195925474e-01
-1.176537856740548192e-02 2.875753218546291817e-02 4.441843303733710724e-01
8.385488604532911894e-02 1.379381122917084507e-02 4.624733898267405774e-01
8.674481622601225295e-02 4.465918383805103642e-02 4.494348989752912082e-01
8.373315491456756465e-02 3.132419956525366034e-02 5.103052913024843651e-01
7.098676315531565750e-02 3.516600331020837411e-02 5.158578677990597328e-01
8.786535251866921248e-02 2.120273401640706754e-02 4.613613082089103590e-01
-7.326581195437954427e-03 1.916732340165967427e-02 4.415434586914304682e-01
9.687832233420054506e-02 2.372482795013517234e-02 4.856917811475074398e-01
6.296917409347929651e-02 5.374658655712452604e-02 4.454584991274155303e-01
7.325492829875009104e-02 5.965346442368021918e-02 4.515605761067227886e-01
1.203623627337610177e-02 1.162278930765296529e-02 4.410373696681647582e-01
2.708173312536228672e-02 3.674264790098059202e-02 4.439946339312954016e-01
9.513247951385510326e-02 4.840837799921499790e-02 4.863190338581017125e-01
5.653241252003913392e-02 4.537870072714469960e-02 4.459307298316819157e-01
1.703989956587266368e-03 1.682858825898523453e-02 4.406743961545014909e-01
6.446919093824035607e-02 -3.441056145870989395e-03 5.110889531586102486e-01
3.228292752550837585e-02 5.821783737620485344e-02 4.453420820741392228e-01
7.015753464099014347e-02 3.518429707462329692e-02 5.162447533075363859e-01
6.331340605685654988e-02 5.189792155113549799e-02 4.453177865205105723e-01
7.693367975049354712e-02 3.004745037466671764e-03 4.664309162228955641e-01
8.456455750536022442e-02 1.273366675374890816e-02 5.007863404707327826e-01
-1.830035018672694636e-02 4.048614439792496550e-02 4.495331664564264917e-01
7.758928926093808243e-02 5.503428597240350717e-02 4.473195815397205122e-01
7.685350184015822539e-02 2.789938045562106311e-02 4.545734227276784778e-01
9.615136462719620081e-02 1.803989422468791140e-02 4.753403455103484276e-01
8.476662715617809540e-02 1.308436849993494834e-02 5.007515216741473818e-01
9.109814466774834862e-02 1.917850145223366776e-02 4.649654796656183531e-01
2.623958533906768295e-02 5.963300838369445939e-02 4.467163097064410504e-01
7.253675083737826101e-02 -6.915389919111758141e-03 4.761155439820256574e-01
3.811535287612111134e-02 -8.044422674214686542e-03 4.435591601589181088e-01
7.045462926750377386e-02 5.311947251138685738e-02 4.462527202507182711e-01
1.008810536970153188e-01 4.555565785037536675e-02 4.796370858104386237e-01
8.928008502388797007e-02 1.345625475382101512e-02 4.683108004605046060e-01
1.012808934255402527e-01 3.446469371362520517e-02 4.586997853532198133e-01
4.120492353160064292e-02 5.123065024005769852e-02 4.446732669626928813e-01
3.666581610282539094e-02 4.710226574360749235e-02 4.444034482347199999e-01
7.968233917152316159e-02 6.293285816117563311e-03 4.659955713990998616e-01
3.074458070928331316e-02 8.732145562530331528e-03 4.431748023156594218e-01
8.453207311784306788e-02 2.370789938086437232e-02 5.089907451070821987e-01
6.347933895304937180e-02 1.853041191078474807e-03 5.175271077613151638e-01
7.638944843491893288e-02 1.623841879679338573e-02 5.154065219362125028e-01
8.864173776151611228e-02 2.066030488197780762e-02 5.000546843812586628e-01
-1.793688849040961982e-03 2.915107945583931756e-02 4.425755617703325262e-01
8.802976838791282121e-02 3.661075548156015463e-02 5.012638371072631882e-01
8.981400144001294716e-02 5.263905940232315589e-02 4.512463521325195126e-01
-1.834916406980773365e-02 1.437890635265914874e-02 4.440371789927383128e-01
-4.368262681617383555e-03 4.356254870040780769e-02 4.445984960706564348e-01
9.225920246818584969e-03 3.050205808903522220e-02 4.419552420836799778e-01
1.404440902838921534e-02 6.951965027661973461e-03 4.405876652671983917e-01
9.965119919390086345e-02 3.790441038930678075e-02 4.844594144352363241e-01
9.400204833250067060e-02 2.152043351899182028e-02 4.639122720682228307e-01
8.309452939827570439e-02 7.783385240212391080e-03 4.680395894382036182e-01
1.218133907444907821e-02 5.795552974448455776e-03 4.401444401589404420e-01
8.530207037801172676e-02 4.375611406517847246e-02 4.492575495364665161e-01
6.233920943012744020e-02 -5.833946199461303821e-03 5.136128836432881650e-01
8.843760831020128221e-02 2.796005454913146754e-02 5.032999405958991090e-01
5.193682312520017663e-02 1.109850538315797913e-02 4.491308849013194160e-01
8.377994478604736117e-02 3.380180904355471749e-02 4.568792277682616199e-01
6.643593532438525628e-02 4.989416622424725639e-02 4.456952684012610577e-01
6.223741981667356427e-02 1.251191124881424234e-05 5.174000970285976830e-01
-2.179830155179264886e-02 1.982195373023613524e-02 4.468409017600965538e-01
5.403932193461716965e-02 1.454753594189232835e-02 4.496128732877032741e-01
7.096590096818461424e-02 3.357157763743362500e-02 5.204562585669669783e-01
3.966750916521818993e-02 1.630294797368671625e-02 4.455534426678621762e-01
3.921156767523685527e-03 5.946384195884097876e-04 4.385672848404294499e-01
7.560601140225621519e-02 2.374781735747626479e-02 4.548858704188568081e-01
2.755161358045531139e-02 5.185031567303714090e-03 4.420590349315664525e-01
7.454360455512629158e-02 -2.865573933670800127e-04 4.961127837448082167e-01
6.257655404695976198e-02 5.246082411055860012e-02 4.452156494035334755e-01
8.380645264702521469e-02 2.858721747920219686e-02 5.104386172569987945e-01
1.667552412105993698e-02 4.921262489917385685e-02 4.436964930515167604e-01
7.930124226064803883e-02 6.514247898455097999e-04 4.818124724808814929e-01
1.877352417777773674e-02 1.576089972938318762e-02 4.420072174003725762e-01
9.845647857932424141e-02 5.544990938272384429e-02 4.615120739735000255e-01
-4.078209032406371597e-04 1.921316924480330479e-02 4.409921393804042689e-01
6.681469645336457486e-02 3.250228420066869628e-02 4.501046817658381771e-01
3.172519473438957689e-03 1.284182468565190673e-02 4.403697256838014495e-01
5.933725727957771257e-03 4.132691856938696534e-02 4.430094184702236815e-01
8.415116195236457472e-03 2.827823127829010019e-02 4.417554000509257839e-01
1.809742305073288107e-02 -1.575901569147434471e-03 4.390815276193024697e-01
2.130124958518172726e-02 -1.427616169223031029e-03 4.395507189982258422e-01
5.984161589910211299e-02 -5.812889300794899308e-03 4.557166712981972068e-01
8.998945833338467537e-02 1.172079842688249912e-02 4.716044332189277544e-01
8.538049168059499983e-02 7.032923203150283006e-03 4.856533087646816571e-01
-1.071754959282275599e-02 8.855568906333727980e-03 4.402658647164215955e-01
9.145035189636994966e-02 4.672036552705703671e-02 4.907783586064652925e-01
-5.032453107131669087e-03 5.221534047298812681e-02 4.472107771202353810e-01
-2.591485717744100928e-02 1.134194107916744465e-02 4.462576430066984012e-01
6.321229731269034646e-02 2.819922098754030354e-02 4.506492729428047683e-01
5.306096769565931542e-02 1.404241334683690480e-02 4.493172045438548201e-01
8.898511584214009729e-02 9.854730005234676321e-03 4.729166781253671958e-01
7.846255764855980530e-02 3.873662320993517122e-02 4.514569819680644414e-01
7.080109260463743337e-02 3.549683642921216270e-02 4.499933441365823183e-01
9.049737535164512070e-02 1.689144832700440954e-02 4.897056612517493579e-01
-2.296188074431812845e-02 1.088019865759743722e-02 4.443925471330468779e-01
9.984535620025712654e-02 2.730951940915967574e-02 4.835878673868408417e-01
4.996377999180187657e-02 -2.467804279130023440e-03 4.491535368882634827e-01
7.191079140674641601e-02 2.222521381142610400e-02 4.540904003856564009e-01
6.204498220454081336e-02 5.381858968002386362e-02 4.453555009441452772e-01
4.884276364654538405e-02 -1.554965034882839492e-02 5.311347868109712600e-01
8.724150860381096884e-02 4.332524745659793730e-02 4.501390489833380637e-01
4.609261326251463953e-02 3.600110128816764229e-03 4.468646877596919587e-01
1.304007903223660531e-02 5.362481969101379198e-02 4.452384276603660318e-01
4.627924681184648198e-02 5.174075475181730277e-02 4.446670286867647204e-01
9.599693545764742542e-02 1.869753396029236528e-02 4.681048894326715337e-01
7.655590133107768869e-02 2.147499386456139855e-03 4.970626497740457395e-01
2.413884268254690157e-02 3.761243339003224329e-02 4.436672622626339213e-01
7.450707931579408916e-02 -2.970741295499357455e-03 4.914695092104367502e-01
-1.114293949424211699e-02 6.723339262794503224e-03 4.400103247881018698e-01
2.605252213557349150e-02 2.985813000176824189e-02 4.435083112163547003e-01
8.502488867091478886e-02 1.761252105727909023e-02 4.615342876411197004e-01
6.749975258930243638e-02 -6.379536428956115307e-03 5.036212089975902195e-01
7.541654903596076154e-02 2.344318588918621604e-02 4.548954038673244660e-01
8.919280825556222259e-02 3.316701690585047158e-02 4.596090969189436382e-01
1.037021001520182784e-01 2.806172406604004119e-02 4.621864349445166664e-01
3.347674775765047128e-02 -5.188313269870776720e-03 4.416485761209086869e-01
5.007624631217505451e-02 6.327770056412301836e-02 4.500768583869386719e-01
2.246992521010699947e-02 2.465662901179384997e-02 4.427223875961888711e-01
1.017754943320743760e-01 2.178847651736956839e-02 4.684650494785420061e-01
1.045830704936782513e-01 4.156222735910226895e-02 4.616128795655279338e-01
9.245274841964326584e-02 5.374611869230491029e-02 4.763103788491100943e-01
6.462370711634628229e-02 -1.334494740636673824e-03 4.572904121022553503e-01
2.394735141403772291e-02 5.814186439103211090e-02 4.461080019471536096e-01
7.830598486275294756e-02 2.488121687553045830e-02 5.176881116599417743e-01
9.242664358877454578e-02 5.612595514564920618e-02 4.704065136161469374e-01
7.051684521685913642e-02 1.458113788894988515e-02 5.199128818312537259e-01
8.311808902844589064e-02 2.067324083510820726e-02 5.100859192627692495e-01
6.044960377110113886e-02 5.434693449671401666e-02 4.452922881410291689e-01
9.011951236830639811e-02 3.385150254085705218e-02 4.594647939223833188e-01
8.316984141557939858e-02 8.010887356477433899e-03 4.956310654053781017e-01
1.028167072670693738e-01 4.498862592154822398e-02 4.626534737280895149e-01
8.420613424379821965e-02 1.178125815821239736e-02 4.998476382335638735e-01
4.390778678078850056e-02 -8.054068884157428859e-03 5.317709235781686861e-01
-1.460123117509927460e-02 3.116244020248485833e-03 4.396624769126374344e-01
6.566305818348905365e-02 1.258008392292890229e-02 4.542820455254546474e-01
6.392915819236323627e-02 2.110998522948482822e-02 4.521084058108025827e-01
1.028470394652672565e-01 4.259134468510186039e-02 4.789355197456068303e-01
7.459850085968668110e-02 -3.402558476492211978e-03 4.901916247986449759e-01
5.966052403337700899e-02 5.860471224953249514e-02 4.479424307221648860e-01
-4.154093044891365126e-03 5.191816562662282530e-02 4.465291496313921749e-01
6.491053655800334277e-02 5.221829840340767165e-02 4.453598325157864801e-01
9.701089881821067795e-02 1.874401343284619326e-02 4.757493477660335035e-01
7.967566720141396053e-02 3.953352327965328761e-03 4.953508528344398032e-01
8.078473997821010444e-02 2.976789365663404241e-02 5.147045431868005894e-01
5.868537570709585899e-02 -3.716211110956468052e-03 4.543197834221566755e-01
9.757848712212560671e-02 3.479976400333354564e-02 4.876924796348015567e-01
6.704052193119035274e-02 1.298553351775151750e-02 5.224270548301132022e-01
7.273704427217748958e-02 1.344506266515589805e-02 5.167498388086199101e-01
2.161071675732879893e-03 3.410520693764677175e-02 4.426907333165716607e-01
-4.791488436687319115e-03 4.776281529210719273e-02 4.451912762926309997e-01
4.334738980171959355e-02 4.655121654785171481e-02 4.449113893814140575e-01
8.615763185323718765e-02 3.955728684507523601e-02 5.012088345286966895e-01
1.485204692817914882e-02 1.100518090224225295e-02 4.412651352250014924e-01
7.477638984746655393e-02 -3.399703497350864499e-03 4.897384000958804884e-01
7.987111065705128354e-02 2.705052178408167037e-03 4.912386060158092094e-01
1.699214053621552617e-02 3.623563018121604695e-02 4.429083217651333948e-01
8.136705931540298697e-02 4.580039409164888761e-03 4.929465064404595642e-01
1.479764051592503959e-02 2.361962406319998917e-02 4.418511642775669879e-01
3.939838005718918762e-02 4.419656678161606317e-02 4.447861456809606984e-01
7.096964622083858087e-02 4.844115863826575080e-02 4.461460734798527450e-01
9.040982433207493674e-02 2.116216899136333721e-02 4.943758889774048648e-01
4.600849431239495413e-02 3.179293102986833390e-04 4.471580454787028036e-01
9.361556828753447856e-02 3.115074688276756737e-02 4.947974413541795236e-01
4.236170054928680567e-02 4.361263395020151951e-02 4.451189861283805782e-01
3.355805537630007773e-02 2.289572243109869176e-02 4.444902724674778538e-01
7.081317435766126822e-02 -5.623213819461105045e-03 4.962415929590272001e-01
3.884273841849669034e-02 4.983408436243545042e-02 4.445480718963558120e-01
3.803809316120869422e-02 -6.058473024319170359e-04 4.440800393070428176e-01
9.271270590139003842e-02 5.206809296782673180e-02 4.519607675512482547e-01
9.697642573943723865e-02 3.115396901349701611e-02 4.599031116241753536e-01
9.523715303634089357e-02 2.014669220992069965e-02 4.844431496420222860e-01
7.929828703354876995e-02 4.914762961606237990e-02 4.473942044839585019e-01
4.745664195466584891e-03 1.451878491166872995e-04 4.384892442841069604e-01
7.703850595692186831e-02 2.657290438489406589e-02 5.192984428962638122e-01
8.449729600187230738e-02 1.656259430812301314e-02 5.047032225607330780e-01
9.192260111383414312e-02 4.512880779639603934e-02 4.916693550121288836e-01
1.579299861741652322e-02 5.537104811498517326e-02 4.457393410962200431e-01
8.696652430679417678e-02 2.078474398593790212e-02 5.038208124645935371e-01
8.990785887969583723e-02 5.523347638617524813e-02 4.746946481395494799e-01
9.031724492797198189e-02 5.560856412573372820e-02 4.733011440700344297e-01
8.829721632605744275e-02 4.033445939004250830e-02 4.983313512404701218e-01
7.694778688574183123e-02 9.483111580623722944e-04 4.942432027906248360e-01
4.645391851286482382e-02 6.420973887129152735e-02 4.498450890471516472e-01
7.788454719853643571e-02 2.109832703574800183e-02 5.165444731222519348e-01
1.010489693776836367e-01 4.905006543972547511e-02 4.716982006763424384e-01
7.476393498450115138e-02 3.598644993089483712e-02 5.122067960464045111e-01
3.016878620552419787e-02 1.330775776118666050e-03 4.418365136715499131e-01
7.201272609126169177e-02 -6.144250369744861003e-03 4.717913696521300881e-01
-2.627326131207120483e-02 1.419168171927054703e-02 4.478646286025069756e-01
6.963128941931623350e-02 4.066119989773492316e-02 4.482018423450857547e-01
6.930537275184928125e-02 -3.670989338910853744e-03 4.643609843950364802e-01
9.170387692973316907e-02 1.516823284620211210e-02 4.852779560266636816e-01
4.663089627839329260e-02 -3.098508534771077932e-03 4.476562412559508264e-01
8.535527600244068036e-02 8.577489974528109892e-03 4.897477452777573292e-01
1.021363678039304695e-01 3.190354629001889569e-02 4.816130208170235072e-01
9.194946019632690981e-02 4.196148669450942836e-02 4.933709270015941839e-01
1.020253385952832603e-01 4.437018991735988682e-02 4.590868887278638510e-01
8.796096218164980995e-02 8.773335813454756840e-03 4.730353463022531901e-01
1.103899334856099923e-01 3.618090673251530415e-02 4.659085679914906075e-01
-4.042399844385111823e-02 2.758522703262556060e-03 4.425155402063334353e-01
2.485019977490694407e-02 2.556658639289254367e-02 4.430176507543249764e-01
9.752073919260906276e-02 1.956579482450968716e-02 4.735209559376937216e-01
9.576962753194842581e-02 1.752761624663473627e-02 4.775243273886453088e-01
7.489729092841355962e-02 -8.124981272380113993e-04 4.947526137923319856e-01
9.107842353491606147e-02 5.008040685851114504e-02 4.876843807679705489e-01
6.500233128311865005e-02 5.944652248181875147e-03 5.194084864902468457e-01
5.028082806678738775e-02 2.513405122679136794e-02 4.480242649169661751e-01
7.680057439193362090e-02 1.151946900550034590e-02 5.101945839300638941e-01
6.225326203402245517e-02 -6.941590329264318154e-03 4.587498721192549977e-01
2.102941312028283605e-02 5.205125396433504803e-02 4.442793589293706491e-01
6.080560342624877213e-02 2.193889556830995891e-03 4.536893776654477572e-01
-3.949982142201718602e-03 -1.669509524951552290e-03 4.377752958547885265e-01
8.910650990526451654e-02 2.800289297147949205e-02 4.594121531972259476e-01
7.539896214184600709e-02 1.044966852071135821e-02 4.595717245529171713e-01
4.841720827185991283e-02 3.259794927582543994e-02 4.467838649584732202e-01
7.813919430426102819e-02 8.894059987295777417e-03 4.616344897136105407e-01
3.892150803537546000e-02 4.491127180685989748e-03 4.445148182663705150e-01
7.053660338431452792e-02 -6.606136145053819950e-03 4.697434872908910486e-01
-2.168340984780772751e-02 3.439477999868897993e-03 4.406213732475420808e-01
6.751603877217390859e-02 -2.394673897197269110e-03 5.060038128412869263e-01
5.024210202761498351e-02 -6.732767340599907398e-03 4.501662730411500335e-01
9.461908362658506821e-02 2.918708364437546873e-02 4.922976666592417949e-01
6.982566740670878569e-02 1.946158391145751121e-02 5.237078112309593303e-01
-2.095965503647139599e-02 1.330119204072690089e-02 4.447493116985251627e-01
8.457030045530737616e-02 5.543221711912751926e-02 4.514248911046337409e-01
8.490130300222353821e-02 3.881693390245502528e-02 5.029401849434050886e-01
7.611341130718296544e-02 4.214232749406823103e-03 4.641141933861581137e-01
1.596388412403120134e-03 1.095329064654461046e-02 4.401117574964604207e-01
4.490507599704189612e-02 3.151180432615970084e-02 4.462934360240494169e-01
5.854243636175676668e-02 4.949845163693033373e-02 4.454936225849849274e-01
1.012126543539730167e-01 2.221804308063153599e-02 4.753827692541039984e-01
5.081089854981749726e-02 1.549593747139352447e-02 4.485801580995847360e-01
2.684275481805652869e-02 1.261291115641832543e-02 4.428403969127435724e-01
3.981273194086259321e-02 -3.388404710169815558e-03 4.446609528112763221e-01
3.337525988311857567e-02 5.858690380433135246e-03 4.432822182836502756e-01
7.506465450876781409e-02 2.515760932927402563e-02 5.210009771352791530e-01
1.008038957116584033e-01 5.021709436483252215e-02 4.630627472448796689e-01
8.039332839444733592e-02 1.331023876639877458e-02 4.609643248828252937e-01
4.172759879030860097e-02 2.714925102317931535e-02 4.460658705812059477e-01
8.036275082703782380e-02 2.852198076029485024e-02 5.152517458731480371e-01
3.277453274804110334e-02 -8.959849275782813885e-03 4.409248572945396738e-01
2.656232150563454623e-03 3.495723936876349996e-02 4.427211400130266483e-01
8.462179425782753034e-03 5.107895980290535348e-02 4.444422041673088408e-01
-1.595128569523559040e-02 2.722524924061212742e-02 4.451671146189529749e-01
8.745947599685459373e-02 9.465534462259733370e-03 4.714893879276781941e-01
1.102922167322483160e-01 3.444094870202865644e-02 4.608219732798274348e-01
4.063021789838717340e-02 4.300232002322205982e-02 4.450186002586575817e-01
-2.180381165584158176e-02 2.296904329862586858e-02 4.473352941221241941e-01
6.923747979480347758e-02 2.929239177276863476e-03 5.099085128677469658e-01
7.356648817807610874e-02 4.912174375656913616e-02 4.464825473386617172e-01
8.718674721797721461e-02 2.310190281613114932e-02 5.046821401984598054e-01
1.014984786944669176e-01 4.415949176721898489e-02 4.579087119196253997e-01
1.321048087169968306e-03 5.147484863946217432e-02 4.451061268925299297e-01
1.079944274680577632e-01 3.408083062807537589e-02 4.759104924665985004e-01
-2.894290846813763612e-02 1.096238617005250091e-03 4.414153489872056357e-01
1.070169681080022500e-01 3.029154278422208774e-02 4.621144774486872775e-01
6.031039566718695427e-02 5.797002825088472255e-02 4.471645420670902205e-01
1.021366481964876699e-01 4.226763214565665283e-02 4.804848788236793511e-01
3.540368643709378843e-02 6.148216139602544900e-02 4.472329802343715799e-01
9.171071861147582494e-02 1.642847239911664897e-02 4.868460597512547228e-01
-6.032918408990521099e-03 4.185117929082481092e-02 4.448152192799850191e-01
5.290533715399912962e-02 4.106118711351947580e-03 4.497779210707039677e-01
7.976524783171079491e-02 1.518073225344328085e-02 4.600160193719935453e-01
-8.744879359079214820e-03 5.284912825378792339e-02 4.498539315473770728e-01
4.954341785671027842e-02 -7.039153694874030094e-03 5.275708551310497318e-01
7.009207804293481059e-02 5.964553774841872130e-02 4.515771064192135031e-01
6.887189013652361691e-02 -5.592419644399637332e-03 5.011249239639987696e-01
2.275277451361354744e-02 3.355347941707505915e-02 4.433099305362485087e-01
7.850114813812569814e-02 1.756668654293820978e-02 4.586409841056726666e-01
1.839462751579352181e-04 5.827648708263814294e-03 4.394485169416702530e-01
-6.079232767589625927e-03 4.983210682446401196e-02 4.463943231066237471e-01
3.789428308146419039e-02 2.629633905118619608e-02 4.452623871737615979e-01
2.625602511452740720e-02 3.505963430494878075e-02 4.438141439776783215e-01
-1.568316519833184292e-02 1.774727813801071225e-02 4.435888689075621061e-01
4.767514686592354972e-02 5.171477859888361228e-02 4.448020255462190597e-01
7.886096710568529788e-02 3.871843160759280006e-02 4.516207114801758515e-01
9.429926339175537242e-02 4.000654294629776841e-02 4.911282061137700605e-01
1.152316872585465099e-02 5.791269611116663801e-02 4.495747259785075056e-01
8.068792029703492075e-02 5.227857290369523208e-02 4.477212718921250167e-01
8.339286143642160587e-02 3.841341555129243468e-02 4.535450098413985609e-01
3.610461364636734227e-02 1.199958517797624323e-02 4.444410499984443041e-01
1.439970574290977932e-02 4.420974965934942880e-02 4.432334856867368167e-01
6.610062378630505997e-02 7.714601766849617411e-03 5.197067147924273600e-01
4.476131263918028957e-02 2.271726951615296239e-02 4.467638943440495614e-01
2.056804292567854242e-02 3.596245426888201868e-02 4.432178373216905665e-01
2.476847228258908379e-02 1.483918197360480778e-02 4.425983032410129026e-01
4.909220674089652403e-02 -1.130519928226055015e-02 5.299697931529137040e-01
3.042832912121955571e-02 1.128670920765875371e-02 4.433160080813486337e-01
9.180143029685966516e-02 3.361470626589543181e-02 4.598178378742535100e-01
5.484877039567515045e-02 6.342484816023830768e-03 4.505189603364033735e-01
9.333800730763125442e-02 1.496443522659515052e-02 4.756184065915364245e-01
9.167993887078092208e-02 1.367572687519098482e-02 4.826818203647958438e-01
1.211887220016047081e-02 7.178341597796426485e-03 4.404362408158525310e-01
6.613701010800882019e-02 5.528789618664795708e-02 4.462526284440580526e-01
8.395863237354549147e-02 7.034938909336440477e-03 4.907106136327180623e-01
4.447878393298618227e-02 2.823085862252861997e-02 4.465648415214582001e-01
2.774358437178275558e-02 1.301906943613783015e-02 4.430008194878603534e-01
3.901205046544994892e-02 2.583653055128981579e-02 4.454953692819224598e-01
7.880627584192442803e-02 6.490368880578171844e-03 4.647355418690174433e-01
6.648252795472425758e-02 2.915950372280425289e-03 5.140464381934434224e-01
8.182455653280556324e-03 4.965847498268820270e-02 4.438264694679997513e-01
7.502489253796490454e-02 8.222648472509967721e-03 5.088106156716981632e-01
7.176446599615980693e-02 -4.516735390842972590e-03 4.688387035096197586e-01
3.430543622613274612e-02 4.307269377639690033e-02 4.445211354324181130e-01
6.835145846641198231e-02 -5.654903134089072497e-03 5.022048136155673470e-01
9.737697586883338474e-02 2.547486249871628097e-02 4.619235179467627295e-01
6.778391760451110866e-03 4.191172317218150312e-02 4.430337347489276545e-01
1.871017275653790238e-02 5.714311844833733917e-02 4.466419923469882591e-01
3.343879078073257183e-02 1.118462949402391528e-02 4.438538848025834760e-01
9.004131294224207438e-02 1.537322856298597822e-02 4.886576154398428740e-01
8.451767037421509254e-02 5.801265249649442506e-03 4.844921007795985890e-01
5.066098745075651305e-02 9.219617716247678618e-03 4.488044275754503043e-01
1.966191298562244838e-02 4.451659433680771327e-02 4.433723530882028308e-01
8.714921563057830001e-02 2.725592825036258354e-02 5.053802536001829049e-01
8.015189666136958435e-02 2.261676647824484299e-02 4.571779846289091287e-01
8.553131140419117928e-02 6.600729620460034537e-03 4.794176530990019724e-01
6.990123375566500985e-02 1.904208839564459910e-02 4.541810280427345803e-01
9.245207083822969130e-02 5.447770357676666453e-02 4.732094290762709488e-01
6.973245978170380943e-02 3.496172778057703157e-02 5.176855572477033762e-01
7.946565809774057410e-02 7.777594215784033090e-04 4.827035701242028409e-01
7.935374587555726889e-02 3.040734525035952707e-02 4.556261933837659206e-01
1.005849273888336087e-01 4.419147883174479735e-02 4.560722734430399661e-01
5.362472323666683111e-02 4.431673934219137329e-02 4.459510305237854300e-01
6.472832591062421814e-02 -6.479113741185730732e-03 5.092232026628211727e-01
7.199483976804289809e-02 8.919741013927218881e-03 5.133131018232778287e-01
1.011755174398485252e-01 4.182513675926312346e-02 4.568298361358562043e-01
9.876459248182481443e-02 2.910944305864902187e-02 4.859374052845354952e-01
-1.491734129915847163e-03 1.796544665803211441e-02 4.408303321306358824e-01
5.389473528464483465e-02 6.216647043933833106e-02 4.506682369010681088e-01
1.112566668275822845e-01 2.775847424800429591e-02 4.715846505767369301e-01
1.108121406422477584e-01 2.753498525860635995e-02 4.696573466471825054e-01
1.058685893658248417e-01 3.653342787850047402e-02 4.581720493263690686e-01
1.055624987483034793e-01 4.073587541886394825e-02 4.731327048304219129e-01
4.694200829674820274e-02 -8.285891930798658725e-03 5.299312419737060020e-01
1.417787470362494133e-02 4.512021962202448534e-03 4.400003356174884694e-01
7.740145098492340336e-02 3.300670444614256342e-03 4.980152310933012583e-01
4.897778131711785082e-02 3.705892302475646827e-02 4.464332407996842167e-01
3.998529014235846502e-02 5.629017146911582947e-02 4.446674521188304641e-01
8.130715034841057287e-02 8.059363359576739855e-03 4.997851987794432183e-01
5.089850502111343405e-02 3.121503345213946790e-02 4.473133084214361843e-01
4.888479819774989299e-02 5.434516903671171573e-02 4.447137863270391733e-01
9.129976058434928488e-02 2.386792922777174891e-02 4.950946107649247807e-01
9.156080419948312010e-02 2.622044445806579263e-02 4.967428843009354389e-01
2.902155668731032021e-02 7.077918614595336312e-03 4.427037307840618330e-01
8.440007699206990288e-02 5.552540554930531988e-03 4.784000383284233715e-01
-4.282727559255827821e-02 1.988421682716497683e-03 4.459572137967431904e-01
3.961164612352623127e-02 6.469255057533769560e-02 4.479899463488214995e-01
8.330609537744286530e-02 1.747143075874758519e-02 4.608661313342308219e-01
1.058676628796303559e-01 3.137513967689510574e-02 4.773725519676724205e-01
2.356938192084125083e-02 3.481515433006061172e-02 4.434646638983764100e-01
-4.067401190826376578e-02 2.933674959924317815e-03 4.465611301151795054e-01
1.657396405365461900e-02 -7.357934091788839118e-04 4.390420338674360101e-01
3.814973973217224840e-02 4.131114967762434392e-02 4.449571328589748687e-01
8.087128898386262976e-02 1.772692629471726150e-02 5.108340839982662418e-01
7.319817884865728597e-02 2.718910599196757566e-02 5.231895536526588453e-01
5.103016476331635742e-02 1.793915585511422772e-02 4.485482488884438568e-01
2.991027991239916112e-02 -1.024058713798893907e-03 4.412762275870706352e-01
4.120086818960194686e-02 1.060778081573033119e-03 4.451332965068247605e-01
6.033930142843048350e-02 2.615586047237752204e-02 4.504709022433585064e-01
5.022301166075781448e-02 1.291252307566169086e-02 4.484635523157471937e-01
-1.330275092122870130e-02 1.757524641563125434e-03 4.391773836851031176e-01
2.994598965453349956e-02 5.753014307765461771e-02 4.454059543835686141e-01
1.027600925439087348e-01 4.530917482287691311e-02 4.735101733236314336e-01
8.720725753107563816e-02 5.645751654493023214e-02 4.739067148636969540e-01
8.925171740234739970e-02 2.372832921769687728e-02 5.005529327047908428e-01
8.338979033028114107e-02 2.081725878473926483e-02 4.597429080839997018e-01
7.325956535821899485e-02 -6.691333950819453383e-03 4.800782760268420546e-01
1.075777090144433151e-01 3.802287466870197391e-02 4.634872083868190606e-01
6.215315475983290705e-02 3.700854019574726511e-02 4.479429363459174196e-01
4.399250980408526968e-02 6.473677610430247920e-02 4.494741363950433000e-01
2.536568667566497029e-02 3.705876927847408936e-02 4.437947667464351986e-01
1.703061877512104805e-02 1.736562893533153545e-02 4.419240305276591063e-01
2.524874526867041183e-02 5.717943994871262266e-03 4.418040788316409118e-01
9.206028585032204059e-02 2.559951364378251423e-02 4.596865657325137633e-01
5.619679696397791857e-02 -8.252950775167973430e-03 4.546412359477964849e-01
7.243996763271540185e-02 -4.556471602281795923e-03 4.929917577603705747e-01
8.864240500933556755e-02 3.914715962449081404e-02 4.986646085077925949e-01
9.983234702169563324e-02 3.447683979062055731e-02 4.586265648413088147e-01
6.023214784898593688e-02 3.340372961560198611e-02 4.485977577759622248e-01
5.579708890284214989e-02 -1.181384787143541400e-02 4.561139728792571457e-01
-8.931450890069046744e-03 2.981944005889510321e-02 4.438918533869895544e-01
5.636684377582733968e-02 7.543467892543534621e-03 4.511754302891387014e-01
5.281724747534482373e-02 -5.244828947738209950e-03 4.513424982775411931e-01
5.780654737692275669e-02 3.510896102692580983e-02 4.477560477739548350e-01
2.350337010551576192e-02 1.161469288578720425e-03 4.404897930070231227e-01
5.560745265827975181e-02 4.444504048567544940e-02 4.460116447695061104e-01
9.344638190756374141e-02 4.020952121491296744e-02 4.925003935978379821e-01
2.871006622377028639e-02 1.859073992558316415e-02 4.434760196373824792e-01
7.279210628277626993e-02 -3.204700022932527835e-03 4.686620844140528264e-01
9.340609313999946595e-02 5.343497625797568457e-02 4.754169490915587382e-01
8.001001206603021443e-02 1.052370345162781037e-02 4.619441954268229122e-01
9.080459328369401562e-02 2.051264495971411375e-02 4.929889720997511215e-01
8.871603373920758373e-02 1.618389977164922180e-02 4.937025529879287000e-01
7.221544266011215019e-02 5.771851383389274559e-02 4.493430592272157909e-01
8.559404372361570368e-02 4.023260662276703647e-02 5.014321455678161232e-01
6.393038363275330149e-02 8.749640567332055835e-03 5.225769084876668025e-01
8.098605350396623215e-02 2.403137222587941203e-03 4.807317988095555217e-01
-1.082574406384163856e-02 3.672782519537169665e-02 4.454013943344666271e-01
9.666278798303196140e-02 5.383060634683498741e-02 4.703126463577707028e-01
-7.483103880456292573e-03 4.206887465996605319e-02 4.451912187859478065e-01
7.793848647333645463e-02 2.315854341875964867e-02 5.173861118083219468e-01
1.604735351698783480e-02 3.278014541359377393e-02 4.426148165510179200e-01
2.960506744997314782e-02 5.080482174545723241e-03 4.424236308167184828e-01
9.993446428951222038e-02 2.404293582630104287e-02 4.816681848038740221e-01
8.424508273404301972e-02 4.953679214941923703e-02 4.484197782142669286e-01
7.148263885676023333e-02 5.940530590756207263e-03 4.594356704648441814e-01
4.793075954546330980e-02 6.366864684273447483e-02 4.495801022749099096e-01
7.253278889118600081e-02 -3.764461469275645882e-03 4.690605050103493490e-01
6.570226348411470005e-03 4.380707721112152980e-02 4.432180791932927022e-01
6.480183305688988482e-02 2.450117936751521064e-02 4.518289366318026801e-01
6.266574412161475538e-02 -1.322431909288887368e-02 4.656259058959735242e-01
8.823140518545048716e-02 2.580325585399958696e-02 5.033505868791130489e-01
1.061535485360101498e-02 2.367094447748784025e-02 4.415759341855376996e-01
7.381608509750273162e-02 5.749184228885720338e-02 4.484090604145867243e-01
-2.205687685982530427e-02 2.144075461501399656e-03 4.402294882434402146e-01
9.370072554756603278e-02 2.049146381872234829e-02 4.878094318515179828e-01
2.913719847285620862e-02 2.799243703462061736e-02 4.437969113454367509e-01
8.910022162775330101e-02 4.029815639803641103e-02 4.533532292334704894e-01
8.351289387139806952e-02 2.855638626000784816e-02 5.108492086421148048e-01
-2.197290374203562241e-02 9.826687555618657602e-03 4.436448534596322824e-01
5.856178711218158750e-02 5.361832373465507534e-02 4.450611652435508825e-01
3.796111655210214486e-02 1.727130405470411398e-02 4.451828685995159463e-01
9.525264300287479557e-02 4.186953549881990144e-02 4.890000082014445693e-01
2.751444709138337746e-02 8.561356912104540334e-03 4.426317014057631338e-01
-1.006173986539230306e-02 2.620404200907025614e-03 4.389307002342173747e-01
1.004746256636328550e-01 2.451587378883886281e-02 4.638554972001185939e-01
5.263131984528753721e-02 6.124994720293994166e-02 4.472605719635874832e-01
-3.919906464554633735e-02 3.569961059044430337e-04 4.408890350082539933e-01
-6.597253172169513860e-04 2.803851388027234215e-02 4.422706496956080313e-01
4.999244603351460370e-02 4.012841082542772941e-02 4.461230450167700812e-01
-9.559730798385991657e-03 4.486093942586753119e-02 4.461105066111598627e-01
7.768510781103754766e-03 6.712810017091592509e-03 4.400497919529648971e-01
-2.784241018102297238e-02 7.560406406143513336e-03 4.446984420861646026e-01
-1.343680256233345006e-02 4.356246923253039721e-02 4.474830745561038103e-01
7.530568882758088833e-02 4.567655744833425124e-02 4.472049546025943512e-01
1.037533424243758939e-01 3.854633372194016944e-02 4.565029003229075233e-01
8.883621693124151009e-02 2.127509929565282731e-02 5.000054996002094576e-01
-1.949511589145484433e-02 7.480765781311850618e-03 4.418350862509318189e-01
8.729646063526720623e-02 9.584408044400966400e-03 4.865232953043192587e-01
4.370070103827455171e-02 3.781329859077078165e-02 4.457723173657470728e-01
7.830349987374328469e-02 2.319234112444889043e-02 5.170403820347088120e-01
7.073299891037194975e-02 3.448631389104823974e-02 5.184263481629960424e-01
1.016117148187252323e-01 3.646057645432249084e-02 4.578979404555231225e-01
1.036600377517570143e-01 4.051071359638853259e-02 4.788389250532861241e-01
6.599909212216142906e-02 3.069254545595281186e-02 4.505531729654750350e-01
8.322271205767978186e-02 1.308844276074980911e-02 5.034145159556030480e-01
4.312740322050700320e-02 1.287783169723735743e-02 4.462113336576322697e-01
8.451080962016589704e-02 3.222938999500742085e-02 5.089252823606494891e-01
