1.601450785195995818e-02 3.498044862483799811e-02 4.428376251498997163e-01
1.065238443001075147e-01 4.020985019825301654e-02 4.750655304288702863e-01
6.921716155977587770e-02 -8.713343844204779129e-03 4.982126687981615620e-01
6.260365578252276297e-02 4.740039948301457556e-02 4.464550044912319327e-01
6.497505130802203044e-02 9.577095448111113199e-03 4.550957671206307120e-01
1.021233175809457550e-01 3.130438391851080027e-02 4.607551685380969486e-01
9.594688430700638870e-02 5.313876188428028752e-02 4.566929513784865891e-01
9.168406756109905020e-02 5.286974049569238138e-02 4.834518396587703104e-01
9.316870312029677803e-02 4.743326060715191694e-02 4.902516371969123377e-01
6.067431730005089924e-02 2.181241708231007603e-02 4.514705440002513837e-01
5.500484681350743810e-02 4.784152290462667656e-02 4.460193501356423118e-01
4.898199516231377393e-02 9.785414484360834952e-04 4.485568824067124316e-01
2.600513462822954050e-02 5.740846683885446333e-02 4.458491569879117766e-01
-4.114053078523330353e-02 2.720148684048362582e-03 4.424865190129774195e-01
-1.510857091812081027e-02 5.261249395444149608e-03 4.402026750307251879e-01
4.373979380392836736e-02 9.352850992241796765e-03 4.462502564298682084e-01
8.150147009498492912e-02 3.109627081133521133e-03 4.821633170161745974e-01
7.221160369439291737e-02 -7.823993514844499939e-03 4.775202449964517371e-01
4.406742856075140935e-02 -1.210777489231570957e-03 4.466197109070730864e-01
2.430979158915451757e-02 2.255287906163590261e-02 4.431187759022710004e-01
5.465421360982231774e-02 6.259571223908587390e-02 4.523301256266135661e-01
8.180338176016679896e-02 1.368170201693837996e-02 4.621280341701011762e-01
6.805030062857767015e-02 -6.368705772731800968e-03 5.026473057828164670e-01
6.783662805519037609e-02 3.467502290575398549e-02 4.501996581334183900e-01
-3.843393755304598536e-02 2.618251027132008704e-03 4.426992091348348479e-01
4.839095260347696381e-02 1.622708394410818378e-02 4.481044970365158919e-01
3.320349190181023924e-03 1.120873060177285212e-02 4.402869233986163588e-01
9.681644309365224077e-03 2.600197262527602360e-02 4.417725526421339977e-01
8.650828560109795340e-02 1.962517757641976668e-02 5.043486185745962302e-01
3.091442498288411722e-02 1.721727898776575713e-02 4.439259548940295286e-01
3.872139532957776138e-03 3.059361662164411869e-02 4.423056271973005993e-01
9.453827070102800711e-02 1.769099667513113205e-02 4.702970851423626253e-01
5.776817375382310368e-05 6.475205498613023636e-03 4.396123020647779156e-01
1.013949722947691950e-01 4.796421573438138658e-02 4.754667928600668225e-01
-7.248593682159807164e-03 2.916152070463469068e-02 4.435441085806764439e-01
3.841584507467717124e-02 6.465129643820756444e-02 4.483822578826478500e-01
9.137795057728211046e-02 2.595823148794687216e-02 4.605062580627262703e-01
7.131514381037251660e-02 -5.530235575228194603e-03 4.952358965070105534e-01
1.143795207740085085e-05 1.411754704657992160e-02 4.404016698971576771e-01
5.269512326801659152e-02 3.762260682093414299e-02 4.470877371890070173e-01
2.134575725018321435e-02 4.907408568524053438e-02 4.438612370234648608e-01
4.584680384101478406e-02 2.864185693535156729e-02 4.470938570141509971e-01
7.483054087831345069e-02 2.556909959219302517e-03 4.650625077185957523e-01
3.354910458108646513e-03 2.209331359708200868e-02 4.412540720601598743e-01
6.014860650598607278e-02 -1.260502781604803772e-02 4.617499051547849231e-01
9.036540852910304039e-03 1.290137217406206460e-02 4.409383022278360320e-01
1.031898205289235038e-01 3.728252651823133618e-02 4.812921757902078879e-01
8.171179448194351713e-02 3.282735603952277245e-03 4.845969898981377644e-01
1.004701732848670426e-01 2.848244909023803922e-02 4.620495488843198162e-01
7.881661729614805600e-02 1.716317876210056437e-02 4.595942421653546606e-01
4.407072991004569451e-02 4.417462428547044156e-02 4.455556113294691367e-01
9.443647333387794607e-02 3.587521368493522267e-02 4.930181182647981331e-01
7.385971742707647669e-02 -4.412315773231885625e-03 4.740255718770586268e-01
7.963348275158181611e-02 3.715686007810652114e-02 4.541057548378047426e-01
6.976350995660562937e-02 2.525819949382362550e-03 5.089660174159599260e-01
9.575247492623485679e-02 4.765043246715947728e-02 4.535068827881280629e-01
1.621309879110668928e-02 2.474559162427746387e-02 4.421457584121614159e-01
6.516605513477319311e-02 4.062666088001537501e-02 4.480171955472534995e-01
3.335700624760326409e-03 -1.301275121605971561e-03 4.381362388300165112e-01
2.338526446802153408e-02 1.002774542284579767e-02 4.423299708345700965e-01
1.028434069547884133e-01 4.438241097443078320e-02 4.780080226413190858e-01
9.329231573517544895e-02 4.414466541925847476e-02 4.915172057493856217e-01
4.031694817500314915e-02 8.600337350557468036e-03 4.452624766064192108e-01
6.556073103678690395e-02 1.109038999821002243e-02 5.230754268350989999e-01
5.500861339028149943e-02 5.671313083313399284e-02 4.457384231366519622e-01
-3.413183758735734152e-03 7.564156176077621065e-03 4.397253536579620592e-01
8.406015512379177990e-02 2.860898259466104418e-02 5.107305700875746091e-01
9.301161333986190938e-02 1.549815062789355359e-02 4.827215160910017788e-01
6.509136712179824924e-02 -2.389318211649918595e-03 5.108168520442457616e-01
-1.473309219784625472e-02 2.986217871800529028e-02 4.452926048886646226e-01
7.378126323843567369e-02 2.845044723817056337e-03 4.633390170333476776e-01
-1.108626634610499623e-02 -1.834105707950165875e-03 4.378286370716393816e-01
4.946551826122601997e-02 -6.549485830069474816e-03 4.498512934116964956e-01
6.090921562442219023e-02 5.869918611761450189e-02 4.492247392824945673e-01
7.109186820479704294e-02 5.987544781305870201e-02 4.523012182090730970e-01
2.355267247494055929e-03 3.256917737781993977e-02 4.426194547524801570e-01
8.414551677821524578e-02 1.015556865746714693e-02 4.972192430398567620e-01
2.146890404776065700e-02 1.909248215061669016e-02 4.426831564200935376e-01
5.526714060324110570e-03 2.072317606166516543e-02 4.412584096231008668e-01
6.764882961332069344e-02 3.383573382839358962e-02 4.504545908289628864e-01
5.621058490804489022e-02 9.207238311092356270e-03 4.512943290512410055e-01
2.043090210577767907e-02 5.874891443776724537e-02 4.479129112985603678e-01
3.139278742684357276e-02 1.087027306062384770e-02 4.435840481988543305e-01
9.728452778235145704e-02 2.819015031727811760e-02 4.885838592670274094e-01
3.025586769760896591e-02 3.064022816316308920e-02 4.443325152585328452e-01
8.373923269826223648e-02 5.819394753470070319e-02 4.569942374891480252e-01
9.560622095884518945e-02 1.863712514438761389e-02 4.692514578924484314e-01
4.969447950060958130e-02 1.672039821491058675e-02 4.485102313046180345e-01
3.098325957793886254e-02 2.167462847975032761e-02 4.442041404059118292e-01
3.329851540123777293e-02 4.238747876027682861e-03 4.430985904869499947e-01
1.791679056726019903e-02 1.418235903336551376e-02 4.419141411292553112e-01
5.576286611549129135e-02 4.921277898517784771e-02 4.458855251045175105e-01
-1.496261950351797376e-02 3.035818246731801853e-02 4.455328482444916860e-01
4.955190109882939148e-02 -7.885789665660728615e-03 4.502353034035600499e-01
6.378798563808855959e-02 -9.008925417832391175e-03 4.629555558431620033e-01
1.007244133226350147e-01 5.033650294729345026e-02 4.716013881852170742e-01
5.672213015413142545e-02 3.093658186597722515e-02 4.490323740887081083e-01
4.676598599680705654e-02 -2.661524700242516930e-04 4.477462695076231958e-01
-3.826017144197817882e-03 4.180914944941502287e-02 4.443483526041076548e-01
-2.122923635250225510e-02 3.136721163928994638e-02 4.493096936403470631e-01
6.698871742680814756e-02 3.758845910350170488e-02 4.491998539077357577e-01
1.771909252882553076e-02 4.930352082909116029e-02 4.438089080198290848e-01
1.025952249738106281e-01 2.932232325802599376e-02 4.621885041751164214e-01
8.092982670246277876e-02 3.940296361603413261e-02 5.051224040000830140e-01
7.366441362230070206e-03 7.277903097359319888e-03 4.402142784167876188e-01
7.502033933696848622e-02 3.188453233960782118e-02 4.537967008266675650e-01
1.776002067931403000e-02 5.642080821431057214e-02 4.461102510283305178e-01
5.422790449867378321e-02 1.484564001177712637e-02 4.499961773557757394e-01
7.647714606252685454e-02 1.152910323578005408e-02 4.603240853329137461e-01
-2.842699298258430374e-02 1.089633314824616818e-02 4.481605601827662877e-01
1.048085347713579446e-01 4.255144276164168210e-02 4.745033417347709337e-01
6.123184266489269112e-02 4.589485776771950326e-02 4.465765403424939994e-01
6.513418780651196449e-03 3.093071392651022128e-03 4.393700488434194029e-01
7.250667422478031254e-02 3.484216840346543269e-03 4.615528606683974577e-01
-7.335958597530698160e-04 1.689440132100150649e-02 4.406603588684397943e-01
7.751862649695002994e-02 3.247308448883162724e-02 4.549041168671454360e-01
8.683242447815107956e-02 1.100243212167943685e-02 4.916416733689207286e-01
6.976172893741662551e-02 7.561459776155918591e-03 4.580824145504807654e-01
7.624708839513548442e-02 1.882470955235405682e-02 5.176375803135364606e-01
3.951113240553632416e-02 4.849279039663311613e-02 4.448584711185021856e-01
7.458573075148636211e-02 -2.546948285670105026e-03 4.923324290473161668e-01
5.427697980478934231e-02 -1.104465403869468211e-02 5.254696523673193509e-01
6.466003860963409622e-02 2.397784306671417107e-02 4.524524328711299059e-01
8.984118212865271902e-02 2.361412997605719447e-02 4.616063544689623099e-01
9.670016626720746855e-02 5.195633689349699741e-02 4.774332321248694333e-01
3.614607537215164951e-02 1.890557128876416831e-02 4.450570065547917453e-01
1.031942325504699165e-01 2.482811021699280613e-02 4.664740317946514669e-01
9.279177559707067757e-02 1.722252024581959196e-02 4.862287947285436340e-01
7.505800941484275235e-02 -4.364496002667537025e-03 4.828456106969410966e-01
-2.280116869643623520e-02 1.796742115351562114e-02 4.471726862863918961e-01
-5.914041139334948183e-03 5.308122719366455480e-03 4.395444362572416552e-01
7.912328712890454724e-03 3.605506119640770196e-02 4.425869574618555569e-01
8.963806883400313175e-02 5.538828783208855910e-02 4.540880262928683742e-01
-1.812599811312054152e-02 1.626000901937819931e-02 4.444170108638859085e-01
-1.078256230623103433e-02 3.758585844184902242e-02 4.455524387928618824e-01
4.422482011059659934e-02 6.255101286389867787e-02 4.470559781880107386e-01
2.773931467900762199e-02 1.579220243195537943e-02 4.432420690442364086e-01
8.555780976558259587e-02 3.027512825499664717e-02 5.087034803940413408e-01
-7.972138251715250347e-04 5.303727808421607876e-02 4.463049488502818241e-01
-2.495756181673452340e-03 4.336722798180211308e-02 4.442035849580292517e-01
-1.202955367190726519e-03 3.389516803231584774e-02 4.431843809670050205e-01
8.344458316978399515e-02 4.625644943904005241e-02 4.492454761785714124e-01
3.351352366702293334e-02 3.807093962499408409e-03 4.430625786219081208e-01
4.205167247994801016e-02 -1.568420828775320131e-03 4.457682053472177275e-01
7.035230195348605997e-02 -4.143541844629533566e-03 4.986298011156320986e-01
1.198041864714341834e-02 5.030970741526560180e-02 4.439316809654277884e-01
9.417743753692735253e-02 2.330172379394238741e-02 4.900248229593212601e-01
7.619463222960008719e-02 5.929377309014483011e-02 4.510014948779446642e-01
6.840658410173790227e-02 1.437166983638502038e-02 5.225401638010613858e-01
6.468220034985916467e-02 -4.553595779996305951e-04 4.573954997699054559e-01
8.054215416150241336e-02 2.011759834218723730e-03 4.861091206001372234e-01
8.395855173248605030e-02 2.773530440369930891e-02 4.580043681045207760e-01
1.814071495947296164e-02 5.628234281229549385e-02 4.460205558870694587e-01
6.385291575223506211e-02 5.744179624658392325e-02 4.481050064533950716e-01
-1.537853634173213732e-02 3.858410416482666028e-02 4.476794281599796865e-01
5.505796287113243204e-02 2.326916646890314633e-02 4.497285468620287330e-01
-1.159455751318573362e-02 3.382764572480175674e-02 4.450726559767438917e-01
8.246152624514331564e-02 3.428393173230585150e-02 5.101642653011957407e-01
8.144108595463439570e-02 3.053171946871676042e-03 4.823178675175927577e-01
9.139834777215642692e-02 4.061731888769772036e-02 4.957590846541373719e-01
8.463496949329366026e-02 7.982089051187848602e-03 4.907346695708715845e-01
1.529225471385571231e-02 5.739089046723501106e-03 4.405122150804743897e-01
3.070735374166562101e-02 4.758398815374566965e-03 4.426959917601036576e-01
-5.295003683445546200e-03 2.843689287645237429e-02 4.431039846968392037e-01
7.992519475991682887e-02 1.451258461561981232e-02 5.101917717991761858e-01
9.477812479137362467e-02 2.084712005452138764e-02 4.866550616237996785e-01
1.921346258478968255e-02 3.674171552399447399e-02 4.432700543318814912e-01
7.524823213859448134e-02 1.016966282243306208e-03 4.971252178141002398e-01
6.255031911721518900e-02 6.038959499208588350e-02 4.529805815139929526e-01
6.723468400383916799e-02 1.016569680051757074e-02 4.561303266430019598e-01
1.035366434407507807e-01 4.522091364073575759e-02 4.717200294441481478e-01
8.228573270167501008e-02 3.171458381048717495e-02 5.122128238824884550e-01
1.104089326050250869e-01 2.791373392071681142e-02 4.701308401219885247e-01
6.549998669933296269e-02 -3.554456369623498150e-03 5.094859045934362340e-01
8.024666882634022558e-02 1.001160158437032661e-02 4.635675505577167010e-01
5.627174592528433328e-02 -1.259963476789418592e-02 5.240177066729828637e-01
-1.311141799851870196e-02 1.443420027861908039e-03 4.390917131495764014e-01
7.580838476705506479e-02 3.505970185745913015e-02 4.532088444000227923e-01
7.284412552618246828e-02 3.611948279134750278e-02 4.513437342234904448e-01
7.455799682040094301e-02 9.927873001911696749e-03 5.118170862954751765e-01
7.747807071245328692e-02 4.135133139920757483e-02 4.502499097264984762e-01
7.631671583919094615e-02 3.322380840917785183e-02 5.168262364799172115e-01
8.617330366141383313e-02 2.361290609007637986e-02 4.600542409074280248e-01
6.612844155066185947e-02 -5.526358870566151597e-03 5.072288722810107675e-01
3.099898369821087879e-02 5.405193253680764393e-02 4.450230312029153090e-01
3.447537707280572128e-02 9.788822835685600555e-04 4.429788838269468343e-01
9.300582673423769819e-02 3.709045041077216331e-02 4.950278017136431341e-01
-3.906266684732641326e-02 3.585337246631528207e-03 4.469748773820464427e-01
7.919389320671937904e-02 4.422894102965893755e-03 4.974736057135412115e-01
4.302371709267234501e-02 2.212654757222261639e-02 4.466513398767987253e-01
-6.622441519185580557e-03 5.839775552043597641e-03 4.396016837762340423e-01
6.905473908731046828e-02 3.579198288743142692e-02 5.153501045691309956e-01
7.637622689320414104e-02 5.745161045922741322e-02 4.479430478593014464e-01
8.521978412828778993e-02 1.133431025787276329e-02 4.968770390247037594e-01
3.939998891158769112e-02 4.242288983548331283e-02 4.452547844191737103e-01
4.505091257169580726e-02 2.659266054458721273e-02 4.470591556833049540e-01
8.476030593225625243e-02 5.798424118909257380e-02 4.567383514148446455e-01
8.153744855695362059e-02 3.340191835430699613e-02 4.566772869334137508e-01
1.042327902757548552e-01 3.859954434928310196e-02 4.798223182139502718e-01
6.529945653679698758e-02 4.649468922581901503e-02 4.467045117847420754e-01
2.116453312870275258e-02 1.492460734311521972e-02 4.423395299888931986e-01
5.816808552845350797e-03 6.927663017879607220e-03 4.400481284849412367e-01
1.670259290377904687e-02 4.818312818794200092e-02 4.437570920251388551e-01
7.621462540403242669e-02 3.516803866548619956e-02 4.533849582374805398e-01
8.619871815876639642e-02 3.502760423793437050e-02 4.585402016092649524e-01
5.797326292842475311e-03 3.298376881576837311e-02 4.424660744167077109e-01
7.805692269544813044e-02 1.438685927092998688e-02 4.601400378426773741e-01
9.371870076272961758e-02 2.016225838184974167e-02 4.666022632291396133e-01
5.317682079054347755e-02 1.196500906692551068e-02 4.498583444402556308e-01
2.370688258514744469e-03 3.916076811572747479e-02 4.431705413156892259e-01
-8.343934997157372198e-04 4.514831625657297204e-02 4.440774688979101104e-01
8.076058821008723354e-02 3.688289857728583882e-03 4.714414961134194004e-01
8.521408326513324472e-02 3.434653713901376915e-02 5.079815262405783516e-01
-2.730064379546294061e-03 3.727644239190149034e-02 4.435929258748164683e-01
9.420341923058554723e-02 3.769138094171497338e-02 4.928950621194050918e-01
3.375402393447422128e-02 1.124400790839233388e-02 4.441007450035833748e-01
6.748690167009843699e-02 -4.650377615666573521e-04 5.089511523644256741e-01
4.132539030105501082e-02 5.152555625260289707e-02 4.449762098835310931e-01
8.495358963801619145e-02 3.668838206695262949e-02 5.059987278625615037e-01
-2.361055516894928347e-02 1.023515900936010879e-02 4.443911582980486497e-01
7.777321746813217751e-02 1.620577914033367525e-02 5.144069495157274075e-01
1.515939378192258415e-02 4.400375579309398488e-02 4.433491624330337388e-01
8.699072852220669783e-02 3.520483762930178007e-02 5.044997641158666113e-01
7.282992038287793013e-02 1.311516226804918580e-03 5.017897328524015821e-01
1.033900143262256183e-01 2.472389720611448821e-02 4.666899953855224714e-01
1.040051896740250559e-01 2.395580231989017511e-02 4.757635797071917971e-01
2.946259517839921321e-02 2.844915216882737755e-02 4.440521616595025090e-01
8.526548002297225023e-03 1.357722022339364829e-02 4.409360345667686643e-01
7.552190085492070659e-02 3.318757512841939705e-02 5.176027886580623072e-01
5.580680073239505795e-02 -1.155406258778438576e-02 5.242428026817681497e-01
4.940289674317112356e-02 2.799227202624733277e-02 4.479540077768169870e-01
8.750470015918310196e-02 4.995978301190581033e-02 4.502442772067469234e-01
8.745754785810375131e-02 4.726381406612936015e-02 4.501773099430398384e-01
1.160997969215831274e-02 5.379866655787600427e-02 4.455147097067552742e-01
7.655601667189450288e-02 4.052541376913137636e-03 5.008998928632136804e-01
6.631608429840679664e-02 2.600603961575481682e-02 4.524649071829031644e-01
5.355061626251483159e-02 5.043728007741889868e-02 4.456349144410740593e-01
8.838655543474423226e-02 2.758019422681593641e-02 4.598235730700066526e-01
3.440552482150534275e-02 1.150821414171273628e-02 4.442519704501433075e-01
2.659210038989182762e-02 2.030156907365430162e-03 4.413890873709691576e-01
-1.558192887227877882e-02 1.269429617912203392e-02 4.424524831518604762e-01
9.682641835482438952e-02 4.831776378402868194e-02 4.851669855735825099e-01
5.362709146530306864e-02 2.993461171699351130e-03 4.504287625162088915e-01
3.512571821449231996e-02 2.293199442324976925e-02 4.449932614956467192e-01
-2.283309457087604605e-02 -1.464039768424582957e-04 4.398608475001640761e-01
6.917534690030481548e-02 1.194213360097685049e-02 5.198892040274680770e-01
5.467596468139450383e-02 3.430818504831285171e-02 4.479097961967575814e-01
7.595857705871988594e-03 1.648021811662363917e-02 4.410225929289476321e-01
6.978534223420466975e-02 -3.318286173408849064e-03 4.650795822471882612e-01
7.215826792499281661e-02 3.536524267474639577e-02 5.150624506039037653e-01
-1.310687710350825173e-02 8.345561093185752122e-03 4.405430196160963208e-01
8.810518160898335449e-02 5.680695873605685897e-02 4.717914624020516645e-01
7.175621462986336851e-02 1.407030490027104050e-02 4.572147617660296537e-01
7.361878575455231555e-02 4.986947255110107252e-02 4.471552767900758840e-01
1.057937992672061678e-01 2.402546549270112575e-02 4.707164817928540801e-01
6.207960379653579275e-02 -1.271270021622471040e-02 4.645638048969235046e-01
1.025147617043000309e-01 4.033232970738835632e-02 4.816397852235437260e-01
5.984079625536509184e-02 2.390574360896466355e-02 4.510274966179084188e-01
2.225165685384398670e-02 2.247941139248121195e-02 4.428428511041556659e-01
7.009418366621258945e-02 2.705264532064029226e-02 4.531807837381649495e-01
3.504365880724892579e-02 5.078775191617594664e-02 4.444558067502548671e-01
8.326977322491806166e-02 1.292111595991976211e-02 5.035982694788827541e-01
1.784809901515444289e-02 2.959792166558545407e-02 4.425290658983558889e-01
-2.846350400873370184e-02 8.522485247888308621e-03 4.470924277086387733e-01
7.150798877753215821e-02 -6.078627938429788380e-03 4.712754384680912789e-01
3.685244791798363700e-02 3.743173358273887974e-02 4.454163822708173126e-01
1.594108937700228559e-02 4.069215906888887235e-02 4.431191512541824418e-01
6.229202296444949494e-02 5.869996711165919451e-02 4.499220331978773801e-01
1.934830341251742372e-02 -2.943814895268417019e-03 4.390694436681797930e-01
8.294490613659455391e-02 5.149621604069359870e-02 4.489034413548014801e-01
1.336864560807006844e-02 2.925259399594258916e-02 4.421903994957072093e-01
6.744712701776971187e-02 1.244356699007335629e-02 4.556666375585228801e-01
6.288533561591400090e-02 5.969646120116452875e-02 4.520920474267021150e-01
6.482273970744643898e-02 4.753982618463546347e-03 5.189773875073964149e-01
9.498010149697502791e-02 3.595240584247444415e-02 4.588634485796335150e-01
1.403728178658609355e-02 4.980179935107009737e-02 4.438756804222592778e-01
-2.065208398696376929e-02 2.447096399922598503e-02 4.470498093698203057e-01
7.242336698050234889e-02 -5.290835095888358694e-03 4.917478135128030003e-01
4.313528877731480880e-03 3.529763917110130024e-03 4.393838160989036457e-01
7.877334434310344358e-02 1.289695782442580943e-02 5.098345455443474838e-01
3.153519044121457643e-02 1.706178835105381236e-02 4.440332674186758810e-01
5.802486227384696243e-02 5.852692645344343553e-02 4.469605356534825935e-01
6.422032964946139399e-02 2.627174194561032392e-02 4.519095820966199661e-01
8.956735169443235875e-03 1.620606302000783885e-02 4.411164655266691104e-01
4.554756570006433108e-02 6.327501717671739356e-02 4.476415808241543393e-01
7.117324402919150694e-02 4.306003502902527869e-03 5.090995857205844466e-01
9.443793904619866841e-02 3.384558558121749522e-02 4.936628977098911908e-01
-2.266107803735527195e-03 5.123790676177972236e-02 4.452445928423033328e-01
4.869873663953937226e-02 3.209034236285725900e-02 4.472365780121004275e-01
6.979804260029286167e-02 -9.791533385316755767e-03 4.743952394522527038e-01
8.551288239564225346e-02 1.568559986317170918e-02 5.024022722994073709e-01
7.983513037719722205e-02 5.860856077433853478e-02 4.557997950462152059e-01
8.833573392664918755e-02 2.180065209527652648e-02 5.020029466855537859e-01
9.785781292472266191e-02 3.650956366717920953e-02 4.589144795043435532e-01
3.781461927772292869e-04 9.370143734049158311e-04 4.385770263813065228e-01
8.249973638940002324e-03 -1.857385633617923346e-03 4.382265981720744330e-01
5.460499906943817872e-02 9.981331794142607114e-03 4.506001723323049268e-01
-2.812032592680799737e-03 8.876169475544913937e-03 4.397921327972521555e-01
1.054848155079520927e-01 2.626366579292257336e-02 4.661077897189040975e-01
7.058359070590586315e-02 1.041961813557986706e-02 5.172177713563690382e-01
2.785602115570834716e-02 2.458293921106022295e-02 4.436877834633714546e-01
4.443997793219312681e-02 4.960096982138258170e-02 4.450455434908260344e-01
7.264670653664427602e-02 -6.671648744859003978e-03 4.886839021051560539e-01
7.728460132794523485e-02 1.497356681988901324e-02 5.136958840807341886e-01
1.129178368425344664e-01 3.214088126940610468e-02 4.721989982660603213e-01
-9.492234121596141577e-03 1.606292941555925030e-02 4.413649830808614172e-01
9.346031594661401154e-02 3.211695135423400793e-02 4.958711778712671658e-01
3.622767720485308394e-03 1.085050802893515985e-02 4.402472275759693465e-01
4.558505575000137977e-02 3.863594737793955847e-02 4.462459818298603609e-01
7.743334201240607839e-02 3.370742093088271302e-02 4.544730668862944634e-01
5.325439394847182595e-02 1.004300510565788243e-02 4.500586445487329557e-01
8.895822984782342235e-02 4.986595438340170328e-02 4.901875093217043511e-01
1.035093553898565055e-01 4.542863463346408226e-02 4.668401969626829184e-01
9.480520499957843794e-02 1.784475376813354081e-02 4.698571899344445857e-01
9.620137430888781038e-02 2.936700402922214417e-02 4.908098276319650122e-01
1.073904332732646960e-01 3.036105289450111849e-02 4.767270465062884433e-01
9.812290290740176280e-02 5.737999789337044909e-02 4.616784968115760224e-01
9.738725089104353916e-02 5.504082659532747585e-02 4.588230755810066563e-01
8.423016837933627876e-02 2.504058015978453608e-02 5.101461729593710359e-01
1.008023181102926935e-01 2.177834043567604405e-02 4.691631208538054043e-01
5.436100713964893416e-02 1.463145909624713296e-02 4.500724717751808934e-01
1.864314824218643585e-02 4.496411389311118223e-02 4.435351532748856296e-01
-2.240675698577720976e-02 -1.264263026709276996e-03 4.395768348382985136e-01
1.005357624424752933e-01 4.750163102825533112e-02 4.789942942709602969e-01
5.006504112123876318e-03 5.551842255073977973e-03 4.397968155494194065e-01
4.423482118546999756e-03 1.511679725155741505e-02 4.407274572847813543e-01
1.522134999456296184e-02 2.711609210906586881e-02 4.421568633229837064e-01
9.330835528642296428e-02 5.359124744631763027e-02 4.769912217269797750e-01
5.185222306152750815e-02 3.321516485671487454e-03 4.496139379743540609e-01
2.422356302438383180e-02 2.742397932555277335e-02 4.432034621849177958e-01
5.147333508991561862e-02 -6.443444369524061084e-03 4.510717050283568064e-01
2.771437458786740748e-02 3.791797672703406397e-02 4.442971516747566962e-01
4.039006783290512159e-02 6.462830097980457045e-02 4.481656748613032093e-01
-1.893857658867534668e-02 1.836685757577129902e-02 4.453410350783383320e-01
9.198312630046696914e-02 4.063438181290374845e-02 4.950475667870867791e-01
6.569876996464406316e-02 1.259857263144945581e-02 5.239793140858769460e-01
7.137213006927117798e-02 -6.104563381227917640e-03 4.945713244548514687e-01
9.945794118937675843e-02 3.144289910930470749e-02 4.864583634895014996e-01
3.248231314382719892e-02 4.023764504156185362e-02 4.448049866068921609e-01
5.748263035824031225e-02 4.843821989006399931e-02 4.460673066018597255e-01
4.093918898739084405e-02 1.469921667928140996e-02 4.460176352764185226e-01
9.324948606879028545e-02 5.900790882447906616e-02 4.580251075919954951e-01
2.945253150400852296e-02 3.732780980623130740e-02 4.445025548905105484e-01
9.116610628296112351e-02 5.297286319974778279e-02 4.529635912108999074e-01
1.098384994185374886e-01 3.162180577046967700e-02 4.641075722192102848e-01
3.240908015386964949e-03 4.967851885656164590e-02 4.441901653303505504e-01
9.531387502242806564e-02 3.598944298142280757e-02 4.915463460683174857e-01
1.146054984610487409e-02 3.061093571665766261e-02 4.421507732566649085e-01
4.925887067978107492e-02 2.097608499597243895e-02 4.481734552423336515e-01
9.169746492318567310e-02 4.814110524287232989e-02 4.905007916457436168e-01
8.861676012180215445e-02 3.117156961015097455e-02 4.600257961606274426e-01
4.003703393928689097e-02 6.531222763045889390e-02 4.486084549578422398e-01
9.330083157227890556e-02 2.394705386676154041e-02 4.919004545038541676e-01
6.575551122210077093e-02 4.531615953135329639e-02 4.469030686598827740e-01
4.203100286238568850e-04 2.044786343117403413e-02 4.412164272303782386e-01
7.907601868031209624e-02 3.612857212860872552e-02 4.545635333814097012e-01
6.996735842999754484e-02 1.859083834374105487e-02 5.237360432863077397e-01
6.785774806637019652e-02 4.423771853469903211e-03 4.581605108292508555e-01
9.005113521986794767e-02 2.726700701008862027e-02 4.604979431190479033e-01
8.006761119968985874e-02 1.451307366385330352e-02 5.100290976215178240e-01
7.271239271012334970e-02 4.327530958394591037e-02 4.484105390387959078e-01
1.060175692215486187e-01 2.444229729637038828e-02 4.733311593003800555e-01
7.643428463211418555e-02 2.984665897420459707e-02 5.206710518147559252e-01
-3.052494119149827372e-03 2.750126429546918827e-02 4.425783730433529573e-01
1.011590295162690112e-01 4.081740240379702622e-02 4.832601659153955564e-01
-4.308986288628187389e-02 1.928779151484952877e-03 4.439605807675839344e-01
8.941209905750124864e-02 5.666345767015244783e-02 4.728808834152336549e-01
7.024368399894165282e-02 4.743964224057613428e-03 4.596189995126647165e-01
8.085827253976241025e-02 1.576299461256427253e-02 4.609859112026735706e-01
2.597334435983437995e-02 5.217666940271759035e-02 4.445580598582433152e-01
6.905210796843608279e-02 -8.313784918316441397e-03 4.990423621837953294e-01
7.107383366920309864e-02 1.544266444394952562e-03 5.053015180649703675e-01
9.481859138945913923e-02 2.604154351113534965e-02 4.618638973697143379e-01
7.147179542923849660e-02 5.969391204360798009e-02 4.520995591071167996e-01
1.005719781386057721e-01 4.579103708678278206e-02 4.817192390454407835e-01
8.092382279425287817e-02 8.208844438977284941e-03 4.661248021179901779e-01
1.001365918557338558e-01 2.175723521147096898e-02 4.772690961396625076e-01
7.181740363740619915e-02 4.370112629426914364e-02 4.481855928222581165e-01
9.778065806787397674e-02 2.081959080826563391e-02 4.814395558883596826e-01
6.279986124738574926e-02 4.199749116356586709e-03 5.210021988115982605e-01
1.040849733322055104e-01 4.339285224000901525e-02 4.760046919336765048e-01
-2.489253739614907812e-02 1.537637333643554309e-02 4.473843517055346997e-01
3.517767061443636406e-02 5.726572097436311709e-02 4.451939096324500356e-01
4.622807506640225217e-02 2.422263127418650477e-02 4.473734561026197487e-01
6.873264689883637479e-02 3.237162696470720531e-03 4.592572463604788768e-01
4.447090697142885157e-02 2.460321390800807029e-02 4.469522969385006927e-01
8.207383042130586559e-02 1.811436554943006080e-02 4.608238298377854147e-01
2.923192752366514727e-02 4.774580222105614946e-02 4.441182237786517883e-01
5.893508539075721642e-02 5.136344037360945219e-03 4.526900462068074171e-01
5.184329994425920796e-02 1.582636497409743020e-02 4.492067714211945839e-01
5.084602232683620160e-02 5.626861105351213532e-02 4.452644209016324850e-01
7.492916075020283895e-02 1.093891614712008339e-03 4.977639894595819459e-01
8.566899693965360219e-02 3.524933686986009285e-02 5.064391166164292635e-01
8.721450744567675606e-02 5.697652297122302728e-02 4.700950945665161584e-01
-5.045824028682078383e-03 5.119290963119869919e-02 4.466221360697796849e-01
8.969903116410032906e-02 1.065346046335564206e-02 4.743074448838443535e-01
9.545085708949679892e-02 3.827969967720762368e-02 4.906840277788234173e-01
1.032091067066713969e-01 4.564006175813810351e-02 4.657425358557537587e-01
6.162893951383851404e-02 1.250558330760744453e-03 4.547970491194160414e-01
7.153699782394361273e-02 -8.898436814121717109e-03 4.779005086545537462e-01
-3.118840005023126773e-03 5.368715366147042145e-02 4.475349661537507129e-01
1.218871574568152448e-02 4.061090837456585168e-02 4.429862387207847974e-01
-2.987440339079708296e-02 6.608781706002177930e-03 4.455755420180132487e-01
1.466649082558581924e-02 5.878325069096653616e-02 4.506057033027671133e-01
-7.340969320470754240e-04 3.522173655105649559e-02 4.432072393074104610e-01
9.174895429024201854e-02 1.422345045826235374e-02 4.714871861448237667e-01
7.988839225843771819e-06 3.391694709316935702e-02 4.430299260521072813e-01
7.521045977571549912e-02 5.215100689612371838e-03 4.625243432897193085e-01
3.759202983286482475e-02 1.600077331810327227e-02 4.452629882698256880e-01
9.603299261495766570e-02 4.454801225516525492e-02 4.879838175031960268e-01
9.897637803928802103e-02 5.272736712983882440e-02 4.707956398322635794e-01
1.083043930142321282e-01 3.100190317088281217e-02 4.637857520226632002e-01
8.955134544001276675e-02 1.784745341587596484e-02 4.655065465458097518e-01
8.603550066132871488e-02 1.579242016714123287e-02 5.014594621063815927e-01
6.818106472934151729e-02 1.159621944725443450e-02 4.562688265719016534e-01
1.027985497503851459e-01 4.597652839503721389e-02 4.643278019569853088e-01
9.940025187942727602e-02 5.235852041679321667e-02 4.625758222325767055e-01
6.931026605550302810e-02 1.395758467205153452e-02 5.212733512465312913e-01
1.142913112947687056e-02 5.874533351428783134e-02 4.516182548468730684e-01
9.001041329703662885e-02 2.502586475540920577e-02 4.606903117401345837e-01
9.244764665561854000e-02 1.416167009646418506e-02 4.817049330288371567e-01
-1.717454974853588681e-02 3.559594645087698489e-02 4.477988864542613023e-01
4.580816111132289536e-02 2.769473269316798450e-02 4.472059877806190964e-01
-1.293126126319207696e-02 1.687307676829013711e-02 4.424440564391662889e-01
-1.995735944394512462e-02 3.722648384407319100e-02 4.500105636151591759e-01
8.445070258671738550e-02 8.565923313522799329e-03 4.935563352172263052e-01
9.336811433984457120e-02 2.812028442149143437e-02 4.605482482419029355e-01
9.530192614590919653e-02 3.621631534913982708e-02 4.588221289808375181e-01
-8.263264979572063421e-03 2.612869677031898208e-02 4.431478105585064942e-01
1.101989893687985167e-01 3.628894665360671290e-02 4.625477086406045157e-01
7.857569322832219649e-02 5.709648156339343361e-02 4.486937692304809877e-01
5.779656669630095500e-03 4.033374373294620202e-02 4.429982613225862398e-01
7.296668469398417955e-02 3.503215927718456024e-02 5.155114668243541143e-01
2.427562193589788073e-02 4.026859386983862310e-02 4.439899893692308974e-01
7.659686209864957629e-02 7.404427674707789522e-03 5.059752321267172448e-01
6.676351320833297243e-02 7.161330766897866865e-03 4.565775904125681239e-01
8.469988500606435988e-02 6.128552493748841076e-03 4.838935443560377636e-01
6.862253780703861383e-02 1.322456854447268647e-03 5.093033419462805744e-01
7.210796420874804324e-02 1.562420349920930554e-02 5.195192867974626205e-01
7.234405052914778811e-02 1.803930972968846580e-02 5.211373724820282938e-01
6.594354388729083138e-02 5.210479111861794632e-02 4.459956655821368798e-01
7.226607530758906439e-02 -7.882107915251148483e-03 4.786452220652124834e-01
9.570497590403119481e-02 1.870127333507223474e-02 4.818463200649740763e-01
7.018505807656671980e-02 4.876017542548079925e-02 4.466685692418128628e-01
4.379938861927504951e-02 4.087629531500017871e-02 4.458545652093239275e-01
9.189186969795627713e-02 2.732091295873807085e-02 4.604924749649607074e-01
7.502506747937522091e-02 1.648636450043459295e-02 5.174356946022953263e-01
8.989785589967014268e-02 5.612054060961655516e-02 4.741995420351606261e-01
8.647424857217067551e-02 1.527375069726849555e-02 4.645944821698463900e-01
7.813823504292713440e-02 1.944825765019495348e-02 4.585173351627752636e-01
-2.178032739656826991e-02 1.459845176778064128e-02 4.456966151406597243e-01
6.589799651605074415e-02 -8.334515796720259884e-03 4.651759957563714187e-01
9.094669762323333295e-02 5.386504809905656721e-02 4.807648674838959635e-01
6.021127546463466568e-02 2.936271198450689322e-03 4.535334464819356093e-01
1.018045057366018108e-01 2.245518601142765941e-02 4.743044545735056183e-01
5.354541009058778195e-02 -6.571212399117029243e-03 5.246171946962024935e-01
8.563936185294521164e-02 1.586398523408882877e-02 5.023268780379825937e-01
2.302655324919486435e-02 4.939486757560643954e-02 4.439647966336164320e-01
8.974600067291363392e-02 4.426304999875708968e-02 4.512694475462735166e-01
8.645466245136881889e-02 3.608915737619938779e-02 4.576200264906124526e-01
4.986252373404403970e-02 3.781961722273280424e-02 4.467844788389639943e-01
8.732232169652896780e-02 9.984364570858579938e-03 4.715726829352008265e-01
6.312027973872737230e-02 -3.097709678265680305e-04 4.562198775590083355e-01
7.956621615439736506e-02 3.174194196185067124e-02 5.151176011081116668e-01
9.735059176895920208e-02 5.529900917507898916e-02 4.673957454173937043e-01
2.780141327943174909e-02 5.793540647636424845e-02 4.457746934982247389e-01
8.899107449633214539e-02 2.505602948972967398e-02 5.025008849686152246e-01
-6.546046135256013664e-03 1.031929404243622957e-04 4.382983495176203670e-01
8.018893536243482806e-03 2.344592549168050821e-02 4.415421374694072920e-01
2.663661904237569350e-02 5.013835858109562393e-02 4.442010026246919208e-01
5.039796489259444623e-02 -1.141597101894897479e-02 5.289014812344527972e-01
1.612780477095179625e-03 2.034248157221478157e-02 4.411194699544304654e-01
5.179489945408831397e-02 4.882240051841332806e-02 4.457533518152272389e-01
8.719348957958054924e-02 3.622235400744662492e-02 5.033357306679601129e-01
9.343907488593261590e-02 4.173842525872370479e-02 4.545220944870215773e-01
2.223816481543375301e-02 4.675424224524991207e-02 4.436976012824248028e-01
5.618359334263842153e-03 2.732702395909267917e-02 4.418403327338010222e-01
-2.585373051903542847e-03 4.447806812547683980e-02 4.443542110629910558e-01
6.418420846182136541e-02 -7.049112790506915742e-03 5.100801020122677221e-01
9.628036168637361947e-02 4.722891355702304311e-02 4.538418596295809571e-01
9.609221760076469554e-02 2.930760212591202590e-02 4.909386180151272816e-01
1.086356030359332536e-02 2.687921552091591948e-02 4.419000750563328861e-01
7.232301659644661818e-02 3.951366666077699152e-02 4.494946866419849973e-01
1.001170984230758121e-01 2.993562136241560007e-02 4.606569035197569661e-01
1.044248536479715495e-01 2.821459894143459046e-02 4.639326546980301336e-01
6.864509094305053238e-02 -9.568520098721076950e-03 4.709591659032972832e-01
-2.259324925683820970e-02 4.788964394905410177e-03 4.415139920219246505e-01
1.060871807312279563e-01 4.121120436058586106e-02 4.667742713485709127e-01
8.878937998753151650e-02 5.176509073315855441e-02 4.507039405233218554e-01
6.019689912568444018e-02 2.508176488320990050e-02 4.510055038806730643e-01
5.472378741838436478e-02 1.634017356909738677e-02 4.501075812861160541e-01
9.801551478237340020e-02 2.047172135756574959e-02 4.800647672903848862e-01
8.789413571552387450e-02 4.832941251269957939e-02 4.503337543019012013e-01
1.515650603474129159e-02 4.238681451745862638e-02 4.432231461733977529e-01
7.876774222395452330e-02 1.014924235489721160e-02 4.620346342688796959e-01
9.708722800686908627e-02 5.851327984692131223e-02 4.602523509713308814e-01
9.504243050156663264e-02 2.373201695051649698e-02 4.889526843443336435e-01
4.459698704716741346e-03 1.832227101626150018e-02 4.410315134681024873e-01
9.910565884030703154e-02 5.287138768428262248e-02 4.648552350334025363e-01
4.910400055886607329e-02 -9.490490008821872783e-03 5.289354459492664473e-01
