-8.319374200639141625e-03 2.589067073001259656e-02 4.430746319211190110e-01
-8.438196790744261974e-03 -1.874802830313347657e-03 4.377793326653582340e-01
7.751239101901580275e-02 3.267817040843268295e-02 4.549165786568288850e-01
4.811789077714218044e-02 3.066857358584898843e-02 4.472139459029772501e-01
-1.917053889785411830e-02 8.441708777385936030e-03 4.421667878870292334e-01
8.259099660875156290e-02 5.376208768790434467e-02 4.489936274382819725e-01
7.853427848050706372e-02 1.683422010818051359e-02 5.131213002014771707e-01
8.538340345627964956e-02 3.027971211977658825e-02 5.083386468564797811e-01
7.913659366845915422e-02 1.992906327984127202e-02 5.144561913967045097e-01
7.024155461744624462e-02 -3.860071384522273906e-03 4.984039912201857492e-01
-1.105186131227557829e-02 4.853041511432456406e-02 4.484146570949206212e-01
7.251451544040665720e-02 -6.575990214303563917e-03 4.767393846803731350e-01
2.220026760173929650e-02 5.940936002363361029e-02 4.474905696745969386e-01
4.138482047183465046e-02 3.695618261213041988e-04 4.453279171251766644e-01
8.033766171073138118e-02 1.137598166101421240e-02 5.053509343260073061e-01
7.076292482143246854e-02 -1.675409807694890020e-03 5.005737807371644088e-01
7.743754235634710270e-02 1.232522603972559423e-02 5.100196253356243936e-01
8.613285745970415686e-02 3.416362486432800855e-02 5.062035958620023646e-01
5.211049222526404484e-02 -1.037506826037178781e-02 4.529812400054312183e-01
8.749322122640401656e-02 1.887421822698049159e-02 4.631080663637066608e-01
8.617614122651717778e-02 3.183590115031159629e-02 4.589834913467383259e-01
7.676063602992866386e-02 7.576159146806727210e-03 4.623102950355704732e-01
5.651707500608112861e-02 1.842873595882484755e-02 4.504638207634191205e-01
2.931545502852618296e-03 5.103439386433418490e-02 4.448460897701576600e-01
8.247765556634771567e-02 4.561388903107737453e-02 4.491276604558663288e-01
6.885631887118462413e-02 3.354216078251657379e-02 4.508622454377906319e-01
-1.314938889488055998e-02 2.989312149790656487e-02 4.446061678535169204e-01
6.397602159288975909e-02 1.644993561229165027e-02 4.533429085321363794e-01
7.980828763813951898e-02 3.264539980897031898e-03 4.914957783794938750e-01
5.016158997503731426e-02 3.980817546820211023e-02 4.464929420924227399e-01
7.069145715871419378e-02 -1.025789995844037482e-02 4.896325480376934047e-01
4.026585824123021795e-02 1.925754676210094871e-02 4.459735918274269628e-01
1.029415454789519846e-01 3.831995771210507801e-02 4.582014246475096253e-01
7.529939336808261219e-02 1.537596798314409818e-04 4.691710621954967020e-01
8.273214662265548913e-02 1.841490725613709883e-02 4.610580372864384602e-01
9.681228452778052607e-02 5.652864422019725221e-02 4.647801597760742309e-01
1.089047403748476667e-01 3.272625075047757431e-02 4.754831422481098913e-01
7.006566546081972879e-02 -9.327838902801659574e-03 4.945488490620674749e-01
7.155693258905751475e-02 -6.978786193049691527e-03 4.910524754581708784e-01
1.016857643157486057e-01 4.877966659800182098e-02 4.657503264691938427e-01
3.464921956326490887e-02 -1.271020517035015372e-03 4.429071660734661964e-01
5.840240886049129915e-02 4.064993078046785779e-02 4.470895287265502782e-01
3.376454033199553784e-02 2.792075301148172484e-02 4.447190559517151254e-01
2.438624191707635530e-02 -3.059593234450666555e-03 4.397950333302608206e-01
7.507211937480001707e-02 2.689346791555202731e-02 4.546413917369910851e-01
5.308328497228231163e-02 -1.000037857052990704e-02 4.535175613772962078e-01
1.370197163513927827e-02 4.509213203906375922e-03 4.400034778295173199e-01
-2.173976620449785940e-03 5.002755828944628613e-02 4.449141788948661191e-01
5.368630545275877852e-02 6.279843480678133638e-02 4.522143397441510948e-01
9.442254834190175194e-02 5.269354261421577146e-02 4.546798897481110768e-01
7.917208654878822582e-02 4.991621276189367462e-02 4.480877324950076068e-01
1.059874237506764488e-01 2.519325223134637540e-02 4.696260667356481622e-01
2.120011371132693098e-02 6.090527791808633684e-02 4.504996872649855155e-01
8.367958192501838421e-02 1.182873110573613544e-02 5.001932490295839528e-01
5.028671357095716027e-02 -1.340227541142080536e-02 5.294768221465629976e-01
1.018988363952913201e-01 4.619987704280727192e-02 4.621285551472602560e-01
9.984316378353033650e-02 3.530760929618960431e-02 4.594091480249427040e-01
1.097138760070835717e-01 3.345705413702389219e-02 4.747440873107883208e-01
1.022054996908020597e-01 2.369254486729229989e-02 4.758448778473028939e-01
1.129598401920424988e-01 3.142983538097929991e-02 4.661985501650567909e-01
8.763916892164719252e-02 1.606718238238829741e-02 4.958309188661876310e-01
9.556788290411466491e-02 2.001313465438234879e-02 4.680396543697543654e-01
6.900301806443390196e-02 8.919104097244435342e-03 5.172045290606147594e-01
7.582125381566443001e-02 1.368781254255181309e-02 5.133951850357870716e-01
9.426193731852314239e-02 5.431080116031886812e-02 4.731381238869724615e-01
1.012099381222812400e-01 4.667834086430183715e-02 4.774290781276617768e-01
1.129028844316799229e-01 3.265023907746037596e-02 4.651208852404075667e-01
4.863000899192636284e-02 -8.705965058254192673e-03 5.287935871160255319e-01
-6.042151509201846432e-03 3.538735262331864449e-03 4.391583488365191079e-01
-1.669700612896814554e-04 4.185101737390816562e-02 4.435728444435861340e-01
9.387058618322062509e-02 3.745963992346847127e-02 4.579287747987655366e-01
-1.873404863257218528e-02 1.771933908536071217e-02 4.450107457031218794e-01
6.902476897034999503e-02 2.995054033165132565e-03 5.099420734122792620e-01
7.657664837173359940e-02 2.698967920785758437e-04 4.711164889774200337e-01
3.117215248973415412e-02 3.704155831912513130e-02 4.447054753500460089e-01
-2.543391161533469988e-02 1.516044727687201887e-02 4.476395698882112417e-01
1.029418325918181193e-01 4.523188067126438644e-02 4.729847323876546494e-01
1.093183756910750537e-01 2.835598293522793162e-02 4.739112191096357951e-01
7.927000495592170792e-02 1.411942824893029115e-03 4.798903553282719558e-01
9.293532447935619334e-02 5.583382405436500967e-02 4.556289800455352590e-01
-1.006325940911975258e-03 3.677698953854659225e-02 4.433061310408445421e-01
6.496904864036091853e-02 3.774918574521853032e-02 4.487646180357873216e-01
1.300111430904174990e-02 2.082053991409453172e-02 4.417061753842004834e-01
4.460304010653200202e-02 2.228695224612720766e-02 4.469886452758462525e-01
-1.985670771807866025e-02 2.631555867868471538e-02 4.468718579176925165e-01
6.954279233587304376e-02 3.320815131285430408e-04 5.056091779092267702e-01
9.237221738823836459e-02 1.922095300659073733e-02 4.881278917510396553e-01
5.650831850343814716e-02 3.565893494902780403e-02 4.478547228061121599e-01
4.471994087379572297e-02 -8.233905987244619085e-03 4.473448100020054330e-01
5.977094525123452518e-02 5.119242493301504049e-02 4.457656383321836890e-01
-5.764383114260793195e-03 1.540260885631555485e-02 4.407864975230065818e-01
5.601978621349939375e-02 5.240370192572282176e-02 4.455111970562721790e-01
1.075188674172994352e-01 3.968252574458207976e-02 4.731263848367163183e-01
-5.247676069124320580e-03 2.228452832485815910e-02 4.418489023635334134e-01
-1.205278652854063510e-03 3.805951374017221833e-02 4.434136335553730546e-01
8.828304751162469044e-02 1.419686595095708860e-02 4.906523963415424516e-01
4.936505741373446721e-02 3.750762884938041442e-02 4.467496673835880117e-01
1.942822256310407919e-02 3.901314357869142824e-02 4.434072171714165678e-01
4.651472779083131587e-02 6.170171163644519452e-02 4.468572752749607191e-01
9.996979475901987544e-02 2.805330684349137405e-02 4.832977918162136843e-01
2.865909323198971570e-02 9.952592979013789865e-03 4.430466315474874683e-01
3.168929867114810006e-02 9.160513016011551796e-03 4.435242779635356625e-01
1.064891132738293167e-01 3.599763694701474392e-02 4.775141046922371513e-01
5.060622635184935936e-02 4.457727888270660022e-02 4.461567896795105570e-01
7.767567006740991320e-02 5.861953155431035012e-02 4.509776215747686723e-01
6.412088110226797644e-02 5.493645301560350080e-02 4.463577118314377423e-01
-2.374645969226990561e-02 1.193052850071581183e-02 4.451704979502809079e-01
3.963928127587624389e-02 4.014161449738366111e-02 4.454696379765720193e-01
4.914859462511228516e-02 4.039693782563899549e-02 4.463734203347973217e-01
4.729915035186962879e-02 4.412958901300985046e-03 4.475350233172291636e-01
3.461837866112550677e-02 4.029045811203599281e-02 4.449640438871478310e-01
1.028451018175008114e-01 2.982062126549882633e-02 4.621176481234265943e-01
8.748503395309746578e-02 3.917726047053599059e-02 4.555813274416106173e-01
8.440604772236696973e-02 1.453587653107990887e-02 4.636412293612128810e-01
1.938390501147220502e-02 1.297408261630589917e-03 4.399466088765950356e-01
8.791886090482771421e-02 2.639621648763389172e-02 4.595526360228591178e-01
7.739737308483581046e-02 1.708902135040639425e-02 4.589864412778262848e-01
4.242573938964781799e-02 4.289341422632481776e-02 4.454933136749618106e-01
1.004304359697060361e-01 4.555134443233389840e-02 4.579434820711770771e-01
1.065864518624833196e-01 2.690031149222676943e-02 4.754594794235383892e-01
7.713782980971632675e-02 5.231756584724881615e-02 4.479100177990262277e-01
3.628622450813760031e-02 3.962689001537476191e-02 4.451717671510690977e-01
3.886677194160868820e-02 5.996501865638535766e-02 4.455880970121353646e-01
6.285705447784462052e-02 5.512341636162613329e-02 4.462954549206874511e-01
1.018731324414871853e-01 4.121962485400928328e-02 4.578697003699119805e-01
8.834670648702794282e-02 3.147417363451648908e-02 4.598666937307976377e-01
8.052996571137908954e-02 2.747029887068002611e-03 4.758598342145733961e-01
9.873919410324560886e-02 3.280500237470974911e-02 4.605446858702400559e-01
7.226505645005248946e-02 4.886882340118906508e-03 5.075347603479393177e-01
3.906809320303065991e-02 4.242442796024707870e-04 4.446229157350393146e-01
3.678543346479125342e-02 4.446033974246711706e-02 4.448311548725791820e-01
6.295677617246227264e-02 1.974043316927033900e-02 4.524478159197484195e-01
-1.156407571427096881e-02 2.301691394578291028e-02 4.431769476596225665e-01
-1.012320679628092232e-02 2.728302616904781930e-02 4.436873366003685759e-01
-2.144466165867328286e-02 5.825991574383179890e-03 4.416574354463179697e-01
2.655677182090403904e-02 4.676553252074120565e-02 4.439900635903122894e-01
9.250393463761207025e-02 5.164473954619645812e-02 4.852779357212322897e-01
8.739071788627211790e-02 4.688951036347741019e-02 4.947314386668645869e-01
3.624462155346520886e-02 3.236360980605599430e-02 4.452573003620716730e-01
9.178588271328336212e-02 2.104450459678064780e-02 4.911530222723754502e-01
2.368687302200721267e-02 1.530379402730524564e-02 4.426289386115355162e-01
8.624264387391819553e-02 4.317706646354869254e-02 4.513537087882592558e-01
8.159786025030195400e-02 3.845737401263834773e-03 4.754294592548451992e-01
7.709290583238007089e-02 -1.474961346657922422e-04 4.740815146995520091e-01
1.000471269242857453e-01 2.695478955337755195e-02 4.827444143542875543e-01
9.949997056516438065e-02 4.424871074277919591e-02 4.834501557107137582e-01
-1.451647061558505522e-02 5.142833384967548591e-04 4.389866782698793046e-01
9.464395008743098359e-02 4.136706318356328516e-02 4.550035633717319228e-01
5.916109871786837116e-02 4.346250491315335925e-03 4.528492449191779956e-01
9.929088521418784341e-02 4.070748754008043924e-02 4.847294285252081725e-01
1.078300242960009980e-01 4.002360790569538251e-02 4.707219235116092415e-01
3.410607396571285754e-02 2.418991841448829908e-02 4.447724081554509934e-01
8.975039104452108008e-02 1.138405257125941691e-02 4.767662908661905452e-01
3.939236065863069985e-02 -5.186671395242743385e-03 4.445060568417875113e-01
-2.772826046126940745e-03 4.436325731166428782e-02 4.443378332709478906e-01
-2.514224893577413425e-02 6.359787912996218116e-03 4.428859655814264551e-01
1.085798873519642181e-02 1.014871943662519482e-02 4.408815036642907970e-01
6.614196652101952956e-02 -4.434132199873002181e-04 4.585460691336586403e-01
5.930446743264303905e-02 5.247305256675263707e-02 4.456023471133951919e-01
4.697397531587887282e-02 4.239533635904416120e-02 4.460017128200742254e-01
1.020002884707298385e-01 4.870134696068420532e-02 4.673001672921135996e-01
8.052667857297157727e-02 3.436069100425643424e-02 4.559535105316148695e-01
5.776059620871043521e-02 3.745805638789485165e-02 4.475565962758000782e-01
-1.530826464838907358e-02 1.629285237156346405e-02 4.432041749970808131e-01
1.002229297266423319e-01 5.047396152770647348e-02 4.718059591330771019e-01
5.490198101022145116e-02 1.043058004461385781e-02 4.506726585411373054e-01
1.970867562795615771e-02 3.947681076362347802e-02 4.434505899437461984e-01
1.066106996957068426e-01 4.071206917062800829e-02 4.678302252225579050e-01
6.364450555140105381e-02 5.897774315088885611e-02 4.509667561018568804e-01
1.647785602340896133e-02 -2.056219239145893381e-03 4.388194776132347541e-01
-3.311005035573558967e-03 3.392280876195973016e-02 4.434172423370763005e-01
8.243446072764921972e-02 1.070720488482459348e-02 5.011015792107260669e-01
9.624901212861841637e-02 1.976538938878198010e-02 4.802129968088554302e-01
8.463021461904875198e-02 1.241683386694242275e-02 4.989817349803295499e-01
1.390702759269513145e-02 4.225402795031721337e-02 4.431644034475645810e-01
6.202134009774663836e-02 6.027101843705066735e-03 5.224597124650407487e-01
9.867723303124112388e-02 5.446703071010160213e-02 4.608829559725226011e-01
2.648030360306410230e-02 5.677213657096139010e-02 4.455711923004697095e-01
3.015285030486546461e-02 4.045075365119751853e-02 4.445676275410314626e-01
1.025139609953800574e-01 4.604125026260651177e-02 4.730051597256759721e-01
7.746704407466420417e-02 -1.566023607861080635e-04 4.879293353333581940e-01
9.871716810208100434e-02 4.765887688703811936e-02 4.555405811129428773e-01
2.250232579526381324e-02 5.378370315619865338e-02 4.450219369044506879e-01
-2.715143721279172917e-02 1.058734877446624104e-02 4.469156642554868442e-01
7.517350613241868817e-02 5.947282384796622606e-02 4.518977567765696812e-01
6.087390317710114629e-02 5.931187693927056359e-02 4.505335347520451061e-01
3.247745232455499093e-02 1.679664522161330303e-02 4.441660392465273111e-01
6.314975799064304063e-02 1.768925232968820635e-03 4.556977851639519850e-01
9.794551924091508821e-02 4.774950824529987370e-02 4.550643684851505277e-01
-1.059630904298905149e-02 8.201076226890280721e-03 4.401846961682124304e-01
6.302785717844355817e-02 3.387524047178468861e-02 4.494583772061807037e-01
7.115910684290288613e-02 7.351949942536505425e-03 5.121752409017662488e-01
7.367686350279491203e-02 -3.540076227374996075e-03 4.911119180055248390e-01
9.189962311162290509e-02 4.173186829030144790e-02 4.543688068871805097e-01
5.016217677137885245e-02 5.687654991044457237e-02 4.452484909858270279e-01
4.196875971256172622e-02 2.479048548332792729e-02 4.463508337395199477e-01
1.064943464629758557e-01 3.805092211195267027e-02 4.586701922445405311e-01
9.214761796112826142e-02 5.715277895893332294e-02 4.557397531870124863e-01
7.634755842282620053e-02 3.202772039886028765e-02 4.545159503579328519e-01
9.093925933527864658e-02 5.616005101788788811e-02 4.729634203192948916e-01
1.015248190304766512e-01 2.309144347980632284e-02 4.748164930912446846e-01
7.250971772645595226e-02 -1.630387136978826788e-03 4.968677130317794011e-01
-2.120881731931048564e-02 2.424961398407256968e-02 4.472391216488278420e-01
9.219096287661719680e-02 1.438163403472042350e-02 4.768556540652174047e-01
7.172410484662722352e-02 1.526126148747122954e-03 4.624847424178660238e-01
5.867776134694285828e-02 1.541524175343478992e-02 4.516875319357542828e-01
1.109488887255822287e-01 3.558203173322806862e-02 4.622978972321763469e-01
9.230038212826405242e-02 4.244679191840267790e-02 4.930566895013339668e-01
9.006322559943005790e-02 1.168928547978051978e-02 4.760175885054442335e-01
5.665476482850415746e-02 2.183173056638775325e-02 4.502723909127054891e-01
5.414217601645709282e-02 4.044963776030244956e-02 4.467654423666450048e-01
3.172164893057255464e-02 6.229529762933394554e-03 4.431372821382807969e-01
8.001439702118799679e-02 2.006301004232275385e-03 4.860493207937480187e-01
7.478151401567811885e-02 -4.279989119969592089e-03 4.830257984451530318e-01
8.235647265951007157e-02 3.903317678710877675e-02 5.049122128361163142e-01
4.714177495644428229e-02 2.311448689504406323e-02 4.475798840820492397e-01
8.648202960674003514e-02 3.606115388389857790e-02 4.576567577825059185e-01
9.024410139367119998e-02 5.492894992204656879e-02 4.772561108989815115e-01
8.533476091286690268e-02 1.334045692336903802e-02 4.986394560892039030e-01
-1.831613453798629568e-02 7.392621451314974369e-03 4.415047222595132048e-01
3.955324909009095419e-02 3.113484258295398655e-02 4.456873939626349590e-01
1.015536583206793353e-01 2.505032875736457401e-02 4.792513227995743863e-01
9.641133012149642745e-02 2.191901365877320373e-02 4.664170221604663213e-01
6.825254858540438785e-02 -2.403738299563201383e-04 4.602968930693756011e-01
-8.747769576861933946e-03 3.585762489492393124e-02 4.447541045184240649e-01
6.158647000126579729e-02 5.081145666572306485e-02 4.458940306875663340e-01
5.799344136180512033e-02 2.837124990914375450e-02 4.499074388144287395e-01
1.130825819965826096e-01 3.429957405789248182e-02 4.696474361603501513e-01
-5.549889866536153286e-03 2.705658965549428280e-02 4.428358204335060000e-01
1.020623122025440810e-01 4.564922208641142981e-02 4.768691514225901762e-01
6.110748963012439111e-02 3.673359112340390115e-02 4.483672244610447666e-01
4.410438076955902620e-02 1.247458250395505619e-02 4.467243686547448522e-01
6.900716835385334313e-02 -3.947339960954458597e-03 4.651022517917833832e-01
7.320184781790901873e-02 -2.976138064785515194e-03 4.935873696564329061e-01
2.722247789294180050e-03 2.836192613008069185e-02 4.421205143645555724e-01
9.437008515040200274e-02 2.438032309720462865e-02 4.630144693221716623e-01
7.259909275422046782e-02 1.746930928842686803e-02 5.198445521176738859e-01
-1.336589302618345840e-02 2.604129859616836559e-02 4.440960811591789792e-01
5.875432293930872574e-02 1.012761202867728735e-02 4.522238896493020466e-01
3.431673225959684659e-02 3.478739187618386242e-02 4.450642235152009740e-01
3.558713396383514360e-02 1.351042737860345261e-02 4.446506589133827347e-01
5.181814570959045185e-02 6.234547845042993919e-02 4.494083730902240226e-01
4.980441090961085226e-02 1.494914194207253889e-02 4.485466097193639978e-01
3.026159175567257401e-02 2.033149946546941242e-02 4.439998745290573701e-01
9.434470459160784750e-02 4.997339196972266223e-02 4.863667450130390590e-01
3.134743793374657195e-02 1.417016754848257273e-02 4.437808805981228732e-01
3.050634064201276571e-02 4.072403840768969163e-02 4.445782175834870342e-01
6.129369395908218499e-02 3.823111139874286329e-02 4.479655537705844459e-01
5.297413096578534875e-02 1.002968429000363967e-02 4.499359609810483773e-01
9.161904802869332010e-02 2.926065512553531825e-02 4.978480598997771511e-01
8.796928808464789251e-02 3.533882975790541420e-02 5.027349702878266546e-01
1.334302418940911013e-02 5.363627625445234470e-02 4.452935584209984921e-01
1.021037857853607234e-01 4.810949151868348928e-02 4.666357036899833055e-01
-9.185079575809544650e-03 3.127925047814116011e-02 4.441002782076174937e-01
1.597586483639328037e-02 1.249960839128882312e-02 4.415658538540010447e-01
1.100685967626194306e-01 3.746653429247197298e-02 4.670317610637433892e-01
2.286368437361529019e-02 -2.368881274596900321e-04 4.400953012766693484e-01
1.129518351604864995e-01 3.133744483645964363e-02 4.665914803560126112e-01
1.132197549718307467e-01 3.340431908107002745e-02 4.698516978787840026e-01
3.827767802299528177e-02 6.482684332759017232e-02 4.483965486277855517e-01
-3.950530611317032426e-02 1.183843561918432753e-03 4.414627316828115822e-01
7.502192634009317851e-02 5.097024130766623223e-02 4.474997335727540770e-01
8.111327770738083198e-02 1.031568433947679768e-02 4.644761792167504399e-01
8.562085847787753723e-02 3.140787517204021717e-02 4.587421946602593947e-01
2.104665031718827573e-02 7.855540336189559963e-03 4.416441216179126661e-01
-6.507037270569706634e-03 2.628459622686561692e-03 4.389248978373289645e-01
2.013174531478479669e-03 4.990900178360697242e-03 4.395448085589480081e-01
1.080928197508192884e-01 3.653773900033054078e-02 4.754854562072473589e-01
7.798590790920752192e-02 3.801704143274722836e-02 5.084870823264185935e-01
1.027767822098826084e-01 4.604005921359845266e-02 4.713095954406391619e-01
2.025555150770251556e-02 4.415927881437638203e-02 4.435515321341544359e-01
6.947962442526625648e-02 8.608829664470780615e-03 4.576613992767547545e-01
7.021695355945363481e-02 2.415641530707283297e-02 4.537542954030154840e-01
9.576378244555970587e-02 1.914937732898811668e-02 4.797087094677019437e-01
2.151295292298303907e-02 1.875970434654377142e-02 4.426624100008296758e-01
8.815388287139030998e-02 3.636486044507297732e-02 4.576599752801821519e-01
7.371684486971169514e-02 1.106770121402903331e-02 4.591144318976143057e-01
6.815271085176836940e-02 -4.924163676211037750e-04 5.069959347384003223e-01
-5.056229375658131964e-03 3.165255426681735235e-02 4.434114386415531350e-01
8.650124699971921405e-02 5.618347881948531491e-02 4.780968242525316936e-01
2.770437249736634050e-02 9.236414631799753222e-03 4.428350332538807388e-01
7.875846223250199118e-02 9.284351047269827524e-04 4.765468312033345200e-01
8.767114021149829961e-02 2.448221663082470953e-02 5.039340693982570230e-01
4.717226392206847613e-02 6.348838083117955278e-02 4.489863188052513054e-01
7.572619859242039897e-02 4.508728574359720416e-03 5.018292891806214184e-01
1.014687442855657651e-01 4.712767696037499510e-02 4.616018683134247569e-01
6.963484195858059278e-02 -1.361932014597411113e-03 4.630186485223417026e-01
7.071786492941158075e-02 -8.650842211115521499e-03 4.932809401301854746e-01
4.387262332143941623e-02 2.886456401388455377e-03 4.462170906948559890e-01
6.140681546698801424e-02 1.127345354352432202e-02 4.533179861646705056e-01
8.640344258690291213e-02 4.866717849377625443e-02 4.931054518761022187e-01
7.488341847269723572e-02 -2.474423356314859029e-03 4.730541974363225988e-01
2.034924096879299482e-02 1.121732629413571894e-02 4.419265675414675854e-01
9.502974357176328934e-02 5.511702855513532506e-02 4.710742680886961797e-01
2.516022690291289457e-02 2.142903119473700546e-02 4.432201190931804868e-01
2.506736516205557846e-02 3.107544694018911022e-02 4.436145243433079477e-01
2.830541630732859304e-02 -2.522316019462330326e-03 4.406000329058284426e-01
7.844381919189913344e-02 2.830351315274953761e-02 4.557034083786234424e-01
2.693630222349736522e-02 5.184562455828680555e-02 4.445188693495041310e-01
4.175597253071423876e-02 4.252811141383530669e-02 4.454622664622630013e-01
7.023981127536355062e-02 -1.613982621547527772e-03 5.016465153198180760e-01
5.342889629658815337e-02 3.487503003355134357e-02 4.475831943030903481e-01
4.959754999866166497e-02 3.215677315697132443e-02 4.473295680464965951e-01
7.539803243759113371e-02 2.226591165789244819e-02 4.558350322338705074e-01
5.337185016354943634e-02 3.870520001828357814e-02 4.469022770116362064e-01
8.674292352714416121e-02 5.749069313072295573e-02 4.547503325676811037e-01
7.248786890067575317e-02 1.772261920716426079e-03 5.022210644491483800e-01
5.500961021684139945e-02 -8.294902646906538585e-03 5.238992325535151151e-01
-2.104469922362761994e-04 4.976768894196607895e-02 4.445471183912573787e-01
9.840876004910306674e-02 2.137023339312150647e-02 4.680609528601875624e-01
4.453285095543382116e-02 -1.812727956343597284e-03 4.468190397771864553e-01
4.748451563126603048e-02 3.903849035463640565e-02 4.463322473206232655e-01
9.376817374904626579e-02 2.063853546915945039e-02 4.664165323257859486e-01
3.529298007690079980e-02 3.767859923221674595e-02 4.452272597794806330e-01
8.360138621253847269e-02 5.648622063524728724e-03 4.847468869999210228e-01
8.206497803351930909e-02 1.501880995284028859e-02 5.068850276131899868e-01
2.185773033246142180e-02 1.652082339990928669e-02 4.425144779716373988e-01
8.560535398683118136e-02 2.549886376348284300e-02 5.075748129015644761e-01
6.955168618478346776e-02 6.612908549328794933e-03 4.584493172934883676e-01
1.572271127641005142e-02 3.900743447145420262e-02 4.429861895755090595e-01
8.253590156093336405e-02 3.494029312891392541e-02 4.568117979058112788e-01
4.933025792012448590e-02 -3.724677219128429834e-03 4.492545283368328812e-01
7.024993226673716118e-02 1.347943497846916180e-02 5.192898458554660035e-01
5.843698015178778321e-02 1.678019691224906518e-02 4.512917983995923810e-01
9.387010346089595669e-02 1.732165029267694265e-02 4.739116961786931648e-01
1.105589449970344335e-01 3.341100394944290786e-02 4.634306673915316588e-01
9.393671264517330921e-02 3.766318222625517770e-02 4.924987926482177758e-01
-2.071507064159870681e-02 1.460737172317561755e-02 4.452429073260651959e-01
9.174051305653153909e-02 5.599645409522958917e-02 4.725239198078649006e-01
1.050946953661874572e-01 3.637052184411055517e-02 4.594231520761372090e-01
1.098977468130951929e-01 3.758915395064207216e-02 4.669234103781226275e-01
-1.491534794377045656e-02 5.643617626080663953e-03 4.402217504195204412e-01
1.036365582634335425e-01 4.091874245572461877e-02 4.606916934598763724e-01
6.681718897194037499e-02 5.685670951185638894e-02 4.480853217027803148e-01
5.712655068741082781e-02 -5.881323262527556918e-03 5.211494411582811015e-01
9.500156762288944345e-02 2.354056396409207400e-02 4.639190609094706041e-01
6.708103845269521026e-02 -1.098181367842128615e-02 4.705168753393578207e-01
3.248140963733636005e-02 -2.017710184552454732e-04 4.421658945428686427e-01
1.624476029217623158e-02 1.655120239373212166e-03 4.395500749621795711e-01
6.407961722263864901e-02 3.553327266783030264e-02 4.492104961002473251e-01
-1.780032329368334831e-02 3.311517992156157164e-02 4.474063536248675810e-01
6.271221683739428010e-02 5.209861966034720843e-04 5.168665546601054483e-01
7.587892120463531065e-02 2.669931877938475778e-02 5.207303891434573728e-01
8.127460115007772989e-02 7.406521183005471132e-03 4.979564847103141734e-01
5.549649599318905169e-02 5.537419943385369497e-02 4.452854645854774640e-01
9.033229783473843699e-02 2.510322873520166864e-02 4.975714129212565617e-01
1.947756278802048602e-02 5.630777636134674108e-02 4.459629799618988755e-01
7.163333655552819867e-02 3.302627441248275064e-02 5.210005104791676223e-01
1.241706314654490717e-02 5.671744243733627122e-02 4.467142370972805310e-01
-5.815613777542407922e-03 1.276186806915022114e-03 4.385717496820374928e-01
8.439958500180166912e-02 1.241722134120422545e-02 4.995520140104173223e-01
7.880668559449996446e-02 1.279513237096279940e-02 5.089197375779275223e-01
-2.318125662254407957e-02 2.245723136705393350e-03 4.404728597297267734e-01
2.508839955797213112e-02 3.609792702212524795e-02 4.438616243956922669e-01
6.668475376761925574e-03 6.159079966678574457e-03 4.399412341995756481e-01
3.724994629181310052e-02 3.878375829465931582e-04 4.439696863154665163e-01
7.246729667203770375e-02 -1.905699119264560315e-03 4.965109581565634311e-01
1.054636217969295159e-01 3.217886105163101501e-02 4.781432460238022597e-01
6.897678364204543056e-02 1.650523559609301874e-02 5.228774370077413636e-01
4.185915260471188143e-03 4.607788419528884710e-02 4.435747635504199149e-01
5.446019282755301671e-02 -6.181127563628925452e-03 5.236643314321925979e-01
-1.275112890227250717e-02 1.841218592682709182e-02 4.425824379308120338e-01
7.653228473891160455e-02 2.430696969629486670e-02 4.556731354534883649e-01
5.911255006951739166e-02 -1.284171363390084961e-02 4.608260782849518122e-01
6.887660175181849198e-02 -9.648697081423893152e-03 4.976112915949406634e-01
-9.674250530409224044e-03 3.264141441067341942e-02 4.443164078256371941e-01
8.443819463680501958e-02 4.142128678608789083e-02 4.525609406915710453e-01
5.406360817986329004e-02 2.881506137938122381e-02 4.488508335305214647e-01
1.322843364287025827e-02 5.210369929121942689e-02 4.446385057927548790e-01
8.781679943400104438e-02 5.596198532689915239e-02 4.772249845049046368e-01
6.686314182012460805e-02 3.818309250220551510e-02 4.489782030492274756e-01
6.344705662548590086e-02 -7.049017398047365338e-03 5.109206896767176653e-01
1.089527149599640587e-01 3.611476097361847326e-02 4.746053459749992598e-01
4.063760456950889222e-02 -5.709345118813800163e-03 4.452142043525177950e-01
8.516841102425472265e-02 4.893386489100393089e-02 4.495398147457754789e-01
8.350583931128958970e-02 7.070879234285664186e-03 4.906002227996845155e-01
-3.055293777606709650e-03 2.575140405879694158e-02 4.421946761554633176e-01
7.095864219103791004e-02 2.111095404907284423e-02 4.546155523474392779e-01
7.388364906129069043e-03 1.559521232988848871e-02 4.409031126631983710e-01
8.679849723626394120e-02 2.027603053974498873e-02 5.033106306908746719e-01
8.085064657763733897e-02 5.840986756710396521e-02 4.544640587203475635e-01
5.175357656154334213e-02 5.877685084811655469e-02 4.461022085802785475e-01
8.087199473960456075e-02 1.048845340843937782e-02 4.640562555846998172e-01
1.202165821675589379e-02 3.468553327283621646e-02 4.424942473465223181e-01
1.103528689100894133e-01 3.777683667741275203e-02 4.713499047975797662e-01
7.684165167604031788e-02 5.511001333766860771e-02 4.479349402884921227e-01
8.809706546610174271e-02 1.697058687958023782e-02 4.956574360237231969e-01
8.501333652231027327e-02 6.859748288215886634e-03 4.764439152856567716e-01
-2.918863355832459344e-02 6.781542259883505119e-03 4.446669863185508387e-01
-6.480208857053539571e-03 1.909029286887715254e-02 4.414629157195283371e-01
1.739495208020395978e-02 3.079343517694838744e-02 4.426122214363519269e-01
4.511345558737376443e-02 4.336655009266934119e-02 4.457184044425403502e-01
4.830888349155412764e-02 5.411277926868823590e-04 4.483097642839031782e-01
-9.108390089343059923e-03 1.842207223680305400e-04 4.383131505242139903e-01
-3.073581731660590330e-03 2.932180713153715104e-02 4.428581621803606705e-01
3.952201298438366706e-02 1.355129806474310999e-02 4.455977500457852791e-01
9.518047150738048745e-02 1.866795185503193275e-02 4.800971813151276857e-01
7.090169217402901569e-02 -9.897285343727434126e-03 4.809557892014961200e-01
2.883155649182524149e-02 2.566659840769372133e-02 4.438496623802632435e-01
5.056175613699120247e-02 6.268228061280053942e-02 4.493376128698168270e-01
7.787672120006641774e-02 4.876617577351678029e-02 4.477976412928124095e-01
7.627376422838681724e-02 -2.151813561542809897e-03 4.865803896699628095e-01
7.012915995362066501e-02 3.607833472671867492e-02 5.144172793373650299e-01
5.245141743623679687e-02 -1.337365980331175867e-02 5.275390532050473480e-01
9.781683313491176812e-02 5.404517499629509641e-02 4.689940914709641584e-01
8.387194798630265291e-02 6.260807502754034762e-03 4.865881455503988651e-01
1.110079615630446687e-01 3.006314788999665810e-02 4.667710927726998471e-01
9.100545923756059308e-02 5.577442500183014962e-02 4.544826584414571879e-01
8.479857248284601579e-02 3.844388412522563303e-02 5.039157070540506433e-01
8.530165044515414241e-02 1.792223152784839374e-02 5.039940988269054900e-01
8.131323179913330090e-02 3.881602131953158091e-02 4.535333141747727170e-01
3.798319697947294404e-02 4.505822523013788133e-02 4.448762855365789304e-01
7.715687360079900858e-02 1.089239889770937664e-02 5.088631332339687008e-01
1.090918297848525315e-01 3.818188458542535330e-02 4.664819407741782609e-01
9.618781938432761913e-02 3.806293533279924562e-02 4.578160885844472783e-01
6.547648991379217964e-02 2.892745065702322788e-02 4.515772795519195082e-01
1.121527118890140035e-01 3.573278919439944190e-02 4.671964197528708507e-01
7.040398903847215617e-02 1.511741780274867067e-02 4.562706320784277736e-01
8.511768909183407839e-02 1.529523935970145479e-02 5.017357483931425000e-01
7.662077683122595073e-02 -1.968043768824344949e-03 4.833039371631874248e-01
-7.725851533236110374e-03 2.294441578732973885e-02 4.424160744392187650e-01
6.838981109239918380e-03 4.946067306710618013e-03 4.397311420803565740e-01
6.569361490094752232e-02 5.344591031033316814e-02 4.461045925525018441e-01
7.334152594974675810e-02 1.720681692890203146e-02 4.570062090332866478e-01
2.612369613264930307e-02 5.094309550722071062e-02 4.443298705672075188e-01
-1.535221728079735198e-02 3.686430136683473135e-02 4.471571721306879521e-01
7.903982318856073164e-02 5.902886485089282875e-02 4.572603721560458689e-01
5.835986270476500870e-02 3.774251991797939604e-02 4.475814126828588368e-01
3.786631904382441183e-02 7.087177883984185391e-03 4.444391779286548938e-01
6.373913089346860961e-02 1.791351969270914279e-02 4.529499247787501237e-01
9.990386560132510918e-02 3.055797649657857398e-02 4.843463326298511618e-01
7.770709110147548671e-02 5.905259159401893970e-02 4.565167423295527493e-01
3.061957027929843728e-02 -6.746411141816300791e-03 4.406396579066199637e-01
3.100898848766731747e-04 1.326010642349186031e-02 4.403145802096952166e-01
9.424283239464392725e-02 2.263265179508499453e-02 4.883136877487661565e-01
6.846220131838605394e-02 5.959502155223374981e-02 4.518536342527428862e-01
1.019453215395386692e-01 3.937489863921445760e-02 4.816320692080497956e-01
9.135070382172617853e-02 3.766025854003258316e-02 4.967991445868534250e-01
1.009292169462173705e-01 5.020887193398982512e-02 4.665770374698166023e-01
3.159877713925672571e-02 2.711967090210844894e-02 4.443384895054415251e-01
8.255173400784103499e-02 2.193773621377731811e-02 4.596793180027423653e-01
4.905073705717824528e-02 -1.319490255623646975e-02 5.305508719517937344e-01
8.779629474182404358e-02 2.632476418113957953e-02 5.039867680594516397e-01
8.742976943053694383e-02 2.849261415121734711e-02 5.049216608951355711e-01
8.638367419700210270e-02 8.497874969402442746e-03 4.832879394336599410e-01
9.274499927045826153e-02 4.191435887463156040e-02 4.928160678169197784e-01
9.563509412764174822e-02 5.158350458266285077e-02 4.807719458476196195e-01
6.949690735006902598e-02 5.751238500434030509e-02 4.495703009139356277e-01
7.077485703638906889e-02 5.831634786261002956e-02 4.504183576215601281e-01
6.290187979153570585e-02 7.503756666197834192e-04 5.168045566902543797e-01
7.337763860049750786e-02 -3.664961874245079541e-03 4.916020495865962570e-01
2.692424310538460777e-02 8.114212325488836391e-03 4.426061886803153156e-01
6.717827533912056059e-02 -4.811824802118146345e-03 4.636328003085439797e-01
1.060053759376167054e-01 2.891055498440490978e-02 4.642213962514437076e-01
-1.059433869488723284e-02 1.567309344807904514e-02 4.414214524422594432e-01
8.988381733960038034e-02 5.271796499088571980e-02 4.857426923286330411e-01
6.488860446941414895e-02 4.018860738403018384e-02 4.480656520519210040e-01
4.154790594918510854e-02 1.869401842191870805e-02 4.462770558202800442e-01
1.014739833923645890e-01 4.564333218975731576e-02 4.784884871531380202e-01
8.815300905966251543e-02 1.962013615685552492e-02 4.994650563034654378e-01
6.079189327800185727e-02 1.463099907750687635e-02 4.526341507162924271e-01
2.532256398263928177e-02 2.990392035536002316e-02 4.435522044311630552e-01
2.611443391406515976e-02 3.582864750183897135e-02 4.439840189437889162e-01
9.704316374865187833e-02 5.709486722005050613e-02 4.638851157119177615e-01
5.874811881306984951e-02 5.905347406728185533e-02 4.484263830670987550e-01
-8.960039536917679959e-03 1.289578418908514032e-02 4.407003981444292950e-01
9.160314543985195734e-02 5.010165477625230790e-02 4.884449397337244370e-01
8.579935803464629196e-02 2.404225145911293229e-02 4.597755567527840315e-01
3.616532548685701121e-02 3.459297671453040457e-02 4.452864146499466158e-01
3.581303442012703092e-02 3.404459602918766259e-02 4.452386194550855825e-01
1.885679536524623168e-02 4.694687595472299413e-02 4.436299196756912644e-01
3.133837325601675217e-02 1.284045683555347893e-02 4.437319183869205541e-01
6.770749800703632082e-02 1.418721199158709534e-02 5.225530775631801461e-01
8.507740093149505911e-02 7.784256590683181869e-03 4.719572630507808952e-01
5.279681240328799874e-02 5.160396108756586803e-02 4.454167097322500601e-01
-1.186155742767058124e-02 1.756267861403443611e-02 4.420869492073008500e-01
7.243151893708713041e-02 2.677706108930420076e-02 5.239580688111662443e-01
-8.121961202657112903e-04 5.354610846433709853e-02 4.467462418405683811e-01
9.516028067875410834e-02 2.080260505987803141e-02 4.844234436998178794e-01
5.179817439754323682e-02 6.265834245118179213e-02 4.501484771749327263e-01
6.062390561925796312e-02 5.839413962527322671e-02 4.485322603181635670e-01
9.322851594759697103e-02 1.928724687868649604e-02 4.675976468966806521e-01
6.210312036519580192e-02 3.730954388047273695e-02 4.483784322647434428e-01
-3.167677728558900008e-02 2.316936543486790203e-04 4.413660337571504444e-01
8.199447121324487942e-02 4.027466965331062861e-03 4.860573843813386641e-01
4.780095933738563729e-02 -9.407553941965934863e-03 5.299095174714273382e-01
6.322130702494109522e-02 1.468741554955943322e-02 4.534667674868739784e-01
7.389266588781058520e-02 -3.120106332711218913e-03 4.915635837433388056e-01
2.331970676867859554e-02 1.541305884160454852e-02 4.425953970534641235e-01
2.113602223332169180e-03 3.909437846305766073e-02 4.431637707446315355e-01
7.994525532375947041e-02 7.932143168524044552e-03 4.657905050073037345e-01
-4.840508441257027755e-03 3.119576660099796298e-02 4.433334246113491695e-01
7.398325691339072141e-02 5.281841076807573115e-02 4.474667267846419438e-01
6.233824354786057786e-02 -6.947776843690234121e-03 4.594380444338224678e-01
9.102421473009560116e-02 1.763403969577380728e-02 4.674406061202600049e-01
-1.183917591797508870e-02 3.059535518651930117e-02 4.444961207138556913e-01
6.237759143951528834e-02 -7.759646562359939033e-04 5.158646198002362349e-01
2.692926857376445535e-02 3.681122991951490953e-02 4.441368552125726232e-01
6.896343103013158338e-02 1.204138897255139021e-02 4.565426754654673958e-01
9.103241521411065129e-02 2.702762719999263902e-02 4.602058201629351530e-01
