2.856745819697021835e-02 3.602956175697853702e-02 4.444471532624226229e-01
7.489467838086166784e-02 2.633740291263972702e-02 5.214473948516086255e-01
9.939214113150482421e-02 2.213109558725440823e-02 4.775271885509056458e-01
5.850801837664371813e-02 9.780172661376033971e-03 4.522508434576725800e-01
-9.317887606520490473e-03 3.114174341657988815e-02 4.441425732644784796e-01
-2.055903622320655669e-02 2.720851170566015130e-03 4.401944105623049608e-01
8.495277550946657430e-02 3.155315658223914466e-02 5.082004955159464821e-01
7.768731752795843271e-02 3.926235671092005025e-02 5.069964283038336239e-01
9.670923390240121487e-02 2.088003361741416070e-02 4.809710056085618191e-01
3.712048785187127553e-02 -6.450425884003038388e-03 4.432099446202299453e-01
6.947489774231030424e-02 -7.384396898341722727e-03 4.701845583437710419e-01
8.455909796139288170e-02 1.138174605639284860e-02 4.963525106885649518e-01
6.188106586266715892e-02 1.770204258568833233e-02 4.524662101528411084e-01
1.141055017505864314e-02 1.426466944413218828e-02 4.413031181756185140e-01
7.318550466100330609e-02 3.514239684116578222e-02 5.154315372729426636e-01
4.009798679531138832e-02 4.098015777668213844e-02 4.455756276511820824e-01
-5.395550757318322461e-03 3.649391792535729151e-02 4.440179137991370761e-01
7.617175751759078239e-02 5.909665654893391656e-02 4.509923047539211027e-01
8.983517455315852274e-02 3.654552666867561667e-02 4.992029680050210083e-01
8.796933585662798649e-02 5.510924568862834300e-02 4.797076475607164325e-01
-1.593881607184095828e-02 3.667329955005529246e-02 4.473798454393233537e-01
8.639604792792478227e-02 1.343097120750204147e-02 4.950181128541118469e-01
-5.321343755247081100e-03 4.573377109417716552e-02 4.451406328138451940e-01
-9.665012295973305495e-03 1.699543301076979901e-02 4.415458917463317978e-01
6.395576465740551719e-02 -7.539142229938291043e-03 4.622036293267930418e-01
9.290212983625370513e-02 5.859504961275631418e-02 4.568619742488548296e-01
7.827863180141336752e-02 5.896858561765291884e-02 4.568111534312082611e-01
8.702645771818354192e-02 5.699576919864179220e-02 4.721197233862379772e-01
1.052853448505972414e-02 5.469617612837067433e-02 4.461556231209459211e-01
8.729737462701012141e-02 5.333244751677648082e-02 4.508320011847190556e-01
9.594682668583238982e-02 3.316737658204609029e-02 4.895853740924470676e-01
-4.444208063693277921e-03 2.313334851037735299e-02 4.419400230790123674e-01
4.620588264679018065e-02 1.297676677158694780e-02 4.475383765239260847e-01
6.345275168621782036e-02 9.552774224427457508e-03 4.544894686042779686e-01
9.647890913696759163e-02 4.102406542005400392e-02 4.872290338152708289e-01
8.270290203514815697e-02 1.640801888389292404e-02 5.066489131136799884e-01
3.114947325873525935e-02 5.123885510034041635e-02 4.446654612818425889e-01
3.619349910624435063e-02 4.947178857122459111e-02 4.447150320710500648e-01
2.230447863721650784e-02 4.311212952148463923e-02 4.438888027802196379e-01
9.039143946828147314e-02 4.460953191902698040e-02 4.516180457396374304e-01
6.473382586238238257e-02 9.235275893486154242e-03 4.551983364388003106e-01
7.657337575003271557e-02 2.281834568929091978e-02 4.563490060685560512e-01
5.349853649432667613e-02 -1.030246614456532643e-02 5.257607730710012195e-01
7.536587748887235705e-02 4.850399643535292099e-02 4.475586321144920943e-01
5.867539786344208586e-02 5.880903272995039593e-02 4.484243574278750089e-01
3.238579718560594817e-02 6.072787082235889949e-02 4.473237118024847025e-01
8.128208463251875016e-02 4.239193139941673308e-03 4.722546407043500261e-01
6.696159928236979086e-02 5.417164970823222514e-03 5.156091881912818753e-01
5.433257877403525893e-02 -7.993767475994733793e-03 5.242994906956597312e-01
8.854078597827989838e-02 5.516673442732601684e-02 4.537632839377873095e-01
3.990322443719724471e-02 2.221390740796101368e-02 4.459982632734127983e-01
5.026066982415232365e-02 1.685724913951979279e-02 4.487607886076297459e-01
3.661638641839230074e-02 3.739267638487629025e-02 4.454836092076564502e-01
9.042246582315026371e-02 1.592913328327236894e-02 4.870435115788963598e-01
9.605775045379159882e-02 5.874834532262138143e-02 4.593574564947131567e-01
9.554621932538719109e-02 5.826182610725683109e-02 4.639734055223510012e-01
7.385552091346095360e-02 2.250010564540718544e-02 5.209409677273314498e-01
7.636515171738343655e-02 -2.056397732606800050e-03 4.842059000891089093e-01
6.487079725206959524e-02 1.215927210403518546e-02 5.237788670493669363e-01
4.732794116432463560e-02 -2.798675497308380708e-03 4.482673607868609134e-01
7.370331335035018583e-02 2.712764412071490272e-02 4.543013227807933263e-01
8.680675847864105510e-02 3.513417205936850835e-02 4.589483955488301570e-01
7.939123609047193941e-02 2.673959019535405296e-02 5.162221189440209246e-01
5.460881516839749539e-02 2.890460702214678324e-02 4.490960632950503073e-01
8.758158525430516372e-02 3.183785291896077535e-02 5.040942630618902021e-01
3.692263545220575427e-02 3.374594417770215848e-02 4.454690215717868607e-01
8.990779709842497414e-02 4.251370215145444664e-02 4.532667661249019098e-01
-2.804716594159935728e-03 1.672909959575074462e-02 4.407550760932988920e-01
7.084434172793503681e-02 5.578091079184329532e-03 5.100476877349492399e-01
8.532885725230034135e-02 5.718718978369807804e-02 4.704905458323857537e-01
7.432072667077814498e-02 2.130280172950679840e-02 4.559714550656428500e-01
8.671645402944382075e-02 3.969180540059590728e-02 4.550002992214138287e-01
5.376649847340441574e-02 -1.032967500528533811e-02 4.542831477542053631e-01
8.765532264505021542e-02 5.651624157673611204e-02 4.749858365341339539e-01
3.397664168936816165e-02 5.374642760191025020e-02 4.448878778475622298e-01
1.014064496983974745e-01 4.523415694169953538e-02 4.780389705209076023e-01
1.520466243614764824e-02 6.892983411933954058e-03 4.407825757312680004e-01
4.859285081963832242e-02 -6.409309129405017270e-03 5.279279399329679379e-01
5.772180217800885332e-02 2.938418704001498696e-02 4.496882150556628654e-01
5.132700214896017410e-02 5.062340939186033700e-02 4.456149522611855263e-01
8.932569295058584435e-02 2.252027766104108819e-02 4.624562776441297762e-01
7.730445674828113900e-02 3.714767598673368587e-02 4.535171982763985254e-01
9.301822167416390341e-02 2.107291500952265112e-02 4.881948416976898408e-01
7.459223208765007607e-02 -3.947110383772683105e-03 4.868820329341131958e-01
9.122833627632363773e-02 3.997469498775261393e-02 4.558511323085094324e-01
7.565701586593327754e-02 2.385288960323448532e-02 5.196913784545444948e-01
9.248779297685938428e-02 3.169089483821040110e-02 4.959686731204204779e-01
1.100941044441237915e-01 3.661666120752349318e-02 4.721771492775750922e-01
4.558540819795476456e-02 4.589662916689801059e-02 4.456641926693629685e-01
8.195249285743189116e-02 1.985738637293063200e-02 4.604281913080420785e-01
9.182157460802675697e-02 5.120096190493933497e-02 4.864880944208295199e-01
4.909151980676935978e-02 -1.413184725148239037e-03 4.489437632171313086e-01
1.086733549174317831e-01 3.279478308751160309e-02 4.752026836568267742e-01
8.887574305625606241e-02 3.214055113139891590e-02 5.017614626013482404e-01
7.012366537614932172e-02 -2.450233844721972504e-03 4.651473924354414535e-01
7.222082382665713507e-02 -4.117246082867335143e-03 4.929841448268970083e-01
4.541072315808463572e-02 4.509302553396262597e-02 4.457226554461458101e-01
9.762419258202417391e-04 4.220298629165762649e-02 4.435907926077079511e-01
3.413196860030902335e-02 3.647352526659430882e-02 4.452193843925804639e-01
9.366916465236314882e-02 2.734713868344944634e-02 4.921253012274168226e-01
8.168760718020065537e-02 5.230208810722158930e-02 4.488943612878688039e-01
6.991341071156145781e-02 1.055244196405898116e-02 5.172205124908838547e-01
4.690629891549164682e-02 3.171203882537654978e-02 4.470283359736733630e-01
5.792954135886800582e-02 3.694194987823865711e-02 4.478819115849061450e-01
7.282005113728708123e-02 1.701286018532171401e-02 5.190326562684470790e-01
5.635176015064772420e-02 2.059132742284284362e-04 4.523822159806159537e-01
7.200686452531745996e-02 3.278387058959005701e-02 5.210565244002780538e-01
6.504368777919897204e-02 6.048589183446556605e-02 4.530670484770945028e-01
9.369962448423704848e-02 3.491118093578370746e-02 4.931130730606017587e-01
5.300606047808298360e-02 1.759295889119637940e-02 4.495715258677243087e-01
3.660391005964078182e-02 3.376837421615132284e-02 4.454346683220574143e-01
2.589995788312063341e-02 2.268096000228884274e-02 4.433996575484953073e-01
4.532579301368995506e-02 -7.866510330788317046e-03 4.477066875650375644e-01
6.053138147245103878e-02 3.040726611870119694e-02 4.500187802347392907e-01
9.477008245829052213e-02 1.875323576533995118e-02 4.694159893450651766e-01
3.725945104906065730e-02 1.181699533442025912e-02 4.449031941143557489e-01
5.527017204238821729e-02 2.979607458239639725e-02 4.490659485527266348e-01
8.302165210272949292e-02 5.358535940880373820e-03 4.787410019544531270e-01
9.790009198072162355e-02 4.847168524272582601e-02 4.559029279100320076e-01
1.253727594815348505e-03 4.369192752106855482e-02 4.436914511762611313e-01
-2.630719902011377509e-02 -1.281649338249288110e-03 4.399682510200349506e-01
6.491075105730202688e-02 2.749830148637934929e-02 4.519121845155117390e-01
6.677707198162363689e-02 -1.087865029721836463e-03 5.083416959392282886e-01
1.041748447496280011e-01 3.784557793469490311e-02 4.586671431490776940e-01
6.542597066256768124e-02 -6.425849646065601162e-03 4.631344356474051960e-01
5.729924660578070844e-02 5.634668076840661233e-02 4.461270431996296471e-01
5.120829096014388460e-02 8.733878227176351122e-03 4.493875006475337996e-01
2.229857422795286995e-02 2.806377494679992979e-02 4.430922029541473073e-01
-1.093661830757160225e-03 1.406533916696101408e-02 4.403584067839729221e-01
2.911620316204178993e-02 7.371066047100943708e-03 4.429130240047161604e-01
3.537735051115251106e-02 4.120824443153314059e-02 4.450947180543418646e-01
9.115077872427576611e-02 3.615166403774392606e-02 4.582430316272810278e-01
7.214283732048987208e-02 1.251578826244108874e-03 5.017289244059399689e-01
-4.301048495059461158e-02 1.951403409711919765e-03 4.444794285663419831e-01
3.204474287329580479e-02 -1.627412809189358921e-03 4.418556977253143558e-01
-5.800358631155256781e-03 1.371537142892436008e-02 4.405213017382061946e-01
1.002791655369204282e-01 4.620040755374726221e-02 4.796495035323926071e-01
3.343467307583031234e-02 3.547941335836413135e-02 4.450913371782668770e-01
6.960514266251971449e-02 -8.521257907208092466e-03 4.961837345674233735e-01
7.695155849634213729e-02 5.564913899541367066e-03 5.016518971371430879e-01
7.977757191568793371e-02 5.875754936626858410e-02 4.564098221493751995e-01
8.143737451174831721e-02 1.056960063455469369e-02 4.648718429560666499e-01
5.345177570396928562e-02 5.120371429170188227e-02 4.456402842609614723e-01
7.898525710087782314e-02 3.201642878179480900e-02 4.560523513078052482e-01
2.657769229995695856e-02 -1.682047684355504006e-03 4.404581786392255949e-01
8.407707789779016172e-02 1.826786001457702049e-02 4.618371384677081304e-01
1.003102452394805805e-01 5.031035131654909565e-02 4.653528419967754570e-01
6.191396146764344133e-02 3.314474071919842196e-02 4.495778564452052040e-01
9.471602398198510075e-02 4.954544322120880279e-02 4.858611592183605388e-01
7.113168972406695711e-02 -7.388759001661967390e-03 4.921395832622924016e-01
3.847374850022812487e-02 4.718609893655367760e-02 4.449220111185595572e-01
4.194576679851346607e-02 4.624032366441622327e-02 4.452597016563195620e-01
3.444158447319347477e-03 1.558076388626573362e-02 4.407437235217839810e-01
8.513499826309792184e-02 5.529890333226862575e-02 4.826561791529518919e-01
9.325735162191760297e-02 5.216253117193865585e-02 4.831953755787455895e-01
9.394134683999159907e-02 4.755170070331905113e-02 4.529613069638934175e-01
8.892556053291422735e-02 1.822155412396675445e-02 4.936726823288769550e-01
6.684926874398904040e-02 2.455741599469723341e-02 4.529389895755008277e-01
-2.566248760004564630e-02 4.086359094074920942e-03 4.419357679589333010e-01
7.751576712375807254e-02 3.897914103085806103e-02 5.073965194988797611e-01
8.364729770666216868e-02 1.465930328105692626e-02 5.033312287796852802e-01
8.474170584760465363e-02 3.403607175264369844e-02 5.077381340117902431e-01
5.821704310622437262e-02 -1.170151734283397110e-02 4.588720072387751370e-01
5.553836266470254385e-02 1.272608317026917291e-02 4.508506384032202052e-01
1.108292726317164495e-01 3.619007542027521951e-02 4.667307839061087260e-01
7.613262660792513570e-02 9.668929602826078704e-03 5.084390340538830211e-01
6.862544382010801400e-03 3.612811292987401501e-02 4.426716246204067118e-01
4.787487476696101855e-03 1.858122630425628613e-02 4.411074572729780097e-01
4.817547725445774781e-02 -1.831945147127458625e-03 4.486017356778037035e-01
5.017484269102048811e-02 4.616817072140812217e-02 4.460829742025537725e-01
8.385525762974517516e-02 1.104925426874052083e-02 4.974637915011357325e-01
9.952133633857914233e-03 1.646510375769667800e-02 4.412784804187265819e-01
5.072676100508693997e-02 -8.200800850820168936e-03 5.272203171723712778e-01
3.118789178270328644e-02 -8.097384794617222287e-04 4.417354063023370969e-01
8.952000417157045253e-02 1.678148626637973595e-02 4.670191392430161348e-01
9.310568637440444495e-02 3.253811109492794895e-02 4.949366057923644813e-01
8.817836313033056150e-02 5.370140200158154270e-02 4.847981182269617273e-01
1.131585572827246561e-01 3.372507901816074877e-02 4.648761945010518870e-01
3.438094173367367556e-02 -8.797198989791295796e-04 4.428925277849413145e-01
1.003905842270297333e-01 2.850874131144057883e-02 4.818311512474598990e-01
9.186953082729916453e-02 5.410955940421026400e-02 4.767863045699898272e-01
8.186453432483567494e-02 1.441221556344581163e-02 5.061438971658557273e-01
1.006956301974701179e-01 3.295247215938679197e-02 4.601233542870822313e-01
-2.657078505518149780e-02 1.117089146453820181e-02 4.466658771588142285e-01
4.038404021526313670e-02 4.650303264143136606e-02 4.450939442781597921e-01
6.271820004417366645e-02 3.018356840374160008e-02 4.506325183701841985e-01
1.740884627345774122e-04 4.290473866247114521e-02 4.437129796426132478e-01
2.078704775451662226e-02 2.269762163158066740e-02 4.427282376128623964e-01
5.398338098765509407e-02 3.899736885557642668e-02 4.470271073874312884e-01
9.628383310107670179e-02 2.064171608854617132e-02 4.813617488048163029e-01
5.944678709722306387e-02 1.819480716554796457e-06 4.540143974286429684e-01
2.523444304803495672e-02 2.131171203627455976e-02 4.433131155995532757e-01
8.022314805839050877e-02 2.879359867038151517e-03 4.749904123722375471e-01
9.912677449370993488e-02 3.372465564060394411e-02 4.598210712585431570e-01
9.244559541425080573e-02 1.521459365379853809e-02 4.807598298365706180e-01
8.958755569249937656e-02 3.563524808752550899e-02 4.999381924128960542e-01
7.448526667539506763e-02 -3.238989095124138011e-03 4.890588506555925696e-01
3.563312245621964858e-02 3.602430219592964167e-02 4.453742405702096341e-01
-1.940241304646172366e-02 1.541303655173272349e-02 4.447495435411747966e-01
1.100168914174528556e-01 3.581654849936410923e-02 4.625730488740466551e-01
1.071377796570234173e-02 5.627055156956648624e-02 4.468284799448565825e-01
4.845587687797221071e-02 6.097037922987157826e-02 4.469238886182345105e-01
1.253411742486384116e-02 5.311915661186026455e-02 4.452846089883015224e-01
5.345932560712367970e-02 5.785830728530921840e-02 4.462293227104709437e-01
9.369819655558618565e-02 5.367304217544184575e-02 4.744323720445007275e-01
-2.240427911613105533e-02 1.516590063102788571e-02 4.461299621484748901e-01
7.386809695612468751e-02 1.999341043869021922e-02 5.198947925039687501e-01
-1.207132475185593301e-02 2.336008889472571126e-02 4.433664400244880510e-01
3.122198009127246168e-02 3.715811477180164246e-02 4.448508544304448642e-01
-3.434214377852640165e-02 -3.490636954203258594e-04 4.408399827873443755e-01
8.250305303946857405e-02 6.327558062079920685e-03 4.914721489733900883e-01
-1.751041596342802625e-02 2.015103196526278270e-02 4.449640784835950935e-01
6.637747359710406692e-02 -3.987526135570413320e-03 4.620240428846008052e-01
7.994252734348658573e-02 2.358848744731243015e-03 4.795477001483703372e-01
9.604835463317819289e-02 2.177061074598284074e-02 4.665895443656679076e-01
5.493242837563234310e-02 5.106258276705211499e-03 4.509647748525078548e-01
5.062869199515757784e-02 -1.120833121387993306e-02 5.284930152170158602e-01
8.310778821176370568e-02 2.496708399943599679e-02 5.107363207457381593e-01
6.962301125979540595e-02 1.014317792518690253e-02 5.172426651040564760e-01
6.437255793008722637e-02 4.516313261482481078e-02 4.469084877714326609e-01
8.914042273735220401e-02 5.687413854804534291e-02 4.725636022214317333e-01
1.083154219196421075e-01 3.687796660709592028e-02 4.743015624868787694e-01
5.379234553643783695e-02 3.298062282262594763e-02 4.481178335126876355e-01
-2.920657174099073466e-02 1.524420400874759024e-04 4.410469345278766329e-01
8.859237118185747661e-02 4.748220401061398893e-02 4.923915401251766633e-01
8.257040587551607580e-02 1.096899082266305364e-02 5.005104327898195482e-01
4.359779977099173531e-02 6.069046588636996253e-02 4.461842305257078811e-01
1.011369795353272566e-01 3.029617882974750334e-02 4.611227013605709857e-01
8.425012364983203161e-02 1.087696789858653978e-02 4.674534164089573229e-01
5.437779005966918155e-03 5.151371306705244957e-02 4.450467440534796038e-01
3.426958892751925945e-02 2.829168773468288076e-03 4.430424597568058953e-01
6.872179628563349074e-02 1.706783842743613000e-02 5.232904941872034144e-01
8.571259856365404106e-02 3.552767057275783846e-02 4.580892296856996504e-01
7.408422213568184589e-02 5.654877676900797040e-02 4.478141072738875961e-01
2.559026782929477509e-02 5.438115904155648231e-03 4.419084212530140499e-01
8.429169656057955429e-02 8.720470680853908974e-03 4.910143512142536304e-01
7.057556098682192525e-02 5.611408634665668999e-02 4.481642854196340453e-01
1.065417708104375860e-01 3.962999014301724077e-02 4.649787828246482735e-01
-2.056116105701489769e-02 2.673044594806719271e-02 4.473009823232310112e-01
4.684276170581402540e-03 3.526310870968263345e-02 4.427331618250214818e-01
5.587476775319472067e-02 -9.903505340886058911e-03 4.556687291018300390e-01
6.560117353661082396e-02 -3.693022127792502940e-03 5.085462468325474550e-01
9.839186629938453596e-03 3.554413050156838422e-02 4.426493935726446005e-01
9.224190616907283757e-02 5.428040962413439863e-02 4.747823787610879753e-01
7.557306880201958288e-02 1.491507682577941987e-02 4.589725038858512574e-01
8.270573863974822748e-02 2.556507130115344417e-02 5.113884959947749831e-01
2.932169414977172511e-04 3.798663159513371995e-02 4.432884897231437193e-01
4.203731773086465812e-02 3.264842387371252874e-02 4.461769157215880743e-01
8.457103980263354359e-02 1.838182333201629839e-02 5.053298686916862792e-01
7.474365237678556873e-02 3.323583966014087565e-02 5.179745862159783609e-01
7.946697502623795845e-03 5.545709360217331713e-02 4.466950865825793371e-01
1.845292047005620429e-03 4.445507970961740801e-02 4.437070428098597863e-01
9.127872647219081870e-02 2.020579027622036727e-02 4.906401941144923340e-01
4.631088421755660128e-02 2.532930769501409371e-02 4.474628122486795645e-01
6.657946325633942730e-02 1.890059197854957167e-04 5.101692684559414603e-01
8.994289395162670397e-02 4.799772225024296485e-02 4.910531880338000477e-01
8.200959563739855518e-02 4.996850085996617369e-02 4.488324535661110115e-01
1.087208428950940525e-01 2.823844055164266911e-02 4.738577656965397567e-01
8.061030624803310063e-02 7.611816158007033220e-03 4.991269059202268488e-01
2.672639292623877477e-02 4.557614886502334151e-02 4.441855932406088558e-01
-1.574851563562358961e-02 1.124384527751686944e-02 4.419013795399339695e-01
7.689145308463585238e-02 2.906076865575141915e-02 4.552847581492834861e-01
8.747467562482665049e-02 2.351352768518013073e-02 5.031648843469405108e-01
8.254616816276472147e-02 1.860172414362074728e-02 5.088091304642785584e-01
1.076457749232232475e-01 3.886287822607779885e-02 4.740471815113622145e-01
-4.079226296723789669e-02 -8.733276707131305654e-04 4.407503147114997799e-01
9.127391287059614944e-02 2.285501198669290593e-02 4.928178992387262092e-01
8.758673997365389041e-02 5.096050105221466842e-02 4.892863434636520181e-01
-7.511012851756731189e-04 1.474540847834785590e-02 4.404425760813476254e-01
2.713249201351723705e-02 1.579749689733125212e-02 4.431868697912497157e-01
9.963974686561592742e-02 3.487303002748855935e-02 4.846423374917478988e-01
-1.321757630219853527e-02 9.322745402578568041e-03 4.406977339824171280e-01
6.235748441235564737e-02 4.148072978641692034e-04 5.171185538836078344e-01
3.458188038676416470e-02 1.793514860342784734e-02 4.447482705078862342e-01
3.358749348404237861e-02 4.391345241129429589e-02 4.447657470130578772e-01
2.742935350980062886e-02 1.009624099618907506e-02 4.429354933512928416e-01
9.259997355368784766e-02 3.130263107168344827e-02 4.957858166002692690e-01
7.622429614177743395e-02 5.313302608869714845e-03 5.020997831780090737e-01
-1.310873952278793567e-02 1.128764806959469541e-02 4.409961106530872477e-01
8.769554590517529558e-02 1.136921031820203182e-02 4.712613444297377163e-01
7.469452629228694185e-02 3.457153550151992327e-02 4.531381174292115066e-01
8.997515424282656604e-02 5.514262179849334367e-02 4.758153566059503126e-01
3.516275781696077962e-02 -2.888293500092904698e-03 4.428526528620595482e-01
9.631044874736180428e-02 4.760094414609849361e-02 4.848785352167734874e-01
5.241006416274054253e-02 5.317659182077248692e-02 4.454138902127506294e-01
1.018960506674340960e-01 3.035389621564809834e-02 4.805205324190862659e-01
8.027389544508453656e-02 1.689901074109541670e-02 5.104887120812063861e-01
8.364772442301900146e-02 2.912702314112704249e-02 5.102959397045561118e-01
8.718492088179433108e-02 1.652516594915886400e-02 4.649802999383889635e-01
-3.619095403297723466e-03 4.082018061089941197e-02 4.441793519649228084e-01
1.058560978851151302e-01 2.595418456676149704e-02 4.740941818176282463e-01
4.081337416606427987e-02 6.070349271424257953e-02 4.458428112885587380e-01
5.354206916928550691e-02 -7.910326168959759888e-03 5.249198200726921115e-01
8.355320919730732654e-02 1.799378280466265925e-02 4.617081143525612608e-01
9.556344330360574957e-02 5.386501178018526792e-02 4.723426485406083120e-01
6.099188015922905881e-02 5.245181250591599009e-02 4.457909359705720109e-01
9.045251156357421440e-02 3.482614559441155749e-02 4.987289110010709736e-01
6.606758860586604831e-02 -7.872933359060179520e-03 4.654591338497851005e-01
6.485721524290871676e-02 4.471368232947971547e-03 5.178241535596858069e-01
5.841086563503647411e-02 4.465424809156942620e-02 4.466596789301550130e-01
6.643499178410798567e-02 -8.421133284582648162e-03 5.041639077574908701e-01
4.660564673708927907e-02 4.434043856521984600e-02 4.459171154705273143e-01
7.859135958365263963e-02 2.319593010645904299e-02 5.165035860186625305e-01
5.601437821388086102e-02 3.735338701309673382e-02 4.475100211279147144e-01
6.076096480503155595e-02 1.487686535578579619e-02 4.526756059742257365e-01
2.922903009582203393e-02 1.113232852781892088e-02 4.433044722038721464e-01
2.773629814655989914e-02 1.355231886957510706e-02 4.432150775307646118e-01
9.998014835035215486e-02 2.182379311262572230e-02 4.696193939108447291e-01
1.049350836140882232e-01 2.846855137818773973e-02 4.766776057999707605e-01
-4.721515025540828914e-03 3.920134414725895411e-02 4.442376056724793298e-01
5.237979746337446257e-02 -6.301522472294214527e-03 4.517180688542194456e-01
1.088746101824343282e-01 3.279497102080789622e-02 4.750563499243478094e-01
5.633028256174055226e-02 3.824298456443258470e-02 4.473802057803836218e-01
7.573253181541797496e-02 7.233961807731621729e-03 5.054955372888925158e-01
6.657208099173038407e-02 -4.882441944188510748e-03 5.058238182584764431e-01
2.225589475845693443e-02 5.126698746476367197e-02 4.444476927253122600e-01
7.123362169690525270e-02 6.011183352407672292e-02 4.525199663271890493e-01
-1.342924531044786297e-02 1.595886255931857137e-02 4.423993774385455713e-01
8.336380828340493598e-02 5.667206755772814276e-03 4.775662358104967309e-01
6.847907936510534699e-02 -7.460591082576992911e-03 5.001467072822207705e-01
3.097817209541857755e-02 2.912021826519718692e-02 4.444243047104245448e-01
6.220425533282191756e-03 4.268108461138852422e-02 4.432937456155996436e-01
6.441656474927671960e-02 5.993972183041270524e-02 4.524837572795238905e-01
1.030664962829055259e-02 4.324642608631636825e-02 4.432736073181545167e-01
-6.208102671971816797e-03 1.355360430009413392e-02 4.405350729628914608e-01
7.062961388406303886e-02 -8.666857969441896584e-03 4.928564436598560916e-01
8.367396527626216884e-02 1.125694060438442619e-02 4.983169831383456039e-01
7.871835286328242309e-02 1.425739981883586069e-02 4.607216836138475768e-01
6.805512802799301708e-02 3.925236826175445420e-02 4.490587979423512066e-01
-2.143084105116722926e-02 1.643290317365168896e-02 4.460186468517311487e-01
5.895491309530955654e-02 -4.660459168996032055e-03 4.552384416987490523e-01
5.170740763631989298e-03 1.237403097950196679e-02 4.405417160586855840e-01
-2.361481882385602429e-02 1.142480432599618859e-03 4.401913429955652823e-01
8.538815554874994163e-02 7.588409508308022362e-03 4.808510683083980219e-01
6.538339430766403060e-02 -6.309058953206160038e-03 4.629595637106419526e-01
2.920221774138663864e-02 -7.029523210050152814e-03 4.402806789591721115e-01
4.977014017160524134e-02 4.808000758043567274e-02 4.458428453579642015e-01
7.686279187455738460e-02 6.381748756617001278e-03 5.029603329287466451e-01
6.966408344035494860e-02 -5.164417469941437466e-03 4.986334983689206246e-01
5.516445083402397170e-02 9.844537629744128798e-03 4.509168297589543628e-01
4.080305978890724338e-04 2.142608371435391484e-02 4.413602681492275748e-01
9.536877693067769002e-03 3.595316733373466606e-02 4.426896318672915998e-01
9.091851260731642626e-02 5.231907421189765234e-02 4.524619646341832557e-01
7.153152926465755623e-02 -9.090390525689127921e-03 4.837474669870306943e-01
7.475094248396736696e-02 3.258039262438245515e-02 4.537663102064700138e-01
7.159056290457531391e-02 1.330599874015397921e-02 5.174306241151697128e-01
4.192636158161653498e-02 5.614766529481012014e-02 4.451946809086136381e-01
1.054921030884354433e-02 3.538764968969365654e-02 4.426431731350691789e-01
8.112619204756015001e-02 5.848133695697601414e-02 4.559205382111116700e-01
8.046233719333421852e-02 3.681113201468002444e-02 5.087144193440930051e-01
1.082555881850716106e-01 3.771172605358918961e-02 4.638658374364654224e-01
3.378959816760095103e-02 2.541372223844782369e-02 4.448154941405766394e-01
3.177363803753037452e-02 4.356281191584748802e-02 4.446525102887106673e-01
6.897063031228375940e-02 3.599043367512393815e-02 5.151681146477756768e-01
5.215803732330517861e-02 -8.696482774667977506e-03 5.263294771906127378e-01
1.798502901077480426e-02 6.798112232442744124e-03 4.410240910681014759e-01
7.025708582105644195e-02 1.955055675733672130e-02 4.548522717229172563e-01
7.622969129589782233e-02 -1.834008735742381768e-03 4.793808078308873788e-01
-1.780656089883643836e-02 3.336633510939039649e-02 4.474541626128576977e-01
8.487631919422598814e-02 2.013299233336281191e-02 5.064565156910784127e-01
4.392525828152313294e-02 -2.761255714026037301e-03 4.466376568292190763e-01
-7.120874060958855278e-03 3.854726167798534775e-03 4.392547896183904288e-01
8.876404990269678996e-02 1.154157299352750674e-02 4.723942632316014412e-01
7.490530897644787078e-02 2.062612678023028126e-02 5.191313513124048429e-01
7.553882760280299091e-02 6.590922091320705264e-03 5.047627220933925685e-01
-9.259161932635758679e-03 3.530500116502548191e-02 4.448298039135319404e-01
7.596575777002938235e-02 1.351485515077330106e-03 4.951842248472244634e-01
4.467369826349478629e-02 -2.789279163781124490e-03 4.469570096958243588e-01
8.308089115120215196e-02 1.415779838071774994e-02 4.630322873717493959e-01
1.056750483518937092e-02 3.051347423221255697e-02 4.421715385248755625e-01
8.677390489366330895e-02 1.742493207085077725e-02 4.995015728231993468e-01
6.120271448942758014e-03 1.964955585185991678e-03 4.390585466409837045e-01
-3.468405937838288378e-02 4.176009564606883440e-03 4.454004002650616689e-01
6.081671379242570286e-02 -5.957112581498325704e-03 5.158645662864779213e-01
7.698387691473895789e-02 -1.171150487160923723e-03 4.829865979849838897e-01
8.310905414951723358e-02 5.421537719395718054e-03 4.767863666634694630e-01
5.801911173691803175e-02 1.472402629413324497e-02 4.516712883639850684e-01
-2.983528997824128753e-02 5.094012039508040261e-03 4.434645102891938695e-01
4.989338595669151610e-02 4.188453120784447342e-02 4.464608248631314336e-01
6.987138039037628368e-02 -1.684188506228309146e-03 5.018581958530770049e-01
5.750489753746515498e-02 4.347407590194820454e-02 4.467822517506425672e-01
5.070565020827594305e-02 5.006689337266380380e-02 4.456525507358765625e-01
9.047915077619300694e-02 4.621120470802621977e-02 4.513415069258790990e-01
8.370098382902979584e-02 5.935964748053279214e-03 4.744127308152348288e-01
-2.122811888959623763e-02 1.691362795284605952e-02 4.460350129590319179e-01
8.952451178158780942e-02 3.952414628102040445e-02 4.974576695026534656e-01
9.140062850638008829e-02 5.466153936397465107e-02 4.748069412856431581e-01
-7.483302513175108146e-04 2.719820228424313022e-02 4.422551831282319212e-01
5.157349657623624267e-02 2.550261606982755572e-02 4.487608985263794592e-01
8.036259062745781945e-02 5.511173926407691992e-02 4.488324666510785654e-01
1.943059329625860393e-02 -3.222880996974737157e-03 4.390189579949770327e-01
7.334809923812425636e-02 -2.061512745659253680e-03 4.943375418577805047e-01
6.528776985916538711e-02 2.053789398592033300e-02 4.532059011911559465e-01
-3.055746915420854554e-02 6.447192756035660319e-03 4.462300413098145291e-01
5.394466428127079466e-03 1.228413821556728625e-02 4.405607031699785847e-01
1.981549702672666564e-03 2.842795163663292338e-02 4.422353050829672116e-01
7.825760549850395431e-02 1.739732346155331219e-02 4.594584740575279325e-01
6.497858041596170364e-02 1.021485869175710673e-02 4.551215758705492442e-01
9.108527190377248284e-02 1.871045720277817598e-02 4.893079997867952335e-01
8.650954273320410337e-02 5.613880974706564331e-02 4.539275425864406355e-01
2.527636821992985949e-02 9.199305953883546438e-03 4.425305902342852593e-01
6.848145573224116711e-02 -5.903168800044076431e-03 5.011241207606433878e-01
7.005018273393573414e-02 5.559068044784705453e-02 4.473596306270627987e-01
5.809503699874732363e-02 -8.885661850901163325e-03 4.563866283425599413e-01
7.681650288082471356e-02 9.343963213752611366e-04 4.707827697254624022e-01
9.714094769478727465e-02 5.452261764359927348e-02 4.675585281838222085e-01
9.621756495977676349e-02 4.106358971486467890e-02 4.875070912815941959e-01
8.893204433961508781e-02 5.581278906021008152e-02 4.750300888303816693e-01
6.533674403568889844e-02 9.741840767444184465e-04 4.576746767012031536e-01
4.718322135470292590e-03 1.322928412116051305e-02 4.405817092610048724e-01
8.658115098038821067e-02 1.133520923383566151e-02 4.903590562825056454e-01
8.231356936268134639e-02 7.104549985728439779e-03 4.696822655420643811e-01
3.438715138834926022e-02 2.078115761212728091e-02 4.448702087321264598e-01
2.674413947569469902e-02 2.754545852699569978e-03 4.415562895196262216e-01
7.019900086509629766e-02 3.484917777268039391e-02 5.177839279956191199e-01
1.026651193019506164e-01 3.173543560214650561e-02 4.604914660641068469e-01
6.539384871120157428e-02 5.229034444299156259e-02 4.461048764553041668e-01
1.898164160216157977e-03 6.512963650379535036e-03 4.396914400322111671e-01
7.894997148941769460e-02 3.921031049850206424e-02 4.525688558486612445e-01
9.239895605968589942e-02 4.253836418253673785e-02 4.538911697364175768e-01
6.239459425774732115e-02 5.584761023280979120e-02 4.466898490893814189e-01
6.357626600790916571e-02 3.828449103087800537e-02 4.485111027442317821e-01
1.005666304495776153e-01 4.370002441816867034e-02 4.584805906589019542e-01
8.258783406557682061e-02 2.070709678493315095e-02 4.604560621875861126e-01
-2.834005842025872496e-02 9.349234729715921038e-03 4.472498262674477476e-01
-4.307255955850497475e-02 1.854034257392094247e-03 4.455427317052521041e-01
9.398828264246007758e-02 5.186189071118203764e-02 4.540903948466229467e-01
3.466538913279145623e-02 5.642758869841405650e-02 4.452008977004522361e-01
5.017793627934866857e-02 5.740752598877121513e-03 4.488647744227495240e-01
4.138496954794754212e-02 2.287573696709684079e-02 4.463335225701090536e-01
5.666243598625680250e-02 6.002405228740147203e-02 4.493790667731433208e-01
7.585761863163149876e-02 3.547496169399860094e-02 4.534625960220195484e-01
-3.541644077624328535e-02 1.182529186270853648e-03 4.420237517912875558e-01
6.921413238834846215e-02 -9.649809508032401381e-03 4.736140772511033270e-01
-1.687933234251375730e-02 2.832971512498984670e-02 4.457929728920906887e-01
4.033676249151138538e-02 2.631038876796365500e-02 4.461180550990734295e-01
-1.936860712113518471e-02 7.173904051096253141e-03 4.416751947056125616e-01
8.375575764077561325e-02 7.857082006267560731e-03 4.705913711186645032e-01
6.839820172863574077e-02 -1.445826471470972822e-04 5.066769751840138891e-01
7.792967455684074451e-02 2.145645743394248781e-02 5.163651375043795122e-01
-4.715957667587770269e-02 -2.117454653822775385e-03 4.438280601862181207e-01
6.266469977342602193e-02 -9.399082212931930344e-03 4.623216257643165128e-01
9.211613114273052572e-02 2.609813498331107692e-02 4.941374371205724536e-01
4.724415734662886987e-03 3.366197066622621942e-02 4.426161018172576900e-01
7.255300259168415145e-02 5.725864840110763548e-02 4.487369022965121412e-01
6.999108390902210319e-02 1.923456931636625738e-03 5.066139146315992159e-01
1.102076519633942431e-01 3.638852832403068754e-02 4.652122511764728574e-01
5.486905626397628466e-02 5.326031625623712379e-02 4.455460408365983782e-01
1.990432750729559386e-02 9.199377782560439962e-03 4.417628726230021785e-01
8.422102477578354007e-02 4.504837871594453980e-02 4.498471534337853961e-01
7.808142419941128953e-02 2.989283677925159716e-03 4.948747022496450265e-01
9.422906205761667764e-02 5.468903062039413843e-02 4.569396917129560642e-01
4.748499792744592662e-02 3.499864905481658156e-02 4.468561819678411595e-01
6.016077327901039884e-02 3.659646451771676745e-02 4.483801649626146801e-01
5.434845642526915654e-02 -5.554906932585157615e-03 5.235219355343677661e-01
8.981545783595798471e-02 4.420038274655463395e-02 4.945661131765496377e-01
2.193382820939763361e-02 9.539107019160775192e-03 4.420866185942994298e-01
8.560671278085109359e-02 3.661936108568606546e-02 5.042600537011555639e-01
2.675263831902110687e-02 5.319369330094426973e-02 4.449218591644136245e-01
-9.175404152577898084e-03 2.150354525463948202e-02 4.424291016111115415e-01
-1.880179201416459084e-02 2.438642162351870729e-02 4.459437213052628857e-01
5.031269729162073795e-02 -4.501389155036446092e-03 4.499789571156939672e-01
2.979874082422959494e-02 6.946584820903432475e-03 4.429611606840636595e-01
9.368067851288498782e-02 2.568217666411083330e-02 4.619802935812388767e-01
5.831449980581683568e-02 6.091160479079592988e-02 4.525206795717499619e-01
7.314667767991561709e-02 5.768499908375554486e-02 4.489178930326511163e-01
7.815811979954213895e-02 1.639264318724128339e-02 4.597377895357108168e-01
7.535535997052719703e-02 1.115665425564050378e-02 5.109791893694041187e-01
-1.279969413354571650e-02 2.487242361010417666e-02 4.437807603942892642e-01
-2.034334397440785633e-02 2.023490905931586703e-02 4.462738181616914823e-01
7.591764557061281282e-02 4.500519026026853636e-02 4.483419477503389206e-01
9.611873823429271935e-02 5.862261539741056571e-02 4.614761149664721729e-01
-2.255843343707188142e-02 8.444244280003433689e-04 4.400124819779804297e-01
-1.662245245015234185e-02 3.467209024106578108e-02 4.472063820810765478e-01
6.971958692404268965e-02 3.573719579110658934e-02 5.154592993813408297e-01
2.002617447711513288e-02 5.671912577755596624e-02 4.462045257434538170e-01
1.768379139856711760e-02 2.823775878492662192e-02 4.425029340761684749e-01
8.907900860429782131e-02 2.408961926406695542e-02 4.998715288997952477e-01
1.313677701600204917e-02 3.402934624036154515e-02 4.426334839990432868e-01
4.557548834107110619e-02 7.143556415407226537e-03 4.468848263563551249e-01
8.909361857310112154e-02 4.389920769375196125e-02 4.954786049516525237e-01
5.091604923142759032e-02 -2.506676308207273288e-03 4.499323408227310916e-01
4.968548798525564136e-02 5.036714937557813104e-02 4.455730354448298458e-01
-1.879396355186965795e-02 1.499696168901846517e-02 4.443417886893917257e-01
-9.384508705940604323e-03 3.734109580141459911e-02 4.451560001758930185e-01
1.220845121637090941e-03 3.742617848646706546e-02 4.431673649910612411e-01
3.989660260307711925e-02 1.269528080829562811e-02 4.456493803243787855e-01
3.756050268161362921e-02 1.373993928544067246e-02 4.452126566793080387e-01
5.308369889960232180e-02 5.725559113973813230e-02 4.458905015497616753e-01
7.501736468723094187e-02 3.098403120397020052e-02 5.209295515009044752e-01
3.253623359038942259e-02 -7.200433847969193134e-03 4.411580529321789124e-01
1.024688026661710466e-01 4.429426511717434595e-02 4.640429948507698854e-01
3.441871528822642440e-02 1.196990776577283762e-02 4.443149578993662585e-01
1.004600219458940957e-01 4.944266246239319151e-02 4.711693578174663832e-01
9.547265959336040386e-02 2.558847792411108463e-02 4.627472781247679579e-01
7.062165388879459993e-02 4.653600379383080604e-02 4.473198283715484336e-01
2.909190082496505153e-02 2.531340749758998268e-02 4.439975064123650728e-01
8.628541259512551020e-02 5.658660170323381172e-02 4.765298418172378980e-01
8.358677438868518383e-02 1.229922728526939950e-02 5.005488165343588980e-01
8.757252460928266480e-02 5.037334366882722375e-02 4.505609441501884360e-01
