-2.053338503614881433e-02 5.624334869233077808e-03 4.412752842983542756e-01
7.365316962428550274e-02 -3.443244732529287481e-03 4.736867376364095605e-01
8.202494226381214226e-02 5.482559466317939167e-02 4.491280501694789873e-01
8.818006751638925167e-02 1.995973057036209974e-02 4.967418745367790378e-01
6.940666981947106462e-02 3.132407281247134336e-03 5.083755812813844921e-01
4.955042229174053126e-02 6.284934927763692614e-02 4.501347849178518601e-01
7.542418829345322318e-02 2.642867575470817312e-02 5.202253581758894407e-01
6.761049033538120423e-02 -1.000463050271702646e-02 4.708450295726278045e-01
5.759261725578933636e-04 -1.832962733976495080e-03 4.378715345705929685e-01
3.433498616573282120e-03 4.738863777397010757e-02 4.438931361565145450e-01
7.900036782400614299e-02 1.871374404877029080e-02 4.593874163595593751e-01
5.412337384091526517e-03 -2.407956671869518946e-03 4.379100627438712867e-01
6.855121446072115488e-02 -6.740020828215636042e-03 4.680821801709104668e-01
9.851795634393518963e-02 4.611195731044073071e-02 4.565345893413192968e-01
8.968179124666732227e-02 5.233561174664399379e-02 4.857713321936055206e-01
1.025250391809193473e-01 4.040270431215339103e-02 4.787210788913909831e-01
-1.853633288362132800e-02 3.021320824191291859e-02 4.469564890949001557e-01
1.095313321268196263e-02 5.752213410324005793e-02 4.495878454744648423e-01
9.173134892683784680e-02 5.596693285492734815e-02 4.554283099457284156e-01
7.480609460236856134e-02 1.608255593675237544e-02 5.156607356538677189e-01
1.096801126297300144e-01 3.675331401910237467e-02 4.710457769839492270e-01
7.613020831729437610e-02 4.533806316286991683e-02 4.481947046800112688e-01
9.868635262990088641e-02 4.586198768999106418e-02 4.567660665404773557e-01
5.868050250142436280e-02 6.088822331180952785e-02 4.531979845028718534e-01
6.750471858860766783e-02 4.463291440267776883e-02 4.474843999348662171e-01
3.533804722827225964e-02 5.737080313664331965e-02 4.453358752336792903e-01
9.116857238329162394e-02 4.494124137874506986e-02 4.916438659962861224e-01
1.031084970615700896e-01 4.123935654321991134e-02 4.615243983157580332e-01
6.964445221941928388e-02 1.242305441979112135e-02 5.181907652308815893e-01
9.062807328693889275e-02 5.647494309147664537e-02 4.547980545425710508e-01
6.245508586918829125e-02 1.798135848967803360e-02 4.525846177147211935e-01
3.953665659773593355e-02 2.445814064433623689e-02 4.459304299146956696e-01
7.477577227798160031e-02 1.267403501539227269e-02 4.592832727898775724e-01
5.011378509197996628e-02 -1.361485562888479529e-02 5.295746365156831503e-01
-1.793882912886264266e-02 2.377868013587416604e-02 4.454897868769772118e-01
-8.995833845926521494e-03 5.432333872961768971e-03 4.395354759958262081e-01
-2.035299567774172258e-02 1.676698450478792540e-02 4.454737628278811479e-01
5.925922561042900466e-02 4.805330887785203009e-02 4.462170299647666982e-01
-3.488292432168424786e-03 5.862024710036541249e-03 4.395410703750882719e-01
9.750765532532915114e-02 3.426384687720988170e-02 4.862947089672037815e-01
9.477876544535376868e-02 3.729689944699929316e-02 4.578598263716137651e-01
8.599536617007297323e-02 1.177847371609861554e-02 4.911964170051933420e-01
-1.799860649258352985e-02 2.974655261956046792e-02 4.466121030047748852e-01
3.538810812219236879e-02 1.688931152359604212e-02 4.448303793993448885e-01
8.839941440989972435e-03 1.160452134647287255e-02 4.408356117743502112e-01
-1.096384811614191726e-02 4.075845259878249638e-02 4.459084625106125577e-01
7.149067966309360055e-03 5.518758382832848058e-02 4.467352152460127290e-01
1.123728083678271483e-01 3.197545167285848616e-02 4.660900691982544641e-01
-1.410579525154890754e-02 3.103195549062465197e-02 4.451311638648213220e-01
8.693794992022902540e-03 6.770973914301384178e-03 4.401764817503904248e-01
6.868349045383466411e-02 6.004765498401516688e-02 4.523624996150280575e-01
-5.557940542081966050e-03 6.457822154827929338e-03 4.396118287863842733e-01
7.844991816370597282e-02 2.950393293834373265e-02 5.167515115055876240e-01
9.705797270934539422e-02 5.213520799432804637e-02 4.731609015714778321e-01
1.014309132619614917e-01 3.714790128378239742e-02 4.806514639356305740e-01
1.092467287837355361e-01 2.898178951023874447e-02 4.695029225851037324e-01
9.613375024762775556e-02 2.666193917546532538e-02 4.863185862042068153e-01
1.006214598743688793e-01 4.027319336876737654e-02 4.811944409793221800e-01
6.268661684482075558e-02 3.828686078531410436e-02 4.483166543468871112e-01
4.608150656890212804e-02 -2.472268450939741399e-03 4.476135422032354594e-01
9.802780511584359424e-02 5.239586739822663791e-02 4.690597850642829747e-01
7.358690202185723395e-02 -1.479397866824101997e-03 4.696244494615766096e-01
9.997083495032321743e-02 2.348943462913081343e-02 4.768708335181802704e-01
7.138454161981341861e-02 -9.161987395572265824e-03 4.851185797712567194e-01
4.291116639406265115e-02 1.005399363110536307e-02 4.460959409684419064e-01
9.465250872519279102e-02 4.964468542812724289e-02 4.846459065391721666e-01
9.397057310342954439e-02 3.573344277060518798e-02 4.586965827069711121e-01
7.956630210728604657e-02 3.755851014957928974e-02 4.541568928766013813e-01
7.890839081375794484e-02 1.530331260638813492e-03 4.847794012437394162e-01
-2.947928652102209390e-02 6.436201144059024160e-03 4.440361326287164401e-01
1.079063223312155401e-01 2.859248380288491320e-02 4.677839480118134996e-01
4.180495785854981133e-02 2.655938055902828596e-02 4.464316674006385544e-01
6.685530898725609850e-03 4.355129168748476248e-02 4.434047206110354744e-01
-1.148028084024918516e-02 2.134843159650604352e-04 4.383660515710519068e-01
3.363291956556260787e-02 6.001715701743901704e-02 4.464089628905494878e-01
8.983239358518023410e-02 1.375591485698236284e-02 4.713801935563968759e-01
8.926559990502849762e-02 5.363916875027174153e-02 4.829576967174866731e-01
9.063211815820794437e-02 3.770221730082392447e-02 4.962878949904468429e-01
-1.576293031696677366e-02 1.598333390235441229e-02 4.432346497179122102e-01
7.845060685225496711e-02 1.723519518448778792e-02 4.596060356668301150e-01
5.485300428340854351e-04 2.700304964612508171e-02 4.421388088498630076e-01
5.722992478486035872e-02 3.819403941433602984e-02 4.474030009058075907e-01
7.982983719979513948e-02 6.705684314241707258e-03 4.978357897397346354e-01
6.791884461678278362e-02 4.412545727153190447e-03 4.585437754549946399e-01
2.927322811627132079e-02 5.709841479095179029e-02 4.457151166989715141e-01
1.016793107964198972e-01 2.426001880217956014e-02 4.752971557875876885e-01
2.377295449081736137e-02 9.049471798324149746e-03 4.422765406146640377e-01
5.456104365609879686e-02 -5.115070992040349381e-03 4.527666831146379134e-01
7.741521775407166073e-02 5.885762092689632297e-02 4.526381142523536738e-01
6.056493381235411588e-02 4.728175866278221118e-02 4.463641624835305577e-01
-7.613527359259780053e-03 2.509724502256008294e-02 4.427791233510825486e-01
9.488983428632312422e-02 3.473599815849433281e-02 4.592427460369548076e-01
2.297903582313651910e-02 3.750736589840589739e-03 4.411027538629357370e-01
8.504372050597731880e-02 5.456942257100425714e-02 4.839400623119711198e-01
-4.055779399806833108e-02 2.995299854140299600e-03 4.466067139492319038e-01
6.837868537314625850e-02 -2.192616453481692831e-03 4.629560668553144298e-01
9.087941252969790329e-02 1.491288147434450054e-02 4.824869792193330342e-01
4.236619144869221976e-02 3.495793454859042609e-02 4.461296623545071838e-01
1.761348562160514747e-02 1.540199881876441745e-02 4.419970310428888438e-01
1.115900989681775229e-01 3.296496988137980616e-02 4.698144493056657933e-01
9.803292258115321733e-02 2.800413398354764313e-02 4.843736322976096575e-01
6.441500070629288532e-02 3.931502594946682805e-02 4.483355812482722191e-01
9.666353542469383053e-02 3.630308670244553060e-02 4.871473984962849113e-01
1.101431256677284504e-01 3.226780975354489461e-02 4.642382294252322406e-01
1.806247606829710500e-02 5.049124168972714960e-02 4.442729854767850095e-01
-1.689435476193271515e-02 2.120311595930209417e-02 4.448236229684457421e-01
1.011072517692046813e-01 2.795521432047277238e-02 4.789162256541820151e-01
4.683731862333202767e-02 1.951704824540489644e-02 4.476181982881602406e-01
8.528439456199236879e-02 2.590745460504455949e-02 5.066980189269315593e-01
4.970895878132673001e-02 -8.666354303222996436e-03 4.506601689261214294e-01
8.651245341834477853e-02 4.346772893520856051e-02 4.976606621051636314e-01
7.303391548248056031e-02 1.082089259254189568e-03 4.654634432931026300e-01
7.699577347805158789e-02 1.926560774001553206e-02 5.154160355984611641e-01
6.668898195667827267e-02 -3.575360863694297155e-03 4.623162171691402866e-01
5.630271073417407457e-02 3.741357902083046472e-02 4.474553859932761668e-01
7.968746617874122862e-02 3.420742572897016165e-02 4.558641849878565244e-01
1.102433803029525816e-01 3.105836244586642966e-02 4.651168039196411086e-01
9.065442847586109576e-02 1.816529875391524954e-02 4.878809865837887561e-01
6.385193288821496005e-02 5.612773451512049344e-02 4.469085823024426807e-01
-6.690549161264152701e-03 1.165072832170954004e-02 4.401725662746600043e-01
6.674936741862996792e-02 5.354942464251792600e-02 4.464806685002303266e-01
-2.540521376029746675e-02 -1.494784403192608510e-04 4.400856153362107115e-01
1.395808291061481285e-02 1.043742012990962059e-02 4.412409028944639378e-01
9.611017622551480677e-02 2.726392898467870293e-02 4.866947284843780031e-01
7.175075003317644973e-02 1.634801186897728593e-03 5.020419537352804884e-01
7.089824312048888244e-02 1.882903300445533477e-03 5.039629117906135880e-01
8.325048624462361158e-02 5.810438384346435642e-02 4.556454703773229475e-01
7.286108216794384695e-02 -2.462423968065276855e-03 4.697688595414437618e-01
8.592437643302239247e-02 4.192482111535801581e-02 4.525743942517579388e-01
9.888371875803771138e-02 4.754143788877066706e-02 4.794473211378671440e-01
6.191690907830992713e-02 3.497299126565021898e-02 4.490582999910987527e-01
1.027674595057440493e-01 4.062411353462564573e-02 4.604900789306371478e-01
4.277227116627974751e-02 3.499543950858045004e-03 4.458585132143788599e-01
1.066763413260434501e-01 2.740531679468805742e-02 4.679259474359679372e-01
8.792571533679292839e-02 1.049735890360096145e-02 4.768181627632176456e-01
1.346722886696133381e-02 2.381945217342255894e-02 4.419044404948951343e-01
8.282722191775422627e-02 1.853762192932811859e-02 5.073379799078893138e-01
1.017691251916252593e-01 3.076004829708384528e-02 4.795140843722723867e-01
-9.265004228790927471e-03 3.341727767278855621e-02 4.444006591358509728e-01
7.527811145865935527e-02 6.605771275841296718e-03 5.041592188423971166e-01
3.258176095743247746e-04 1.872046532220762727e-02 4.409183214797651185e-01
2.222157670673927457e-02 4.971604465117023669e-02 4.442161468646799727e-01
3.143741301716040243e-02 5.681659142795829343e-02 4.455037705475340393e-01
4.732201430019181143e-02 -8.031423024397297758e-03 5.294056520949608213e-01
-2.302087953718860713e-02 1.309467998567051018e-03 4.401335942144083968e-01
1.002310081999699537e-01 3.684744987471285510e-02 4.822455306621772353e-01
9.652780004555756854e-02 4.238345997026701090e-02 4.541594073780070295e-01
-1.433458797115424316e-02 4.412599773307508688e-02 4.479332409598122400e-01
8.676767660760122125e-03 2.413639208979787357e-02 4.416718610414021029e-01
6.944991860789548332e-02 3.534930029822993397e-02 5.170810176214358789e-01
9.773026905087119076e-02 2.870346967299597374e-02 4.610913705888393666e-01
7.200593799802966488e-02 1.718878423980136141e-02 4.565457830042914944e-01
6.576895520724235222e-02 1.376946267119882406e-03 5.120351079370477621e-01
-1.585053340369536054e-03 2.901219363825176950e-02 4.425807474867193281e-01
5.160174170151397843e-02 -4.163220173035595863e-03 4.506804524605332318e-01
3.219177925731924600e-02 6.278785757342740526e-02 4.490927561806380419e-01
7.134274561338554976e-02 -2.904570486444183960e-04 5.000967199806827246e-01
6.437010153173136628e-02 1.230005851233605986e-02 5.237599125072999184e-01
8.642228233492142697e-02 5.288660578410156465e-02 4.863938325534148399e-01
7.625322594557373823e-02 4.076977829883189804e-03 4.661973227682598697e-01
8.126899626465185211e-02 1.072583430558873147e-02 5.014933798921538122e-01
-9.439186855226140357e-03 1.402033082614252864e-02 4.409697780287193392e-01
5.288949958651956162e-02 5.191253465277497793e-03 4.500494444160427210e-01
9.439639910036913550e-02 3.135093833009783282e-02 4.914068317870800562e-01
9.387850987224648225e-02 5.170269201704991158e-02 4.820987057546302634e-01
9.450764627248336991e-02 5.464783464525485579e-02 4.574565826525857637e-01
6.942612621961977148e-02 1.794676936786181870e-02 4.550673752234076774e-01
1.021623541979175959e-01 3.632024320045294102e-02 4.799681724302814478e-01
1.010968415862864428e-01 4.788742427177619665e-02 4.681004190790709618e-01
9.729854241937688220e-02 3.274338152056725099e-02 4.866264847734777521e-01
7.499976795251518669e-02 -2.256517007028636772e-03 4.885946214729092740e-01
7.498548842060644148e-02 1.976609782587790409e-02 5.178371432487096637e-01
8.745811045877810441e-02 3.517423177016464064e-02 5.024711462360414993e-01
9.275547674597692249e-02 4.670388759254110594e-02 4.888688162117300617e-01
3.206238979062882299e-02 2.324772290385779955e-02 4.444992150650660667e-01
5.958385972547124848e-02 4.058663909497593758e-02 4.472243538285685660e-01
8.716846590361004843e-02 5.532278044935159955e-02 4.794310038563774912e-01
8.604281010120379269e-02 2.203091206548038819e-02 4.613186232510054219e-01
4.306224741828257319e-02 1.425142114544633923e-02 4.465196651965744334e-01
7.303491070759773537e-03 5.114277420390197886e-03 4.397805536748388699e-01
1.610334618149819944e-02 3.583256131541331935e-02 4.430738508057869840e-01
6.904827886370529244e-02 -4.217845387904691455e-03 5.000583207707842703e-01
1.071089065224181958e-01 3.355628426140800508e-02 4.618697908503441307e-01
3.428999832467389403e-02 6.182899256202915167e-02 4.480305801696387036e-01
1.087519155891922967e-01 3.092217912230444885e-02 4.644803963453933426e-01
6.915891601424170587e-02 5.813114629160224395e-02 4.502433464212148850e-01
6.410491757784921030e-02 -3.347161010677059470e-03 4.591086127775613757e-01
2.329263615201036808e-02 2.303797743984798557e-02 4.430555127287367778e-01
1.023564802031588644e-01 4.326665399709623411e-02 4.621759034571961133e-01
7.045383376611835669e-02 -1.003054164099866433e-02 4.814345632591575663e-01
7.913538204010799049e-02 1.095711067124067843e-02 5.050331392707509970e-01
4.643476295464778192e-02 6.382893346874879414e-02 4.504121804363488413e-01
1.050017979072715713e-01 2.496124108381283721e-02 4.706382678735057112e-01
7.577027455893235730e-02 3.639902462360533608e-02 5.114786845225921530e-01
6.621475978677270058e-02 5.013764315649618664e-02 4.462324909893223279e-01
9.093516538239164448e-02 5.562951763764017316e-02 4.728186337405308470e-01
7.408150499174397108e-02 1.068151765477925313e-02 4.596114467459655462e-01
6.586605807894642395e-02 4.452176602681049561e-02 4.472989211891259531e-01
-2.148011871174291404e-02 2.119424928162673763e-02 4.467104601688116627e-01
9.201242111305725502e-02 1.762859657676384834e-02 4.844734048781454416e-01
9.868326164108492948e-02 5.029177977551822082e-02 4.595596592435700622e-01
4.494394626566889511e-02 4.757544168356699077e-02 4.454545257856151741e-01
8.982331185102922222e-02 1.326846152522589278e-02 4.816504301565555091e-01
-3.273749668356726143e-03 2.703018891162987936e-02 4.424934228799768388e-01
2.972145604484960693e-02 1.122505679887206634e-02 4.433559260511202305e-01
7.498551389283980920e-03 1.266435349199226783e-02 4.407922161385560145e-01
9.569080176907356072e-02 2.988473915287987587e-02 4.888223619031132339e-01
8.639509835639580526e-02 2.734473490598705869e-02 5.049573997443178586e-01
5.248943487625622184e-02 -5.949105319626240944e-03 4.517347262911338146e-01
7.499991409084601213e-02 -2.861547411851985117e-03 4.867660058120731326e-01
3.323756492380788158e-02 -6.483945575289233425e-03 4.415289345564828993e-01
8.486421421488427042e-02 9.169050569027920039e-03 4.880087538285489690e-01
-1.058018219735824827e-02 2.275210967901410489e-02 4.429331563037243180e-01
1.084008635618695510e-01 3.643476581604446207e-02 4.617846276277820516e-01
2.593431206814520579e-02 4.575554239818056118e-02 4.441734291694685033e-01
8.829601875951646750e-02 1.093359085901172457e-02 4.770556387502912776e-01
-1.148913800498685411e-02 4.525157585978329365e-03 4.396392388300203735e-01
-3.462464116179534562e-02 2.427984840399373574e-03 4.429956208545595131e-01
9.199738444448037067e-02 1.551295774678753368e-02 4.803912397946134560e-01
8.130118380351490648e-02 4.243495734838708885e-03 4.794225360582172191e-01
-2.534267964660081446e-02 8.590808549533694716e-03 4.440678795806677903e-01
9.298351993984030339e-02 5.332532608566230986e-02 4.772991767362440019e-01
4.185841966213825482e-02 6.061091188398196050e-02 4.460544606781224330e-01
7.043840665544849611e-02 3.656570131790007339e-02 5.133288948999967793e-01
1.106226968276996653e-01 2.960692992197540285e-02 4.712290393836349178e-01
1.003333350805528240e-01 3.343573493207058211e-02 4.823831261079594146e-01
4.652478337204932896e-02 3.774790877220529639e-02 4.465182608581608203e-01
8.468828011206887274e-02 1.602965933812311103e-02 5.014216785354550510e-01
7.023883151828128057e-02 4.503866393777111732e-02 4.476569387859358207e-01
6.939547725151462565e-02 -9.076074806695063127e-04 4.628417743742733181e-01
9.044285233118150302e-02 3.376939833662456064e-02 4.602861312774202962e-01
2.672156485054237932e-02 4.955199967125321209e-02 4.442879481430346278e-01
4.151379944595832289e-02 2.431662339881255491e-02 4.463489935480244308e-01
-2.954565839120745774e-02 8.372198006001302720e-03 4.476646712264590877e-01
8.003140047744755625e-02 8.323308113016871651e-03 5.002056769198721664e-01
4.487449960671027749e-02 4.031627533611688990e-02 4.460929107960228679e-01
2.598484854947555669e-02 2.160104670731707172e-02 4.434107384660851414e-01
-2.600988639814377432e-02 1.402666986680101147e-02 4.474167026554095039e-01
3.970702687229790695e-02 2.450763946291470777e-02 4.459670708230810132e-01
7.742800561839538465e-02 2.087949251068775200e-02 5.158030808229905340e-01
2.881660696997550078e-02 4.778416192554210684e-02 4.442726898406612612e-01
9.418060880699086201e-02 5.217015692293059531e-02 4.550755198080961295e-01
5.101416144267360842e-02 -8.711190856747557179e-03 4.515973910603874875e-01
1.037599886873075417e-01 3.228127869722127036e-02 4.780236792251647548e-01
-9.767357790005436885e-03 1.189539635448033129e-02 4.406123923316481172e-01
-5.426048283020722465e-03 1.964004032510502373e-02 4.414453267875204645e-01
6.839088941151616474e-02 1.909192250935805996e-02 5.240471449880189647e-01
-2.999907238434401657e-02 6.543116134959848715e-03 4.452626408000360247e-01
4.991848905792894975e-02 5.394464892947441192e-02 4.452230552299084043e-01
8.222575324033799815e-02 1.858326822882946580e-02 4.609164111316740864e-01
7.134552557118782612e-02 -6.142343843619068461e-03 4.730534342482684562e-01
1.021459163010475374e-01 2.968289977885959705e-02 4.620445936593573499e-01
4.749960249264776474e-02 3.203392286357752833e-02 4.470920994001429949e-01
-1.071935863690965524e-03 -1.819135682439110150e-03 4.378218724736420708e-01
6.911539102405601931e-02 4.252101479822691793e-02 4.482584928388008705e-01
5.164862261289984019e-02 4.356348220819307449e-02 4.463958516169748703e-01
1.037668876889756564e-01 3.881408402617925885e-02 4.578266950929662515e-01
5.074468766926411994e-02 5.514385722077730367e-02 4.452869944203198260e-01
2.735830274874096260e-02 1.950735991847648079e-02 4.435482313957490597e-01
1.011568584996395438e-02 1.163561284457655977e-02 4.409610514265319692e-01
8.794729327294466270e-02 5.468450525968390763e-02 4.807494818187532104e-01
9.456082637211724040e-02 2.043952459731931959e-02 4.825915965933151863e-01
5.720130631000125421e-02 4.398240719892094336e-02 4.466194572814544128e-01
7.263177904113042593e-02 5.976392698583762875e-02 4.522647284989663174e-01
5.647361421801770642e-04 2.989326607488776086e-02 4.424924731639558462e-01
1.026196425076986857e-01 2.470601987553997306e-02 4.677683361490322378e-01
7.782102766131943072e-02 1.500066888410108053e-02 5.110568092010386865e-01
9.011030964473865090e-02 3.878660607090125834e-02 4.564362666310946004e-01
1.050998635003281244e-02 6.679939397945516139e-03 4.402784565129834182e-01
-1.751210940272477506e-03 1.684435925795407796e-02 4.406938478763745004e-01
6.668770901328992251e-02 -1.266113195747085775e-03 5.074418191068179596e-01
5.042752248199448145e-02 -1.137363949880264118e-02 5.286088890148239461e-01
4.957377284722608302e-02 -3.980091290501856782e-03 4.494620997500305970e-01
3.972535398474996704e-02 5.201527433641863624e-02 4.450533163314933649e-01
5.873473520524563618e-02 3.237124598337214748e-02 4.491669991848306620e-01
9.904738320482618652e-02 5.118419943734008049e-02 4.677570014171548163e-01
6.247777989744706523e-02 4.506957289935153987e-02 4.467338541481289949e-01
7.798235362493362299e-02 2.605360790870876395e-02 5.171874229552879676e-01
6.791188410021889443e-02 5.667773275326075388e-02 4.486115052595371355e-01
8.927169670028757553e-02 1.415063723065393235e-02 4.855011384382888484e-01
6.088780007040363318e-02 -2.006018127448185723e-03 4.555860775478450808e-01
5.633112962066468693e-02 2.074884663131313679e-03 4.519288148448399323e-01
3.591136056976129698e-02 1.766525780984477823e-02 4.449756177531479229e-01
3.230181575487446610e-02 3.015844999256122455e-02 4.447178327481795534e-01
1.071512495290749128e-01 3.349623284309345000e-02 4.753340227018820197e-01
2.680410758512609751e-02 2.894598186457134764e-02 4.438080972599864893e-01
4.034519253483925122e-03 1.747186660912738998e-03 4.388886047763257969e-01
9.556548581499765826e-02 5.400474720953501312e-02 4.713322145105779959e-01
7.660908808619276700e-02 1.075116364786728477e-04 4.739750802120750173e-01
6.154848261806755705e-02 -3.577054521850150416e-03 5.151981203407313137e-01
6.312973908199881468e-02 2.092038252316633790e-02 4.524132183289554798e-01
8.290574942444961515e-02 2.542715003472128740e-02 5.101809775877879094e-01
-1.039685537163724006e-02 4.735271528804549379e-02 4.473429404485662619e-01
8.592921819089480162e-02 1.118037125291284663e-02 4.697977360452099127e-01
-1.467946401107057298e-02 3.921071299139487765e-02 4.471791841790951350e-01
8.809611206718329091e-02 2.013518366109531485e-02 4.972582945132387744e-01
8.127945113898976670e-02 4.214451768378107803e-03 4.781711486838837177e-01
7.570295978557797789e-02 6.629418069892033770e-03 5.037077895187306309e-01
4.725665446035699768e-02 -9.143866452077167861e-03 4.492498160516704142e-01
8.610131238984672364e-02 8.733770320613377935e-03 4.745309296592309933e-01
3.852903022046184206e-02 3.285262375679059293e-02 4.456088014808134989e-01
4.894862302508395935e-02 2.099070763000867104e-02 4.481272539018669177e-01
3.338962470091201562e-02 4.505055014680844211e-02 4.446906411458013131e-01
9.608255927788296458e-02 5.239190857590807909e-02 4.743047286073006075e-01
4.427908384530548219e-02 6.312531156587324402e-03 4.463614866597893638e-01
8.266061484185356634e-02 6.872579832419218812e-03 4.898923027331482105e-01
4.904793682740632432e-02 3.054979929513266385e-02 4.475225486660227014e-01
5.154590905526563321e-02 2.769950712861833295e-02 4.485168278461451608e-01
7.168803892457885352e-02 1.475600427786919605e-02 5.176768399340136995e-01
1.001384333093331969e-01 2.811093078716283070e-02 4.803939376243520076e-01
4.572101966333118328e-02 -2.592555416333717361e-05 4.473363449173616835e-01
4.562944250881006275e-03 9.253912462208486317e-03 4.401582689652424052e-01
8.613533677392416765e-02 1.117739754498294109e-02 4.700661500620118560e-01
8.502428974208049717e-02 2.489392573667014580e-02 5.070149958785165056e-01
8.906409201498693973e-02 5.447256973604335667e-02 4.800558527176160828e-01
5.098976462510110969e-02 -1.145042134770882583e-02 5.281117269559700844e-01
9.343676166274494932e-02 5.297693171635868559e-02 4.781439703759463034e-01
4.374297125819171655e-02 3.104848584095910163e-02 4.465009398852020084e-01
1.211240136039808471e-02 4.681629121819558953e-02 4.437067830913195565e-01
-4.520157563113989807e-02 -1.283765272954580892e-03 4.425084273125805545e-01
8.285766470444377862e-02 5.818782264082033792e-03 4.729589699831377447e-01
1.061660064152114002e-01 2.967692955111689290e-02 4.749882192234601841e-01
9.525137559299563794e-02 2.122821440761421541e-02 4.821242347506660142e-01
6.024091378393832408e-02 -5.835924037170260939e-03 5.165854020973791316e-01
-6.675621458774848478e-03 3.257287815036057077e-02 4.437889204502535323e-01
-1.512820202038312953e-02 3.547498817110875807e-02 4.465954536411260167e-01
-2.737052995242823805e-02 1.249749434444137261e-02 4.478079781451609342e-01
-2.050559708546058693e-02 2.627935886384318021e-02 4.470855891092667678e-01
5.450423173828465584e-02 7.230946140156734557e-03 4.507171013971040252e-01
9.138713206923883281e-02 4.637539459604712172e-02 4.907234505228104116e-01
2.353494266200075943e-02 5.035962044638883639e-02 4.443708490936332245e-01
-2.305774425436041275e-02 1.984960457159079539e-02 4.473154554447711928e-01
6.786631607825366341e-02 7.799112296527388119e-03 5.163415614326798408e-01
1.633144327662699666e-02 1.848658518408637791e-02 4.420669784065403563e-01
4.502791274377569708e-02 1.387531745276048348e-02 4.471343396435691897e-01
4.680726680727541333e-02 6.381947482068346666e-02 4.506271009198539179e-01
-5.531995404547702250e-03 4.233339683975929912e-02 4.447788565215665679e-01
1.972027915496766398e-02 1.664879099450105801e-02 4.423378861551588437e-01
3.179296168561821911e-03 3.714819886403364357e-02 4.429990807883916748e-01
8.097895411843934743e-02 1.401355783567126076e-02 5.059347831891386482e-01
6.967251186612617719e-02 9.928747679049772928e-03 5.163055464660184501e-01
1.046489610897950034e-01 2.607376571651360067e-02 4.743414690065751449e-01
2.843084564082203405e-02 -2.504291167304664115e-03 4.406552393725041150e-01
4.772286399298118764e-02 4.249316061395219668e-02 4.461865787075063317e-01
6.346824354171769211e-02 2.789556827083259846e-02 4.514212055881712815e-01
-1.479527324371994815e-02 2.345063702887337578e-02 4.442309320832127928e-01
8.183909574685885313e-02 3.037186510008590967e-02 5.121105254182510835e-01
-2.324659062184816077e-02 7.911357299148611202e-03 4.430426618546072226e-01
-7.909230973965166930e-03 2.968194982274707100e-02 4.437413878985304594e-01
5.609744057049891042e-02 5.605939768178658938e-02 4.458791895133767946e-01
-1.233492679031592335e-02 4.925987366955882074e-03 4.398027497860064750e-01
5.757936300649808825e-02 3.541848524914096435e-02 4.482101995048322629e-01
-8.212923107831157643e-03 1.768495130737843864e-03 4.386977555041309818e-01
9.784936011973242864e-02 2.460208606859832017e-02 4.645322841614010212e-01
8.715359074751483082e-02 1.293102568940827229e-02 4.893814211228609823e-01
4.227262844742837172e-02 1.192286199136947770e-02 4.461188501139292661e-01
9.593400655991665693e-02 5.007860862986446282e-02 4.553886623597545036e-01
2.438000313551186987e-02 2.553066000993047674e-02 4.432127885394230860e-01
8.056108460587378672e-02 3.938505327418487939e-02 5.051924337286969324e-01
7.866720310879814215e-02 2.598651465652872597e-02 4.560418616337570952e-01
8.656465911695250537e-02 4.708655735389198627e-02 4.501529702256089616e-01
5.075688807407847947e-02 9.941241226532181868e-03 4.491509257224470253e-01
8.066905596129203548e-02 5.940441522454840972e-03 4.945137132430298399e-01
5.309193539938990292e-02 9.867141152185215230e-03 4.500814840940706718e-01
8.529364537128368562e-02 5.430834350162266899e-02 4.511580495995365370e-01
9.995650347667571836e-03 5.318370979640642260e-03 4.399832609918377657e-01
7.709732963878976331e-02 9.489187277225499123e-03 5.060346239090820486e-01
4.966839620869892280e-02 9.581472876227504348e-03 4.487445028171824779e-01
4.889261222126334988e-02 4.691627022625103477e-03 4.482985890017183173e-01
6.981609275377553825e-02 -9.440212370743331777e-03 4.939301399765088640e-01
2.398121288227746117e-02 1.383736515098080329e-02 4.425837456792839908e-01
2.050020286994862218e-02 -3.787498947936123947e-03 4.390262796036127346e-01
5.558967366520083109e-02 5.979477232580520524e-02 4.483895925920960979e-01
3.833350104577710332e-02 5.347978552987113499e-02 4.450310014225928312e-01
5.333056982139861013e-02 4.643535015025490598e-02 4.461382790280868371e-01
9.338932572692477951e-02 1.814712000711635534e-02 4.726599112614301434e-01
8.120245618513867447e-02 1.492433335195502558e-02 4.615857049436229431e-01
-5.993503965217728512e-03 5.251300278815099892e-02 4.480461999340420998e-01
6.999542411341347359e-02 4.853366305346013682e-05 5.031337697827648059e-01
8.933943311595313186e-02 1.700236715668757004e-02 4.669903113433761521e-01
8.703731024547201045e-02 2.292619765867485310e-02 4.611570792302994160e-01
8.054053262033704363e-02 9.164923991642089790e-03 5.005420198423801148e-01
4.172391149638714214e-02 4.180203878361542225e-02 4.456642677041516287e-01
2.677815389130703411e-02 5.607312339828539327e-02 4.455285867199109684e-01
7.708780915693817792e-02 2.904826966179411066e-02 4.553361016657866966e-01
8.615145729849156553e-02 2.401846729591996382e-02 5.049360527231596674e-01
8.483256185160077678e-02 3.027256467135156295e-02 4.584963097585237901e-01
5.648327324421733436e-02 4.124171277013594789e-02 4.469604637468602704e-01
6.498408738840327770e-02 -3.688782251526694696e-03 5.090749259799658422e-01
7.171675165370426652e-02 -8.570050124579006029e-03 4.851810144608879050e-01
1.490093644341383694e-02 -7.240569785103511367e-04 4.388767748067359808e-01
2.657401423925113623e-02 5.965435858838592786e-02 4.473637195871811301e-01
7.997501892134099843e-02 2.035060730040514840e-02 4.593199304464244959e-01
3.438640822321119978e-02 1.880145859936960956e-02 4.447499692558173345e-01
7.285110274974541944e-02 3.417767969729728489e-02 5.180596364187619596e-01
8.686315303065424154e-02 3.231703039045162595e-02 5.042845668606120713e-01
5.695584127403360841e-02 6.849887137134181431e-03 4.517612576568473259e-01
9.347268010746820344e-02 2.548521412909155598e-02 4.619846948280831311e-01
3.767386028284162164e-02 3.119901475446057101e-02 4.454951431099096193e-01
7.949956353892573269e-02 8.278284340295212484e-03 4.656228142075186649e-01
7.751266851258292734e-02 5.886787002798116869e-03 5.003853194992673448e-01
5.114166114119441525e-02 4.676717207894359740e-02 4.460096069211029746e-01
8.819463974178637367e-02 1.883797865160152449e-02 4.644841203600997281e-01
9.571974514814199364e-02 2.862686363560455055e-02 4.879132701131771999e-01
7.011387620393184916e-02 7.674045853995999783e-03 4.586393467093360932e-01
7.357583129806476163e-02 5.856804018200260920e-02 4.491610117120048984e-01
6.374552859119007875e-02 2.583965166766347826e-03 5.166836461667612124e-01
1.035683675898795147e-01 3.523485030448499089e-02 4.592392668295652292e-01
8.265821247905535962e-02 5.564960952635066189e-03 4.779680534158604610e-01
6.818079522583500585e-02 2.703777143516612053e-02 4.526896512863402000e-01
7.146823867488955040e-02 3.340724520436891276e-02 5.204103266969442032e-01
1.018635713670572873e-01 3.815703665268382200e-02 4.799325791473088576e-01
-1.122909932957985232e-02 1.935977194190556527e-02 4.423156099793076890e-01
6.676666177065919416e-02 3.521919487088281259e-02 5.203406663738048277e-01
8.967468349315366183e-02 5.604372515420886353e-02 4.543493211688589550e-01
9.257137243081520195e-02 2.642827662303613018e-02 4.919015526102437641e-01
9.028794069221479646e-02 5.495838359657390093e-02 4.749324067605508182e-01
8.633934135984193403e-02 2.538456695862698759e-02 5.047919771334165029e-01
9.056038615806397823e-03 8.342572822681014813e-03 4.405255872949762619e-01
8.527981008100352089e-02 1.415038639309699510e-02 4.655782600790750458e-01
1.299441839710921594e-03 3.075977836150421349e-02 4.425357784402252359e-01
9.566422967729820703e-02 5.853749604347270596e-02 4.621101113542983030e-01
8.594352702887275708e-02 2.509623061237380159e-02 5.054422444086623667e-01
1.032041405430797650e-02 3.814659905728198797e-02 4.429237456331602818e-01
1.005912212648350373e-01 4.732924761845580530e-02 4.735363043991239196e-01
8.200487883673907019e-02 6.387205219460529576e-03 4.914498158570374531e-01
8.551706681684087541e-02 1.581427378893869931e-02 4.990577084821327669e-01
1.037890640020908695e-01 3.793348879587974537e-02 4.776905680746926230e-01
8.075158051214351151e-02 6.110331961943670648e-03 4.947027783756305919e-01
4.855654921032374893e-02 9.407926219397774736e-03 4.482877485064529210e-01
7.659191036143320197e-02 2.745917136102039510e-02 5.189607132933379274e-01
7.522077758888867649e-02 -1.574419191969380141e-03 4.740173052192119818e-01
1.098892407443146924e-01 3.314652945887978236e-02 4.722795034917956492e-01
3.825322025778767759e-02 2.924681507389565588e-02 4.457023715352260163e-01
5.652260709060907135e-02 3.258899198849157797e-02 4.487157067449403791e-01
8.153174082186240290e-02 2.929073274376428615e-02 5.125041886601439112e-01
-8.088481385706561971e-03 7.533681359379698281e-03 4.397107914365932513e-01
5.349629473227918847e-02 -9.979701707549902892e-03 5.255347990371330713e-01
6.843278001259021914e-02 3.129736775723164239e-04 4.604772260283924168e-01
3.611024895376371141e-02 5.815406365036466380e-02 4.454792238293627249e-01
7.653620000425201408e-02 2.897033060853697328e-02 5.191158190982952947e-01
9.480546220380500766e-02 2.400578768891240347e-02 4.635851096686285366e-01
8.034617367375837538e-02 4.249289407967039855e-02 4.507349753945915083e-01
5.653983729246251505e-02 -1.052798039566591728e-03 4.527160925718511919e-01
-1.430115343721292259e-02 2.603624176341376092e-02 4.443559590104588231e-01
6.118506567661347734e-02 5.889802138177920726e-02 4.503968268299155531e-01
5.093935094908934313e-02 -8.999147103325092281e-03 5.272548666943691620e-01
9.028134553938942097e-02 1.842559780046280210e-02 4.668021811517258923e-01
7.677508809133154477e-02 5.895686917052009313e-02 4.555332612283146121e-01
9.790990502891262770e-02 2.529097232363182457e-02 4.830011144301986081e-01
7.441581782712126947e-02 -1.146365400994075936e-03 4.929825756720780383e-01
3.924513888101497858e-03 1.098064673717101189e-02 4.402876922845614938e-01
8.351264537634567331e-02 4.154708148424391539e-02 4.523525410258117940e-01
5.211149160321530693e-02 6.106873570230759302e-02 4.480239987161478976e-01
1.540432228166090621e-02 4.572186945936724395e-02 4.437203016458620697e-01
7.127156663506808987e-02 2.071495293982325570e-02 5.220935581853556329e-01
7.100155926462256573e-02 -4.304062262600382403e-03 4.691288194353616103e-01
9.889092615385743079e-02 2.366571591538467467e-02 4.796155208223616406e-01
8.027266705708466232e-02 4.275993774526595098e-02 4.504484913845983596e-01
-9.184353622461399400e-03 1.665404738535396223e-02 4.413835213007253344e-01
1.021934876260844199e-01 4.470834685555008514e-02 4.663132183753230242e-01
1.000109668961921133e-01 4.588023623618993352e-02 4.594948429996843497e-01
-1.699132001922468160e-02 2.179904006195611255e-02 4.449846334385035296e-01
1.023557579436879528e-01 4.530466834958052358e-02 4.680397460938610088e-01
9.847885541791209785e-02 5.154547310657960069e-02 4.714272600039614569e-01
1.596125916133872211e-02 5.753233015539858941e-02 4.485865338051792106e-01
9.273487291360382745e-02 5.799768144525051933e-02 4.565909970306201160e-01
4.225032814127767378e-02 -3.200035046219950989e-03 4.459426226488758527e-01
3.068049196284754719e-03 5.124836215746225027e-02 4.451887665225496837e-01
5.883110908810833956e-02 -6.536343413759161496e-03 5.191505059058916238e-01
3.998116722370309573e-02 6.547451814069837894e-02 4.502576212586472115e-01
7.743736665171498113e-02 3.071462227672946271e-02 5.181199357472111577e-01
8.049366836506278988e-02 6.874673259515060031e-03 4.968370189563496298e-01
4.921576258683314081e-02 4.117842870464702432e-02 4.464110420008845503e-01
2.008358332510280786e-02 3.461113772643614750e-02 4.433502350017857196e-01
7.998795390327657906e-02 3.281192359951755951e-03 4.740607611658704257e-01
8.024112387366948151e-02 8.953453842602267579e-03 5.008907277810573655e-01
4.864677971523209687e-02 6.242883095648774777e-02 4.485915166125411524e-01
8.562982097157323391e-02 4.575296395924663417e-02 4.971074237680549457e-01
-2.573153326411360686e-02 6.049147358552954198e-03 4.428185612410521776e-01
5.313620099496881022e-02 -5.737712370685154294e-03 5.243588296773370461e-01
9.855219416545035749e-02 2.182297002514426570e-02 4.685958347781810085e-01
8.483738757685084508e-02 5.771283266919600280e-02 4.547259245154537943e-01
8.951288666160883700e-02 1.234803910874032393e-02 4.747869329367558344e-01
5.640122281578049956e-03 2.611424195229661294e-02 4.416762148945510003e-01
1.456637288777146849e-02 5.880304910505373267e-02 4.508844133248560149e-01
3.076829394822060831e-02 2.418282781788499980e-02 4.442851350530893084e-01
1.235950847173033357e-02 5.375134286075840262e-02 4.456530247287306956e-01
7.617675927454477247e-02 3.182492023005000642e-02 5.180267854002772454e-01
2.999321449896992162e-02 4.690216547967385186e-02 4.443697761014501202e-01
8.346740736187330256e-02 3.666751653987043724e-02 5.063554810258533712e-01
4.323085305588299926e-02 3.380202119237148140e-02 4.463362694385620277e-01
3.041067135125952864e-02 3.486397491086662415e-02 4.446735299792682339e-01
7.310908226721248016e-02 1.932323025014193174e-02 4.563799247986918273e-01
9.397775506593679384e-02 5.218418354387060337e-02 4.808403262552441992e-01
5.932220165763738007e-02 4.084379741341172265e-02 4.471744021454406859e-01
7.200246526163521510e-02 2.525113650535895649e-02 5.231308062077851817e-01
-1.408822294103502862e-02 4.075752762870344520e-02 4.471470089498909006e-01
7.942350179143009559e-02 2.871675485888603579e-02 5.154328191991585095e-01
1.015927624292488896e-01 3.679021159148773701e-02 4.805001509835691298e-01
