4.440365727462772943e-02 6.010970767703611300e-02 4.472186455605834388e-01
-1.818778561210179778e-02 2.023206279387803133e-02 4.453277849909224595e-01
7.159555719436452859e-02 3.977953207769305971e-02 4.512728067696157308e-01
9.692588954403477675e-02 2.167038772656562640e-02 4.714893679506493296e-01
1.092168087779972485e-01 3.111492356977087204e-02 4.740436713458492379e-01
2.231007696829956366e-02 3.469065666472914700e-02 4.441860065012416259e-01
2.533596256372019559e-02 1.075411164990558444e-02 4.430750407019817816e-01
2.053074560001081836e-02 5.786933230019766783e-02 4.472338954008691636e-01
2.316395995962007483e-03 5.161094711648153005e-02 4.458420051563790620e-01
1.231516021066583581e-03 5.458431922443084811e-02 4.477336944168927579e-01
-2.193281724677027117e-02 1.224355260951392847e-02 4.446232261820244891e-01
7.315324656320237873e-02 -4.275543450166941623e-04 4.957466389277029317e-01
8.656137658930546097e-02 1.657104403390410180e-02 4.956764236866955664e-01
3.211660491744816603e-02 5.550663494606621062e-02 4.460387093024559269e-01
1.941004103794411947e-02 5.785450834297486272e-02 4.474908091714303593e-01
7.559368018937361045e-02 -1.050819844803620000e-03 4.877706669375734827e-01
-2.191505629979268593e-02 3.507880016441865256e-02 4.506603629262828647e-01
4.499495794555118805e-02 1.071551128241247583e-02 4.475659394094004262e-01
8.442659812042538348e-02 5.335236261352088033e-02 4.879282502716678627e-01
9.439690429087307932e-02 3.957997363506553234e-02 4.588233104105801652e-01
3.986027748921178171e-02 2.805344714405662212e-03 4.454210082309217889e-01
2.128494229464298129e-02 4.516187200503633814e-02 4.444710528914098124e-01
7.977641403894267236e-02 5.361271919633254883e-03 4.940713583678494891e-01
1.419080398985025221e-02 5.812405857667264641e-02 4.506881562896000726e-01
9.307722644408281121e-02 2.509484442492451381e-02 4.644645336092516064e-01
9.717086611776969141e-02 5.228576000075869229e-02 4.739655219319812152e-01
1.444577262177322401e-02 2.377994150782362232e-02 4.424537290139262113e-01
7.886746028758657989e-02 5.927084252454269120e-02 4.602439393920700894e-01
3.255429198378048672e-02 5.898477642967611678e-02 4.466857161746973781e-01
6.360134784547992470e-02 5.825804551093387296e-02 4.514604141262389958e-01
5.495195184105726438e-02 -3.777087495145232694e-03 4.532783309486093093e-01
-4.171644600652276574e-03 4.753734953982454575e-02 4.453495032882939242e-01
4.503032210316061656e-02 4.070418589576192681e-02 4.470488264789823640e-01
6.022525726772073179e-02 3.868276914474703260e-02 4.491169187673497709e-01
7.563651001551378872e-02 2.496768386260631023e-02 4.568073953416529887e-01
1.494570066389477175e-02 1.889680555776367815e-02 4.423321730915785732e-01
1.525648596280469727e-02 9.243159176060885412e-03 4.415583459706934333e-01
7.406888370069486527e-02 8.304143884709957362e-04 4.692151321609137060e-01
6.742165505484408461e-02 3.127484097723767092e-02 4.528693827786818837e-01
6.302265071019376441e-02 2.621082349437055085e-03 5.181386768425678691e-01
8.179469470127644082e-02 4.546394240921791674e-02 4.510898009454053503e-01
1.616923161832069938e-02 4.138967040391267060e-02 4.438764738077202177e-01
3.662242079510830833e-02 4.949250442443855341e-02 4.456967385994991537e-01
7.358993507715115567e-02 -4.377321533934568423e-03 4.851632321154528693e-01
9.911158348497466075e-02 3.455023925941980156e-02 4.612214308480576674e-01
9.181047833698126326e-02 1.816229265610843496e-02 4.730897431486710825e-01
2.047627808545436114e-05 3.354923667761331579e-02 4.433055211366824788e-01
-1.345809239672194832e-02 3.102860165583526050e-02 4.450257598185848318e-01
3.811731860968605584e-02 5.359506375646582582e-02 4.459333305104976608e-01
8.089771367942490132e-02 2.471693928008495203e-02 5.135248159347152175e-01
7.566291744471635716e-02 -1.185871822442352737e-03 4.807224519079683067e-01
-1.596750970469899833e-04 1.290649961126084759e-02 4.405231838015856716e-01
9.111298871452043480e-02 3.733206124389227415e-02 4.957933150161870084e-01
6.887231637283496022e-02 3.747872218638538012e-03 5.098949935322186766e-01
4.512790244977620685e-02 3.729883873158897079e-02 4.473182762028251602e-01
-2.766774073069560441e-02 1.229648640388336309e-02 4.479766143736554906e-01
1.539151122040161544e-02 3.230816513630247605e-02 4.432435846247420597e-01
9.781437578900753493e-02 2.245866926752239714e-02 4.728189176998267018e-01
-2.422173671698719770e-03 3.588930042857574332e-02 4.437652165031041318e-01
5.919311809266387253e-02 1.138768237869837961e-02 4.533011133751798649e-01
7.586515182120567857e-02 3.456201917012288044e-03 4.977473013033719140e-01
7.723981244885742836e-02 1.720401986759165225e-02 5.141333894133885973e-01
7.981986160171833378e-02 4.954455071597512611e-02 4.501021270294232601e-01
5.533493225519977438e-02 -1.003450579949093265e-02 5.241372864766729034e-01
8.351651243227548038e-02 8.111190501992309593e-03 4.875336267790121303e-01
8.557370083060718280e-02 5.468391886299167615e-02 4.541700845411244525e-01
1.013814592537383430e-02 2.446947459433981842e-02 4.421495644057046315e-01
9.658664509131473230e-02 2.253739352537598856e-02 4.809859612920522887e-01
3.651042072410414646e-02 1.130998330297122018e-02 4.452057986777345766e-01
1.231428511888756072e-02 1.071780576915880995e-02 4.413916640115778667e-01
3.201445395449826342e-02 5.596343794187511045e-02 4.461122106600067250e-01
8.500220602139366144e-02 2.375425952221940987e-02 4.618265431004783816e-01
1.158498912193102123e-02 3.311908421587161228e-02 4.429424291808188863e-01
6.287646840699825934e-02 4.378016467370349218e-02 4.483842626489569216e-01
2.665132048545203539e-02 4.787733579338052103e-02 4.448682803294319310e-01
8.928448943783941216e-02 1.383557697659213229e-02 4.749045858924250130e-01
6.283418835651832790e-02 5.337274723976974389e-02 4.472722716423621625e-01
7.020970345709365290e-02 -9.171080504605305314e-03 4.796971152980056274e-01
7.049312328564816266e-02 -8.910163596855535939e-03 4.892535897915623599e-01
5.374260825944622566e-02 4.224660717153447959e-02 4.478039979272103732e-01
6.048852243366966558e-02 -5.052871963645061762e-03 5.163684586423475942e-01
8.590773792661264563e-02 1.683294765437743506e-02 4.661729072898659898e-01
6.785343414850769639e-02 1.510112816171584570e-02 4.565211043025018678e-01
9.520125742844547101e-02 3.789962996353465202e-02 4.598692553776874692e-01
7.760916264746084425e-02 1.085111684591334204e-02 5.069198767643566805e-01
-2.762152233252625905e-02 8.052919769722867438e-03 4.458214289347762760e-01
8.772640574265730407e-02 5.734388972875650164e-02 4.739767010263122304e-01
7.066925611316289546e-02 1.612876572192768754e-02 4.576190702430033008e-01
3.895169960684961158e-02 4.132499772073169875e-02 4.463226337931370802e-01
4.476840958807769277e-02 3.518095432877539619e-02 4.473825645975524901e-01
6.370843226581153484e-02 5.092920615394416761e-02 4.474339754535651137e-01
3.884728504768467094e-02 2.938053156875698388e-02 4.466091115676633638e-01
9.721993070964568551e-02 2.267168438638407849e-02 4.797003149295978597e-01
5.816738539115598461e-02 5.313950447883578065e-02 4.468805236554679317e-01
2.696408120291168137e-02 7.571611865439032731e-03 4.429067752804347613e-01
-2.265862953139297781e-02 1.194247923487380680e-02 4.447558041983941113e-01
5.126627734150362992e-02 3.185933024063537095e-02 4.488703493377589893e-01
6.825931866223501621e-02 1.019708581867575202e-03 4.611321200375234630e-01
6.787190739580899190e-02 -1.909339611412633978e-03 5.041359602014626740e-01
8.910041675649643667e-02 2.801779709717267322e-02 5.001742383982926698e-01
7.493051850099911870e-02 2.857729943691801958e-02 5.214675377822141078e-01
8.420876222540099598e-02 1.440782873310524591e-02 4.998124452838674237e-01
4.134725210997019021e-03 4.935183647540213048e-02 4.446795846393785112e-01
3.403196780635749791e-02 -3.194362209802419431e-03 4.426502383343340341e-01
1.021824905013306029e-01 3.995481490404895197e-02 4.592400966848484978e-01
7.763440536746885057e-02 5.980044730874448100e-03 4.677840171192533814e-01
9.129647450070790815e-02 1.752343398723300166e-02 4.844626336935330957e-01
1.285434793422104982e-02 4.566111040416844652e-02 4.441362909627734057e-01
7.527156668785270344e-02 7.916905245651705697e-03 4.629741870076913846e-01
6.793722686433986691e-02 5.342844756064529105e-02 4.481545225807496702e-01
9.567726411919855178e-02 4.776501760304337901e-02 4.851340780256056529e-01
7.868135059479640023e-03 4.391234720789515683e-02 4.438444986298186734e-01
-1.300558489802989756e-02 1.260489420979934647e-02 4.413717177865538743e-01
9.973665048314912795e-02 4.834577081157159090e-02 4.731104262275782069e-01
3.930808941406181700e-02 4.234930822564246522e-02 4.462846966848287855e-01
1.050768312867717685e-01 3.622811725339895178e-02 4.620461718464118350e-01
7.733699406121456732e-02 4.381591987321532128e-02 4.510006497528925573e-01
8.089883833599481600e-02 4.389832558331955431e-02 4.517736670410819610e-01
3.641535274637461642e-04 3.597068535818345042e-02 4.434416012347605074e-01
-4.050468873387699613e-03 6.731410375824283324e-03 4.398241556773831995e-01
-3.605395435978892699e-03 4.150900213175356263e-02 4.444867507861153810e-01
9.276688312378802981e-02 3.151253857531843838e-02 4.941022225275845670e-01
7.672023617304599141e-02 5.553247049933749714e-03 4.671317647124779149e-01
9.166429642286265389e-02 1.983509590094772665e-02 4.690464891867462405e-01
2.124940523274451362e-02 1.514789147904991966e-02 4.427899846509836812e-01
4.164892375219452630e-02 1.256286941675367752e-02 4.465957287742698956e-01
9.355129091714768641e-02 5.917410510074620766e-02 4.651965873171020061e-01
7.658089037899086515e-02 2.576997409204430725e-02 5.193214059948687567e-01
2.315885561767466044e-02 3.902193412671767225e-02 4.445919257733487173e-01
7.979798850931103804e-02 2.661762727066747589e-02 5.152815033514354104e-01
3.399300433761803103e-02 4.125811742513804670e-02 4.457873716974718459e-01
1.836635931244031544e-02 2.327902222280258185e-02 4.429309831998364810e-01
8.414037618490338710e-02 5.541834930180123547e-02 4.841706299193453966e-01
8.327187328894952723e-02 2.872999585976643636e-02 4.593930631353481675e-01
2.155235491505097870e-02 4.611279147672799755e-02 4.445060523416480280e-01
1.005665025598520834e-01 3.858755985324446858e-02 4.601326130936994052e-01
9.868198706138373022e-02 2.810987195320546056e-02 4.648429518622315126e-01
-8.245291405579328881e-03 4.457659264560367984e-02 4.459063315166489905e-01
6.351638790629669795e-02 -4.106349234855840961e-03 4.601828659619212059e-01
-1.548270354021592451e-02 1.312562876202781094e-03 4.394395149463561356e-01
-6.400543617564430007e-03 5.068837418719478183e-02 4.472015962333947270e-01
9.245667264812232333e-02 2.193640331278517985e-02 4.879067559594935655e-01
9.971040428563826552e-02 2.433322739362563103e-02 4.765120003063302301e-01
8.491543377558201378e-02 5.557266854258104821e-02 4.549823803848770942e-01
7.742061032816927035e-02 4.165514413589232676e-03 4.965546617003636642e-01
2.625324777922163552e-02 1.382112948940273853e-02 4.434176792123029620e-01
1.301600269523805510e-02 8.854804303239956556e-03 4.412247676684108444e-01
1.159501957412499562e-02 2.757649854802825609e-02 4.424875707206196718e-01
5.314717946881258176e-02 8.165417710105088780e-03 4.508719040813571333e-01
-1.710430267269696936e-02 1.484468174858316267e-03 4.396234231359442135e-01
1.559612697773526263e-02 5.291171600188111085e-02 4.456395024032202556e-01
7.752294088279837458e-02 3.244442138670260156e-02 4.570161218306522666e-01
7.937005721699041949e-02 5.768489289781313090e-02 4.542872697847456509e-01
8.736804102032562358e-02 3.152566071785554980e-02 5.034068663932452781e-01
7.042412121312473239e-02 1.781436009134264482e-03 5.044411748526742567e-01
9.252239938931265673e-02 3.055415224110805128e-02 4.941568673748069629e-01
9.421045370449765421e-02 5.217495694255663147e-02 4.810279524552083519e-01
-1.791974628218757914e-02 1.957094798412557096e-02 4.450315887878025789e-01
3.555445282124993639e-02 1.374899775429776205e-02 4.452544920720259980e-01
-6.539393687238470240e-03 2.076260179091738572e-02 4.419518509786385385e-01
4.973986215207537240e-03 1.662160792881724886e-02 4.412096127761418463e-01
8.841159831510039813e-02 1.407770336869437408e-02 4.719688551783645103e-01
5.716976959024334948e-02 9.288852080150775126e-03 4.525438327835538121e-01
9.296585600590064058e-02 2.496148944253859941e-02 4.645035564846226039e-01
1.249528429375361925e-02 4.028296283233545605e-02 4.436138663182163100e-01
7.911727836753405796e-02 5.584659497155660540e-02 4.505558367852801616e-01
-2.408853874005241827e-02 1.542009759272861338e-02 4.468812595319219816e-01
7.684110714175763912e-02 7.541837329412687252e-04 4.768334898364817165e-01
1.126418155980505112e-02 5.633133674368759336e-02 4.474371356003510325e-01
1.015967015031229992e-01 2.973778490428134053e-02 4.796016467777878267e-01
8.377199707555965658e-02 3.499768721945367700e-02 5.083821562033705721e-01
7.719268431326313518e-02 1.321529965832594217e-02 5.101475040374202630e-01
8.758688400088021631e-02 1.362263477459922309e-02 4.714771222999565858e-01
1.013853689602365049e-01 3.216472180569267952e-02 4.810380694518932021e-01
3.285433356273671779e-02 2.619583297005696407e-02 4.453165385170437252e-01
4.034289301729775123e-02 4.923095881015009112e-02 4.460020430772257405e-01
1.031537807754465269e-01 3.453413650466594792e-02 4.802573808776886555e-01
7.610846216414038357e-02 4.575970105328062629e-03 4.674060310553818653e-01
6.881395672804765939e-02 3.983887966081453569e-02 4.504801245829177514e-01
9.019559200718227365e-02 3.867290353521041918e-02 4.969533424840200664e-01
-3.935778773515963280e-02 2.897632012757267710e-03 4.452520188303250581e-01
6.195091699188881584e-02 5.859459729031550601e-02 4.514960419426570226e-01
-1.524755103977501339e-03 3.633915427970103862e-02 4.436886655944515256e-01
5.422104117098239945e-02 6.143089684305596404e-02 4.527257857795462526e-01
8.197674478848356039e-02 5.961453786930045670e-03 4.786320676575676059e-01
9.630471438691388941e-02 3.751980891227308518e-02 4.880549632414876715e-01
-4.389883554748925248e-02 1.352791745334441624e-03 4.450414161403250524e-01
-2.454539720376556697e-02 1.692018301881751535e-02 4.476649754891169897e-01
9.252279487044019757e-02 2.477887902248524996e-02 4.904263849477857318e-01
6.138146283408854598e-02 3.427452540333825182e-02 4.504454069407209382e-01
1.883747245250245311e-02 4.229405215371551119e-02 4.442374679851567865e-01
6.739932208080941234e-02 -5.101304680889549685e-03 4.660904413452803818e-01
8.628978520549251963e-02 2.944193768308343839e-02 5.055015706663843478e-01
8.608152980970382173e-02 5.346982728677183994e-02 4.877236786738015639e-01
3.382476889189140433e-03 2.439624100777139371e-02 4.418801380839364468e-01
9.278924754356136784e-02 1.955049976862844804e-02 4.699719473323322738e-01
1.004431828037896657e-01 2.407755826883855449e-02 4.706254391633054035e-01
8.372599504519856461e-02 1.679948942342988916e-02 5.038077932494159361e-01
5.740013057869027685e-02 5.680410616259994050e-02 4.476529777681258482e-01
9.220328740211060359e-02 5.368048119810154423e-02 4.787417796717589047e-01
7.738601295809174885e-02 8.500144884899304282e-03 5.044221497445531277e-01
3.117182777800878157e-02 -3.108745837429057954e-03 4.415966600822157639e-01
3.080331292375155378e-02 4.748126357693967931e-02 4.451825589592768306e-01
3.106691247690711311e-02 -3.192496848097915209e-03 4.415516496340775032e-01
8.488223556590775154e-02 2.373119527875128254e-02 5.071664335405073887e-01
7.979468736394124129e-02 1.010717000578754791e-02 4.661627570786525676e-01
6.521796227862663997e-02 3.790749852493956011e-03 4.578656957164983221e-01
7.780927168780968350e-02 6.518794540321694135e-03 4.674390472243215022e-01
9.548126775594362181e-02 2.555958374413097589e-02 4.651540284706828232e-01
-8.472328762902804188e-04 1.901514979687834658e-02 4.412856920407586259e-01
7.173599799520088971e-02 5.978813078697742950e-02 4.565858156034807158e-01
3.251610288334350063e-02 3.787679502052049285e-02 4.458298901521124957e-01
3.722094752260132061e-02 1.383206122537554775e-02 4.456753819496733771e-01
3.583499302383524182e-02 4.176472966695124640e-03 4.441463085587210036e-01
8.711380793542944367e-02 1.630536190865481544e-02 4.932403813562576400e-01
8.254667107998030218e-02 1.078415106510742863e-02 4.975490380419661518e-01
3.318921456420115962e-02 1.950563514549905758e-02 4.451410428833419974e-01
9.756578638515069068e-02 4.625701667879451168e-02 4.585352244670897748e-01
6.655293017131876099e-02 1.760293827110780834e-02 4.552209554035270278e-01
9.073675189800052554e-02 5.629358924003989573e-02 4.575906811300749499e-01
4.314735194700091217e-03 4.662239473631530490e-02 4.442032286864349144e-01
8.137889852883931074e-02 7.243153655497510009e-03 4.945575141598543834e-01
7.447090385246050992e-02 5.937686197045971559e-02 4.556568531913323672e-01
8.948652874604194618e-02 4.116781906443656852e-02 4.966119523718708906e-01
6.817052279268318027e-02 -7.896193560485369189e-03 4.704440376216011410e-01
7.048439760889335659e-02 8.053476915741533335e-03 4.600310291653913475e-01
2.018004118137763439e-02 5.867316544770564968e-02 4.481671288159159716e-01
8.652972413316241396e-02 1.038835007640182689e-02 4.798642833605397673e-01
6.526921907010825585e-03 -5.289349174954173158e-05 4.387256106591389537e-01
5.420729994555787551e-02 -3.861463590135107322e-03 5.231404786868214529e-01
3.141682424324551866e-03 5.426960224385529719e-02 4.470337557359281844e-01
7.902654177714313333e-02 1.861219990711426506e-02 4.610231196372829854e-01
1.125825895758720413e-02 4.941693298627565512e-02 4.445232303553934283e-01
5.883904522391938952e-02 2.842515547811645324e-02 4.513528379088634357e-01
8.329907066523647985e-02 1.043238577062255770e-02 4.697916890425705705e-01
6.614582697619748874e-02 -4.687430109044888812e-03 5.060681001715663374e-01
9.076567543588745512e-02 1.524237686672718847e-02 4.801668135575078433e-01
6.094130708543368802e-02 -6.543117889562055298e-03 4.587974488852791799e-01
3.984299586316353975e-02 5.766458535492149928e-02 4.463464200937231618e-01
9.545691773725276108e-02 5.822182395472853128e-02 4.617742344217680706e-01
9.599636652408660015e-03 5.797761149618892162e-02 4.517558441532533164e-01
7.802130013269027720e-02 9.557844920303424849e-03 5.048223117062878851e-01
6.938412410356506466e-02 -2.279241075722318165e-03 5.007328619947936099e-01
8.552857727843336810e-02 5.479798313542811466e-02 4.543747593312270072e-01
3.117058800717645295e-02 2.128831952543717640e-02 4.448419800127488277e-01
3.915195553262521694e-02 7.013164244533701130e-03 4.453200823292221000e-01
1.020911643170737682e-01 4.383485785030333259e-02 4.679459969453556023e-01
9.119908963689057901e-02 1.866667542984455641e-02 4.866051805340195213e-01
7.425379144546004340e-02 3.793006566940387153e-02 4.537603879682789443e-01
1.055128205341484410e-01 3.306756335819005521e-02 4.644260078473285147e-01
1.014445545013987343e-01 4.366783617629620834e-02 4.793708112526020027e-01
9.316805907237710183e-02 5.294921097071995236e-02 4.805384529851891573e-01
6.454131654934981699e-02 1.665811108100735682e-02 4.547007163711932476e-01
-4.651814652841792554e-03 5.044928505812115715e-02 4.459860502763905998e-01
7.010617801106716618e-02 -3.821909392758541038e-03 4.971734315151433159e-01
-3.653674223105627533e-02 3.291607287269769817e-03 4.437393511740889696e-01
5.838855294736571694e-02 4.637865569778187869e-03 4.533260273779056715e-01
1.567878346725362290e-02 2.128350696591000540e-02 4.425408718117188611e-01
4.746694812756195592e-02 2.432837760589462439e-02 4.485980672556855176e-01
5.492665352835190973e-02 -1.038316749254494797e-02 5.245872736349018739e-01
2.113112371642018178e-02 7.584619351229060502e-03 4.419448396645487831e-01
9.249147469427770885e-02 2.719189157357520398e-02 4.922850445285710808e-01
-2.494951594468828790e-02 1.555616881248435626e-02 4.473021468308000514e-01
8.443623982964267027e-02 1.023516867993737312e-02 4.901965144100456362e-01
9.051480860127546213e-02 5.266552578724767453e-02 4.858008193031371769e-01
5.746814614125658749e-02 2.852999482822004412e-02 4.510099920197899181e-01
-4.849366417069963554e-03 4.434540728176941671e-02 4.451058080057024302e-01
7.741694634878973358e-02 3.355456361218266126e-02 5.153106425635294308e-01
9.719806441459571955e-02 3.586578786970383986e-02 4.871156505117013036e-01
6.399236570304256411e-02 -6.028660510165034271e-03 5.097427559724290180e-01
2.410998913600020249e-02 5.423237901732080174e-02 4.459195089502510090e-01
7.325376550624289329e-02 -3.655785532178642237e-03 4.888078724812703890e-01
5.249160815691122223e-02 -1.079283717542578284e-02 4.541996227434568767e-01
4.890661742027713893e-02 3.227964182051577813e-02 4.482781713195735929e-01
6.962407434159721686e-02 4.090712881854052102e-02 4.502928324391154424e-01
9.176928335007343562e-02 2.257677030046478101e-02 4.900674194804915951e-01
-4.153324407977347990e-03 2.101638730776683728e-02 4.418360664329685217e-01
7.690382843630111376e-02 9.761259686870565194e-03 5.065761758954296923e-01
8.185245608538091466e-02 7.840549973462751857e-03 4.943585380251011574e-01
2.673262521453277640e-02 3.000131406750199126e-02 4.444744659033655898e-01
-3.197937895738513399e-03 2.412014820122557190e-02 4.422320187362440702e-01
1.056100626412542209e-01 2.997079172248274734e-02 4.763460077841366602e-01
6.646950507759510907e-02 9.746776718259804462e-03 5.201936357307149761e-01
6.589007670318015875e-02 3.495186403147613335e-02 4.512409226591347355e-01
2.179752216016915892e-02 3.849024357898556820e-02 4.444052116141609665e-01
9.910997727618241215e-02 3.527391235668145275e-02 4.610562821354801111e-01
2.528973029308595813e-03 2.462095905897938516e-02 4.419617296583661648e-01
4.872210502784671271e-02 -1.137179347865110469e-02 5.303374788116139715e-01
4.628253055707072516e-02 6.337358883235297280e-02 4.508900081690610517e-01
7.137990971703768450e-02 2.047908199277487934e-02 4.565839818354582302e-01
9.556543229820184393e-02 3.580742121042741755e-02 4.892847818671045568e-01
3.854025959964077486e-02 3.042297046633200483e-02 4.464724645198903108e-01
2.096291874436183311e-02 3.633127642486859606e-03 4.410394985065413387e-01
5.320758262211377349e-02 5.904141346774655075e-02 4.480323497432248669e-01
5.698934795153470095e-02 4.033269696766914741e-02 4.482172481736347303e-01
3.552226003019108569e-02 3.144238021233292102e-02 4.459728713143750189e-01
8.470904544521012935e-02 2.902348882293099425e-02 5.081457116138078378e-01
9.165413430319631349e-02 2.795508740860244701e-02 4.618860619488389663e-01
-7.853810717722003055e-04 2.329029132994403506e-02 4.419556560597402428e-01
7.986740861025591609e-02 2.053691194082520044e-02 4.608595702168064023e-01
9.891069631632509740e-02 3.774943907788225195e-02 4.603914383683076483e-01
6.931226375916196836e-02 1.039342580470352080e-03 5.055234664592772598e-01
1.321063970955080151e-02 4.116839613355658539e-02 4.437257431330207114e-01
8.771980065075871136e-02 2.871700081567259491e-02 4.613231012612478699e-01
-3.203187359865239392e-02 4.485774282599319478e-03 4.437089875641750392e-01
1.585284711661384682e-02 1.922455940781340328e-02 4.424549766933213446e-01
4.313051900760074553e-02 -3.100259707410175317e-03 4.467647651616494242e-01
-7.201916308612959020e-03 2.805753795120179833e-02 4.435221484419945570e-01
-2.461925121385888371e-02 8.739161027295284587e-03 4.439909225539336313e-01
-1.688591702246363194e-02 4.122211024503481119e-02 4.488763594150497749e-01
9.699802898150110264e-02 4.395505424872682421e-02 4.584047447759459493e-01
8.492985825118809506e-02 5.581888132028752642e-02 4.818158950275885366e-01
4.337981639952608742e-02 -4.517312201086656764e-03 4.469175118633141874e-01
1.020927318173031756e-01 3.351416422127335981e-02 4.809248678195462978e-01
7.950715701157383408e-02 3.188240253284532755e-02 5.143729310435763979e-01
7.716686877615455686e-02 1.448081519298580200e-02 4.613855587982736983e-01
1.683679959823370514e-02 5.777778004077484264e-02 4.491102890512284618e-01
4.105253070614012234e-02 3.552603417513787529e-03 4.458223073574547612e-01
3.617703465813844332e-02 3.316570742362135588e-02 4.461132274771950623e-01
7.992460881621511748e-02 1.914175530821335056e-02 4.612986944904342024e-01
7.507689333593097272e-03 4.819738906875987994e-02 4.443620828342369489e-01
8.071007534292805319e-02 3.011588019543761166e-02 5.140945056757020293e-01
7.479489691917945438e-02 4.695459436114008539e-02 4.493064945253716358e-01
5.320377469325179159e-02 5.675528342727976377e-02 4.469823165416223487e-01
4.293241666538700346e-02 4.340519005572975042e-02 4.466061883080070793e-01
-2.699664562919919242e-02 3.734712251402256492e-03 4.421082017046456536e-01
-4.395986398218006130e-02 1.328875999808176332e-03 4.447627485734366171e-01
6.586482104115377878e-02 1.930651309506305202e-02 4.546662864499593781e-01
1.105487556580897063e-01 3.453126609663602353e-02 4.718790409052519563e-01
9.672054966915634433e-02 4.842211134825610830e-02 4.579378024272439673e-01
1.013450372975292363e-01 3.818312998443785383e-02 4.814612642782504226e-01
5.668885130263334737e-02 -1.090112098472652280e-02 4.573306106068890653e-01
6.968801878516593662e-02 -7.915387041122117287e-04 4.646938741143253337e-01
4.876867525380041563e-02 -1.032593924729552186e-02 5.297170719479680212e-01
8.643602804223772529e-02 3.062671828429608736e-02 5.052712969690277278e-01
9.947808825003598421e-02 4.787272320396963182e-02 4.647548359002118268e-01
9.013254831534893430e-02 5.751989510172980657e-02 4.712135142459261683e-01
7.951848136072486861e-02 1.345739274240113567e-02 5.074406996692941707e-01
6.904947624888659041e-02 5.700907837540423323e-02 4.502095627901882557e-01
8.680275269301597485e-02 2.876335695272973919e-02 4.609265556652550333e-01
8.159619441807851314e-02 7.291720147454854549e-03 4.937355189446125947e-01
3.468326509181018230e-02 5.595359575911802719e-02 4.459361893437810975e-01
5.978402856490135781e-02 3.608517176234736501e-02 4.497148526981091243e-01
7.531170452391111603e-02 4.453912708858072042e-03 4.665807234320566432e-01
8.107659234616808319e-02 5.683584168754271179e-03 4.897018493894683688e-01
7.731221216112228733e-02 3.218472447215058735e-02 5.169682185796315999e-01
8.963734345323878805e-02 5.429445263522954257e-02 4.815805312907844304e-01
-1.205729726613382138e-02 1.943835644419264139e-02 4.426441608430857211e-01
6.899466873938846223e-02 3.523943802476355025e-02 5.174721051950250672e-01
6.177832924057161113e-02 3.515659331601301944e-04 4.562783225607272564e-01
8.235236337373764981e-02 8.135867825000106177e-03 4.928143642293393856e-01
5.988547197841911224e-02 9.144979903384253817e-03 4.537989690373792073e-01
6.636775124853798447e-02 1.674545029468786292e-02 5.253641860533059260e-01
7.871675678207927518e-02 7.872965752772248180e-03 5.018086930543796953e-01
8.760081431329051760e-02 1.355471496760324995e-02 4.872370022604743389e-01
5.286577060040256737e-02 -6.123110916044003857e-03 5.248898405238880960e-01
2.855054355710483563e-02 4.705856063625835778e-02 4.450247306412173920e-01
8.935575292601180553e-02 3.751232556360790948e-02 4.987860676447360975e-01
1.463965864528599115e-02 3.820656118930558509e-02 4.435656745103448984e-01
6.332124958329224396e-02 4.317202682194438979e-02 4.486176615609380747e-01
6.789920320748306370e-02 -7.749637619397971473e-03 4.697679192598453457e-01
7.906751401168551907e-02 2.728248172019432163e-02 4.575315663795062604e-01
1.034159418828574789e-01 3.403105998537876015e-02 4.797182365631205148e-01
1.040157095355582484e-01 2.618172484044558462e-02 4.738509191968315326e-01
4.472618896812362993e-02 2.340285769414960845e-02 4.478930773823124878e-01
-2.596969247563488820e-02 -8.984221647333982125e-04 4.400178202481136447e-01
3.510456382605900427e-02 5.185944249753053625e-02 4.456071866269072923e-01
9.337494102622871661e-02 1.973306562200508041e-02 4.729866786824140079e-01
5.833541126186676806e-02 2.624177983448649359e-02 4.515365822086206404e-01
7.191924143878843448e-03 4.805790763437376573e-03 4.399307762697700630e-01
5.473331639212681426e-02 4.211905032536904236e-02 4.479027873438337082e-01
7.667027970648646398e-03 1.868828729918104933e-02 4.415793116766515980e-01
9.400662502769865925e-02 2.656900744321307253e-02 4.639096008098768653e-01
-1.765372269025669225e-02 3.086119526246176858e-02 4.467908495265525692e-01
7.359748452912441563e-02 3.279013239892323434e-02 5.197853299758360412e-01
9.766676337552272769e-02 5.193260043578354357e-02 4.643240715062523227e-01
9.244000778544003705e-02 1.763779316544425088e-02 4.801985780384582236e-01
3.894579004670697259e-02 2.898059287807736029e-02 4.466229996368717980e-01
3.108649238499322509e-03 1.212107937640802095e-02 4.406292413245838646e-01
2.929144015655086447e-02 1.880147103854155205e-02 4.443356710447911584e-01
-2.267587425332711487e-02 4.017749448135546179e-03 4.411549202841703599e-01
7.654238321555897895e-02 4.328447583801521906e-03 4.983870805729671560e-01
1.002865463905447674e-01 3.705421604571258742e-02 4.829487703775923180e-01
-1.476824725302928847e-02 4.625793396225024584e-02 4.486809517018158222e-01
1.882337351383871205e-02 1.603189172300069701e-02 4.425757253700728366e-01
8.487628602446965764e-02 1.497376901051961258e-02 4.667761720551469318e-01
5.807116272606035329e-02 2.203300724598734883e-02 4.517758547875681541e-01
9.963929581159382265e-02 4.817175262706915179e-02 4.743228636307897372e-01
-1.375034635008205979e-04 3.350573244480868629e-02 4.433215133137063391e-01
6.349409111261730687e-02 -1.589235485136758063e-03 4.582938008980421696e-01
7.100739551216886380e-02 4.134918469358189914e-04 5.014170337622636531e-01
7.048237552687143526e-02 -8.482567265293321918e-03 4.779009436319550663e-01
6.107929437319930405e-02 -5.894391273492553818e-03 4.585003852413842562e-01
7.566236514675822589e-02 3.011427476577352783e-03 4.685086740712024467e-01
-2.993257388534137624e-03 4.383322016741962590e-02 4.446278346301301143e-01
1.049184269799200847e-01 2.669891978471332708e-02 4.711068745884225417e-01
-1.043852681194811817e-02 3.812402280689236589e-02 4.456772192176007286e-01
8.302989139443964217e-02 1.452965252012844086e-02 5.028858396730365721e-01
3.316034998203448020e-02 4.912388508073954607e-02 4.453223297624211985e-01
7.323775303260278424e-02 4.016969986057758457e-02 4.517369674129892432e-01
5.011497033761511816e-02 3.145174805129376250e-02 4.486744928393059384e-01
8.112497811957519733e-02 3.527896810378089443e-02 5.103314315035033522e-01
6.619493916129035038e-02 -8.032511669842923308e-03 5.041384341283128290e-01
3.486373543154484833e-02 3.704002879771624290e-02 4.460852836595142756e-01
7.837826216830988402e-02 9.124509911705170825e-03 4.656020576520061294e-01
5.125885751373656513e-02 5.834919381068666422e-02 4.473852993084472263e-01
3.372364592775375924e-02 5.937443005934791435e-03 4.438519958449392844e-01
6.121724983972517270e-02 4.881406958703412430e-02 4.475438414945093757e-01
6.829851896677334444e-02 1.216991041232104095e-02 4.575534938497000659e-01
8.159937761005660317e-02 1.394740015072476469e-02 5.046807253415370731e-01
3.058742146804938403e-02 4.804785678985175335e-02 4.451439963894315288e-01
5.856249653634313518e-02 5.902092586011564723e-02 4.509161315207937948e-01
5.716338511670022993e-02 2.200728722580415353e-02 4.514964168657306653e-01
6.810361031984805968e-02 4.055660678220137164e-03 4.599489710763834949e-01
4.195606078052056126e-02 5.021445905600132459e-02 4.460314476693918451e-01
3.767223036488562271e-03 5.097100486171728811e-02 4.454572430041244258e-01
-3.623219458738124316e-03 5.801499843836070355e-03 4.397001808836251135e-01
2.271036253311609424e-02 2.953756299668791260e-02 4.438543979947392470e-01
9.506355160470481014e-02 3.018158245735711245e-02 4.899033125686232948e-01
4.621961373287064578e-02 1.298952042805028365e-02 4.482217007270993814e-01
-1.925115595150749892e-03 2.692508629815245150e-02 4.425636861495365615e-01
-2.573839972393568432e-02 3.248910296389411097e-03 4.415779394151517212e-01
8.789964727712699932e-02 5.229147216981484131e-02 4.529659138486432091e-01
5.491621523819843059e-02 -4.184115025173794009e-03 4.533785739216776300e-01
-1.435486550098576813e-02 4.905617732540405208e-03 4.400911840973411038e-01
-3.497119272763472841e-02 -1.562080972902998377e-03 4.398674153906926843e-01
4.153804310859529614e-02 3.986524494173795952e-02 4.467201532861002633e-01
8.796750616733613193e-02 4.158417916449991952e-02 4.979736026592210263e-01
9.386636598756691041e-02 5.181013076920040067e-02 4.825002212811895230e-01
9.385283484193694681e-02 3.745248860693870668e-02 4.911005962240903022e-01
9.607344712068516257e-02 4.543571208309298004e-02 4.575486300415101959e-01
7.969799230737038831e-02 2.324154898713098535e-02 4.596539500206965889e-01
5.183909329892142509e-02 -9.707907783727043327e-03 5.269728184663818871e-01
-3.161199346458657550e-02 1.123461395776279449e-03 4.420469264831359268e-01
-1.543963788603958803e-02 1.812121780139785976e-05 4.390096971334235265e-01
2.582367388650069762e-02 2.712444691935705227e-02 4.440751576168602832e-01
8.839110550295387059e-02 2.827185465912804979e-02 5.016415235110048831e-01
5.235354788345612104e-02 2.472972891332513370e-02 4.498946846796115229e-01
8.092055212443122203e-02 8.779786194223631463e-03 4.686579045506425456e-01
-2.026960180054302937e-02 2.220051482388517988e-02 4.463775224311424261e-01
7.335137973618779950e-02 2.260949479502480201e-03 4.664048641608318779e-01
6.327040279514666021e-02 9.924566400540025743e-03 4.553606815677448405e-01
2.271982963320502702e-02 4.450694641607678970e-02 4.445874119198149343e-01
-2.243413898302924064e-02 2.272715868424858739e-03 4.403299055113092941e-01
3.077201941142232791e-02 4.864696898598257907e-02 4.451415672349451902e-01
9.505500539413135053e-02 2.192564562266072908e-02 4.827015792284350959e-01
8.312185492305966539e-02 4.171460683295830779e-02 4.544920251269422007e-01
3.383613264968681703e-03 2.382140768451209215e-02 4.417941769815458275e-01
-6.253258210606476089e-03 4.355946781914877414e-02 4.453310238913777419e-01
-6.097108522235627527e-03 2.122054930452036900e-02 4.419903436961570287e-01
-1.899333206118083983e-02 1.003596974925892449e-04 4.395048917993891746e-01
8.160957580973167425e-02 2.575091862387311747e-02 4.592574239163347283e-01
-2.199958826715792820e-02 2.458621646837625373e-03 4.403240342857937528e-01
3.987428647404928778e-02 3.115738008850258214e-02 4.466753712576214119e-01
1.646486872298243490e-02 3.296544496567951205e-02 4.434104091436279482e-01
3.195365514110702632e-02 1.569120583644814659e-02 4.445710733850742336e-01
5.633370982762676837e-02 4.390029799553238354e-02 4.477866967133910525e-01
6.609233849858724141e-02 -9.605471685966845367e-04 5.088208366692552609e-01
-9.806392506233128914e-03 1.821356355884156189e-02 4.419714349762680627e-01
1.106717144315642193e-01 3.264708077910003642e-02 4.675301571004505385e-01
6.644970403992334074e-02 6.046144710100757880e-02 4.542386094660694207e-01
9.815825119449669844e-02 3.068518591106935908e-02 4.849720253027992034e-01
6.230465677583410522e-02 -2.160392419221380395e-03 5.147957117238439739e-01
1.109612628813974600e-01 3.613713268058788702e-02 4.701498554514071948e-01
5.025391931855809069e-02 1.609665056479808037e-02 4.495346912402668482e-01
1.021925975331673120e-01 3.875501721315360859e-02 4.602211088443451392e-01
1.066444424454370404e-01 3.504969547919054712e-02 4.636991058065438320e-01
9.887241472947100318e-02 4.751537714377294247e-02 4.794646526578923429e-01
1.100201785881495253e-01 3.494679726787186524e-02 4.655555237204582197e-01
5.838061215116768093e-02 4.578401153640476728e-02 4.476868700681211344e-01
9.512269184847438330e-02 3.618265785012655250e-02 4.898155792243598650e-01
5.870935656572321554e-02 3.714364461571294240e-02 4.492385525525949275e-01
5.890204957588112550e-02 5.859534610467279081e-02 4.502428800030751077e-01
3.066497840588459228e-02 2.912908558116497973e-02 4.450271970262036914e-01
6.509276656741221079e-02 2.548683568716211129e-02 4.535068048926147455e-01
7.679314298810377415e-02 2.109759708042550919e-04 4.821374933331092905e-01
1.087970471062932321e-01 3.290390273384194431e-02 4.748978987064029766e-01
7.799121959773161472e-02 7.444761961961145549e-03 4.667276696940211855e-01
-2.808753929131092494e-02 3.828925794507958939e-03 4.424186212489195080e-01
9.157822022448965094e-02 5.576602406211064039e-02 4.581727376086978110e-01
7.247045699978214850e-02 -5.362701298964414089e-03 4.784218086201372788e-01
3.837588917145661610e-02 1.253168151209475140e-02 4.457710352144226840e-01
7.784288308429176961e-02 2.591901628375648664e-02 5.177897708977217128e-01
7.383897445142191540e-02 2.457302214508216842e-02 4.562875163852687654e-01
-1.230346212823921551e-02 1.548040772332692598e-02 4.419500777677781711e-01
9.989155942809743727e-02 3.819837269282047587e-02 4.832651135222194028e-01
6.907033737349119185e-02 4.657072437767124581e-03 5.106784386826159761e-01
7.422603893284582255e-02 1.330423024531541751e-02 4.601858567292177460e-01
1.013149808147857656e-01 4.434266044235470744e-02 4.651876185509000172e-01
7.606665298235244788e-02 5.906524852714287177e-02 4.565184644700124306e-01
7.554610530393975065e-02 6.365035363856604358e-03 4.648965151248773964e-01
-3.153280231559421869e-03 4.571538678064999105e-04 4.384651034170938821e-01
2.180979452187624054e-02 5.937512029320266005e-02 4.480485216805821791e-01
8.973577738642077306e-02 5.344890772670878726e-02 4.846405495763102533e-01
3.036631968237162721e-02 4.762129888253481547e-02 4.451402335384644360e-01
5.663127827442587109e-02 5.587283942453495633e-02 4.471482113639160261e-01
5.334889777293306407e-02 -6.781228972077927956e-03 4.531257986433349649e-01
4.847744692472551187e-02 5.871078972739645491e-02 4.470750313080397720e-01
9.537649892860791678e-02 3.546566021195728113e-02 4.895849999440121114e-01
3.858923872777067846e-03 -6.388944042574110603e-04 4.384451776166943260e-01
