9.880564077848028037e-02 2.731799143239783609e-02 4.821302980841360997e-01
2.597030577837760451e-02 5.399575489489104319e-02 4.461175836332186839e-01
5.385962788917836308e-02 5.779682984290569758e-02 4.480022428896779374e-01
-1.460252222878320391e-02 3.871779921901144506e-02 4.471668005250059585e-01
-2.327706082214518052e-02 1.628671471793680103e-02 4.468872839144268361e-01
8.245520377999843165e-02 2.837047085759824769e-02 4.595510208649584705e-01
9.140989656626191673e-02 3.640781186804591119e-02 4.955057580325221700e-01
2.342639465926098577e-02 3.432108044470225106e-02 4.445411086153273073e-01
9.953598031073405961e-02 4.733115701320583790e-02 4.664264643073713912e-01
8.952402786048763161e-02 2.471138369803620172e-02 4.957579088047887605e-01
1.598376228359967358e-02 2.241982737783643903e-02 4.427642622130511518e-01
6.538985093995927644e-02 3.821239619332379017e-02 4.507231242728032550e-01
1.373933814686300985e-02 2.653941201089702814e-02 4.426795414278177909e-01
8.239993056133985971e-02 5.758321084887903230e-02 4.735536758995440021e-01
2.521127951044059221e-02 5.049005367293311203e-02 4.453833867927213253e-01
2.894490748335758375e-03 2.852435818414592560e-03 4.393492574218615943e-01
-5.677948108925074192e-03 1.263129967988266093e-02 4.405015865222360327e-01
8.928114798024024135e-02 4.058576703284788589e-02 4.580701872139519293e-01
6.662780430275241916e-02 2.607208875285136479e-02 4.542241517573707976e-01
9.911269884523546403e-02 4.737242823426953547e-02 4.644748683256772481e-01
7.647451896117107850e-02 7.946447670320426482e-05 4.828764582538959682e-01
6.463659930857640346e-02 1.780770719398515681e-03 4.583032174181267959e-01
5.617568943781388324e-02 -9.194526225312145418e-03 4.563977607154229843e-01
2.359388187883456472e-02 2.797214062047136823e-02 4.440113073958912859e-01
6.171693502316869667e-02 -1.282134269712357187e-02 4.661187451198299803e-01
-3.596579840655436677e-03 3.386435449660911423e-02 4.438611801444397043e-01
-1.838263949712216211e-02 2.330771932185624756e-02 4.457504062086515839e-01
1.095173409367837351e-02 2.487064443247319692e-02 4.423648191930997786e-01
7.194309109745723740e-02 -5.034371506242264413e-03 4.762094212556625683e-01
-1.313338066080621709e-03 4.222312074589935904e-02 4.442530542977310981e-01
3.689976170302923866e-03 4.989124173207637458e-02 4.451320526929422594e-01
-3.238401939324646317e-02 -4.435446173929747781e-04 4.408015528494371726e-01
5.178904913630939105e-02 -7.763487110603106006e-03 5.263913166913265496e-01
5.426833298807326456e-02 5.070896240256220211e-02 4.472984123547090740e-01
7.986955417151248016e-02 1.318117928956613442e-02 4.640324345852716026e-01
7.005975611981016260e-02 1.586112099047861865e-02 5.208708005025060039e-01
8.776330983980590306e-02 1.214758904932356637e-02 4.783906665484466414e-01
7.061980773377539433e-02 5.739777018067611369e-02 4.503473298310022299e-01
8.498704487361428972e-02 2.036847154146144076e-02 5.044729918663680701e-01
4.764873828798260602e-02 -5.677901670492437568e-03 4.494115948355658086e-01
7.462418540643563081e-02 3.568157086695909752e-02 5.145494415714635394e-01
3.341778236029081806e-02 5.968921721758702753e-02 4.471574747534397543e-01
1.310930107515520526e-02 5.247441602686206408e-02 4.457500183392681392e-01
-9.958947317605631577e-04 2.152594235867155703e-02 4.417979791217145902e-01
-1.815318011928744937e-02 2.356344565707298166e-02 4.456797522582803261e-01
2.142205249667660655e-02 1.696792728872425354e-02 4.431252012401405982e-01
7.086934639184662432e-02 4.785904963236121967e-02 4.490805461630280049e-01
-4.345459899511244437e-03 2.517014856652991309e-02 4.425994714218667303e-01
8.778643659307282243e-02 1.989265255831546703e-02 4.665558987694852777e-01
7.907037610901454516e-02 3.938144161642516405e-03 4.741129593293024747e-01
7.426472267631149815e-02 6.855017761235201318e-03 5.055312512481949794e-01
8.982636417281060492e-02 4.264363105058013165e-02 4.954761544976390431e-01
9.056192238524529703e-02 2.637602542245061008e-02 4.951315545771566851e-01
6.297071612915400296e-02 3.154236852267385677e-02 4.520560845404369976e-01
6.657445862971957118e-02 1.406992359368758501e-02 5.233695003989238259e-01
2.419118912075340910e-02 1.349595895929561751e-02 4.431865198652070181e-01
8.468468942172893699e-02 1.317718212305057923e-02 4.691972174356153213e-01
-1.856173610887156336e-02 1.769550347485440711e-02 4.449066664225638235e-01
5.079594282101620312e-02 -7.763294794537285368e-03 4.518864116096354966e-01
-1.398390397881663777e-02 1.785960519759632534e-02 4.430457288821496031e-01
5.434809618861029257e-02 3.308149982987595300e-02 4.497267190491983646e-01
7.778912963562657767e-02 1.288504123711036245e-02 4.626999487304935821e-01
7.834202196104417260e-02 2.574718052402180830e-03 4.876992503684624003e-01
5.903194942766132325e-02 5.095744927076027025e-02 4.475912246955806029e-01
8.672280077936463105e-02 4.032296363930209376e-02 5.002180003821873333e-01
5.960195997216571895e-02 -4.234503179754612809e-03 4.565276472838899480e-01
2.012009831769735746e-02 4.740813547968231872e-02 4.446341674421430690e-01
6.346929019753369539e-02 2.815120802647923595e-02 4.530516188803067612e-01
7.132859601909281866e-02 5.893283726748919926e-02 4.517246116219624241e-01
6.978102680584698236e-02 1.310947823642150817e-02 5.190097375283517778e-01
-8.718286638149093035e-03 4.189116177528937751e-02 4.457870185511411676e-01
9.999858369001296543e-02 4.598323248235461347e-02 4.788386479002416651e-01
1.050397011187894775e-01 3.755075050841898132e-02 4.621630370702511370e-01
3.040728380963606675e-02 5.935516197474893091e-02 4.473555579160450324e-01
7.209071811718573142e-02 3.209622952830051834e-02 4.548816213867207803e-01
4.455154894201101418e-02 5.826323941067408467e-03 4.472643999042014151e-01
5.043707524015068888e-02 4.000041149267122981e-02 4.479658566540724030e-01
8.774906127442443082e-02 1.367642243330598542e-02 4.866530343995208452e-01
8.465351987900508746e-02 9.396987241597168361e-03 4.736610076415471160e-01
7.510856565400785001e-02 6.162477131095777001e-03 4.652491102542208323e-01
-1.628486673525654516e-02 2.299409383106553947e-04 4.392307987546733572e-01
-1.360179123459841297e-03 4.545433750122336580e-02 4.446844849593955540e-01
7.766251825525136154e-02 1.869642525158772290e-03 4.790730767539991275e-01
6.627000529189119860e-02 -3.832123429635927742e-03 5.061373589617618185e-01
8.460648396859883624e-02 2.394321848719044646e-02 5.075740164506332697e-01
1.104235747464828998e-01 3.342459633987406031e-02 4.725795944183077135e-01
8.234987284764981597e-02 2.809529433448396465e-02 5.114767284945986869e-01
2.461833372783358773e-02 2.681198071611360853e-02 4.440487419042571937e-01
9.760040389597161858e-02 2.759879775291251142e-02 4.655198101437948988e-01
5.553322070667623955e-02 3.822168517114655703e-05 4.529475901183397935e-01
7.883664242076236783e-02 1.377085173785675201e-02 5.086482447756206504e-01
8.244117174172130302e-02 1.114640623599395981e-02 4.686777126958990292e-01
5.774745194411926713e-02 2.100055023035555385e-02 4.520486840381393034e-01
6.466215965288915624e-02 5.932358853682150740e-02 4.533879710995006862e-01
7.612002670770928736e-02 1.604698344879732647e-02 5.144616338354853768e-01
4.997722290270773665e-02 -1.101848429193281673e-02 5.291111457966642950e-01
-1.950735548021150303e-02 2.551948238816275152e-02 4.464748423528701604e-01
1.911364472196622200e-02 1.205982363607711362e-02 4.423646522579122720e-01
4.291743219424273836e-02 6.420520683491953706e-02 4.513627921213638761e-01
7.822604599277938053e-02 3.195885773259048851e-02 5.160364105795774980e-01
-4.600241802636097221e-02 -1.944648772150895082e-03 4.421567025653433403e-01
-2.713538000179616452e-03 2.434610993431182008e-02 4.423247388416787218e-01
8.431164039825467249e-02 8.661359232112966419e-03 4.784187292460047036e-01
1.524596533090985528e-02 1.091690052703085320e-02 4.418319686391922185e-01
8.051560548827554897e-02 3.107408443245557317e-02 5.140962569430377327e-01
9.352895730545471298e-02 3.703766035623139163e-02 4.608139745986655211e-01
9.421595026073745216e-02 5.728516260140278232e-02 4.616444290716670285e-01
8.185955739400756215e-02 4.580475886467749030e-02 4.517063586159159039e-01
5.414445476944176189e-02 -9.030913751472059714e-03 5.248712430353910108e-01
8.979349701118838345e-02 4.022226805628961732e-02 4.585408967564574834e-01
8.160851688250443658e-02 9.571921730778939694e-03 4.973549594416220021e-01
6.619138809419830571e-02 5.798800842767357772e-02 4.517993206359833813e-01
-1.157456729917287486e-02 3.458795574970546793e-02 4.454640455381720932e-01
-5.559445775786386185e-03 3.026332705688511426e-02 4.436976453731926173e-01
8.720261768925240131e-02 1.884899021610087627e-02 4.961283352691355786e-01
3.959839915896650603e-02 2.005154452044643695e-02 4.468262514117663509e-01
-1.007014325429091833e-02 4.594876134569422788e-02 4.467046968550699715e-01
1.219725016665648308e-03 1.668865473529580756e-02 4.410901591215901640e-01
9.458601142200426248e-02 5.231729681315478581e-02 4.597787024760150443e-01
3.026073157966523153e-02 5.928498661925535318e-02 4.473097778399767743e-01
2.800066313398642120e-02 3.611295399858473892e-02 4.453230380570762925e-01
-1.797035467914970437e-03 4.365141947452814974e-02 4.444999851257716017e-01
1.022212569292401396e-01 3.539380393390004903e-02 4.816812684755632512e-01
1.657279168001156086e-02 7.455353468361404848e-03 4.413868072618636340e-01
5.749706140517968356e-02 -5.707041170133181351e-03 5.206219141972253661e-01
-2.844340485341712368e-02 9.431284512190756669e-04 4.412100200909722103e-01
5.632015337619451778e-02 2.776664786619283468e-02 4.511915285519727536e-01
-6.600251846366450136e-04 3.612472029138823898e-02 4.436783915441425696e-01
6.139859608145065151e-02 4.644959709545710969e-02 4.482505387856368650e-01
-1.904180477319202328e-02 5.282727575116190864e-03 4.408326314203431240e-01
1.064153002737279613e-01 3.724555117845574498e-02 4.764767013705318299e-01
8.002000058705265040e-02 1.659321953036558758e-02 4.625555887042930303e-01
6.757044660626095045e-02 7.414067556851135395e-03 5.165101652664747522e-01
9.348996561977354625e-02 5.959517525145801436e-02 4.627576588858192674e-01
7.648565739698631738e-02 5.808943979955382905e-03 4.672580656262376730e-01
8.545060500139768644e-02 1.100041049017059201e-02 4.879617381959261979e-01
-1.815853541265420590e-05 2.730998877883355352e-02 4.426108707908158468e-01
7.175415308181058716e-02 2.036810703302256373e-02 4.573767858714647416e-01
8.188807379457181679e-02 8.244229330607043965e-03 4.943448607363940539e-01
9.200479406294918838e-02 4.007419368056457099e-02 4.589303573955419990e-01
9.150039792629489910e-02 5.210748272304924211e-02 4.556612469445304736e-01
8.090057713325343736e-02 5.587077828483942576e-02 4.526504477277463745e-01
1.987694289388076616e-02 1.905545858176420707e-02 4.431160800793258470e-01
6.370019507012188165e-02 1.663132660565961110e-02 4.547772188809614535e-01
-6.965907429441274556e-03 1.167992207133526292e-02 4.404413247904520601e-01
7.605428584816299742e-02 4.859342455472985545e-02 4.499091562113057829e-01
1.595987053346996018e-02 1.117971195997229886e-03 4.397125707265731598e-01
4.477045602087325465e-02 -7.201726763319147781e-03 4.479045301932531586e-01
7.705816504481900579e-03 4.533691491238614479e-02 4.441653401740763285e-01
-1.048608116711107971e-02 3.521452584208155379e-02 4.453475793482046807e-01
9.851565668499696893e-02 5.022946946699692605e-02 4.723382454600437153e-01
-9.447154200479439615e-05 4.773952079832584350e-02 4.448073616555620058e-01
4.328567880563042453e-02 2.338429185204739247e-02 4.478058021561427959e-01
6.998783420708055980e-02 1.061056291106924829e-02 4.591705188546758021e-01
3.592091221927471573e-02 6.106567179572918586e-02 4.481222343259587126e-01
8.280134810286751690e-02 1.818738627290300211e-02 5.067512845032633440e-01
1.484071843755068246e-02 2.002755029562396961e-03 4.397559472160578742e-01
4.687023916607391261e-02 4.063185429593044184e-02 4.475853897137703763e-01
1.223599626011000197e-02 5.644015696949502420e-02 4.480030942894495660e-01
-2.235755263269232490e-02 3.776050060331360547e-03 4.409789965033578119e-01
2.340157577546195244e-02 6.640094843357487175e-04 4.407624836541236824e-01
5.043937476656110142e-02 4.632998323034181326e-02 4.474901499493997847e-01
3.978811005742703688e-02 -7.325232226256935160e-03 4.452318963852581746e-01
4.808208534772965073e-03 2.580994838588052120e-02 4.421256962524149903e-01
4.877478588422365369e-02 1.697284268121596051e-02 4.493199060196315098e-01
6.885236521111073871e-02 1.000958901275732140e-03 5.061828316836239905e-01
6.345279219008037597e-02 -8.484504461459619132e-03 4.642573687706394447e-01
9.503705030899314843e-02 4.774390444911657400e-02 4.861030689184374642e-01
7.664505673015607756e-02 4.586094963518227291e-02 4.504620054959996844e-01
-3.110331980550754341e-04 4.335481529088570929e-02 4.442881139001834678e-01
1.025409141499216206e-02 5.742512604179321467e-02 4.506846328478645303e-01
7.729663188068733315e-02 1.897731607397061884e-02 4.605666236142511027e-01
6.104941643970346332e-02 1.289053916286416607e-02 4.543822979231832426e-01
2.788768332898540481e-02 9.493423713019194868e-03 4.434393570042685084e-01
2.090744014139178306e-02 4.847525224940775479e-02 4.448061610496740759e-01
1.072767021411104443e-01 2.938212213562775565e-02 4.741971084513960100e-01
7.238888540245792813e-02 6.969748158105675689e-03 5.089505581853333016e-01
5.219471435112965629e-02 -3.658256090345763777e-03 4.517845202421151285e-01
7.890051700451418404e-02 3.164612757429240662e-03 4.790897158284750934e-01
5.598382297828750215e-02 -8.810336291814838128e-03 4.561162836353888084e-01
1.342671262908232653e-03 6.830387340071330735e-03 4.399357980564420623e-01
7.447725053885889679e-02 2.471052458436481802e-02 5.212052154615084421e-01
6.869844710367344065e-02 -2.075480705241078850e-03 5.021626274370164511e-01
6.985824618935917996e-02 3.890832832800932700e-02 4.516710558448555624e-01
3.686144043635250500e-02 3.265554319273474004e-02 4.464357492071394651e-01
2.165690968761927598e-02 2.457499582950306224e-02 4.435401997384930128e-01
9.258178755759256806e-02 5.908964068542450071e-02 4.607345046639116370e-01
-1.098150925430120897e-02 2.402826135344677400e-02 4.434817631431778318e-01
6.842028773126002106e-02 3.773214466104647495e-03 4.606541496670000235e-01
5.249897794321378014e-02 -9.044365602650721817e-04 4.514138494231817456e-01
5.303826397736170761e-02 1.633352828261022682e-02 4.507194228224664090e-01
4.930632343863548817e-02 4.004416255257511187e-02 4.478529929271889420e-01
6.634258921935948239e-02 3.460562808353765535e-02 5.220088115457960365e-01
7.020841214164977306e-02 -9.348216466455241958e-03 4.895490454185560947e-01
5.511231358126108398e-02 2.362279618255354319e-02 4.511275071482551691e-01
9.238923371642504545e-02 2.035029964335981906e-02 4.857034585945645966e-01
7.612298440816826772e-02 9.940496798845153276e-04 4.910211739672892262e-01
7.143967083708734067e-02 3.753397796151929089e-02 4.530579485989127408e-01
5.077861258375950676e-02 5.380620020092195116e-02 4.468387575851558990e-01
-1.428509349921285206e-03 3.963132939609211730e-02 4.440216759616522069e-01
7.811803994651989047e-02 2.052299960493520273e-03 4.834800365177593928e-01
7.982970742761895389e-02 2.035660063231986214e-02 5.127788331558578161e-01
6.046900914907387542e-02 9.957317747546882286e-03 4.543258897180996736e-01
8.073845514917223076e-02 4.674830429146818733e-02 4.512876267962488419e-01
-3.099465005489997552e-02 -1.346026674624777866e-03 4.401245309870284173e-01
1.017250730680948900e-01 3.750509895134058330e-02 4.613927326961457243e-01
6.030985827750574846e-02 6.088898832574102249e-02 4.552837124452088768e-01
9.605756562157891087e-02 2.232977033736541911e-02 4.698841437042527436e-01
7.581332010377164754e-02 2.526739972125603695e-02 4.572948426794044563e-01
-4.792002961347278760e-03 4.526023343130577276e-02 4.453017781776902884e-01
5.921461206287913226e-02 3.005746985986823550e-02 4.514335616697872644e-01
2.673275706621475872e-02 4.381794011125753063e-02 4.452179533561765323e-01
7.373707310592375608e-02 5.211205964995115070e-02 4.497510100599287908e-01
8.092866764482131714e-02 5.891325125624756465e-02 4.602502138202071436e-01
5.178287265341319917e-02 3.062078992838404568e-02 4.495788320237307234e-01
-1.443503906756385098e-03 4.401547263223202361e-03 4.395348992445867742e-01
-1.997200557139279173e-02 1.407302455965641665e-02 4.447071564038861946e-01
2.645359531802394387e-02 3.300126122144854401e-02 4.449106248065554103e-01
-2.844903206431121084e-03 3.440600756293347648e-03 4.393006100839254024e-01
6.877985410584715187e-02 -5.893328792705198119e-03 4.991163045881129579e-01
9.488772272478880609e-02 3.216848602395440404e-02 4.903386016068524422e-01
4.340140454524706037e-02 -6.228899190979596268e-03 4.471188889321705551e-01
5.355092922514138182e-02 5.804880657490236323e-02 4.480703624051065592e-01
1.074503184871989925e-01 3.200494635284472505e-02 4.671375750167494623e-01
6.791491702087434912e-02 2.243348804510179179e-02 4.552234471236371038e-01
7.567546034067729188e-02 3.404254592941984708e-02 5.164541984310525580e-01
7.271926397603571679e-02 -4.188665020538883364e-03 4.767460199717128977e-01
7.506677280681113562e-03 2.319072713112579551e-02 4.420379641777381630e-01
7.358367979678720472e-02 5.903211816094795089e-02 4.516699290600719174e-01
9.049208217475303295e-02 5.123352479851185637e-02 4.889805495484384479e-01
1.437405548673856281e-02 1.121208283395235678e-02 4.417632019912402508e-01
8.219776507892842532e-02 4.601762975727433091e-02 4.517767341468956754e-01
9.482280958355608635e-02 5.505573356868056351e-02 4.722867293425880852e-01
6.777535051059134508e-02 3.009310510268434994e-03 5.107108356431976359e-01
8.581391549387841489e-02 1.030218691175755971e-02 4.824953801816219134e-01
2.835479805128132344e-02 4.940308226450702833e-02 4.452854515872815000e-01
9.550813606759230023e-02 3.965365250160091115e-02 4.596274766891670915e-01
8.650783861886815473e-02 1.686164483860863247e-02 4.955541783519222809e-01
9.385091877312752573e-02 2.017026061793244715e-02 4.760811496934861387e-01
8.230488065568924982e-02 1.520461391575432877e-02 5.046556610866175241e-01
1.143688529336998883e-02 4.811950142210030812e-02 4.445523449028690455e-01
1.410965938895936307e-02 5.385420009169789718e-02 4.462942358309016089e-01
2.843689155844983038e-02 2.358511097160105943e-02 4.446483990141643083e-01
7.011446370016874430e-02 1.184874914380481051e-02 5.176289658722397213e-01
7.935806741936733688e-02 3.805350367547315898e-02 4.566441791599395450e-01
2.984459273518742101e-02 3.797429227448777256e-02 4.457084528924091793e-01
2.135136573890990264e-02 2.963050527953462604e-02 4.438628735558797223e-01
6.416823671515220484e-02 -5.185223533143726304e-03 4.621936499772182905e-01
7.625667445166764424e-02 2.382056332716755986e-02 4.581299396078749031e-01
8.569344738392063732e-02 2.220029319338159834e-02 5.043735814600818212e-01
7.367467429928448164e-02 -2.720144533593808322e-03 4.893886417627960617e-01
7.309267019061115034e-02 3.463834110096968011e-02 5.175268106953252456e-01
8.715278900327856626e-02 4.785451903364788817e-02 4.531206748049962374e-01
9.441194321875670536e-02 3.884808089286983374e-02 4.901038092043250027e-01
2.504602494599442869e-02 -4.382538075176441519e-03 4.400761486598154248e-01
8.698767164559138843e-02 1.739825936762352115e-02 4.676051913093534629e-01
4.490962520572308603e-02 4.268408991629757399e-02 4.472284290584941369e-01
5.208564181083745470e-02 3.295406907530647189e-02 4.492359912370687547e-01
8.587216232603063493e-02 1.606952941944331248e-02 4.676252933331105921e-01
6.628324349433122042e-02 3.626097599784270514e-02 5.161619117809990165e-01
8.149248682409716837e-02 9.803180961726368561e-03 4.980070376781323693e-01
-5.561909342708438314e-03 1.668965301281484168e-02 4.412317804884455796e-01
4.408467270875992411e-02 2.449119965808342278e-02 4.480155678024523858e-01
8.427127826305080838e-02 5.324207293302833655e-02 4.887381684349199062e-01
5.519135422586709389e-02 2.829884052705594968e-02 4.507982443425945229e-01
9.043800532648799129e-02 5.682460253322182964e-02 4.733925276925731729e-01
8.815130763238086808e-02 4.077438975035638929e-02 4.575399538485901973e-01
3.652733573849924198e-02 9.965408941887870034e-03 4.452521532658720305e-01
1.444717968437932848e-02 5.837116541641360068e-02 4.511449985587219214e-01
8.446877861806428855e-02 1.853438405902903610e-02 5.037049905868075106e-01
3.897191187226956531e-03 4.846758877725175496e-02 4.445919705279683387e-01
5.715298424191134902e-02 2.017780177743905626e-02 4.518958494037138562e-01
8.234154495345327729e-02 5.112908917777175127e-02 4.517094477490850024e-01
6.955632380673781867e-02 1.180862091713391453e-02 5.182458702793192318e-01
8.811943161676594194e-02 4.871825777428587245e-02 4.927864169021135554e-01
6.710508586431890299e-02 -3.278968695975518263e-03 4.644646880742489548e-01
7.783279297798763319e-02 4.704598333627869194e-02 4.505092775681652784e-01
5.330289515366615910e-02 4.516980238727100194e-02 4.478070214828131501e-01
8.011563788613371151e-02 3.117373406379631701e-02 5.143945036861620190e-01
6.253927836871722712e-02 5.331285204232289604e-02 4.476923628986378412e-01
7.679948221146914999e-02 2.357687453106126207e-04 4.856062094456441991e-01
1.599829421549739394e-02 -7.109455830591397511e-04 4.393276448652502775e-01
1.461572459198575216e-02 4.589916871429235157e-02 4.444623704212000703e-01
1.080439528489772760e-01 3.553775136417509917e-02 4.750795187248521012e-01
-7.704821454742967826e-03 3.809519265907386487e-02 4.450993833980947945e-01
7.640098896394391381e-02 3.849735825981580317e-02 5.095327102939918307e-01
6.397065892082402783e-02 1.003050094764161267e-03 5.143962284362646464e-01
3.595658102574092463e-02 -1.930325069352382440e-04 4.440391884015750801e-01
9.517393328306518463e-02 2.271514175429983212e-02 4.688410089630818955e-01
6.175033076046721608e-02 8.187161062811015161e-03 4.550376451732962013e-01
8.187264576576530617e-02 3.422261321919192051e-02 4.594049185361882559e-01
1.110128498692583981e-01 3.566198759472443552e-02 4.692802966131072173e-01
6.617772450442380161e-02 1.674900366151528541e-02 5.256947945567015390e-01
2.875837020485061749e-02 -4.512209219046774307e-03 4.408377398198202179e-01
4.853575040076568009e-02 4.593641212772138493e-02 4.474058858564713415e-01
7.323477613629639227e-02 3.684211733102909364e-02 4.542097064113913008e-01
7.716569731173088253e-02 5.781750195298887562e-02 4.528894057514990523e-01
7.011831140548198393e-02 1.323937093728181844e-02 5.187264128913685601e-01
9.212270621202038601e-02 5.054327381821575871e-02 4.883115331875849674e-01
6.543110848478783659e-02 3.693319727682482789e-02 4.510337476375272936e-01
9.341566221627745081e-02 4.738735768185120545e-02 4.885830833408802976e-01
7.042528111982949979e-02 -2.508997807568866169e-04 4.656730659178823784e-01
8.242153353166117857e-02 5.857498632176784403e-02 4.591955160911446732e-01
8.528699526673083620e-02 5.470119117098853206e-02 4.857925111428879061e-01
3.202147424445314638e-02 5.925293848658069740e-02 4.470659666094461970e-01
3.832428628361506801e-02 8.333768688665567359e-03 4.453783404597033146e-01
1.440645709158688489e-02 3.482245300690901997e-03 4.401133121387210689e-01
9.506421236030193622e-02 2.111767348096131591e-02 4.798426867295187970e-01
9.454235493258436596e-02 4.072179433547847005e-02 4.894311990375433408e-01
9.259224292291519040e-03 4.112954886740282506e-02 4.437782090084362308e-01
8.787548829819248619e-02 1.290269163399704322e-02 4.834471910047510312e-01
-3.527968874863211812e-02 1.144785710577244557e-03 4.419831747169383762e-01
6.035472625330845498e-02 4.572668191693176482e-02 4.482618554892375262e-01
2.565652701039042999e-02 3.023547749200836479e-02 4.445496078061431655e-01
7.703566046544689516e-02 5.754549325776483343e-02 4.520935792687387766e-01
9.150531175712287024e-02 1.791334046976951477e-02 4.836869463261951885e-01
5.865290713755931529e-02 -1.028625606657828165e-03 4.549950478065653003e-01
8.819391242799629049e-02 5.670415572082260214e-02 4.570678895191127578e-01
7.752253124419285213e-02 1.213684521256844402e-02 5.084773103056887678e-01
7.205902067899312702e-02 3.216704005234456015e-02 5.223373261557847647e-01
1.131286291491784800e-02 8.981868971222491810e-03 4.411508755147389715e-01
3.604333639435080422e-02 4.900306289735480159e-02 4.459344252152850352e-01
8.533032543250826385e-02 1.484028617132235675e-02 4.966166689667343426e-01
-9.913939921286226212e-03 1.592640959970595838e-03 4.388005711588564006e-01
7.661920892314064147e-02 1.461208885188813346e-02 5.123085635376315450e-01
7.109445980462666959e-02 3.616835342222279176e-02 5.146683391000822505e-01
5.049415923509767423e-02 4.327578382360205457e-03 4.499096255344084971e-01
8.544072900764154710e-02 2.066432690331250141e-02 5.037982768498986408e-01
7.083028579246378187e-02 3.281648829671773848e-02 4.540093593731389654e-01
4.578835412006578010e-02 4.222097734983237122e-02 4.473631070074679528e-01
8.380009252251414964e-02 3.340438081921572738e-02 5.088183121224780781e-01
6.956843569951884354e-02 -8.968702456789937744e-03 4.765889331110131910e-01
9.071660625266879385e-02 2.539520504869319240e-02 4.938629869368438841e-01
9.741289212936676822e-02 5.068668011370348891e-02 4.769762793750348395e-01
8.676202810246763653e-02 1.169568019319414467e-02 4.838827769872602880e-01
6.215254341736561883e-02 1.432048218566860575e-03 5.181453187124355209e-01
6.689228201874899971e-02 -1.584816938106608196e-03 4.624366006885683444e-01
-3.686505044915600743e-02 4.187265567172405306e-03 4.468100156929467048e-01
7.419011665754100815e-02 1.980522844406597954e-02 4.587694339117611708e-01
4.813770326517406023e-02 -1.092429262552765436e-02 5.306410925459834615e-01
8.521290407839059167e-02 4.674904761402965542e-02 4.973995393761809214e-01
8.089156032829199205e-02 5.852165806622010302e-02 4.570910567554711257e-01
1.045222772585200494e-01 3.909083907278258774e-02 4.780634973274854871e-01
9.226211509450144010e-02 5.664660758004339686e-02 4.721499764841742830e-01
-3.318999748915524642e-03 1.267028760038218897e-03 4.387221629776790754e-01
5.295331834047808245e-02 7.136016879829863713e-03 4.509668413788195940e-01
2.079133907849974733e-02 4.693081705999708336e-02 4.446878746079842570e-01
1.252102792070037933e-02 -2.630516361023652657e-03 4.384429171153667038e-01
8.662040254636696468e-02 4.523089866048386753e-02 4.975605844264218147e-01
1.201361076973924032e-02 5.828300991164360456e-02 4.520375020705792446e-01
6.305474947708701594e-02 1.862170733248198935e-03 4.570894311011607369e-01
6.315717813885904364e-02 5.629105203591958095e-02 4.487318493925462892e-01
8.005520279345405832e-02 1.303965710377671602e-02 5.059264100756881710e-01
9.202738487457191863e-02 2.999494739943914245e-02 4.946156362823507791e-01
7.203898264236309468e-02 4.340638585189256216e-02 4.504454988725366538e-01
-2.258720363741772638e-02 4.958004610903154682e-03 4.415735688342226628e-01
5.203557319222328753e-02 3.793873025584679204e-02 4.484508204159301514e-01
7.797755392759947446e-02 1.965738797814101102e-03 4.868951514291469107e-01
2.433950338741348862e-02 7.838240261752229057e-03 4.426395903800330323e-01
5.414077097680396883e-02 4.564599724634525041e-03 4.515795542381921823e-01
6.633156918452838557e-02 -1.045841937798678602e-02 4.709062335947007960e-01
7.813345203277601014e-02 4.392158453947277510e-03 4.711466123878479406e-01
6.352695871073897604e-02 4.679234663768209318e-02 4.483691526261022187e-01
8.680881655760087912e-02 4.301279012629683624e-02 4.552645896385665858e-01
9.007176769343433476e-02 1.656071980569689267e-02 4.721876229262070845e-01
4.704044721515239502e-02 6.194796715499716055e-02 4.490136609641364185e-01
1.018459853101024853e-01 4.365254223074625795e-02 4.778170437493491907e-01
1.144718562926059537e-02 3.034767584885347813e-02 4.428271385169976204e-01
8.140350866166716493e-02 3.953127089789383597e-02 4.563448442317531439e-01
2.276733156044795717e-02 3.827911098172499110e-02 4.447039252984740232e-01
9.851018650355716777e-02 3.621915333356322264e-02 4.853691719006085759e-01
7.039223164030897206e-02 -7.306264080537429838e-03 4.929896707370361453e-01
-9.926781473940979317e-03 4.939044917790188366e-02 4.487880089291365615e-01
9.275874977333847804e-02 3.056603251569101759e-02 4.619836672084892126e-01
6.638726736675197582e-02 8.329871073851023364e-03 5.192634456722836633e-01
5.760785443159774366e-02 -1.058697646278554914e-02 5.217832920193640200e-01
9.612368196461335002e-02 2.201552437006455004e-02 4.735197261284305181e-01
7.208501542118471439e-02 5.515242503659724405e-02 4.497186292532504015e-01
7.885377664267030628e-02 1.897562257139050190e-02 4.613463488935540813e-01
1.585247873889159345e-02 3.103408424302453797e-02 4.432923241981993057e-01
2.014811129941798673e-03 1.559410304161054465e-02 4.410212106076245586e-01
7.861357961169643249e-02 2.824926830859935539e-02 5.169417530357367507e-01
9.343980050873788856e-02 3.774951624612139789e-02 4.916292384594832532e-01
8.680040950292107482e-02 4.570701402685214271e-02 4.970579755885977113e-01
7.685200804312364298e-02 2.714407868467295232e-02 5.191502964900488459e-01
-3.982418883219036171e-02 2.856622866521234174e-03 4.442586699038727494e-01
7.549793314640050601e-02 6.664508809888858645e-03 5.037585874506473882e-01
-4.250693067360018090e-02 1.019914829147691498e-03 4.416683478150281728e-01
7.541080381572226599e-02 2.196805154489633893e-04 4.743413849030609919e-01
4.480217469813435605e-02 1.393198955137921712e-02 4.479867008943305695e-01
6.345080756947581169e-02 -4.786238150027547628e-03 4.609808501308316209e-01
8.577734354471735004e-03 3.499605848959701920e-02 4.431709348591925668e-01
3.887245556667902335e-02 6.476258507601249936e-02 4.502397992516679603e-01
7.174372786892829756e-02 -6.562107865087184362e-03 4.820324354253420762e-01
2.527713074820453834e-02 4.876041479238462512e-02 4.450347418411532696e-01
1.016393691528357235e-01 2.774838758480215051e-02 4.787100794786181557e-01
6.306303669329869910e-02 1.517845194244701705e-02 4.548258321666650006e-01
6.491169071316998940e-02 5.077661549007289610e-02 4.479967440455933092e-01
9.678721611387489099e-02 3.005498030187093300e-02 4.631687029188960580e-01
-1.727616317811803137e-02 6.131273697233923826e-03 4.407250117799799694e-01
-1.836783264043147235e-02 9.437501909718343240e-03 4.423328479578358396e-01
5.483012000343901599e-02 -2.295571173679138068e-04 4.525985768887924032e-01
8.213739843506199199e-04 5.076414708712100737e-02 4.457041520928914369e-01
1.083190108029011105e-02 5.058781898915157976e-02 4.450527013697660461e-01
1.039047008668307209e-01 2.858025183410324230e-02 4.677521527929288103e-01
2.026407380534869275e-03 2.167180150951886902e-02 4.416466576999282245e-01
-2.785236933927122752e-02 1.843751121645547178e-03 4.414718695569454510e-01
-4.146504751166930208e-02 2.408912545632138896e-03 4.421057474201766646e-01
8.132583696636859483e-02 8.281455215238786929e-03 4.705746160406422685e-01
3.763821897827585028e-02 6.908078261430221877e-03 4.450292822260993320e-01
8.469082576144947028e-02 2.145400996999436219e-02 5.062286826441088072e-01
7.657566026691264849e-02 3.909395312915617260e-02 5.087575772728597512e-01
-1.656159883792180862e-02 2.829902166839756011e-03 4.398801765646235262e-01
1.694693082802140732e-02 1.580886057766889979e-02 4.424600718594180471e-01
5.031382989452190535e-02 5.093494616837028477e-02 4.470267080124222248e-01
7.165597366727087525e-02 -5.615689548390704472e-03 4.766981759067072666e-01
7.486402670873883169e-02 2.278446107724886593e-02 4.578816099072069434e-01
7.928319444147136075e-02 4.734722374163275599e-02 4.508144643662966855e-01
6.917713230451734419e-02 6.634064413843033040e-03 4.600916600843353299e-01
1.043464865641548778e-01 4.100453798840140995e-02 4.767136821041894623e-01
8.986173941785280395e-02 3.621817417754807228e-02 4.982644742782101344e-01
1.818926960693509690e-02 4.315816294080813964e-02 4.444155756187845863e-01
6.013730300195165024e-02 3.513759598359070951e-02 4.504323690976101968e-01
1.458470133408963643e-02 3.490163971958007254e-03 4.401344073815388613e-01
3.341906921330982383e-02 2.540418939384065516e-02 4.456372585398507558e-01
-5.075561422594718035e-03 1.039950823558151612e-02 4.400938585965406546e-01
8.685337740696410028e-03 1.343377019684541956e-02 4.413690333293227575e-01
2.008091347950997571e-02 2.119101558515507078e-02 4.432267361027879549e-01
5.952927028780799143e-03 1.324730632246499083e-02 4.410543185769604801e-01
6.020738367042412914e-02 3.862373325262561524e-02 4.495769511965793108e-01
7.531458563654644389e-02 -1.467734645024062427e-03 4.867529088173774277e-01
7.506584147637106186e-02 4.394447275816529969e-02 4.509755245306305560e-01
5.659484614125515761e-02 -8.662218291482868399e-03 5.223312496594652021e-01
6.925526354028838094e-02 2.045467253332478724e-02 5.246318837720675976e-01
1.222966187188775054e-02 1.335996379608724548e-03 4.394450214378912700e-01
-1.124163463098722462e-02 3.718079612609788420e-03 4.395913719103177741e-01
6.779473687211534649e-02 4.604931852653654234e-02 4.491698321640508196e-01
9.066610956975233726e-02 4.374232006082899582e-02 4.938353710672952479e-01
3.955448306337105979e-02 4.956717900166713459e-02 4.462972505220079156e-01
2.828815711206784586e-02 3.117853126912212280e-02 4.450491696860209845e-01
7.685334390181519648e-02 1.302747825999503624e-02 4.621498530527617943e-01
9.396137924818548370e-02 5.177849442016540377e-02 4.584158380756394036e-01
8.363233733044841967e-02 9.567606906851596621e-03 4.720971119607855204e-01
5.824164393578584037e-02 1.668040578724755071e-02 4.527252336964823765e-01
2.108904682599819363e-02 5.826122736387052449e-03 4.416711066987100143e-01
8.482607093500044160e-02 3.164513245543205261e-02 4.607050793332482241e-01
8.959197909765757861e-02 5.028585829863066459e-02 4.541402592415804684e-01
6.124073948314923826e-02 3.805899971381237340e-02 4.499342466147799868e-01
1.009540250939911371e-01 4.460102770373023523e-02 4.665929652678698081e-01
2.784042972922531889e-02 1.778315013809746853e-02 4.441260888575441768e-01
5.109599211109467493e-02 3.389690668875070673e-02 4.488314929863804204e-01
-1.626701992995283411e-02 2.908074302050461801e-02 4.457750757333653890e-01
9.318136573283324064e-02 4.081284245075789824e-02 4.911767729926308501e-01
7.584331989526874040e-02 5.090015421558682224e-02 4.500108697197803820e-01
1.236442655448811989e-02 5.146564407127931368e-02 4.453532307043622795e-01
9.378517931336782798e-02 2.089340916988864302e-02 4.831617913107581486e-01
8.825760556103732710e-03 5.098096792661001991e-02 4.453517686431240352e-01
3.894954348699635610e-02 1.554611507729919580e-02 4.464145812469080266e-01
8.788209674054578424e-02 3.310185065624832168e-02 5.023937417899910773e-01
6.564850345317191360e-02 1.552989374624402785e-02 4.557158016296704584e-01
9.794257952962835689e-02 4.747927515196141701e-02 4.614264168061154581e-01
3.639076546547838353e-02 1.584052159395442014e-03 4.443287190603442127e-01
-2.024256140676923901e-02 2.746769072453561847e-02 4.472271742794816096e-01
1.019647012623778465e-01 3.125364899149524894e-02 4.644479792188883072e-01
3.950417716395261160e-03 3.066696951904627350e-02 4.428147377680654029e-01
1.228655027681622471e-02 4.556148111799025735e-02 4.442936583127788941e-01
9.891625956899419148e-02 4.779089726634104529e-02 4.643001582000092498e-01
9.579161585048311112e-02 2.426823200320646357e-02 4.675755189098944054e-01
-5.736305564293827514e-03 1.598443932304637743e-02 4.411323610011959051e-01
8.116400108648304246e-02 1.202074824806735436e-02 4.664186213130914194e-01
4.539771104911567018e-02 6.899731978098344598e-04 4.478760549338591246e-01
-1.456723670289836181e-02 1.424553670046775113e-02 4.426235452924173752e-01
8.612372300591375485e-02 1.148609940338354840e-02 4.870113177563452633e-01
8.040527689403552392e-02 3.579688724798055915e-02 5.106231575903085185e-01
9.296674026523782386e-02 3.416179422022033729e-02 4.935763541252757292e-01
8.566669209584931721e-02 1.250989697638051762e-02 4.913379978451191121e-01
7.563048299593805313e-02 1.468262099487865121e-03 4.716167882838157577e-01
7.240150874325440578e-02 4.976525740843217027e-02 4.492581887668977703e-01
6.770762314532510762e-02 1.706119593175988575e-02 4.563123049809151843e-01
4.403092393322436543e-02 3.588110376281045122e-02 4.475415814771509515e-01
4.968774480021367207e-02 1.463330830993566159e-02 4.496057556865926674e-01
1.025839932611592731e-01 4.322087595249370084e-02 4.734796150622508915e-01
4.190881893675089259e-03 1.530571024440628355e-02 4.411213852416167036e-01
6.179037393697118380e-02 4.258326752954954414e-02 4.489200662910304840e-01
6.338042819589695398e-02 3.701639902434430279e-02 4.506192389193363623e-01
5.173906645900507376e-03 5.768486346543199271e-03 4.400902721639339266e-01
8.479194803146669623e-02 9.324817989871884982e-03 4.842507214998056919e-01
7.655921669335913338e-02 5.381662237427455031e-03 5.001426182432716638e-01
2.804605968575019787e-02 5.347186839644869211e-02 4.460912161737394799e-01
5.199413253896653653e-02 -6.515788773816162845e-03 5.257945744154649548e-01
6.121561962474564300e-02 1.832864043127741330e-02 4.535503155611581572e-01
6.808180451539692403e-03 3.614681659088109233e-02 4.432616885519942151e-01
6.797568498226368161e-02 1.603295510105218549e-02 5.233155980000352425e-01
9.658070495104964515e-02 5.215489001982186873e-02 4.763602940428088295e-01
5.453982738261884539e-02 -8.495300806529272955e-03 4.549826205437336735e-01
6.916304530873065848e-02 5.722074287934886261e-02 4.508186710397154573e-01
-1.235425368543510531e-02 3.306891666651773365e-02 4.452959479117551411e-01
6.744502019616686883e-02 2.475320895221886155e-02 4.546806864455584796e-01
7.353210054532433038e-02 3.205928298135056476e-02 5.210190787111095290e-01
6.078387435230598462e-02 1.739432544459097773e-03 4.555549874676543265e-01
