1.074718993517844307e-01 3.327425757244362181e-02 4.756516031490565788e-01
8.150870153623340775e-02 1.034891062246440750e-02 4.978391313829395037e-01
4.273961326045708393e-03 2.157987263965758379e-02 4.418263173739800931e-01
5.615726473181200523e-02 -6.541439707834467709e-03 4.553773321899420856e-01
5.341520771764637909e-02 -1.925369484489498993e-04 4.519996830198459437e-01
6.070022899844263603e-02 5.854467040197695177e-02 4.519380029691091871e-01
-7.927769043467838145e-03 2.641956327668827306e-02 4.434221084021118253e-01
-4.197945185645425700e-04 2.290027405447004824e-02 4.420383747155259280e-01
3.944522300857486452e-02 1.306733292900698513e-02 4.464253789965939023e-01
3.701120959957538564e-02 5.510646616376267681e-02 4.464866981970211368e-01
9.050985880983231785e-03 3.304395981362025225e-02 4.430883388464342820e-01
7.755063193210517958e-02 2.445725460767884246e-02 4.589839752205815970e-01
7.115342405193429698e-02 4.844246878509959886e-02 4.493519679886170959e-01
9.712520017314801857e-02 2.345798598240399213e-02 4.702924541829223704e-01
9.100243730654465624e-02 2.685501784686864304e-02 4.935557575419697862e-01
4.494262354595554565e-02 2.991866005697831066e-02 4.482912544083714201e-01
8.675041707973693561e-02 3.172719114810886726e-02 5.037270466708533290e-01
6.209440159806590975e-02 6.030315873768301443e-02 4.548836833393777868e-01
-1.753867726492574358e-02 3.773404037409080342e-02 4.484622975769401720e-01
-1.937478352250855511e-03 5.364694232125382517e-02 4.481298327523092206e-01
4.926145212266833801e-02 -1.298484172303507843e-02 5.303412411286616557e-01
3.346793106073846225e-02 2.055164503701696968e-02 4.456303067548975094e-01
8.642266358824202133e-02 4.328340210430432766e-02 4.555012883956000569e-01
8.553332623625178877e-02 3.692661419642009890e-02 5.037913601351924342e-01
8.310105744327425659e-02 2.416705362094482071e-02 5.095437384468739506e-01
4.676120842932111887e-02 2.006099679856349072e-03 4.485313141629971301e-01
4.648962612206084671e-02 6.921489482140622419e-04 4.484975642221677439e-01
9.201267074719313155e-02 4.050352794988720806e-02 4.925205149298420015e-01
8.121881424245785963e-02 5.024549383396480912e-02 4.517866372385780371e-01
-8.685383218300136293e-03 4.888188622052996868e-02 4.476368084809860814e-01
-1.645687946143477992e-02 4.681014777709095742e-03 4.402671280236425955e-01
5.233589440095288287e-02 -5.900436993363242580e-03 5.252732759313204491e-01
9.676457759647628942e-02 4.833583879795256416e-02 4.824153718471404506e-01
7.931673149520657162e-02 3.279371052113542323e-02 4.587817899455286508e-01
-1.213822062809691293e-03 5.158003071694769459e-02 4.464074136139458138e-01
2.439641783589846513e-02 4.555454182416575348e-02 4.452257597856429383e-01
1.370479714112558985e-02 3.717955272099056178e-03 4.401554217273686564e-01
3.119520570475195487e-03 1.927384489217505784e-02 4.415695444740332376e-01
2.996273023350384812e-02 -1.080141311684688432e-03 4.418042448981840398e-01
7.072565956269649678e-02 -1.979969915197553852e-03 4.972442779714238981e-01
7.343808059497293483e-02 5.227518809987201018e-03 5.035295736669003208e-01
-3.886960556198068573e-03 1.462281030172499566e-02 4.407418863061264847e-01
7.215151280862165672e-02 7.150499589941836966e-04 4.984219311546275732e-01
1.086780469812910349e-01 3.331346357059762620e-02 4.743330070336926885e-01
1.166684800589947064e-02 4.787750280967401073e-02 4.447468838600210361e-01
4.536448717579890516e-02 5.206628147327283657e-02 4.468768906631895299e-01
9.115628192396145468e-02 1.839136034313522058e-02 4.749733700027157224e-01
5.827524485429015633e-02 3.013765473755848634e-02 4.514709993614379191e-01
5.083206485613919051e-02 9.171085506715893898e-03 4.503320454007109230e-01
4.709883588896533052e-02 2.156085240091300259e-02 4.489529923157998259e-01
2.938397432249186675e-02 2.789174539658310914e-02 4.451377328595579330e-01
5.529442990616176973e-02 -9.877066292719931945e-03 4.563500444052587812e-01
4.859952724271023039e-02 6.312840029782242068e-02 4.533918656277052261e-01
8.457678191851787652e-02 1.393421446134810934e-02 4.690210083036893129e-01
8.163386055894349125e-02 7.135670412609373091e-03 4.893530954057536686e-01
5.314958976692100295e-02 6.184435948049214066e-02 4.544059635300715105e-01
1.062423729712901749e-01 2.897733291269334599e-02 4.726455983576739461e-01
5.765673817916876914e-02 3.137059068065886636e-02 4.510400590680318511e-01
9.109886756467842905e-02 5.053328752447362737e-02 4.895667457872069361e-01
-1.893563637571469595e-03 2.782690843517387005e-03 4.391561101012859680e-01
9.159851977789157385e-02 3.319725434254732627e-02 4.956012078530013798e-01
3.790108971615896438e-02 -7.496884105741006762e-03 4.442128229741891254e-01
8.649899718514926505e-02 5.589514266462288633e-02 4.795369665038091145e-01
9.518803440534134852e-02 5.352755280485553546e-02 4.748826372919633387e-01
8.671127206205467286e-02 1.588508931987220665e-02 4.914513374340045981e-01
3.198837203717068770e-03 3.757386314137117767e-02 4.436366766883427792e-01
2.716560954071121914e-02 -1.651673283089322803e-03 4.409425356021351439e-01
1.119732104051124159e-02 2.827260185662371084e-02 4.428017152340872342e-01
1.017382930832798904e-01 3.177833754485029361e-02 4.645113714669076299e-01
-2.290395575195062344e-03 3.255182031285596550e-02 4.436273548591971871e-01
8.494729205391371440e-02 5.002347493447145688e-02 4.933678297066370066e-01
-3.161775597384776371e-02 3.354686261088432944e-03 4.430523252846125803e-01
7.328892352487750839e-02 -3.965660357923029081e-03 4.861648893282028983e-01
5.523679706009286539e-02 -1.241524703933365864e-02 5.248723476483579953e-01
1.695460143098120182e-02 4.806244914398755813e-02 4.448625787360611650e-01
-4.977064842363102676e-03 4.328441782361871354e-02 4.451680921349150943e-01
8.390396700605075309e-02 2.860482756004128699e-02 5.087766406689655518e-01
4.783422809752766597e-02 4.117679655329356710e-03 4.488641022982281514e-01
9.599878663770912424e-02 4.956339922545546089e-02 4.604787119031057419e-01
-1.378198303889781318e-02 2.329037153314544167e-03 4.395321183764379080e-01
1.240059194185377106e-02 5.806120275180434026e-02 4.517942706617510407e-01
5.467044376352406254e-02 8.122657291075455546e-03 4.519353648522261846e-01
9.022935974912345281e-02 4.369077833826785079e-02 4.939731898994543791e-01
6.773936450823031530e-02 -1.324788735995302384e-03 5.045350424653926025e-01
8.945280103659083992e-02 1.505632171513388018e-02 4.779829406249712642e-01
3.739290596784636267e-02 2.517054712976161610e-02 4.466298267931493871e-01
5.200271635155753053e-02 5.695381622301896180e-02 4.476807681529023641e-01
7.944672164588045815e-02 3.542924759080776781e-02 5.114602361343093540e-01
3.825333665997104199e-02 6.339309923189515028e-02 4.493539823309000703e-01
7.239167209363617239e-02 -4.980433450526698669e-03 4.818525706955920640e-01
4.406344945055803985e-02 1.947442672530506208e-02 4.481266643999596289e-01
7.571845420076163402e-02 4.108963412043342006e-02 4.534667102878426337e-01
-5.480115664832507436e-03 2.947926017866520434e-02 4.436639212071880611e-01
9.138729134760319173e-02 2.041171317573062596e-02 4.697075401913349824e-01
8.147639243805858411e-02 6.263622109777668666e-03 4.864235605310615607e-01
2.433921981499219053e-02 -1.261040875720115511e-03 4.405258150252839844e-01
9.824918094751472486e-02 2.371213582441426132e-02 4.734915901760538004e-01
5.251046542706935133e-02 1.794293812020133702e-02 4.507335758141680082e-01
6.246340962087836013e-02 3.054011612275584972e-03 4.566320436351979373e-01
8.531071079036769977e-02 4.201918253744954534e-02 5.004604795953730978e-01
-2.377879635326992508e-02 9.823530669889416964e-03 4.442211904231618824e-01
1.037875828571239861e-01 3.163279351654511851e-02 4.778733799319917486e-01
-6.197002105438670014e-03 3.991447207288906229e-02 4.450465160455236990e-01
7.096151715353793410e-02 4.952839758942976373e-02 4.492891919330361250e-01
7.333482164454918628e-02 5.407549162421065522e-03 5.039310517251339716e-01
9.864489019577551976e-02 4.882279385222816626e-02 4.682395705467315983e-01
-2.154711797290919176e-03 5.221243842200117696e-02 4.469640061596519831e-01
4.180475265601295287e-02 5.288974430661737280e-02 4.466161994079806408e-01
1.645448826559202035e-02 2.784730323453052728e-02 4.431791469199063971e-01
8.550395399827616372e-02 5.763049221731757210e-02 4.738517427065165322e-01
7.801693443760164548e-02 3.404303616464295079e-02 5.137772917273827344e-01
7.136112202156738582e-02 1.947597749237305748e-02 4.578137153912934521e-01
-1.602060794778548125e-02 3.455623909722988635e-02 4.469217625397889915e-01
5.125517165520080548e-02 4.335336037179490787e-02 4.481264821050525704e-01
-1.265884443722628712e-02 1.191767305545518053e-02 4.412210541266025632e-01
1.267520205221448447e-02 4.513872945644308021e-03 4.402828790838398398e-01
2.301557869118608934e-02 4.502912888051082731e-03 4.417324386415935056e-01
6.719775280331986844e-02 -5.973531631592733648e-03 5.025110508672622212e-01
2.269618507992974751e-02 2.107560348401948253e-02 4.437628589698208725e-01
8.086139278603091118e-02 3.423888556730497745e-02 5.114660567982460826e-01
4.463862613484324143e-02 -4.150312293473018208e-03 4.477485193678630848e-01
3.059302902372221938e-02 3.668383699737279725e-03 4.429770730360977904e-01
8.594499019050420852e-02 1.335729821205984720e-02 4.902202625146461212e-01
9.153934508333605446e-02 3.073556972407085960e-02 4.950016126998747490e-01
7.683281977678199648e-02 5.874802724056898268e-02 4.556658374422480340e-01
1.054904640236936503e-01 3.632732298172991481e-02 4.639352938945444649e-01
7.211271732713862848e-02 1.152136223449898127e-03 4.992028561713021118e-01
7.461572203077825038e-02 1.938526896501992225e-02 5.182699380221194030e-01
7.475673434482997537e-02 4.958323511380405627e-03 5.014733422099759697e-01
6.005135069327888209e-02 1.640830109405831683e-02 4.537187995470879920e-01
8.907113409440407803e-02 2.926197181572219586e-02 4.997075677216107348e-01
8.200373268088684275e-02 6.989724908166838717e-03 4.753716226640528619e-01
7.423836603434570691e-02 2.416451670723857026e-02 4.573295305885310968e-01
2.117307326757356459e-02 1.801507296033321229e-02 4.433307837243526395e-01
9.187553100513043414e-03 5.249258969600290731e-02 4.462671628464554563e-01
1.999798421380401259e-02 3.686112785782932194e-02 4.444743063804214578e-01
3.505794176734958884e-02 -4.126960181077540812e-03 4.431152361643851401e-01
7.682332810288688973e-02 2.790789003688670319e-02 4.574711415796633984e-01
7.183501824578103490e-02 1.675193142464180551e-02 5.193515779034671986e-01
5.199875510033728776e-02 5.931390173601042148e-02 4.488054726479890899e-01
1.321241021852272504e-02 8.234212308030756586e-03 4.412641522878466005e-01
2.826351980680351372e-02 1.962556567929026746e-02 4.445576084782996706e-01
-1.536499154682510575e-02 3.498842194098886541e-03 4.399199806875168650e-01
4.126995754166207231e-02 -2.645253265181000610e-03 4.462132291721294663e-01
1.281399306056799602e-02 3.218749512437330679e-02 4.433312002639166471e-01
2.568271248063619047e-02 5.674748323363842939e-03 4.424409592128274449e-01
2.663623971012238356e-02 -9.181266951469148688e-04 4.410287405067673250e-01
4.766776472819432564e-02 -1.109104665268154100e-02 5.311379114312170246e-01
7.062944531278534874e-03 4.541565548570811184e-02 4.443507894827093962e-01
8.221434049847976822e-02 1.713702405113352867e-02 4.638017902877451526e-01
6.722333630536922455e-02 3.571177394817907219e-02 4.522049203384135296e-01
9.110480705968496129e-02 4.673855595687739090e-02 4.912893718154947575e-01
9.065212680918441346e-02 3.060640293055685857e-02 4.968891963803411249e-01
9.311638064638413925e-02 5.415434554078353557e-02 4.755697356000834208e-01
8.912494288188949065e-02 5.379660342082098756e-02 4.844193323092375048e-01
6.370169450439905345e-02 4.173092434675307674e-03 5.185017337006539995e-01
6.408227277953038037e-02 4.481272863660445971e-02 4.492627823345410332e-01
7.665505169271284724e-02 5.172541287071540095e-02 4.506142301575291054e-01
8.840623516062807996e-02 5.736567643881965162e-02 4.579451337547901235e-01
-4.529599603168919103e-02 3.074531778862383581e-04 4.461836070210391525e-01
5.050923509874336026e-02 4.234771087991242439e-02 4.481160754293232462e-01
2.142467151545501131e-02 1.485194903464315958e-02 4.430262011333654937e-01
5.520754081873598812e-02 1.242710545540227397e-02 4.520739844631416204e-01
9.651531910997036834e-02 4.792572418125302242e-02 4.603430156331853595e-01
1.509619521114455125e-02 5.197002819362819825e-02 4.457241254269512232e-01
1.054170763272410938e-01 2.897422484140902907e-02 4.751490934352292084e-01
7.149876022146323118e-02 1.116536330331878782e-02 4.601571593121510650e-01
1.015751768642824265e-01 4.365698738575884974e-02 4.696196394474455027e-01
2.104164860357750355e-02 2.858209581831674256e-02 4.438757795148421947e-01
6.420827462320373435e-02 2.688430758410428542e-03 5.157052568857382058e-01
8.253605849572713538e-02 3.431423113236641009e-02 5.099425187692944172e-01
8.069118363993747767e-02 3.403279686794286052e-02 4.593059769710716722e-01
8.935190376930293721e-02 2.698976148796997099e-02 4.972673453576955671e-01
8.043240593065616173e-02 5.623087989076704096e-02 4.538156222630744807e-01
1.498574755558843702e-02 -1.764033657285584821e-03 4.390029945027283387e-01
7.700845958524707435e-02 1.255327392187166255e-02 5.091391003450594921e-01
5.273219390401702455e-02 6.197555501403143735e-02 4.543571598345179097e-01
5.460643644433765820e-02 -6.361148023504028214e-03 5.236123069326029666e-01
2.516318823924059214e-02 2.873588029514393197e-02 4.444948483891270063e-01
1.005934970813595203e-01 4.504691920365119090e-02 4.702319732864961299e-01
8.241192630866819857e-02 4.500325164605077644e-02 4.527241876079180494e-01
1.041119878239535751e-01 3.372265820534681158e-02 4.648793297658834756e-01
-2.628306838606359747e-02 6.151236977557525409e-03 4.430607024552295492e-01
8.279697354981799262e-02 2.519312209676741535e-02 5.100880335371918983e-01
2.008886245071211940e-02 4.913659120178708734e-02 4.451379161182643096e-01
2.207759599962076311e-02 2.014041207707342740e-02 4.436284402874487443e-01
-1.344391698570389891e-02 4.139674856866696478e-02 4.471726570931481293e-01
4.983750814172946408e-02 3.854997952543720574e-02 4.483550013361713438e-01
9.713078295812067886e-02 5.178584076903924166e-02 4.693398226459719047e-01
6.495183391287434604e-02 1.725435237474777462e-03 5.133393044028695673e-01
8.453967993783186030e-02 1.248903872929132096e-02 4.707575491880738872e-01
9.064861136472955605e-02 3.443789138894793461e-02 4.968371701593966572e-01
1.024809429144405981e-01 2.655773351579645072e-02 4.752379134690394302e-01
-3.135926917465798464e-04 5.042813903888964527e-02 4.458107884888108940e-01
7.197173959569136241e-03 4.729537216219020790e-02 4.445856258861234922e-01
4.379888672569884345e-02 1.408334999069572879e-02 4.478277609935189529e-01
7.869352710507020177e-02 3.157560059572926681e-03 4.845231695610434097e-01
-3.590964632225677328e-02 2.230175613648159669e-03 4.427083433444578553e-01
7.195395641368647344e-02 1.511238854438794361e-02 5.179260979967930112e-01
8.268214086467376434e-02 3.293882111368546389e-02 4.602251135585539998e-01
7.134310051495443283e-02 1.903262246900483054e-02 4.579314429209930815e-01
5.226312969695046801e-02 4.863663167636427670e-02 4.476573907381229400e-01
7.254340165247016858e-02 1.795733429052409277e-02 5.195995063115840251e-01
-2.781019546371131870e-02 -1.039029317323345893e-03 4.401791125137782812e-01
7.414411765826474376e-02 3.689588168179983550e-03 4.671964250646290506e-01
4.013618915053369929e-02 1.582412399486257670e-02 4.468835607753959827e-01
9.232744670517022134e-02 2.150498131984640571e-02 4.859972001365254202e-01
6.814172697960532710e-02 1.813554153506885362e-03 5.081527650867021517e-01
4.756480242473501777e-03 4.769758259016910334e-02 4.446514518006723926e-01
7.666310613147774011e-02 2.044063777379549751e-02 4.602055660960845396e-01
5.097313388515065796e-02 -1.593653268598056337e-03 4.508359276189292109e-01
1.064666577983535284e-01 3.754817677189276753e-02 4.642041316488259017e-01
9.992621247292521325e-02 4.598926273836771023e-02 4.689167094200963337e-01
8.325480896804616365e-03 5.723718366885365699e-02 4.506669982012472819e-01
3.693990935784077084e-02 3.761004500645811349e-02 4.468135426515778552e-01
-4.963980409850692228e-03 1.643220990163947806e-02 4.411659258167709985e-01
5.772752384544611870e-02 2.234356119806300486e-02 4.522279670004692442e-01
1.072579537294434671e-01 3.686631146679553855e-02 4.645502025706529925e-01
7.839824380244114765e-02 5.298771278800642331e-02 4.511619709271732503e-01
5.592960069385242983e-02 3.315554646047651211e-03 4.527089421255879320e-01
-7.126278968368640263e-03 3.200188420683883900e-02 4.441777596628036506e-01
6.540236894058783224e-02 2.015241741404263584e-03 4.591143459025771034e-01
9.020593426934506165e-02 1.598401776855797735e-02 4.816726546425529887e-01
8.665220238768754635e-02 3.358339961135885926e-02 5.038205040038837845e-01
9.371422794307106285e-02 4.778594054386148954e-02 4.573228020497139279e-01
8.120520039676998314e-02 2.726643553355776600e-02 4.593390409804126162e-01
1.397398500620136014e-02 3.102383428720734485e-02 4.432838500708898288e-01
8.287379412357755160e-02 2.123405717497636042e-02 5.089518824394522190e-01
5.003015418830522587e-02 1.286543987975246987e-03 4.500104377589341231e-01
4.682911656828764313e-02 4.299090842926387573e-02 4.476959796437028349e-01
-3.299436290961729745e-02 -1.212771020051012791e-03 4.401813655898964561e-01
7.904516333848818355e-02 3.573600490391336260e-02 5.114819188511398051e-01
-1.219072606523237921e-02 4.677449244943966689e-02 4.479312648116371420e-01
7.660935416685878130e-02 3.522016432755091953e-03 4.955452157077165354e-01
7.022369398666425400e-02 5.581149557016815144e-02 4.498828834921267394e-01
3.671204950609065210e-02 6.034256156063767113e-02 4.474716283458547994e-01
9.671138647359593665e-02 2.671202600232749566e-02 4.847023962924297269e-01
8.281839264225022978e-02 3.443582069445782351e-02 5.094933337759631753e-01
8.193611678073980942e-02 4.926580271436845071e-02 4.957133496296093345e-01
5.843080375028625317e-02 5.894937050594219186e-02 4.518805571768695906e-01
6.962574430865449415e-02 1.445140452181405653e-02 5.199433228467817969e-01
3.363935817665979905e-02 4.848109055287891378e-02 4.459462942757967396e-01
7.090678799872628113e-02 3.446909279864106279e-02 5.188812666764749393e-01
9.113122512997991198e-02 2.846052097191485025e-02 4.947857300858322649e-01
6.052729041204825411e-02 5.625913943946378448e-02 4.487590190688180436e-01
7.369308260303268632e-02 5.216661612316131347e-02 4.501568013155392012e-01
7.219148527437688201e-02 -4.828541577247854981e-03 4.778266799082623861e-01
2.285630200208403975e-02 2.666668035470436821e-02 4.439290822452369167e-01
5.440850041985532265e-02 6.057767783602382300e-02 4.525172036896301653e-01
7.506243496090696243e-02 2.724781992755518842e-02 4.569935454249555162e-01
-5.905921426636488031e-03 7.456503024844022415e-03 4.399173558471178858e-01
9.187997225714618355e-02 3.972808271577512457e-02 4.595124199380697938e-01
8.375532422453603465e-02 1.099369382674142935e-02 4.920024126134244780e-01
6.686508388777054335e-02 1.108026319121974655e-02 4.577042620429361830e-01
5.724657448900241641e-02 2.130787059545962911e-02 4.521080316123343712e-01
5.301586636046131187e-03 5.364714964491480199e-03 4.400632598543090523e-01
7.426431096216268291e-02 -1.325681414885423754e-03 4.901096372972394422e-01
7.601012160784995086e-02 2.407090251511122617e-02 4.583336428928170281e-01
9.865233683791375940e-02 4.878088059998683668e-02 4.681975753593236589e-01
7.878472985617461510e-02 3.962936192522852064e-02 5.070998373563014860e-01
-2.838948951993274308e-02 1.432459014425935782e-03 4.414048112937889456e-01
4.872137281581337409e-02 -8.531444218131015861e-03 5.287026465764292915e-01
-1.117035742268535081e-02 2.473182299888652610e-02 4.436879575385533903e-01
-9.308837093341187571e-03 9.622708156602495511e-03 4.404045633163553575e-01
-3.413220355260385142e-04 2.954431743383787584e-02 4.430089900619381127e-01
8.868535485914513794e-03 6.004502474229640903e-03 4.404000707566639305e-01
4.440673149741806297e-02 1.107787197007907565e-02 4.477420882304178895e-01
-1.197884173156407717e-02 4.393265703296986985e-02 4.470895472663852233e-01
8.021811671799509991e-02 1.576385986568850164e-02 5.082971651234443611e-01
8.410710964952800017e-02 8.988178930370710473e-03 4.817027349449252704e-01
1.957021936175883971e-04 4.668592832508996343e-02 4.447282130022924274e-01
9.399278124931906286e-02 5.234906110741041618e-02 4.803437837012791700e-01
8.949480078688407114e-02 5.097747524374737771e-02 4.900204552278971670e-01
1.426929487806064337e-02 5.204022338249410240e-02 4.457565020737223604e-01
3.122236972298425561e-02 1.939345789779588214e-02 4.450753250129862448e-01
5.332433628608430204e-02 -3.238512378340292937e-03 4.525477426743859666e-01
1.646450145647373672e-02 5.373820752473174554e-03 4.409105700891646773e-01
8.804537236757800645e-02 2.351005599205462787e-02 4.969588928807038841e-01
6.355023170868259741e-02 1.628822201434175498e-02 4.550396029789698926e-01
7.036452163077258626e-02 2.451401538838240968e-02 5.250119093889678012e-01
6.973383011760897476e-02 -8.994706219267657732e-03 4.786731330684254604e-01
7.375383917374939147e-02 -3.278256972474787555e-03 4.842943342605210422e-01
5.851121207738869956e-02 -8.959867654839434245e-03 4.585254975610383310e-01
9.206358780779873296e-02 5.360002516268928124e-02 4.792170875936581087e-01
-7.432713296675021002e-03 3.292906898487784478e-02 4.443183121236911060e-01
8.569124188622012639e-02 1.520696880278389965e-02 4.943455758563355396e-01
-1.117302511908803593e-02 2.724623225267878979e-02 4.441687144098134810e-01
2.992735250486498744e-02 5.019997342604457652e-02 4.457546100059392447e-01
5.930711312149609948e-02 -4.024362187118675667e-03 4.564880962476371984e-01
7.773126612913515421e-02 5.300390985995016846e-02 4.510024833006069933e-01
7.378794918106584833e-02 1.876817118246052254e-02 4.592372178073280686e-01
9.948012970469186089e-02 4.683240560488307475e-02 4.749469498039071702e-01
9.950833841439840621e-02 2.442389650920805469e-02 4.735273133270335721e-01
4.370123877130451667e-02 6.155980262747418053e-02 4.487222653657665372e-01
2.687114538335133584e-02 5.150558081914829306e-02 4.459017252546473853e-01
7.162331801674262644e-02 -6.664587906602325793e-04 4.683549118947013534e-01
9.632433752185030895e-02 3.392032403282737446e-02 4.624400779415719365e-01
7.145626811411666390e-02 2.811272986655298338e-03 5.031146945981158636e-01
2.462468966123659495e-02 4.148036021775402399e-02 4.453113811188541549e-01
2.783653379919946366e-02 2.636611796097222682e-02 4.447977897496270816e-01
5.738992362757689390e-03 4.261197253470063590e-02 4.440663797553559000e-01
-2.788415337557132237e-03 2.348088931770704775e-03 4.390361224118795036e-01
3.208590687022479931e-02 2.693141547258650834e-02 4.456076958151842238e-01
6.285942972204364154e-02 1.558422445635502303e-03 5.166320905207609782e-01
5.801141776292274843e-02 9.049311934828316306e-03 4.533938641815367654e-01
-2.209808447580419860e-02 7.380749100941246497e-03 4.424924708164517106e-01
1.051590262899338296e-01 2.836901046663837384e-02 4.742124430047877093e-01
9.153960858044841997e-02 4.329522709049421492e-02 4.567061226319109601e-01
1.075526520503165828e-01 3.750143670812981778e-02 4.670545973345710533e-01
-4.269424040188193881e-02 2.185042561786607138e-03 4.439006763440661585e-01
8.639678313559807921e-02 5.767959101265730804e-02 4.731605212529384485e-01
7.758571431278098174e-02 2.684126360307644357e-02 4.579340113182015504e-01
7.149486111907760177e-02 -4.535224201164379451e-03 4.908906214672862367e-01
7.398230567694598359e-02 2.387104850642326331e-02 5.210889885473947158e-01
7.017415335003056309e-02 3.430740390995566658e-02 5.199311746255638189e-01
4.052127992869330314e-02 2.587259582416182296e-03 4.458831109230008138e-01
8.133633046158303403e-02 2.916454071746129445e-02 5.126127678736766002e-01
8.176403584371506883e-02 6.609686752184745079e-03 4.835806928480539391e-01
9.382983831443727357e-04 2.913677720161417933e-02 4.428856800039833730e-01
7.626759064625614204e-02 4.800134211564011100e-02 4.504715875129045588e-01
-3.242943968492040946e-02 2.231228116220030158e-03 4.427440097944715380e-01
5.463468679623093710e-02 1.153394305208942094e-02 4.518707284721883433e-01
6.413486928332707074e-03 4.530346274960735803e-02 4.443492764030952391e-01
2.650177999598027356e-02 3.509948603545427759e-02 4.452484306939528680e-01
-3.886281769953300880e-04 3.900723800366781568e-02 4.440083802761177201e-01
9.188096503451703700e-02 5.715663976643107352e-02 4.714907948433125218e-01
7.264647078575479922e-02 -4.304983705919363836e-03 4.791235845750407285e-01
6.014183371340574291e-02 -1.147743122797428156e-02 4.629306242399254812e-01
6.556542047496879966e-02 4.130500071941550083e-02 4.503582025783860465e-01
2.613887255887970343e-02 2.499527938357316501e-02 4.444351759416239056e-01
6.970227593161960888e-02 -8.951096926984192931e-03 4.778400496724431457e-01
1.243377265020765600e-02 5.875946058368525932e-02 4.527648911483548311e-01
3.614621339816950080e-02 1.844424115647823673e-02 4.460469882429178856e-01
6.719536567974554453e-02 4.711286360676730789e-02 4.491627539276845660e-01
7.815721695887480058e-02 2.915230673558006670e-03 4.781551605518490899e-01
6.336422712514563904e-02 -5.516502299616923670e-03 4.618197951969797432e-01
2.379580864673307844e-02 1.167147097714406161e-02 4.431293750829358724e-01
1.212350269999296244e-02 4.854849122164939246e-03 4.403358299134214060e-01
8.905658873237009068e-03 4.713490620970199607e-02 4.445585591708822171e-01
9.582615851361941939e-03 2.488742616423060550e-02 4.424023247574539464e-01
1.807904586981575606e-02 2.593274530315142767e-02 4.432810965268210168e-01
8.515263932231033339e-02 1.005290555806672391e-02 4.818291531238717007e-01
-1.240916723946915157e-02 2.721873938589616793e-02 4.443541617724115489e-01
5.927850470132828981e-02 -7.679754109629991290e-03 4.583218112685080725e-01
3.584437300890287725e-02 -6.330100143115442854e-04 4.440627294031789796e-01
7.326900780766937293e-02 1.119633383639986879e-02 4.611372970110799163e-01
8.768172186560041492e-02 5.549460771293485833e-02 4.565440781950210747e-01
7.377799436257931331e-02 3.351046141754861207e-02 5.187340590334456047e-01
8.925707040409078252e-02 5.485727188234811036e-02 4.788071124195410477e-01
4.434448047201391963e-02 4.162825232737960013e-02 4.474914667566852189e-01
5.907864197816638241e-02 2.121386136393718300e-02 4.527335550785546170e-01
6.911695796477218545e-02 1.606131525769655816e-02 4.576389577996390901e-01
4.488625515066558408e-03 3.939805769605978641e-02 4.437359333111354220e-01
7.151087957698532005e-02 2.213483885165076250e-03 5.021695760653277496e-01
8.612299789150819340e-02 2.469883744799053135e-02 4.629294358466461423e-01
5.651475653763352730e-02 1.991011935574282798e-02 4.519265967077316093e-01
6.576776984715247687e-02 -2.778027821624104009e-03 5.074256828309083867e-01
3.754909739448732131e-02 5.982279399499287192e-02 4.472662708001456378e-01
8.513540452834929273e-02 5.777294816294734764e-02 4.574972757336818741e-01
1.013354591551642592e-01 2.535876722502636293e-02 4.731408769642193035e-01
4.272409957121577756e-02 4.744445442646698374e-02 4.468814520375592458e-01
7.319321982099523394e-02 -3.952911829716822083e-03 4.833124776732561911e-01
7.200348414653290341e-02 4.854286158162691295e-02 4.494393390339637695e-01
6.592963641600513292e-02 -8.404100356961695731e-03 4.681209017718258036e-01
1.019753946435811576e-01 4.302924283469200528e-02 4.681404211345360777e-01
-7.923656111618999909e-03 3.980596456769650709e-02 4.454233649881232382e-01
8.765344445956591013e-02 3.686781888185562683e-02 5.012564267693403464e-01
4.789719118271809628e-02 1.877436769134289626e-02 4.492499141840415322e-01
9.644855264684924767e-02 3.884784352203918961e-02 4.870742950557997442e-01
8.846630541736831554e-02 1.668121446337258312e-02 4.707154636802277081e-01
8.782236103829293983e-02 4.984467666748349651e-02 4.919386178916688168e-01
7.005745594958437406e-02 -5.148158870171822520e-03 4.956197708790409662e-01
7.026023995714589243e-02 2.315592786109872681e-02 5.245569710398310104e-01
9.849243729722366447e-02 4.817920849040657760e-02 4.766052083282200091e-01
1.815210654611132922e-03 3.031238226438129346e-02 4.429746833269969097e-01
8.609034899780590444e-02 5.749385511187214692e-02 4.754795484278249162e-01
-4.601719237778570393e-02 -1.353250694949278098e-03 4.435486039710135331e-01
9.708317935268302723e-02 2.480501788003880090e-02 4.817732774045174748e-01
2.736290154394376006e-02 1.221293161205691622e-03 4.418121166100276720e-01
1.878598581305079840e-02 4.717072876807331533e-02 4.447892653483623282e-01
5.927281761652870157e-02 2.483501647439226995e-02 4.525461493089855125e-01
2.108850213642914778e-02 4.461672020175581899e-02 4.449022677139331527e-01
7.548139547497213081e-03 5.158690968168935104e-02 4.459201980899157314e-01
7.542509011645644190e-02 2.208202831652068127e-02 5.188395194698055546e-01
8.821573152847508870e-02 1.978629860797467138e-02 4.926930083244648317e-01
8.324806135556232778e-02 9.657789674113074346e-03 4.900934526649095013e-01
8.419706683318761709e-03 5.756476397469720979e-02 4.516253328779232246e-01
-1.736392855783829015e-02 1.865772504427039638e-02 4.445270435766730532e-01
2.417017782496617972e-02 2.087967483864355475e-02 4.439813823550404215e-01
7.581243750903399192e-02 1.096314002079556288e-03 4.910911589770214913e-01
7.904964400553160520e-02 5.463694696080692928e-03 4.944520137517895986e-01
6.860367117954341287e-02 6.025846049908665375e-02 4.544571028151169201e-01
3.265497250454071215e-02 2.484696049324533126e-02 4.456547894068993432e-01
2.558723547552591016e-02 -3.191376476587280599e-03 4.403894785672073930e-01
7.438756289987870363e-02 3.425222386226474403e-02 4.560222407378861087e-01
2.141425543404088666e-02 1.412914187071479498e-02 4.429524139520782944e-01
2.469334868715868103e-02 2.698638701473553975e-02 4.442491884654546919e-01
7.137965592762131328e-02 -3.517215385265564428e-03 4.930905138595274573e-01
8.999435989834272953e-02 2.931123554378872731e-02 4.977017129964853570e-01
-2.980794777691254255e-02 2.969469146126237601e-03 4.424400786179572553e-01
8.204411339238190659e-02 4.195844653310879663e-02 4.552341422775587620e-01
5.302811276959281533e-02 -2.556019684754867478e-03 4.521708209737779760e-01
7.973401916491064390e-02 7.781879344476065954e-03 4.698478451256025701e-01
6.757573074508484157e-02 3.512605516846271318e-03 5.111979668783337427e-01
9.036976655913889211e-02 2.620111837852585196e-02 4.638456539240565224e-01
8.594624213745111208e-02 2.898598599543572574e-02 5.052827758688268611e-01
8.368287746376257275e-02 5.298417952109461815e-02 4.894581561663607916e-01
-3.012012149590773818e-02 1.345254614393451634e-03 4.417854070968776359e-01
-1.328147865810029582e-02 2.413921547732256982e-03 4.394838411012937929e-01
7.150467264418013114e-02 5.677053243917397178e-03 5.077225134819353114e-01
9.082891415122631984e-02 4.630393821072383703e-02 4.554501935143756008e-01
8.555423509545782845e-02 4.187650539991862736e-02 5.002732796253958059e-01
8.918693356610218892e-02 5.010817844001668603e-02 4.545115014958170940e-01
1.033631689947337035e-01 2.713005693854159128e-02 4.748415428366816182e-01
9.540178729121652490e-02 4.766602220521255068e-02 4.851607609960267853e-01
-7.770708477523174951e-04 3.680059786480176925e-02 4.438319146987573238e-01
4.185553485035555660e-02 3.547927021541699179e-04 4.464167629600903631e-01
1.054665243472124175e-01 3.138528631565285637e-02 4.671431495224339647e-01
8.063481501791119888e-02 5.388250395688833072e-02 4.518555666045385721e-01
8.702495043407246222e-02 3.375278711552593541e-02 5.031998191591062763e-01
8.337874053798320639e-02 2.416982798051540982e-02 5.091348066949821227e-01
9.353351781624491545e-02 2.250813294519453736e-02 4.845260805412223148e-01
5.976549328314710585e-02 4.532027836522019293e-02 4.485569704735369312e-01
1.059988252730320324e-01 3.984023501777004400e-02 4.708815624091709506e-01
9.168860580341958721e-02 2.787578438423527621e-02 4.633226010727201083e-01
-2.552549193299246885e-02 1.202695465519979315e-02 4.461024080132028335e-01
2.503933027988624466e-02 3.899909196187667515e-02 4.452907610029042118e-01
5.408666616238475000e-02 -9.132224503389026627e-04 4.524564190552638476e-01
1.419296588120767810e-03 1.218958976560991468e-02 4.406893067263329411e-01
7.869854953543209408e-02 1.306538949403907891e-02 5.074228870911213773e-01
7.832736629683495488e-02 8.176898222048246262e-03 5.019377035305628842e-01
1.009393221174242211e-01 4.163191348333031977e-02 4.628402603137783955e-01
7.551307398869580578e-02 5.869008504490169642e-02 4.539976232687094604e-01
1.652676481859955554e-02 -4.628577126673727102e-04 4.395058216048050026e-01
8.662977926144956042e-02 1.155428929692418200e-02 4.793673211054028105e-01
-3.315275259850923584e-02 5.186592548737719612e-03 4.465327729382758126e-01
-3.177035181272620801e-02 6.434652202858950031e-03 4.483706348958244048e-01
-2.038202641033818457e-02 3.235650089442519695e-02 4.484475554295673794e-01
1.266074368037969564e-02 5.249222459554937076e-02 4.460008055336955324e-01
1.024224290086640614e-02 4.180339534058752360e-02 4.440177417226821022e-01
6.785917514837520870e-02 4.583665412349156865e-02 4.495914071529970579e-01
8.761352497974081444e-02 1.545105857466429373e-02 4.711194992417922500e-01
2.948865114718747515e-02 5.423693971143441622e-02 4.464980204784407269e-01
7.307913414380108608e-02 -4.307070958419320986e-03 4.854035807481529852e-01
9.667405519767205413e-02 4.909847951754422318e-02 4.811326608387977988e-01
6.251420674178118086e-02 -1.298997819215170872e-02 4.677485167991657367e-01
-1.958031405452901816e-02 3.065356695574750906e-02 4.476276570667155341e-01
3.059566173898514013e-02 5.439704668607835136e-02 4.464562248247128107e-01
8.382371528029584906e-02 3.101341852206205771e-02 5.091155804772792282e-01
3.650628088129934112e-02 -2.915403694099475817e-04 4.443405961073613741e-01
-1.499358209877822484e-03 3.874888911768958194e-02 4.440607588423396423e-01
2.813988818038487549e-03 1.870413777485008255e-02 4.414879748077962240e-01
7.008182946685018178e-02 5.435757772203989729e-02 4.497329226786165868e-01
7.381056657287228540e-02 3.492621055470183922e-02 5.168068705176143141e-01
4.318139706754334228e-02 6.185762531186744795e-02 4.488422220155885434e-01
-2.194056043635028014e-02 1.529048727697178596e-02 4.459478862389765208e-01
8.806733398584415395e-02 2.282709381968711301e-02 4.961552022518268545e-01
1.022090958404157507e-01 3.198994607208421881e-02 4.792786887218600245e-01
-2.244091467360923020e-02 2.240326700151731160e-02 4.474555758797283955e-01
1.014588978133767472e-01 2.555569775964749296e-02 4.737133788078954910e-01
9.120923941525201084e-02 2.579505399799116375e-02 4.923233822259810988e-01
9.736709205536052403e-02 3.701193285433241470e-02 4.861159662219035615e-01
9.799971983959213095e-02 5.060703783974402487e-02 4.706760705126269428e-01
9.182743071159883697e-02 2.464446316408078902e-02 4.655703554892415275e-01
8.880281272081638755e-02 2.501934087761404496e-02 4.965742094471781165e-01
4.134789739074547915e-02 2.644116265564360260e-02 4.475934625843896453e-01
1.679694250047331430e-02 4.140917955960064789e-02 4.443820915153704476e-01
1.489708215880837256e-03 4.944835122725701332e-02 4.452461025862481936e-01
5.060025339725691962e-02 3.187494390093844297e-03 4.501641206055930211e-01
-1.947230437893894897e-02 1.502222983318517169e-02 4.446647424313355246e-01
4.278278799055026949e-02 3.610868550594728554e-02 4.475735984127390266e-01
7.565912835204970099e-02 7.248485636913781088e-03 5.039105579362661569e-01
1.536909776593323000e-02 -1.150035597822830508e-03 4.391907263543617934e-01
-3.250280561015131842e-03 1.383242413328448876e-02 4.405780360565031972e-01
5.041878192602798625e-02 9.847972792120679789e-03 4.501910272373442212e-01
1.035896913599071018e-01 3.254637420026897099e-02 4.653096380643096386e-01
4.424829020739029506e-02 6.869055198389464358e-04 4.474923854729218053e-01
4.969491652042325874e-02 5.240742690093403572e-02 4.471391828744076813e-01
9.046372030163220279e-02 4.987099786508499694e-02 4.907368253769446298e-01
9.025292762991159179e-02 1.975628801482340671e-02 4.883812387389280807e-01
5.901196481178380693e-02 3.999882109466362801e-02 4.493056664474250339e-01
3.965873108673277636e-02 3.587029648245969749e-03 4.456589587533035801e-01
3.556071469220464104e-02 4.731102628742323013e-02 4.461564547285679083e-01
8.115097683559274744e-02 3.551733379637730253e-02 5.103262844600159331e-01
2.115794599933895626e-02 5.553601911961895954e-02 4.469629927289370808e-01
8.067128422958387557e-02 2.282060766556421455e-02 4.614533543296116536e-01
-1.284165150334625090e-02 2.278539244155414201e-02 4.436088737338736987e-01
-5.332543975968518160e-03 5.303866188245551921e-02 4.486802400733139184e-01
8.788331476717237134e-02 3.262648523678417928e-02 5.017494501682030483e-01
8.701630630266246613e-02 1.796013903529774386e-02 4.937446594147207324e-01
8.693696889606489231e-02 2.099848532026872897e-02 4.986523107680890798e-01
1.215454581168764689e-02 1.174585239926806586e-02 4.416501639573487403e-01
7.037283630243036658e-02 4.537493765661188005e-02 4.500567134569735672e-01
4.473369934048732760e-02 1.909054868244635869e-02 4.482802763122371581e-01
8.576980534457528949e-02 4.641947105594403794e-02 4.970273805507933740e-01
3.496668849493454051e-02 1.061964891647836431e-02 4.451063263493413302e-01
8.077441860602044277e-02 2.586742449196375790e-02 4.599013420178414968e-01
5.682528905630979815e-02 2.617670691387023393e-02 4.517243569243571399e-01
7.712497950518851578e-03 3.714123090539706712e-02 4.435574769847206444e-01
7.390217699526563377e-02 3.284963908918735187e-02 5.194031985750412472e-01
