3.412133336441337816e-02 1.432429250341179204e-02 4.453075861221347798e-01
-1.402623510698895043e-02 4.363794070794852625e-02 4.478041844334467725e-01
9.648475760803049139e-02 5.157027782987842757e-02 4.717752643676285107e-01
8.176913486975298517e-02 5.549522037318886658e-02 4.857280594390183670e-01
6.114249831152451103e-02 3.545749145375078765e-02 4.508939641465096737e-01
2.998387403453770667e-02 1.252340395541571595e-02 4.442431890506056136e-01
6.458443705426088199e-02 1.721987486401661827e-02 4.552788650829292516e-01
8.753106070595204069e-02 1.382786463791613879e-02 4.820160942642983670e-01
3.772778263536947542e-03 2.660743699566988849e-02 4.424084640094850251e-01
2.321282387228796457e-02 2.936222746810183623e-02 4.443527674208128109e-01
8.311311131427417953e-02 9.940413348579216213e-03 4.890051497854639995e-01
6.947547805711144775e-02 3.468186797776084268e-02 5.196156902360128393e-01
1.486285547688315223e-02 5.178536844120334298e-02 4.457912961904273441e-01
5.067082539400249303e-02 4.039684526439926704e-02 4.482515496616371053e-01
8.482495321623544082e-02 1.044024532072778885e-02 4.755678848882619048e-01
7.938069468503074211e-02 4.558004671498964988e-03 4.850173178125959939e-01
2.829060884797203121e-02 5.860828131798737940e-03 4.429770365051065029e-01
-1.195840129731228808e-02 5.236816064734536348e-03 4.399579871959217736e-01
5.581691225751260303e-03 4.885336931092428003e-02 4.449495930848099134e-01
5.357988268574962604e-02 -6.472967667742008865e-03 4.537130104178905277e-01
9.111726554875108908e-02 3.169338613073927058e-02 4.618910433279991845e-01
-1.826000975351368266e-02 4.089255402327229144e-02 4.494439624843671877e-01
5.064351326501855682e-02 6.672532797587608054e-03 4.501513311880999679e-01
7.243172139596561199e-02 -3.957997470931933631e-03 4.874271624520055690e-01
1.399476253639475587e-02 1.058264541103666641e-02 4.417516505290204898e-01
8.104606207891296155e-02 2.058938850805953902e-02 4.624304382172432226e-01
8.042078212922001978e-02 5.757660736646155047e-03 4.866676794194018663e-01
7.482283884741385005e-02 -1.074715252043524898e-03 4.827705735899742168e-01
9.607801497701870530e-02 5.209676637302482205e-02 4.715757661872183037e-01
7.880398250993486675e-02 3.341493410438158701e-02 5.130283129379811236e-01
9.767231176456619979e-02 5.018851556549373122e-02 4.692624454257466882e-01
9.229409262106778866e-02 4.788664726993703546e-02 4.881864967826179402e-01
8.349683658525031138e-02 2.959030421562891880e-02 4.604967528513493891e-01
9.539944586028012430e-02 5.293613897231640164e-02 4.668978897722381172e-01
7.190603288741148624e-02 2.228612193081391454e-02 5.219096827549438711e-01
7.071888863656815294e-02 1.079699068221733754e-02 5.146583249790629422e-01
7.713019105820236032e-02 5.611526291420315671e-02 4.513647877576495993e-01
8.876710235237011970e-02 5.336375253127876445e-02 4.857776298377375901e-01
9.801746338582094376e-02 3.800400299157747491e-02 4.610244466107988326e-01
5.276484646284759772e-02 1.469218787185858945e-02 4.509734223491610461e-01
6.486449539837102485e-02 5.785004548582117767e-02 4.518632855161317519e-01
2.457518471864775927e-02 4.970031562501583955e-02 4.455519766420312777e-01
3.642589647323016960e-02 6.565551434417625509e-02 4.524512804670183241e-01
3.718889557872171597e-02 5.869288048651009893e-02 4.471447331765233124e-01
3.197181864558372444e-02 6.076026649748837716e-02 4.488546274354042187e-01
9.216007081649593702e-02 2.072307027495103385e-02 4.701942394688629068e-01
8.849209860996715138e-02 2.369642756647083459e-02 4.943631471501729324e-01
8.590520333613238524e-03 1.506647579768921261e-02 4.415984758793209952e-01
6.881603319546364395e-02 3.444545467780223830e-02 5.208644448047423658e-01
-2.463273582239028370e-02 1.674832167656794407e-02 4.475616317271434719e-01
7.226487161709328755e-02 2.638967475294112797e-02 5.232042694830514318e-01
9.488805909406877737e-02 3.413030390507890144e-02 4.884731879577707270e-01
7.738805205210831650e-02 1.336097965183337399e-02 5.085728578031034619e-01
8.569968886755845172e-02 2.926590028752749928e-02 4.614498983935695908e-01
2.698776778595607384e-02 7.480177799047604738e-04 4.415877779428293848e-01
6.961052869067849147e-02 6.567573669926421789e-03 5.108708186453915223e-01
6.819148579402702082e-02 -2.267840634631080460e-03 4.657564845243834517e-01
6.954751852334611906e-02 5.272797202120914350e-02 4.495527391422325936e-01
-3.116666744153723245e-02 6.167168662612042274e-03 4.460641687134639932e-01
7.656220139250533019e-02 1.931583228144246288e-03 4.765627464196206531e-01
1.310390207300575309e-02 4.722659361422847785e-02 4.448732097623978587e-01
4.791703428562681805e-02 -6.619842857273237555e-04 4.492891768350896209e-01
8.896877621753210286e-02 2.819439785857088751e-02 4.976037234485603533e-01
4.291057655321501435e-02 2.498123182351628599e-02 4.479897931335013461e-01
-4.252589893543576131e-03 1.701581160125788597e-02 4.412191111693423151e-01
-1.559001622641911257e-02 1.040764600968946060e-03 4.393600915099363236e-01
8.295467532081636508e-03 1.840347118718411307e-02 4.418183400099456870e-01
8.374671664707153407e-02 3.273971601339685511e-02 5.078494718404044095e-01
8.120037257799847530e-02 1.567350897606814217e-02 5.052174527004751337e-01
9.270424755902006986e-02 4.461135834314882559e-02 4.889056181476375551e-01
6.923867980803301292e-02 -8.209382903139415127e-03 4.759809378091093279e-01
9.376334271695924150e-02 2.394032590079984979e-02 4.842512921440755846e-01
1.077687629790089092e-02 6.321768209880234898e-03 4.405884318890284090e-01
4.673480680619392091e-02 1.968926820788000770e-02 4.488992236312423501e-01
9.024074465886652852e-02 2.816185421140389444e-02 4.625814762330694441e-01
8.222416322290523882e-02 5.757786184261051016e-02 4.761746371378756115e-01
2.128444158323542640e-02 3.212138285219206559e-04 4.403695403571693534e-01
1.073001456267481113e-01 3.717992503733254933e-02 4.730734188815040042e-01
-1.270887132538383972e-02 3.803580321428077365e-02 4.462918499006491846e-01
2.562643939348475952e-02 4.197828088575367156e-02 4.454953675751168740e-01
4.124592884098382539e-02 4.404979254803068067e-02 4.470369316677404448e-01
9.594011988236066102e-02 2.285199726013679641e-02 4.709144108631217462e-01
-1.223147636427349312e-02 4.103178273236419982e-02 4.465657942418134740e-01
5.356903459282750385e-02 3.466473984731681390e-02 4.496096873989063325e-01
8.690197448709416350e-02 5.229594722634264142e-02 4.891859263250176171e-01
6.309683381926389778e-02 3.440507828776172890e-03 5.179097458378518759e-01
6.981532142506430283e-02 2.221754237865233850e-02 4.561880308207846846e-01
9.916305382805559732e-02 2.997628569145281349e-02 4.803381713600506364e-01
9.092319114333362318e-02 5.997829314047566085e-02 4.653115556533694019e-01
7.671227977785470553e-02 9.483226640576858033e-03 5.048646145987878420e-01
2.358505421504958691e-02 6.858740840084815403e-03 4.423886830912551749e-01
4.360631132978323027e-02 2.997698820963542315e-02 4.480695774340711091e-01
1.041160649444686365e-01 3.397899900650406396e-02 4.649496667062910649e-01
4.031266974049706187e-02 -1.115155983005225882e-03 4.458111881176496372e-01
8.219840011358178766e-02 1.130116752756143289e-02 4.961423300822895843e-01
7.257501121672840783e-02 5.790922384622398250e-02 4.505144396541885810e-01
9.977301501575390474e-02 2.548976639500575084e-02 4.743627763823243804e-01
1.047779136109554393e-01 2.942142046589428170e-02 4.748949416865707041e-01
2.403550230177650682e-02 3.622136029517115940e-03 4.416806569810753924e-01
9.223958701339526889e-02 5.180825225780944648e-02 4.837676801296096896e-01
9.355087648876654616e-02 4.645067208346354698e-02 4.577808937459286742e-01
3.712017283396898404e-02 2.269819975146157576e-03 4.447937753504080938e-01
2.606206471599351732e-02 9.364267521573134412e-03 4.432374255603427349e-01
1.771807739591988937e-02 1.280389114418370097e-02 4.423759298970327825e-01
4.929594501857300498e-02 -7.829091164217028692e-03 5.279862389760079378e-01
6.262841728444194789e-02 -4.174429482423851201e-03 4.602664251096968973e-01
5.785980547322675666e-02 -3.251138912856732684e-03 4.554599221205929971e-01
9.103561336686293026e-02 2.006542829120779373e-02 4.852436299867340930e-01
8.245520967645141031e-02 8.064755161911879577e-03 4.856998069491081371e-01
6.899466460104285159e-02 -5.529617598547689403e-03 4.974393123812741457e-01
4.752547717815983064e-02 -1.040984538488103506e-03 4.491491439512216299e-01
6.864824454990989255e-02 1.276862659433424321e-02 5.190371167457306090e-01
8.625503577653642617e-02 4.704766363033899279e-02 4.533986914324718565e-01
2.061184888750374703e-03 1.613461678368231095e-02 4.411790265022831892e-01
9.498245795505651234e-02 5.315240096674234832e-02 4.748951683966972648e-01
2.817024580549617324e-02 3.672807886659149035e-02 4.456949274572015174e-01
-3.632757889798050865e-02 -5.291719177254092764e-04 4.406028042266829092e-01
6.288881241221373763e-02 2.017138872485706863e-03 4.573400558304768770e-01
6.374321089157362896e-02 8.553428253491978783e-04 5.135234404737276659e-01
7.261721761913289552e-02 3.033641206562612182e-03 5.001371968953302050e-01
1.051982779357287096e-01 2.964597473524342719e-02 4.710716708488775217e-01
9.738188611352384394e-02 4.795044568198567753e-02 4.640609733757864452e-01
7.184895859907615423e-02 3.491452956896726190e-02 4.547127249329010468e-01
5.703767067133656832e-02 -1.738020875629792041e-03 4.545050670589917408e-01
4.021890657604065833e-02 9.319482872964829356e-03 4.461458178230238159e-01
5.934370030777084970e-02 -1.139403377750747466e-02 4.620071885146371793e-01
-2.909150405923723731e-02 6.589330816317857074e-03 4.439922306649838890e-01
1.070351575347593814e-01 3.694011033973483571e-02 4.735119441023888931e-01
7.671926457565095281e-02 1.759395132517653070e-03 4.807661958675134573e-01
9.669218776377909441e-02 4.626072174736268333e-02 4.612011966782446071e-01
2.744270152951188216e-02 9.561470990499379430e-03 4.434727832661566338e-01
7.598243212395386359e-02 1.192150308546726864e-02 5.088171825546659033e-01
8.538878694459001162e-02 5.382845702157315615e-02 4.540910654896160858e-01
4.719916921399012338e-02 5.120961724205057297e-02 4.471595848485193092e-01
8.329238234096050797e-02 5.770909426903202827e-02 4.744403796490286318e-01
8.907661791949449126e-02 1.559279753580633185e-02 4.771764161321402353e-01
2.712634042340909477e-02 -2.856882707728044396e-03 4.407273241319653034e-01
7.267794845349145882e-02 -4.275049654791222495e-03 4.849694910398998360e-01
1.871045031790944009e-03 3.617661424460471425e-02 4.436300218449825694e-01
2.899236050059880720e-02 2.497708529339818899e-03 4.424166237833095927e-01
7.206472289697253564e-02 1.212302393401127817e-02 4.602869825890534283e-01
9.081146666918171739e-02 6.038137854253949194e-02 4.641979791086199847e-01
-4.089725413028657067e-03 6.667212558222741954e-03 4.399041047325139009e-01
9.568922311804127501e-02 2.678221009087463494e-02 4.846953382883692485e-01
7.849751630636857269e-02 8.567259417937213295e-03 5.007246853481439608e-01
9.056344670097041250e-02 4.667169366542626291e-02 4.556584189276812191e-01
8.760837383220164420e-02 4.446535403214325194e-02 4.552271286111367332e-01
8.031935223997449524e-02 1.309212271378098688e-02 5.036566231441045316e-01
4.492021842574496493e-02 -6.859940544456990044e-03 4.481370708597988695e-01
2.628181869050035327e-03 4.772070671681100107e-02 4.447795278116063455e-01
8.575234587413917142e-03 2.085303587947800324e-02 4.420450633674176677e-01
4.042580429874262360e-02 3.302592992625686535e-02 4.473249312328159144e-01
8.958731890437429679e-02 3.688837663607685141e-02 4.966385141954592353e-01
8.044658926489026141e-02 3.578180430479248331e-02 4.590122301800181881e-01
8.826839793400979850e-02 5.416789233361173767e-02 4.836595047112909329e-01
-1.829099043839393750e-03 4.071420204502437107e-02 4.443251868501683632e-01
9.526594140863317572e-02 2.344825249812631032e-02 4.812323115512427418e-01
5.411047278168613917e-02 -1.177911904368433241e-03 4.525623579364639326e-01
5.074570284535590003e-02 2.445384806260851585e-02 4.500270477791866175e-01
4.679666704687877876e-02 2.170014608733890609e-03 4.485760179479124643e-01
4.846777828918504699e-02 -8.024560421310769284e-03 5.285743946050971420e-01
1.079683157591328907e-01 3.743351604192601823e-02 4.704986475398236223e-01
8.659513307252175718e-02 3.870507577572237373e-02 5.003838879068562839e-01
9.297319413031138180e-02 3.388902229462759791e-02 4.912277088288528604e-01
1.041061844724743418e-01 2.814868218116665238e-02 4.732018183106128650e-01
7.563446501267417910e-02 1.257197423837892042e-02 5.099538782189688702e-01
6.466745995505568390e-02 7.786161369860186525e-03 5.199804315413155686e-01
2.012299744010499769e-02 4.538395569967044324e-02 4.449468050088786764e-01
8.284166949523186219e-02 8.410010602119532067e-03 4.802238151187437354e-01
8.362230871574172220e-02 4.521097615128102931e-02 4.996815003023591384e-01
4.550780185758525331e-02 1.056281893314511486e-02 4.481819873342295923e-01
5.456386843595517622e-02 5.711096685547623585e-03 4.519649488514318469e-01
9.109116452797538788e-02 4.887350576925751644e-02 4.894161295917477394e-01
4.201086163201254997e-02 5.701422285816135777e-02 4.471390018289430057e-01
8.718371428278731683e-02 4.643018146453553596e-02 4.949084599942875085e-01
-9.592605655171013504e-03 3.079136992030961570e-02 4.444560442021598945e-01
1.049616858080948054e-02 2.113005957468873375e-02 4.421928342049202820e-01
4.162183611472942968e-02 5.883460008732412094e-02 4.473577189199515192e-01
1.014794072036705463e-01 3.467352994905335828e-02 4.628342482340279673e-01
1.783241165168328313e-02 5.785903968151008547e-02 4.487368938942671859e-01
1.338848654590571452e-02 5.116476052201039681e-02 4.455484624571753316e-01
1.021320855338666012e-01 3.307103391670528081e-02 4.784705258220025570e-01
4.135363761631982715e-02 6.788554504540322311e-03 4.463135510759029256e-01
-1.619908551839630180e-03 3.606291922551550788e-02 4.438966035746716998e-01
4.610059616374237446e-02 4.570280532456957173e-02 4.474943217501112791e-01
-1.316324275744451544e-02 1.388652076815028759e-02 4.418668957772000083e-01
7.954773211475303640e-02 2.223394388495653420e-02 4.612599704982569548e-01
7.151470237205709291e-02 5.335791606295150341e-02 4.499844816881829468e-01
9.633633666737441426e-02 4.935736016003377385e-02 4.625241968903275880e-01
2.295942379586468629e-02 1.024741920222062459e-02 4.428806045739964170e-01
3.816645952004360520e-02 2.582393013399778697e-02 4.468917781702320680e-01
3.766887783850482452e-02 6.513740672370467444e-02 4.519757978631634976e-01
8.493658330155511027e-02 5.217868990206073893e-02 4.903410488756144714e-01
3.810668610778697452e-02 3.979534503672911561e-02 4.469400393182182962e-01
3.871367650968816909e-02 4.179499525230560841e-02 4.468945260470480463e-01
9.242856301501864436e-02 2.449817509080684172e-02 4.874863268078135081e-01
8.207204246569088646e-02 9.333579985313273514e-03 4.917682769660977615e-01
9.532511121401715526e-02 3.250152660221864581e-02 4.619932696596072974e-01
1.440270294770871345e-02 1.845271022910223435e-02 4.425215055965676658e-01
8.442228669483291259e-02 2.129804400476949938e-02 5.043037545377951902e-01
9.333852140111048579e-02 2.126586459740191504e-02 4.718275693025619777e-01
9.832867137170507588e-02 3.212079586969410899e-02 4.823775196859546588e-01
1.618906470201256220e-02 2.883370627050462973e-02 4.432768200484123455e-01
3.612781266491279369e-02 3.428625669125902331e-02 4.466653000568782117e-01
1.042735639818818949e-01 3.002404033258667532e-02 4.686915180206880915e-01
1.040714091943143738e-01 4.110448256716385529e-02 4.712799261047883603e-01
8.786760392236041273e-02 1.684256145011100297e-02 4.878730079147130527e-01
-7.845633387585725094e-03 2.673002103483884933e-03 4.390845707366985984e-01
2.949075316043886508e-02 -2.810359727472497293e-03 4.413398779277435402e-01
8.107992452414478080e-02 1.090643797684349645e-02 4.686480116630355464e-01
6.389928828250342197e-02 -5.857159273343453577e-03 5.091485057283113846e-01
6.396329906271920607e-02 2.162203550040971839e-02 4.544462886293189063e-01
2.404387870611696815e-02 3.366263611493751362e-02 4.448805959419321332e-01
6.884592036657927183e-02 -6.243383653711213552e-03 4.973382530020993841e-01
-2.285517162704798783e-03 4.364732287879015404e-02 4.447125420833557552e-01
7.708196574347492280e-02 2.390149481056125756e-03 4.880122459127130274e-01
3.018527139564831235e-02 7.291398407537363381e-03 4.436565347936964887e-01
1.027876908867382533e-02 3.417611696732592019e-02 4.433271963233736956e-01
3.431609571127358475e-03 2.970785677689576076e-02 4.428362391742871051e-01
5.897242521924594277e-02 5.963412066009993184e-02 4.538816696787600913e-01
9.255923005446864416e-02 2.110990410991556501e-02 4.827926481972835693e-01
1.636880375263631560e-02 5.045482709298276108e-02 4.454022755036983749e-01
2.292830171591214022e-02 3.151393190738851352e-02 4.445401114425479583e-01
1.933612192811254987e-02 3.032608132657325581e-02 4.438906351676137341e-01
9.436855254724411945e-02 4.956175840863478316e-02 4.843481505431559420e-01
6.873298843964073535e-02 -9.899085250202853403e-04 5.021947382460529852e-01
9.311533614611618159e-02 5.835360340484250369e-02 4.647173651023024377e-01
-7.339051328529167494e-03 4.373662800975219866e-02 4.457568166099010742e-01
7.847116695945458020e-02 2.719040073329853993e-02 5.160011072962472634e-01
3.943223663564019571e-02 4.609167234781075609e-03 4.456543399650972348e-01
5.273264847054146692e-02 3.514141580405262533e-02 4.493435972869409545e-01
8.332372103663525376e-02 8.962782854346864822e-03 4.739421813074271017e-01
2.612548001099786188e-02 3.225685389639607048e-02 4.450904979472051215e-01
7.412233597938797103e-02 3.449082559317584451e-02 5.169807624445519334e-01
7.008540773670472734e-02 -7.920223364753143161e-03 4.790990866573291429e-01
3.098114707258636802e-02 4.567427773016868170e-03 4.432314787287670588e-01
9.105247889552525731e-02 5.319316138889917250e-02 4.578960395454332866e-01
4.508747438739735963e-02 6.343361759254519117e-02 4.524375915511620327e-01
8.241845186480134533e-02 1.298808295242807886e-02 4.680338369273603916e-01
8.025476530254072038e-02 2.964078465038121751e-02 5.134038148644196609e-01
4.137613722187483134e-02 4.868260007478535795e-02 4.467395674378502601e-01
-2.339534247859066055e-03 2.669871676767120866e-02 4.427525893330098716e-01
9.335959001558588599e-02 5.392185854796673061e-02 4.615463281452634736e-01
4.065120833039869569e-02 2.494394535838880336e-02 4.474330824781339588e-01
-5.503032234196152638e-03 1.937778373096553028e-02 4.417512973796580145e-01
8.839905073304735877e-03 5.136457504751274633e-02 4.458764200947705758e-01
5.232114318767430022e-02 -9.870986458410665326e-03 4.541531375920741520e-01
6.011704031840583301e-02 -4.281392859769488426e-03 4.571508494109917109e-01
2.717016548939211323e-02 4.304984440863180578e-02 4.456217083571865079e-01
9.995862429361933310e-02 3.757422371692476643e-02 4.612782023918986507e-01
6.036570660203439270e-02 -8.216381129779242939e-03 4.605187166596669823e-01
7.372876375104467361e-02 -1.577151680262275490e-03 4.895388866148551177e-01
8.518512428304388096e-02 1.517487483939043008e-02 4.939070128362192391e-01
9.005344545026935932e-02 5.418846107475486923e-02 4.797607645801034160e-01
4.828543590541252428e-02 5.826683619545990761e-02 4.478245900544755576e-01
7.785459806779027048e-02 2.986397889545162367e-03 4.822362317168258361e-01
6.636624751749804763e-02 -6.264587009145609030e-03 5.035822618731358169e-01
8.142664003133910644e-02 6.950791892381731445e-03 4.810789533489647773e-01
-1.416552768098647275e-02 2.329354540180025857e-02 4.440167396806419808e-01
3.368528189507119519e-02 5.601527732956725764e-02 4.465781356613414688e-01
-2.803453688759175583e-02 2.246755023381366741e-03 4.416517377155858570e-01
9.911243212917719703e-02 3.708504705695125914e-02 4.613122383547811345e-01
7.973977135866039401e-02 3.313372113515695300e-02 5.126459423596082532e-01
7.107371226126332764e-02 4.668901985446951945e-04 4.993675227980901021e-01
4.707200971390868710e-03 5.100882188023290326e-02 4.459507884769954300e-01
7.931408883755879102e-02 1.058946125128668730e-02 5.022278093657743803e-01
3.619570381207716514e-02 4.128320098572215574e-02 4.466349495626568689e-01
7.127874746980293608e-02 5.120459406505895733e-02 4.496873994147491116e-01
8.517666182987317092e-02 4.353315971723771549e-02 4.550747077282766284e-01
2.171653256685622535e-02 2.353981718620228730e-02 4.437289963975679652e-01
9.045774714209542378e-02 4.164146955039026154e-02 4.935939875269956256e-01
1.566092132067252451e-02 4.476994471127716119e-02 4.446851684612387889e-01
1.064337297373712105e-01 3.473116963857401235e-02 4.657274711260163125e-01
7.079593157947405846e-02 4.087274494121189566e-02 4.517152491945692350e-01
3.687487995346921954e-02 1.635339057760578155e-02 4.461354979661001363e-01
1.351272765019679439e-02 4.094506201967299669e-02 4.441809215317772952e-01
-1.454256282023483685e-02 3.860324118814131150e-02 4.470071246919464225e-01
7.929031172937120453e-02 1.859472373007455340e-02 4.621217566571323432e-01
8.471508056169280154e-02 1.549286298770971917e-02 4.681695254393907213e-01
6.410874726651065447e-02 2.994593846003647600e-03 5.154904758987919333e-01
-3.981419125595284103e-02 -1.058071180299120090e-03 4.405236253265279456e-01
8.404367903657312955e-02 3.078673097899370381e-02 4.607802787026104019e-01
-3.907798091284529068e-03 1.001790641264003155e-02 4.401384698483947200e-01
4.438207815480631896e-02 -2.839533249982028554e-03 4.475894824168438757e-01
8.742964164161527718e-02 5.058208279168958238e-02 4.910166612188002211e-01
1.038864541248347151e-01 2.808739811660865282e-02 4.735031018761887145e-01
3.592758505447499542e-03 1.887820574085034842e-02 4.415832167187752066e-01
6.949843587478972406e-02 -8.982159449344474800e-03 4.923748188423637817e-01
5.809522404209344765e-02 4.548821916514207003e-02 4.484295969391603465e-01
4.536606816998971919e-02 2.785310594921371757e-02 4.486661803692990058e-01
-3.146213635227446126e-02 4.809641064284336451e-03 4.436636146098641431e-01
4.279649712790223326e-02 5.757073386255583125e-02 4.472145360895584121e-01
1.003591619697997706e-01 3.697885889785097052e-02 4.813862861807370330e-01
4.217955350638364492e-02 1.663501548319853626e-02 4.474789916655503852e-01
4.838925593992724622e-02 -7.402842050258582642e-03 4.504692482129851738e-01
8.999160944642042512e-03 1.666879686524247450e-02 4.417639462574503018e-01
7.021083748156994875e-02 2.505959453482810295e-02 4.557938375496577987e-01
-1.728566691526384203e-02 3.401119985006129109e-02 4.473175745125503311e-01
-3.028269071177158364e-02 1.301197980759375220e-04 4.412494667304262541e-01
1.162874186704690622e-02 1.209808409879519452e-02 4.416445529410263915e-01
8.838382644573568314e-02 2.755875807084353507e-02 4.622628583134228974e-01
9.808774076397577812e-02 4.764334578053974756e-02 4.667107720646664903e-01
-1.067407589555669813e-02 4.925216985959945948e-02 4.491306753088553649e-01
2.400534732215200279e-02 3.930897534894128853e-02 4.452735977598921147e-01
3.649207934130734715e-02 -2.266559863657767286e-03 4.440325387357609843e-01
6.107153335408162242e-02 4.413603886198392418e-02 4.488912758571157458e-01
4.668999948208546469e-02 4.879780609977699829e-02 4.473398897910737526e-01
-1.396666957908699463e-02 1.676664855938279561e-02 4.427770546347821745e-01
7.132868302244979586e-02 4.192663888952337381e-02 4.513577379175663373e-01
8.753310882284998096e-02 2.086251731534086509e-02 4.937986206352761864e-01
8.821656552554121844e-02 1.537984400510988836e-02 4.732236554645244953e-01
5.165819569733713645e-02 4.772800587588653387e-02 4.477484925612605360e-01
6.767668496168172121e-02 1.308364922068505284e-02 4.577961301678740158e-01
1.004510575336728523e-01 3.180734281649941209e-02 4.640487345953075993e-01
8.892861033357704614e-02 3.576892807209666736e-02 4.982444457382418368e-01
5.611995277518451453e-02 2.530842191412008627e-02 4.516110056287100938e-01
-1.478333404707073834e-02 1.520297278388436923e-02 4.428025790359420566e-01
5.079800046467589786e-02 -9.533277743852052594e-03 4.528742587051177715e-01
1.010354800582443369e-01 3.274795387805080893e-02 4.795723223141743485e-01
4.021174753415166642e-02 4.327970056079233352e-02 4.469705127557682678e-01
8.562039157701227532e-02 2.170141997147461907e-02 5.019092620687736206e-01
8.991064961349794216e-02 5.495935381106252515e-02 4.581786083936413845e-01
3.323995125791515820e-02 3.763085372243758775e-02 4.464592393660329894e-01
8.694650152011194899e-02 5.604280772681555223e-02 4.566978071882813461e-01
7.542987070902970603e-02 3.007828710664515320e-02 4.570641127672838144e-01
-9.581132348190557133e-04 1.208690932032279765e-02 4.405529687428376695e-01
9.589072903441715756e-02 2.539892955535394403e-02 4.826597026603740015e-01
1.797312742847611416e-02 2.000794152406317264e-02 4.430480185443200214e-01
6.952775237247391105e-02 6.001408240410176231e-02 4.568389838642500367e-01
9.686236360568656334e-02 2.371167941232421583e-02 4.738041384879135287e-01
2.353312211341204371e-02 3.704942366706542173e-02 4.450421245001358606e-01
5.112648985460836043e-02 -7.494941734958532158e-03 4.523096038977629796e-01
9.444665946485567010e-02 5.359780442863350952e-02 4.747314245983459413e-01
-9.851804729976560565e-03 1.395957288449122848e-02 4.412404673417956169e-01
7.940423365668711209e-02 1.706332068779734673e-02 4.625836485251856312e-01
7.357517051501223648e-02 -1.180828527142554520e-03 4.909970726640680017e-01
-1.724638645203009288e-02 1.144363450043358980e-02 4.425560984324956038e-01
7.636275950763043996e-02 2.537719890701357547e-02 5.185176059248467473e-01
6.151153622226098600e-02 2.450645932337436675e-02 4.533159072270269152e-01
4.562965961285082861e-02 5.528488797546603217e-02 4.469705127012514323e-01
1.022601805856852841e-01 3.129740632896355068e-02 4.778111423894647047e-01
9.970636127074884725e-02 4.544040122800764581e-02 4.700228634222233248e-01
8.028483473520572899e-02 5.204569568166989707e-02 4.517838882794810162e-01
7.631775867710575978e-02 5.941098649776278828e-02 4.597586903700099925e-01
8.256990584999300553e-02 5.681192647124316125e-02 4.807976635147586109e-01
8.416379558203823663e-02 1.985316741514802502e-02 4.642160443535056635e-01
8.563815245065251047e-02 3.937932042838258179e-02 5.009420984468651028e-01
-1.310103157955796148e-02 2.624590713212462175e-03 4.394950502695916250e-01
7.204841393947027106e-02 -4.919737180477489272e-03 4.816138561132837781e-01
4.515273157224446166e-02 3.494052292316024780e-03 4.477791455009952348e-01
6.856690100966093826e-02 5.466707780957716367e-02 4.496035202904942185e-01
8.341760402096574933e-02 1.396839601874320588e-02 4.979707749531928629e-01
5.003204545723678731e-02 3.166352744032244204e-02 4.493143765026725300e-01
-1.829993729403220359e-02 3.026244600967354856e-04 4.394745047361376944e-01
1.228211062195730223e-03 2.457863255746458100e-02 4.422246500127666180e-01
8.745022954699910311e-02 1.665579359745264151e-02 4.701740196281429252e-01
-1.636425499246442136e-02 2.823387345913625987e-04 4.392315755424559542e-01
3.627584479510762711e-02 4.821270296616432527e-02 4.463253048423085900e-01
5.859588104706985046e-02 5.207165369542605948e-02 4.477957674754365902e-01
-2.085784247525200238e-02 3.573727627522189226e-02 4.496824256505453365e-01
1.748117605545411110e-02 4.656298727575738233e-02 4.448275371328773153e-01
9.413179547341987696e-02 2.996493414860318047e-02 4.627829517515529845e-01
6.809923016236503479e-02 4.732034698442984938e-02 4.492885341353067830e-01
2.345454524332074575e-02 -2.062504692780858448e-04 4.406058870357826840e-01
-8.616982955842917430e-03 4.933768292742283373e-02 4.478003644781460846e-01
3.063662069325612247e-02 1.562123596582500745e-02 4.446390575369187359e-01
-1.451055114328361761e-02 9.020210274866519162e-03 4.408933697798421703e-01
8.663515564364850097e-02 2.154311107537765571e-02 4.981202101091145584e-01
8.812878901557309741e-02 5.471256066617130598e-02 4.814800553832964680e-01
-1.849531608844784056e-02 3.224829545794211105e-02 4.474463880302113061e-01
6.915032960382404281e-02 5.892695323078519370e-02 4.522685767890522457e-01
8.157055883754101011e-02 1.099473287416593593e-02 4.691961074238432672e-01
6.805886558203570746e-02 2.096646312738303323e-03 5.077889415895620040e-01
7.153459978008630538e-02 3.232747199439239827e-02 5.224012185163543487e-01
3.874439561796619996e-02 -7.275555076653486899e-03 4.447647383104215701e-01
4.041608729136626083e-02 1.190541567638802103e-02 4.465211444213224579e-01
5.987062139573809567e-03 1.308326996453427170e-02 4.411501566852307210e-01
1.254005139476640010e-02 3.095498878943033980e-02 4.432224330472043228e-01
5.794161851657253504e-02 -4.812450709031686896e-05 4.545857805506025029e-01
5.895443183679598825e-02 1.739037208540931273e-02 4.531699888445668289e-01
9.599667123447074013e-02 4.151672128996558575e-02 4.860123055558048244e-01
5.599324965194418802e-02 -6.480004490030967339e-03 4.553410919720441430e-01
7.130130480155236206e-02 5.050700691386734303e-03 5.059421122931595516e-01
4.617813054525845423e-02 5.285160980113932927e-02 4.469513026227895369e-01
1.058656402030700716e-01 3.040555515437274106e-02 4.709062501757610431e-01
5.780341523153986055e-02 4.321784438255238392e-02 4.486707779972330945e-01
3.224179694226010640e-02 2.937178311813515991e-02 4.457894079312499369e-01
5.163518965286003487e-02 5.788206846394993582e-02 4.482367603486491214e-01
8.646941775472920255e-02 2.280610497858550148e-02 4.644105161043421415e-01
3.323879850475338488e-02 1.193625961819134301e-02 4.448497587515325424e-01
6.160130880682706395e-02 3.312751319290498098e-02 4.515769421492343838e-01
-2.367588709147408488e-02 1.657720394427734945e-04 4.399863767122039193e-01
9.712671099636364241e-03 5.461029652451532962e-03 4.403438621069663550e-01
8.625715825088874078e-02 3.355018609530478757e-02 5.033765541106426378e-01
6.463897757586316295e-02 2.712573304854162815e-02 4.537933548730523348e-01
4.065150256209750478e-03 5.395316125038367855e-02 4.474052744565051865e-01
1.813644534656473628e-02 3.814956921946430213e-02 4.444983808159766459e-01
6.485642574348170208e-02 1.777147172493040439e-02 4.552756765632162694e-01
3.637597594215256219e-02 2.900221365394205914e-03 4.445598618844046612e-01
6.168741330966091840e-02 2.857675047738581289e-02 4.528170521800637949e-01
7.611103565540112970e-02 3.479319440610424696e-03 4.951641533195396683e-01
4.463531990638671537e-02 6.308744943194517785e-02 4.512463146818543880e-01
7.927032976810059750e-02 3.740665029903958438e-02 5.092366424042665818e-01
6.785435661230572457e-02 -8.426424020539578785e-03 4.722618268918583606e-01
9.485805541963633625e-02 4.250258996496820985e-02 4.576191559144649479e-01
5.500832269649968964e-02 3.079180109930068285e-02 4.505929126528868123e-01
4.755619628464840404e-02 -1.076750454623255290e-02 5.309931873679629710e-01
9.985449656529127305e-02 4.094343312045262834e-02 4.603318211569044083e-01
7.386050586816639285e-02 -1.697987007929971327e-03 4.771423474602055625e-01
6.514601858833229953e-02 2.144945269499945809e-02 4.548728974585610207e-01
1.045515203714100505e-01 3.543255444510277213e-02 4.642522271040195325e-01
-9.706340953828888202e-03 1.411278596929182311e-02 4.412574931689938751e-01
8.601562175001828403e-02 3.591817903741258144e-02 5.034100747821155242e-01
7.183257975329677969e-02 -1.591990507389741709e-03 4.706736932852626509e-01
-1.567852307616038332e-02 1.861818415797713427e-02 4.437464638521056437e-01
5.280853025202775913e-02 -9.766180882213152531e-03 5.260920832178288542e-01
4.900045240433383714e-02 3.131584477072247436e-02 4.491163363737633030e-01
4.891991145124974238e-02 6.140261271607956595e-02 4.499575804385994582e-01
1.019085899453013866e-01 3.659759095085934888e-02 4.799017265458761505e-01
7.686321521110273114e-02 2.124991779340982927e-03 4.776563687550468562e-01
9.317710442127308257e-02 4.006480617171193775e-02 4.593371412907847895e-01
9.043151575858637825e-02 4.359341538648834474e-02 4.928311419665384885e-01
9.362317111114180912e-02 5.804051940979804841e-02 4.624970147473012050e-01
5.722359213636137032e-02 -8.930200658719713441e-03 5.214651030919641439e-01
7.583388768042735595e-02 5.697015956394189257e-03 4.677111626575116698e-01
9.213974796490382105e-03 5.255325978401515635e-02 4.464326108987127228e-01
7.894173932384611347e-02 5.912150027118236867e-02 4.601850502134856025e-01
2.043936955623000887e-02 4.269911329388054178e-02 4.449688545858177524e-01
3.043590937649341688e-02 4.395728109971117764e-02 4.459146942978802208e-01
7.714181087801577630e-02 8.293438306922515380e-03 5.026770385306158495e-01
-5.708772761526925699e-03 1.638209667518792864e-02 4.412262574289854133e-01
8.020380737015374295e-02 2.870546313905248184e-02 4.590215771085771612e-01
4.642337204739335060e-02 4.403805272059196918e-02 4.476428469154503653e-01
8.111848028185077164e-02 5.361098050486750449e-02 4.521848405976172658e-01
1.495404789495581241e-02 -1.240142674514145126e-03 4.391070782373147074e-01
8.526425012108776458e-02 2.315456769156747086e-02 4.635620047641225705e-01
6.574735154852567875e-02 1.550093752531928049e-02 5.243837652528697824e-01
9.796411603138763247e-02 4.866103730906688740e-02 4.679173535440685483e-01
3.963171816262307107e-02 4.893100308361458817e-02 4.466013193329582132e-01
1.021682371098727032e-01 4.184877234075713714e-02 4.667538149615642618e-01
2.970608944606522792e-02 -7.335649149252979409e-03 4.407312912854871034e-01
8.481256143091300825e-02 1.127310862376114560e-02 4.866806632704708258e-01
2.877179357571497259e-02 6.139481356009313801e-02 4.501263465767286753e-01
1.001593780916169990e-01 4.053314301881733722e-02 4.601019378224577294e-01
1.340415725069038673e-02 5.081702667698988207e-02 4.454061856449328394e-01
3.443930195697564312e-02 5.547224224418995792e-02 4.464455846681600337e-01
9.567827980367249463e-02 4.006573571392577082e-02 4.866709012660216382e-01
-2.589072962971123576e-02 1.438889056229752939e-02 4.473475957414716486e-01
6.130075267137121559e-02 -1.088360931541089080e-03 4.570011455507290155e-01
2.089257700682058821e-02 4.450243706953013051e-02 4.449954800536027877e-01
4.526140056895011643e-02 2.178060128002021895e-02 4.485091840653523954e-01
9.372240385032395288e-03 2.732126477124016684e-02 4.426501135565599210e-01
-8.713096077480461318e-04 2.798747156037093009e-02 4.428711919784511508e-01
5.579816846434456495e-02 2.347356952203113328e-02 4.516277149485787290e-01
7.097093016431685331e-02 3.197416575063674864e-03 5.036059165852280195e-01
9.200911859653387870e-02 5.357054340253511460e-02 4.785166432620998056e-01
8.444606346320714108e-02 1.301869654597102161e-02 4.927517815504692811e-01
9.777463732418038844e-02 4.719278680469707332e-02 4.645404138544652617e-01
3.877655659610616118e-02 1.266140489846392415e-02 4.462110478114739154e-01
8.756974940849594768e-02 2.165297134686652164e-02 4.944847373723507689e-01
4.353034677902856836e-02 4.738393013926805314e-02 4.470798200209857298e-01
8.735321267412940460e-02 5.182461994925502413e-02 4.895818679073971613e-01
6.793983712020268406e-02 -6.885571345179392067e-03 4.994337841458295069e-01
5.557106901001282462e-02 4.863997951806618703e-02 4.479392687173675558e-01
7.208505517789373651e-02 2.487839116454706664e-02 4.564649640416756360e-01
-1.819537747736161074e-02 4.063142583357061410e-02 4.493583003235437356e-01
1.048667312951962437e-02 6.958723796881522566e-03 4.407056947473595443e-01
5.355188416240839328e-02 -1.089889844914263863e-02 4.555380221234454075e-01
7.279686512224645134e-02 1.009620639260077300e-02 5.109893075154630093e-01
1.544326788256814367e-02 6.144722362107361488e-03 4.409989743176849220e-01
7.624953603772291477e-02 2.137973051906976937e-02 5.167834004447663387e-01
-2.625971333418017015e-02 1.285495675095299148e-02 4.469480101744767730e-01
1.804191948948906388e-02 3.253245926639413560e-02 4.439083409724137730e-01
1.025892899041094125e-01 3.787300101585162893e-02 4.787558300329680661e-01
4.100376678550844006e-02 1.057248106131605456e-02 4.465135939342546045e-01
3.411221780916250113e-02 3.185555024050894940e-02 4.462916069988198120e-01
7.100660678388423519e-02 -5.116435868099651965e-03 4.902978199656620184e-01
-4.501214405664470675e-02 -1.590577093315941482e-03 4.415186337050063803e-01
-1.263813056113645070e-02 1.565727929110645109e-02 4.420832069818794730e-01
7.281212407469951631e-02 3.250323461788628965e-02 4.558280304390577853e-01
7.734119722240630213e-02 5.891952385971474179e-03 4.976878628256734549e-01
3.176884468815548146e-02 4.302187595730316838e-02 4.460887516096949668e-01
7.317255178571334395e-02 9.474377520103601652e-03 4.618725146030092099e-01
5.405142864375761524e-02 5.944518648834320323e-02 4.501026139578008234e-01
-3.377171037079873539e-02 4.714131829141604210e-03 4.458323282987998182e-01
-5.235052189195429743e-03 3.304276078914871601e-02 4.440298001663644523e-01
3.576163806714222071e-02 5.288816912351367722e-02 4.464757989379253278e-01
1.819874422372302252e-04 5.048962593337389532e-02 4.459664020758136171e-01
8.444807717206466446e-02 3.501851839418677892e-02 4.611059666995892536e-01
9.093781661701122454e-02 3.201742015393652108e-02 4.953089782271961616e-01
-1.971727996568233693e-02 1.128592691286463626e-02 4.434662733921892475e-01
8.329001433635009610e-02 9.931134688108534878e-03 4.727148454043738068e-01
6.942900362950608917e-02 3.389900876033020982e-02 4.536817250266247936e-01
8.078220479949388411e-02 3.481877629277688180e-02 4.593446747170159550e-01
-6.974052202534962441e-03 2.384912314873991260e-02 4.427520777657371065e-01
-1.314133609922560689e-02 1.095117198225784017e-02 4.410828338175031837e-01
-2.787616650259842205e-02 1.034291424088808718e-02 4.470876664550887947e-01
8.384772665941929437e-02 4.179197577293711913e-02 5.015123148994281577e-01
3.276215679155126959e-02 2.892462594609790036e-02 4.458682055960974111e-01
1.024278898837867047e-01 4.243135936708204714e-02 4.707049940587697545e-01
