8.032148780181148917e-02 9.224013483813086473e-03 4.692347797600420756e-01
6.217169087034095376e-02 1.798921116460018912e-02 4.542257896061217548e-01
6.622505967534446369e-02 1.149366536494316783e-02 4.573149602477720732e-01
5.764267264720257522e-02 7.086567042485532666e-03 4.533089905924140295e-01
9.507492861325368694e-02 3.457951692596378246e-02 4.889037915083804253e-01
7.000128502415993437e-02 5.856074409458057739e-02 4.516370759632567511e-01
1.483773268237705348e-02 1.616137550354162372e-02 4.423586895287944243e-01
1.042968786251520230e-01 4.044101613583480498e-02 4.676244210203661100e-01
6.448445159159975695e-03 1.279353788730732203e-02 4.411472061863766503e-01
1.037569430901735396e-01 4.184223308839774697e-02 4.728996875418444712e-01
1.022927275646237366e-01 2.815937334007070914e-02 4.684403203833525930e-01
3.706957069531227611e-02 5.838083344052373558e-02 4.469509888222847893e-01
9.882920349816166905e-02 4.687457869540097993e-02 4.666695355459843930e-01
2.784231469491027511e-03 1.395496885728263192e-02 4.409532151517142617e-01
-5.566525109813368153e-04 4.520871633952545238e-02 4.446268533679538226e-01
1.942025132745372855e-03 2.159076192442196951e-04 4.386406276066388554e-01
1.055816528403560467e-01 3.285085811750949880e-02 4.763974120593940098e-01
8.266615892892385797e-02 3.103743147564316102e-02 5.104051409221899149e-01
7.345539179612742275e-02 -2.900693538399355242e-03 4.877851324279156020e-01
2.599933197372782112e-02 3.515037456626054352e-02 4.451858583135555603e-01
-1.241538105689140095e-02 3.446619124748826445e-03 4.396322504191207403e-01
5.193903522260470695e-02 2.858927784720376522e-02 4.501107247139805034e-01
6.615857569305344521e-02 1.138851549391243188e-02 4.572963984137648485e-01
4.766935921920825020e-02 -7.325429623096556611e-03 4.499476404761110215e-01
8.490896071421157043e-02 1.999713473932655111e-02 5.026708824739642978e-01
8.126249019462394863e-02 4.865063998844898485e-02 4.517399834289811955e-01
-1.994550406320968333e-02 2.099847620100803863e-02 4.461400200367913182e-01
8.376415002141725241e-02 9.956275236722877953e-03 4.879977048393310812e-01
5.977350969997259622e-02 6.711110931270522668e-03 4.543408908969551185e-01
9.538654057296591660e-02 2.228930736808889049e-02 4.708343491349298859e-01
6.748823220914504373e-02 1.973926788684999753e-02 4.558260856371296743e-01
-2.006593127805926177e-02 3.875044238648209238e-02 4.500030390917034717e-01
1.040602559041466924e-01 2.786994259876970914e-02 4.714528895592066116e-01
9.419209263839996293e-02 5.505546912283085931e-02 4.682985958903226886e-01
2.372879068302983369e-02 6.020892115377303455e-02 4.496991960587399806e-01
1.592447989996704366e-02 5.989060963312853314e-02 4.528845866331360770e-01
3.279862866143753997e-02 -1.905079786589486531e-03 4.426020629864836353e-01
9.473441662430058530e-02 5.592487992208269865e-02 4.628451307999955078e-01
9.613255719803266708e-02 4.820259403324538700e-02 4.602659263402116840e-01
1.067765981719702439e-02 5.396699259962911555e-02 4.468569836550526642e-01
7.890992764938963011e-02 1.095244193490022173e-02 4.660095667258831731e-01
4.178604162469847644e-02 -1.683957430313046729e-03 4.464250753285106676e-01
5.547538106892165033e-02 3.590763207717995870e-02 4.496436408712316535e-01
9.098551881275956932e-02 2.558475497858390610e-02 4.645503967070264695e-01
8.049371078372370703e-02 3.867757045547303568e-02 4.572937176577555607e-01
-1.247378581004852764e-02 6.068186593689576386e-03 4.401678324510402973e-01
2.798794185880417590e-02 5.669363838520360271e-02 4.469610077542806592e-01
7.052860212758929603e-02 -8.275149165605079002e-03 4.830138149387734336e-01
5.004006899007793635e-02 4.824059146554421362e-02 4.475374931558448455e-01
6.040927332340733508e-02 -1.179705277689196280e-02 4.637463677581267762e-01
7.454624773181245390e-02 -1.870022311801341520e-03 4.862642186031983504e-01
8.337025916745338661e-02 1.522530530775501739e-02 4.667422962904683170e-01
2.648657868439091047e-03 4.693471612219173028e-02 4.446056481422300255e-01
7.258939981656768736e-02 7.106833221982963161e-03 5.076454489199904163e-01
9.083968475403975118e-02 5.567107495558407809e-02 4.747395417351605862e-01
6.124966560425063739e-02 5.912814097672106084e-02 4.534196939217504108e-01
9.939667148946938757e-02 3.750712703496855704e-02 4.828869474758986646e-01
8.391278335681032208e-02 3.053688150753476258e-02 5.085098571102174558e-01
7.167906710287838545e-02 5.403937939531893407e-04 4.673586273895763421e-01
8.460018151340328862e-02 4.573789346518319920e-02 4.530647872146357780e-01
4.654711703920310674e-04 9.909900603476132913e-03 4.403127596912580488e-01
7.493104315019341599e-02 5.443868970659973333e-04 4.739147482327100147e-01
-2.272699731904721451e-02 1.892394108591630153e-02 4.470589456025795272e-01
4.360142796902184009e-02 5.192139158876433319e-02 4.466875406841965823e-01
6.426685437333733153e-02 4.859968240008999407e-02 4.484941328034100505e-01
-6.419885580680614878e-03 1.005526329722140205e-02 4.400806318764608482e-01
6.998017682174978438e-02 -7.239936822190444835e-03 4.935517415086704829e-01
1.022599982033878946e-01 4.118947158777866435e-02 4.647538817877578388e-01
9.286991347490287929e-02 4.997812747060545457e-02 4.569098633678555510e-01
8.415761578170542767e-02 9.589708697582965957e-03 4.843148870601730049e-01
4.960470159810904250e-02 5.749418131099994639e-02 4.475222680933582664e-01
3.312021001222932581e-02 -9.931383413312039332e-04 4.429221822534433195e-01
5.247654255993274008e-02 6.224154063964137951e-02 4.549500018806767465e-01
1.044232691855731116e-01 3.008676613877843409e-02 4.764068408108588781e-01
9.430656342576630713e-02 2.832321885079536194e-02 4.883413927098331775e-01
9.586115969808192694e-02 4.789954312189884100e-02 4.840073347449968533e-01
2.560232638871365318e-02 1.641605857210587729e-02 4.437086549871966379e-01
-1.238086891967063972e-02 1.695923902882469705e-02 4.422471049893229589e-01
9.400811370440734227e-02 2.461072231809927416e-02 4.670236573550269332e-01
2.605362377792739062e-02 4.736154518004054292e-02 4.453463296075914624e-01
9.247458085944244843e-02 3.209737026042303737e-02 4.620722313738743758e-01
-2.629510263051412777e-02 -1.181327756741879474e-03 4.399787954391735090e-01
6.070766939836542975e-02 -1.109858269655341137e-02 4.634952468406524084e-01
9.218695898929325783e-02 4.691530644074845546e-02 4.894312345296837896e-01
8.958682521900568352e-02 1.574090181786740386e-02 4.776611601176226629e-01
9.475927700643937968e-02 3.917638148563084427e-02 4.887403759525056346e-01
8.723042435809678918e-02 2.754412761964112472e-02 5.022578699730493312e-01
4.625737203904885936e-02 3.535680315051934614e-02 4.481643151864051489e-01
3.982151536190474406e-02 4.032309077610383985e-02 4.470401564774593717e-01
7.825308923430261687e-02 4.757815644838399305e-02 4.510068269495460247e-01
5.388442914336274286e-02 4.136451006228593352e-02 4.484767537971528495e-01
3.073066007408674014e-02 6.207460121126011365e-02 4.502130325836202762e-01
5.659629465181196389e-02 -4.789563819589203082e-03 4.550430012286026948e-01
7.304201118995427844e-02 6.569813738919443730e-04 4.962437533399859935e-01
6.068953710158581094e-02 5.293353351440729243e-02 4.477772774877887274e-01
7.190569952747673244e-02 2.728780482648471197e-03 5.016243424457856870e-01
4.412711500132180525e-02 1.635381675105240101e-02 4.479657145175969801e-01
8.296297737817474871e-02 8.182868444346028114e-03 4.849639445967112161e-01
5.771655377026964351e-02 1.632601550183073250e-02 4.528394231170389528e-01
8.767427216342679741e-02 2.447325977193063121e-02 4.638427057973530943e-01
8.085401346753741392e-02 6.421214350692972667e-03 4.735896798187060885e-01
2.374981402823675078e-02 2.447137973118094362e-02 4.439853867266689846e-01
7.799724855263356904e-02 4.881671848232124744e-02 4.508092279618467479e-01
6.988129400882643616e-02 3.488223864699599441e-02 5.183894170175341598e-01
7.155876956151692447e-02 -6.214590046966042905e-03 4.829889141213683512e-01
4.897946458971902395e-02 6.275678019150560290e-03 4.493665025046140737e-01
7.195467109980917264e-02 2.164272488165811664e-03 4.660650179117143410e-01
4.547191353790582674e-02 6.109256621106878837e-02 4.486958176106440321e-01
4.391962668475614395e-02 3.668487212064174691e-02 4.477264751681241939e-01
1.398528919706355442e-02 1.362640685251895883e-02 4.420199196998574886e-01
3.251798999058290451e-02 -8.347170064196402645e-03 4.414429254895579913e-01
1.431471098757095863e-02 2.917421678765464918e-02 4.430827669154420723e-01
-6.491568087562654688e-03 2.437399617653222134e-02 4.427807913786775962e-01
-3.761140645863041143e-02 -9.147257378748086930e-04 4.401986638071490043e-01
4.284642968572170696e-02 -3.006336651594941276e-03 4.469029844121993889e-01
7.927113012163977679e-03 5.676556566726376901e-02 4.494649790289177438e-01
4.952960643191569451e-02 -8.765426075954837679e-03 4.515748564123920339e-01
9.214189268281922085e-03 9.056636184496315647e-03 4.410310113627526896e-01
6.800533161961026807e-02 1.286031935147212077e-02 4.579493396413747974e-01
9.572299346301453571e-02 3.770909487830862578e-02 4.610151466303067380e-01
8.688784982043600003e-02 5.363721558932411232e-02 4.547811973416816533e-01
6.625756180869457612e-02 -7.658661090861650436e-03 5.034104792707144727e-01
4.080919162660535948e-02 3.915991925053287359e-02 4.472259034112489040e-01
1.725060043854448680e-02 5.276561988348169030e-02 4.460573113796333922e-01
6.711483816249536050e-02 -7.336959408641758121e-03 5.016419286639456354e-01
5.290993568455545221e-02 -1.180939427610345344e-02 5.266354579518361945e-01
1.023227417786012894e-01 2.750223433202373183e-02 4.765666019043640067e-01
9.758062543565940161e-02 4.979762454701479324e-02 4.747217306650150515e-01
2.293314509875795867e-02 3.991275056116712697e-03 4.415822317256176133e-01
6.613593881771707983e-02 -7.244394026631054487e-04 4.613903708245018498e-01
6.166049209747786336e-02 -2.443749061022920492e-04 4.569291738574084438e-01
1.542693538047271336e-02 4.303527453758605736e-02 4.443969286358211424e-01
9.906199520030052608e-02 2.461323839256026116e-02 4.737766318327575332e-01
9.270165829229486121e-02 4.913475700833602744e-02 4.877004449411307396e-01
5.366562846798426933e-02 -9.505214937425112906e-03 5.253358231397728950e-01
7.156312083401357438e-02 -2.051748135581937110e-04 4.976915634567267710e-01
-1.498352572416942682e-02 -2.296029110661727823e-04 4.388647253061314646e-01
8.759820800671254404e-02 5.645446831801775173e-02 4.761530813353209157e-01
6.448032266623293651e-02 2.949300912102440636e-02 4.533398924813590303e-01
8.978921227850433784e-02 2.505983123089335768e-02 4.643700237295427247e-01
8.059487365580945972e-02 3.989355004668310167e-02 4.563664995549141512e-01
7.163407422664376523e-02 -4.484601542156236090e-03 4.898537709236749360e-01
7.811705978938981998e-02 4.386925614965641630e-03 4.927572921162455821e-01
2.626049394348043547e-02 3.546230553917423950e-02 4.452448386466337782e-01
2.644450190020563099e-02 6.042401046509637136e-02 4.494289106357664543e-01
8.189000515782328404e-02 2.913458331817658092e-02 5.113827901436676093e-01
-1.314850132756390649e-02 3.424943767860799682e-02 4.457809921577733370e-01
7.012669535949002386e-02 -7.404255529809992964e-03 4.921458167496445268e-01
3.750289115118477651e-03 2.535645983101362730e-02 4.421873260141011008e-01
1.936601850551704015e-02 3.978980319261593568e-02 4.446492083549321572e-01
1.053088966048007155e-02 5.651693107179785874e-02 4.488846207931667665e-01
3.612366547564209440e-02 3.697261773820137432e-02 4.467101877740298210e-01
6.404062314531981659e-02 8.046030285201399845e-03 5.211977297101619833e-01
1.749852822997752591e-02 5.495673768766572848e-02 4.469437047079733993e-01
7.450977241803379003e-02 5.148496847901422313e-02 4.502264952195602077e-01
5.800841823712861445e-02 2.196111298077242646e-02 4.523151966841553184e-01
1.561290961271174192e-02 -1.902760956091852258e-03 4.390516315307177453e-01
-1.902244098730086763e-02 9.150465371804148221e-03 4.424360464324272324e-01
7.764843731977405517e-02 4.979235744817050308e-02 4.506199704336366074e-01
6.591675381722969518e-02 1.588209839113623786e-03 5.112591967145001526e-01
1.059885943308381956e-01 3.675618951452731820e-02 4.758953565965914345e-01
7.428676598918533547e-02 1.864752356196770419e-02 4.595556365605354410e-01
8.903318933374576583e-02 3.315829451191695115e-02 4.993211395351540571e-01
9.102911352068804307e-02 4.882434181081709429e-02 4.556860440317582195e-01
4.901932074431101377e-02 5.033563130186958362e-02 4.472805802921500651e-01
9.281263663528499519e-02 2.497798485564212828e-02 4.881830009051269514e-01
-1.720686693856300241e-03 2.101022139433885924e-02 4.418177173701891003e-01
8.183868717086954792e-02 1.357877575579920400e-02 5.022960378455370023e-01
1.998535033211052900e-02 3.755695011850489207e-02 4.445503463416600187e-01
1.100262606303839125e-01 3.544320961092352340e-02 4.676700433009759461e-01
5.025515572785585472e-02 -3.725427245846550054e-03 5.260406082046186205e-01
5.637840831834860927e-02 1.098531650494231730e-02 4.526105439130633235e-01
8.435634918773271540e-02 1.017372948300493754e-02 4.864724175940664530e-01
4.888991754908496301e-02 3.962592487663755408e-02 4.480632997589080180e-01
2.289096541075599095e-02 3.956663038144106470e-02 4.450533028138461966e-01
7.916082570197413570e-02 3.865820548066598028e-03 4.860467810182649839e-01
8.209382385824220973e-02 2.824228263896869442e-02 4.597561290663336186e-01
-1.417929824260852345e-02 -1.824883846063008949e-03 4.382203329431594296e-01
8.387744941493018025e-02 1.905206864893077556e-02 5.039716123961854866e-01
-1.440827026331792035e-02 5.633116678638714313e-03 4.402630542140304470e-01
8.350332242313814046e-02 3.834571180634232385e-02 4.585705954148249219e-01
7.414446162755948533e-02 3.687043219970163183e-02 4.552775746989043970e-01
5.856736625612758013e-02 -1.149990832049073257e-02 4.609202757400816530e-01
4.145858703989048488e-02 4.109807421919687426e-02 4.471823332380004956e-01
-1.129863016839362244e-02 3.683816677520835442e-02 4.458114259725187156e-01
-1.621963465542034660e-02 3.024819132486148560e-02 4.460054975228786023e-01
5.468094559058344489e-02 -6.969363286187742895e-03 5.236637363460302508e-01
3.992941224278412360e-02 4.090719080148302184e-02 4.470159130543334136e-01
9.531642371171467065e-02 5.376288850613865355e-02 4.693892326596367792e-01
8.524998619463297622e-02 1.562277038802198370e-02 4.956071883439782666e-01
4.796360504338755687e-02 4.109213598648212701e-02 4.479033357056119713e-01
8.371430556678294277e-02 3.263847292038545012e-02 5.083851324869881338e-01
3.445890398869493748e-02 2.627263820878894714e-03 4.437767651757009157e-01
3.779573647285762450e-02 5.195096301520150256e-02 4.464968495047964003e-01
9.116247200751240176e-02 2.231315105606074614e-02 4.886284648039649348e-01
9.445374925637547991e-02 4.299192184879684075e-02 4.879929779487608976e-01
-1.421832431713249308e-02 2.408676067042654981e-02 4.441776448703671498e-01
8.012548757327757343e-02 2.666853421590467330e-02 4.592442744179431879e-01
8.593104774798600298e-02 1.339523175777420153e-02 4.717907257469312055e-01
8.554006913407924406e-02 5.782192982064177783e-02 4.726498089709207373e-01
9.076771587474619096e-02 2.527612135602466323e-02 4.920311663051116779e-01
1.069036171796376028e-01 3.449907302845901802e-02 4.755520746726836223e-01
1.127055388209064271e-02 2.717160835535623042e-02 4.427075256217259946e-01
8.506667143966857580e-02 3.088321619892784448e-02 5.065895418579211551e-01
6.242268493998304885e-02 2.227146694833726306e-03 5.179149635106455873e-01
5.475721255809089943e-02 1.025759385836755300e-02 4.519683430721331829e-01
7.028516375626783774e-02 -9.191657553811646494e-03 4.865878097730849117e-01
6.335699220189547343e-02 5.068574391003837637e-02 4.482036755676808704e-01
7.463903987950655516e-02 1.088810179346130953e-02 5.098525343302173773e-01
7.015677837335131117e-02 8.549971854995484094e-03 5.130599112082712132e-01
9.055479973008223604e-02 3.711819297578228261e-02 4.606220393821480186e-01
8.166695688351105487e-02 3.090375859861448776e-02 5.118753828048313581e-01
4.259718673591125077e-02 1.040415141575208764e-02 4.469089969832937825e-01
7.131058912359185264e-02 -6.826581066652448286e-03 4.834381431371886917e-01
6.742091605120920095e-02 2.876196115445257655e-04 5.069670553304581606e-01
5.165120673206404639e-02 1.645428110601942096e-03 4.508219938300661589e-01
7.670967133451582487e-02 4.741255851436142893e-02 4.506592736536755850e-01
7.202820417013888754e-02 -4.776448088878188641e-03 4.879801620341300272e-01
6.847052646655350794e-02 3.504805775289145976e-03 4.611296869479959426e-01
5.555659265433494226e-02 2.635520335956603385e-02 4.513384270250971886e-01
8.288736985988633121e-02 5.671344278665288452e-02 4.811490395709073775e-01
4.940361530621937419e-02 5.752266379020040676e-02 4.474984429338360603e-01
-1.125874598997533317e-02 3.379137113199513071e-02 4.452469838253148571e-01
7.980614923434044272e-02 1.059662692425761624e-02 4.672793252202396830e-01
2.350928116366280546e-02 5.530356163423780225e-02 4.467229032220653151e-01
1.631202903184460207e-02 5.964449012132806011e-02 4.523707922118588853e-01
-2.604925465665235661e-03 2.027935004471050073e-02 4.417584306227597124e-01
-1.251617263428716348e-02 1.780421806899385243e-02 4.424481062773507611e-01
4.742597564234059954e-02 3.456175149211851427e-02 4.484128541468763163e-01
5.758129478960943154e-02 1.011426574146941787e-02 4.531396139128636147e-01
6.252021453102243886e-02 -1.089898953602381690e-02 4.658576151647582653e-01
5.723591780592255512e-02 5.820905804521576271e-02 4.495461676594575406e-01
-3.570485022870550224e-02 -1.605902463744340435e-03 4.398158768807126084e-01
1.619493441845666626e-02 2.310509116053525297e-02 4.429478326561301360e-01
9.623948907544666032e-02 5.241309547740730101e-02 4.718224914121586511e-01
3.567925326338896447e-02 -2.660349930063029417e-03 4.436027115863375725e-01
7.018848569233547552e-02 -7.326716588735717774e-03 4.918244822657195647e-01
3.476797923727305284e-02 5.171390986810055213e-02 4.461965235504301575e-01
-5.286761627625690199e-03 2.279847396288362318e-02 4.423075358980659288e-01
3.772757018034662846e-02 2.862384796664890242e-03 4.450059185742998857e-01
6.530691971953755948e-02 5.900605121725877728e-02 4.531990330698700276e-01
6.619887794229044331e-02 5.955705309925841441e-03 5.159505749412701681e-01
-4.680690571874958350e-04 4.336305014573366839e-02 4.444315709430054495e-01
5.904248867821817320e-02 1.695333638563290696e-02 4.532349464638976144e-01
7.636412572407116905e-02 1.154009629329596793e-03 4.794170661385970256e-01
6.951674438065463812e-02 1.291750210591863061e-02 5.184940236447495021e-01
1.392311462504461361e-02 4.682178305443099320e-02 4.447645089378945982e-01
6.787096463572574179e-02 4.903415138673720280e-02 4.488479635184133287e-01
4.592092863889053050e-02 4.305572302354201270e-02 4.475796422579603195e-01
-1.021090879267996104e-02 1.746598322254486885e-02 4.419447343834338460e-01
6.799882801547892097e-02 -1.734139425540052407e-03 4.647300408574149833e-01
-1.579206988549098842e-02 4.436587457921967875e-02 4.488149004614883086e-01
1.030545879495529255e-01 2.881302722924183532e-02 4.681649080279966513e-01
9.332263460809804567e-02 2.893094709805043435e-02 4.901449555467197738e-01
1.005668131270871374e-01 3.386080011242401100e-02 4.625062775402221105e-01
-2.766697282371832767e-02 1.099354445261930928e-02 4.472748473584723938e-01
6.654357255194254250e-02 -6.975762643698063536e-03 5.031292347499706219e-01
9.145085666864578855e-02 5.980659497332811714e-02 4.657649937317163702e-01
-2.168681418874625691e-02 3.056828799354004839e-02 4.489415668580347685e-01
8.304020308563840602e-02 3.381558650982456615e-02 4.604063980029520775e-01
5.913013965103748604e-02 4.515763356433449838e-02 4.485030957971427035e-01
5.908639388701783512e-02 4.448603820771775824e-02 4.485794161220431620e-01
8.774909751533345459e-02 1.947752159213932480e-02 4.677697903409260283e-01
9.393278266150810463e-02 3.317590154073381259e-02 4.621683568082318727e-01
7.521833044696610293e-02 2.006559495401695481e-02 4.596183183609771072e-01
5.401869912319630374e-02 5.365668525258480287e-02 4.473882657139694463e-01
4.971073448130911704e-02 2.501159655507858778e-02 4.496969817278919646e-01
8.668560058035344740e-02 2.349508751487331196e-02 4.640069992163026180e-01
-1.403589896002863623e-02 3.122959424353405344e-02 4.452892590493337521e-01
6.571082894671634311e-02 -1.708952079557434986e-03 5.077842779113747040e-01
9.119906543742090088e-02 3.197560842852724405e-02 4.956249065815753752e-01
8.760241273244014082e-02 2.361442451087929911e-02 4.643826114680920103e-01
5.873022998408133216e-02 5.430348058594938049e-02 4.477281821807572171e-01
5.700109287261255486e-02 2.191198723495609447e-03 4.535338102165178964e-01
9.618002312931249465e-02 4.986232219512348740e-02 4.802824271225180630e-01
5.670149095279373302e-02 -6.542936367850100271e-03 5.215291463570024266e-01
5.065896166698208997e-02 2.373790896465220041e-02 4.499621313498797237e-01
4.548738140599611901e-02 5.518415895935283033e-02 4.468731826028819465e-01
2.515672835838374949e-02 5.468271792090562133e-02 4.465053984313666069e-01
5.588496512718615222e-02 4.990920397195796471e-02 4.477804525870030528e-01
7.518024519061997091e-02 8.709341553042173473e-03 5.062383258490202875e-01
1.136492696814113065e-02 5.586812504107262212e-02 4.476756063855572565e-01
5.177926292931566560e-02 -8.847446645413729535e-03 5.266830076928843418e-01
1.088396903577497216e-01 3.739986596998965546e-02 4.714921487300987035e-01
9.125314019578227576e-02 3.768339431648470156e-02 4.941281498668281258e-01
8.308601827148881513e-02 2.213771204152836791e-02 5.088740026943275874e-01
5.251814555193717177e-02 -1.351606206136556770e-02 5.274755183572338302e-01
-2.288387795128503724e-02 1.315266024305029348e-02 4.453681406114672892e-01
3.681136220099588945e-03 3.836364240212319227e-02 4.436783038667340140e-01
8.029807839398507563e-02 3.559299610958732013e-02 4.588620753932255991e-01
9.947680335306376131e-02 4.605390200659519040e-02 4.761424098578959652e-01
1.623632986507379805e-02 3.198128603708243201e-02 4.436113780788971117e-01
-3.798951561520825561e-03 4.028876156891855048e-02 4.445176006794703261e-01
-4.619640405447009851e-02 -1.648461841045975856e-03 4.431285879188970878e-01
6.639981653004388418e-02 1.033872491178986983e-02 5.201863710898882998e-01
-2.369116626666130029e-02 1.470200372681227698e-02 4.463813345636479246e-01
1.456830284194315234e-02 1.480934738224357582e-02 4.421969475756344359e-01
7.021853880864965813e-02 -8.032958335635546898e-03 4.898951063543079409e-01
7.252071787659236657e-02 7.307130236975968585e-04 4.683768489366450516e-01
9.531257724166397605e-02 5.229353992781780175e-02 4.619733169943353590e-01
9.189376171528641779e-02 2.132862052495548832e-02 4.858677781842713483e-01
8.051613489680423119e-02 3.902136293271595002e-02 5.067975452793351820e-01
1.694115917495408324e-02 1.352911997438392688e-02 4.423357255055347936e-01
1.021269447982006279e-01 3.011637308018316056e-02 4.662407331686075906e-01
4.564179071803795701e-02 7.694333913947037223e-03 4.479459051690340421e-01
-1.922914998939283249e-02 1.205469040005134607e-02 4.436080892499801309e-01
7.491162561313748081e-02 1.763032090105860761e-02 4.601605209214428283e-01
-2.726421622966741440e-02 2.515472288835388700e-03 4.416034264017620337e-01
7.849639016026337124e-02 4.877109294263882490e-03 4.931671767360522041e-01
8.294875121484558689e-02 3.479491264538370210e-02 5.088283555626308408e-01
8.138803150566738254e-02 6.595769964955473623e-03 4.804591205321775416e-01
8.374551429837040484e-02 5.769386254541280373e-02 4.743441095581070743e-01
7.508099431559261960e-02 1.693996356492761396e-02 5.158520826415688987e-01
8.836270101075532901e-02 1.930756636959910649e-02 4.909606486102255918e-01
-4.982958692720909286e-03 5.126159406821866049e-02 4.469643152957717969e-01
7.751118773387140337e-02 1.695872311283000075e-02 4.616330548880085982e-01
-1.951842345735093839e-02 2.166374512772177574e-02 4.460218129444982749e-01
8.934641526115018328e-02 3.540514664255375171e-02 4.982952810184322345e-01
5.978342761534805733e-02 -3.527523674077391418e-03 4.566731665800742301e-01
2.998822661324010430e-02 1.598762261811242230e-02 4.445092632626358453e-01
7.456866232668507566e-02 3.545643414426709328e-02 5.154170195453438019e-01
1.066335215434967287e-01 3.865115293628351711e-02 4.686392041646428863e-01
-7.298941561111249240e-03 3.642062055791037839e-02 4.447807246821536276e-01
7.806792308060982177e-02 6.395951471099642349e-03 4.695406185743510319e-01
8.333580362014615661e-02 1.388282537348272706e-02 4.990149624644240611e-01
3.876968907698927214e-02 4.775698039929093114e-02 4.464824560985469204e-01
7.662414939636706668e-02 3.806086680896049457e-02 5.101485987076396222e-01
1.022825479329932535e-01 2.656358922368959319e-02 4.743840707455956318e-01
-8.950650544024326555e-03 1.982442589611124045e-02 4.422462181639943424e-01
2.809193788732008285e-02 3.914422338067295726e-02 4.457644737408325564e-01
2.877479326235964086e-02 4.892161219490360341e-02 4.455287705357290906e-01
-9.584275367678271249e-03 4.366979968740481582e-02 4.462354072024202201e-01
3.635807013139540078e-02 4.449594694695650082e-02 4.463642276870092296e-01
-9.587094183617229926e-03 3.393912444208119737e-03 4.392776918280466569e-01
8.546725540236535523e-02 3.570960103525103180e-02 5.046042940387682751e-01
7.574274586275055177e-02 2.634528648327182001e-03 4.947475497482473616e-01
1.857424730608484356e-02 1.284553636318206023e-02 4.424565990986429331e-01
9.213166231212330248e-02 4.275666189815600232e-02 4.910947415061844290e-01
1.270795962911515711e-02 4.832342015298775328e-02 4.448843890402820467e-01
2.301157526987816435e-02 2.336996153380013069e-02 4.438603507399856984e-01
9.700103756248849851e-02 2.679881824530272807e-02 4.664744219571382300e-01
6.072633825714841838e-02 2.837069833959983411e-02 4.525662004125009519e-01
-1.422442540209328983e-02 3.005462005470414810e-02 4.451066934637986083e-01
5.038256963062791999e-02 1.195842412918157044e-02 4.500823886891685555e-01
2.873877016496777931e-02 4.538551890657619575e-02 4.455993980931852172e-01
8.794503767489424140e-02 1.374196356836251617e-02 4.753691157029619196e-01
-2.073700050697195596e-02 1.040965474071189195e-02 4.434694647061727668e-01
9.101670977957436459e-03 3.562024122101092177e-02 4.434134099786351535e-01
8.999059477317458700e-02 3.690065203135646510e-02 4.608479661435718744e-01
1.094464650876020850e-01 3.584812366636635356e-02 4.710250918962304301e-01
7.587934741060305133e-02 5.915355043471113433e-02 4.559721845706158350e-01
6.736652468794092352e-02 -1.474570522558185659e-03 4.636378874420934437e-01
9.765777396833141832e-02 4.268066424877563908e-02 4.596137783955099310e-01
7.472069772874140314e-02 3.515494844780554101e-02 5.158067094753759907e-01
3.685122398477802541e-02 6.262535407384521580e-02 4.488609747073869505e-01
8.112010816515070888e-02 1.156147426259624029e-02 5.003667516424935569e-01
1.802515470831316316e-02 4.012398275706385159e-02 4.444966397924799417e-01
8.797306296356205424e-02 2.544842979534260238e-02 4.982113687555351778e-01
8.710052280365850053e-02 3.935837668465504147e-02 4.997323479124416989e-01
6.612665246133006547e-02 1.930445067333847603e-02 4.554089107607151021e-01
3.312680461687437378e-02 2.277291463267588217e-02 4.456976101697402992e-01
9.661060047230815573e-02 2.300144426226950062e-02 4.727404108369618885e-01
4.828580269781014567e-02 4.250152387850001517e-02 4.478735774263523650e-01
9.760951848760491059e-03 4.279938340851228290e-02 4.441096967597375489e-01
6.768891585129437061e-02 3.393577601688676365e-02 4.529026766258278935e-01
-8.957228983391327809e-03 3.261543371944580771e-02 4.445185129089249676e-01
9.195666018147652387e-02 4.170479565330844490e-02 4.580212458150877963e-01
6.969578102692632060e-02 -9.113624023768664845e-03 4.799647782725451339e-01
5.561861644194347754e-02 4.436788942809009872e-02 4.483251791301681166e-01
8.663783218787633744e-02 5.186757615553346662e-02 4.538061590685391611e-01
4.967785758983371547e-02 4.953613266686632266e-02 4.473958170378729560e-01
8.634221245491370544e-02 1.325270798364371061e-02 4.873230727695351261e-01
2.093724992024361894e-02 2.240549846439170850e-02 4.435444613065781527e-01
9.450679816560096647e-02 2.199571326328369353e-02 4.805390343079075643e-01
7.192216331148708341e-02 4.979698548162806576e-02 4.495543642867882439e-01
7.569020951210590764e-02 3.002690142529692435e-02 4.570791376366075687e-01
9.341176318530267086e-02 3.867045992685985700e-02 4.602281265317705317e-01
7.632252177369407142e-02 1.962028031515669190e-03 4.907472935984983353e-01
-8.921080874791639803e-03 3.455488123574645964e-02 4.448916635695271404e-01
6.039393848157968009e-02 -2.424138571090815424e-04 4.561215684491528033e-01
2.431325490626024682e-02 1.608957309913737130e-02 4.435017138885138932e-01
2.849029222558693147e-02 5.620682819539488118e-02 4.468550056706379059e-01
1.005771458830514442e-01 3.940504170099796283e-02 4.811022401346705113e-01
8.036504884617168276e-02 2.725128412727677307e-02 4.590319704898754294e-01
7.689028871374398166e-02 9.167588815788982326e-03 5.047378175145067480e-01
7.491367847792543277e-02 1.546865960278445869e-03 4.942469827151534378e-01
7.790368736251675197e-02 3.849270249217259104e-02 4.562718350539107237e-01
7.129749797503494302e-02 3.548283487717362756e-03 5.039614737879180018e-01
9.267653127591539419e-02 5.013733270316825252e-02 4.871568963922173756e-01
9.705272169982032127e-02 2.959002595445457337e-02 4.845292182902168898e-01
3.113097155924360662e-02 2.293464682307145772e-02 4.453016966185492920e-01
1.057720792136971760e-01 3.988683635243645692e-02 4.741274916101830272e-01
8.515997386401642777e-02 2.838088928166469099e-02 4.611185237367093070e-01
9.717489632634478125e-02 2.430772695058278435e-02 4.771904511979127572e-01
8.418297872788041425e-02 5.237174469824201067e-02 4.530016121739154911e-01
4.854857609632375753e-02 -6.303885933353021997e-03 4.502950564065663630e-01
7.632303513821944718e-02 1.100799518037864216e-02 4.629719861667382919e-01
5.587484484177820260e-02 -5.047736015943155366e-03 5.221392264861381971e-01
4.286798505282863464e-02 6.090355632774935302e-03 4.467361817674038726e-01
1.132046407366227650e-02 2.391679208499235092e-03 4.396908225726083308e-01
4.310028212138999892e-02 4.985024813328117060e-02 4.467689163365955451e-01
9.208842137614754730e-02 5.108010266687303125e-02 4.863647731532490526e-01
8.546258654100369334e-02 1.656430813372794519e-02 4.962886973197941920e-01
9.613515331393576724e-02 5.173253746203009679e-02 4.630178606146459486e-01
8.640434965152117563e-02 1.349200842635799209e-02 4.722923465898584139e-01
6.553347082814482694e-02 2.120940759812416782e-02 4.549881663281177269e-01
-2.399997739252609022e-02 7.036069449057602565e-04 4.401507185591070348e-01
5.495379638764130020e-02 5.898819900248276904e-02 4.492283771733359687e-01
8.642656528713217601e-02 5.507920406894507154e-02 4.829146973748669747e-01
3.618689074650009718e-02 6.048703963906850584e-02 4.476895627054200411e-01
7.157496295218253313e-02 -5.188846164702093540e-03 4.770980722806802410e-01
7.444582519953078792e-02 2.946705346143697543e-02 5.215662011050444802e-01
7.597105667380674165e-02 8.767802259490111577e-03 4.645956278814991625e-01
9.568288023413545895e-02 5.307802441535480753e-02 4.720518865592615021e-01
6.764422966012006988e-02 4.458632843586195389e-03 4.602243537347780467e-01
7.659947784796516945e-02 5.867425188373796840e-02 4.553623219190784388e-01
1.551377176233556011e-02 3.550559408126098462e-03 4.402880093473483525e-01
6.704244654541567650e-02 3.548386738085944347e-02 5.187223193897980700e-01
3.143229531848074770e-02 2.704936619316198471e-02 4.454901354377467371e-01
-1.816559855314513888e-02 8.424540991938955781e-03 4.418490901870339438e-01
4.732591895868341197e-02 2.795703136727963056e-02 4.490674844407490096e-01
4.606352960958769865e-02 3.391518943927381707e-02 4.482442586950505792e-01
9.374514890773157083e-02 5.747192934183955465e-02 4.653118920049738039e-01
9.078287381677607737e-02 2.912889305868474055e-02 4.951548315019125845e-01
3.234992150242159414e-02 6.111056842616276186e-02 4.490516674949271980e-01
3.999996214861227528e-02 5.888466429544292335e-02 4.472515016203839622e-01
-1.542988175772324472e-02 1.950656738763498210e-02 4.438400159476825202e-01
7.957618821008341503e-02 3.690001729334915076e-02 5.097848623748126862e-01
3.132621599525550748e-02 3.011938315552522769e-02 4.456415386809641221e-01
1.788705621136666563e-02 4.717360184088912473e-02 4.447960604245573268e-01
7.495245598219996142e-02 -1.295640349326133804e-03 4.836629960238890691e-01
1.024723220101577542e-01 4.287735876484485148e-02 4.709272275246320083e-01
7.757782759761501501e-02 1.581448153125794912e-02 5.114847612007688005e-01
9.076761316104271782e-02 2.307583949083214653e-02 4.903679504208197648e-01
6.620056691646199198e-02 3.519861327050767541e-02 4.521003684381603160e-01
8.511292083814279985e-02 3.260395488956350368e-02 5.063212186585895891e-01
1.015963983937171328e-01 3.865351660919354865e-02 4.612935106408671548e-01
6.338659043019807815e-02 5.275410927385880411e-02 4.481353271430305041e-01
6.163377962562928414e-02 -1.319691365164926949e-03 4.572087283183950412e-01
3.122102049223108092e-03 2.277599488529018570e-02 4.418480270131237564e-01
-7.946238344021245084e-03 5.147214816004149623e-02 4.486526091686003359e-01
9.773769493834860711e-02 3.188163352525776734e-02 4.840435304080737966e-01
-2.399543324179616299e-02 1.773983293491125310e-03 4.404584966521095657e-01
7.937415549847369467e-02 1.934595529896629418e-02 4.618903220785715580e-01
5.652994078969916097e-02 2.041715253063496049e-02 4.519018859822296896e-01
7.333671867552331303e-02 1.160805257483949089e-03 4.692841501247830283e-01
7.710421610433733364e-02 2.166335183364696826e-03 4.768987069529601608e-01
6.075073226174788898e-02 1.182026613403321796e-02 4.545919753625068949e-01
4.918569327883943326e-02 5.747829877734100985e-03 4.494357873955973637e-01
5.287254500527896472e-02 -1.215698409090394672e-02 5.267699101911111903e-01
9.693734662111574973e-02 4.112810570082704037e-02 4.855422010688513201e-01
6.438063716503347744e-02 -3.339056313367167687e-03 5.096578521552121988e-01
6.973362266423818734e-02 3.414080219286769885e-02 5.208892853685048729e-01
6.990960382510345850e-02 -7.678637922743326502e-03 4.765511814530238310e-01
1.103293054336556278e-01 3.399837424272159070e-02 4.687943024752762589e-01
4.150047033180852274e-02 6.940523341920445607e-03 4.463352394811309076e-01
8.302033016852387870e-02 5.770053659710232957e-02 4.743093938030280010e-01
3.394367232227769177e-02 3.914031983331696385e-02 4.464151280311834946e-01
7.846312342994653244e-02 1.244544130768405511e-02 4.641175410067921447e-01
1.378382825788445135e-02 5.207600940249022814e-02 4.457991900382175521e-01
2.671561950489204432e-02 4.380562729019562423e-02 4.454590655813017164e-01
7.446228423202203017e-02 3.439358549638414642e-02 5.169482802309337544e-01
8.413716537233896509e-02 1.321354668099490072e-02 4.954545309189669622e-01
8.250289679383782104e-02 5.641772484723595743e-02 4.826397529503378414e-01
6.945643184134701886e-02 -1.491661965688453927e-03 4.663998452669967931e-01
6.069275428958515600e-02 3.463465400904096325e-02 4.509412230597930615e-01
1.016151564547764785e-01 3.734059641970616239e-02 4.806661708048102222e-01
6.542929807753028459e-02 2.910126966917623778e-02 4.536630598529174940e-01
6.001247384841588983e-02 2.530326901523101239e-03 4.551318542225973318e-01
1.105998429400976285e-02 5.104032722361191710e-02 4.454786020774198496e-01
4.605523558297869302e-02 1.156297998616899123e-02 4.485353643349223041e-01
6.787049516273634120e-02 9.473676673781114554e-03 4.585593732641808917e-01
7.534090563520134953e-02 9.613701904417782523e-03 5.074212877617855222e-01
1.100377732154910609e-01 3.337193954107227356e-02 4.703804688164391901e-01
5.331981941687047311e-02 -1.172094392684323687e-03 4.520809168601655492e-01
7.872030681720366269e-03 1.574172491587253961e-02 4.415316750832594117e-01
9.092333579426802037e-02 5.597298335127065538e-02 4.741529637862444413e-01
7.357867648677985165e-03 4.965055177770417300e-02 4.450334666467947176e-01
9.087114995861396427e-02 5.402041264412878879e-02 4.795757478171489563e-01
8.897885467582034025e-02 5.789252398571137492e-02 4.715555509601455642e-01
7.000572731180530750e-02 -5.734661094383973132e-03 4.947950863649421827e-01
7.947089018232786350e-02 1.881655090282645729e-02 4.620785681128463107e-01
8.105259683232221568e-02 3.058377953822304443e-02 4.593884167638389582e-01
7.283331673904319681e-02 -4.363908313109364501e-03 4.851522030086051207e-01
5.540077000910820226e-02 3.615429998935739547e-02 4.495737294372400550e-01
6.001651265890525777e-02 -8.148112471206376758e-03 4.598384058054861834e-01
1.068431403758260956e-01 3.471276213719348691e-02 4.658517460254118503e-01
-2.071335565881160870e-02 1.809043852844323397e-02 4.459987022685802938e-01
8.755760200541486127e-02 4.923392772456458566e-02 4.539086528372263118e-01
9.057376677795819786e-02 4.877115551716355163e-02 4.907209769879650185e-01
6.493380545729764142e-02 6.209221248102078823e-03 4.576685112423396484e-01
7.038744580672466611e-02 5.745739289079387913e-02 4.502094975786800068e-01
-2.969204786813392158e-02 6.453738746709937468e-03 4.441783540071362890e-01
2.729462429181972460e-02 6.082737416141656352e-05 4.414508936683633755e-01
6.453897032699026926e-02 8.158868203144098441e-03 5.207178217064168946e-01
1.639455045402724714e-02 5.665255768376022821e-02 4.479651618770912336e-01
2.911565368027889400e-02 3.308034623907694233e-02 4.455195481616933684e-01
1.907501788707768875e-02 5.504549794498467263e-02 4.469141077224658698e-01
7.234703450272737812e-02 4.447721906877474124e-03 4.642531187894345379e-01
-1.353636748119292979e-02 3.184466044362761067e-02 4.453170645688958595e-01
