4.865377660473877569e-02 4.186055945468804274e-02 4.479584187909330106e-01
2.410470409004751569e-02 2.524612758861674230e-02 4.440301875056059111e-01
3.505082233673137426e-02 5.126836861342484730e-02 4.461427219974337666e-01
6.844964779052808979e-02 -1.098727196010689747e-03 4.645876253413400714e-01
4.130969319831349906e-02 4.394861653505832688e-02 4.469554151407468257e-01
6.238954213150604833e-02 2.243053953243738345e-03 5.183702140187637086e-01
5.597088118617807306e-02 4.872386720067777011e-02 4.479443027285076595e-01
9.657049190260130755e-02 3.505563630007956649e-02 4.622879698260385917e-01
1.093137026901364467e-01 3.293519373542833084e-02 4.700249598558264852e-01
9.634070052473597823e-02 3.540009783912348440e-02 4.880630405256927706e-01
8.587149696285627243e-02 4.877322702838106372e-02 4.943436057561949037e-01
8.936080540692395435e-02 3.664177541360030127e-02 4.986021603580987338e-01
4.251595299854699778e-02 9.720481093001947723e-03 4.468162961424774760e-01
8.731499378625140126e-03 3.077425400223582352e-02 4.427706945793524196e-01
7.526580093505245983e-02 3.675426194755672393e-03 4.980442085839467126e-01
-2.317732510606436425e-02 3.145402125061596763e-04 4.399946857016023283e-01
7.429087313126679637e-02 4.385746925147607223e-03 5.010241349048993875e-01
-2.007333742290857287e-03 5.085861611774933344e-02 4.460231128115005328e-01
3.015799124479580720e-03 3.449178795145273202e-04 4.387369591071662578e-01
7.108423814006606389e-02 4.167358379082956171e-02 4.512300417083471293e-01
6.661030472640078193e-02 -2.286802005001797693e-03 4.634013360677664006e-01
8.663668540355531911e-02 1.203180687809172859e-02 4.742949433873830389e-01
4.258475036480433712e-02 3.738655591173463411e-02 4.474723688193569249e-01
2.520508790155588652e-02 5.051016137351690277e-02 4.455672653431791974e-01
8.740806179858824632e-02 1.459328346408217229e-02 4.721704475566107506e-01
2.404361625540702568e-02 7.467767256216028583e-03 4.425797537958642835e-01
-2.598117008422980850e-02 8.964184735430102274e-03 4.451032328183774922e-01
-2.100408271736345020e-02 1.816325100623119790e-02 4.462091074871126217e-01
8.687883607188910673e-02 3.874823189655895311e-02 5.010101460250382388e-01
2.959172597248840159e-02 3.345762065330847024e-03 4.427048475916068870e-01
6.513262900869606908e-02 6.120153344414953726e-03 5.181225660394923604e-01
1.007849473489784847e-01 2.522950156812343858e-02 4.730040969741212686e-01
7.848834472795707812e-03 9.239954517945514478e-03 4.408911684893500604e-01
1.669694712093993186e-02 4.571262405917558141e-02 4.446286554889277154e-01
6.803755464964644784e-02 -3.978139241952666563e-03 4.669215625829146732e-01
2.127622097765043477e-02 8.838053972034291828e-03 4.423978763759210953e-01
7.410756071202082018e-02 4.659920756666484365e-04 4.944733122196918185e-01
3.358624349572086887e-02 1.825631590852402897e-03 4.433814377624065717e-01
9.121331788984890498e-02 2.355516674617079420e-02 4.667490553202571224e-01
5.823227200884571741e-02 2.673684875952280285e-02 4.521346073249428166e-01
5.847405655071646891e-02 1.838684254787174496e-02 4.528113501209429237e-01
8.391936300092936452e-02 5.494170453965790957e-02 4.541718413472990434e-01
7.897034495943242027e-02 2.580152675170399243e-02 5.161752435910721415e-01
9.408205094654770173e-02 2.160763489274745291e-02 4.736601845521452026e-01
9.477403239238850474e-02 3.958837394754279038e-02 4.893938712245951006e-01
6.950152177414069266e-02 9.491604651043558313e-03 5.158241677128411196e-01
9.062167816126784348e-02 3.101123098694128638e-02 4.973516798895103452e-01
1.195450296800739352e-02 2.887297423029873758e-02 4.428623449202245266e-01
-2.258348114651606564e-02 3.385583558517417380e-03 4.408554894495725907e-01
7.050244401972170782e-02 1.818177838812715108e-02 5.219564997296028963e-01
7.163280467960267406e-02 -5.745336039267975349e-03 4.882695622157936510e-01
6.073603564987111597e-02 3.482789503288606647e-02 4.509754361325623018e-01
6.965255768516184776e-02 -9.179472403125644997e-03 4.927656496171157197e-01
3.542415323620125983e-02 3.716422767735650529e-02 4.466166640667453280e-01
5.850600110227147793e-02 -5.472317869767237379e-03 4.564230965383719862e-01
5.542473486940208138e-02 6.212080524514373373e-04 4.530182498998143736e-01
1.918468177795857460e-02 1.953646437620186471e-02 4.431338624460813835e-01
9.231154138050742808e-02 3.942222593302519007e-02 4.926645561127391826e-01
9.504813340084834750e-02 2.206459380949680679e-02 4.803615775805203936e-01
7.175207912083805817e-02 1.312853288933680217e-02 5.165878152265717116e-01
9.632072291975182776e-02 5.084204218445757817e-02 4.620972938110024519e-01
6.360571296795863860e-02 3.266239379031889850e-03 5.175428653863781703e-01
6.893092138561475457e-02 6.039635924694908981e-02 4.554590765151380616e-01
7.570372796929117354e-02 3.598105282267079902e-02 5.138407353245700859e-01
9.311964893838839408e-02 2.731365768895247306e-02 4.646687427040371299e-01
6.365606734525759702e-02 9.936659947745642846e-04 4.580721946099426956e-01
1.035629296174655004e-02 -8.936495626068801865e-04 4.388070605632286014e-01
7.796243148464716832e-02 1.107806307611536659e-02 4.648714316873308050e-01
8.695498109934367281e-02 5.228615388545873599e-02 4.540625448812670717e-01
7.595336423980023066e-02 3.345833121168049866e-03 4.701637335200812284e-01
1.213348253249413138e-02 1.032608830660920740e-02 4.414988618518182473e-01
6.723958719699341113e-02 -7.679984344071090138e-03 4.696539607668029359e-01
-2.363502610887763516e-03 5.301341439191573079e-02 4.476133388199800001e-01
9.312259630366963303e-03 7.574565349116230834e-03 4.407456935764619277e-01
7.994625413961714555e-02 5.495183432057363683e-03 4.733960312594319708e-01
6.959814648711773466e-02 1.656858023689784798e-02 4.578279569649902903e-01
-1.385066655820416277e-02 2.726998543072147591e-04 4.388717342743931327e-01
9.064381970120870269e-02 3.104709061408648593e-02 4.622691143137251379e-01
-1.754776614614457150e-02 1.383637354787254498e-02 4.436585402457446925e-01
-1.700272805058090572e-02 2.780449194128375295e-02 4.457536248337569673e-01
5.165510845277180435e-02 6.220399244756554674e-02 4.536878591795298066e-01
2.950833429278727077e-03 5.428918712590385248e-02 4.473743220515287167e-01
5.552994940432989801e-02 -1.064666563588777953e-02 5.240669300697288202e-01
9.768810891505591565e-02 2.441282303167514184e-02 4.782097714779909303e-01
6.371838138889004965e-02 7.275374007991683954e-03 5.212867900481421568e-01
5.956537047863761508e-02 3.042383029351423962e-02 4.517965854337313569e-01
6.703561661583586073e-02 6.336325746232792863e-03 5.155772587692283304e-01
-1.870181931552934371e-02 -1.544776193197006445e-04 4.394433933361625022e-01
8.274023038215756742e-02 2.573875505382195242e-02 5.103556197933628580e-01
7.114526805796299314e-02 -6.634682634012671176e-04 4.677661324459364001e-01
1.052398885793422167e-01 3.938645239553852789e-02 4.644317213542450973e-01
5.767182668810022506e-02 3.595333247350008393e-02 4.501129164754901768e-01
9.138556777930791075e-02 3.329618862330391282e-02 4.962204142403584539e-01
4.579226604302673309e-02 3.755647946000535697e-02 4.479913868904217833e-01
5.161439329631473810e-02 -7.562802956441665864e-03 4.526239152011525269e-01
7.081282683622745766e-02 1.860179825370256862e-02 5.219324926672649356e-01
4.809319968846211858e-03 9.976869042877086619e-03 4.406383789798059003e-01
8.686449090915289439e-02 1.269959655435000737e-02 4.847777621407094450e-01
9.117410085434445033e-02 2.877313768194934840e-02 4.627996404893506832e-01
9.017492194366447111e-02 2.027108509499952679e-02 4.695013760988358542e-01
8.370017375987182096e-02 4.683536440502359538e-02 4.527197879867836949e-01
-3.083545304927972491e-02 3.560519510087953483e-03 4.429652392309915143e-01
9.912549210111824827e-02 4.191629917769628538e-02 4.835370583799532551e-01
9.791234519858578456e-02 4.469454576380896965e-02 4.612688712740991015e-01
-4.044912908706363094e-03 1.244867770740308577e-02 4.403854525148534482e-01
6.902616201750157165e-02 -6.175662008189501326e-03 4.977534160906849081e-01
5.777331055874725119e-02 3.697038306104196391e-03 4.536314031988472051e-01
8.465328217008766254e-02 1.464635258533139583e-02 4.971018364136521317e-01
2.601040719512745861e-02 5.408194031312477806e-02 4.463300088483274641e-01
7.133690361271438629e-02 1.376339518154118258e-02 5.175135878668855050e-01
-8.689356866401019147e-03 -6.393729983720916263e-04 4.382274213967941590e-01
8.045011565667622988e-02 1.675832098619738780e-02 4.631915182503351658e-01
-1.952075848460261068e-02 1.251729176217888234e-02 4.439369463340802624e-01
9.176161509139420247e-02 5.810205109582989441e-02 4.704212389711008857e-01
7.594243753655170737e-02 1.499291220816939899e-02 4.615117194261350031e-01
3.635134475682428451e-02 6.064384727116148982e-02 4.477658294100436698e-01
4.391804497838382171e-02 6.296926084364641574e-03 4.471566747632670369e-01
6.737180385441765562e-02 -7.371074412708679760e-03 5.013523614597297229e-01
9.531092166936586119e-02 5.406659983695048105e-02 4.659057298644633249e-01
2.676250903793748331e-02 5.535827994575868993e-02 4.466194685234978756e-01
3.670951751257455625e-02 4.842559315788572821e-02 4.462263492660040187e-01
9.263515508150542421e-02 4.801192156595018162e-02 4.891911274947248756e-01
-5.939729793273251270e-03 6.970143163634633446e-03 4.398805142817850400e-01
-2.884430226708776732e-02 -6.006463223531067000e-04 4.406062606214737887e-01
9.216325708391159832e-02 5.346555018390090896e-02 4.587597891022003327e-01
9.933517953447663917e-02 3.569137957737657241e-02 4.844162276437815606e-01
1.014946827007776192e-01 4.380579362274641952e-02 4.787917397857511248e-01
7.440479433198135539e-02 5.874546904117994295e-02 4.525272874229732678e-01
9.347644935330909344e-02 3.528662566303488596e-02 4.624642444605209790e-01
4.102256450196804793e-02 3.415394039388746153e-03 4.460845802960025641e-01
-1.093712599628347652e-02 1.902590125163326068e-02 4.424277588144474582e-01
9.828956023850868307e-02 4.686593355329775334e-02 4.632130199516142910e-01
8.391031035841892138e-02 5.765175067301465950e-02 4.757261257369470586e-01
-1.613551715251519345e-02 2.546451554250020108e-02 4.450558834878487469e-01
7.963440931515271271e-02 3.591263577877940039e-02 5.111401642090996900e-01
4.954306866722595071e-02 -4.905871689995471366e-03 5.269414679503009458e-01
1.038772698658109728e-01 2.853193121577200786e-02 4.768969680678757928e-01
6.355908452234893154e-03 1.121528502389742069e-02 4.409700885194560160e-01
4.734160487522889871e-02 1.048306552009911803e-02 4.488990287293432857e-01
-1.607451209642301541e-03 4.990696568408761746e-02 4.455514090383664860e-01
5.372596781361067136e-02 6.005286483922263330e-02 4.501899528342482304e-01
2.543178290356349312e-03 3.700767987027950984e-02 4.435858549132394857e-01
4.939293997008649406e-02 6.294184940100408521e-02 4.533952940306072987e-01
8.333651410753384337e-02 3.960226673738245079e-02 5.043636114587576325e-01
8.867419153884463501e-02 5.518076064513850743e-02 4.795945203851423311e-01
6.557759195874794667e-02 1.708110726926420631e-02 4.556991262675760268e-01
5.888932312583990310e-03 1.346484459526993069e-02 4.411240249890003295e-01
3.900142844121563812e-02 4.342020418322675365e-03 4.454879841312814892e-01
7.591963313466687513e-02 3.277891462066887668e-02 4.572392754813628390e-01
1.521638218812990107e-02 3.683172790238262162e-02 4.439057564277158474e-01
7.469530533498235092e-02 1.710898774503965061e-03 4.706454167692347701e-01
5.255033439321432631e-02 1.526195204902633384e-02 4.507975755614327396e-01
4.464175002830764183e-02 2.822786654029754358e-02 4.484083981308695788e-01
3.185487264463871676e-02 1.149971608985580693e-02 4.444869509406027541e-01
9.738160026337751296e-02 2.338026419244697979e-02 4.732893075070327416e-01
8.254765336715624846e-02 8.274440917600621448e-03 4.885591022480122447e-01
4.839682395237469154e-02 3.925006088332672061e-02 4.480972962089935785e-01
1.186209815281346475e-04 1.399604569197784865e-03 4.388740845461651663e-01
6.693440005398848536e-02 9.713962664766912988e-03 5.194336588745490646e-01
-1.787846554754916190e-02 5.373955603616635546e-03 4.405822781558034196e-01
2.978331151303355989e-02 1.156386005488717339e-02 4.440772542483865104e-01
9.759364314609440469e-03 1.378160398825361600e-02 4.415799905314338747e-01
2.167591852805764163e-02 5.476830450239593244e-03 4.417394615525602197e-01
2.042737807074885767e-02 5.735004258392767396e-02 4.474900737438262111e-01
8.156855002928579956e-02 4.464504121446157686e-02 4.529498712144103822e-01
2.569169882699397570e-03 8.720705700366461477e-03 4.402650779962536398e-01
9.271769773659073455e-02 3.749814160611657926e-02 4.925346530064599326e-01
2.375549001465335555e-02 -1.636844837819134094e-03 4.403496275248899861e-01
7.899947642198784648e-02 1.039683908339230668e-02 5.036840192264102622e-01
4.769984354243408248e-02 -5.232408976517120662e-03 4.495264498060550507e-01
-6.062442747016514102e-03 3.454202912459431590e-02 4.442456418760808989e-01
6.350618701841108382e-02 4.136449784726056733e-02 4.499598233698874350e-01
7.374802223278566216e-02 1.181766882010828329e-02 5.125947029984014858e-01
9.183873573427728254e-02 3.308964267617173910e-02 4.954792946860598901e-01
7.018027230305898256e-02 -7.592261041921927189e-03 4.922803538772719256e-01
1.069963851462189947e-01 3.060853429412550494e-02 4.716558473414184105e-01
4.577776625098563951e-02 4.735392738198188067e-02 4.472485681925553735e-01
-4.556534653640966631e-02 -2.155544716801439074e-04 4.455189696570829305e-01
7.367534100308127665e-02 -6.999674898003306264e-04 4.933095679640984166e-01
6.085723418674049423e-02 4.534311427686445878e-02 4.486859310627120401e-01
7.920457285754148313e-02 5.292414522544103966e-03 4.928350754215928275e-01
2.790566337299537833e-02 1.885333111748872803e-02 4.443794371647195596e-01
1.556902260967131524e-02 2.151614290559260637e-02 4.427859235121206494e-01
9.324837747052863723e-02 5.342440882099479954e-02 4.601446385423422769e-01
9.665627876855274747e-02 5.223214819201734554e-02 4.645509887930782122e-01
2.132726056654299721e-02 5.701535112783983478e-02 4.473477243586674312e-01
1.409701105979501226e-02 8.836854778093832311e-03 4.414844779785709883e-01
3.392164571220419866e-02 5.995878732810265566e-02 4.474954616782159666e-01
9.280737807291446206e-02 5.271361508089824482e-02 4.826706214748827661e-01
-1.502745541379874039e-02 3.262950854492322611e-02 4.460355512145690038e-01
1.053709808889805311e-01 3.556191507080020547e-02 4.781783759807212153e-01
3.741736239588985824e-02 6.385042208395745600e-02 4.495852937482335832e-01
5.256262409247416945e-02 6.854319191472205489e-03 4.509611503461208870e-01
8.437108623148140141e-02 4.019312569739271618e-02 4.577750521923900640e-01
6.120065207058942441e-02 2.211907373465931553e-02 4.534440564176414057e-01
1.143701068670762225e-02 2.796811839047434051e-02 4.427602003067551695e-01
5.633617850476654171e-02 -6.418726623865698283e-03 5.220460799017404563e-01
4.370676919830868146e-02 2.296994630900394199e-02 4.481011690517012758e-01
7.158499430452315571e-02 5.979360006032821001e-02 4.582863150112622685e-01
6.807833004037011637e-02 5.239483413620545094e-02 4.489683018955513694e-01
8.534315715335218100e-02 2.985579509904181042e-02 5.066484692813761903e-01
4.873346201550385337e-02 2.606799242208611422e-02 4.494731858462327478e-01
-2.006753818181498256e-02 2.295336076826289332e-02 4.463526168863005128e-01
5.242597045367775738e-02 1.244420261981787033e-02 4.509356143188255617e-01
5.285352691117939025e-03 1.122939047163404661e-02 4.408473161828869724e-01
1.814647470297174950e-02 -3.295631978303507903e-04 4.397633007161259600e-01
8.148180541809295352e-02 1.111310412981312765e-02 4.992828698490507366e-01
9.532643857409936819e-03 4.468371916650925452e-02 4.442080606332318160e-01
8.234341029521861921e-02 3.934310574575513447e-02 4.577626931079601946e-01
-1.441451320264207879e-02 8.782317405933577972e-03 4.408594703598802678e-01
8.400739470850648871e-02 5.561429468383304736e-02 4.844630751820068193e-01
7.322894890705790305e-02 -1.721352731335498015e-03 4.920400802729394396e-01
8.498925024746629975e-02 1.002784656495763448e-02 4.756287705860255399e-01
8.802041210969754892e-02 3.121619733051627169e-02 4.622659097138945850e-01
9.643877086697529022e-02 5.273045051608635930e-02 4.661504540058144519e-01
4.513059700588447493e-02 2.623583981447456109e-02 4.485125609060088836e-01
9.256033156837728537e-02 3.650631247164710935e-02 4.617650353270040808e-01
-2.523892625680641821e-02 1.625065970001276366e-02 4.478066059121879605e-01
9.787498589507080682e-02 3.213223272821455478e-02 4.849785920985350551e-01
7.343765433934369702e-02 2.558090182293468184e-02 5.224681907800367009e-01
6.071855980847598588e-02 5.237872181198027777e-02 4.478942908137766854e-01
7.728358714916143402e-02 2.315912341256817081e-02 4.596071648433102119e-01
7.365886143455011026e-02 3.473073596776967559e-02 4.555656801078942775e-01
1.030136270503141521e-01 4.035255568374401802e-02 4.618489123932325024e-01
5.194423886839321519e-02 3.310868600189045136e-02 4.494835228156517926e-01
-1.447224434532705731e-02 1.628227136391185992e-02 4.429485295479816398e-01
7.019235460801057092e-02 2.792197900307670511e-02 4.552699200422371528e-01
4.799912677941597233e-02 4.730632724783308957e-02 4.475121989292801805e-01
9.760626290794190141e-02 3.036289854727471094e-02 4.848106443476855043e-01
-1.682438201057732258e-02 2.835241556226308565e-02 4.458201223585053219e-01
6.237357150822506885e-02 1.563018424273504917e-02 4.547957621002040596e-01
6.372110081110499147e-02 -4.184989215153715227e-03 5.107298687271665250e-01
8.725490395838175761e-02 1.273529657188110856e-02 4.820179512852806325e-01
6.664100653830151710e-02 -3.726819669898002660e-03 5.049642953998765282e-01
8.634691406841209227e-02 2.183550123418592781e-02 4.646835893856014477e-01
8.789766478591629073e-02 4.241707799984938132e-02 4.977465867677672851e-01
-2.976331356524023006e-03 5.074465517973641981e-02 4.460221153287666773e-01
2.136384234894418699e-02 3.213541068972190079e-02 4.442207652177275756e-01
5.037023584220155087e-02 -1.316419546332048621e-02 5.293520601224299682e-01
5.194606265009993340e-02 1.919040484168595736e-03 4.509308436674572262e-01
-1.188110354288305325e-02 1.086616746923566197e-02 4.409278099040349064e-01
8.745986226865327950e-02 2.118559843734215548e-02 4.969343676966911372e-01
2.339989160893360051e-02 2.471014053557041984e-02 4.439119975625426262e-01
8.283036218362987979e-02 3.213531629608522983e-02 4.602803316236980802e-01
9.073109755823480227e-02 2.759583178402029782e-02 4.949754216826725561e-01
6.465260550966107911e-02 4.680067353114739093e-02 4.489669137385605135e-01
-1.751307400214941953e-02 3.071153571301885044e-02 4.467073642852489868e-01
3.676852814374072242e-02 2.147086438421557525e-02 4.463750574580443442e-01
8.646478484141373322e-02 1.210241773072249193e-02 4.739834112292991009e-01
-9.145717880372930195e-03 3.302675613224716894e-02 4.445845825562271814e-01
2.939070315181699367e-02 -1.635266380138980426e-03 4.415320765031054417e-01
8.286885871486200650e-02 2.737276215989116815e-02 5.103258132056186502e-01
6.761418610871598733e-02 -3.511828854514327178e-03 4.659270512236155515e-01
7.716509647932003058e-02 8.992857962442495426e-03 5.046269929758929740e-01
3.819742770758996486e-02 2.130094162716256873e-02 4.466830471008559345e-01
7.136560636440678063e-02 9.307195810013418197e-03 5.128091310872856523e-01
9.734186324169233698e-03 3.335569321209003874e-02 4.431040123895689797e-01
7.098776615134247403e-02 -4.190210661266506598e-03 4.936883586556444770e-01
8.944217445863013316e-02 5.790139478284397900e-02 4.591443889432070269e-01
6.138118073576273592e-02 -1.159597704084109433e-03 5.162218676968275410e-01
7.209684796780634064e-02 -2.584808142780374834e-03 4.932074336963637728e-01
7.682550544542017523e-02 3.639548023284080308e-02 4.568514955955355616e-01
8.631818773010942192e-02 3.305027823463573683e-02 4.618702810000697156e-01
7.339516811395309370e-02 5.704980096475027740e-02 4.505387506421291155e-01
9.652934813110682077e-02 2.347349840628918521e-02 4.772837026201065536e-01
3.853988081440036517e-02 3.141798560389185563e-02 4.469069908033109217e-01
9.631918337060353663e-02 2.275435146688252128e-02 4.731512173446457137e-01
9.529753513959755840e-02 4.275135840236201495e-02 4.879405034113085127e-01
-3.356881772832718408e-02 4.541298247149993215e-03 4.453801413829890365e-01
-1.282597468807427157e-02 2.389835282279252626e-02 4.438244682435374955e-01
5.861188593653426232e-02 1.385343958915476702e-02 4.534510721316023507e-01
8.188135764298770658e-02 6.769163033975907941e-03 4.865304851028584010e-01
1.929191647234517262e-02 3.632897583149245768e-02 4.442976606146060159e-01
8.294711803394623495e-02 5.625188106528280357e-02 4.833971506804536356e-01
5.849375595579233561e-02 -7.139344723759996972e-04 4.550619558759952388e-01
-2.388580680536392387e-02 9.960305177303736823e-03 4.443135864395925672e-01
1.010614276368616005e-01 4.009776073462583551e-02 4.814262814874573637e-01
4.102298821375823662e-02 1.959597118556581294e-02 4.473448130877353268e-01
8.025444842383824828e-02 1.439848657578454705e-02 4.642392093579323920e-01
6.234274981219192768e-02 8.573663938475617127e-03 5.235411594901228094e-01
6.679850957244179432e-02 1.741431252090425456e-03 5.103543712936564614e-01
9.442007762660653558e-02 3.554472320640048033e-02 4.621960556136779363e-01
5.571518686636905970e-02 3.807984441920790608e-02 4.491785692709121536e-01
7.359041735892589420e-02 -2.898391049831916966e-03 4.879769070557227195e-01
-1.060748170064541862e-02 5.834946756543364990e-03 4.399711309075205468e-01
-3.290359179770917242e-02 5.345327014978523174e-04 4.415510551766927971e-01
4.970731168907074199e-02 -5.516655349873575073e-03 4.508661472456727548e-01
1.863061652865620477e-02 3.287657294277518405e-02 4.438887914088907594e-01
7.529276887860837479e-03 4.239393472545446850e-02 4.439738357102761546e-01
8.357336621289238043e-02 4.827560549040171844e-02 4.968185738272811736e-01
3.993126592457875434e-02 1.060678421437122841e-03 4.456285976227603585e-01
7.802673541531641999e-02 7.438581904987233255e-03 5.009703392142806910e-01
6.541429285724638040e-03 4.302785765849370669e-02 4.440463233894604844e-01
3.972298485633135590e-02 6.458566436238843966e-02 4.508177599211647957e-01
6.252998970597729855e-02 5.182763303763435192e-02 4.480861320686747029e-01
-3.227342328323755394e-02 1.343027977620405529e-03 4.421968419232972236e-01
1.055734077977827229e-01 3.699665607973675469e-02 4.775466481983282052e-01
7.561492331805719225e-02 4.111278358097004287e-02 5.062789771063924693e-01
8.800322633604151790e-02 2.280524175937452894e-02 4.965241563459793506e-01
3.401859583418633676e-02 2.732039274870711257e-02 4.459656891620787933e-01
1.101806948914620665e-01 3.421112316540962650e-02 4.721996703231582382e-01
7.294635071913643798e-02 5.310175876979733069e-03 4.640943025746598338e-01
2.259383574980745185e-02 4.507200639199337999e-02 4.449977889553914379e-01
1.007660554067481978e-01 3.258183828221408729e-02 4.638547031928501596e-01
9.553349551029768905e-02 2.232000948108609287e-02 4.780954588918245318e-01
5.303639094180208347e-02 2.063137098015522045e-02 4.508277620573271638e-01
3.796835509847458229e-03 4.917325472139285475e-02 4.449067106285970463e-01
8.423363907981071264e-02 1.149679611996549944e-02 4.916105178957195787e-01
-2.548372270296263981e-02 1.256341781737918550e-02 4.463356302062818082e-01
7.958923126655603753e-02 2.170929330459123174e-02 4.614233124815994014e-01
9.519332280982191474e-02 5.321629222182933106e-02 4.624882758171652286e-01
8.979427857201346952e-02 6.021282617204191251e-02 4.606046009542297259e-01
4.123322436696673365e-02 2.525269659237357189e-02 4.475169915604242932e-01
1.254112635684672891e-02 3.707236744398367811e-02 4.436143966292732110e-01
7.004942420382706536e-02 -6.752674352884308756e-03 4.942067216941857799e-01
3.525995268440105385e-02 3.675215257951180980e-02 4.465825643663412503e-01
-4.371750127018377355e-03 1.206696065801371627e-02 4.403310082507457257e-01
8.646012399647268198e-02 1.533688827528240442e-02 4.700190245785872967e-01
2.347027849788163936e-02 5.473468699494293821e-02 4.465110556418503407e-01
7.159806359711616552e-02 -3.192929391816227633e-03 4.931433177073715202e-01
7.641854866533591417e-02 1.422451039325891425e-03 4.892708178435590249e-01
-6.558414149102324495e-03 1.124846647236118005e-02 4.403320675319202793e-01
3.017688441235702457e-02 1.314830614696435758e-02 4.443389751547983102e-01
5.684144639477468203e-02 2.387057134610317405e-02 4.519142937352905176e-01
1.027704858577193903e-01 4.288159292403692646e-02 4.750263486989694806e-01
9.475930482173279545e-02 2.799007212898846353e-02 4.883206433937441471e-01
8.600514917327799214e-02 1.323186147636804325e-02 4.897919195574112483e-01
-4.582028595236605634e-02 -1.368246736695068926e-03 4.432238770603587064e-01
3.539951479039068344e-03 1.944517040563253224e-02 4.415844042076674802e-01
5.030661044751444377e-02 -3.925863445068540104e-03 4.509092894207143987e-01
5.819159269180826377e-02 5.830780865658172218e-02 4.501233294375254768e-01
2.175367742738817597e-03 3.791412514501217579e-02 4.436957286541277634e-01
5.292472066011312537e-02 4.206407284589770007e-02 4.483843185448546098e-01
4.138345342367020369e-02 4.507605929979106169e-02 4.468767053195982220e-01
5.391410794418713230e-03 2.693753749270699424e-02 4.423326526458529750e-01
8.681780763283776514e-02 1.205440257758772470e-02 4.808203047765532423e-01
3.376769400208523564e-02 -3.154102666977922319e-03 4.427301943337274004e-01
1.616766388238401880e-02 8.648861858434424982e-03 4.416784626739122532e-01
8.145626388671220464e-02 5.562326680487107711e-02 4.531414556492557311e-01
8.161348965246208176e-02 1.844960472887556546e-02 5.085234680033543508e-01
5.834558727484759344e-02 -8.907777942213401454e-03 4.583215277501523355e-01
1.603670842266421287e-02 3.370709835764626461e-02 4.437253806067317785e-01
8.868663881471025578e-02 2.384052525921699639e-02 4.957912628204463878e-01
6.292594226048313366e-02 -7.208607702205745496e-03 4.628023706162679440e-01
3.582106432977164023e-02 5.777786300132124742e-02 4.467648871400086152e-01
1.023564199758540127e-01 3.598495274214243145e-02 4.624861469427381522e-01
-1.676319310932254669e-02 9.230191205797136714e-03 4.416409104141609254e-01
-1.637285524174212498e-02 3.681844040070814811e-02 4.476643301383209650e-01
-2.664420673217045288e-03 5.280876761076368220e-02 4.475174475227914894e-01
8.513596809134614529e-02 1.653610730266166784e-02 4.674225152937330763e-01
7.816828683097487573e-02 1.856351053503154519e-02 5.134068450042049703e-01
1.811962598298885729e-02 -3.523003168854766786e-03 4.390804774638715213e-01
6.318528497992093040e-02 5.727981482033683153e-02 4.499717634906022501e-01
6.355001238475573022e-02 5.355188787515216542e-04 5.141342679156578610e-01
6.537591189276358017e-02 4.997678305463239268e-02 4.484990802715053682e-01
9.587235508614390389e-02 3.362213742324564325e-02 4.887028979280278462e-01
8.257991834175146262e-02 2.623694521369387272e-02 5.106399960945879890e-01
8.637721484010883743e-02 4.689609743153654031e-02 4.961581793541111063e-01
7.578044807925826687e-02 -5.171362431487204134e-04 4.852044052282519226e-01
8.629069852203800906e-02 2.313605265551410550e-02 5.027452603785478313e-01
6.989153922934142338e-02 1.577115988143163935e-02 4.581992679554624526e-01
5.254080667960797299e-03 4.810004894373844098e-02 4.446485310604420538e-01
6.812881808611816192e-02 8.465261543890541945e-03 5.165840794856761953e-01
1.615465738753585345e-02 1.389791742888634753e-02 4.422765699961758168e-01
8.597286794941294552e-02 3.256578197316696566e-02 4.616989150511754403e-01
6.161742585944365164e-02 5.998993920267509800e-02 4.544432443895231044e-01
9.328122865430903132e-02 2.367911750562964879e-02 4.678167128691639309e-01
-1.327482867667933997e-02 2.299480907437627397e-02 4.437150279348174298e-01
2.541133651079384090e-03 5.209276891702009638e-04 4.387588915804578882e-01
5.118953374399425743e-02 -1.310995035847557083e-02 5.285728558525005782e-01
8.623921841704491886e-02 5.033289460017009720e-02 4.536346572065058647e-01
9.050965863799946554e-02 5.273344127297548145e-02 4.865294817785172365e-01
5.638273412387015404e-02 2.305190842066375326e-04 4.535926089997063260e-01
4.657973723410410716e-03 5.074768966217560462e-02 4.456034009563945575e-01
9.906078558237461917e-02 3.353383442062146669e-02 4.838042233081290555e-01
7.388357034640997967e-02 4.846978511437274179e-02 4.499301993817533263e-01
9.021036402753197792e-02 5.382713501401500261e-02 4.835859300755436796e-01
9.296236125790566240e-02 4.507289903736055869e-02 4.568413708034776421e-01
9.851605196429592814e-02 4.277722526948756626e-02 4.841615940638999138e-01
1.214708644028658982e-02 1.900575242019121244e-02 4.422381075693328500e-01
5.365607420482618184e-02 1.211264890150863527e-02 4.514627982333532796e-01
-7.332330920914608210e-03 2.203243225130557120e-02 4.424391723489046746e-01
1.084992786211905376e-02 6.006245709818639096e-03 4.405295459504725564e-01
-1.422871067729226946e-02 5.280212503878329959e-03 4.401974677081882947e-01
8.231716790555929086e-02 3.206494763295972966e-02 5.111411027670245133e-01
3.897260478752286733e-02 3.682497764687579084e-02 4.470256074716824624e-01
1.052526955945683185e-02 1.171200126083414561e-02 4.414605435895103125e-01
2.647562521066452318e-02 3.418236275188585305e-02 4.451446837817303326e-01
2.979128113301998323e-02 2.157729281289611986e-02 4.449502379016799236e-01
7.282791997059503974e-02 -4.362897260336990810e-03 4.865201482838882874e-01
9.391577907875377218e-03 3.082974819256546761e-03 4.397722022815581111e-01
2.950492947363670890e-02 5.661189829597445405e-02 4.468150012568409823e-01
7.296295929187331109e-02 4.487499818789229128e-02 4.506440960472052892e-01
7.451962977353757123e-02 -2.183218120123290012e-03 4.862040723694449618e-01
1.788176168015475145e-02 3.983235151068414276e-02 4.443898563399069079e-01
-1.838637691230154275e-02 4.084113053735789756e-02 4.496020371887405886e-01
8.869950792066463863e-02 5.515757643361331869e-02 4.796651596820425967e-01
6.574687691551914757e-03 1.897213895662294009e-02 4.417218415716815394e-01
8.828678001645194617e-02 2.334727338242586353e-02 4.961834915865459550e-01
9.546777064297411186e-02 3.782514770743457266e-02 4.888857962359168252e-01
2.719964632061347420e-02 5.341547664903852771e-02 4.462426925871066929e-01
8.809523705903704593e-02 2.607281525950922579e-02 4.996254259360132233e-01
8.954782767059206450e-02 3.954711112551489993e-02 4.973299666918739592e-01
9.229873997234756822e-02 6.021869399307554910e-02 4.627894825693883996e-01
9.819516690766119660e-02 2.440179838365021114e-02 4.759270089789919278e-01
2.764067800940558928e-02 5.537213210532763996e-02 4.466577137610836523e-01
-1.704011685260841888e-02 3.980775773378034815e-02 4.486720623155635024e-01
6.375159700255084161e-02 -5.055620719224139699e-03 5.102777409500902639e-01
3.451672333695730843e-02 2.296783151995012220e-03 4.437709325651963965e-01
7.632850631578629030e-02 4.368567810308495933e-04 4.833952473098582781e-01
1.380918274630931961e-02 5.941288643418338872e-02 4.529944972676386850e-01
7.907679954150580171e-02 1.372247671666560094e-02 5.077201984835746362e-01
-2.373480912845732024e-02 2.487965778820688464e-03 4.407358546980818526e-01
4.944278944121653988e-03 3.367093196683827033e-02 4.431812989570744765e-01
3.866899875767994266e-02 2.959598648418209840e-02 4.470436456522922097e-01
1.168074283351142224e-02 3.175321231874905781e-02 4.431358385636133823e-01
3.752334185061531602e-02 6.184738901017544643e-02 4.482936246826528248e-01
6.392025852088090154e-02 3.405758595918058351e-02 4.519078821314408412e-01
3.263015263192152460e-02 6.058792972815026101e-02 4.483815052614050778e-01
3.194744289450780761e-02 6.156586614028703580e-02 4.495189428171085799e-01
-3.651612095482032697e-03 2.418054597571129768e-02 4.424041423637021797e-01
7.978569370197499677e-02 4.732103393851477130e-03 4.787513987392714165e-01
1.076796644730074609e-01 3.071155114602702740e-02 4.744275576583470433e-01
1.428407550238376678e-02 5.650669582530001844e-02 4.486503140933550404e-01
4.422220645276186274e-02 2.531312336591351811e-02 4.482646282861148523e-01
8.934225301047110657e-02 3.465947733556389021e-02 4.625577313162145265e-01
6.033386675307938346e-02 2.235382547146189461e-02 4.531102677768744091e-01
8.521230433403501059e-02 4.422632333596319965e-02 4.546347580613972483e-01
9.619842167038604452e-02 5.072288336267320730e-02 4.800968385731119170e-01
7.813084035538180039e-02 3.201505193138420163e-02 5.160373728227731771e-01
5.472142591714863197e-02 -1.199985089178751477e-02 5.252047873717191617e-01
9.325802772478243574e-02 2.118830702931466178e-02 4.834033090962837620e-01
9.498512003327466702e-02 5.320383259764170647e-02 4.622015802915042104e-01
4.910992114956369559e-02 4.922364535045571643e-02 4.474055914380794530e-01
6.372953410942513303e-03 5.488292057689671266e-02 4.474819730765035586e-01
5.289457563829555453e-02 2.558932306464884593e-02 4.506285622923525414e-01
8.292730147503225846e-02 8.169054525134191586e-03 4.737913582246251476e-01
6.594250432965841069e-02 2.837102578871356865e-03 4.593478474573540193e-01
8.673262369959187923e-02 4.727157476107836376e-02 4.953285224246363194e-01
-4.416852931774872121e-02 -8.949325165405375322e-04 4.416990431299396835e-01
7.062153752011209040e-02 -6.218769247425768101e-03 4.919856912626398016e-01
6.649028843027876556e-02 5.112342653620012903e-03 5.148895781540794303e-01
1.962864235415781589e-02 3.011494543952251968e-02 4.437900218811903774e-01
7.675273599527847324e-02 6.911642241387190577e-03 4.672843987653441666e-01
7.326738058589085667e-02 6.583381202564686941e-04 4.696703164277412079e-01
8.682708616375924005e-02 1.462832775099158662e-02 4.713667187927643165e-01
8.396859892184764529e-02 2.224137242169193368e-02 5.076816033829539832e-01
7.131183297436119450e-02 2.418014532162207630e-02 4.563726002283601257e-01
8.008363754489430941e-02 1.927439550155982118e-02 5.112897534283207257e-01
3.264601077599914303e-02 3.094256138634488701e-02 4.459063949387382375e-01
9.300844839467235781e-02 4.489853659507914152e-02 4.898819894250885376e-01
5.131468707459916484e-02 -8.541562573404876471e-03 5.270214577347757112e-01
6.007994682138606546e-02 2.240093607232921877e-02 4.530146970562300424e-01
6.800157191330942485e-02 -7.750707715313868811e-03 4.994142080337228840e-01
1.018083905791538485e-01 4.191627414977602828e-02 4.641296843114671167e-01
5.435489745308905857e-02 2.982300789550736131e-02 4.506681077545180991e-01
7.590200220686224575e-02 -1.482679159535930241e-04 4.865560433873773460e-01
6.990744046600669281e-02 -6.590968454307932420e-03 4.741350035223600434e-01
-1.564147434429762062e-02 8.011085607618144422e-03 4.408291739193131997e-01
-1.213949060484478121e-02 2.695047166144333428e-02 4.442479225285642652e-01
7.172599661578463182e-02 -4.183692469807775288e-03 4.745807257452128169e-01
6.287571904537411771e-02 -2.118465057656095541e-03 5.133898070144364834e-01
3.412723718015964885e-02 1.051340650000679236e-02 4.449106570842448205e-01
-6.509732258592269838e-03 1.256075763510346860e-02 4.406010664960178236e-01
5.217037722675272465e-02 3.425959191530111164e-02 4.493372489248401158e-01
1.415083288445569305e-02 4.784570679230732565e-06 4.392583396806159501e-01
5.033065116969344388e-02 -7.271690512256663227e-03 4.516271488385616983e-01
9.469030692179293551e-02 2.214724476510989554e-02 4.750500108175745306e-01
8.600965907806407129e-02 3.643585044640970660e-02 4.613853618198646700e-01
2.401599860271667539e-02 -1.366959606704147914e-03 4.404477402269367237e-01
1.253786891752004841e-02 1.017827766282735670e-02 4.415300160110059435e-01
6.344105769611505657e-03 5.583053392006365884e-02 4.479418752016586791e-01
7.851600190974560023e-02 5.916195325151524242e-02 4.589799020604061197e-01
9.406356055934912697e-02 2.653192317191182051e-02 4.881908035161715564e-01
7.422733605417657088e-02 3.104968655773577418e-02 5.217780292552691712e-01
6.874506224554588485e-02 3.513567009560875781e-02 5.181977119433911483e-01
9.575950347691214448e-02 4.690683142129500882e-02 4.591078278937939516e-01
4.472989224787599083e-02 2.261381057704572178e-02 4.483531933991461993e-01
4.742221713182254161e-03 5.434135006480484559e-02 4.473023549009336741e-01
6.505392122417581746e-02 -5.615700647474306212e-05 5.110494960886974303e-01
7.351366378797781487e-02 2.440909719232197024e-03 4.678013289435214994e-01
7.332914675377354141e-02 -3.673264631805396932e-03 4.867375613911998355e-01
8.009784908636327638e-02 5.758523451522849779e-02 4.562374619853908353e-01
4.093987109444158917e-02 4.030031828096678620e-02 4.471670835524533261e-01
7.631673333871870357e-02 2.708218420319728759e-04 4.846666029940553400e-01
6.079625798094075856e-02 1.395485839330974122e-02 4.544341081790959080e-01
6.948550101064997209e-02 3.662246685468681373e-02 5.144692533703836279e-01
6.831981309463025509e-02 6.336562447408998749e-04 5.061259358873470005e-01
7.843921127618846967e-02 1.447023277193249489e-02 4.629513809882969677e-01
8.032948233479547673e-02 1.241954437786096238e-02 5.040012644528938379e-01
-6.619670275128023036e-03 9.153800145415157477e-03 4.399934260824972521e-01
1.024263233483621721e-01 4.047082864973523125e-02 4.611955405550007825e-01
2.762141009077576786e-02 7.006212292574299366e-03 4.430745633981127418e-01
9.525241694109351509e-02 2.716200752167845581e-02 4.656486959178369744e-01
-1.992849602105169638e-03 4.239335994475242064e-02 4.444125240981475766e-01
-9.308576950097083302e-03 4.674324477248926676e-03 4.396222301232882157e-01
7.852825168919239096e-02 6.710080004484212692e-03 4.982545250054760677e-01
9.967111988254019617e-02 4.277736434363504925e-02 4.827400051454369123e-01
8.141229879165956529e-02 1.713276303458546521e-02 4.635555457905080612e-01
5.710650877166429523e-02 -1.219780397724234793e-02 5.227603969300891329e-01
