1.287489200521562890e-02 1.036195079386380107e-02 4.415948311072814825e-01
7.504779887676933658e-02 -1.532057835779743454e-03 4.856675339335306263e-01
-2.532692552911160189e-02 1.012126390844350979e-02 4.451109830608220852e-01
9.400666559434350811e-02 3.063438988056185058e-02 4.625619153085960833e-01
8.925561084312791382e-02 1.957099144443680272e-02 4.692693183258253575e-01
6.564856978533185894e-02 -8.638432222813843472e-03 4.680309420377125607e-01
8.172724436288857086e-02 1.802170599112614541e-02 4.635237467590324068e-01
-1.197543497900348253e-02 4.371845953415144648e-02 4.470331198313776122e-01
8.799402586377710889e-02 1.344227300669588801e-02 4.807709327217511430e-01
6.881887400252362230e-02 1.861054462404711229e-02 5.240393870065969129e-01
1.009697425520913461e-01 3.132933554452561192e-02 4.805479482380199951e-01
4.710056171298134670e-02 3.697720961878518675e-02 4.482686513913767268e-01
-2.830468934760231071e-03 1.327782934543889418e-02 4.405404709796109652e-01
2.001872796694381673e-02 2.451225695865534224e-02 4.434691085719185133e-01
9.009683047820994661e-02 3.724121092405378863e-02 4.971079524856347187e-01
3.397329729648671665e-02 3.883155770817188403e-03 4.437087947735373072e-01
5.684397413500509588e-02 5.717790431450854582e-02 4.485689842416089035e-01
5.304125233365715453e-02 4.027806501473005230e-02 4.485194139639411270e-01
8.668019513192437575e-02 2.213812018355337807e-02 4.648840093999441203e-01
6.015971438501820784e-02 1.466790634351801577e-02 4.541344952218731579e-01
5.440874555199936430e-02 5.744773839097913615e-02 4.482999063432103193e-01
2.945361437164985621e-02 5.741006311303351040e-02 4.469671146407755979e-01
9.130620825345894809e-02 3.625573003396337368e-02 4.953466341510772142e-01
7.557640960645684025e-02 3.137554933636141352e-02 5.197562974181237916e-01
6.479115897286140402e-02 -2.517870378787594350e-03 5.095528158946912578e-01
-3.662180178142366432e-02 -7.469984419289626282e-05 4.409090426841038024e-01
5.175118978642920427e-03 4.345700386013604671e-02 4.441296804645179508e-01
-1.639625583364898512e-02 7.103180920384441141e-03 4.407397665392371877e-01
7.413001845539983481e-02 3.940475691944459770e-03 5.003803509018589502e-01
9.384835706565959612e-02 4.079982804899901644e-02 4.594539211554414249e-01
6.681443533811365354e-02 -7.946747058857140181e-04 4.621966642215875609e-01
7.551025206390543643e-02 1.203138104018630639e-02 5.104532058041129083e-01
-2.769293144898344119e-02 3.954889535655366044e-03 4.423787802825239202e-01
3.465948545396918545e-03 2.078046118008277168e-02 4.417009412149875969e-01
6.336112445282206240e-02 -8.247342581018954691e-03 4.644159392499253025e-01
4.055510153673668600e-02 5.390693423440139076e-02 4.465947854242968695e-01
1.582629104366818640e-02 1.941055365521644066e-02 4.427105832670653052e-01
-3.127204212596030458e-02 5.338670858210807328e-03 4.439527049997253338e-01
4.936224776943148873e-02 -1.582234203636971592e-02 5.307961757644436007e-01
4.973650290495876258e-02 5.405601311519375729e-02 4.470980069450282146e-01
8.263725846459529789e-02 2.335525326710213151e-02 5.103070648829531875e-01
6.516954561595431766e-03 4.576714484041544823e-02 4.443581016061090017e-01
3.384111215855249710e-02 2.668980877436701385e-02 4.459397297938202942e-01
9.558749486791745867e-03 5.047782946728949366e-02 4.452189234488043157e-01
8.288591191791414015e-02 2.423816840616161220e-02 5.099970757221934381e-01
9.482051605403116201e-02 5.347590093571911313e-02 4.623757265416933437e-01
7.822193959339442115e-02 1.832344101463035183e-02 5.131610815543353743e-01
7.317949361688136367e-02 -1.600061835965681505e-03 4.924437552404942742e-01
9.294769538583004531e-02 5.195521504187321227e-02 4.840342711952604349e-01
7.951495066110540744e-02 1.120607352976183378e-02 4.664453873446144927e-01
4.122526097967318254e-02 5.220316335883028180e-02 4.466126590129149698e-01
6.567676733347949103e-02 4.712504681757752854e-03 5.157377395276639964e-01
-2.211318187685656911e-02 1.118940908891294210e-02 4.442363149092624641e-01
7.169932347881646795e-02 5.788519006734241940e-02 4.503815776182135133e-01
-1.607010798985988517e-02 4.351375038422354916e-03 4.401671430126506968e-01
1.822767383145976194e-02 1.422153962307695987e-02 4.425559223796577957e-01
8.354580849427992173e-02 5.551853724622870384e-02 4.853439160484873116e-01
5.017069726171617672e-02 2.577082208317304363e-02 4.498852753620298794e-01
7.901367654787401495e-02 1.256781647182501384e-02 5.063969210867883541e-01
9.841746203024531736e-02 2.468393052568470386e-02 4.764969632839590186e-01
8.047018025453966938e-02 5.226316321982318186e-02 4.518488299742278724e-01
7.941806495777489761e-02 5.441765294772415301e-02 4.517525997744606392e-01
8.436584481374254096e-02 3.512739431957044578e-02 5.073366313672403871e-01
8.430466283078402734e-02 5.747844908796673896e-02 4.779093764733638450e-01
8.338064921765230009e-02 3.172011443916025047e-02 4.605529871370153683e-01
3.973383538937366039e-02 6.313787967970149739e-02 4.491410954802024791e-01
7.304799689262586604e-02 2.625809988454399710e-03 4.670543180708249253e-01
5.971484144175107783e-02 5.786757100425484607e-02 4.498700972679630650e-01
3.783734012107824174e-02 6.481006088797644504e-02 4.503642132172836487e-01
7.973864971040300897e-03 5.693497509124450379e-02 4.495387932958176402e-01
3.950229107350820140e-02 8.487483362353788127e-03 4.458536611513696513e-01
9.247955957963605034e-02 4.452475286051633951e-02 4.563634290013459105e-01
2.578215511980181188e-02 5.737967216940941667e-02 4.470668290053808058e-01
6.922812800671272748e-02 4.106887726837716787e-03 5.091621088975158971e-01
8.104620026131226229e-02 1.057537806120428803e-02 4.993226389303652701e-01
5.376379572155606801e-02 4.127701755699468567e-02 4.485456526737295335e-01
9.969106210777141375e-02 4.689479552795258049e-02 4.752737616206577087e-01
5.111724399794940338e-02 8.353171479244546338e-03 4.504347075131656664e-01
9.161762623420344198e-02 5.506535469539269867e-02 4.598021964073489842e-01
1.006700350612960981e-01 4.033778106191499707e-02 4.818930177457404485e-01
-1.282185485248376472e-02 3.237005482585467858e-02 4.452702279196427693e-01
9.823918382299511032e-02 3.593549894454945576e-02 4.620298505784385390e-01
1.014842203532348441e-01 3.282594792415947232e-02 4.640709251390155998e-01
-1.242339559088624645e-02 3.298356934587897554e-02 4.453203471333757046e-01
-1.563753969899316001e-03 5.336756548284576213e-02 4.477221935331814895e-01
4.181850516181357530e-02 2.063725555415032997e-02 4.476183126248189925e-01
4.199487684339940630e-02 3.301757515018065997e-02 4.475710736708495285e-01
8.473131398101037270e-02 5.513067419105463496e-02 4.854075043926361910e-01
1.010965193228807596e-01 2.720297302724121458e-02 4.690792266216170514e-01
6.903407039723781502e-02 1.555356075451561244e-02 4.578705514445226554e-01
-8.070328368867136365e-03 1.370220365185825795e-02 4.410100514759078272e-01
8.802273997594596555e-02 1.796948721764622670e-02 4.692568106747512235e-01
9.172517784466484303e-02 4.413302590294600203e-02 4.922660375557736945e-01
3.529373378459008809e-02 3.000756372901755564e-02 4.463099448887828946e-01
-1.143623898226510610e-03 2.520571371719008968e-02 4.424172129317945901e-01
1.099479776797274676e-02 5.734192455361637047e-02 4.509075571810581828e-01
6.125443451080177931e-02 4.754780876711996174e-02 4.485111955480619028e-01
5.816779692953804454e-02 7.889715098442672686e-03 4.535610001553022630e-01
-1.418959808509067527e-02 4.041772589336704163e-02 4.472663381703877450e-01
2.307697790426122345e-02 1.145161024967534386e-02 4.429912597329053736e-01
2.907021502851502015e-02 5.845038104483980118e-02 4.471976525059924712e-01
1.506708518859409783e-02 2.367975314015598881e-02 4.428083534041998837e-01
1.715814380487355566e-03 4.630180378836715183e-02 4.445208303611983824e-01
6.803337522099785206e-02 1.596237676767309904e-02 5.230182157387166519e-01
7.126389633072653662e-02 5.368448794472741037e-02 4.499756162943209792e-01
-5.298433810204947365e-03 4.265448326842621873e-02 4.451424995922566574e-01
8.829985142202505244e-02 1.550528597523012295e-02 4.868013444017405544e-01
7.726621429544486275e-02 2.082485273594090677e-02 5.162201331865242659e-01
1.803414321802636333e-02 6.846641728660811041e-03 4.414500966621638933e-01
-1.785773332080033485e-02 3.504394400072103483e-02 4.479250575425968717e-01
-1.555386839092705222e-03 5.405452762442855552e-02 4.483038433618825591e-01
8.082424948762670369e-02 5.620109642827373492e-02 4.538803198553860163e-01
3.868083293410455592e-02 5.133937618643488049e-02 4.465316461577641949e-01
8.207686937143369998e-02 1.057868270371758318e-02 4.967864444763847587e-01
-2.626828076528208572e-02 1.293062041952506257e-02 4.471193368384470679e-01
5.099350277457023739e-02 3.355910379366047053e-02 4.492131603420789765e-01
1.255697228420248751e-02 5.643976160207803128e-02 4.483841740992299818e-01
7.355035388730800372e-02 -3.137739281584579938e-03 4.809631793253818510e-01
-2.602637078466283824e-02 1.350255953797078676e-02 4.471870496656916161e-01
2.638514025154883869e-02 3.259248707237890480e-02 4.450530904354987882e-01
-2.059325148402412625e-02 1.026463257276357711e-02 4.434012152300658705e-01
-1.182124195957745191e-02 4.676798609757665953e-02 4.477386492646914795e-01
-2.183277382874636297e-02 2.538852824378599535e-02 4.476801649287451834e-01
3.668222797517346062e-02 5.093849734533870133e-02 4.463517325068083186e-01
8.554997524233289019e-02 2.550918092586829111e-02 5.056488997133462560e-01
7.133325668997471392e-02 1.852580686920839506e-02 5.213476685029434510e-01
7.630775184833855918e-02 2.049260440559248081e-02 4.601687242333317718e-01
5.772179664330687882e-02 -3.905177623962393599e-03 4.555270029212752925e-01
9.381839688112163234e-02 2.124802024894365329e-02 4.725096288483286444e-01
6.863458018495280366e-02 3.377063069661147277e-02 5.224191411969661969e-01
1.623339291326067121e-02 2.824662937470487356e-02 4.431529453365257720e-01
8.655643315248752467e-02 2.050020339117246404e-02 4.994402999679183885e-01
3.436223902803868524e-02 6.402724044228780276e-02 4.502833881843961716e-01
8.589795385356580049e-02 3.184794860494865459e-02 5.055626211821410143e-01
8.668152510734103422e-02 5.123797348945099972e-02 4.915383106813491776e-01
8.133055742289416190e-02 6.269091356902873648e-03 4.848972136110404896e-01
8.901669948922366626e-02 3.667350421578857017e-02 4.617433786876199431e-01
-1.510636605956602874e-02 4.010062028808585033e-02 4.476790143983799264e-01
9.475218754905229135e-02 3.113322244099188743e-02 4.624674954018124784e-01
8.968009867741005836e-02 3.406799510244012952e-02 4.625596346373724299e-01
2.277297582096201797e-02 4.204022373267856695e-03 4.416222361116395323e-01
9.014879599743276517e-02 1.733592203183809133e-02 4.848222664955383898e-01
6.793956638753924360e-02 -7.086453612544401856e-03 4.702276427481351107e-01
9.449359841050755660e-02 5.108664609510488175e-02 4.594761536714836447e-01
9.015942287220195250e-02 3.062705693207702640e-02 4.622798941609509438e-01
6.810173460832848191e-02 -1.396478507676475120e-03 5.036782428265355049e-01
5.415029545995384691e-02 -2.414972301490249038e-03 4.528781230177112982e-01
9.277705736616305432e-02 5.984387232036626064e-02 4.622450029382281778e-01
5.515278975496294700e-02 -1.099134675467859298e-02 4.567643301078817553e-01
7.842394259587659455e-02 5.435344113165112290e-02 4.514933230130151465e-01
6.315281656385379749e-02 5.791594544634576930e-02 4.513941284079951433e-01
9.332813703075799536e-03 7.636129535400782917e-03 4.407685877080315118e-01
8.130997790423287463e-02 8.925277849251877713e-03 4.708721554537241283e-01
5.045824139960077004e-02 3.294112921388007986e-02 4.491906058739242869e-01
8.135278250107319531e-02 2.902176622769951295e-02 4.595492365558890291e-01
7.085009529070306067e-02 -5.475805252960199918e-03 4.748441213956034468e-01
6.977148007944680708e-02 3.039975606692602722e-02 4.547220179517965644e-01
1.064664402772500934e-01 3.151658750544961141e-02 4.681155592530216736e-01
5.315418801021365436e-02 6.837985100726163071e-03 4.512599289696749838e-01
3.960010230697919714e-02 3.101586589898780097e-02 4.471525515114092575e-01
-8.963933699794059823e-03 7.575199240091364666e-03 4.400495714172749095e-01
-1.333742716188263599e-03 3.069091254175597069e-02 4.432346747106322704e-01
7.382583371031239960e-02 4.108828524183196634e-02 4.528429683253673010e-01
5.348496610511351002e-02 -2.624632897171373658e-03 4.525263966737397281e-01
-8.254340246816352714e-03 2.979427596371717751e-02 4.441310895348788423e-01
9.868450440658571576e-02 2.779831848958968371e-02 4.668372849686633352e-01
7.779592009680245945e-02 2.378787298175699672e-02 4.596492100363864242e-01
-3.610924230031100669e-03 2.288097489854905991e-02 4.422146092412013729e-01
4.852187408656969542e-02 -3.936968419635710620e-03 4.498089292147058327e-01
6.644856044378662230e-02 2.747710137206826886e-02 4.543267073250737420e-01
8.138268560514842764e-02 3.858136652468116545e-02 5.070838293049756418e-01
9.729816788674042205e-02 3.010967474758987489e-02 4.645271564222056560e-01
9.466562862593806693e-02 2.774379847349754680e-02 4.882722011353098357e-01
1.007443135717011884e-01 4.489995077024283576e-02 4.778750656560868393e-01
-2.391760347354509111e-02 8.391912574949764517e-03 4.435825107520283694e-01
4.999285213988045873e-02 -6.631088009451674078e-03 5.272430498219378148e-01
9.926456271926864527e-02 4.792202727656572764e-02 4.742632381600416225e-01
8.120738157052152795e-02 5.895256497676219093e-02 4.601076529766551793e-01
-1.873054953652092272e-03 3.841685970044238924e-02 4.440550404466372392e-01
9.413406429162057831e-02 2.497545425929639448e-02 4.866231362221746237e-01
7.599892573767164095e-02 2.441949975088125377e-02 5.193400505083092256e-01
8.341523095685249301e-02 3.227976431603073876e-02 5.094893236721226293e-01
7.415101611484857524e-02 3.879996477418578768e-03 4.672109819672237707e-01
6.974963164337705246e-02 1.694020368361303513e-02 4.578490020218668466e-01
1.139484967579274845e-02 3.330815125143356259e-02 4.432379655927656814e-01
2.135597057034948482e-02 3.551921367053865325e-02 4.444818815492606601e-01
1.761432676890299642e-02 2.056132839222103714e-02 4.429997147339217456e-01
-2.465057022911942494e-02 1.210850132017582056e-02 4.455769832949989517e-01
5.128453971152812513e-02 1.534491677392302127e-02 4.503653240879930686e-01
1.689974916669275545e-02 3.969943739120265769e-02 4.442796556025161991e-01
5.622077514400928427e-02 6.049149029047063558e-02 4.536494093345599943e-01
3.448159792168924848e-02 2.143502490270431451e-02 4.459123788109998765e-01
4.767061312956105690e-02 2.677895879159746667e-02 4.492329782924540105e-01
8.200821758892799795e-02 1.880059912245107129e-02 5.081444853788102956e-01
8.570695913798692667e-02 2.143538202892485492e-02 5.030822827314583856e-01
1.342799914138658075e-02 8.224466523803451723e-03 4.412817919698031055e-01
-4.260138392728182559e-03 1.395527930173266762e-02 4.406623848526848297e-01
9.639062092616389188e-02 4.925682992812163014e-02 4.611028793302353601e-01
1.007866351671751759e-01 4.101740067039100213e-02 4.600948773287673044e-01
8.501863182886036652e-02 3.498015730356204139e-02 4.614386291556880626e-01
1.658879669029806811e-02 1.074854610693237213e-02 4.420438161361891494e-01
-9.807395143127860260e-03 5.139644984618760987e-02 4.497934735086502323e-01
1.328112466195508108e-02 5.140259855648900145e-02 4.454440953070388232e-01
6.516558246804735055e-02 1.588744938101136709e-03 5.128191770162997543e-01
6.662746777493970540e-02 -7.181217686718097473e-04 4.619126827349633313e-01
5.765080444469892346e-02 -1.205631418150943969e-02 4.602407490011606317e-01
-3.909460211003260022e-02 2.549392969276869855e-03 4.425258722426915203e-01
6.941312278116026913e-02 5.928068045007416943e-03 5.112360061189482607e-01
5.621542881931489155e-02 2.202117879789838167e-02 4.518256220979295357e-01
-1.769836585384238284e-02 2.412509708423264329e-02 4.455348723639330211e-01
4.017864804579437954e-02 2.039980043543516974e-02 4.471834829706490266e-01
6.461768410387896955e-02 7.753986262780897774e-03 4.571842173538231413e-01
8.988937008050057464e-02 5.863932809444766941e-02 4.597562678179820672e-01
9.543641769309267608e-02 5.320840953829788361e-02 4.760339969353900580e-01
7.935585211013640797e-03 5.062698137065227422e-02 4.453801975425653592e-01
-1.574025012999251405e-02 2.607916910980059844e-02 4.450234160621855395e-01
6.937033069918197015e-02 3.648907045647160896e-02 5.148345673087419971e-01
3.354552332329190090e-02 3.377510231588413264e-02 4.462463577084203048e-01
3.475823347766170135e-02 1.467230123488876860e-02 4.454678518163184275e-01
5.636484387655177342e-02 5.690657894094131725e-02 4.483634833650951279e-01
5.804338705763758405e-02 1.229507475980981535e-03 4.543322266715836832e-01
4.284277961752786662e-02 1.741580040144943137e-02 4.477035086387050611e-01
1.050990437544865042e-01 3.031966186735974428e-02 4.689372407735358794e-01
5.619681072646452724e-02 4.183768632412097899e-02 4.487692301930875094e-01
7.024581635702110971e-02 -8.765477476204822788e-03 4.820510556688766268e-01
8.864611166216923577e-02 2.503092952437177554e-02 4.969965335051597655e-01
-4.278491794836533114e-03 5.308238069878012250e-02 4.481826017909213977e-01
5.622664693711035278e-02 3.787945754345868610e-02 4.493806731318242265e-01
9.304227435752365771e-02 5.702882279084266204e-02 4.700075168544009530e-01
9.870307959940309572e-02 2.767804793894683424e-02 4.669706134280417476e-01
8.728491843031807584e-02 1.363750252505901636e-02 4.863314624119742247e-01
2.744764534464099598e-02 2.218109668591249084e-02 4.445733624049491572e-01
6.991425306938985063e-02 1.873794947432330313e-02 4.574329914455232404e-01
1.910840536941767892e-02 4.360956621577635056e-02 4.446750383286849351e-01
5.173876032119784779e-02 -1.669116577690643935e-02 5.291301683680380563e-01
6.806076702567012693e-02 -6.235500842228957306e-03 5.002828985533063211e-01
7.909904392703855092e-02 4.906154016121603428e-03 4.914571785795859848e-01
8.216097454481482987e-02 1.745068145180786456e-02 5.065000894040745383e-01
7.468102020590644541e-02 2.345738403448762235e-04 4.926435028147542194e-01
1.010806417647576866e-01 2.704530112051386007e-02 4.786479153280433496e-01
3.159243117371855758e-02 -4.277750431608797941e-04 4.424307371816546541e-01
4.674018720290844253e-02 5.749965374591174683e-02 4.471925435062645837e-01
9.163935993590723028e-02 5.509093201576913817e-02 4.759521379097476079e-01
1.002970380235142234e-01 4.582310537132985168e-02 4.752398288052491204e-01
1.045499569680547192e-01 3.078684453278577107e-02 4.772795270504824328e-01
6.679413932019998001e-02 5.675338958768950948e-02 4.503572266001979463e-01
-1.217841696742071739e-02 4.778813644634757191e-02 4.488641076072903413e-01
5.462654349476930155e-02 2.235511406952214036e-02 4.513115036829949966e-01
9.340826582465845684e-02 2.603372480405108033e-02 4.887313021512431632e-01
6.897899232908573375e-02 -3.773950064620399834e-04 5.034157694401483196e-01
7.713761593299364727e-02 3.530079539725823612e-02 4.573759123685320893e-01
2.583512501066443853e-02 3.630028536150464724e-03 4.420161775148546135e-01
-1.534044664146197792e-02 2.940421208090551047e-02 4.454357743992706786e-01
1.047327849403601879e-01 2.895446642862921013e-02 4.760865525390873820e-01
5.841719491675398390e-02 2.691188694556203090e-02 4.522199276671200474e-01
1.159095236678911803e-02 5.834445942582401623e-02 4.524497088289096691e-01
6.626774302333905686e-02 6.596298430876877152e-03 5.170300474388611622e-01
9.278993193791827687e-02 2.942525175266797258e-02 4.923318228043321310e-01
7.572328800657861236e-02 3.496294093260913366e-02 5.154005814969704335e-01
8.605220773598483419e-02 1.328946687269082043e-02 4.720857192294852789e-01
7.900420410765324544e-03 4.066006633627091554e-02 4.438436213819105247e-01
7.227766452197960378e-02 3.580863577292860145e-02 4.545896296168103201e-01
4.625623050720575891e-02 3.533420585658137575e-02 4.482150588273481340e-01
5.865639244489966042e-02 1.262466264736194707e-02 4.535512513267512258e-01
7.283750464000680880e-02 6.621067248426844645e-03 5.068687020101685370e-01
4.930940565611790366e-02 -8.219918239411422647e-03 4.512095296252668364e-01
7.339969665689630163e-02 -2.692245559699733403e-03 4.890118086448673740e-01
9.489922003659807814e-02 5.103460424885625929e-02 4.599563177996577323e-01
8.337975021828593347e-02 1.971340755598775807e-02 5.064694781837493220e-01
8.134004748380195549e-02 8.308379435180672165e-03 4.716197735398618973e-01
9.218097171982833626e-02 2.829899729814060877e-02 4.637660554425516168e-01
5.483154161102472834e-02 -1.358917074321001027e-02 5.255570766410883055e-01
-6.566681912024576080e-03 2.448398324233889371e-03 4.390454685531424706e-01
-6.487512899391836146e-03 2.110184432012115335e-02 4.421168425929023482e-01
8.950547109375237009e-02 5.525674275634075150e-02 4.774217258840246503e-01
8.120637657416140964e-02 1.053433521573925342e-02 4.688889921691650753e-01
5.381339658297408512e-02 5.357449276452348058e-02 4.474435121863239440e-01
5.251386760291699984e-02 -4.180627610546505842e-03 5.245734501568665165e-01
8.063126563872149988e-02 7.865500095004694311e-03 4.958197545681170548e-01
2.070913199171997565e-02 2.271836166514039010e-02 4.435091502399478025e-01
5.753257912505463888e-03 3.971213912026989867e-03 4.398145923985186112e-01
4.169577256195437093e-02 7.449193855927905596e-03 4.464403207761801218e-01
1.038533343156154420e-01 3.589948311176661966e-02 4.637223832033426363e-01
4.073986068364310320e-02 5.609490063806050683e-03 4.461010368260152625e-01
9.102585921939228275e-02 5.320836037018773779e-02 4.851075978002753475e-01
1.070960696185312699e-01 3.655534430268780888e-02 4.758229411746763282e-01
4.238163520117775585e-02 4.636014540749403001e-02 4.469348050053001398e-01
5.823610888467979640e-02 3.031460830477185342e-02 4.515258020460006794e-01
6.267703076116476479e-02 -6.030900671572983485e-03 5.117713624919463244e-01
2.513989315178090378e-02 5.755119802535946932e-02 4.471894669503639341e-01
6.975674079082033741e-02 3.058941807583098835e-03 5.067399815919134687e-01
7.297607333229787219e-02 5.438733132018151251e-04 4.693682318247135998e-01
1.943512866365970648e-02 2.775404507294023521e-02 4.435283628686136903e-01
-1.134913817817842160e-02 7.419479336327097774e-03 4.403309375484652510e-01
6.615953250000014552e-02 2.092440049736191826e-03 5.118235052158816023e-01
6.758855423395510043e-02 1.795992398589020544e-02 5.248668569842224185e-01
8.394822657027938007e-02 1.938170069934731093e-02 4.641419257411414923e-01
2.869372807405663403e-04 3.744917060384903018e-02 4.437862336348503689e-01
5.310375574210460248e-02 1.887852028814591965e-02 4.509413886403601524e-01
2.601933064478314031e-02 3.834782317151564507e-02 4.453669994550616962e-01
5.601235452110516974e-04 3.719078732184541436e-02 4.437441066678670110e-01
1.842902574291954004e-02 2.817836963026281935e-02 4.434266664199956742e-01
-1.761111334908758638e-02 4.283540846772632138e-02 4.495644517099799953e-01
6.986415139752928660e-02 2.848919635741447784e-02 4.550974193555861746e-01
5.897339444549978132e-02 5.203561257994011868e-02 4.478564231046139876e-01
3.121193528074026405e-02 4.310996323836233796e-02 4.459335961645839452e-01
1.597725493217285603e-02 -2.201090121651568757e-03 4.390552911307398776e-01
3.753813887142625622e-02 1.966806586347882163e-02 4.464685755397865274e-01
3.407202828602646366e-02 1.482927203453896468e-02 4.453058444309477282e-01
2.236061575200804993e-02 2.624619812669484742e-02 4.438178251583828060e-01
2.346714164599516400e-02 -1.665790764707543491e-03 4.403034022187595764e-01
9.745519778605983563e-02 3.787933682625024140e-02 4.862694960524593935e-01
-1.574709126782309482e-02 3.667249398287464324e-02 4.473307726940871087e-01
3.590098228773044159e-02 5.923100525805810590e-02 4.471591187972999148e-01
9.127727286642761673e-02 4.831039859085218408e-02 4.908274433591367503e-01
-8.104395268705044675e-03 2.507996860236719541e-02 4.431694350091612278e-01
-1.246620147829376017e-02 1.357595467121559818e-02 4.415553119750729172e-01
8.857383190906543968e-02 4.312706294921777456e-02 4.966564664644798621e-01
5.076736973942840014e-02 -7.099275856720856093e-03 4.518884008353344361e-01
8.156404373061029722e-02 6.643527000666346952e-03 4.787902183171618420e-01
7.602440743008107016e-02 2.418863605032860881e-03 4.718252581084996233e-01
8.585977888842692696e-02 5.589088042188046501e-02 4.815125310535566805e-01
6.326385097142847580e-02 -5.680278413082449733e-03 4.619370311841138332e-01
1.035523768378247833e-01 2.860310267085633754e-02 4.695145369522510381e-01
3.508371454936758810e-02 4.181041683090815607e-03 4.441403646585037057e-01
7.118971953754527071e-02 -5.355179086330920553e-04 4.984686526004358798e-01
8.443230387918122803e-02 2.955499637540840580e-02 4.609662875306042018e-01
7.453149012919367544e-02 2.268940974346149442e-02 5.201234256047713167e-01
7.918175507383695688e-02 5.816500364749900912e-03 4.947912249868187118e-01
3.060232722615644635e-02 9.813523196053039466e-03 4.440926251738432917e-01
6.209949705701201667e-02 1.813334249419423436e-02 4.542778772953438571e-01
3.353507025785094214e-02 2.528319385383460266e-02 4.458463055816167531e-01
8.473942617134556932e-02 4.716079180779363111e-02 4.975320906450906855e-01
6.382488124978100141e-02 2.126064828738589464e-03 4.579432821687179356e-01
-7.865871505262043983e-03 -1.570461132831448524e-03 4.379858229480225740e-01
5.814627051011683062e-02 9.543227207266132689e-03 4.534783660286954010e-01
4.827471250383109924e-03 1.198039348618497313e-02 4.408947006311041417e-01
3.676175096430216171e-02 1.178949069334781635e-02 4.456115295838884993e-01
9.537454199597354687e-02 2.313931792972916818e-02 4.823261039161925723e-01
1.071090091467602617e-01 3.365858837409159421e-02 4.763060518065923010e-01
6.910466468626515202e-02 -7.155191813313476444e-03 4.966360795717028598e-01
2.943112160317703715e-02 5.577739209697520073e-02 4.467197855077285062e-01
7.179521833211677251e-02 6.298477813280934159e-03 5.082236185508632875e-01
7.337792944780839599e-02 2.005792370014551716e-03 4.981368924598267300e-01
2.499529671089651545e-02 2.038288865998401020e-02 4.440873518469835024e-01
3.594256509177197467e-03 3.450186169146388093e-02 4.433210430831079352e-01
6.989264589309202025e-02 2.085532588802795767e-02 4.567364223262280754e-01
6.580683542550991305e-02 -7.697496530993152078e-03 4.673198652596018965e-01
6.733184267565625603e-02 1.386256070655758448e-02 4.574542703160718871e-01
9.566664942796805626e-02 2.716194488420204875e-02 4.659044319754458985e-01
6.684814274859824865e-03 1.620127252297066250e-02 4.414418098069036178e-01
5.039568825406980090e-02 -7.670971587375076915e-03 5.273385362267166698e-01
8.266904656332814405e-02 7.832311516708528182e-03 4.742568400874628276e-01
7.879430558672528839e-02 2.419439308891418311e-02 5.163498136792618043e-01
7.545776313212500253e-02 2.862472761518529418e-02 4.570024592842052424e-01
-1.974449635702126005e-02 3.391670765573186891e-02 4.485401372581613311e-01
6.245782432176000265e-02 -1.269791153362118466e-02 4.674729614609003936e-01
5.360813974235776463e-02 1.347296622826876442e-03 4.519553475339538884e-01
-8.567396017821200804e-03 1.888399563728838243e-02 4.419856067793317966e-01
5.505817278797441039e-02 6.077654057761174011e-02 4.533205153243992647e-01
6.148515414652763744e-02 9.549454873364971244e-03 4.551343121579337625e-01
6.904109699542822220e-02 2.720552161724948750e-03 5.076540696306153233e-01
6.744859551872871284e-02 3.428673713462190853e-02 5.221011881198562854e-01
3.691939139234982209e-02 5.724230777403078313e-02 4.466944671632891439e-01
7.027941119836830786e-02 1.919548987481139307e-02 5.229638915707006674e-01
5.511198371639276089e-02 -1.056486815219464734e-02 4.565528407941222278e-01
-1.261460295093350115e-02 4.939827832604475749e-02 4.506012211686022950e-01
6.359573070001593720e-02 4.559023548026522321e-03 5.190443580981566329e-01
7.856115594390621071e-02 1.105608162143463351e-02 5.051870443594564941e-01
9.269392721108984934e-02 3.425396638061849880e-02 4.935957263940579653e-01
4.234179202189622404e-02 2.679993904303491770e-03 4.465453757782935629e-01
4.065912871620757513e-02 3.195032201727568411e-02 4.473311530768313005e-01
7.889280707023071937e-02 3.419122786305705403e-02 4.585340032366923557e-01
6.252560513833615996e-02 -2.048823189679531160e-03 5.140991983120144493e-01
7.898599132568960568e-02 2.866604688156916547e-02 5.162137308275085434e-01
9.474773695429392073e-02 4.094769560942488479e-02 4.594428694324164675e-01
-3.827576571097457588e-03 2.740274885125448812e-02 4.430301161145275279e-01
-1.979063368468563303e-02 -3.757136883318227052e-04 4.394942280670842694e-01
1.614987432825924427e-02 5.625467943892174805e-02 4.475724376660703552e-01
6.998332672978882507e-02 -6.374119409248083477e-03 4.739465836927858611e-01
9.002940570698736433e-02 2.904658745444909512e-02 4.976487932736243791e-01
8.483612323859912596e-02 1.645004548219920759e-02 4.990990206498591708e-01
-3.373697094626599419e-02 4.143251092514245101e-03 4.443015265041530548e-01
-2.149608777256558495e-02 2.126304064812778449e-02 4.467864537562813432e-01
9.134711247443125237e-02 4.397668803188773540e-02 4.566620227390004727e-01
7.462107800435621718e-02 4.694670009712589853e-02 4.504253738401348683e-01
9.312005806159567856e-03 9.217592286258988882e-04 4.392218497048620551e-01
7.981487585660032580e-02 1.656734414880521242e-02 5.096885818617183928e-01
3.197163755777488597e-02 6.145912372063182944e-02 4.494328151281630768e-01
-5.254197906309542553e-03 5.720156273283445898e-03 4.397823783357417970e-01
7.755975040657532571e-02 8.729195388770609812e-03 5.037477436154906840e-01
-2.176925114572496323e-02 1.002473952917749996e-02 4.436766995092196741e-01
7.813518508175089361e-02 7.367322867808123038e-03 4.685719964808738869e-01
9.408541210026273582e-02 3.414130904909412623e-02 4.910312322666239293e-01
9.109482029936073755e-02 6.022540379882960343e-02 4.658855283422315141e-01
5.899076518611734779e-03 3.076364582962051036e-02 4.428572596623671087e-01
8.476546819038166536e-02 5.032437271445507065e-02 4.935786506994191414e-01
2.979683859715880415e-02 2.407651294342874962e-02 4.450842593300625150e-01
5.550011789377063548e-02 -1.018355367746152061e-02 5.239789457708086129e-01
6.385804977438443164e-02 4.145244507705308362e-02 4.500654669106691763e-01
-2.352190037528521099e-02 1.135354497902893792e-02 4.448117525128152949e-01
2.109293704737257372e-02 1.495615313375833928e-02 4.429934150359090550e-01
8.104857787472849462e-02 5.882065168269175193e-02 4.588385666383349437e-01
4.884248651052829071e-02 6.072435278797064934e-02 4.489264196575218357e-01
5.173253220238389904e-02 4.502257641762755225e-02 4.480351096774935482e-01
9.892709921493929304e-02 4.788435006516116726e-02 4.672822459224531544e-01
9.684718477736316278e-02 4.853248332298624318e-02 4.826781377234669046e-01
9.126152292598874172e-02 3.976014718192646263e-02 4.598177116376699902e-01
3.123447856221825414e-02 2.613599024421976030e-02 4.454213035068507742e-01
6.202425979044129400e-02 4.830703058280683138e-02 4.484937655874826068e-01
1.032598093876272716e-01 2.820090933138792028e-02 4.772657591250911713e-01
7.545750840720569230e-02 3.224047095700866700e-02 5.188455974853529717e-01
5.067324101331051323e-02 2.264686739483721609e-02 4.500486350797474056e-01
7.711786576546889038e-02 3.733709184080345744e-02 4.568283732986344603e-01
3.359142025668192255e-02 4.522115634358579717e-02 4.460528356520488402e-01
3.003951851946278992e-02 3.908766073245742434e-02 4.459872068604096573e-01
-3.618930724528168080e-02 3.322800763692644165e-03 4.444429726127218649e-01
1.055172286743052273e-01 4.051351845626383064e-02 4.695928946779922564e-01
7.786153934145192967e-02 3.632426845869693444e-02 5.119610407355487114e-01
6.715713763541387993e-02 -1.085577355864271107e-03 4.629407796270261222e-01
8.816327102007202876e-02 4.325586313988061954e-02 4.565750818877511441e-01
5.615170869539128778e-02 3.714646710586284872e-02 4.495575697584336394e-01
4.764183427695212192e-02 3.928283583865561229e-02 4.480391835955215840e-01
8.571780672605577855e-02 2.531051760921731314e-02 5.053206169636039746e-01
7.618134447989559355e-02 5.227670098055994113e-03 4.996077225107562469e-01
5.852271946724618701e-02 -8.691769405531284132e-03 4.583871556045583384e-01
9.484555677510092542e-02 5.485380834333761224e-02 4.697871191613500752e-01
-1.597711979030885451e-02 3.636203358160322585e-02 4.473616142235963267e-01
9.083575582158252837e-02 3.135511221950947752e-02 4.970257006521450194e-01
7.587854094878353217e-02 3.683763797425756298e-02 4.562836405563043263e-01
9.239352959557589617e-02 1.981173472440286160e-02 4.757036200470449727e-01
1.199030942805122055e-02 1.716357908790037273e-02 4.421054795767860868e-01
7.663282434726131909e-02 5.859137475977515414e-02 4.548423893065037249e-01
-2.160641754161514438e-02 1.769543862836263706e-02 4.463922281090903499e-01
-1.237347835138688165e-02 4.199287230196867282e-02 4.468522200794586285e-01
9.097651491937189250e-02 3.472597733457951502e-02 4.626232530684666333e-01
7.017812248406406217e-02 9.070156398235953987e-03 4.603312555111414572e-01
3.733153399282697349e-02 2.508330313591408331e-02 4.466183440260994564e-01
1.404884229576658199e-02 2.013700430449541848e-02 4.425523561887134139e-01
1.802322378085538176e-02 -1.650439735753352847e-03 4.394694637749375632e-01
5.136072479301392879e-02 9.191437948806543967e-03 4.505878388050293393e-01
7.059323213319303181e-02 2.900979782634684895e-02 4.552495901735140738e-01
2.285313718064976504e-02 2.238164172187756887e-02 4.438194668760979678e-01
7.848460322927361399e-02 2.948767555186672731e-02 4.583134897520704798e-01
1.913772720042372297e-02 -3.019085519793102568e-03 4.393428061001254936e-01
6.968135543692495493e-02 2.139387347644411408e-02 5.244855327259966282e-01
5.947351165167460291e-02 -5.405001962594723972e-04 4.556575613907889455e-01
7.105147645108737808e-02 -7.934621630771982598e-03 4.848988667734993596e-01
8.425188822176879477e-02 2.059146638881888952e-02 5.054666406334681339e-01
1.617959424382596836e-02 2.505319581102397053e-02 4.429933646984134388e-01
2.264446877726368403e-03 2.567244408682257256e-02 4.423104879606843398e-01
2.497717744118104974e-02 1.751692351008942404e-04 4.409962518187846015e-01
3.791267767925475540e-02 1.840436968250640237e-02 4.465134573128354822e-01
8.014320402964958401e-02 8.186104101249971551e-03 4.975236909530005858e-01
6.386716485114958541e-02 -1.087895054891124466e-02 4.676648677374701801e-01
7.821032197529029228e-02 3.032119239086821308e-03 4.877757139924856489e-01
6.499274291672285653e-02 5.907785331322715217e-02 4.533515421074786889e-01
7.956054501156509251e-02 3.940310170197322548e-02 4.565081487163611951e-01
-2.937188757918433521e-02 7.198078058249556335e-04 4.413302613288124787e-01
5.613149915482380098e-02 7.974115425389134010e-03 4.526002228361208912e-01
7.545129346236836843e-02 2.389838783765848781e-02 5.196853845236568681e-01
6.423876166903554064e-02 1.096217455779552666e-02 5.234029165546321138e-01
7.648895653980293703e-03 3.660333548389940739e-02 4.434561090109696568e-01
8.322740250570362375e-02 5.641922200925444941e-02 4.562896958262671609e-01
1.563484785932289095e-02 3.077902545593335856e-02 4.433709288224094158e-01
4.460270108717712123e-02 3.078738255931120701e-02 4.481811715360762283e-01
-5.701159715251237492e-04 5.181748551339201286e-02 4.464140240178794961e-01
7.231261315082532226e-02 -4.656962245650134516e-03 4.877239145106460616e-01
4.139578006063152765e-02 4.576373031667439750e-02 4.468592226347601892e-01
8.691570897983713628e-02 2.262276639227829220e-02 5.005152275585654786e-01
8.152417191457937695e-02 1.361770749994259920e-02 4.662791620707628648e-01
1.480220453997991084e-02 -1.386088764870373798e-03 4.390607433124650294e-01
2.853785845819717740e-02 3.062280885010075851e-02 4.452160592659271665e-01
1.186240527189614744e-02 1.246364321655941444e-02 4.416848433265214702e-01
-4.486610562981547916e-03 2.785779894298938061e-02 4.432167442033446703e-01
5.141267106452775126e-02 3.967783223573429635e-02 4.484229740928149521e-01
3.209309918131079270e-02 4.607983328182874150e-02 4.458676015529122183e-01
7.943130034841225373e-02 2.113473011867458493e-02 5.134839808646229908e-01
4.095316020747423458e-02 1.471448440554706978e-02 4.470289338187224404e-01
4.867366594786269596e-02 6.328398373009544442e-02 4.536310172882792036e-01
8.612449512679007380e-02 5.439574215558590914e-02 4.866154915678723714e-01
-3.047367936498443508e-03 2.317005302195924640e-02 4.422244037028414954e-01
2.232076714355486421e-02 2.969284639366770451e-02 4.441635530054023340e-01
7.287082007411674334e-02 2.624443602160270173e-02 5.233262223954142645e-01
6.193734455226146407e-02 3.116933237892696110e-03 4.562935278227927549e-01
7.964186766786322813e-02 1.573649689407836949e-02 5.093170531437772874e-01
2.758046156637125948e-02 6.032662787834246199e-02 4.490520425212431443e-01
4.646710668877401806e-02 6.100146345405277337e-02 4.487263137857560036e-01
6.600360085316626935e-02 5.143225848429641006e-02 4.484319051818267399e-01
8.648822625284678656e-02 4.675686008832705132e-02 4.962484933866986303e-01
3.094302269057060129e-02 2.855623812882202798e-03 4.428921402858208567e-01
-2.017634503492503339e-02 3.124898780484834312e-02 4.480661043189124726e-01
7.193001548953946445e-02 3.634378338152403909e-02 5.143043799843398656e-01
9.027850028412004457e-02 1.617182699850389441e-02 4.814656352982015219e-01
7.282536809139740497e-02 3.603233943045414805e-02 5.147233956891053008e-01
3.846376787435644429e-02 6.540489564992420062e-03 4.454185536980249105e-01
8.658261344221519773e-02 3.080459716481837723e-02 5.043345276808411937e-01
7.810222092818655537e-02 4.002772867714696897e-02 4.553373762418085335e-01
7.253481616888782235e-02 3.051366299825702694e-03 5.012856798260136859e-01
1.056210804743604459e-01 4.113803557279584883e-02 4.728523873606025885e-01
