5.997519958445432509e-02 5.874690579470598362e-02 4.514998558204514345e-01
9.142513252520760580e-02 2.346459783511366942e-02 4.665543099100328273e-01
2.039884883088580528e-02 2.108465037052202617e-02 4.433412470155619345e-01
7.459488854616118381e-02 4.350268424504439430e-02 4.513381592292230460e-01
6.965750222817487791e-02 9.924340114505197236e-03 5.176229445802236206e-01
6.795930670799357753e-02 5.042347971831220854e-02 4.486852028874631082e-01
6.388479930145470054e-02 3.976082165218397524e-02 4.503647875102584908e-01
9.907173188252020590e-02 2.360643324900533330e-02 4.756162350079814471e-01
-1.375307028995942024e-02 3.288563211665507940e-02 4.456598499314685657e-01
8.124029079801949049e-02 5.148857653213505595e-03 4.819885545628577739e-01
9.867172057190429224e-02 4.232994094071786811e-02 4.588799650689870391e-01
2.325575110505818249e-02 2.043700892271961209e-02 4.437708188812699572e-01
-6.150192871885463639e-03 2.099591953859520840e-02 4.420799972364828356e-01
7.565541321241178729e-02 2.417855359211226046e-02 4.580046844318766963e-01
2.433959102321179430e-02 6.100742834346809668e-02 4.501234065232924131e-01
6.822978391102116347e-02 -1.177182239488917120e-04 4.626503810033388842e-01
8.912737128768469241e-02 2.134203385455332724e-02 4.951324532132166389e-01
8.262929342289372647e-02 7.727082071547652052e-03 4.912759331949334562e-01
4.842281993544031438e-02 -6.928553899861138350e-03 5.285001951890014871e-01
6.229004215375114062e-02 3.030809181175389555e-03 4.563479517377825867e-01
8.578216717069372249e-03 5.798645846778160279e-02 4.515895060585747300e-01
1.091592134530134685e-02 4.791742779722404227e-02 4.444867590004734637e-01
-1.392436867127470196e-02 3.104681585780469030e-02 4.453365694051435453e-01
9.269130374217599000e-02 4.890012984960712822e-02 4.562907988182330343e-01
7.343331732811560209e-02 4.442967525057570782e-02 4.508479308782379347e-01
9.850597746251855968e-02 3.320889550949739782e-02 4.631752549212134196e-01
3.643311624709319636e-04 4.738352994087960401e-02 4.447184203590099916e-01
4.473638750435179889e-02 3.585441591629354163e-02 4.478622890790145417e-01
8.519535258331531469e-02 3.260132446197892830e-02 5.083371855752190083e-01
8.928522104808497839e-02 1.350630689679746532e-02 4.814176206259188073e-01
-1.749228128237831706e-02 3.209976769246609789e-03 4.401010952116100050e-01
6.616182474159097715e-02 -4.533970387604035687e-03 5.067404864370873563e-01
3.081823769258348195e-02 1.743740754384522085e-02 4.447893037197855892e-01
7.109877365832826396e-03 -5.166389479597747331e-04 4.387664454632434485e-01
-2.719075319373059213e-02 7.929268824417726527e-03 4.446698332855711366e-01
-1.824973332604102379e-03 3.406266442437484721e-02 4.437230501326203114e-01
8.728612800022395035e-02 1.123199764577428178e-02 4.750267513254858298e-01
8.258487145848367184e-02 2.327743936689639220e-02 5.119176994411355208e-01
9.317594149428133632e-02 2.627859143095293698e-02 4.919343203637617790e-01
7.817498404663071609e-02 1.107618182741020897e-02 5.075175850946802569e-01
2.802206558886351923e-03 2.511873535039504599e-02 4.421904126424940906e-01
1.739052880536401738e-02 3.385580466358895525e-03 4.405583994895789224e-01
7.283095594468802503e-02 3.657486757502034780e-03 5.036550494358928987e-01
2.906671989090456321e-02 6.104813156357148662e-02 4.493889165780945438e-01
-2.222387231048078907e-02 3.343701956159429722e-02 4.506132239948252294e-01
8.570264272681014928e-02 2.051773802035092992e-02 5.047345342626049502e-01
8.473482141312317639e-02 9.892205887824967458e-03 4.731919566274161437e-01
6.435465226207776057e-02 -6.759589479747144664e-03 5.092976890505196419e-01
9.380614184280770818e-02 4.977537089376548457e-02 4.570842926946843687e-01
7.771447531113949425e-02 1.555601624769963835e-03 4.792897817784048664e-01
9.147061845582209194e-02 1.747479535095581432e-02 4.743323889942956950e-01
9.345616997541292270e-02 3.011234393873418735e-02 4.628193075151224578e-01
-1.285404158420631361e-02 8.473192468027832686e-03 4.407108246532432383e-01
8.934831052601656387e-02 3.676505090967741030e-02 4.615416058871691374e-01
9.835598241111760676e-02 3.076401119219203395e-02 4.865044562580478904e-01
7.907600931979136272e-02 1.715997789454761641e-02 4.623318455666250992e-01
7.193996205457880988e-02 2.835111567393349286e-03 4.644889691616786997e-01
8.185111887720138146e-02 1.746841672827376124e-02 5.091709507986053040e-01
8.585289071487328671e-02 2.782022699614932620e-02 5.073273590080689122e-01
7.692979494277576991e-02 5.990371384523556636e-03 4.676658824748054499e-01
6.814842883972205279e-02 -2.520280437538116591e-03 5.035162218207576146e-01
6.694828473516946377e-02 -2.931235299755361075e-03 4.639025359704828655e-01
3.088799511971934003e-02 4.690548621920813399e-02 4.455808242358239579e-01
2.940672318074843625e-02 3.663137492220468888e-02 4.456408867684292230e-01
7.525388379069104794e-02 5.519761414722981763e-02 4.506671206760929915e-01
1.051311673682858022e-01 2.724183802620689168e-02 4.756547755015890777e-01
9.755081707936093249e-02 2.781057329746879081e-02 4.868424582014011515e-01
-3.911563930067411821e-03 1.816709054818646876e-02 4.414201069819172485e-01
7.946444616340983536e-02 2.172956252836225066e-02 4.612387259882115842e-01
8.780394222994822306e-02 4.504319690100776902e-02 4.546331388214219227e-01
5.288114853700216084e-02 5.125600576104544226e-02 4.474420096390570034e-01
1.854589059308034069e-02 3.087123602474078909e-02 4.435782313195730242e-01
9.277848494089652870e-03 7.348041688238727762e-04 4.392058521346899891e-01
7.447883930125852314e-02 -1.921875586994953485e-03 4.904223649971174437e-01
6.309113369147581474e-02 2.546238192719375501e-02 4.537794404999060394e-01
7.416120455724206639e-02 4.031262649597763120e-02 4.530511329323174685e-01
7.638153603047612150e-02 1.805070825615239655e-02 4.607368094329905572e-01
9.361604174571581949e-02 2.396466722234973090e-02 4.673074373354549893e-01
8.117114553342495709e-02 1.264411211025710455e-02 5.049310439042076215e-01
7.923788119137258057e-02 3.151251506170470000e-03 4.783611133233917623e-01
5.400108073861944330e-02 -2.115838109908646514e-03 4.525657349012309760e-01
6.047344385235457059e-02 -5.695909069347269982e-03 4.578973357954638779e-01
1.124749148600479552e-02 5.891071339966949538e-02 4.531871785214197645e-01
-1.044878696501532617e-02 3.972247038945673353e-02 4.459818968806514849e-01
6.736141671423774568e-02 4.909100855299877372e-03 5.146521588757440036e-01
7.200539076912283731e-02 4.861407140518258369e-03 4.627430408710616061e-01
6.913268158783018869e-02 3.394900651631701377e-02 5.215221685670314855e-01
-4.735702206701291120e-03 2.443777075833591245e-02 4.425714677493033933e-01
9.389713778099474661e-02 5.102151656757811932e-02 4.861497659779075442e-01
1.017596732456234887e-01 4.488860297559598561e-02 4.685024476757015943e-01
5.049022497235074874e-02 -6.487505350144704211e-03 4.514787792310751002e-01
7.064458832646160202e-02 3.615834086992133350e-02 5.148631439917721320e-01
8.219748922674126324e-02 2.190150859966144559e-02 4.625712469901743784e-01
8.554334151002923603e-02 4.413055472189383877e-02 5.004950644110457425e-01
8.817398028429948575e-02 2.940579581400960124e-02 5.033941460399837808e-01
-3.355713559624025344e-02 4.327183412567185347e-03 4.448049495948908638e-01
-1.003873370695747627e-02 5.914584118141326223e-03 4.399870734538433581e-01
5.515680420621962843e-02 -6.272633763236601205e-03 5.234248732714649188e-01
6.846806104544522764e-02 5.227620644716909210e-02 4.489036655502687267e-01
9.646826376881724452e-02 2.741762796494333354e-02 4.659292751958880041e-01
7.357488364534904568e-02 1.821771807298285320e-02 5.201194033717817522e-01
9.590970142083059258e-02 5.450058438703973135e-02 4.729912837343560605e-01
9.887937308336251785e-02 4.379251705023075314e-02 4.856588061960860903e-01
5.448874915975714800e-02 4.897526893307375256e-02 4.477970377013645864e-01
9.657109445149253402e-02 4.436845796514998774e-02 4.594101211266128360e-01
-2.003433617654477167e-02 8.244585101750648293e-03 4.424208673632779587e-01
7.187460076478227600e-02 1.622694522489189980e-02 5.202471473453129658e-01
9.694633997849592955e-02 2.475169875081963469e-02 4.684248776169094852e-01
4.373004692472956534e-02 1.742808538622289682e-02 4.479170309861873478e-01
5.899014106216931425e-02 -8.066796778891993647e-03 4.579351782503169321e-01
2.526411175336226722e-02 3.530516014264878377e-02 4.449248607725018179e-01
1.047871169714552769e-01 3.838897785918699013e-02 4.625008452819531768e-01
1.114131742057762608e-01 3.321028578371100493e-02 4.699106551853740599e-01
4.608904857911176600e-02 2.399782443612312813e-02 4.487080103632222761e-01
4.654864386835773360e-02 6.277255767372193207e-02 4.497943711619754037e-01
8.856137184318331468e-03 2.101752389965751144e-02 4.420058170874198167e-01
-2.873098460844933540e-03 3.285027890363714786e-02 4.436870480657415516e-01
6.110924664832047271e-02 -1.134730829454402672e-02 4.637669506083635373e-01
7.606003052891119331e-02 2.924796303780068107e-02 4.571585421814535755e-01
6.816135029374420506e-02 -9.394083963272794116e-03 4.729105296925334989e-01
-1.487836989847345082e-02 1.945333262663790069e-03 4.396012771265923047e-01
8.559601279119273542e-02 9.435582875954627927e-03 4.816551065802192055e-01
8.579545254758363937e-02 5.439991830071084361e-02 4.874357107638989661e-01
8.210579994372514678e-02 6.329631627139158806e-03 4.743775951522258283e-01
7.361854985204874247e-02 4.365597178220479747e-03 5.035301077247219537e-01
9.323970776795022231e-02 2.917467182054082897e-02 4.631352116873197478e-01
8.481953071891458473e-02 4.225858079456520922e-02 5.023741164088491029e-01
4.178594385167504893e-02 1.875352833384311135e-02 4.475000802415478596e-01
7.696410096157792202e-02 2.750497788093515458e-02 4.576923896915716661e-01
7.686863947815993081e-02 2.191397870550108873e-02 5.186333437106250832e-01
2.344171516724544158e-02 3.530821561970269584e-02 4.446436288620426169e-01
4.671359375116049956e-02 1.827650902869722236e-03 4.485047179185756017e-01
2.567984272647926003e-02 -3.751448135295705304e-04 4.410144596098617420e-01
7.450191934076280664e-02 5.966187616206388572e-02 4.542927181402877657e-01
7.156242492533290700e-02 2.733379027924415922e-02 4.558421590954874758e-01
7.453113380666891163e-02 9.647520673288438597e-03 4.623883792276426985e-01
6.574226700803563472e-02 9.631866224900715451e-03 4.573078284793380965e-01
3.296295714221453548e-03 1.034358585845768751e-02 4.405313511941393867e-01
8.403770562069473593e-02 1.946898762725413762e-02 4.640474719706216278e-01
2.039867235899530187e-02 6.029698812588444451e-02 4.508518138084490201e-01
7.041785355838105220e-02 4.760008509499248641e-02 4.495445790233691397e-01
1.106419436950479424e-02 9.617263074057452038e-03 4.413192820697142138e-01
8.958485955862716121e-02 1.998861086455416824e-02 4.929336013799985872e-01
9.637805984186956221e-02 3.105739654849075729e-02 4.898575755088024342e-01
7.379266444227869370e-02 1.131814953213589048e-02 5.135645464452764930e-01
7.645479753242775955e-02 5.916363901673026698e-02 4.572240777737575645e-01
6.397672531677818519e-02 -4.575655354822672632e-03 4.614484522589113458e-01
7.624174652645300532e-02 1.885913148582298721e-02 5.175853317529994779e-01
5.569143357915248144e-02 -1.027182738307847072e-02 5.240794149474738983e-01
9.302003071612113469e-04 2.778811774984021529e-02 4.426819919434750172e-01
7.686883613560101247e-02 1.990237738781591020e-02 5.174945738488340163e-01
9.335040169760609741e-02 2.599186838218231141e-02 4.914229048303032643e-01
9.419005986542335063e-02 3.329025152988027147e-02 4.631080638549853190e-01
7.951279301931624133e-02 1.327139281581895050e-02 5.083970906562095271e-01
3.794716797415851467e-02 1.283562248990372402e-03 4.449957328573284077e-01
6.824958671242047081e-02 1.584829663913504827e-02 5.238900294606214647e-01
3.798925230238902467e-02 -1.664912416994264802e-04 4.449116394163842858e-01
9.866362215703765315e-02 3.117811772275252621e-02 4.860943105686174048e-01
-2.856647783813671005e-03 5.161426457256611255e-02 4.463658936267858590e-01
1.125977163130326142e-02 5.333410909188248533e-02 4.462634982143690587e-01
9.445855686071931434e-02 5.259615859372981927e-02 4.817479633114706283e-01
2.756742634440209616e-02 2.654399796218842242e-02 4.446516953327290800e-01
7.189731928104532710e-02 2.144092939182656865e-02 5.234554924098241413e-01
9.027920400769390286e-02 1.834338709950894888e-02 4.703654948117088619e-01
7.040656886270085790e-02 6.024353601000768943e-02 4.556120386415093981e-01
-3.523382873087513301e-02 4.051390953410154844e-03 4.455158770949793068e-01
6.118634106611568757e-02 1.947359315342906197e-02 4.536973052895312830e-01
1.671011667389767780e-02 3.359791991209529812e-03 4.404399156898857193e-01
9.730275342234348535e-03 5.395502254528471153e-02 4.466567779818412798e-01
7.543829726800928281e-02 -1.242234547724247948e-03 4.784437900890755047e-01
-3.615976320775745462e-02 3.603851460710393376e-04 4.413138753753619303e-01
4.882633483737599395e-02 -4.944698669685020087e-03 4.500934098140407236e-01
2.302045081887908393e-02 5.375685336186093732e-02 4.461509207484422035e-01
9.769202263470290470e-02 5.215018170605847936e-02 4.641012766525143274e-01
6.991956220146733347e-02 -1.952585290066607840e-03 4.667331484650267814e-01
-1.217238224021390154e-02 4.084195015418007335e-02 4.466438246675580870e-01
5.884099488609215861e-02 1.494864561046066118e-02 4.534713656633918011e-01
1.025593883213569563e-01 2.952848458383464103e-02 4.802290096746463233e-01
1.037983583882909344e-01 2.617009764892619036e-02 4.724607738053883121e-01
7.415336337287165014e-02 3.098392666679926008e-02 5.222940469611175862e-01
3.200705120731070843e-03 5.431831524438755082e-02 4.471440003687434661e-01
8.330606730598098808e-02 7.834358770301872235e-03 4.885903733190727904e-01
2.458412711861957325e-02 2.071713860102320642e-02 4.439906281598692273e-01
1.054392767807276615e-01 4.113266048750643250e-02 4.686290279190389318e-01
3.910279088010280846e-02 -3.573632230709167246e-03 4.450767505495473730e-01
6.568827830106491183e-02 5.098756746396684338e-03 5.175380728706654443e-01
8.681198452403886268e-02 4.265874848222401400e-02 4.561609855633211308e-01
9.711910612206740845e-03 6.831884133158532685e-03 4.406427679024211286e-01
-1.957051115374372832e-02 1.359010409211689439e-02 4.444651520141315593e-01
6.991890951801869869e-02 6.037227634999715875e-02 4.549085314682760894e-01
8.076379645854767086e-02 3.930348952713310501e-02 4.567545708403379923e-01
3.856599796331081076e-02 5.181304337566276438e-03 4.453887779171586403e-01
3.873954177720174280e-02 2.505653191716088191e-02 4.468787669423018860e-01
9.936693534880300382e-02 4.659148798054937868e-02 4.631887792715875252e-01
4.487036814389918499e-02 5.763483565080534249e-02 4.470787953245224378e-01
3.812315602485957799e-02 5.644497934028895603e-02 4.464548952863301445e-01
-4.414391758583338654e-02 4.945061157376998313e-04 4.436907388059110335e-01
-2.426148224637905866e-04 4.955172647824833410e-02 4.451075274147976990e-01
1.898782813926401872e-04 3.598898038552221425e-03 4.394674884691847083e-01
6.223358626852175390e-02 2.691907559378791228e-04 5.174244862593806449e-01
1.882409458132893246e-02 5.299326092491803836e-02 4.458679339903995897e-01
9.074941967391861319e-02 1.617018203534098184e-02 4.847907618415015496e-01
-9.573294181504741346e-04 1.450541288116180896e-02 4.407667062924530699e-01
4.062938030712454074e-02 -7.449755866023952816e-04 4.458891915646339132e-01
9.394553110462407208e-02 4.007357287863550638e-02 4.601491889524492729e-01
1.099252491699663353e-01 3.117279232650021700e-02 4.734083127058080764e-01
5.883479041000394538e-02 5.179798384905082848e-02 4.478217885893062689e-01
1.918049714468166023e-02 4.005775716462462582e-02 4.444247297458583934e-01
4.893896613222068620e-02 -1.287926021404557989e-02 5.307793401516108789e-01
9.544508784554918412e-02 4.580842779095271877e-02 4.584169415556339500e-01
5.286537116658727303e-02 4.191993451172143503e-02 4.483977636060915151e-01
7.412342717142951509e-02 1.463697746212709594e-02 5.167441164691213284e-01
8.544324312690558532e-02 2.023722754835237392e-02 5.049969240556240191e-01
5.894765046526575722e-04 4.516242093345506498e-02 4.443951737602153673e-01
-1.537268367966820697e-02 1.869441821799616363e-02 4.438283909115223747e-01
4.830273868135017551e-02 4.802606452685339450e-02 4.474334779776216742e-01
5.591984899542916387e-02 4.532129883648242097e-02 4.483137185291977134e-01
5.491812850958481540e-02 -7.165448558045689996e-03 4.547815286562023607e-01
3.734796205364579458e-02 5.463186071867558863e-02 4.463592625564305472e-01
1.599496633720370181e-03 1.995453915363143427e-02 4.414880014577710621e-01
8.073869897380403504e-02 3.162438407526799861e-02 4.593326241199415794e-01
1.064764659605717811e-01 2.832036515631246310e-02 4.723523070619496944e-01
-2.432172723409075504e-03 1.421858440339980774e-02 4.406436313075199340e-01
7.741273941943009607e-02 6.637058566749194817e-03 5.025420401997487962e-01
2.349182761879671510e-02 7.872151531991725820e-03 4.425898954842065192e-01
-1.966131633995958639e-02 3.716730892902062738e-02 4.495917635849923655e-01
7.079604608465094040e-02 1.503065832018970170e-02 5.204141560653023912e-01
7.540876177856734031e-02 2.220987662747031521e-02 4.588270582964508737e-01
8.881023720138844779e-02 2.222448973971291944e-02 4.967407444276831785e-01
7.524227364977224830e-02 -2.807158198232182758e-04 4.742368605653257685e-01
-1.457604615807577345e-02 1.137942990820074371e-02 4.416846136755037122e-01
4.449638270882900343e-02 3.810230920986897030e-02 4.476980325357266532e-01
8.331010547763678664e-02 9.402274680855251046e-03 4.938109612886894539e-01
1.109959970985901351e-01 3.559506483377072178e-02 4.675293658197490765e-01
1.107448846789831215e-01 3.437946299070503142e-02 4.745995572376642824e-01
5.058220100330537705e-02 3.350285958539036407e-02 4.490467675950335358e-01
9.395943902469724995e-02 4.235949920525083207e-02 4.912400531661784697e-01
7.364032318641125160e-03 1.131098970561357497e-02 4.410876032897113053e-01
7.022531655701430564e-02 9.478691663960373687e-03 5.162893591486957812e-01
4.768900126411995677e-02 5.769069057268067652e-02 4.471468136640145419e-01
6.481626690425297543e-02 3.060808261604877623e-02 4.532197404674400132e-01
8.355930294868089969e-02 8.196454584214536709e-03 4.887403362019254738e-01
6.793956369590911648e-02 1.124015218433890850e-02 4.582145363307467134e-01
9.630360669410834018e-02 4.556484340189292936e-02 4.878146965938984225e-01
3.748293670751325080e-02 1.237980304711219781e-02 4.458331445629969414e-01
3.183259953590224928e-02 2.522887820646685028e-02 4.454345760825446088e-01
8.947832639489670947e-02 5.188657903605909533e-02 4.547907584041832596e-01
6.991254253524269158e-02 2.848759556173758450e-02 4.550990049164562734e-01
9.044563892776327774e-02 2.817786598852605254e-02 4.989409616570609218e-01
9.853771795308294279e-02 2.345584365964007920e-02 4.762816740015383132e-01
6.985374883394802892e-02 1.135656770130544918e-02 5.185175628587744834e-01
-1.894306521075697462e-03 3.441556144566660508e-02 4.437552950419451636e-01
1.074605657676250131e-01 2.970204343666500713e-02 4.767232344119405885e-01
2.277523363057093117e-03 5.010858250268344916e-02 4.452346509231607241e-01
3.405831822831624500e-02 -1.877975872883503152e-03 4.431083061495887931e-01
-2.286627680507614599e-02 2.136952518761184305e-02 4.476693288964006534e-01
8.969598873098248715e-02 2.804957061017427852e-02 4.625753747217783984e-01
-5.002155945955588483e-03 -7.755248591197853869e-04 4.382261677524326715e-01
7.150270257127408491e-02 1.484697330230906609e-02 5.194918850808812882e-01
-3.319387680337800451e-03 2.689400354557062653e-02 4.428705225158313108e-01
1.037082384872332619e-01 2.801626675714789447e-02 4.690471974240653097e-01
7.539531898544979405e-02 9.340801543266876936e-03 4.629933158152848560e-01
7.234133685779085832e-02 4.749337118787652634e-02 4.498493587271806260e-01
7.825724728465417723e-02 5.430445119934647347e-02 4.512574406815594852e-01
8.197773709265682163e-02 8.375979954216603712e-03 4.713336303905386049e-01
4.805385425678090905e-02 3.182267490724376841e-02 4.487225692044153891e-01
9.165753091626913096e-02 1.943947775094572936e-02 4.880413358071491459e-01
4.202077570539484996e-02 4.420404570699187907e-02 4.469483580787978472e-01
9.227471470172377010e-02 5.719091902777083403e-02 4.606378659614221993e-01
4.258848083913185922e-02 2.125621276736821760e-02 4.477808962376968460e-01
1.914923892968284705e-02 5.898535229428122917e-02 4.497320420620108394e-01
4.643848168244262692e-02 4.730411122073835406e-02 4.472524860626405641e-01
2.421731186362234556e-02 2.709841325642844273e-02 4.440736164769625294e-01
5.172431542592023646e-02 1.787064687579289352e-02 4.505056600478745121e-01
6.224134583873356524e-02 -4.733403086589357822e-03 5.140350224135676882e-01
-1.232422687485439788e-02 2.756984782321510521e-02 4.443868707899643056e-01
5.120750099352145562e-02 4.972805376865267746e-02 4.474786476323072693e-01
-3.834569232172168468e-02 3.037988744833771629e-03 4.446019156911996673e-01
1.089622112055011263e-02 -8.948032529974129547e-04 4.388765631733336781e-01
8.559348177705568272e-02 9.490134709316883771e-03 4.778802203432316320e-01
7.380776831320866316e-02 -7.624686532579883717e-04 4.715413641968494440e-01
7.087462841924314916e-02 -4.005884403214373703e-03 4.707366983980456054e-01
8.450196444204820245e-02 5.694908992703884287e-02 4.798936627506222852e-01
1.032202384008508167e-01 2.988584608601380088e-02 4.671261049068520799e-01
7.554124075238514979e-02 1.797920543231481399e-02 5.178482824714772947e-01
6.019801252176110867e-02 2.290793014171025460e-02 4.530103346606099701e-01
9.297456260729076993e-02 2.990239736220893715e-02 4.627927786355729434e-01
1.045771154197336628e-01 4.180509983609023011e-02 4.774105738569969226e-01
3.304604700068242834e-02 3.650702750915045536e-02 4.462074515640333527e-01
3.393917023534755162e-02 -2.579081144292377954e-03 4.429163579015462648e-01
8.943315946650443049e-02 4.679108304230460841e-02 4.950656791981077887e-01
6.963830412221846955e-02 -9.896271812255460695e-03 4.781684445872070865e-01
3.642321164213221940e-02 4.379023901457683443e-02 4.463097536720393999e-01
9.384627034254833244e-02 3.613875542434644844e-02 4.931741642490778954e-01
9.060084288441498657e-02 3.948909046719246280e-02 4.975718571297432224e-01
3.099203140878038776e-02 3.537457082059852764e-02 4.458141107443936435e-01
5.221624857985827928e-02 4.311055677493606797e-02 4.482654300360103261e-01
6.459082515491088028e-02 3.903383456193063646e-03 4.578239624912385786e-01
1.035911095260297343e-01 2.631090040672493663e-02 4.764526487883924966e-01
6.715849690464223420e-02 5.482702724325425048e-03 5.157358078725184924e-01
7.128640879028512456e-02 1.551372746333096533e-02 4.588697853626871326e-01
8.743776671659228561e-02 1.547683733102881917e-02 4.920933163637444818e-01
1.060060058919933268e-01 3.488462399924275453e-02 4.794548399198259037e-01
9.367317794519215701e-02 3.540665084884610236e-02 4.936819769175609940e-01
8.600823979141994369e-02 4.490387707941997236e-02 4.996233674194636709e-01
2.714791303637330983e-02 3.572118633914525554e-02 4.452397186951422836e-01
1.009876842403530789e-01 3.490085547419802953e-02 4.846567255899250637e-01
2.005364753877535502e-02 7.075457291457459136e-03 4.418406566406031244e-01
1.048864624501618797e-01 4.072679726714931170e-02 4.792500615282925258e-01
4.888243941110083368e-02 6.309074018330712574e-02 4.522300113121932585e-01
9.164116393038558572e-02 5.458485916477281985e-02 4.581422865227097740e-01
6.063387893510501642e-02 -8.586112505050143978e-03 4.605374186119238766e-01
8.982652049838196762e-02 4.665506920408627606e-02 4.948807946421749926e-01
3.196884535884828016e-02 5.957453711877942759e-02 4.473900953859992757e-01
7.304774617944856385e-02 -3.619405260058931005e-03 4.755805403381946350e-01
3.215957280327977341e-02 6.311714113948733995e-02 4.504237906136325242e-01
6.796072591248859818e-02 5.604381952741185891e-02 4.495718006780051179e-01
7.806759146005887162e-02 3.218199060013107477e-03 4.934846162874313436e-01
2.913548680418111964e-02 2.352035843094275880e-02 4.448703524081826233e-01
6.648487043019526976e-02 3.297293420187354107e-02 4.529307451790262617e-01
9.706250256425080769e-02 4.146171412261340922e-02 4.593938279589634410e-01
4.692966410708487857e-02 -5.656747335969559629e-03 4.490312791566419270e-01
3.712130812464386337e-02 6.417187704293825234e-02 4.496933816976498854e-01
8.348937422403329700e-02 3.809969957467193580e-02 5.066539831117504722e-01
7.483337053295473218e-02 2.897613761032183290e-03 4.682544823678537194e-01
5.314403413632549922e-02 3.447916632114351315e-02 4.494715179829120166e-01
-1.130940950409614100e-02 4.625983083926054479e-02 4.473562468769086697e-01
1.056270569076081106e-01 2.733538700612459307e-02 4.725964683874134264e-01
-9.880724278311978082e-03 3.578550101594335162e-03 4.394025653505013174e-01
6.800031128728191432e-02 1.170708227020875528e-03 5.090757571028379225e-01
9.727742614592491122e-02 4.740124431955622386e-02 4.853949117856988238e-01
-1.757786397795451511e-02 3.484057792053781022e-02 4.478628917280751409e-01
7.923956316066296801e-02 1.494042323104399425e-02 5.106979444122221601e-01
7.065323261215057486e-03 2.981721120725471311e-02 4.426578078777054781e-01
6.440099515965629073e-02 8.529747204147571094e-03 4.567899999493915120e-01
-2.540286283166571374e-02 5.905969475040210789e-04 4.403385447514798767e-01
1.834654583088119600e-02 9.431097908122467247e-03 4.421223447288866737e-01
2.482016028138460395e-02 6.027285538327946390e-02 4.492951175334646829e-01
4.720320136156681140e-02 -8.985746631394439521e-03 4.499176811336139670e-01
1.356256255796381774e-02 1.499670985069738276e-03 4.396385231828654483e-01
6.430895986725904123e-02 8.045839450568749787e-03 4.568323638964916777e-01
9.259128068124093669e-02 5.437954810365713126e-02 4.773116351640636634e-01
1.773839426292254245e-02 4.169011639715698193e-03 4.408068251138430038e-01
7.242894728159471329e-02 -5.708611098683008533e-03 4.806529923860923814e-01
6.482373195739392358e-02 -7.781310518936627660e-03 4.654590207617186892e-01
-1.709077074778253547e-02 9.818138910681879425e-03 4.420845324305019419e-01
2.473060603278260175e-02 3.708919412565405554e-02 4.449452529528121758e-01
6.905384563096705897e-02 2.481210736909171544e-02 4.555178843983498926e-01
2.979035139501957571e-02 3.051533356307487704e-02 4.453189567848921393e-01
2.615578476713735501e-02 7.024850403681339242e-03 4.428583135140368165e-01
6.980567910210096205e-02 -3.537835632239268342e-03 4.988608146406277033e-01
2.508635154597833525e-02 2.380370513079510877e-02 4.441058592656255133e-01
3.230947769444805773e-02 5.285690653715544376e-03 4.436744391572698953e-01
8.778005986881913525e-02 2.528955170423537527e-02 5.030747647092074226e-01
2.214899097732824299e-02 2.542638006158252917e-02 4.437010895881563499e-01
1.945677098685318768e-02 3.994316681706624322e-02 4.444562776762492895e-01
6.915499851866718783e-02 7.944643475897367885e-03 5.159092474996694877e-01
1.940910673156105021e-02 -2.615168003786336876e-03 4.394928798269522319e-01
8.011816023638403117e-02 1.190254476925646163e-02 5.057255919885927931e-01
-2.239449084982601812e-02 1.376968952481275391e-02 4.455862281758182775e-01
7.901962585728528055e-02 2.968622183111492216e-02 4.584761336946797106e-01
4.625390323025082434e-02 2.511883124205177564e-02 4.487662370646095522e-01
9.902813972343883775e-02 5.021357476718916329e-02 4.669577473648201527e-01
9.232077128660427789e-02 1.771065140306255989e-02 4.832334100660030107e-01
9.674812218717616930e-02 5.357013706860627722e-02 4.724573559738260986e-01
9.809401499571226979e-02 4.222280533217470655e-02 4.588972357187061646e-01
9.126849489444903429e-02 1.592262281802476684e-02 4.795252410056061732e-01
5.651825266705177986e-02 6.141127136151297572e-02 4.550728663644505456e-01
9.154004769540738384e-02 1.879807432256527799e-02 4.874397802128750956e-01
7.360189887223772542e-02 3.495182548344125811e-02 5.166264551108864511e-01
9.570292279212624931e-02 5.489597141148726267e-02 4.678153317565995617e-01
9.099177433572211079e-03 5.145556430690943067e-02 4.455121552124793327e-01
9.299205671449041477e-02 2.153289127664587133e-02 4.877879334732648231e-01
8.892537376265877147e-02 1.527977652189078765e-02 4.721439976554543949e-01
1.506964809987862419e-02 4.839528256323368666e-02 4.447289034159107035e-01
1.245480590383640784e-02 5.727851225820378145e-02 4.498853764539104683e-01
3.131664200195219405e-02 1.731452305613933110e-02 4.448796498793934351e-01
1.007813590456548836e-01 4.064261005133875532e-02 4.838902988094428426e-01
9.802075759975714675e-03 9.318951873860059631e-03 4.411345643483362000e-01
9.438954359689594176e-02 2.295313344984509923e-02 4.865385448782186262e-01
-4.604925893009735767e-03 5.351422833997174916e-02 4.486177836813327602e-01
6.134845904728181143e-02 -7.646363998812307806e-03 4.605677274404070820e-01
3.260205489440013565e-02 9.260188251195136666e-03 4.444916246547405136e-01
7.443447713321275916e-02 5.034988873542547289e-02 4.501079429741091098e-01
8.419586667716577599e-02 8.661169296175077331e-03 4.878877826217944413e-01
2.716829253298106220e-02 5.906716281532317647e-02 4.476799580209182006e-01
5.844277680929269025e-02 5.245852748312484354e-02 4.477117178875213988e-01
5.292566826694046489e-02 -1.421228653678333585e-02 5.275718054725240247e-01
7.051224790707766310e-02 2.827613241581694581e-02 4.553009065339011507e-01
6.482068215201236550e-02 -1.183399588445737359e-02 4.698007914664872886e-01
6.916441642686829705e-02 5.458890263651699527e-03 5.125625429336745364e-01
9.569992449957989700e-02 3.645763481713373833e-02 4.907610644465806859e-01
1.528751979721545452e-02 3.977919982408447547e-02 4.439128407812143462e-01
5.781508832931780972e-02 2.413485191735621413e-02 4.521949163251988701e-01
8.498333792952705856e-02 3.258540710463728868e-02 5.086242919773118487e-01
9.311601529333234095e-02 1.960396123874626889e-02 4.721109331131770892e-01
9.165421414096511232e-02 2.662514530243049321e-02 4.949413626274429268e-01
7.050232615121217183e-02 4.376304203126100967e-02 4.506036108879498125e-01
5.714271661717730891e-03 1.596047798737012385e-02 4.413402355052440940e-01
7.397696777973013227e-02 7.548326122666556767e-03 5.084005378921283569e-01
6.631586997542807116e-02 2.804414451866588109e-02 4.542055349273776965e-01
6.107323306936127127e-02 4.446065056081592581e-02 4.488603482280041357e-01
7.311391759128837986e-02 5.079950653583158171e-02 4.498936113717273422e-01
9.842358244094993880e-02 5.068035061909092337e-02 4.648014351393232046e-01
9.297563861168774146e-02 5.073710760194195812e-02 4.882314918462821729e-01
5.295932754028357531e-02 2.267738715744654909e-02 4.507222530129432747e-01
-8.447485317473801825e-03 2.476843330379004809e-02 4.432110122989511569e-01
9.418539250175922417e-02 2.168440558899167522e-02 4.854244813809374115e-01
4.398763477397886479e-02 3.385032398810582793e-02 4.478618029438996562e-01
8.843287356453698178e-02 2.741660039093206033e-02 5.027843952094074309e-01
-4.435526102759075086e-03 -4.126076705654553242e-04 4.383254468308048213e-01
7.808951155486057449e-02 7.944723009367660183e-03 4.671325396174119127e-01
2.300813529790174394e-02 2.542343203767489287e-03 4.412742349170134526e-01
6.472521536990256952e-02 9.137031338236787856e-03 4.568501372926949133e-01
7.473951466087724871e-02 5.955661238145101150e-02 4.553181888829210267e-01
3.901387573785079776e-02 3.772449860827638279e-02 4.470021948268573242e-01
6.843010700300707072e-02 5.623169371176956269e-03 5.139327025653419589e-01
-1.365764907704287642e-02 1.408089794773672784e-02 4.423217537803775246e-01
8.843532043131042963e-02 4.802263346292250795e-02 4.540775102819314402e-01
8.830715613681772158e-02 5.335869623685217389e-02 4.881358237375063580e-01
6.326409237887128945e-02 -1.194349232892126089e-03 4.582140496459580770e-01
2.626665309963826730e-02 5.763530433151942828e-02 4.470084936139229748e-01
8.486467630516504601e-02 1.011254776417156755e-02 4.896501696028824346e-01
8.155565588157941137e-02 7.063215026730176524e-03 4.945054257312223589e-01
4.929981275009313879e-02 -9.557565193662909131e-03 4.515928329183712120e-01
6.902536563806234426e-02 5.692060195027957847e-02 4.509241510006543052e-01
-2.756278852974438850e-02 6.637291942013070004e-04 4.409112121678003815e-01
1.925496600746485001e-02 8.859634061026902194e-03 4.420941490136222618e-01
6.762227396123608736e-02 1.876827584150109196e-02 4.561215402096339688e-01
2.652298173852787877e-02 2.326269684255010198e-02 4.443588981246444081e-01
2.330837544056733185e-02 3.335840427333329472e-02 4.445107799013396366e-01
7.255767472856576583e-02 3.784055313565307978e-03 4.643428917457227412e-01
1.168956306405462102e-02 6.386157296154209607e-03 4.406953935760789531e-01
7.124603848930691208e-02 -4.919846876876349598e-03 4.726610437930085507e-01
7.670741746613136958e-02 1.530658333463594256e-02 5.141666098702265542e-01
7.770487098937706172e-02 4.828438490952365048e-02 4.507756975427291146e-01
4.265872853090527106e-02 1.585280427634563200e-02 4.475330373059881461e-01
2.208643429997249330e-02 3.951327604560062740e-03 4.414686980173944120e-01
3.780963319365743258e-02 3.913407378033060408e-02 4.468087862523498766e-01
7.464813486875869486e-02 -3.064935212403911702e-03 4.856860000400294308e-01
-4.617903908132723993e-03 2.768444965251033382e-02 4.432112713703413864e-01
4.148692719748110769e-02 1.646669082792598035e-02 4.472725281914810558e-01
5.264275721115734691e-02 3.752254440664384849e-02 4.489036046309928252e-01
1.024364487579227934e-01 4.207402636106125776e-02 4.643503058740768852e-01
7.820714202964874906e-02 1.901925110820468744e-03 4.876858579192149823e-01
3.745671314034956095e-02 -1.909716389905304545e-03 4.444792651317423515e-01
6.989447810410930051e-02 4.970571168980301990e-02 4.490625131228068168e-01
9.138122759944836138e-02 3.338166821221537350e-02 4.981889220502140336e-01
1.044331219118876802e-01 4.262492801433095946e-02 4.745874421107167396e-01
4.398312404330236014e-02 4.040523667426833276e-02 4.474913384472212763e-01
5.858183838865491100e-02 -8.140630692725978404e-03 4.574803824572513111e-01
5.225829637038861830e-02 5.028323969280827643e-02 4.474972450297162729e-01
1.008872146585991503e-01 4.608037147753391016e-02 4.782620042950560535e-01
-6.242873681178296406e-03 3.013215509965141981e-02 4.438643600444571735e-01
4.115570144912213818e-02 1.946554638842110801e-02 4.473587289970253345e-01
8.267825571988755839e-02 3.557137371512498342e-02 4.599668004702142654e-01
-1.848955485792855291e-02 3.130092118675270596e-02 4.473982243001816683e-01
3.545182764788824825e-02 4.057431670384416267e-02 4.464108854044805397e-01
8.702294512174614527e-02 1.408682500862841122e-02 4.913345352196655247e-01
3.205395206480712855e-02 1.049010199598814780e-02 4.444599071556392667e-01
-3.399454698652870036e-03 1.870220418477713809e-02 4.414966879124214705e-01
9.305669245056130690e-02 2.156588405064757685e-02 4.876946948544285121e-01
5.875401395976128510e-02 -5.427838827748536314e-03 4.564609576748156483e-01
-7.478665518775079978e-03 1.031543851874263361e-02 4.403301993118093338e-01
-1.329061362750788046e-03 4.393500668295875072e-02 4.445029196045433006e-01
2.359178291251342457e-02 1.002784524374557978e-02 4.429476271350059613e-01
1.299443417342084454e-02 1.919217785122454348e-02 4.423204725743636878e-01
8.516317808164602932e-02 2.669486995677084612e-02 5.083508072742721762e-01
8.800793989773629533e-02 4.610780981838245168e-02 4.965287882415628795e-01
2.306186534265233443e-02 2.714497386567412806e-03 4.413290643189847762e-01
7.377936097244178204e-02 -1.967888564961460529e-03 4.923412483844953336e-01
8.162461323829128812e-02 3.890222154004845806e-02 5.071513134499364694e-01
-1.839913768260795571e-02 3.472180299950878429e-02 4.482228341600298371e-01
5.522221775424751566e-02 -1.135080148343177442e-02 5.248391431206033131e-01
7.910046194281097898e-02 3.127182866778716042e-02 5.163472466827742080e-01
-5.349962081475074724e-03 2.844016721071970441e-02 4.434660497177815297e-01
1.000910014745529791e-01 3.156749491984470191e-02 4.839151761757665704e-01
7.098148285039876382e-02 -5.617508536127458624e-03 4.941132807891352452e-01
7.248533283878842715e-02 2.107768532944597623e-02 4.577773308867107427e-01
1.014562533151977530e-01 2.962821686282771094e-02 4.665379445513628820e-01
7.352500366808939480e-02 2.893578283895267486e-03 4.665898899798766042e-01
-7.850670739807583814e-03 1.925454757283552761e-04 4.384790540198567621e-01
3.074536387217891020e-02 3.438850657945960454e-02 4.457240614906915477e-01
3.081636974245874003e-02 2.996255407532253182e-02 4.454461186651059168e-01
8.109769169753677787e-02 1.075092071158096144e-02 5.025659729095042216e-01
2.737528656995419016e-02 3.977843590295986054e-02 4.455085412557118762e-01
6.591062630709884629e-02 8.665142069038221997e-03 5.209509059288011112e-01
8.223043436667300254e-02 1.554490954290707605e-02 5.065399156932909319e-01
2.601114551673900863e-02 5.955677297867491976e-02 4.483692264422806661e-01
8.022779180651054554e-02 3.466712632695435198e-02 5.123509322137913546e-01
9.095696340150893899e-02 3.071082740538208511e-02 4.988738233528500210e-01
8.191324609811852231e-02 7.128446101244198009e-03 4.727190867538432206e-01
-2.019992515192611197e-03 2.281605569233609992e-02 4.421073482665405230e-01
7.611974372730799521e-02 7.668091635931547148e-03 4.650191943553565466e-01
7.948058103231407656e-02 8.064968794496108276e-03 5.014458835724787678e-01
-7.059616568586241786e-03 2.992790766222173590e-02 4.439761784781787735e-01
9.645708478722475610e-02 2.511986329672765209e-02 4.859672202357826487e-01
9.874447186343583704e-02 3.004741984759904186e-02 4.854989342707429212e-01
1.800400368028712283e-02 4.766820450679074700e-02 4.446829226569458671e-01
4.721152017872960738e-02 4.719664779213220140e-02 4.473602164622346167e-01
