1.055331019832216333e-01 4.043965405720176959e-02 4.748377978972265767e-01
4.010626122779601538e-02 3.557008861924226134e-02 4.477117644082309611e-01
3.533369645301715628e-02 3.657891144166512676e-02 4.470965121309414814e-01
3.450842433333182330e-02 1.944018056971491201e-02 4.461273239096263943e-01
1.020130017053955812e-02 3.086713214374662770e-02 4.432060211845944564e-01
2.845206237333389176e-02 2.561886940591264622e-02 4.452595091870914512e-01
7.743699094986414289e-02 3.087235246685010766e-03 4.900022568596877348e-01
4.050509815321925999e-02 4.000725645624943205e-02 4.477110550679729295e-01
8.393614400773270756e-02 5.288009341172345695e-02 4.542422463765347640e-01
7.085176727284069054e-02 1.405929665513798096e-02 5.184583537066972392e-01
-9.737118529597346347e-03 3.881520058793095501e-02 4.458497948205197292e-01
4.408973155823384810e-02 -6.382741390012876964e-03 4.478520545840037892e-01
9.747410793022334707e-02 5.035818338583657183e-02 4.693927349041766561e-01
8.586925521098232039e-02 1.725538666437427537e-02 4.688087115468679844e-01
6.836206997598062718e-02 -7.686176596410257411e-03 4.725659323933962819e-01
5.467971500786377587e-02 -1.041451342135899481e-02 4.564750754331352578e-01
9.269243780340777339e-02 4.611909301980422760e-02 4.900063849074102196e-01
8.301444067350269296e-02 4.978818913205445423e-02 4.536208750618336283e-01
5.632868125996042669e-02 2.928127693862338926e-02 4.519442919088113575e-01
-4.805674170799993303e-03 3.560224500041111323e-02 4.443822063113845866e-01
8.210023410768439722e-02 4.776869647757388954e-02 4.532701556592200753e-01
9.651982875147321894e-02 3.656603489321497147e-02 4.876738905979000616e-01
9.469502501343428358e-02 4.814220692105326826e-02 4.597646154017733244e-01
7.226421664044503645e-02 2.324517184096214217e-02 5.229578922225013304e-01
6.109590674062977816e-02 6.279311769934183343e-03 4.555473290469220227e-01
6.238141484310193510e-03 1.658761784285445531e-02 4.416530679735811704e-01
1.988510619352406791e-02 2.164215017664874313e-02 4.436467416759948823e-01
1.154417709695139231e-02 5.458706239410396344e-02 4.474023536743318430e-01
5.700998602932084991e-02 6.071980688901329470e-02 4.561688616558199905e-01
7.223312029665565626e-02 3.627498830044664085e-02 4.554162065985377095e-01
6.523137217366377361e-02 1.387761801808480577e-02 5.247286638409377479e-01
1.036763122075492691e-02 2.781608117758777726e-02 4.429703877948608648e-01
1.357368098850842905e-02 2.273459231394089897e-02 4.428622755370167918e-01
4.390124274179997566e-02 -5.315817440413592339e-03 4.477016885153583536e-01
5.507663870522104543e-02 3.587982404149422239e-02 4.503278060243074976e-01
3.874513810281661474e-02 3.501912007060449528e-02 4.474747418660315335e-01
7.633727861977766815e-02 5.715883763421603092e-02 4.527158442339852540e-01
3.227042828007702785e-02 1.375091077076507316e-02 4.450785106429633320e-01
8.942623591182691234e-02 4.162360547771343233e-02 4.965540499636461602e-01
2.580500025025213653e-02 3.825592043569299439e-02 4.457725014743956216e-01
-6.684146555890506554e-03 5.284252968625897939e-02 4.493772958761397263e-01
4.786133186143228663e-02 1.532020001006183935e-02 4.496466347521628215e-01
9.541057483126950955e-02 3.383337277866270421e-02 4.893004887214216780e-01
8.971159295425903957e-02 6.111783934673657021e-02 4.650252861369887358e-01
8.213246949679074704e-02 4.112590512283019473e-02 4.574822743908587008e-01
-3.463021890837601757e-03 3.118503542154782079e-02 4.437168604661908544e-01
8.102047362596752345e-02 8.865832343794686002e-03 4.716791753017954836e-01
9.213969221746494409e-02 3.244963444510903100e-02 4.945472157451152317e-01
4.473947915611591747e-02 6.157979820152459371e-02 4.496033531894190749e-01
6.450963907011650345e-02 -7.154725427129076916e-04 5.111607730010004902e-01
-2.660274846610298592e-03 2.632478423746563781e-02 4.428627370850368172e-01
7.702127325045247941e-02 1.713096878581460078e-02 4.622249744151851192e-01
3.555359482412998040e-02 4.120622769855373374e-02 4.470117655764672682e-01
7.779045048499177994e-02 2.723288620911293659e-03 4.841889906481742778e-01
2.865090348627993486e-02 3.668760324746534601e-02 4.461061345166776326e-01
8.298707852280874653e-02 1.795103913473101651e-02 5.051826213542436328e-01
7.727527036208343969e-02 8.625341578708301676e-03 5.039390386995049598e-01
8.907801930184827688e-02 5.352225663529719402e-02 4.568281793159155724e-01
8.132663108743984348e-02 2.247163271446380936e-02 4.629817841347619312e-01
3.294071016792349954e-02 3.340700224647930733e-02 4.465839970397461611e-01
-1.283214623465701171e-02 4.383614718939300714e-02 4.475110085478846145e-01
8.906646975015521106e-02 4.344078323941647640e-02 4.959751052125604409e-01
7.327525478338539622e-02 4.855658815358934559e-03 5.030640743072468668e-01
5.167994548284582379e-02 5.341173654429495245e-04 4.513603936892494062e-01
7.441419662465492690e-02 6.719670892276811101e-04 4.939383696451762895e-01
6.845945064873480701e-02 2.277138610898701149e-02 4.563891835413333431e-01
-2.093534368823686889e-02 1.764992398657221767e-02 4.460806365369716087e-01
7.677087918737265926e-02 2.317701645888459172e-03 4.763242331425893150e-01
8.973556942842583761e-02 1.687204100791580078e-02 4.768220561420887793e-01
4.132378266719120147e-02 3.627309642441932380e-02 4.478893197237431290e-01
2.906349751958692967e-02 1.914332446613818337e-02 4.449772370793522169e-01
7.055432737154587741e-02 7.483726410858266252e-03 5.116151661445671461e-01
7.802765307677497764e-02 3.917664512192791174e-03 4.750880583857001738e-01
5.480338786653361771e-02 1.281233289957682715e-02 4.524044701917542266e-01
-1.189684549535084505e-02 2.192184614795306130e-02 4.433551208163225010e-01
5.278072195909115638e-02 5.706586659083845436e-02 4.486362904798009144e-01
1.005045593348456445e-01 4.444895815163606850e-02 4.693530360270923296e-01
6.744234152338290933e-02 4.078736293689315395e-04 4.625835440436889545e-01
1.494508277601201696e-02 1.077605729512519546e-02 4.420596219891505529e-01
9.659128801126482325e-03 1.638782185643538128e-02 4.419961889367639563e-01
-4.323911544699072379e-02 1.732611464309137799e-03 4.458175352051135243e-01
6.944167834434834818e-02 4.449959139811654474e-02 4.511308052833727933e-01
7.117669743379974323e-02 5.937923346982713901e-02 4.528601269738098400e-01
6.525750256313189723e-02 3.521113553551098729e-02 4.527379952678797226e-01
7.181528625834340818e-02 2.129688864796968131e-02 4.583916976192294324e-01
9.771234894551247829e-02 2.732359106337699586e-02 4.679625978510271178e-01
9.327044247705154612e-02 2.911638564345715718e-02 4.645861569514779243e-01
5.520164235127820312e-02 -1.081327872532591300e-02 5.245657894565407542e-01
4.634843785582563880e-02 6.388504045009889276e-02 4.549496663648841532e-01
8.090069203885802418e-02 5.129692888076983759e-02 4.530042889149385466e-01
3.588718095993440743e-02 1.177974097073776136e-02 4.457206706044071765e-01
5.665790435532794961e-02 -8.816433879792790959e-03 4.570688905387936818e-01
9.331906220546788699e-02 2.727521565973873435e-02 4.894853374048238615e-01
6.731016985037965861e-02 5.704228928938324256e-02 4.516590294708657249e-01
7.632869867943810338e-02 4.261483776407978818e-02 4.541395872305539205e-01
7.254454943115064280e-02 2.450526026566782808e-03 5.001454404078209404e-01
7.381255105493908508e-02 -1.239837374887840750e-03 4.759669460206253366e-01
5.432222092625041410e-02 -9.157857548738825362e-03 4.556839271060247887e-01
5.954779141326598663e-02 8.879102616357766736e-03 4.546749611344426123e-01
9.862641409172687168e-02 4.426637248373246902e-02 4.838498017307210075e-01
1.973390004326990715e-02 3.518545749389925814e-02 4.446323845298205679e-01
7.124818259511721263e-02 3.616107898867598758e-02 5.151677019298128712e-01
-7.094657822403621639e-04 4.054092823937201218e-02 4.443917520092398044e-01
9.098683885543555616e-02 2.443304017120502894e-02 4.914795723915831305e-01
3.800118700931659488e-02 6.119922394419312350e-02 4.484409874757416259e-01
6.924860150613522392e-02 9.798127876914480491e-03 5.166718455159324819e-01
9.805116308493945498e-02 3.494522960475415080e-02 4.856757431891267629e-01
7.084713008822794700e-02 -5.716761847044495200e-03 4.905013718587306060e-01
6.948755708501556938e-02 6.013223639914792168e-02 4.568632997665486029e-01
3.949407224156929047e-02 6.136867158381378862e-02 4.487200845557240969e-01
9.617660713498119018e-02 5.198243554296673452e-02 4.750869417255095262e-01
-5.505980383510686478e-03 4.310082830093182188e-02 4.454285472124480116e-01
8.258952642436488689e-02 8.139433843934963317e-03 4.809934441124880666e-01
6.030193346647214937e-03 -1.465160589550724285e-03 4.385300442545453925e-01
-5.240420588798406706e-03 5.311570245699559489e-03 4.398164360263233097e-01
9.911498707363340654e-02 4.182450953261820925e-02 4.611962488349437006e-01
-6.617406983776705220e-03 1.859538038706667201e-02 4.418395559347926826e-01
7.706763692818122125e-02 5.649643820098251140e-02 4.524644007316578898e-01
1.455997479599682037e-02 1.854642932572322586e-02 4.427530154616394209e-01
-2.443377358055294490e-02 1.199455028075530234e-02 4.454704083663887926e-01
1.145306249630940066e-03 6.203947452355830332e-03 4.400401523860840713e-01
8.163464292715977288e-02 9.374331495602558628e-03 4.953532989047546575e-01
-4.502986861421924515e-04 1.785867250656711716e-02 4.413540853968633826e-01
-2.331239822637096171e-03 3.165874635653939673e-02 4.436785529129735894e-01
8.534852783151521127e-02 4.322079427160785414e-02 4.566749126832148620e-01
5.583314602998046272e-02 -8.442619975091460865e-03 5.232166546354738434e-01
5.347833464365292500e-02 -9.736182734077451079e-03 5.257295933439053437e-01
3.678052148234724206e-02 4.160266994768350296e-02 4.471459419872243490e-01
1.527398091626637130e-02 3.301970613028564622e-02 4.439552529306343698e-01
3.582759284857993387e-02 -1.324930881450181713e-03 4.441553844148680152e-01
2.533994173377499340e-02 3.545441250848863080e-02 4.454997320903549829e-01
2.517920855976938169e-02 4.697647924856539897e-02 4.457232542227764771e-01
5.337830196829032592e-02 -5.197960642018303705e-03 4.534874822038504893e-01
7.581356329384471293e-02 3.579791968945203462e-02 5.145106528750253982e-01
-3.207836484736467653e-02 9.035973108657570883e-04 4.418581070383722498e-01
9.092474312778819900e-02 2.117251773937141313e-02 4.880839717756348395e-01
5.342895857408085092e-02 3.502567367327846098e-02 4.501760616822642613e-01
6.699127707409337218e-02 -9.175739573002281504e-03 4.717732856849413681e-01
7.186772063698938784e-02 -5.493681436607683426e-04 4.967061739415132293e-01
7.699892135798835913e-02 1.048149881353646444e-02 5.066151342952573966e-01
7.985542250759691818e-02 5.880128469733062607e-02 4.590425591638793157e-01
-2.686085358728846489e-02 6.214681394992019672e-03 4.432723707634063093e-01
7.958470962418062733e-02 4.495940398453412978e-02 4.531607479261828830e-01
9.045088591125770294e-02 5.339765876534655065e-02 4.849960616480306630e-01
4.508860010010252994e-02 2.384639007018814899e-02 4.489697767690518648e-01
5.599902457625274832e-02 3.424305616451645690e-02 4.508740292859696464e-01
1.001753211885775680e-01 4.504448777653511510e-02 4.766069606220164068e-01
8.622670430132989283e-02 1.199198687697988243e-02 4.811136701894281331e-01
6.857756248095783769e-02 1.978828897910498222e-02 4.571840746178454373e-01
9.694440181283492386e-02 2.456209101730966182e-02 4.782765058815485748e-01
7.730358661629289918e-02 3.304949708883400672e-02 5.160170104441172967e-01
7.491395244085136129e-02 3.273970966180030778e-02 5.189016362562162143e-01
9.250315308396860059e-02 1.996510606881428396e-02 4.791119708859238324e-01
2.484768771934276615e-02 -2.868652482773097721e-03 4.404526021030297223e-01
7.533388745486310767e-02 -3.490790602598495967e-04 4.827522617510029423e-01
-4.049400709944585633e-03 4.308607314588080994e-02 4.451166187916433814e-01
7.944921445301666996e-02 1.589105357041441582e-02 5.097184922758876136e-01
8.519585593442807747e-02 4.560567017312863042e-02 4.548138843730429315e-01
7.105250567495663416e-02 -4.978293846640105200e-03 4.910478980112507053e-01
1.053063190252948172e-01 4.047082971858777939e-02 4.754811400795989074e-01
6.497870975343824143e-03 2.897250115670695764e-02 4.428344243745280795e-01
-3.394490403162492113e-03 -2.612703641401775950e-03 4.378019116429628932e-01
-2.661378859431867694e-02 1.273446663159331221e-02 4.472943884855183350e-01
5.138523249854978769e-02 -3.297828180957252699e-03 4.517742039286580247e-01
9.671348928595721595e-02 3.737637770133413889e-02 4.873016784238147214e-01
9.527997984939577669e-02 3.542584558983623289e-02 4.894399515751441387e-01
-1.566349359889295662e-02 3.996449770075546221e-02 4.480121215600397777e-01
4.960368577581727306e-02 1.298005705324528462e-03 4.501941890625518194e-01
-1.101156380369613594e-02 3.156361039996761347e-02 4.448829266883241318e-01
6.187861798661691004e-02 1.829080670296483538e-03 4.570611299593637100e-01
-7.148679548768008263e-03 5.290308555864332157e-02 4.496597361348555477e-01
1.361546948327044954e-02 3.945804252924575012e-02 4.442712986957666477e-01
4.096344857306675330e-02 2.226962088087714592e-02 4.478634836123293606e-01
9.402361778561905969e-02 2.209179871986758845e-02 4.744745706798977336e-01
7.154303133199400866e-02 3.841257182603562137e-02 4.544990389230046945e-01
8.206905876797483679e-02 1.365421788031499425e-02 5.022571234140902341e-01
5.696343934784865032e-02 -7.828027088140511805e-03 4.568184177027785342e-01
3.700335002651480854e-02 6.509733598103126240e-02 4.518448480083424035e-01
9.681856384481409006e-02 4.451438310449352259e-02 4.616891289767449669e-01
8.282379192322643358e-02 4.389174298493490195e-02 4.552040956417540696e-01
2.806605798725025219e-02 -1.691267931217001284e-03 4.413244063095385639e-01
3.282902908474974457e-02 1.565267007359387452e-02 4.453902408605425745e-01
1.229715654616471768e-02 1.623676336510118667e-02 4.423046971677660477e-01
-1.955892036334415732e-02 -1.279262566000421639e-03 4.392707431310894362e-01
2.515370039713381647e-02 6.072823349676850085e-02 4.504518518753649059e-01
5.910239731756433690e-02 3.881777880227668676e-02 4.504561919113720947e-01
9.524544587404812357e-02 5.299148689846252397e-02 4.763944250165585426e-01
1.958880265553845229e-02 4.443095189550493734e-02 4.451590703980369268e-01
9.437598501571460574e-02 2.652947912670460331e-02 4.667958994954904406e-01
6.022744413928354801e-02 5.767464740814561702e-02 4.506553876936093550e-01
8.004474735947481046e-02 1.568570854441318774e-02 4.641536874487254272e-01
9.432796170506577149e-02 3.739923612963885063e-02 4.904505548803934634e-01
6.452947191898818213e-02 1.348574566289906761e-02 5.251882567663380685e-01
-3.361139636476105728e-03 5.297777186376589204e-02 4.481866464548070472e-01
-2.196296158549458991e-02 2.292296778568476273e-02 4.473248211091416793e-01
3.191202717951589080e-02 3.393857909508386783e-02 4.464486051664255939e-01
6.651378377761155147e-02 1.022330142716642220e-03 5.099600052409696271e-01
6.060695931628082289e-02 3.508578993303296950e-02 4.516355900267955970e-01
7.694517117590057853e-02 5.748889930075596483e-03 4.991604363439373637e-01
5.843876441191576260e-02 -8.857913266941630503e-03 4.589543653784846078e-01
7.327779798680418566e-02 -2.381948723392688684e-03 4.771019942935083580e-01
5.161862135094617138e-02 2.092996409086655268e-02 4.509065524660601509e-01
-1.319949075986468108e-02 3.295177387096099447e-02 4.456169431941241488e-01
8.457188911187898950e-02 1.058791956170760176e-02 4.858661819316102415e-01
7.932833638420713762e-02 1.943481926158187323e-02 5.124588551545359305e-01
8.676023563933857319e-02 3.807215197159229125e-02 5.018707038536274201e-01
7.409868744210838798e-02 5.157284067689562983e-03 4.667958308063993034e-01
7.679868287869759391e-02 1.494305306978509391e-02 5.121000885271351777e-01
1.090088286322632855e-01 3.454924472643351036e-02 4.689567859295177832e-01
5.764246698292686127e-02 -4.653556130825738796e-03 5.204257892009210851e-01
8.199917442076784524e-02 5.627815596138367737e-02 4.844538176231862336e-01
9.117144565120159638e-02 4.319330287128805845e-02 4.932870761749743593e-01
-1.828563334069783358e-02 2.281521921869929248e-02 4.457265005607249364e-01
3.723098683361294320e-02 6.075058571040287125e-02 4.483215909384264952e-01
-7.596748337088923136e-03 6.199033123192858319e-03 4.398929802037986891e-01
9.498624430192480206e-02 2.270842622407562295e-02 4.810535990415191199e-01
-4.545995041392405719e-03 7.372429307949747088e-03 4.400568800388030000e-01
7.245020193405456166e-02 2.712288857589882293e-02 5.241728751752975368e-01
9.799218211617281848e-02 2.398569502283390970e-02 4.727349187034873279e-01
1.053772622536733317e-01 3.331082540607886722e-02 4.777449140772464520e-01
4.521366061741501075e-02 3.649393812339757348e-02 4.485491754543200482e-01
3.795125615410731811e-03 4.236876434862349439e-02 4.443296160412509854e-01
4.931409326184488587e-03 1.382813767378106642e-02 4.412479074098932808e-01
3.247299701440698599e-02 8.456670198880179151e-03 4.445597110083852610e-01
-2.951802033626304070e-02 8.523216582847650477e-03 4.476704267693558115e-01
9.904703492835710554e-02 4.568917391272539485e-02 4.667866926877906053e-01
7.147756600994971399e-02 5.568663503086151989e-02 4.511242566931761289e-01
9.400817575444435359e-02 4.966487023070131901e-02 4.864572764814663053e-01
2.495544210791069556e-02 3.653174038836228682e-02 4.455163008525695467e-01
8.387541819300536883e-02 4.568032970493592082e-02 4.542534649245563161e-01
9.716624800868302325e-02 4.639067743011036221e-02 4.631660521770841754e-01
-2.535401431012156842e-02 6.426071330042682633e-03 4.429912970296812635e-01
-7.422525864479814252e-03 4.865712065643957619e-03 4.397516672251750025e-01
8.264373595066971945e-02 8.242286246366881466e-03 4.793285191861789141e-01
8.207369272030680396e-02 1.632492696934982612e-02 4.656440200594458845e-01
-1.629945867062089493e-03 -4.980900178554095031e-04 4.384158853420456747e-01
4.694607734358485079e-02 2.615540354039365065e-02 4.495444699253512977e-01
7.629251977927149764e-02 2.130504432655381739e-02 4.607386139810941694e-01
1.510916059760642610e-02 4.947988002024703708e-02 4.453878379455828429e-01
3.559742017166953043e-02 2.920193023942509528e-02 4.468053764982110598e-01
7.689396886222249483e-02 1.650659712795554636e-03 4.840956646351346482e-01
-9.866199050131621920e-03 4.462357813066598552e-03 4.396994749986810058e-01
9.556739832041176441e-02 4.080985716444292255e-02 4.883232481889768217e-01
1.152372838699209159e-02 -5.691910232633484203e-04 4.390763859015024972e-01
1.071241922780513667e-01 3.400274160849957317e-02 4.682307215848195980e-01
5.348753010750356696e-02 4.585725619530345992e-02 4.487498433393595221e-01
8.799654843867679710e-02 2.330750262537705647e-02 4.963086885935359405e-01
9.853894267912620408e-02 4.352639863724814401e-02 4.840669535886335528e-01
3.794551680031112151e-02 5.063673925608896259e-03 4.454800215764420090e-01
-1.104969072257577269e-02 1.038637119437190413e-02 4.408377054137673223e-01
6.801451351301009141e-02 3.470305157898240234e-02 5.202286652369176867e-01
-2.039224111924803698e-02 8.852395852776088342e-04 4.398601583121096170e-01
1.800451273977623362e-02 2.976191229288333712e-02 4.438769108060334756e-01
6.388063653568573641e-02 4.377227648857903025e-02 4.503671515854922314e-01
-3.224751649286689177e-03 3.671315015972174967e-02 4.442930820313322759e-01
7.186492002280885083e-02 2.190864478195014842e-02 4.581355796717421214e-01
9.769549145196151918e-02 4.367751242652229138e-02 4.850996366478887434e-01
8.274386850139262700e-03 5.780579230538940294e-02 4.530354426202154450e-01
-3.700355081933325713e-02 4.426546757918705180e-03 4.474067309602213216e-01
6.767154742827247160e-02 -7.421854302304983428e-03 4.708804029291930870e-01
-2.942959615330987752e-04 4.154108261760398185e-03 4.396665316559841274e-01
-1.326486850302754407e-02 2.318995400365857912e-02 4.438732891723687901e-01
6.722591696784005477e-02 4.058118476884153836e-02 4.517776816439715848e-01
6.342814037378091685e-02 4.852602409806469619e-02 4.493375096994465800e-01
9.050058846425296233e-02 2.060462637294057861e-02 4.705013017799740682e-01
8.794084064115921529e-02 2.612000806812466228e-02 4.991464819673776532e-01
7.154271810232194773e-02 -3.896799700870804371e-03 4.746995334430492153e-01
5.066839487702706757e-02 3.790377354572342650e-02 4.492299333303015896e-01
3.778762600852450526e-02 -2.206207537558374510e-03 4.447910166449255409e-01
8.629545448438626087e-02 4.263161607205779441e-02 4.994963038295135993e-01
6.346891402733405296e-02 -6.640221609503099871e-03 5.100706426168077900e-01
6.874619748670707242e-02 2.105858626774644027e-02 5.255367850687515663e-01
1.018538523006796287e-01 2.774584214397767673e-02 4.781736840309905867e-01
4.033648682329520063e-02 -1.278030146045405248e-03 4.460627057600231593e-01
9.682234832397682012e-02 3.588650822628111636e-02 4.628280490073352627e-01
9.512272164265148100e-02 4.321315381646686354e-02 4.881619981950477416e-01
6.782640974215609075e-02 3.561305954231340498e-03 5.108295199626794458e-01
6.749782450601556072e-02 7.428140865558034711e-03 5.163453078215737291e-01
3.441740142425638027e-02 2.334329015526586878e-02 4.463764417397019235e-01
9.500816486773490388e-02 3.971516911523503141e-02 4.892193309056965811e-01
4.269011644580793935e-02 1.647506124193615085e-02 4.479776244400157648e-01
4.013916758406838731e-02 6.234839401991165708e-02 4.494473368548657088e-01
7.650705426767037687e-02 5.940093343444204782e-02 4.606772498835718377e-01
-1.253556860350709193e-02 1.452156661684926575e-02 4.419956724520106017e-01
-7.158463701992380350e-03 5.143922299906578816e-02 4.483955419067253145e-01
9.240059768149812974e-03 -1.237539314178702325e-03 4.387721744691164827e-01
8.800859527815686756e-02 3.695762980225663491e-02 4.619966072859374995e-01
9.158431112884726777e-02 3.153200783266108670e-02 4.631243901717557732e-01
3.073850199822261015e-02 6.274417049744272779e-02 4.510559931293326441e-01
7.867416553821633685e-02 3.324252216887646494e-02 4.594819870092621827e-01
6.724935660419269212e-02 -6.027149274110819854e-03 5.022381485668231393e-01
1.353228216102383454e-02 1.233657338348438442e-03 4.396628745775371661e-01
6.632366359969729674e-02 -8.364626431980026408e-03 4.695965231742036394e-01
-1.413535970369018914e-04 1.552813627980057648e-02 4.411117551885466725e-01
8.569003849076414769e-02 1.179995557352839577e-02 4.844611177240963351e-01
5.611723946793348294e-02 9.046932394183273413e-03 4.530510067705148525e-01
5.929164207181659985e-02 -9.097346787878648686e-03 4.602589510282885654e-01
5.032910342238063744e-02 -1.117871119303748273e-02 5.289043164525095708e-01
4.692704303140520644e-02 4.863774799978224511e-02 4.479791110031632329e-01
9.321766068705460151e-02 5.792204082492927175e-02 4.667872138070220944e-01
7.588196583422354702e-02 3.016183602561140278e-02 5.205371106062758324e-01
-2.051783182708872069e-02 3.882944925493462401e-02 4.504923246337185772e-01
2.806024276451271962e-02 -3.227804562973036594e-03 4.410730410739489571e-01
6.804985659073661819e-02 3.459815271424322713e-02 5.206030594043781212e-01
8.152919965984477269e-02 8.105755122891203368e-03 4.914442419626906533e-01
8.246332757644471434e-02 2.675880232149421487e-02 5.108744433773353411e-01
2.553877301848425999e-03 2.879939749575814029e-02 4.429565338144023090e-01
7.768886630901640500e-02 2.960326053734520235e-02 5.180886080122020232e-01
2.812271063630362652e-02 1.866978909051964300e-02 4.447350316590474861e-01
3.664492692142594377e-02 5.796148534808824582e-02 4.474257363275048194e-01
8.017148063031986904e-02 1.098513251477965108e-02 4.683567047017711538e-01
1.059604814890139912e-01 3.657596354894793178e-02 4.659207908581389224e-01
2.430555735451024602e-02 1.097408137065217920e-02 4.434089688520712613e-01
-1.067160951621641714e-02 1.917607666685949494e-03 4.389801484363447526e-01
1.360243323479221403e-02 1.145263773508453133e-03 4.396436283364764108e-01
5.212194178611560813e-02 -1.374700793268060842e-02 5.280286885422529330e-01
4.732058838594543210e-02 1.207505407338367413e-02 4.494038579696542635e-01
2.695014263137494523e-02 2.537111928493817475e-02 4.449595169251917004e-01
7.079167643322621661e-02 -2.301540451867247969e-03 4.702079767543213551e-01
6.995666255491744812e-02 -7.777367453108844156e-03 4.924165066506976385e-01
5.831635894806538878e-02 4.262502931912425658e-02 4.495326078835785166e-01
3.508608315250879434e-02 3.111302571776818418e-02 4.467895805419878630e-01
-1.049242576857837249e-02 1.465591861120571493e-02 4.415653056372458862e-01
-2.864425516998609592e-03 4.412391665937560881e-02 4.450307947889652338e-01
2.758721216666074408e-02 5.956914358554139810e-02 4.488038554247649192e-01
-4.347907122421550141e-02 1.595827603120228855e-03 4.437183936716740384e-01
1.896616327937234586e-02 5.299536254157841131e-02 4.465263021326810189e-01
1.811822642685044851e-02 4.447652098440468826e-02 4.450131526870498289e-01
9.865507807763818082e-02 3.227286192111003538e-02 4.643773855333514500e-01
7.432772882888706578e-02 6.721003398989455757e-03 5.046573949369883572e-01
4.359300698419410480e-02 -8.302062114526356090e-03 4.478027415442979442e-01
6.883842185869061547e-02 1.702626438214119298e-02 5.232013229887263472e-01
8.025929638011956857e-02 4.862915733756989489e-02 4.980598746880269267e-01
5.407019549925626972e-02 -5.691613347633978776e-03 5.239417134662269770e-01
1.009955904196779969e-01 4.405623082332337653e-02 4.704208406337361259e-01
5.748873087083829214e-02 -4.827582927743575072e-03 4.560033107383832385e-01
7.497681403027484093e-02 2.114141320131763396e-02 5.191313798845615946e-01
-2.132656704025932132e-02 2.088385049927707349e-02 4.467348276960532161e-01
-3.267299314595280973e-02 2.843240770370664746e-04 4.413612200525558471e-01
4.609633595962765729e-02 6.349257784617029499e-02 4.537212717533275486e-01
5.536487115025114092e-02 -1.101580460853280978e-02 4.572539151068785723e-01
-2.515077443544950012e-03 4.996334533297016635e-03 4.397640720286550842e-01
3.134799946324858672e-02 2.423651139830529377e-02 4.457624171688044923e-01
9.428236382966145857e-02 3.392773207113198436e-02 4.907715577911255234e-01
2.195810981254278996e-02 6.569878532357518661e-03 4.422450072139108568e-01
4.997033832959243277e-02 3.327397709652728242e-02 4.496330904020575669e-01
8.727232119232777863e-02 1.398190372490462283e-02 4.741301978450889743e-01
4.465257245962232086e-02 5.881618070592978254e-02 4.480766224479462712e-01
1.919449991151337548e-02 1.839562984355685993e-02 4.433814875886217255e-01
4.939694627271582622e-02 1.711583226256130005e-02 4.502064501749339365e-01
9.374186391045380429e-02 5.522409064833147530e-02 4.725393212821335509e-01
8.054789378346283168e-02 4.290754861085842309e-02 4.553460142632163032e-01
2.050204975280651640e-02 4.029098249505231460e-02 4.451858966758340808e-01
9.348415933116437093e-02 2.971176345181469891e-02 4.909287729719439830e-01
7.706524968881932336e-02 8.523062004804925207e-03 5.040482546336493286e-01
5.868322698393304421e-02 5.750893547883310919e-02 4.498512541308218315e-01
7.736809953226130021e-02 5.743577148119466055e-03 4.982100926127732698e-01
9.430418237210093368e-02 5.306498486782534885e-02 4.781422228577673073e-01
3.821626552965438212e-02 5.806074497766385012e-02 4.475788379100040792e-01
1.784948108809508369e-02 1.811184786653844900e-02 4.431533595498480804e-01
7.946732696239769411e-02 5.880789004873597514e-02 4.586774441371314071e-01
7.775156757152294762e-02 3.802368631355450106e-03 4.742504985412129281e-01
3.948885067606103250e-02 8.122111394158190029e-03 4.460995712535787416e-01
8.726035038112377185e-02 5.496279723784208010e-02 4.834329322629747905e-01
1.045314455582199292e-01 3.008024646055460632e-02 4.705285102198635827e-01
9.762200240402421625e-02 3.001754354137882094e-02 4.658625251754171526e-01
7.834434971787263002e-02 9.625226574418775313e-03 4.677186315948471118e-01
7.427154852365462114e-03 3.262631459619413227e-02 4.432673340815486140e-01
8.247247380361771851e-02 2.188441621313708813e-02 5.101014313383067655e-01
9.163017339275103534e-03 -1.276578470916066126e-03 4.387575826901739529e-01
4.631643918665940586e-03 3.270061625365597302e-02 4.433793667921713810e-01
8.379123247482589409e-02 1.731957821037131973e-02 4.665978276801202029e-01
9.736124926092150356e-02 2.721360239988421942e-02 4.678665493022785005e-01
-7.627114086084293282e-04 4.340160666887172419e-02 4.446726980839009191e-01
9.581647727238440382e-02 4.181893146070446432e-02 4.598944147850024255e-01
5.652822486682199804e-02 1.215653960790915103e-02 4.531453946614208972e-01
7.765554345113090395e-02 2.784307326348113912e-02 4.587366527106238601e-01
8.423746798291406601e-02 4.956703607616783774e-02 4.952528550605977964e-01
9.788660544943955655e-03 1.168978094587052631e-02 4.415746536528515342e-01
5.698716655325094388e-02 -7.243738154396908019e-03 4.565803863627079240e-01
7.588108684353410405e-02 5.977572746956542199e-04 4.815573151412160802e-01
6.723362261765164494e-02 1.748025887728329314e-02 5.252428995419758939e-01
6.669750609536706509e-02 2.250568067718408671e-02 4.559013001336817417e-01
7.782301991652099127e-02 2.742720436580150037e-02 5.178605758419542182e-01
1.491058681274352871e-03 4.389667426798957856e-02 4.445863766736666278e-01
7.539767155339961724e-02 5.926976729113165449e-02 4.568322803135954069e-01
6.523371868001864859e-02 5.583755318367084053e-02 4.500612105771077398e-01
7.256570442191780101e-02 1.821595844789261967e-02 4.596601020143696315e-01
8.195059675738516902e-02 1.825568996925830065e-02 4.643431400817917276e-01
9.485432566204017590e-02 2.263341834613034204e-02 4.748145865111381703e-01
9.652107143661235733e-02 2.403293715765037614e-02 4.788720355232345960e-01
1.154757926028168171e-03 7.834857665379163852e-03 4.401936834635392093e-01
5.344285742425863850e-02 1.677574287897503486e-02 4.516161992221744970e-01
8.662960435404816473e-02 4.864537879092425271e-02 4.548082388291437850e-01
4.643601734332305359e-02 6.272595393661779817e-02 4.519141523821497697e-01
8.088066972942549449e-02 1.388489891829091175e-02 5.047550114962684464e-01
9.405177809113159093e-02 2.212183592410710969e-02 4.763061138838890485e-01
-8.950468077231051034e-03 1.654916797365961825e-02 4.417304812681369097e-01
6.673073609186896959e-02 5.199901533347332100e-02 4.495265484805873735e-01
-1.207929306484079382e-03 -2.571281961175817671e-03 4.379048518160021386e-01
4.067177115026961165e-02 -5.563405367174699065e-03 4.461855093242095838e-01
7.991406347998376847e-02 5.275355733285963002e-03 4.831672963912885255e-01
6.277227703450906360e-02 -7.362348266640421010e-03 4.633529770182524543e-01
9.073786011785830996e-02 1.967685397976604370e-02 4.718740653003338781e-01
-6.860151061803692468e-03 2.823085303502540638e-02 4.437867403059493343e-01
4.720158942705879324e-02 6.003591452763847036e-02 4.491046769234566804e-01
6.893656035691723971e-02 -3.748289219082788504e-03 4.993447959819871662e-01
8.923382318638597988e-02 3.369672032319581678e-02 4.995914185581762368e-01
7.409481774415456468e-02 4.367872236000001906e-02 4.525446963854159454e-01
9.681049439421016145e-02 5.067561127393591797e-02 4.761103937287250454e-01
8.561461969892621149e-02 2.039232445824634352e-02 5.017142612171817673e-01
6.768939977545165854e-02 1.033404181173705298e-02 5.192055602548101279e-01
7.683331082803097900e-02 2.667186027302093088e-03 4.751416611913638066e-01
-5.141110998950700756e-03 2.978522817847982854e-02 4.437935492818718686e-01
1.953301063634984083e-02 3.878871049412228184e-02 4.449747769020276911e-01
8.328297342025710315e-02 9.979921983433713908e-03 4.895465047359782718e-01
4.865066919396081324e-02 1.235174464767719010e-03 4.497718901276868686e-01
8.042291020614447672e-02 3.534157001335809511e-02 5.114566262997864987e-01
-5.030104137037469565e-03 2.639680096170055057e-02 4.431546489672705813e-01
-6.353065685137311222e-03 2.407029453750870410e-03 4.391128324513280390e-01
1.049883441022001623e-01 3.802977825383411364e-02 4.779320806094333185e-01
1.030872728866551874e-01 4.116440188544985557e-02 4.674739350956531037e-01
8.524861119787290054e-02 1.885440802883442402e-02 5.006028229391968898e-01
7.013103114799083826e-02 -1.854134670308904640e-03 4.684332180826211722e-01
7.077332894434675004e-02 2.259435428207180047e-02 4.572410616736883315e-01
-1.974650797378756442e-03 3.590048050756001335e-02 4.440933550214139491e-01
3.375846279774027264e-02 4.348671799302216562e-02 4.466868654208517309e-01
4.205447887038276517e-02 1.488364327597375275e-02 4.476817831649075874e-01
4.609362273503186253e-02 1.962011691975936584e-02 4.491480473036478238e-01
2.816624700705409184e-02 6.187194645507034657e-02 4.511274366190198282e-01
6.446111702376108865e-02 5.621927560884986547e-03 5.188254512994310286e-01
8.155107621851127864e-02 4.705664808324019899e-02 4.997491047671014375e-01
6.354221104520040020e-02 -3.496019922570110100e-03 4.612321180336622084e-01
5.729135790935077632e-02 6.028921974888802604e-02 4.553151237520657868e-01
1.086066025847407940e-01 3.474572512551070413e-02 4.745485229746830291e-01
3.333467560007739861e-02 5.012897841432402586e-03 4.440285309895224963e-01
7.638272845999732885e-02 5.075470975177629601e-02 4.515615487245902560e-01
-2.639281458755943915e-02 -5.745977022040020185e-04 4.401500908785135335e-01
6.363589942333648664e-02 8.136395736007160859e-04 4.586349574037701382e-01
8.494230695359000771e-02 2.641386970936340089e-02 5.067198478725695177e-01
7.736222803696321537e-02 2.516807655001784393e-03 4.811877063437611235e-01
8.943984049195148611e-02 5.338576845736631160e-02 4.866057105561416019e-01
9.285701576371538368e-02 2.339360435081459452e-02 4.690713147241541980e-01
7.785327346307525931e-02 2.617379578757556349e-02 4.594756232967939780e-01
8.082938910538284283e-02 1.167686146394343247e-02 4.683979425957787712e-01
8.838531424816849225e-02 5.383912425300634713e-02 4.567367976864326051e-01
8.793277691432639653e-02 5.095758976260837680e-02 4.918650890583588509e-01
8.059046492497792813e-02 8.033308951441657519e-03 4.956878335522721390e-01
6.606813313250947672e-02 7.690553800463279140e-03 5.188073399796315766e-01
-3.086972910644016771e-02 6.296594445311227972e-03 4.460834686360318768e-01
9.957997746121606542e-02 4.431372583433777768e-02 4.819934231044816220e-01
7.668047498970291531e-02 2.263201318959826708e-02 5.180631854619108800e-01
1.055438128781147900e-01 3.633556478655017297e-02 4.778789776623976748e-01
-2.627506718167134034e-02 4.789674321211561531e-03 4.424275491670403571e-01
8.888233544403432995e-02 5.484419877572060259e-02 4.805029838213513704e-01
6.024585094643188782e-02 5.883200955973971746e-02 4.532809727819343548e-01
8.383710886692424813e-02 2.420429037243925635e-02 5.083937562645400865e-01
5.403592582123797200e-02 4.860762647935459868e-03 4.521271782218260205e-01
5.504292702074788102e-02 5.338632624999519426e-03 4.525935559036445288e-01
-1.584613851010404197e-03 3.030852956172606222e-02 4.434022145515097990e-01
1.010461180179214775e-02 2.236553372472410012e-02 4.424662870859053521e-01
8.430901394003992300e-02 2.935657435059247505e-02 5.082836234208634174e-01
3.875040029150236820e-02 4.159153866652919029e-02 4.473965794391449036e-01
3.777060350337670125e-02 3.875495517965178716e-02 4.474286196685057226e-01
9.175529287810314794e-02 2.618403721985564786e-02 4.914572190845866162e-01
5.883594642521262907e-02 4.157318154617355155e-02 4.497182291140550126e-01
8.112395214656403786e-02 2.201978956283075217e-02 5.119763705680199228e-01
-1.507961909116069775e-02 3.033618087659178952e-02 4.456404957772310271e-01
-4.065302618213985364e-02 2.744052848271590420e-03 4.445416112389807273e-01
7.738911759926575540e-02 3.673573171552248218e-02 5.121115278354410050e-01
9.268758791503668715e-02 2.232537321759656135e-02 4.855569631308870870e-01
3.341318438264984005e-03 3.858978272476411980e-02 4.439603322607569846e-01
4.979225741927206794e-02 6.163382178129987038e-02 4.518403916872267279e-01
5.986980640213752231e-02 2.503933513477372974e-02 4.534164946466244239e-01
7.499052875678914598e-02 5.979072870341138775e-03 4.670857689111676536e-01
5.480205210135825900e-02 1.192024223647605331e-02 4.524263505230689542e-01
7.502843979983996048e-02 3.611100446928875319e-03 4.695276234634536139e-01
-4.379221561329788709e-02 1.428046866107771746e-03 4.442233717965060613e-01
-1.918299126592147227e-02 2.523741919824462956e-02 4.462583307357607110e-01
9.024376638057722555e-02 1.869719360765370250e-02 4.861838807914413696e-01
-1.965434821280566055e-02 2.065744770723738910e-02 4.460960028043349790e-01
8.359638701079434575e-02 3.655631895783076346e-02 4.614616737891145681e-01
8.114635015616315783e-02 6.777198562305074801e-03 4.770904809135714797e-01
7.286827959406984301e-02 2.570252861468270283e-02 5.233735587994806648e-01
5.644077056638661938e-02 1.493556067387411153e-02 4.530204961815836318e-01
9.076634037609494776e-02 1.763961647846623917e-02 4.822946796424803506e-01
2.541865771746715588e-02 8.762788028949117930e-03 4.432861593466999595e-01
2.998851627008311885e-02 -5.031904541393456345e-03 4.413102733164770419e-01
8.700113209331912512e-02 2.373094409345586145e-02 5.002231277158374345e-01
4.889830409095828612e-02 1.654528364641880828e-02 4.500234032899464443e-01
6.970480727358099871e-02 1.012270343574908464e-02 5.163931750260525311e-01
6.700865139473628773e-02 -4.627016563195382112e-03 4.668279970818954294e-01
-1.952148755102076083e-02 3.043903810971240395e-02 4.475940747322517677e-01
9.040449509343365109e-02 5.390590747328505988e-02 4.822775874805398932e-01
7.389811298093895697e-02 2.620690555941550259e-02 5.225269947891805211e-01
8.273653661592081376e-02 2.141035137812636810e-02 4.638824582905274330e-01
1.072823254612290805e-01 3.446339514326490772e-02 4.763322499900666251e-01
3.320862458069787776e-02 1.187583511561250346e-02 4.451258775835727488e-01
1.425560701422187194e-02 1.947372828725350141e-02 4.427865797059230002e-01
7.308915594933851345e-02 4.401580632517338582e-02 4.519059526292359408e-01
