9.616431336581462985e-02 4.398075604339615058e-02 4.609522228317137760e-01
9.271830456289605060e-02 5.669284555112111962e-02 4.629518371442504776e-01
6.527143883110327061e-02 2.689669776364924519e-02 4.546952992612284805e-01
-1.110347142181565203e-02 3.857061266485461992e-02 4.461083727291229040e-01
1.554953134152943332e-02 5.164391885687867612e-02 4.459663649019010023e-01
6.917917235293785660e-02 2.187372770092460561e-02 5.252641947700268377e-01
5.803294068566040853e-02 1.681981062837130739e-02 4.534397444909961106e-01
6.691277684486290900e-02 -2.788919522011932758e-03 4.650796776732504800e-01
6.445178998425069028e-02 -4.614041551644217434e-03 5.090749264890187531e-01
3.163286496297412764e-02 3.182429531187649929e-02 4.462395204092596268e-01
7.355476593410370523e-02 9.379039712244657823e-03 5.097823044073921395e-01
8.190292649462553587e-02 2.372320271537734643e-02 4.626119594548226965e-01
-2.016411861643812448e-02 1.298248056715476176e-02 4.443446245692576624e-01
6.942501408170552446e-02 3.688736751215611169e-04 5.032550512639644147e-01
4.897009968381441092e-02 1.754463171397218496e-02 4.500317360365353458e-01
7.133417191156621318e-02 2.714877335346151544e-03 5.027853705882637803e-01
9.402066210735024465e-02 2.307650307884594187e-02 4.699665538887327632e-01
6.963845191676264895e-03 4.065783408761903563e-03 4.400062789105908534e-01
7.236693596812712737e-02 1.002892958273268048e-02 5.122256411482198901e-01
4.700699782059204745e-02 -7.691705653690102118e-03 5.296888921953345486e-01
5.195165059592209839e-02 -6.869756281533422743e-03 4.529498239624184519e-01
3.801893906469434176e-02 8.818996006694414941e-03 4.457466092747317532e-01
6.258106838712078346e-02 8.785136267481388414e-03 5.235656961781163243e-01
7.469747491836072062e-02 -6.139392137493779843e-04 4.784045225856963790e-01
1.044185538072322367e-01 3.422079371766109657e-02 4.664035132446222032e-01
9.279611316460155412e-02 5.578316379441644601e-02 4.739205160158528884e-01
-2.199539677578449606e-02 2.397794800263794435e-02 4.475055727591801813e-01
7.257319852297505758e-02 2.140158301557156667e-02 4.586928891323658330e-01
7.814700001941397856e-02 3.600576977334211948e-02 5.122152819678885693e-01
2.816780730965858653e-02 -3.632220954540185849e-03 4.410239121274803775e-01
9.326276116676317229e-02 5.401155650920393125e-02 4.765552051716507864e-01
7.277325875108174580e-02 1.430284414822416590e-02 4.606841474988935259e-01
6.388998389440220249e-02 -4.386635839823622811e-03 5.102059631872242207e-01
1.745600983094917208e-02 2.641915050696333131e-02 4.435161254651752705e-01
2.277486080182039921e-02 -4.496066609833981875e-03 4.398031430779664741e-01
3.508140539399934310e-02 2.690640549428969120e-03 4.442612077989919195e-01
-1.929398454560128651e-02 -1.362280139926657502e-03 4.391925614994242610e-01
7.536790977577491335e-02 3.006658014791199415e-02 4.577720243494504682e-01
-2.251352242978139646e-03 4.708077444013107279e-03 4.397049186396078113e-01
7.489323940237266330e-02 3.950183308341324168e-02 4.552294932840978969e-01
8.159595599269883759e-02 3.218813092289316696e-02 5.119551053652435790e-01
7.794490442892375304e-02 3.625102034877350412e-03 4.764913919833105860e-01
2.361680000332201657e-02 4.661147644597991163e-02 4.455781635430483001e-01
1.022218475596113341e-01 4.239642009274672413e-02 4.770034560536065005e-01
8.486903176497567758e-02 2.626143389449714372e-02 5.065548805355559736e-01
3.169401614393923400e-02 4.115723596984997845e-02 4.465232077525651544e-01
7.890809314075321323e-02 8.746103000524663509e-03 5.006879675810838037e-01
8.485942698898310543e-02 3.382992314789329269e-02 5.068194113544773893e-01
8.682106317141351226e-02 1.970080796354134814e-02 4.678916708177506822e-01
4.455474813462129147e-02 6.414283249611485438e-02 4.544260325095745845e-01
3.991081064021919506e-02 -7.727660035578455024e-03 4.455849890790479217e-01
7.015989462423229128e-02 -8.309102118332710452e-03 4.818694437881443915e-01
9.088738522652886620e-02 5.600634448064668175e-02 4.751083683158989213e-01
-1.485865992453202014e-02 1.127495091092207968e-02 4.416896912987560153e-01
1.010992548643202399e-01 3.410225448288382172e-02 4.642438250188483662e-01
3.264041865010630910e-03 5.270468465730566293e-02 4.470065239006352775e-01
5.476978610932740216e-02 3.691288525162453316e-02 4.499524675501929138e-01
1.826947278853350773e-02 6.008317096447127192e-02 4.522574534448906003e-01
9.254371619181567254e-02 3.421059723270235969e-02 4.931404992964979472e-01
5.757962802106881411e-02 4.627604901057594255e-02 4.489837899803061361e-01
1.027495954093367858e-01 4.234829664609478239e-02 4.753737971444016441e-01
6.902474701927446832e-02 3.726294390170538373e-02 4.533563314749072815e-01
1.830513868392909249e-02 5.687308122525659010e-02 4.479075706078646801e-01
7.174452182951984724e-02 1.156377005512926326e-02 5.149578277953296146e-01
1.011163608975471639e-01 3.832628155551902338e-02 4.816534096791958430e-01
-3.815035568168686358e-02 3.288482374473725156e-03 4.456504596488037873e-01
3.817294024097141192e-02 1.857843184987704663e-02 4.469422353592615860e-01
8.278247006891689685e-02 1.442887837211536024e-02 5.013330944171159320e-01
8.522195617236570653e-02 1.096664098113335310e-02 4.818817308631123675e-01
7.140885363602642033e-02 3.815906905124788473e-02 4.544400942566897417e-01
5.797141162081232563e-02 1.128496651291079067e-02 4.537405584802615133e-01
8.420281540181497049e-02 4.915715799594870539e-02 4.538905551008401984e-01
9.888632561763276152e-02 3.414668771373552403e-02 4.839676806661327157e-01
9.289508428602151480e-02 2.258905146085436744e-02 4.849927163685200382e-01
8.537803177739215765e-02 1.537077652411137155e-02 4.942169157043117544e-01
5.030710940675112153e-02 -6.703395448920955978e-03 4.517951966166007804e-01
5.638395996572098667e-02 -7.961828755337945623e-03 4.565199211354018516e-01
6.497707375235557692e-02 5.820130524028586244e-02 4.530119444881812174e-01
4.506479931269427586e-02 7.574021786625152394e-03 4.480146865455255090e-01
-2.246476772027052732e-02 4.256551163401603791e-03 4.412376481066773715e-01
-1.446019298888526899e-02 3.061770473212884619e-02 4.454099397456368625e-01
-1.394724992517861611e-02 4.086827479224198340e-02 4.473403289080836176e-01
1.026303584656567125e-01 2.817359325273679355e-02 4.771353383085810695e-01
9.086734550833336366e-02 2.971050887760065193e-02 4.952987512007040460e-01
4.657729507511310790e-02 4.203216686183069983e-02 4.483113607499526476e-01
-4.484334407488633524e-03 3.463342820991573145e-02 4.442610791385975810e-01
8.048833110595722540e-02 3.021238086669138234e-02 5.138993930854931502e-01
7.731623035809116751e-02 2.800755278660058134e-02 5.183586883765033404e-01
1.953279906593869547e-02 2.990304369816081109e-02 4.441172222153927929e-01
4.245743135498019488e-02 5.260871312734197343e-03 4.468921664968010243e-01
8.960957211914169496e-02 1.855549687993792579e-02 4.871967546077021205e-01
6.179956725552156194e-02 5.069454500713792972e-02 4.488941906299753759e-01
7.757109210216264761e-02 2.645613634876647913e-02 5.179503733213519645e-01
5.165287585163751832e-02 5.470791473354186252e-02 4.478783078983544774e-01
8.265623395439709864e-02 4.317210401141102077e-02 4.556062568325057183e-01
4.293315636903247134e-02 2.634319310620358498e-02 4.484365518890356395e-01
8.558766660204894516e-02 3.880450999803127660e-02 5.023749810103206315e-01
-8.675079978217694818e-03 4.096131305689684060e-02 4.458573651179927322e-01
5.984196281235128895e-02 5.324852688054260846e-02 4.484713619503971627e-01
-1.680403558328317712e-02 2.603022498440983948e-02 4.454275609968453842e-01
1.031350494684334929e-01 4.078886949644952575e-02 4.667353663232332583e-01
1.593987933105659241e-02 5.665649464433683558e-02 4.485939884929201482e-01
8.886206874944137246e-02 2.415478120933891443e-02 4.658342514533431178e-01
8.441302132310441603e-04 1.850863965512783080e-02 4.415035168379884967e-01
7.676718170962656962e-02 5.896871095450232497e-03 4.994882510092082395e-01
7.392442069023683060e-02 2.419815758984536144e-02 5.214197547372950714e-01
7.362693664402782112e-02 5.847578297051851670e-02 4.528098891965265937e-01
8.721491016864738044e-02 4.219415957974690518e-02 4.985391199259235351e-01
-2.478569547849196128e-02 7.543577270048174022e-03 4.434240179641406043e-01
1.726673470209571723e-02 5.297118678273704528e-02 4.465104430080371611e-01
7.509385843332551380e-02 1.009989577748809063e-03 4.923091811822454256e-01
7.521208415732735797e-02 3.218152628479346855e-02 4.578305626164084208e-01
4.750506860635596296e-02 3.814394567612290100e-04 4.492988864124338733e-01
6.618496358637415700e-02 4.733897881203834312e-02 4.498395026119170748e-01
1.388694351138985636e-02 3.243175683910299451e-02 4.437480274677226277e-01
8.963395810513730133e-02 1.818798812517186461e-02 4.866299401913571354e-01
6.883219198617189505e-02 1.031172918339691089e-02 4.595776442495737579e-01
9.666674435409835023e-04 1.544349435699572844e-02 4.411636276176365001e-01
6.991309905252215962e-02 -8.514599457780398090e-03 4.808213604234901073e-01
3.798678580133796334e-02 1.848901337135558029e-02 4.468887903897831859e-01
3.676503357693559904e-02 3.675348027111453170e-02 4.472531383666704108e-01
5.655963562004107104e-02 -4.007170426786312023e-03 4.551780050330397343e-01
3.933260825790448750e-02 3.731032214818141152e-02 4.475710401887262879e-01
2.230821604443797984e-02 5.964889976470203609e-02 4.494433947330486179e-01
4.118986163253963301e-02 5.587635921554601204e-02 4.474032724989644993e-01
-6.048823939231390626e-04 9.748608116174994724e-04 4.388223176283903570e-01
1.200453841123166540e-02 3.220667024081605434e-02 4.435322429946300660e-01
9.595546524751685791e-02 3.971642812801963462e-02 4.876070816708385491e-01
9.401773202764019538e-03 5.361124910516701370e-02 4.471114616268657693e-01
9.189650320730573252e-02 2.025445151819858097e-02 4.838282774868729597e-01
-2.196847396935308616e-02 1.380691665192664182e-02 4.453755426723611244e-01
8.072612727338750183e-02 4.936570289317520482e-02 4.967563275067450324e-01
4.724463626769768998e-02 2.641175058657201438e-03 4.490372974094993253e-01
5.112644547817705651e-03 2.364125901430375737e-02 4.422392942315513942e-01
3.124843400139852567e-02 1.129435669033397246e-02 4.446085024230108096e-01
4.947091323600924517e-02 5.525579810567062683e-02 4.477104080663378283e-01
8.834201918844915291e-02 5.383012195855094162e-02 4.859962432018713474e-01
-1.036973093815089959e-02 4.495887312859542934e-02 4.467429809483778880e-01
2.138638023255651915e-02 2.606866312278519060e-02 4.440037366746206748e-01
8.784832351916101179e-02 5.555543307438397943e-02 4.576611595745568306e-01
7.973726240278550259e-02 2.756696868931334671e-02 5.149181155487341233e-01
7.206208603320332640e-02 -1.210904804534043179e-03 4.951167020229394478e-01
8.620794962829073094e-02 5.805404549162281047e-02 4.593969558652252205e-01
5.437124083893676851e-02 -2.445241635154238140e-03 4.533782392559501662e-01
4.171598964431339623e-02 -3.006168636657579121e-04 4.466651207890109943e-01
-1.220361480428458489e-02 4.540021907917008576e-02 4.475540747791987295e-01
2.786239370948930677e-02 2.111355519880723022e-02 4.449123680749113574e-01
8.977043293992253981e-02 1.670542353026041593e-02 4.778995163361253740e-01
6.925887943351222154e-02 5.143906113398136540e-03 5.102217158110721185e-01
5.198110412702295485e-02 8.093082869311102844e-04 4.514701449424251556e-01
7.791179410828841245e-02 6.631990691300373650e-03 4.701058496985153767e-01
-1.784665579251946965e-02 2.593748610085092055e-02 4.457559605166017680e-01
6.037390822382373255e-03 3.789647505255336335e-02 4.438576406225125948e-01
6.132848259017868731e-02 5.394388900953634575e-02 4.487889085402254064e-01
7.254986190478966701e-02 1.686048416579534470e-02 4.599447837729281896e-01
7.936162226795541452e-02 5.070784793662670362e-03 4.769969840556649854e-01
6.233966512947577976e-02 2.701809499356606567e-02 4.538844639721160146e-01
4.773157944161231930e-02 1.696965704920215534e-02 4.496005240822935067e-01
6.298616029123299542e-02 3.390420180092960922e-02 4.524269697245759669e-01
7.185201355061449080e-02 -2.517687382687833902e-03 4.724801554060668596e-01
-1.762965852372709759e-03 3.945894948595881496e-02 4.443407589082237763e-01
6.337009422647986445e-02 7.693540648522068093e-06 4.586024518487205603e-01
7.866831960413889213e-02 5.910873459245120226e-02 4.604223762667288278e-01
-4.007601109381284804e-03 3.472213308970178297e-02 4.442150030926689253e-01
9.494687812021872231e-02 2.831561096597896496e-02 4.880030517134008039e-01
7.815953252886254088e-02 5.760983384413728009e-02 4.559068940217925192e-01
9.226210730241196645e-02 2.365003288605690285e-02 4.877456978438486912e-01
-4.700409920000520004e-04 3.467960440756619189e-02 4.438191662080354094e-01
4.610890523370295146e-02 5.179644886713932056e-02 4.475915767913771215e-01
8.452944710447306276e-02 3.117562274222657193e-02 5.077999510934086969e-01
8.860345820796906857e-02 2.402449801003550892e-02 4.953041279164339117e-01
2.813522815706536589e-02 2.986483197932231649e-03 4.425227389225564467e-01
3.168148593390583689e-02 3.527838929511418510e-03 4.433597761072650689e-01
-2.862297560878864638e-02 9.354434823159502380e-03 4.473172837014973702e-01
2.783480970139582192e-02 1.353882014274263371e-02 4.442223972003784827e-01
8.202386545227224879e-02 4.246058219375090786e-02 4.560762766847101246e-01
8.159463302741515323e-02 8.206259179820901695e-03 4.908778278735022593e-01
4.556151752646044051e-03 3.957348753569200211e-02 4.440006556636139079e-01
7.372048576090634020e-02 5.301009792750955782e-03 4.661881385682942747e-01
7.857538426957760835e-02 3.921673341809026048e-02 5.083893456719015269e-01
9.643194205262575758e-02 5.096121350907274750e-02 4.659921427910951874e-01
7.340119426583698037e-02 3.172233413260222047e-03 4.678613910968217882e-01
7.872356759792410730e-02 4.222983973128088125e-03 4.783169300898438281e-01
7.987437796032699489e-02 1.428713101244600062e-02 4.650441760680614212e-01
1.057600621821575548e-01 3.150898339556921363e-02 4.692942904059892451e-01
5.169829600803410585e-02 2.500585546872616683e-03 4.510696093574967369e-01
4.146038378743941571e-02 5.081872431611821235e-03 4.465749714654252966e-01
5.391872505049109809e-02 -8.793229920720936621e-03 4.552053331925058344e-01
1.169596075382231884e-03 1.284779505853173368e-02 4.408766413576070131e-01
7.117558005360130613e-02 -1.898803972495723830e-03 4.704064525884585346e-01
9.180593471490069990e-02 2.622789015963238740e-02 4.910456849664635026e-01
8.345523611349792148e-02 9.222432343326664866e-03 4.853127905019196664e-01
2.404840180888194803e-02 9.617188072382029662e-03 4.431636349275381304e-01
4.498986745659642322e-02 -3.790091291154259329e-03 4.481884119181451243e-01
7.801002116803668063e-02 8.025269563287739175e-03 5.015495161971393889e-01
8.854016657052921069e-02 3.772748987653062186e-02 4.991623010098719115e-01
8.037455861183172290e-02 5.898727927138906757e-03 4.820589336499533362e-01
-1.901528546564909897e-02 5.334475899328532632e-03 4.408748995504855883e-01
7.099054778554449163e-02 -5.934691084588083684e-03 4.775633484173533727e-01
9.839188191225411995e-02 4.605524938073424918e-02 4.653506797234163717e-01
-5.831977404700185164e-03 -1.628828892710844616e-03 4.380251905349894503e-01
-6.654486143041634348e-05 5.076072010507726162e-02 4.462419578138792642e-01
4.397274500026080585e-02 1.795251064827813048e-02 4.483917073287332911e-01
8.231134080247641538e-02 3.818621599046769649e-02 4.595850586431263207e-01
8.283916162316586063e-02 5.550125266456101825e-02 4.860763057825799316e-01
8.236063382869096561e-02 5.638658135128849641e-02 4.569911318651548870e-01
2.374765556571630833e-03 2.887894314205466731e-02 4.429605923175193860e-01
8.525934577879261400e-02 4.612642271073168210e-02 4.982693073475336076e-01
6.707592923832142451e-02 3.678134581487910171e-02 4.526875068234988975e-01
7.069552368398912545e-02 -6.616298601831491384e-03 4.892400633495521123e-01
4.718778510790881675e-02 1.761177056265766233e-02 4.494340464646451871e-01
-2.582568386331476895e-02 2.425375557087838113e-03 4.412367583472240340e-01
7.490004360852942078e-02 1.784929535650414678e-02 5.171431911652818458e-01
2.992815985547355589e-02 3.252693165721407681e-02 4.460064544133665598e-01
5.023726634735585506e-02 -9.545133560039803511e-03 4.527086460771392873e-01
7.455321093588043735e-02 2.364912899274177610e-02 4.587444796317070028e-01
2.087703048847421028e-02 1.266320127992077646e-02 4.429510808304796821e-01
6.616156655239253948e-02 -3.110177940352580085e-03 4.643444112482854047e-01
1.025633698313669628e-01 2.902068870273527557e-02 4.692317639515216632e-01
9.055106608654062139e-02 5.617710285938574966e-02 4.750937626079461684e-01
7.035302406278466647e-02 -6.987883812516778106e-03 4.774848143096774300e-01
1.013490993672120505e-01 3.990338007982468377e-02 4.618458065196319184e-01
6.786543147142191923e-02 6.038765058467474717e-02 4.563768476735838853e-01
1.044742964526192280e-01 4.089960376115950313e-02 4.713760021491313901e-01
8.383866117621104064e-02 1.415481226373764556e-02 4.977112553328905675e-01
5.269973182791797689e-02 5.747137175334834577e-03 4.514425437739225666e-01
4.418106514349301461e-02 2.869979590731246144e-02 4.487614246181307331e-01
6.335546124224766817e-02 2.558013642464403159e-02 4.543751631368599386e-01
-1.861006643691080764e-02 1.129587032235137081e-02 4.431351955904428985e-01
7.523551179469104011e-02 4.506141401042345479e-02 4.518089355227619675e-01
-8.045159597592700662e-03 2.054495032055201134e-02 4.423690354622277221e-01
-1.732840122587716095e-02 1.645447937925879553e-02 4.440804463918437417e-01
2.240509483510852440e-02 3.176625901576508176e-02 4.447395764885622715e-01
6.517754607859002625e-02 -9.910087143313242933e-03 4.694426394047189754e-01
6.853751407236820248e-02 -5.613080726560967099e-03 4.703075467416381050e-01
7.318167484617757457e-02 5.630162018129420548e-02 4.513748271446501592e-01
8.748170517913009259e-02 2.272744734173682418e-02 4.967852297490598645e-01
8.928907389985765719e-02 3.819833096515960758e-02 4.976741916583732883e-01
4.321327887057236500e-02 2.077823765217839264e-02 4.483647078636009975e-01
7.566835669744655102e-02 5.597614338971826364e-02 4.519413436947148921e-01
9.820385278363390202e-02 4.376601363410424772e-02 4.632663125928451753e-01
2.425108406331077243e-02 6.015739499279198349e-02 4.499971020053054049e-01
9.180345203857866176e-02 4.992952220027969262e-02 4.890874744420104503e-01
1.031815960415064931e-01 2.860679949992121773e-02 4.707287590323279702e-01
-1.409955344084609825e-02 4.852020998402004764e-02 4.504989963910587258e-01
1.038030201207453262e-01 2.901921207711670100e-02 4.711083584003151192e-01
8.995608685997352749e-02 2.846621646190399327e-02 4.634448685783874589e-01
-2.149763468824434851e-02 2.589280491820120100e-02 4.475841036340675316e-01
2.654399249470476216e-02 2.953448268773938706e-02 4.451534282028468681e-01
5.324942826262425016e-02 3.890575285054628796e-02 4.493343556802124050e-01
7.077669623898116824e-02 4.604938374693102326e-02 4.508443126352767449e-01
-1.229667622565803684e-02 3.794198139690681260e-02 4.462965712336514068e-01
9.913474044600621704e-02 4.644959198088043084e-02 4.759510132796826443e-01
2.728177069048441650e-02 -2.555144619656159796e-03 4.409598851820957788e-01
9.964022536541605746e-02 4.292898351848561250e-02 4.824034568385839883e-01
8.531637320691316806e-02 5.205428276936603649e-02 4.914548101584392259e-01
-1.447193973977939536e-02 2.750493873903800401e-02 4.448905663650293274e-01
7.516224577111038641e-02 5.811251664286203739e-02 4.536333732107011296e-01
8.968532125949117695e-02 4.675612217851368019e-02 4.931690228098713491e-01
7.462336085304407951e-02 4.344121537840613112e-02 4.528460091929187858e-01
8.826713810855073283e-02 2.597118319302570838e-02 4.979218831833854275e-01
3.965859018278287268e-03 4.174032612382908534e-03 4.398758585232576124e-01
1.068299197755537000e-01 3.652036037922020556e-02 4.663035498715964455e-01
7.035161851582699688e-02 -1.795726991623632909e-03 4.978449069247300462e-01
1.174185283206422015e-02 3.156397892060863741e-02 4.434336497354356976e-01
1.056337048812573814e-01 4.030899184552243913e-02 4.740676404060583660e-01
2.031786551202330315e-02 3.457742918510861574e-02 4.446401988198564470e-01
8.811299703953523466e-02 2.530610713826091790e-02 4.646468514428839791e-01
2.478331374794639358e-02 -3.944390423753864339e-03 4.402767105641434142e-01
1.779289376875920620e-02 1.565466219321142924e-02 4.428682927363746247e-01
8.435418633473541761e-02 3.981081782827953358e-02 5.030490731492565093e-01
6.094681934602683843e-02 -3.340981414092122816e-03 5.159910386879030808e-01
5.667997406420053480e-02 3.107376882722335393e-02 4.515460214864582822e-01
7.635588978407298333e-02 8.821682909713194493e-03 4.660203859057168718e-01
7.088574651702025942e-02 5.974702604832685809e-02 4.590411967517036285e-01
-3.400534121871012783e-02 2.290762972320561745e-03 4.428893696233888733e-01
2.653186069320123339e-02 2.056500767309787925e-02 4.446350798159059980e-01
2.027396520079725872e-02 5.356802066781714278e-02 4.467554618887868978e-01
-1.442049459892925933e-02 -1.125852288203204460e-03 4.385319303833913884e-01
7.774551557179626426e-02 3.303024222047860892e-03 4.890928314800105370e-01
8.442981439345467742e-02 3.630479532843697288e-02 4.618273531155351885e-01
6.384210773134366135e-02 5.152348143592072605e-02 4.489686429208123997e-01
5.995542728296434504e-02 4.731084626870393078e-02 4.490853406427171568e-01
8.314707611951749344e-02 3.724729519392647875e-02 5.066543723122379772e-01
4.665375303366074006e-02 5.605697427593206439e-02 4.476408049472215267e-01
6.091280128298449253e-02 5.771716888831944330e-06 4.568370823865837149e-01
7.289047341139522768e-03 5.702424784002975422e-02 4.507389510341269778e-01
8.909329824988780622e-02 2.450084574060545917e-02 4.946833348448153034e-01
5.997731983939453421e-02 2.693733164243182487e-02 4.532653946425213021e-01
8.267646170239601952e-03 4.711280760590633859e-02 4.448610079934927630e-01
7.354063201278920880e-02 2.647098087624482135e-02 4.574386399321610508e-01
7.086284797693948034e-02 2.616306352343415048e-02 5.253630728969693742e-01
5.426562058149506096e-02 -7.292986107582734821e-03 4.548621057566683556e-01
8.648313430321181994e-02 5.622445763549874242e-02 4.783549716710422950e-01
8.856004899087259463e-02 1.653383750109581676e-02 4.866936383731182980e-01
1.271108050288803464e-03 3.745271297425183804e-02 4.439598770575461928e-01
2.494981119511245626e-02 1.420696047022411250e-02 4.437312456463619603e-01
2.585687686201058530e-02 4.455376210345566440e-02 4.457714616863391321e-01
9.216126328187181083e-02 2.002957938494839482e-02 4.776034006127433118e-01
8.115442475712678072e-02 6.589151244473132399e-03 4.869613087454885414e-01
2.980399003946285208e-02 4.188157405398117150e-02 4.462843296622248657e-01
8.595860975336808152e-02 4.002195695032051415e-02 5.011310626260958578e-01
9.112894413752424538e-02 1.842642013889414856e-02 4.820248099708189238e-01
4.196641523498112480e-02 2.786705723255995804e-02 4.482519273750613653e-01
7.552064169518930836e-02 2.037045150425480580e-03 4.727497399255529698e-01
4.347593027469927318e-02 4.835606704556692781e-02 4.475162239159629074e-01
-2.526053243583292404e-02 1.237480270614612840e-02 4.460471244163788929e-01
9.554121111551154566e-02 4.690224403320829294e-02 4.604154865393050855e-01
1.014671844189058425e-01 3.530802600375563399e-02 4.637382189976932967e-01
8.549071021610255353e-03 2.524858972358683812e-02 4.425947698082445814e-01
8.218409503266181637e-02 5.770646541720137607e-02 4.759999621322198449e-01
1.006743273790182761e-02 -2.935241564774112352e-03 4.383582535447578810e-01
2.420723736360845535e-02 1.314557495063511418e-02 4.435287370927534223e-01
1.936323721061805614e-02 2.733690538115985877e-02 4.438137349042364788e-01
1.921961113994062609e-02 1.858415672839030738e-02 4.433770528988624782e-01
8.777483258591269044e-03 6.022350973385864198e-04 4.392101071298916137e-01
4.051652240696711899e-02 5.937072345576791671e-02 4.478979071268716639e-01
6.442133485479818733e-02 4.141208854772633272e-03 4.584040354861692035e-01
7.371592134497038235e-03 4.551131355723276456e-02 4.446431134590902445e-01
1.047790510369467354e-02 7.104470624797454975e-03 4.408737434610437989e-01
7.006284869631845824e-02 9.262148082454152442e-03 5.144296399970140765e-01
4.381795125022621556e-02 5.987354081475581430e-02 4.484855875315059137e-01
8.180112307242136394e-02 1.083336333230325473e-02 4.970361875312642175e-01
5.600641086558561660e-02 4.771442325685443242e-02 4.487184714562410526e-01
9.065638389703323252e-02 4.220133438340721577e-02 4.587748238973488046e-01
9.507230339986851020e-02 3.174325909357874481e-02 4.630568198792410217e-01
8.557780248393805078e-02 5.739678892898058410e-02 4.771015752876903160e-01
-8.680238768489301551e-03 4.131455797936856716e-02 4.459004627403903576e-01
8.330281376029367857e-02 1.341874673550132874e-02 4.979309679615135931e-01
6.248155410914124630e-02 3.246060685811711938e-03 5.194676045226198635e-01
6.595246667218226944e-02 -3.807111286896177997e-03 4.646757113970053088e-01
7.304610302722598647e-02 -2.668696791121034917e-03 4.892200507506428986e-01
8.910188532214269319e-02 3.345672243012553365e-02 4.630375640804111348e-01
-1.353512125026024547e-03 1.713756750830582390e-02 4.412215713206620871e-01
6.375668701362180446e-02 -1.181182103082517934e-02 4.691996752130785930e-01
7.476354387659898959e-02 2.950453365827673466e-02 4.574755017266771140e-01
7.569265924947995994e-02 5.402472158111308945e-04 4.805700285117929793e-01
4.471372513649604641e-02 6.030185730007145417e-02 4.488448823355401518e-01
-3.689680321088574522e-02 3.230362107360486464e-03 4.445526120975176187e-01
7.870275450976293996e-02 4.626048480530137869e-02 4.523064930289862340e-01
2.255261830888456720e-02 4.677181313536713653e-02 4.454864081968709644e-01
7.979565168946557707e-02 3.873614991054977891e-02 5.081303451890131218e-01
8.900584545666886949e-02 3.443881063354516103e-02 4.631128693031547616e-01
7.607693127484453643e-02 1.455333890226700316e-02 5.123322335575406505e-01
7.932974588809851846e-02 7.784539443702838402e-03 4.980355631920522219e-01
6.929329902834821531e-02 3.625653158713725704e-02 4.537543847208755921e-01
2.043658838996637722e-02 5.323416151049249062e-02 4.466187017220440980e-01
-8.123260824443659378e-04 5.316604241874536146e-02 4.477044922264774574e-01
4.109781363210938954e-02 1.734665784982396611e-02 4.476028186106939533e-01
6.456521870952977582e-02 4.314477992407729501e-03 5.170828431021802229e-01
2.604216853790559949e-02 4.014676088846590857e-02 4.459221750347623359e-01
2.564270299963406635e-02 4.764428040283775340e-02 4.457359920778200535e-01
5.152102531262460483e-02 2.277992197021733514e-02 4.507915291937089064e-01
4.703972795903023363e-02 5.440181976722753554e-02 4.474965788210812367e-01
5.437135948889669501e-02 3.260820323738562732e-02 4.507442080644664117e-01
7.667969638052792025e-02 4.345321618304329170e-02 4.536554275777439083e-01
1.014500350795020378e-01 2.724069613580127475e-02 4.772916015210056928e-01
-1.649769210164124186e-02 3.361066628462310718e-02 4.469511430268140462e-01
8.873814261864293451e-02 6.102724020346556033e-02 4.624883111190460361e-01
9.431715016969050014e-02 3.998406779098234720e-02 4.896221678919998044e-01
5.273046458052765839e-02 -1.365095699542442920e-02 5.274411953441642265e-01
2.914290559701308847e-02 9.496828860970193270e-03 4.439793225310994518e-01
8.614984913015720502e-02 3.248516552830325171e-02 4.626659331161999122e-01
8.021911682702970170e-02 1.365227000877748675e-02 4.659317360164106359e-01
-2.050276834015088770e-02 3.095496034817817044e-02 4.481696355973024959e-01
1.201314836964780322e-02 1.191868651340730403e-02 4.418248517702321743e-01
9.729352689630035855e-02 4.840847269662385682e-02 4.799555142800631669e-01
2.075227421741778280e-02 3.158610639643646967e-02 4.444612236116222137e-01
9.478933250874375938e-02 5.237152241427033006e-02 4.787826533498042436e-01
6.515293052673994112e-02 3.950568006220018386e-02 4.514928397564060836e-01
7.215115288301403307e-02 3.531817370749324586e-02 5.168224816707132074e-01
1.070487239204957058e-01 3.510230844142779583e-02 4.673331713049119207e-01
2.602852698811181781e-03 4.594445794186485105e-02 4.447426740303945247e-01
8.613651907463656943e-02 1.199827653401524565e-02 4.809855797933332844e-01
-2.061735278963602175e-02 1.034158477109436806e-02 4.434595224966975668e-01
1.978474616608669537e-02 -1.845657111187372574e-03 4.398066066334264668e-01
6.520652630415228745e-02 4.015536794265684578e-02 4.513588238593175817e-01
4.624733500557088456e-02 -8.834575718228824398e-03 5.308967031687107374e-01
-7.300271335108412044e-03 -8.483630740195387439e-04 4.382291522779915849e-01
5.241597135348338016e-02 -4.163628903388801213e-03 5.247218000890272460e-01
8.289437980946663675e-02 8.557493770992626730e-03 4.803344517579966055e-01
8.898163524492785914e-02 1.867008413953706591e-02 4.708225391914154234e-01
9.239972349019569264e-02 5.360749386844435721e-02 4.611382190576125417e-01
8.053929697783923647e-02 6.526107830533487211e-03 4.745944489998146776e-01
1.039953310669271963e-02 3.317552562382747317e-02 4.434376151567315794e-01
2.669975422366332660e-02 3.380295817262649050e-02 4.455766622224534568e-01
-2.264431338022572515e-03 1.257095369027442025e-02 4.406414626970872606e-01
-5.157992190119146687e-04 4.977906584628380426e-02 4.457929456540899449e-01
3.553376360883469826e-03 5.380233181524982783e-02 4.475193569307086561e-01
6.053371574619649705e-03 6.782437016785153663e-03 4.404924450679216230e-01
6.584062298194276464e-02 -3.531245336363740810e-03 5.066192547242349686e-01
8.806115215175293331e-02 5.148353383635660696e-02 4.554902061608592234e-01
9.822687830226860262e-02 4.194549154409170366e-02 4.603584570127784437e-01
6.676745187926683145e-02 3.617299399561731826e-02 5.165756355611518247e-01
7.008057530754201181e-02 4.311424350448482545e-02 4.514781785773705480e-01
2.698198372789870070e-02 4.460188156365771373e-02 4.458884046923219380e-01
-6.056230899473496673e-03 4.064644257612021194e-02 4.452430100866787699e-01
9.089414487512299801e-02 2.164995899875494373e-02 4.883345848264876721e-01
6.713886439856855959e-02 2.980218054921730808e-02 4.547556979607597638e-01
3.673489812246338859e-02 6.029559171583156324e-02 4.479520870695744561e-01
8.179556457547534909e-02 2.640887311314052410e-02 5.115899986019880608e-01
-1.313887707767029921e-02 -2.826145205573928065e-04 4.386157683640727334e-01
4.954664389126119117e-02 5.516723692887796036e-03 4.499768881853956071e-01
7.008154605466740406e-02 6.590500234580970972e-03 5.108845620591195846e-01
2.405382036571073606e-02 4.550555615639531593e-02 4.456150509316075259e-01
1.019317404055507803e-01 3.158554683944084923e-02 4.664720704401931761e-01
6.075176691702583939e-04 3.955735386925384248e-03 4.396482781431050868e-01
-1.448452307526865504e-02 4.697159195990192188e-02 4.490563391385348213e-01
3.769178329780381587e-02 9.439853698194809045e-03 4.457354164910694583e-01
9.653277118305626792e-02 3.552302931110307843e-02 4.626840562445284077e-01
9.841092657526180620e-02 4.078277984056778022e-02 4.608105032461771167e-01
8.591611287352146631e-02 3.929693034910557853e-02 5.016138103928000636e-01
5.165870033385082383e-02 -4.626106754605505307e-03 5.254760976838266373e-01
-9.156460133173928428e-03 2.445720009339701420e-02 4.433618068049738903e-01
2.544374153775661590e-02 5.970810410496175252e-03 4.426478203972228909e-01
4.022361574021332542e-02 -6.462776248245807528e-03 4.458502555611873475e-01
8.897852742482327548e-02 3.298007840575324645e-02 4.996967749168469974e-01
9.697362861986075222e-02 4.708503387413662949e-02 4.833464605965913652e-01
7.382071430202744033e-02 9.013421405803910200e-03 4.630272323350186903e-01
3.672747818679666931e-02 1.483697643524617589e-02 4.462837227740493740e-01
9.525959336324282822e-02 3.832142122311620047e-02 4.887373904232842348e-01
9.313097855177393525e-04 -1.934937785905027326e-03 4.381450382955242584e-01
9.529430812099881631e-02 4.021323324006338684e-02 4.608722862447734436e-01
-2.742803722996994820e-02 8.081171143713226923e-03 4.453662353653582429e-01
9.323984817948617609e-02 5.213903029702681574e-02 4.607203605574472505e-01
7.674211599270058803e-02 1.025591317414761144e-02 4.652168364801353984e-01
7.088684387905601347e-02 -4.199121179579302053e-03 4.928370636242033753e-01
1.088929507063402108e-01 3.533683394172027620e-02 4.730454240980446201e-01
1.828408556408820523e-02 4.898867271621610425e-02 4.454217525642608089e-01
7.692938446443785272e-02 1.453587532054682364e-02 4.629001093203008455e-01
1.207741429803148650e-02 -1.277770475182590012e-03 4.389054790893400226e-01
1.574658110491749044e-02 1.719803498018078469e-02 4.427782152955691553e-01
8.492397714664962072e-02 3.982622623959392039e-02 5.024036843614436698e-01
1.460328547019420012e-02 3.574682818868445133e-02 4.441029723322079126e-01
2.299633855331404200e-02 6.050674178037435819e-02 4.505871614481461451e-01
3.557761682709106865e-02 3.301431402000392507e-02 4.469191850573476232e-01
7.547563809283475492e-03 4.998577340102638294e-02 4.454736103782178658e-01
6.657924002597004343e-02 5.608345396293293143e-03 4.596427163824224893e-01
3.747103954212834681e-02 6.316931286808458168e-02 4.498053288970913499e-01
9.220106959647560163e-02 5.187558946260322629e-02 4.849500504495254383e-01
-3.658796944872679847e-03 2.276205728945480261e-02 4.423537218576235608e-01
-3.300887894173527154e-02 5.948331794816735275e-03 4.481009733330799105e-01
-3.878887659696454021e-02 8.437957750432358017e-04 4.412996395176849718e-01
5.354466921980513550e-02 1.044679779460979709e-02 4.518965352084119980e-01
8.420471329182141473e-02 5.329429308917364716e-02 4.542770140841635440e-01
2.760672789586866502e-02 5.441151889755269089e-02 4.469987446637594397e-01
6.924622899991558778e-02 1.725555861321892426e-03 4.636373059821710663e-01
5.800020980647097729e-03 3.092056522293845644e-02 4.431202686846235084e-01
5.363300925946603431e-02 2.490170921201624588e-02 4.514302819639940401e-01
9.363858230928950865e-02 2.168198836155681847e-02 4.731137286893148386e-01
4.224462287853020248e-02 5.877983039369394369e-02 4.478619256485695255e-01
9.365569758372541131e-02 5.522904990652352519e-02 4.692885344452452645e-01
8.425848413265281389e-02 1.158720771156388635e-02 4.729542996170746916e-01
8.515714323772032024e-02 2.529782817480711460e-02 4.632903826639482303e-01
8.969098538264899667e-03 4.398781180013825592e-02 4.444915337134577316e-01
8.602684593274959046e-02 2.108390618381962567e-02 5.008336712401455504e-01
9.197287079205516969e-02 4.446815782234295883e-02 4.571842711472707821e-01
1.714264826690807889e-02 2.211108490968629811e-02 4.432989999522218283e-01
8.373654651863979281e-02 1.741561956442654741e-02 5.026320027673800706e-01
9.361465629745213679e-02 3.917430773690359913e-02 4.906236929431904148e-01
8.475511268383109642e-02 4.917229123048320188e-02 4.540873597938290263e-01
1.063495117124775742e-02 2.043015509428306592e-02 4.423623452321949201e-01
5.869494397575233946e-02 -1.131258937181643491e-02 4.613549076404579452e-01
4.786665000434056627e-02 5.532322335091807708e-02 4.476316810144275737e-01
8.374412084579969939e-02 1.852702976345805413e-02 5.037734214798135213e-01
8.012989857049335196e-02 1.770043029234599427e-02 5.098945790160147595e-01
6.445241168339545246e-02 5.238596150646288030e-02 4.490918413099311834e-01
4.683505909876431450e-02 -9.962538966941502511e-03 5.311540664800422640e-01
6.510296422086581103e-02 5.188803558452855652e-02 4.491219935325452828e-01
-4.614401533729264523e-03 4.842380377127756402e-02 4.459125218123467516e-01
2.086447668189950894e-02 3.344035119841310549e-02 4.446407070487465862e-01
9.349308838245107278e-02 5.291853309971751573e-02 4.618547131722789967e-01
5.498647621469153479e-02 1.428814358348282076e-02 4.523829024077334338e-01
3.042801977674058390e-03 8.388631460199587331e-03 4.404140730887226018e-01
6.862837740457489177e-02 -7.512787898997896896e-03 4.972982627530038724e-01
-3.738559981229208629e-02 3.809674194188134629e-03 4.462912796495980827e-01
9.497215207579234875e-02 4.805068479740555454e-02 4.856747943010832902e-01
5.834204576181812457e-02 -5.416966711531750675e-03 4.566703716955949899e-01
9.017897674730700544e-03 3.559035785015921688e-02 4.436671680795534201e-01
3.517131553736782545e-02 1.336975039770707009e-02 4.456979804634801923e-01
7.048166103834466178e-02 -8.296407482306271744e-03 4.841289818540039924e-01
3.521741707988073483e-02 1.242279452203311381e-02 4.455963758360824145e-01
9.171291735977046833e-02 5.998304251596356385e-02 4.654675558442783467e-01
7.316801299968220262e-02 2.605138314762860813e-02 5.230025842492648236e-01
1.398482802190858729e-02 2.664566190567100451e-02 4.430936825278536384e-01
-4.872382641598710547e-03 3.920454907759026580e-02 4.447804690257588511e-01
7.305294335156513330e-02 -3.019308108662762443e-03 4.786158864472143670e-01
-4.049493840780474946e-02 2.770846762283311546e-03 4.442257141240998353e-01
1.702475581814788530e-02 5.386142363550699974e-02 4.468751456751166029e-01
9.132334657210837425e-02 6.012299496280564676e-02 4.662643102654623339e-01
-5.893337936161888689e-03 5.006924237772873015e-02 4.467153999523323371e-01
8.231749177756376989e-02 1.147914200925872347e-02 4.704570664655426948e-01
5.109539255108794253e-02 5.875963015791640931e-02 4.491376123569550960e-01
9.556113857816897483e-02 3.182977812123933409e-02 4.882716681066414099e-01
7.606500963679101168e-02 2.395906905994410474e-02 4.594358560911644407e-01
-8.990749816883313733e-03 2.546322722429996636e-03 4.391260039179738506e-01
9.465118162774664723e-02 3.128696701179117107e-02 4.631970209374607350e-01
6.846499123264337960e-02 1.049951964670623426e-02 5.182199353124309349e-01
7.889493584806345217e-02 5.527174094929547532e-02 4.526682330950027588e-01
8.464049485018599467e-03 3.647674519801357568e-02 4.437618821208068609e-01
