2.269725079484024785e-02 -3.824703103094843903e-03 4.400657904378386664e-01
8.753582018299051193e-02 5.541630431155306763e-02 4.797764988538256170e-01
5.295071655783195608e-02 6.131475132238486947e-02 4.558326900425814232e-01
9.918426459482133917e-02 3.525270779403499172e-02 4.848252546803711316e-01
3.143979179427215664e-02 5.974977596158755760e-02 4.489464716052341542e-01
5.539682064697289826e-02 -1.165817852607585426e-03 4.541408086261570776e-01
9.065941788654936773e-02 3.072304224377877743e-02 4.963741154224541874e-01
-3.910553833877641189e-02 2.407043550371299086e-03 4.424184078558393574e-01
8.757084906315466821e-02 3.966220733946148463e-02 5.001348798571707555e-01
9.713485346518056784e-02 4.997695889244743034e-02 4.736426389912652413e-01
8.774028358473412448e-02 1.485957174549446674e-02 4.762276794002278657e-01
-2.093378607622233250e-03 1.021321712679953281e-02 4.405348196295948981e-01
7.980238965809664797e-02 1.201795443983705823e-02 5.042345543208867076e-01
-1.959624285941708940e-02 1.532774768440999316e-02 4.449028556364114650e-01
9.138810816936633608e-02 4.126749575344035997e-02 4.608747938844373060e-01
9.103536018808786046e-02 5.909789960370235434e-02 4.638995272522415392e-01
8.128946939072391464e-02 2.019382523227424009e-02 4.644678544092128436e-01
8.864225482886919916e-02 4.427337419080094871e-02 4.582122879067440646e-01
5.827476451925949624e-03 3.909520391878890111e-02 4.443148460768491792e-01
7.651983040361354238e-02 1.156135091533834133e-02 5.087956302648968254e-01
8.001772940535105405e-02 3.525486130376728061e-02 5.122421649300799018e-01
3.311497314066707415e-02 4.193940746300111461e-02 4.472684262810766587e-01
1.022492403011930895e-01 2.950416097618975206e-02 4.793110515688350781e-01
1.680437467635903168e-02 4.177142292510278854e-02 4.452362251293180972e-01
-3.174451708329372596e-02 5.111829387463863103e-03 4.439725787075542995e-01
9.340065785750298333e-02 2.164082740600158095e-02 4.790475848386302471e-01
8.302109145959232772e-02 2.217634132654335358e-02 5.093724209688658133e-01
8.440315498398194560e-02 1.844615976871925161e-02 5.021310570991542876e-01
2.443915488562995592e-02 3.328443965461865689e-02 4.456635108383901756e-01
9.101127028447522638e-02 3.253055680171112324e-02 4.641354335370009299e-01
3.912708097815886799e-02 3.746042727260347205e-02 4.481827623182882414e-01
7.562493039738674150e-02 3.672631549170848973e-03 4.971237826547076355e-01
9.496201991973877987e-02 2.468386577934744697e-02 4.844845438869713194e-01
7.257821513086408494e-02 2.267391667806839886e-02 5.227915840104719880e-01
2.962799662270328843e-02 2.203640335715816891e-03 4.429134903766263620e-01
1.446739924539640169e-02 3.310061867274759814e-03 4.404345740841583146e-01
8.987737340503275385e-02 1.868700297067758115e-02 4.750379876730496109e-01
8.011087919197230900e-02 1.477697938534797487e-02 5.073197018371368161e-01
9.647484087631642835e-02 3.552815052017167796e-02 4.639632330485118916e-01
-2.946657110148800593e-02 -1.269753356087069754e-03 4.402274399407989369e-01
1.857705146011014163e-02 3.768014121257870497e-02 4.451954103696322274e-01
7.747611064276525850e-02 4.136817032679037526e-02 4.565255628080583383e-01
6.463376284349330037e-02 5.647699898691533466e-02 4.512294747801787187e-01
5.390992354554229732e-02 1.617803549243651898e-02 4.524249476256638203e-01
4.159186897178721726e-02 2.140736927245402016e-02 4.484979930550818672e-01
5.581177168624276708e-02 -5.196506567383936750e-03 5.226062788951806315e-01
7.085461740305123990e-02 3.684974420993127227e-03 4.648039577591989158e-01
7.999518364511037927e-02 4.524028478190925129e-02 4.543381996277199852e-01
5.921267156672858911e-02 -4.132743765482458156e-03 4.573286108411268591e-01
3.592528611081452494e-02 4.979234490715893358e-02 4.474639287267206389e-01
7.253681117453976424e-02 2.324064593671630596e-02 5.230839468923563773e-01
-3.133405975266333535e-03 5.018670462470994215e-02 4.464660458839836421e-01
3.380453507844599637e-02 1.686826783353217313e-02 4.461158882780719703e-01
5.329236928659311645e-02 3.619549961148656875e-02 4.506455852060573530e-01
9.016212972627524191e-02 2.415593397098958137e-02 4.926687266641014418e-01
7.388790885151114152e-02 1.172505712305846499e-02 5.125606422490874836e-01
6.611002946545138648e-02 3.123403001701190521e-02 4.550688761539725680e-01
3.164858186622590552e-02 2.901503308183692870e-02 4.465061747093455047e-01
9.037752558684065962e-02 5.024756501655004703e-02 4.583135302057642635e-01
7.208898380224805502e-02 -3.456040781906390830e-03 4.769259860448282762e-01
2.330311887302593046e-02 2.061249909256838292e-02 4.444987254681395106e-01
6.389124574399604461e-02 3.867811645814434127e-03 5.182066996534313574e-01
-1.537228140584385137e-02 4.376083011917332455e-02 4.486815019153640449e-01
8.329277161690662457e-02 4.860829950661468141e-02 4.548392767776107681e-01
9.643366638044584271e-02 3.809373483315611764e-02 4.877565896101945242e-01
8.314633629258048886e-02 1.403063832432277329e-02 4.995932011626932900e-01
1.825806822710603766e-02 5.851521258821026916e-02 4.502160919890004220e-01
1.046352103554848284e-01 3.101674206448826188e-02 4.780602204498942687e-01
7.932744574543314220e-02 1.801349800860091790e-02 4.640165221150533981e-01
1.650737559488818854e-02 1.519468344724879405e-02 4.429508017102506967e-01
1.376582573161861181e-02 2.428074670650702538e-02 4.432833798031725059e-01
1.755854656639932107e-02 1.809489938306397053e-02 4.434136436565953576e-01
5.819726218947911950e-02 -2.339336073664763545e-03 4.562279727119603612e-01
7.129801101383360928e-02 5.942391283333085111e-02 4.541720084003031399e-01
8.146415343930886455e-02 4.494715711841763134e-02 4.551266734952228998e-01
9.009667209218970296e-02 5.437018208549533604e-02 4.609212257020330883e-01
6.853991719985767783e-02 7.144879249150454421e-03 5.145319424616614512e-01
7.164216693329637786e-02 -4.512342125649010209e-03 4.893460415413310449e-01
4.841744637343775581e-02 5.681604325657102494e-02 4.486541977860203922e-01
2.877056060810253071e-02 5.784629830777354709e-02 4.481860380804763566e-01
4.356711297074717520e-02 4.017922779643520043e-02 4.487442623424430788e-01
3.456467554907382590e-03 4.587166820038488663e-02 4.450830106044809664e-01
5.487322450652885875e-02 -7.175718246752305421e-03 5.239181808287612929e-01
5.867989321560353189e-02 4.453331785568469953e-02 4.501697916327283555e-01
6.000293397636897313e-02 5.716976987919529518e-03 4.554489879704535227e-01
-9.973449663975290230e-03 3.922350492275254730e-02 4.461356219052330374e-01
2.273159515057837643e-02 3.018189691307955266e-02 4.450710784037510415e-01
9.066324792554375511e-02 3.691444986887217061e-02 4.960090666934666714e-01
-9.341242979975773741e-03 2.673843225162545259e-02 4.440128227804938654e-01
2.918300807411472290e-03 5.106323887651530169e-02 4.466296129724687813e-01
3.919418291021774248e-02 4.991002274709822883e-02 4.477688840167874385e-01
7.940259678281751110e-02 2.207145148724825104e-02 5.145515480853899426e-01
7.310894453262288539e-02 2.097497255312767359e-02 5.214858132454078810e-01
8.567374664217701496e-02 2.827502316460090565e-02 5.056827491554476417e-01
8.057200573922816689e-02 3.406311449206631675e-02 5.127796684590987253e-01
8.554451396616062631e-02 4.039001763035007797e-02 5.019137881518475064e-01
8.235512855918461494e-02 9.225724509976005253e-03 4.742190770376584208e-01
7.502750603648940253e-02 4.619039530520981096e-02 4.526409270004844720e-01
-6.124653302215948315e-03 1.476685310178204886e-03 4.389548416608169967e-01
7.782523077847997017e-02 4.467786296433306353e-03 4.930307447284694167e-01
7.649445580709005044e-02 2.096060538572740509e-03 4.794093468638183642e-01
8.938179673999130381e-02 4.518350811515953191e-02 4.948674646664355525e-01
1.028780197102165395e-01 3.968093181486453958e-02 4.656840512659376485e-01
1.066506578998973644e-02 5.602410014496525884e-03 4.407516099956304001e-01
7.634663310151609816e-02 8.382933696435843421e-03 5.048780637729188836e-01
3.009069771150364031e-02 1.059575887310018096e-03 4.427646649500199816e-01
9.119563353871812383e-02 1.919514489365301002e-02 4.804670432584638995e-01
7.757370310945338465e-02 9.408182939272429976e-03 5.045985016197716000e-01
7.637738683650627247e-02 4.821652790004255645e-02 4.527035446978593947e-01
4.881008358448781122e-03 3.696953049118769600e-03 4.399578417524317442e-01
8.657343548428214630e-02 4.424163450321966923e-02 4.987110004918569595e-01
9.149562906900388093e-02 2.856588015515345094e-02 4.936412047054288266e-01
2.691817568768831853e-02 4.180582448325929901e-02 4.465117161164161019e-01
7.051774480700530312e-02 -4.786922827583316858e-03 4.939877249763618416e-01
9.336937091860045279e-02 5.480495689153652705e-02 4.738557144121442466e-01
5.549308594881180445e-02 3.031140123642144663e-02 4.522227706515509205e-01
8.493313385773175461e-02 5.407072759108831617e-02 4.894763510460966027e-01
3.125758577186192252e-03 1.667080408740944340e-03 4.393182402922418683e-01
5.428053999754284958e-02 2.285793023835309273e-02 4.523537907454074913e-01
7.974729007576676632e-02 1.479757121995344156e-02 4.656407108856667199e-01
8.471771897339314128e-02 1.862687570107773166e-02 4.677822766942497656e-01
3.092275929227542020e-02 1.003106029212035705e-02 4.447625975006318511e-01
7.405261553726007195e-02 2.634305152817910042e-02 5.228138124216926697e-01
5.652968572494038169e-02 1.470500487618472615e-02 4.536436384034651659e-01
8.210641245241898090e-02 1.017651630176404087e-02 4.728383465172082412e-01
8.511879730641949693e-02 1.454551405365195511e-02 4.719514740594348834e-01
1.495732352014030736e-02 3.436095900715469692e-02 4.444200142255002595e-01
1.536237262997611902e-02 5.233371824241989101e-02 4.467491803358097924e-01
3.331203481201560831e-03 5.798703184675022340e-03 4.403264056940442983e-01
2.071424950027792034e-02 4.432699742164281087e-02 4.457680339512684609e-01
3.051141959874027754e-02 2.943552806389502716e-02 4.463198702087591840e-01
8.467341549571973103e-02 2.452214893750862337e-02 5.067753864558441901e-01
8.304411105961542749e-02 1.773802266441627806e-02 4.666904087831706405e-01
6.279498543328058957e-02 2.616530528332463874e-03 5.185382427865379285e-01
4.294444510152609779e-02 2.362935264226628806e-02 4.489394557004826036e-01
5.399029713279131226e-02 5.371565540034045627e-02 4.489764323694252490e-01
2.878813423245956543e-02 1.784818975184040285e-02 4.451393705269064416e-01
3.000282233055959896e-03 2.138767399528743174e-03 4.394372150056511384e-01
1.507445567441933337e-03 3.948091507173846076e-02 4.444532364122824597e-01
7.703903439168613421e-02 1.179177137716204415e-02 5.083443621768913845e-01
9.769886613636563633e-02 3.733076206950029785e-02 4.862644162083453736e-01
-1.841526548190938750e-02 4.206024738767420723e-02 4.499683448936592223e-01
9.086379975113276219e-02 2.753511407763701430e-02 4.940092306774440112e-01
9.390417320533857304e-02 5.419362292421688043e-02 4.699193530897137205e-01
9.605523728915774107e-02 4.351667816130215527e-02 4.873863035280309175e-01
4.555468311992427743e-02 2.862171920453890003e-02 4.497816005756737345e-01
4.435331887756986669e-02 3.063238537487593741e-02 4.492955207086996028e-01
5.954402674213345875e-02 -1.126195712758251526e-02 4.629743623343433034e-01
9.562294247760493027e-02 5.088570669115677347e-02 4.794025428526145771e-01
9.656359617185737709e-02 4.673569596448793467e-02 4.646007031391995445e-01
8.985700922924273748e-02 5.422442671752104870e-02 4.812302200851639178e-01
8.660084031745821087e-02 1.973233735950373144e-02 4.961999902024101239e-01
3.058210368441225541e-02 4.359554663305523214e-04 4.427335784551033604e-01
2.651056614105578441e-02 -4.628388794878441487e-03 4.407239334808134568e-01
7.658757107623966054e-02 2.533164702495339579e-02 4.601820574844746603e-01
3.014591231704609464e-02 3.794508212978282141e-02 4.469684389077098752e-01
9.157845556044817703e-02 2.466005749056580931e-02 4.682385379606533449e-01
2.544720471887566490e-02 1.001242154064173329e-02 4.437318117801742900e-01
9.727804026401384863e-02 4.102290338212449122e-02 4.618485810140448011e-01
9.241572715618340261e-02 3.423759949282084020e-02 4.643476837173070026e-01
-1.849502830929280334e-02 1.297962817842829644e-02 4.438148575481952740e-01
9.190571426908890340e-02 2.795782722611928756e-02 4.924332682485053625e-01
-3.902600061147768612e-02 2.949930465863846111e-03 4.447793790642608491e-01
2.152122692993045996e-02 4.639820713862441437e-02 4.459144467750921770e-01
8.328693132409194233e-02 3.319342632743600696e-02 5.096041327241992436e-01
8.131411806688607080e-02 4.689704350225537555e-02 4.542819796407063238e-01
5.458335368789567210e-02 2.752912842918489589e-02 4.523305119111348249e-01
1.450244585191129421e-02 2.213357386366875557e-03 4.401359496928101134e-01
2.369501766955411579e-02 5.989654114775987831e-02 4.504527988129664595e-01
5.374493098894476267e-02 5.428082813745589014e-02 4.489386625324228164e-01
8.087626311779794186e-02 3.687627216454931328e-02 5.100360988863561484e-01
9.727516093116207740e-02 4.902155847986287840e-02 4.764538945845861462e-01
5.540986857547670896e-02 4.180112072319216998e-02 4.501115887180808794e-01
6.843703213192542378e-02 4.838983887115310550e-02 4.509786309308634333e-01
5.796307232370796758e-02 -4.441041540939329527e-03 4.566124692441738131e-01
9.057431770515915470e-02 1.819445864780776245e-02 4.808216883774710237e-01
6.052831881972576406e-02 8.180658541889136368e-03 4.557035320941588141e-01
1.063584805298730118e-01 3.829722148004298388e-02 4.709598088654837200e-01
5.464235753487198255e-02 -1.211061636828201712e-02 5.255331190187610968e-01
9.741067640946243084e-03 4.690101753609317650e-03 4.404782974930077089e-01
7.396263580822425021e-02 3.046471168343830443e-02 5.230374497521084187e-01
7.003192614411904438e-02 -6.361280564500281995e-03 4.941083531170164522e-01
1.001500118444689363e-01 4.220228867373147785e-02 4.666422411516011892e-01
8.668980840263586229e-02 5.366661230822773049e-02 4.888855433107324178e-01
5.715565224905586918e-03 2.452817754226153946e-02 4.426391216242007709e-01
-6.382238259914391372e-03 1.489967442519024923e-03 4.389554718850700032e-01
-3.937097571363940007e-02 6.153892421480724670e-04 4.410539593537033398e-01
9.174569444517072236e-02 5.833619532660545143e-02 4.695766341313625802e-01
8.651741333149107205e-02 5.659417847621090597e-02 4.784222465995343065e-01
-5.928767774791375740e-03 2.156903632889088998e-02 4.424885141349762518e-01
6.511807346897095783e-02 -4.614022590917996568e-03 5.078805044620913201e-01
7.304138429697699941e-02 6.743690332236538295e-04 4.713714172367731159e-01
6.019052940532987339e-02 -3.461366398708598264e-03 5.175078259802167180e-01
7.573974739924760335e-02 1.131333657821650268e-02 4.641280265417267459e-01
4.582563855240821132e-02 5.302496023391181645e-02 4.482678743979378044e-01
-1.257141952025725082e-02 5.002823886937763503e-02 4.513803578504981817e-01
6.290411293229601630e-02 3.593907596738123676e-03 5.196223685133722903e-01
9.058516039449147905e-02 3.519997764662576717e-02 4.967582876071653941e-01
8.016964489298148561e-03 2.613498828324213596e-02 4.429443977138110555e-01
8.604695963183982277e-02 5.083661459116362719e-02 4.560852656172503239e-01
1.012638970935897248e-01 3.074690537580808056e-02 4.682438378242808064e-01
7.667058813754165647e-02 2.159887591070181606e-02 5.178401920045473394e-01
9.061201876780573816e-02 3.666126545209023174e-02 4.634484940526368835e-01
8.822661672239785757e-02 2.244400974287074496e-02 4.684394452219511340e-01
9.112614513281082351e-02 5.191131076366457126e-02 4.871081171799571674e-01
1.906408242341916387e-02 5.193879612998573286e-02 4.466174003279733684e-01
-5.949160403634329297e-03 4.988582442112479004e-02 4.468674844194356344e-01
8.560281160530763822e-02 5.437484462894330572e-02 4.576831960642294694e-01
8.538943479771397838e-02 2.132853465097478071e-02 5.031489203999495174e-01
5.566729210754065016e-02 7.661454861185738874e-03 4.533017955626988393e-01
8.940817809848364273e-02 3.214735677732598329e-02 4.640173545984898062e-01
7.401946850763544208e-03 3.645681690952819881e-02 4.440737287646625009e-01
7.811985701429965956e-02 3.294695233986926625e-02 4.602265242550617197e-01
3.758413064556014732e-02 5.780430116358064273e-03 4.457271039670523405e-01
6.800792055357869625e-02 4.660592977654667152e-03 4.616789509686642923e-01
8.490043008757348908e-02 1.390433029102208264e-02 4.724178445698796192e-01
4.205605885449350406e-02 -6.054100519497973478e-04 4.471401045612177771e-01
-2.295224812712267498e-03 8.273009606443474870e-03 4.403274482332933393e-01
9.389298954769276229e-02 4.066595266612185733e-02 4.905363915415823506e-01
6.983052654373123058e-02 5.975837816808324265e-02 4.600722642633703896e-01
6.612616889516335916e-02 7.963165973786667101e-03 5.193907295269400981e-01
9.493821180323222531e-02 3.694061581072260320e-02 4.898982696053031938e-01
1.839679336436723933e-02 2.326717104337073117e-03 4.407843591156255236e-01
7.931428389213640573e-02 3.293961673327742284e-02 5.143644486486840250e-01
2.963663942453147529e-02 3.107521947444211174e-02 4.463408165132037309e-01
6.752409131254401287e-02 3.890623132364748327e-02 4.532476051688118512e-01
9.677986497225404827e-02 3.651689075488483149e-02 4.875292229503858099e-01
6.973430172689791540e-02 -9.331918208670027248e-03 4.895765535524602696e-01
7.135794764395041179e-02 -1.911243746372620362e-03 4.716632674278147253e-01
8.485110120944845680e-02 1.123656592529856564e-02 4.847639628259252098e-01
8.528437416674126970e-02 2.131764062094328518e-02 5.033961837520530835e-01
5.432686929362132155e-02 2.728284910026098839e-02 4.522661610800856047e-01
-4.009082031781963096e-03 1.285373617297167620e-03 4.389271777612544501e-01
4.340217922907879666e-02 5.563956539954240110e-02 4.482727266773272601e-01
2.081165363343097027e-02 1.219797256314077497e-03 4.408757971840610579e-01
5.624270089363771902e-02 5.053122038248157588e-02 4.493792620632909296e-01
5.298136639722133417e-02 3.160630777409695336e-02 4.513597887597496916e-01
-6.245057715208195658e-03 3.540676469523040132e-02 4.447466999365223272e-01
8.764721257617216765e-02 1.416929104461555830e-02 4.792230633252570482e-01
-5.057752786433159474e-03 1.819962899882373447e-02 4.417938001990920904e-01
5.932364570644618751e-02 5.707413845658231011e-02 4.507058950243691964e-01
7.158814656557198342e-02 -5.150847180636418214e-03 4.806355178883161550e-01
1.063749051684235863e-01 3.653623920867064834e-02 4.769837096915094943e-01
1.210669055320752474e-02 5.466951420924483218e-02 4.478722871491680468e-01
8.992179034474986898e-02 3.764747050588995031e-02 4.970539499817298590e-01
-4.304864982693219766e-02 -3.857626231835386242e-04 4.412936391146923265e-01
6.302946138519421870e-02 2.302585925886936266e-02 4.553891167413258723e-01
6.397596765842003541e-02 1.814148105889325756e-03 4.592187753459667787e-01
7.471437923995639940e-02 -5.889720579924932926e-04 4.884237731453712761e-01
9.856930262258545294e-02 2.957933556783930509e-02 4.825745988779040485e-01
5.417882751156092441e-02 5.741246944319261525e-02 4.499615445261030411e-01
5.242149543455219829e-03 1.191110052432593422e-02 4.413022636776027796e-01
2.399126658612761240e-02 2.287998876393448899e-02 4.447001221624450329e-01
-1.653470163635816989e-02 2.996031766016084286e-02 4.462807906505925071e-01
8.304085090254295642e-02 5.747157264476501770e-02 4.793824940123085909e-01
2.733180146327342588e-02 3.211700519954670957e-02 4.460408057298342888e-01
9.666256625450866946e-02 3.292494732333574314e-02 4.869993355446959327e-01
2.497201960275047261e-02 4.482487464983830883e-02 4.462380226845755193e-01
6.843919941357518022e-02 -6.920034635858725303e-03 4.724369150757181113e-01
6.908997161228089268e-02 6.645231992022900165e-03 5.129414811638119964e-01
8.935942967226569167e-02 2.634086617736505764e-02 4.960063084603489880e-01
8.800330819287875694e-02 5.311316261495912378e-02 4.573619867246508930e-01
8.130970680116976490e-02 2.060411066380024234e-02 4.643787129580045359e-01
9.273084245059470820e-02 5.756315537388680126e-02 4.673444413770192485e-01
1.666039311212580074e-02 4.940330082785874405e-02 4.459326700256222575e-01
6.861614663154541605e-02 2.164487796595442742e-02 5.263645219831470934e-01
6.508240353938675449e-02 1.329079310567582613e-02 5.248866780331306048e-01
6.361091053458418909e-02 3.546225917666002980e-02 4.530746232025814613e-01
-2.103260932539116959e-02 2.900781698404527806e-02 4.480254194518361599e-01
-1.562579293915925156e-03 1.790688513559794345e-02 4.415825719366864854e-01
7.534054494801768753e-02 1.661177957822248044e-02 5.161056824733791792e-01
-1.988638335650592601e-02 3.246143622850360816e-02 4.483574319328565982e-01
-7.773669924197087328e-04 -1.066708935498412655e-03 4.384073106305832468e-01
6.985979459554357562e-02 3.930567221161557906e-02 4.542194726261106763e-01
8.536037565904590341e-02 1.269444419395048332e-02 4.888925810839073183e-01
9.833186592455134267e-02 2.608173679698377184e-02 4.806584907165311060e-01
8.139619843774498209e-02 5.749492893903401097e-02 4.789085547019031330e-01
-3.320047510520012998e-04 5.394066061706222909e-02 4.486312099939511189e-01
7.732121421194756983e-02 5.549375562995344235e-02 4.535667728353620087e-01
5.697335996245189021e-02 1.559384562814684558e-02 4.538000080290460758e-01
8.898526725406899485e-02 2.413460396514576639e-02 4.947558127182609677e-01
3.892764642669608449e-02 6.384854995578104209e-02 4.511533943566901628e-01
-1.792196073090815108e-03 4.483625350278686722e-02 4.452563623757808120e-01
9.674648640984070957e-02 4.182493035605632653e-02 4.868004926797496745e-01
1.035996272436416343e-01 4.059035120735648983e-02 4.703736131286372357e-01
5.091199178471346454e-02 3.443750318958324619e-02 4.504066675965507360e-01
-1.085345958035234537e-02 1.880731483071730256e-02 4.426151433622435571e-01
8.123693742014921615e-02 1.043012954660995327e-02 4.714041871106512960e-01
4.620038288965810230e-02 1.586652415097144012e-02 4.495775908988551284e-01
3.947159005673056553e-02 5.807689010570453447e-02 4.484315590463905377e-01
3.619052002802263662e-02 5.192785505038866739e-02 4.476095278668392741e-01
8.264440085694994831e-02 5.478327388331752368e-02 4.890712822593876741e-01
4.241060833543101871e-02 5.505870619984523304e-04 4.473002358907164910e-01
6.688117936537923969e-02 -2.024776316081928259e-03 4.650334402154622793e-01
7.152301850213080292e-02 -4.449517369470490716e-03 4.898932421975131235e-01
7.080692343371919328e-02 1.263634306511269775e-02 5.177024436664199314e-01
5.243287165596202670e-02 2.304106367903770158e-02 4.517443980436329221e-01
6.777213660576790130e-03 4.848120603534485096e-02 4.454755034733666186e-01
9.551917866842389582e-02 4.219417278351243750e-02 4.607190600542878656e-01
8.968571328570817958e-02 5.574093317549941307e-02 4.773205521732818979e-01
9.478321254061913836e-02 5.019803087469829062e-02 4.834944594190490053e-01
7.535435209453512917e-02 1.886456952924813954e-02 4.617808770237278870e-01
8.087061287129582166e-02 1.423006382131185472e-02 5.052682858020101087e-01
9.062440807963746681e-02 5.104826310835552244e-02 4.896944543098561975e-01
5.802982384611355543e-02 1.890310904177695470e-02 4.538062273392203805e-01
7.890425738520466525e-02 5.627388016986292069e-02 4.552610811051394091e-01
6.500372632974435461e-02 -1.501796595146466518e-03 5.097316248756436075e-01
8.087123515187573039e-03 -1.083402948887117120e-04 4.391334241012799788e-01
4.111116658334922069e-02 2.935473048687800915e-02 4.486913464552494957e-01
2.786425265211781716e-04 3.722268463991562637e-02 4.442854841465791460e-01
9.661780484527003610e-02 4.863182656672300486e-02 4.663182574871205244e-01
6.499323154981530293e-02 4.190861650842026692e-02 4.519392473097129104e-01
8.464415410828260433e-02 1.334611023971301116e-02 4.933375288451196661e-01
9.555050575217260977e-02 5.007650392092768965e-02 4.649991114832960348e-01
7.593817898369850661e-02 3.836714978049911295e-02 5.111974954847124941e-01
9.339896585943281704e-02 5.639349453977021698e-02 4.651882057488784805e-01
7.984502276283317324e-02 3.667251591145736372e-02 4.606611420602517160e-01
6.009944179379619889e-02 -1.127811941309866950e-02 4.637765804238264122e-01
5.682916654013282082e-02 4.511874938332603030e-02 4.499250894846173465e-01
8.635920591235297927e-02 4.728281656511972714e-02 4.558298416065864056e-01
6.630949622877238547e-02 3.936968689622904333e-02 4.527658304689948232e-01
4.019900067431039781e-02 6.389316571303128856e-02 4.521269212481918709e-01
7.230744295130622779e-02 5.043386283839348949e-02 4.517546281275818254e-01
9.278626554409141747e-02 5.738668106755157039e-02 4.673750867160499922e-01
-1.216465778854971050e-02 4.423181409760292004e-02 4.474797726480109761e-01
1.627214005722385764e-03 5.265430689155651406e-02 4.474619722228697638e-01
7.644850240442209455e-02 2.651886145774984618e-02 5.198402690408222560e-01
5.209784114134374117e-02 1.454481009037039696e-02 4.516985317509549236e-01
7.889449835066091044e-02 3.618669517416458342e-02 5.120945189190814206e-01
1.011801201638208858e-01 4.295767227386552978e-02 4.705454809109109182e-01
9.600340114963956673e-02 2.365560451391550759e-02 4.756257116223768788e-01
4.193214400572187889e-02 -6.964066676435641534e-03 4.470701532669584255e-01
-6.242364755649768698e-03 -7.764901966723128900e-04 4.383429103407095462e-01
1.038081100651430839e-02 1.653331778021492615e-02 4.423502489456980769e-01
1.258405491640784447e-02 5.103545387568385328e-02 4.461870149330954827e-01
-2.244987033283298711e-02 3.229239043942855325e-02 4.501739736696220850e-01
6.223161931264662577e-02 4.923118089677967074e-02 4.500531834419800314e-01
-4.179657096505567243e-03 3.656213913321088721e-02 4.446244446138096773e-01
6.257312137170163713e-02 3.599944601203761835e-02 4.526744389460777840e-01
-2.288638163961852906e-02 2.227212054557759641e-02 4.477354162667868676e-01
7.789442024893369898e-02 4.179772162838228666e-02 4.564827406122106690e-01
9.419960168556559821e-02 5.049687362121248885e-02 4.623387600167914724e-01
8.307944836950709178e-02 1.026674692552342547e-02 4.902765283522081408e-01
6.816590315512464915e-02 7.749896378219864324e-04 5.065982954409444794e-01
9.308279274581529594e-02 3.192393734622860774e-02 4.926988114864662704e-01
1.852058680987334061e-02 5.785849106563036026e-02 4.489855159455211076e-01
4.321668441364891200e-02 6.297622237730815531e-02 4.517569067773626323e-01
2.578275897999725980e-02 -2.752190730296535329e-03 4.408394748442558408e-01
7.221834378754438122e-02 5.354898517266763747e-02 4.521382940136764450e-01
1.026193312237637933e-01 3.796501078647820937e-02 4.646413761180168689e-01
7.064935775608108259e-02 5.758312970637367856e-02 4.522258734457140217e-01
2.630159052634459260e-02 4.486416898805138664e-02 4.463814161808723480e-01
9.251327093085308373e-02 2.610406819783251883e-02 4.673637132129670468e-01
4.642414322922174680e-02 1.522291310529421196e-02 4.496349546431904765e-01
9.604678345386964688e-02 4.246092327802713368e-02 4.605858368568426786e-01
3.984280989345443530e-02 3.956109413207139353e-02 4.482716860494321276e-01
-1.908462145450506506e-02 1.674467064746746475e-02 4.450102147367870353e-01
4.880756635892563589e-02 -6.615807370243888957e-03 5.282535548027005312e-01
6.254746036753938698e-02 3.559866277234725873e-02 4.527516562750208418e-01
9.162971176973078169e-02 5.348090114905416220e-02 4.814103585147693209e-01
7.365231149736396754e-02 -2.535704302433580953e-03 4.848963490735162529e-01
7.148992123469495585e-02 4.783175216066565434e-03 5.061085191934319161e-01
6.726507667321948714e-02 5.754096924769840082e-02 4.531870535610647566e-01
7.859766867445387023e-03 1.422241079841928338e-02 4.418457985511334285e-01
6.756818703540164173e-02 4.864885682827183033e-03 4.612916376140392960e-01
5.797761062987425579e-02 -8.791932491730217875e-03 4.588353539339106724e-01
9.145418039653453735e-02 5.723300446587664680e-02 4.724711322121598056e-01
7.741712046603138608e-02 1.151760712619069940e-02 5.074624472928769281e-01
8.705415831457356812e-02 4.699155232808279598e-02 4.964865160710690839e-01
-1.786529322217045648e-02 2.104280293259898349e-02 4.454966178416156497e-01
6.620549545225082322e-02 3.177465443850970711e-02 4.549352783744088913e-01
7.244916817973418022e-02 2.836546200845539364e-02 5.247214345500820221e-01
-7.114178353678579994e-03 1.528486576387612893e-04 4.385880856828061058e-01
7.525750315015806990e-02 2.021267589114385949e-02 4.613879284162673011e-01
-1.513440477353732508e-04 7.253889890226545602e-04 4.389008711377966887e-01
3.513748840573433646e-02 2.792218925372219260e-02 4.471734000103786966e-01
7.162727813439605240e-02 2.938104942729257915e-03 5.027540893727698856e-01
2.689377898501515984e-02 5.816903572069931361e-02 4.483104763468217513e-01
6.959339587468967026e-02 -9.035035653657536373e-03 4.915151846997580787e-01
5.154249275493420074e-02 5.162575707683055709e-02 4.488582732609320280e-01
8.074698259836761427e-02 5.742884192279289896e-02 4.586858779253586427e-01
7.183226837133083187e-02 4.318533915988430338e-04 4.694720316829775197e-01
7.235942967128776437e-02 -3.805874951498438522e-03 4.798514590379616696e-01
6.201367876322012168e-02 3.562554039914391651e-02 4.526319563086188547e-01
4.925341398935351861e-02 4.495132499839966933e-02 4.491969677152173324e-01
8.556041823656483636e-02 5.565515388999012908e-02 4.828655341714970795e-01
8.068200862929499062e-02 6.477814670886277229e-03 4.850522435072426308e-01
9.987081490361184033e-02 2.652115089857519717e-02 4.787353805711762056e-01
8.434497382452349479e-02 1.877605326904145319e-02 4.673043961630257703e-01
4.727180390553752110e-02 -1.968916864617085635e-03 4.497075466744613892e-01
5.807856107229326242e-02 2.543628636982254304e-02 4.534917708702553840e-01
5.202627052862524026e-02 -1.052387294151140365e-02 5.273340148419847218e-01
5.785643360258615336e-02 4.465035793245118040e-02 4.500756317446977794e-01
6.943605670073178804e-02 -5.059403214596009876e-05 4.665016714738220438e-01
6.778639824025711746e-02 -6.519476869316665271e-03 5.006074868022699631e-01
9.411223943298595296e-02 3.930481852532462239e-02 4.906442437072806584e-01
2.838448397481921348e-02 3.046340826927851006e-02 4.460502218193445056e-01
1.060536781456859479e-01 3.763415075630462125e-02 4.770018008676201737e-01
9.067151061035517989e-02 2.150019489914166762e-02 4.887180545046358460e-01
8.739435416404510437e-02 5.767988953057242435e-02 4.607549072046871474e-01
6.937743133272365748e-02 -9.034139552233944395e-03 4.801473565651645514e-01
1.075361783490448725e-01 3.178009156083050346e-02 4.752141486147342664e-01
7.378082999300708544e-02 -2.361185427839422764e-03 4.869506245395125443e-01
9.216864582986983301e-02 4.558188460915225254e-02 4.910506608456918776e-01
6.330614964205771855e-02 5.775911334957029020e-02 4.533892398173166582e-01
5.808985295489091545e-03 1.982162520649658356e-03 4.395515464129146621e-01
4.038063379498985778e-02 1.503262279114523682e-02 4.476740328638227351e-01
3.698213518688007323e-02 5.493217298850316954e-02 4.477343183567153440e-01
1.537212820215757073e-02 1.858633794064979555e-02 4.431477878927329583e-01
5.704568388809391766e-02 1.268569501059365646e-03 4.546657843184349068e-01
7.360418077451662267e-02 5.780854773840259087e-02 4.529788531268447715e-01
6.881966306572899483e-02 -4.600872454743226356e-03 4.990326021515193444e-01
9.411359570087492188e-02 5.041326026465754034e-02 4.620769791730319764e-01
9.447049198651849555e-02 5.306912694848425066e-02 4.778727995454692956e-01
9.303828514283757345e-02 2.110756178923442472e-02 4.798097607537467058e-01
7.009864290559884858e-02 -9.067096728735095021e-03 4.852580112324095252e-01
1.034605740164542265e-01 4.009647660358159338e-02 4.792452089186883257e-01
7.465212769135451398e-02 4.529415436482425034e-03 5.005073755762476928e-01
8.983370422342487616e-02 6.067804122205470996e-02 4.643458815012747043e-01
-1.659604365694636969e-03 4.694791498960890902e-02 4.455521427070892604e-01
5.393770738743657034e-02 -1.251096872770018952e-03 4.532463061883968414e-01
6.826910748812389795e-02 3.344641201772194372e-02 5.233770178221718306e-01
7.720389051816406445e-02 2.126819581863187772e-02 5.170453834840333940e-01
3.744299211060604649e-02 -3.875830789887665939e-03 4.446347724860071349e-01
8.526554317095916269e-02 3.321263171795141994e-02 4.634537127097163589e-01
7.982489619054099206e-02 1.366233603839805272e-02 5.063563236786006172e-01
9.576434116757007176e-02 2.902408975454204981e-02 4.872740806393424107e-01
1.519829920140173922e-02 5.397679940705704671e-02 4.474316447537233232e-01
5.187726015930587548e-02 -1.433547883204728222e-02 5.285354259971342117e-01
2.831621496530166773e-02 5.743329810824079895e-02 4.481170748772729806e-01
9.454853135500167205e-02 2.269370735837715133e-02 4.749793706850937158e-01
7.663663665198668096e-02 3.006417205860244246e-02 4.593802129820533930e-01
-9.745083813610866050e-04 4.064433431493751081e-02 4.447037413302414310e-01
7.906943786975945132e-02 3.456205958541432033e-02 4.605755973219045063e-01
7.314337083566233022e-02 2.573891684353446854e-02 4.583916919234926057e-01
5.445420160058003778e-02 3.574476702899903689e-03 4.528272884563855349e-01
1.040786475059869189e-02 5.102002384372322785e-02 4.462699204711522705e-01
-4.607297402929033669e-03 1.806680306310950654e-02 4.417473860389901086e-01
-5.371789084661804554e-03 5.351786247537766716e-02 4.496070049539012681e-01
9.569129607601334353e-02 5.083251637927104633e-02 4.661554717844595408e-01
1.766340793400213161e-02 3.724435452848712247e-02 4.450395764368657581e-01
2.943360499484199214e-02 6.948635741967083140e-03 4.439160015260032455e-01
7.073110762495875281e-02 1.033794156750018380e-02 4.615525337551130702e-01
9.615588662256094321e-02 2.441305263188921215e-02 4.819457448356879170e-01
2.313420751181161431e-02 5.895753124141837193e-02 4.490931974619682965e-01
-6.797496907833794344e-03 7.691729999926193509e-03 4.401387945977258132e-01
5.615172296578149931e-04 5.058001151813852625e-03 4.400204786539998469e-01
1.168138536784477099e-04 3.933786437655429138e-03 4.397562186325409961e-01
-2.342686605702511658e-03 4.221496852946800271e-02 4.449432680797318906e-01
4.876270899819281496e-02 -4.313169469488289769e-04 4.503126181101631542e-01
8.165666205118675414e-02 4.692631164696457746e-02 4.543845285342236751e-01
6.836387242179030321e-02 1.700029756282113447e-02 4.585822038421594193e-01
9.112758461667647136e-02 2.099312046463584769e-02 4.870796884443374664e-01
7.355353857256738404e-02 2.059514773267375615e-02 5.208005738882370839e-01
9.937101137547332819e-02 4.526849455937895228e-02 4.725187274800746184e-01
8.541431377505349920e-02 1.904606868825753363e-02 4.996253337385075377e-01
7.375998466511261842e-02 3.242703092253276798e-02 5.205113129220919621e-01
9.096591064926633219e-02 3.940298571662949334e-02 4.947345815577058326e-01
4.673618271804659552e-02 3.701648126803243344e-03 4.491696011249145526e-01
4.661766349499728984e-02 6.356619023974345584e-02 4.558593143383476987e-01
-2.356566408942329174e-02 -9.420702467533457677e-04 4.398042040920297491e-01
7.681259238367940667e-02 6.554826153563928642e-03 5.009809280163562972e-01
5.100880767456966725e-02 5.751394382757236273e-02 4.494402625235240922e-01
7.253562412160956263e-02 2.842057968896403650e-02 4.577231281059445656e-01
4.849355258515900685e-02 6.166093250546340193e-02 4.521133516791944196e-01
5.673705353722381661e-02 3.034303723491030974e-02 4.525341579796404723e-01
6.287001113518764228e-02 9.680429699057377033e-03 5.245217613745946084e-01
-2.484309676592570681e-02 3.430173977702290558e-03 4.414914996235201894e-01
3.383991321124737300e-02 -8.352734300527428577e-04 4.436843320545833524e-01
6.921316025500046099e-02 -4.211417981486951893e-03 4.706680234427583764e-01
8.127734616946431789e-02 1.297006756908565192e-02 5.027272694840134726e-01
8.893617050160680659e-02 2.718111459629573429e-02 4.650731536854655346e-01
6.616302915976700338e-02 1.690727622621548271e-02 5.264163648046890076e-01
1.008360884513033462e-02 5.607440830532645776e-02 4.488278255367070257e-01
8.174669308898430131e-02 2.357167050243812179e-02 5.118316666503064383e-01
7.391579816022457450e-02 3.224237500277699758e-02 5.205891050647992735e-01
5.597467118849235035e-02 -4.886290378922688096e-03 5.223883522350799558e-01
1.905141101672824799e-02 4.439866010981748795e-02 4.455922015495735189e-01
5.820667222141449881e-02 1.669318588681725085e-02 4.542003115480429676e-01
5.240048633601935429e-02 -9.169216567702614951e-03 4.545434888944266949e-01
7.597386915695275578e-02 3.832046477045784882e-02 5.112475289339366569e-01
7.869934146079678172e-02 9.673818574042786222e-03 5.030883815134885584e-01
8.139213268067867213e-02 5.765075262007593460e-02 4.770884845438472799e-01
5.545822147049278561e-02 1.729084370696011910e-02 4.529989539197877280e-01
6.430970023201425245e-02 -6.264194809339764317e-03 4.651906801852467854e-01
6.485839070574475618e-02 -3.351785410623002968e-03 4.634725448003085835e-01
9.711315125105617063e-02 4.872058610472519702e-02 4.688718643955510634e-01
6.378199514446596108e-02 5.215859086029730335e-02 4.499564967062983922e-01
3.367602745332851782e-02 3.117366191933589048e-02 4.470712150264636864e-01
1.059899388392801858e-02 4.633550826377911408e-02 4.452600304935238618e-01
2.843481572641174543e-02 5.705336356518170976e-03 4.434295011513013085e-01
-3.021028199100822195e-02 4.199075023076321266e-03 4.431235632907183919e-01
5.442607757221350206e-02 -1.255237405198772124e-02 5.258372056931583938e-01
-1.577820967031969349e-02 1.287709953283660939e-02 4.427279749430645950e-01
5.727336225012696208e-02 2.729528911454259105e-02 4.531611023929431603e-01
3.886218615392963288e-02 3.900083111219633698e-03 4.460182306469293034e-01
1.053788982694722071e-01 3.111830082731723013e-02 4.723196685560942520e-01
2.756673692648128893e-02 2.697410022077900704e-02 4.455875310707446135e-01
9.879756952253958280e-02 4.582449941411826516e-02 4.795771100571994405e-01
6.332159378569902908e-02 4.046409871151160700e-03 4.581933923641559603e-01
