6.778192424791434911e-02 -8.413921659609224649e-04 5.042380457387556358e-01
7.005625205378566978e-02 5.648565878181984086e-03 4.630129380320652799e-01
9.867280937614406056e-02 4.524347770052785517e-02 4.756954595369917715e-01
8.007202072815590432e-02 7.155286228563559857e-03 4.746844640376431390e-01
5.961865493950349593e-02 1.660172532035186777e-02 4.549805071246559307e-01
3.483193794011087835e-02 3.827816398421211332e-03 4.446780003414116944e-01
7.932056725260866470e-02 5.663860199194751394e-02 4.576002763269230167e-01
-1.032248485257198853e-02 -1.303799936717987048e-03 4.381815594638418521e-01
8.034119541398911102e-02 2.697860638349446755e-02 5.134771639437323287e-01
8.524329412908245029e-02 5.630443834140574921e-02 4.795105203996052334e-01
7.400853917977595620e-02 -7.029972821131704082e-04 4.796651455703621059e-01
8.562989089555865518e-02 1.707688412941996484e-02 4.931205079330653884e-01
4.818518575166807344e-02 2.005636049021644954e-02 4.505397985836594454e-01
9.832205957528446227e-02 4.603791407986616846e-02 4.731303311406351852e-01
-1.387397693812726998e-02 1.615382736754470208e-03 4.394153051175285762e-01
5.207815905708895049e-02 4.646675296213679390e-02 4.495701433256562018e-01
2.930817617575542239e-02 1.417186541070515268e-02 4.449994320025189576e-01
9.852366328846016985e-02 4.287559936382104309e-02 4.832201022215174002e-01
5.984704735103259232e-02 1.957326690776409542e-02 4.546560100608242339e-01
1.046744409946823717e-01 3.678432899197451450e-02 4.776708790827168261e-01
-2.148812917320054583e-02 2.945510028201011460e-02 4.483889588801727166e-01
6.091024914534433864e-03 2.507341322983926840e-02 4.428289371811729436e-01
7.279180767884377290e-02 4.428488128540915975e-02 4.533605329198849287e-01
-2.221081273143967957e-02 1.335774527843752724e-02 4.452886805483851074e-01
4.413704058546683018e-02 -2.081393821667547762e-03 4.481332466471932841e-01
2.760390033299703338e-02 2.621046445534079561e-02 4.457300293579675166e-01
9.333162075403651781e-02 5.380987628635837405e-02 4.753319230623521130e-01
6.997139450892393697e-02 1.853220111826463928e-02 4.593450448629822769e-01
6.855606623136704936e-02 -8.068826165970401781e-03 4.962367004545967797e-01
7.961381754653815146e-02 6.109988875742697334e-03 4.821831398512783640e-01
5.683881152425413613e-02 -1.055196002692969370e-02 5.226928802923866968e-01
7.537256176585217793e-02 5.387955761651098789e-03 4.999238762771676670e-01
5.411571531949634778e-02 1.146146077771295971e-02 4.528239079638524123e-01
-4.488546759615878387e-03 1.889682813327417388e-02 4.419620165090498709e-01
5.100480915154804312e-02 3.120033962591563584e-02 4.511561944240858324e-01
5.988298459114546612e-02 -5.605373962954746624e-03 4.591074770290520246e-01
6.182806042873065233e-02 -4.395489841217998725e-03 4.608721220264497265e-01
6.268130262892007698e-02 1.664045328727847134e-02 4.561847889738602779e-01
-7.997950778687241621e-03 3.666723936440677289e-02 4.453839245932089685e-01
3.910794772434823124e-03 6.152256137063186366e-03 4.404613794350074607e-01
1.975337895159979401e-02 1.411522344601543952e-02 4.433450918275305686e-01
5.218900210371640869e-02 2.970016039537823338e-02 4.516447423106488279e-01
3.423753971087593884e-02 5.199270565564233226e-02 4.476621366347468545e-01
6.474512317025581110e-02 5.068868773273951800e-02 4.504069843375576587e-01
2.988498865941184232e-02 4.570745663731226593e-02 4.469989727543501323e-01
6.052752402585414443e-02 4.077644043537338031e-02 4.514391861220563573e-01
7.606698201589762176e-02 4.205870663482233138e-03 4.961232105156924144e-01
6.984212146225660112e-02 2.026381173450128928e-02 5.240950555103317532e-01
5.148063621183879279e-02 5.897048075213139756e-02 4.506529299643774467e-01
1.452327028122636643e-02 3.121524491272392732e-02 4.441805630800250704e-01
9.020779078734272871e-02 2.653718280299098911e-02 4.930146452617754638e-01
3.755489077679582954e-02 6.424664509091913833e-02 4.523809756999220832e-01
4.781587157533424143e-02 3.004291662082922768e-02 4.504469095996395667e-01
1.039619473339206263e-01 2.963014975300256107e-02 4.742906377949760444e-01
5.715593719473853473e-02 5.802724341818352866e-02 4.518653181635723382e-01
7.961613085380428445e-02 3.659461947930464643e-02 5.109529830620260782e-01
1.081186825447342029e-03 8.683472107847417867e-03 4.405056362897845079e-01
4.229318954281609602e-03 5.389714945460580275e-02 4.482279243045267370e-01
2.802276506070172125e-03 5.407749009511553240e-02 4.483772734845892782e-01
6.928031643756549229e-02 -3.856162398698867542e-03 4.974399972503213418e-01
2.984257234727105690e-02 2.637431490588861005e-02 4.461831291475026329e-01
7.261348773248521571e-02 7.913727350759180990e-03 5.084699988513177171e-01
1.018792887279564019e-01 3.891700116932645531e-02 4.642823067315125507e-01
9.577266487248949078e-02 4.607101243787094930e-02 4.857255033563255275e-01
6.198468425174309682e-02 -2.356485154564675038e-03 4.597338459470741712e-01
3.790500731613201391e-02 6.338134084594522488e-02 4.511190268680037585e-01
8.370546756701408020e-02 1.589445914737858123e-02 4.986988335771858072e-01
3.356968441459842745e-02 1.241483980200307896e-02 4.457034646135145661e-01
7.133911421396252339e-02 -2.896482016208630494e-03 4.743121455076748649e-01
-4.381538399297481984e-02 1.358771832498722890e-03 4.459151770950801064e-01
8.766858677121602827e-02 6.106881743954306607e-02 4.667565319419293424e-01
8.413683508740039951e-02 4.106908248003864753e-02 5.024393977618522023e-01
9.782166727542616902e-02 3.360955822856776659e-02 4.843159060783701619e-01
4.407746765989288551e-02 -3.905138966596415594e-03 4.481370566030966618e-01
3.030768110105460517e-02 5.405402698071593709e-02 4.476850151838542846e-01
8.518846979106860229e-02 1.394165159417321345e-02 4.895605896780008681e-01
5.964861958996200281e-02 -5.861718571651128480e-03 4.589544947804716779e-01
7.893987071149131951e-02 5.353169217797626792e-03 4.821440381394411778e-01
8.932066508639152635e-02 3.481574861896079981e-02 4.979998666672025842e-01
8.735762047436586297e-02 1.559628241270009236e-02 4.756728100794382907e-01
6.622544274581280976e-02 1.189894151839135210e-02 5.220225297080678395e-01
7.043828451438424731e-02 -4.911790867729163776e-03 4.917858524194725911e-01
9.124246242927465389e-02 5.648358211293339620e-02 4.707726939628663620e-01
9.529212801693356938e-02 2.892418923348881801e-02 4.864757761672993119e-01
4.906451784927876730e-02 -1.494817929106520213e-02 5.310765788816907973e-01
1.363114251479403093e-02 3.802353998840714289e-02 4.447929878302308015e-01
9.257815988684504893e-02 3.150817777303482198e-02 4.922273690391393841e-01
8.915644771785806444e-02 3.751518660566809799e-02 4.627210282604323766e-01
7.178355789815359100e-02 -1.079435641307768942e-03 4.721712547391928028e-01
3.866093569606367415e-03 3.233965538907004195e-02 4.437713192052469835e-01
9.166848393261896322e-02 5.144146234313422272e-02 4.610874088500791501e-01
4.661799029357606428e-02 5.067069038406572107e-02 4.487767224204278205e-01
9.637710372216680421e-02 2.497262282294360897e-02 4.775135248295386270e-01
9.100605854793915317e-02 3.469639322287013106e-02 4.949933661294108611e-01
6.368918401907619486e-02 -9.317650899063716075e-03 4.674458523298037349e-01
4.528858620665537904e-02 -1.063376504382593409e-03 4.487502016483073120e-01
7.599321040503619583e-03 2.525992030196995072e-02 4.429549048756859508e-01
2.003156196256706406e-02 5.890180554480548697e-02 4.494903592443655893e-01
4.517762422833732083e-02 1.092647122751708687e-02 4.489858142954564757e-01
7.932249117832484986e-02 6.243272539380301939e-03 4.907297731066292967e-01
8.946518893049144883e-02 5.744545081904577771e-02 4.630826056229078724e-01
9.536511825343377269e-02 3.054740021761982033e-02 4.869517167531058344e-01
1.225924110679663982e-02 1.966325980504246215e-02 4.429551661636260684e-01
8.193443040034598113e-02 5.754508720361774243e-02 4.797171645620015856e-01
5.371421579311990574e-02 -1.038306864892137027e-02 5.257735388442622559e-01
6.226905107905538611e-02 1.434745495894083379e-02 4.563800405069894373e-01
7.398928228871219648e-02 5.534656787985059445e-02 4.530769988007504190e-01
6.445952410427832624e-02 2.386822154272271422e-03 5.145766783745749917e-01
3.774395692615367670e-02 3.715770043312768833e-02 4.481978549424929237e-01
-1.618015612451839669e-02 2.744268354976118346e-02 4.455568430107258449e-01
8.336075999540487613e-02 5.513948178679898421e-02 4.867889865366391566e-01
7.969014985187218569e-02 1.975207855575030619e-02 4.640984737472316213e-01
6.338448472410732060e-02 -6.619703206283698675e-03 5.099161725179487403e-01
8.384461382243396654e-02 1.930934270118505464e-02 4.671527337129718904e-01
8.359618711296258609e-02 1.991150141473413057e-02 4.665005488386219645e-01
8.669076677131475062e-02 3.383584098220560749e-02 5.028121744135601867e-01
9.640583851311861074e-02 2.955416723909900720e-02 4.844233551174277896e-01
-3.553273056840481128e-03 1.752970686350828131e-03 4.390728252789053432e-01
4.879305078456813716e-02 -7.222307599101198197e-03 5.284072230811928117e-01
2.426235410066937548e-02 5.998932753853672851e-04 4.413612303006992921e-01
1.007775753521515244e-01 2.720828930071217053e-02 4.733409204080752386e-01
8.725549815141304261e-03 4.300142342867303152e-02 4.449758943317574378e-01
6.252411485350185816e-02 5.781446409290409705e-02 4.537279849079157712e-01
2.242564867726217631e-02 1.802780022003468152e-02 4.441896216825883537e-01
-1.942435602006590406e-02 2.741757680147323059e-02 4.468401340872132921e-01
5.353477459497167634e-02 2.026141540893897086e-02 4.523034873599091066e-01
8.960722355005701356e-02 1.779761932305402167e-02 4.817707303770874527e-01
-6.436061294339696578e-03 1.834558198449968633e-02 4.419726806691048893e-01
8.394469331145978930e-02 1.075223870081815601e-02 4.813832859424599930e-01
7.357767852013566423e-02 4.420333573804937841e-03 5.010427393206802194e-01
9.386755803192824155e-02 2.566236732614668448e-02 4.691577467248410627e-01
-1.129017775328674741e-02 5.819708036122690602e-03 4.401937525520516203e-01
4.965361221157005983e-02 4.623684594418391025e-02 4.493563793705666054e-01
-1.836451718043323467e-02 1.899262900198695272e-02 4.451681033602490345e-01
6.282601257455425192e-02 -1.467251362333350535e-07 5.143890517052658318e-01
-1.156624558951831541e-02 4.218105465493889733e-02 4.468920968908345892e-01
9.404756866452249064e-02 3.552893536479353326e-02 4.901422661194288488e-01
9.733160350800691696e-02 3.480951899676594519e-02 4.854982460733699434e-01
9.531794893014157444e-02 5.080517488909696427e-02 4.684518947701772906e-01
4.603170365120670682e-02 4.749025646044355287e-02 4.489562716543509246e-01
5.343824203145083190e-02 2.455399620276771389e-02 4.522715932404946515e-01
6.895065762667183795e-02 -5.743463352045393572e-03 4.726800948226305144e-01
1.022349390269132186e-01 4.153956079470226548e-02 4.723225458407623867e-01
9.773450470674455159e-02 4.278579819095212206e-02 4.648085829854255446e-01
6.553668388382022369e-02 -7.140104774656909348e-03 4.681077399744771883e-01
6.114379201661158253e-02 4.735132667168762827e-02 4.503706626455431516e-01
8.692049778277040339e-02 2.431755589295138409e-02 4.979251877820959904e-01
1.803874298577206117e-02 2.385535118540294333e-02 4.439934313622288520e-01
8.786784655589217896e-02 5.095525114315787446e-02 4.923777812884723160e-01
1.603823104730393856e-02 5.887165707403175380e-02 4.524884835218362378e-01
7.390378947517405039e-02 3.716876620682268983e-02 4.577154559766202779e-01
9.277229277439016930e-02 5.471223628423420304e-02 4.728206944619188778e-01
8.126818627055602817e-02 7.979090890049875262e-03 4.803028236983748478e-01
6.484541211151374773e-02 3.871919035961097350e-02 4.528697929307899384e-01
6.855328176492846148e-02 5.504118727352522167e-02 4.519672176753468662e-01
8.752096575602774653e-02 6.133901563754505515e-02 4.661816402401339765e-01
7.248082140757582115e-02 3.275513573043248305e-02 5.210705334572711678e-01
8.595815338379225734e-02 5.575363041515660895e-02 4.803703977719160356e-01
7.881614867421538051e-02 2.351379610382771379e-02 5.155786963523983912e-01
-8.698071571654987164e-04 -1.756433027490103896e-04 4.386488994141762299e-01
3.757817882483872884e-02 2.147183569023338942e-02 4.475973857880359286e-01
-1.577994774215569010e-02 2.209531485378531113e-02 4.446994198359205397e-01
3.957655035726703047e-02 5.861958659740192090e-02 4.488151293582398060e-01
4.540740954969817861e-02 1.010485621947844644e-02 4.489461036229495661e-01
-1.732614139401167375e-02 1.302254852993696768e-02 4.433418121199448336e-01
6.807770608447338834e-02 1.447600839960565267e-02 4.593012698474602806e-01
3.812892009400700027e-02 3.442618389273572471e-02 4.481420077622838560e-01
7.661005860733229034e-02 5.711833632581633097e-02 4.557492128243177398e-01
4.210048888422631558e-02 2.909341764714271084e-02 4.491178417962960467e-01
5.878178635254746598e-02 -6.239680277603287632e-03 5.191812337294242630e-01
9.550045528206412004e-02 3.358098113825101760e-02 4.877814500487110405e-01
8.455633922873656561e-02 5.342773144896850734e-02 4.906825632554383532e-01
6.548574086615932544e-02 -4.520750609965838718e-03 4.658261282051296970e-01
9.414820430244377758e-02 2.796809331681582647e-02 4.881477391757705897e-01
-3.508583898896914383e-03 3.690821911213498091e-02 4.446730636825331762e-01
8.092238855759503746e-02 5.542470131740010603e-02 4.882557575511421999e-01
6.588802116878872406e-02 2.221594429434239210e-02 4.566246961984367081e-01
8.857028214618291317e-02 4.690300817279002832e-02 4.941471223930406498e-01
9.217850810131682227e-02 4.191284868698991889e-02 4.911926016199346656e-01
8.461464778478272608e-02 1.694883368960246883e-02 4.697170162524222925e-01
2.837895821144300126e-04 4.465032136370739035e-02 4.451962706535284586e-01
4.318882390736403232e-02 8.692514999068583215e-03 4.477996899168603662e-01
-1.138024189262837674e-03 4.805923439925212370e-02 4.457731225416741161e-01
6.595569712772275661e-02 -1.604315827456223153e-03 5.069424761216827502e-01
1.348579181196683102e-02 2.902754209670376125e-03 4.402776014524900638e-01
2.022398118246372233e-03 1.714980577510873128e-02 4.417285045042081970e-01
2.134686117047125686e-02 5.985023484382763492e-02 4.511115551936244472e-01
8.886121092519634612e-02 6.048058661671210090e-02 4.633351790286302507e-01
6.362058371310058691e-02 4.473322197846096165e-02 4.513805556320961143e-01
3.174988288661718949e-02 3.304039339930354979e-02 4.470775659287952730e-01
3.110717355037102838e-02 1.911981850853703563e-02 4.459046526096759333e-01
-5.304455807539347478e-03 1.614730760943414861e-02 4.414682122980891910e-01
3.199001341771015583e-02 6.975890213083305556e-03 4.445135130264691314e-01
-4.634563680345984982e-02 -1.267711108830551700e-03 4.442304813659866958e-01
1.053986544197378292e-02 2.976065154132015445e-02 4.436124281906819733e-01
9.229699226271360218e-03 4.176638036486821776e-02 4.448625498828239211e-01
4.022961984267119789e-02 4.892040466566686258e-02 4.480841276217246150e-01
5.914348177391113431e-02 1.823215915912591162e-02 4.545441298587211687e-01
9.463652383583921746e-02 3.456472009497266878e-02 4.642433234066004610e-01
8.920917610593155633e-02 3.450060969814417594e-02 4.983199550433747849e-01
8.507377394559946515e-02 1.535274515517257368e-02 4.719108882849500364e-01
-2.979424393721437359e-02 2.219947668406673218e-03 4.420970777939696728e-01
1.543435873911814561e-02 5.695764974259816954e-02 4.498885726961459053e-01
-1.877267442138581127e-03 2.992456640763170930e-02 4.436811042808371797e-01
3.342326010350171045e-02 -3.300744369009675667e-03 4.430304352685211500e-01
3.280857031003749091e-02 2.406317532612988960e-02 4.466771077899217568e-01
3.772838945243169734e-02 2.287465807391167449e-02 4.477106722157677132e-01
7.820373530727599276e-02 9.698703205526270840e-03 5.029204163559856111e-01
9.152276334008446756e-02 3.404627177221705714e-02 4.940311940171325800e-01
4.805362334086893394e-02 -4.468780408608888366e-04 4.501114221881163391e-01
7.358428610005916803e-02 -2.045696503735763665e-03 4.852433871805049703e-01
7.214212853444085249e-02 -1.232078540279769657e-03 4.730278934941622437e-01
8.163533546112496098e-02 5.047257742342168424e-02 4.957641406128131534e-01
5.525968153478683087e-02 5.235648644124944739e-02 4.493819707372627148e-01
8.216798676564446291e-02 3.191548764710282204e-02 5.108711749488129561e-01
2.744131013287063638e-03 3.676540653460139835e-02 4.442287429677938548e-01
4.542935569504359672e-02 5.975964001994529817e-02 4.499535287332358524e-01
7.962791660761807389e-02 6.141468946812405141e-03 4.818450472236852633e-01
-1.030004356430998767e-02 3.637257633476791152e-02 4.458614433735033078e-01
8.470639841951135840e-02 3.909959570575338716e-02 5.030515022548393000e-01
3.626182390975309089e-02 2.469798760461644135e-02 4.474515463920903935e-01
6.855637028406590811e-03 5.599558077225397223e-02 4.492103840999243092e-01
6.215578554089212782e-02 2.216745222559031968e-03 4.579810354343690215e-01
2.403621207820519357e-03 1.800674069930430915e-02 4.418602259833379065e-01
7.790522186353406042e-02 4.423164315200420714e-03 4.779213591148787077e-01
8.822181514323045037e-02 3.649044845687240274e-02 4.993498555903391201e-01
1.778900228960318686e-02 4.431699207821077069e-03 4.412801443100592413e-01
5.040295812327194591e-02 2.094782411661180732e-02 4.512673356741701558e-01
5.913977789354717823e-02 1.980151943463778069e-02 4.543710756373938175e-01
1.561366099028299592e-02 4.950043414918726264e-02 4.461512843157002250e-01
1.953684756116240429e-02 4.408645632382722501e-02 4.458705315282022186e-01
2.699087548211404411e-02 5.889148110452763207e-02 4.490620435458442805e-01
8.922007563857083101e-02 3.766940998826715653e-02 4.626245572739517420e-01
7.432195327237139937e-02 1.477142122488061572e-02 5.145876308669234955e-01
9.269998699608042458e-02 2.398917087553806976e-02 4.856796886686139403e-01
5.679355030794604187e-02 4.234889078205915369e-02 4.504188102251522330e-01
8.081775780944040755e-02 3.070169652686436518e-02 5.130885361575426851e-01
8.094919945492902447e-02 2.241590011895317966e-02 5.118899577650360966e-01
2.945289888894920410e-02 3.376663335859492882e-02 4.467406416673776470e-01
7.327148987016719739e-02 -2.720541910230232265e-04 4.930908895133387371e-01
3.835004505758681653e-02 3.498411343007025442e-02 4.481927559959975049e-01
9.205241392781894627e-02 4.492043839632026830e-02 4.904816758139570743e-01
1.008565538988575455e-01 2.829201240829648870e-02 4.786605823302062523e-01
4.302776024973650054e-02 5.995492349450455560e-02 4.496814601628255637e-01
9.408706807706716801e-02 5.302931396366741823e-02 4.697364081942784209e-01
7.627159595951385485e-02 2.921935228810559199e-02 5.196347663190943322e-01
3.153231280213043136e-02 5.005998032207376741e-02 4.471942945396662483e-01
9.334340152231308807e-02 2.938309750015213537e-02 4.899505484362045027e-01
8.841448913576503699e-02 3.941410574016918772e-02 4.979776618714114589e-01
8.336521009371819502e-02 4.529013214392388353e-02 5.008135949602707804e-01
6.456214399286844263e-02 2.023583270478704343e-03 5.139653224228366568e-01
3.980797108316218996e-02 6.312282662289089852e-02 4.512156163411423782e-01
1.622208888431127607e-02 2.277306969313200313e-02 4.436852683657888097e-01
4.329732869771145409e-02 8.414003940892995220e-03 4.478366603532393242e-01
2.227944105344972781e-02 3.755895792080259088e-02 4.458752276709468942e-01
1.482443010211497401e-03 2.179366010130768042e-02 4.422244101542714412e-01
6.102474728365269580e-02 -3.217487380753995384e-03 5.159181957520563300e-01
4.438814037734364892e-02 3.943527130797278013e-02 4.490821055215931112e-01
8.484059318446426912e-02 1.814328079597494342e-02 4.689901380076306192e-01
7.008535584564230814e-02 -5.032479552186012485e-03 4.941824241422957398e-01
6.575302222915259398e-02 5.827868468475125296e-02 4.543546446406768191e-01
4.952283968940773828e-02 6.379442016786571624e-04 4.507126835224431471e-01
6.105424833283022018e-02 1.911546541812227801e-02 4.551682749895378244e-01
1.218117660090999727e-02 2.204004920788061803e-02 4.430816803824059180e-01
1.164985963887984338e-02 5.507448717407074923e-02 4.483474875166423845e-01
6.969592135920107956e-02 1.164533143592266957e-02 4.607940691618955809e-01
8.639428486525649320e-02 1.940223491872615155e-02 4.939117627323089676e-01
8.915186766883417824e-02 3.348298640597277553e-02 4.640813537437493697e-01
7.623742320265991523e-02 5.899374484068690278e-02 4.594907779867000719e-01
3.803033957674410714e-02 5.758118661879874089e-02 4.485271241162309130e-01
6.497537700241270975e-02 8.645196369886344817e-04 5.118721872263392036e-01
7.595030987269482670e-02 1.873149065071741393e-02 5.162212101688491428e-01
6.850434666960444896e-02 2.265410153796288458e-03 4.636073149406185201e-01
9.820325263801703286e-02 4.538636478468678626e-02 4.711301803282607614e-01
9.045292861704427867e-02 5.802280763604694691e-02 4.639587453624608449e-01
8.611836548033345584e-02 1.358837842945939678e-02 4.837366950391500109e-01
8.163490442243893919e-02 4.919973346881253290e-02 4.974668776337874965e-01
8.590644736526016623e-02 1.463469773106143741e-02 4.884022485978177230e-01
9.678524862387305472e-02 4.846515561236665326e-02 4.763234702994660341e-01
3.675176364374635463e-02 5.351920703420315339e-02 4.479584275394168369e-01
8.673575757859526558e-02 2.211743746455585927e-02 4.962680304288898947e-01
7.163003059875404366e-02 3.839433728654564199e-02 4.561798322915774362e-01
1.002934258258718347e-01 3.473191129249148662e-02 4.656731125370896507e-01
2.174722502877787095e-02 1.151328031148706257e-02 4.433612327701106914e-01
-1.429912932571962558e-02 2.662470643645959215e-02 4.448242321414716538e-01
1.104328149310994378e-02 6.052190302485865175e-03 4.409163642727449428e-01
6.674487255368895255e-02 -6.014789921686500979e-03 5.028033314512481144e-01
-3.711318478071666538e-02 -9.763716180382804588e-04 4.401733992594725753e-01
7.810802016269587089e-02 2.781719423224564974e-02 4.602341381314601354e-01
-2.451191826483109168e-02 7.880796325801147154e-04 4.402750110402420813e-01
2.650797472117032844e-02 1.835579382908674936e-02 4.448629821574771048e-01
6.439392269279455017e-02 4.726302929636052447e-02 4.509171408648912083e-01
8.899496344861922148e-02 4.544373957386476509e-02 4.576304642983130555e-01
7.504759479544334533e-02 2.934306870830201072e-02 5.212332035213386172e-01
2.032623348092524665e-02 3.332537672518223748e-02 4.451920906522147114e-01
3.631951414045898885e-02 1.059636879100491966e-02 4.461182595399617035e-01
2.395019135303471866e-02 3.791296664183464032e-02 4.461789302027683313e-01
7.752505479406610056e-02 4.734742805615137912e-02 4.534973294576926106e-01
4.533109522561608318e-02 4.121832307694998920e-02 4.491459930893637598e-01
7.803596102177587368e-02 2.307557248081058832e-02 5.163349566654059641e-01
9.536548100676274509e-02 4.020267959257164264e-02 4.877052629768772185e-01
6.756467872527670282e-02 9.659760328559901382e-03 4.600028276975487995e-01
1.392564522748175430e-02 3.489469317039145535e-02 4.445368509064032692e-01
1.318928614162540730e-05 5.397640973041861051e-02 4.488137780305842539e-01
7.254963353154049444e-02 1.753894663254391278e-02 5.193773476451921667e-01
-4.621591413027395512e-02 -1.134784811033612024e-03 4.443474005413368677e-01
2.852362771782605486e-02 1.100271529084834686e-02 4.444499952510860830e-01
1.073621553035375292e-01 3.643472349593621790e-02 4.735694345178997344e-01
1.033287866267864202e-01 3.914771392328769695e-02 4.679425352884957201e-01
1.114013938953035271e-02 3.803286837931343228e-02 4.445547695624017526e-01
7.347490541298686006e-02 4.697808457902095253e-02 4.524864956355036383e-01
4.643884316986014726e-02 3.067877660128513762e-02 4.500004913311144716e-01
3.866245672734511252e-02 6.476626879838967565e-02 4.544901455139750968e-01
1.566870346128358682e-02 2.850839818805658496e-02 4.439473629716675918e-01
5.188370137646433622e-02 -4.465489020781286851e-03 4.529106658436661825e-01
8.654016810529077675e-02 3.417177067587169603e-02 4.639803505798880678e-01
7.884740873969593722e-02 5.600824923538686578e-02 4.555390340760108736e-01
6.062564574492535635e-02 3.915712049069063061e-02 4.518355013169692569e-01
8.236518796757229255e-02 4.715055113906014422e-02 4.999702552914507270e-01
4.344974261534072929e-02 6.325592711527971979e-02 4.537352040436887779e-01
4.428798400714704930e-02 1.431172116315093321e-02 4.490165166195973501e-01
8.827226844786260906e-02 2.770258846889156468e-02 4.981228309203448168e-01
8.425993061889638924e-02 5.697192871471429276e-02 4.594651963700320807e-01
5.458106441338750336e-02 -7.302326508795234719e-03 5.240929565881183860e-01
6.292313406114120877e-02 5.469897398208935224e-02 4.506648307966761302e-01
6.183468599981556402e-02 -4.600842631367015913e-03 4.610121664834798128e-01
-1.688446279165871367e-02 4.317391187027150301e-02 4.493077192099774742e-01
1.049279653416184677e-01 3.524193145664943072e-02 4.683189572115791788e-01
-1.003658451981545227e-02 -2.446711423532083388e-04 4.384691462780094251e-01
6.677657597989293536e-02 3.554646289712563856e-02 4.542745262357827385e-01
5.287807599177016954e-02 4.052151673791396652e-02 4.500832106699752533e-01
9.664794327668406460e-02 2.893047367180182419e-02 4.836836623587810191e-01
6.526882272215485392e-02 2.412606764077803063e-03 5.132649885470637052e-01
1.663567194498682608e-02 1.927741040543898277e-02 4.434760945220437289e-01
8.767585728152581248e-02 5.406537156397824007e-02 4.860383332829641412e-01
-8.370349619189402027e-03 1.772907777023389336e-02 4.420543285232823028e-01
-1.752152725930958971e-02 1.469980942365972654e-02 4.438925489094411869e-01
7.540547615257842118e-02 5.026198569750539580e-02 4.527020982077837319e-01
-4.876932505481055072e-03 4.229103830951905230e-02 4.454912668497589268e-01
6.747321683277401894e-02 3.196188377545940151e-02 4.555072140243352496e-01
7.061198475445969180e-02 -2.166996600005386114e-03 4.957254321228030669e-01
1.014550384480909090e-01 4.201452166835960289e-02 4.781260567045005350e-01
7.578206506805912346e-02 2.279926366731348242e-03 4.768044340142604809e-01
4.794061874008272162e-02 -5.704862154574420752e-03 5.284521874343119929e-01
7.536270391294792870e-02 3.096767338107841994e-02 5.206126289888186598e-01
6.177509499191632947e-02 1.874988165418445957e-02 4.555038468231979443e-01
5.885010280276894989e-02 4.196623846675014147e-02 4.508181922069661729e-01
9.741410361562509446e-02 2.768806090922049448e-02 4.817185249926400625e-01
7.981497283662433717e-02 2.421397067024084679e-02 4.628336699150702449e-01
8.312658378114119728e-02 2.450376482043218479e-02 5.087924450306309243e-01
8.838068417958104550e-02 2.502120507519413686e-02 4.952973841222169660e-01
8.873044093366554141e-02 1.849063305178790320e-02 4.737642753611626678e-01
6.455225563905654662e-02 4.982712234298938142e-02 4.504987720363094472e-01
6.721663838979954897e-02 5.532479492392110287e-02 4.517356120768498684e-01
7.915704339040686988e-02 6.897929706729337938e-03 4.946670122744417086e-01
7.511384359674758149e-02 6.824720622612343024e-05 4.860113973767687945e-01
6.953832100255344373e-02 1.498968918083564035e-02 4.599499476861774183e-01
8.608482332014226468e-02 2.008553262301898679e-02 4.689129365400572236e-01
-2.191608082141227945e-02 9.394506848789625775e-03 4.435091353829639926e-01
7.425639057841926238e-02 3.317496180575652681e-02 5.190006128559370158e-01
4.532406797550374983e-02 1.427223811827565969e-02 4.493732858691107945e-01
6.633928794089191672e-02 2.045303895274084086e-02 4.570070761755495314e-01
8.646150467137993234e-02 2.628586382974817254e-02 5.017122782765427447e-01
7.795929289442682375e-02 1.279654245614196204e-02 5.073556411036052038e-01
1.023896574658189340e-01 3.371276514779560779e-02 4.796715180482591379e-01
6.592342406062816351e-02 -6.168583606267693219e-03 5.046258025353731469e-01
7.013073722983152389e-03 5.517571230544775912e-02 4.487214645558230686e-01
9.228765240644573598e-02 2.142689074069766345e-02 4.790198601152398927e-01
9.673152300076803822e-02 3.769343491626704623e-02 4.636405083293228535e-01
4.621061956721513736e-03 1.863220991835028845e-02 4.420958958173077935e-01
6.895657876330196778e-02 2.071800983169043431e-02 5.251697405146253939e-01
6.571868337678979377e-02 -4.303031160215855036e-03 5.060848257509511505e-01
8.082082764659482416e-03 3.755041380252960304e-02 4.443905559192364296e-01
2.570881869867286743e-02 4.028760164002792576e-02 4.466271384452074056e-01
-1.406168031803372957e-02 -1.903479860547894684e-04 4.388416394573704804e-01
-3.651192769670404820e-02 4.010287039417255450e-04 4.412663054890517689e-01
2.301837688859631123e-02 4.000125965894911484e-02 4.462028437796235480e-01
2.027325691528776563e-02 4.126992791408982085e-03 4.416185239159111653e-01
3.260011097434581395e-02 4.667783372395895025e-02 4.472846415168222345e-01
8.223060453656204360e-02 2.360350610161758567e-02 5.102832932362921792e-01
4.599038296520895075e-02 4.136648878618651159e-02 4.492206602467176402e-01
5.795246837863188977e-02 5.378316046079120727e-02 4.494949572894068046e-01
1.052559131127873138e-01 3.088667139807526468e-02 4.758978585178181842e-01
8.466848147336959729e-02 1.157598694311269202e-02 4.782939834478823204e-01
7.014107959801817171e-02 -5.005807309436392447e-03 4.751569675630620271e-01
7.706413067823079943e-02 1.324091976723997845e-02 5.092074458184829844e-01
1.403920620861496063e-02 6.956818930551092808e-03 4.414604015772004564e-01
-4.923984447490837094e-03 4.478648011336180956e-02 4.458395947193474762e-01
8.157028224557083540e-02 3.829963253677415996e-02 5.075133213160765155e-01
6.537160749988980835e-02 -2.850465671309314504e-03 4.642591760287671510e-01
4.739588270587173635e-02 5.355041514170929412e-02 4.486685879569040081e-01
7.981535334803392667e-02 4.400986953953052450e-02 4.557198532260854362e-01
7.057196628335013489e-02 2.377063527133047721e-02 4.580215191638946637e-01
7.487025660000780347e-02 6.040963202465071506e-03 5.021069550705006268e-01
-1.701717839344884728e-02 3.546455572231966679e-03 4.401774950023442656e-01
1.695545956283142641e-02 5.738084486250737137e-02 4.494048998669563089e-01
8.024198585084127422e-02 2.243119321536128294e-02 4.637484735454667772e-01
9.606311527982611120e-02 4.805086708313119348e-02 4.667995238832206017e-01
8.554073124360168923e-02 1.309430461629330390e-02 4.852792778643452154e-01
6.377984409332038487e-03 4.869806043662668060e-02 4.457230549788608887e-01
9.903869460882792908e-03 6.049586400237886262e-03 4.408376305699772124e-01
9.679957469325115027e-02 4.750673519587392951e-02 4.802851563342307450e-01
2.107861902881835031e-02 2.485462053249975350e-02 4.444599772315784292e-01
9.656998081837754599e-02 3.966882010787096263e-02 4.861780631700804434e-01
6.746235175013784446e-02 3.420115082207447060e-02 4.548608032603397300e-01
2.709708981598055177e-02 4.879119237915460761e-02 4.466901391731216697e-01
5.067519333908903495e-02 -7.367054764670297184e-03 5.272680649909141648e-01
6.580812905421214165e-02 3.377016014728539267e-02 4.545025874511475217e-01
8.129393642168410150e-02 3.096611787509503944e-02 4.618408007664034365e-01
7.607435432297209033e-02 6.657572383538799300e-03 5.012905378343248675e-01
6.847356625727372970e-02 -6.629036807425848880e-03 4.977605659187988030e-01
2.568339855545023753e-02 -3.533113000715282920e-03 4.407470562920174362e-01
5.297918696952250150e-02 2.622134008064953489e-02 4.521027812673993340e-01
5.000188890092388538e-02 5.647362116957067163e-02 4.490912083597948246e-01
6.208365680724324542e-02 8.486594768597604047e-03 5.240043043286968238e-01
9.147091230526650796e-02 2.501719192815857890e-02 4.683495189429403016e-01
5.554759974979552040e-02 4.206189789433100595e-02 4.503219341309733226e-01
6.528101842871915361e-02 2.536247136091022286e-03 5.133948804196971638e-01
-6.659048789035521693e-03 1.794791239954596912e-02 4.419238042128609267e-01
2.095701008677845756e-02 6.260022971695923880e-03 4.422790637750581566e-01
8.501772451523352536e-02 2.864815188593375361e-02 5.058661770207251163e-01
1.054738739507443263e-01 3.272746792858112486e-02 4.770621934850377555e-01
8.297306350919543549e-02 1.120551509470450562e-02 4.908847747236119718e-01
5.672013276659897824e-02 6.335529700031791549e-03 4.540092713646681211e-01
5.003133973723723066e-02 -1.081004068117855099e-02 5.291243272602725867e-01
1.393981725654986834e-02 5.658731782308425856e-02 4.501106921768598390e-01
7.234791066053866682e-02 -3.187385315976431696e-03 4.796940850234272524e-01
6.332322269533095793e-02 -3.306477310525321976e-03 4.618651511375943541e-01
2.017884782837361946e-02 5.634471789486326238e-02 4.484715354963353939e-01
8.695920298850112751e-02 1.944857905550564231e-02 4.702240652444157343e-01
1.032253360513642332e-01 3.739617813077805025e-02 4.793366100094842985e-01
-3.819347204981010657e-02 3.507918105441272527e-03 4.461402284368299886e-01
7.491446797128660517e-02 1.769932544355619711e-03 4.753069077954468757e-01
8.292534933086377624e-02 4.825154534854590727e-02 4.980262381208533373e-01
7.907838934954349031e-02 4.920341917095938378e-02 4.982701782031052629e-01
7.032137458820526821e-02 2.889515738228266330e-03 4.654976268786827909e-01
9.012094224805855536e-02 2.394963177888809538e-02 4.911370525934869447e-01
7.751854297267042615e-02 3.505136272381029899e-02 5.136826096356821303e-01
6.896618335222565177e-02 1.327661929255379535e-02 4.600193935476532547e-01
2.162059240657910469e-02 5.967546056075431760e-02 4.508733178954601462e-01
2.455177055584809725e-02 7.291843818214259476e-03 4.431426798318629512e-01
6.386008683583942191e-02 3.669045900488217098e-03 4.589866486200487317e-01
6.658686122529312856e-02 3.390314377917856038e-03 5.121946369892539375e-01
5.857428960544265595e-02 5.036887336382481206e-02 4.498658949566788356e-01
8.528364687068082373e-02 2.126753092521557059e-02 5.013017094427435483e-01
5.447514751343824485e-02 2.484277217402079338e-02 4.526014840393935423e-01
8.521558286608177379e-02 5.497965780598815244e-02 4.854173856887707972e-01
8.057641539543711207e-02 1.013026858874389695e-02 4.716994858894859588e-01
7.960156441045376785e-02 1.087284019654674583e-02 5.013446780161798788e-01
7.419724911449750160e-02 2.440182408212598214e-02 5.212687279624952374e-01
2.499579241518128450e-02 1.877097396979946625e-02 4.446438370491191394e-01
9.825650895162002518e-02 2.937325231513501431e-02 4.816255758615600735e-01
8.257257505878878856e-02 1.635518277245794766e-02 5.029575897282287933e-01
9.455064627386670917e-02 3.416359235171338715e-02 4.895093082660958994e-01
5.909202349343283672e-02 -7.543349644257730038e-03 4.595782288992842357e-01
5.765841698535742986e-03 4.957052607526814259e-02 4.460081712323654690e-01
3.248316781139400089e-02 5.795691409875753514e-02 4.483931388477807589e-01
9.011849587513218185e-02 3.080812702876114736e-02 4.960219310509400015e-01
9.016474144609488983e-02 5.357929200335618397e-02 4.831394777775278038e-01
2.676760247128849753e-03 4.726594801212742614e-02 4.454425462915783118e-01
2.448005740439447575e-02 -1.322716907969409333e-03 4.409165878615011747e-01
-1.711376465496254520e-03 2.032754674818038065e-02 4.421280356438877512e-01
6.762606690665845521e-02 2.057105713026384161e-02 4.576128494847587214e-01
-3.571091317718178004e-02 3.399403362155555171e-03 4.438692875196989518e-01
-4.355620739884517867e-02 1.616924456973311240e-03 4.442115373807992151e-01
7.381411568971502080e-02 5.943919284971976857e-02 4.615531701320816360e-01
7.450475991503852091e-02 3.940255781740090862e-02 4.568467240979588451e-01
4.693477378352223228e-02 4.568085307933060502e-02 4.491619229332290963e-01
5.966562581859602421e-02 5.746246671996880356e-02 4.516271929840051658e-01
4.458512589477120480e-02 4.484933823622573590e-02 4.488849580216829338e-01
6.077197341897497274e-02 -2.424272916726326679e-03 5.165445091542305578e-01
3.250218959796737778e-02 2.942702482022609839e-02 4.468897443885752052e-01
7.172905621113266628e-02 4.713103338251356522e-02 4.521287426006079802e-01
7.941005393238365073e-02 3.280582239806543315e-02 5.141818315341861734e-01
8.001865590623719049e-02 4.443131341405244517e-02 4.554650813602849624e-01
5.774659775950426177e-02 2.502071419375377290e-02 4.536052697402380152e-01
9.798494848789825185e-02 3.201061546753009024e-02 4.833014407292950954e-01
8.561435032442367421e-02 5.678334824874656933e-02 4.596417893831700741e-01
2.250913101952346090e-02 3.434557161966820399e-02 4.456405020903531633e-01
4.871538472039645129e-02 -3.510037595871218392e-04 4.504073677219241345e-01
7.652057209329135579e-02 7.661053141308249090e-03 4.690402633418481182e-01
9.829473166175448084e-02 4.049829219667458458e-02 4.838762169848373484e-01
2.311918502578623122e-02 2.929548977997861042e-02 4.451992034486048633e-01
1.013645428324070202e-01 4.060354341645333598e-02 4.670648422127032240e-01
3.021872578519670463e-02 5.449985539707025844e-02 4.477645538546115023e-01
5.657790440848932401e-02 4.822139191751348419e-02 4.498601179407182293e-01
8.321685303588091664e-02 4.783937945737334885e-02 4.982458424192051094e-01
-2.558010232852488824e-02 7.544964515029919244e-03 4.436530420229257143e-01
8.417143158838483186e-02 4.986946348112072241e-02 4.557405825259580601e-01
-3.241599525805121534e-02 -7.014975857671264638e-04 4.405909232878733039e-01
9.175389441609356489e-02 5.137620709915920181e-02 4.857742840696951947e-01
5.939005185001183795e-02 1.995268435126461640e-02 4.544575263564140100e-01
-1.417056444453618572e-02 4.494309090897406767e-02 4.484024089282216963e-01
9.285260644792574236e-02 5.449928943851877622e-02 4.740880180329437033e-01
3.324112082431038978e-02 3.737430394332393740e-02 4.476177021355174368e-01
-4.522424109214616232e-03 3.262460714343644146e-03 4.394748272338853678e-01
9.303130666039961805e-02 5.067528965836979454e-02 4.847693668360070762e-01
3.676607471511787739e-02 1.036775530525890993e-03 4.451563600329624393e-01
7.792305831272405836e-02 4.996092665437037658e-03 4.752298835562838719e-01
5.777591442578933027e-03 7.202027352756167761e-03 4.407782915392441381e-01
