8.997466759074816689e-02 4.232134760886664682e-02 4.951347631704638430e-01
5.961156933037454336e-02 1.407004383053093131e-02 4.551635958068595555e-01
-2.017259674998046065e-02 3.328163908958384209e-02 4.486985402054132765e-01
5.882761056475435679e-02 3.577855491631600632e-02 4.520318326587951518e-01
9.143938630461552475e-02 5.757897275750352428e-02 4.700675934901884512e-01
4.818378569415179141e-02 2.543949693812039628e-02 4.505533289806754049e-01
1.286355035441776734e-02 3.274668849987063396e-02 4.441345716588403492e-01
1.824889440065661367e-02 3.431244222309041275e-02 4.448842061219952515e-01
1.805896523503688900e-02 -9.113844077287738127e-04 4.399580295166503063e-01
5.781385400277328640e-03 1.277934983514253560e-02 4.414999461343357412e-01
2.905790122414102228e-02 4.725064609551754558e-02 4.467559526638431033e-01
5.627869543983576167e-02 3.327535869541890096e-02 4.519931138349157496e-01
9.374042505058648514e-03 1.934720342092618312e-02 4.424932086873705206e-01
-2.004020747386817472e-02 3.177936109652064467e-02 4.482483357141746616e-01
7.917996870329406522e-02 4.239176365741538499e-02 4.567020677314745369e-01
8.406539767509038641e-02 5.437121952015915721e-02 4.568534364424952643e-01
7.985260070098236518e-02 4.606745714003764036e-02 4.540706871296961711e-01
7.635254163809018779e-02 4.350906662356068821e-02 4.548758958272473008e-01
8.619509737157095286e-02 1.446437191886914934e-02 4.737721402615084898e-01
9.210844409934133836e-02 4.716930047810288101e-02 4.900169932696451514e-01
7.971520204711690649e-02 1.521121376047522393e-02 4.654922355172353976e-01
6.027990082787680615e-02 -1.190787801989265371e-02 4.647344043397545477e-01
5.768325829580668584e-02 4.255356400553081397e-02 4.503802895769487002e-01
8.804740016263336300e-02 3.273775536108262940e-02 5.012268272345697939e-01
-4.263422204274003313e-03 5.348415268815179952e-02 4.493469936697982448e-01
3.115619886218791088e-02 3.120051846828457084e-02 4.467251260157647508e-01
4.342087029201741055e-02 5.805148029486464217e-02 4.487195432235683290e-01
9.417433407912022270e-02 3.828029414907587608e-02 4.903301861049474408e-01
2.087479286985725185e-02 1.241563121866214037e-02 4.432601120230109659e-01
-1.278484286469623935e-02 2.918622478704643863e-02 4.450336861655998510e-01
8.307981459499831633e-02 1.170015353685300262e-02 4.936561410339658229e-01
9.542704407759783347e-02 5.169081457601103907e-02 4.757164886368840384e-01
4.455712608786269874e-02 5.440362090319482424e-02 4.482881968181712251e-01
6.339149393979845448e-02 5.929700186502563641e-02 4.556063809451185165e-01
6.161743440983258324e-02 4.516533208011362654e-02 4.506441020409256426e-01
8.051025016882949747e-03 1.593839898909871905e-02 4.420571251514692768e-01
6.807686172131395541e-02 -3.291392645291474957e-04 5.049775160930455309e-01
8.456690784967187124e-02 2.817865791692226660e-02 5.073488203485959636e-01
8.052311314353577387e-02 7.420341743345394356e-03 4.922251971198451370e-01
8.664766186180232477e-02 3.052420345924709150e-02 4.637531028534005451e-01
3.472958618928768254e-02 5.075474303797730680e-02 4.474985706389001949e-01
2.587695347584016009e-02 3.388343829048925254e-03 4.424167980830493452e-01
9.670606819713098434e-02 3.590271908907025078e-02 4.639567628255667486e-01
7.299542969183284158e-02 5.846640677159535560e-02 4.543135049036421957e-01
1.694954042008943798e-02 5.077768789845839292e-02 4.463767189282831227e-01
1.090202722097977223e-01 3.551564256709954098e-02 4.718984543719489944e-01
8.254135745542784397e-02 2.567561244432371367e-02 5.105712711204052345e-01
1.716226137709621867e-03 1.862695067335066925e-03 4.393076101592425786e-01
7.126213882258247700e-02 6.775973034820857374e-03 5.097476439760191269e-01
7.416916041302713813e-02 3.622937913536936061e-02 5.144235628230070523e-01
-1.349078371109244980e-02 4.771873174396157324e-02 4.498988827346911412e-01
9.223813402885333579e-02 3.430881371850697664e-02 4.643806549536807493e-01
6.441268797059658546e-02 1.830916844890630038e-03 5.144514533878407070e-01
9.018857961691026381e-02 5.025053928179922663e-02 4.912723627067090426e-01
1.886178797835155047e-02 1.252435375171958264e-02 4.429988488838531024e-01
5.516628963041418643e-02 -8.970288443137127560e-03 5.242029248813721010e-01
5.678248117497733394e-02 3.585538924785701409e-02 4.515789023750355069e-01
8.289835819634194802e-02 4.827240813474836106e-02 4.983135657773501981e-01
2.242981836533907217e-02 -3.436958822487171192e-03 4.400977809527997775e-01
9.362002052016490938e-02 3.217196069903264372e-02 4.915251073739749232e-01
5.174326891945370266e-02 5.251244894113221012e-02 4.489595514322347047e-01
3.577661522975887631e-02 2.428640822922985276e-02 4.472458009545938196e-01
8.530371584034814048e-02 2.331743792026272355e-02 5.040883077242942489e-01
9.188173285558429160e-02 3.957861204695212187e-02 4.927388810436824640e-01
8.184640469243455174e-02 8.175322485121937904e-03 4.773626760165267102e-01
2.993049208987983226e-02 6.464124398991264418e-03 4.439479662946199667e-01
6.813454683536257495e-02 4.707703002797059000e-02 4.513874090617846502e-01
5.820387790781340887e-02 -9.346475454761799320e-03 4.597408939811922224e-01
7.633780131110920464e-02 3.851055228289530785e-02 5.109711716416585059e-01
4.786181325007845405e-02 2.429232694807909390e-02 4.504126084053490797e-01
2.024129256550037670e-02 2.629674770757297816e-02 4.443417090692983185e-01
8.403467020397371867e-02 3.428039449947690304e-02 4.630994585742565506e-01
8.680330139517311583e-02 2.293337806343039714e-02 4.985059584197349958e-01
8.583779268888276637e-02 4.990778673552789813e-02 4.943272857909982720e-01
1.984980062598182618e-02 3.913284063184072764e-02 4.456117811149444274e-01
8.479531138389666267e-02 3.696839520686650421e-02 4.622414692741086406e-01
7.358045554917408415e-02 5.765312978617102846e-02 4.530985319481847240e-01
3.249477514991722799e-02 -4.925288100659614213e-03 4.423242599472753112e-01
-1.197780427089510311e-02 2.959130547408677855e-02 4.449910517053486392e-01
5.495904893935110724e-02 3.114437898721348144e-02 4.520082087803128923e-01
7.668507141574269770e-02 3.269010342419387261e-02 5.171913405632068139e-01
9.602307649096822328e-02 4.034198405316682945e-02 4.622064305249237171e-01
8.477704606195704540e-02 3.782459457956580118e-02 5.043939517305197073e-01
5.803173014961851561e-02 3.081479670070795887e-02 4.528627719418945041e-01
4.227668959020519646e-03 2.113304641088374972e-02 4.422852397257317492e-01
5.204338247242331836e-03 1.739248783955654742e-02 4.419510226472973535e-01
9.679269998091531713e-02 2.510482238820241699e-02 4.793959866065643505e-01
8.639374578515267300e-02 3.428961065190062885e-02 5.040362139046858925e-01
3.812489781550559842e-02 3.154036891605342674e-02 4.480087585588001242e-01
7.879752589513548677e-02 4.021300762633014253e-02 4.579411788742700495e-01
7.884170665122883226e-02 4.272283912345193474e-02 4.563003156202017352e-01
8.832202306940162284e-02 4.702571475601281803e-02 4.949757293089412924e-01
9.638753331672582358e-02 5.061581661974826063e-02 4.706791702032316893e-01
7.946473524902153418e-02 1.459375508771155669e-02 4.657364923898372755e-01
7.407819717600049036e-02 3.464826711364146772e-02 4.581112980331553675e-01
-1.464620911703777908e-02 4.284131991897743852e-02 4.481751798915881158e-01
9.383878108269684548e-02 5.356191536363977268e-02 4.768436722723411458e-01
4.173306370302944102e-02 3.382996455511103756e-02 4.487618439405509640e-01
1.035155171658925510e-01 4.089970506852328574e-02 4.770350237352853906e-01
8.018380863646390466e-02 4.447852099733841380e-02 4.551495201552824832e-01
7.660874735742782826e-02 1.483964740511001072e-02 4.636449699311297468e-01
8.178793098891280755e-02 9.712250220690794161e-03 4.935936062583826112e-01
4.953536544973975025e-02 -1.303373718075129598e-02 5.303214165298379967e-01
8.970575321880411290e-02 4.223554655034593430e-02 4.599420216689918961e-01
8.211859077351280067e-02 1.388577396254571383e-02 5.017304204308964399e-01
7.013773202225914716e-02 -7.212694165684940123e-03 4.788381629283447460e-01
8.965633103416241478e-02 2.869896419903519846e-02 4.971077325871657848e-01
7.635383967317528608e-02 8.895894311068439780e-03 4.672455324468134941e-01
9.662024838051921916e-02 4.030133088640479311e-02 4.867651438870110314e-01
4.666699288412214097e-02 1.682229173252535945e-02 4.498535840016131826e-01
8.099436532550305379e-02 3.017642779275504783e-02 4.614965596894208821e-01
9.874367950301539409e-02 4.517309282875802551e-02 4.704661401571597068e-01
7.465418692556545499e-02 2.456032417341257740e-02 5.212684558370718202e-01
7.501829994583347760e-02 2.953024215570333386e-02 5.216944398226072144e-01
7.794642053594272313e-02 2.074596289631213536e-02 5.153629354592057510e-01
7.493825707469475850e-02 2.610751385098050367e-02 4.591034704866108762e-01
7.328135475336312876e-02 1.409307729638764259e-02 5.159223446315309713e-01
4.035750729977260337e-02 5.758547029845122872e-02 4.485627466088185633e-01
9.804196463273297246e-02 2.568294756718851601e-02 4.788356983565959513e-01
7.403448807864587700e-02 1.105203456347635983e-02 4.633420493834406462e-01
2.343941797855070980e-02 4.269225717520286345e-02 4.461965740894222043e-01
-5.767153018783279309e-03 4.972726564150664608e-02 4.466794214925310369e-01
7.243771310532880203e-02 2.278521389118149873e-02 5.228439563798132905e-01
9.381837848577660732e-02 3.724050674111595988e-02 4.909599662636194850e-01
7.119517605760630752e-02 6.269194787904892006e-03 5.090302873802319272e-01
3.280139738621067058e-02 2.520319289826734172e-02 4.466432157324474739e-01
8.048293403356500397e-02 6.797203288660696834e-03 4.897502661768368126e-01
8.304730498090200086e-02 2.070140360398744356e-02 5.074087318791766776e-01
6.489198571427186313e-02 -2.956410862601495469e-03 5.091194450149890693e-01
5.616616356985199010e-02 2.562170406969010994e-02 4.529852236104386920e-01
3.212933079453079988e-02 2.369495563912130814e-02 4.464313200640445123e-01
8.435616652077286559e-02 1.664185668397892212e-02 4.990673817679890378e-01
3.129364842956217085e-02 1.805291994689956978e-02 4.457573617600908977e-01
-9.853594961947228711e-03 5.172749735994073422e-02 4.503448191222649832e-01
7.437813976932804161e-02 -1.364282205242591667e-03 4.868211476391733350e-01
9.247929223972800594e-02 3.368524088892170532e-02 4.930350414447389196e-01
9.572056322205438339e-02 2.512672739913470593e-02 4.833919693948338647e-01
7.016707167757750552e-02 5.986574657374883410e-04 5.020962202403078667e-01
9.195030014735373902e-02 4.450479653862216695e-02 4.912793767025281366e-01
7.131240618749988547e-02 2.537680989035269973e-03 5.025608829205904238e-01
9.218557591607828838e-02 3.736382940029487482e-02 4.930255378984794157e-01
1.018392654729600721e-01 3.007376143031820909e-02 4.692099616111042315e-01
-1.372275514977053246e-04 5.343955929815608769e-02 4.482625015802920720e-01
7.410318022192956267e-02 1.019986353211075692e-03 4.731537576576325121e-01
-1.366098104071237530e-02 3.380511210505851571e-02 4.461020837180421639e-01
-1.130992008114333619e-02 4.057601119000110029e-02 4.466194951660977241e-01
7.514510054448457488e-02 1.658146626174467758e-02 5.161067968178882914e-01
9.339425544200827267e-02 4.292772899329382053e-02 4.598996108163014851e-01
-2.387317907571270478e-02 3.322067262393928362e-03 4.412008122316021796e-01
6.093564849010268264e-02 2.037879427846701549e-02 4.549013985704208340e-01
1.076887893336509194e-01 3.678347942087765998e-02 4.715460859699233676e-01
2.715714028462030277e-02 5.842737790226749895e-04 4.419756096900712694e-01
6.788545295110799682e-02 -7.578133956132827344e-03 4.993407189812102409e-01
2.097842463719009135e-02 1.459573475616665270e-02 4.435287972889860320e-01
1.754647596795054845e-02 5.888805097287141271e-02 4.513914577702730080e-01
6.440087264750157803e-02 4.624729468505740793e-02 4.509941930437622037e-01
3.324647975468426886e-02 3.033763430388155408e-02 4.470035854125187780e-01
-1.165861286723043379e-02 1.690072778705202505e-02 4.423349597330672456e-01
1.044509116999875302e-02 2.049020242327712071e-02 4.427001319189415862e-01
3.373425708673036261e-02 7.326593804063629214e-03 4.449203781130529611e-01
6.482282420145608903e-02 5.383709377878623248e-02 4.506806461800648700e-01
5.926887311752125631e-02 1.268069896510847644e-02 4.550486509938813651e-01
3.137087667313877976e-02 5.798723140826377714e-02 4.482998861216501707e-01
6.443251424804657956e-02 1.770563899442062841e-02 4.565757802594631043e-01
7.681045567974004173e-02 1.936195207671513596e-02 5.159966540555669390e-01
7.149689110906901068e-02 2.838679500213371967e-02 5.254901684520003613e-01
8.494027501366878397e-02 1.295051516817476503e-02 4.903935097608437266e-01
7.449953712379331350e-02 5.919501542938760547e-02 4.579579694549342217e-01
8.735861654410240207e-02 3.925594532221250016e-02 4.612790944466161891e-01
5.604882674853239877e-02 2.735837050351681496e-02 4.528856024626096710e-01
7.416930236998132975e-02 1.972100323334056646e-04 4.926052098842939597e-01
1.017981802019421456e-01 2.867714407737352242e-02 4.709982072502731931e-01
6.518942049703015107e-02 -1.609690362624707815e-03 5.091514733906987722e-01
7.873745368638207509e-02 1.822153077182629352e-02 5.123831461211896254e-01
8.256184476058157917e-02 5.766882031780110746e-02 4.769076359134765131e-01
5.744212254358730535e-02 -7.213628745217192349e-03 4.572847578000001634e-01
9.932052305037830653e-02 2.637334479695648340e-02 4.786997394476583678e-01
6.869304370040972552e-02 -2.300067067712533320e-03 5.008219339352474320e-01
9.560101927427050450e-02 5.154121481131736932e-02 4.687065777219696638e-01
6.822350356972348151e-02 2.994876488816362176e-02 4.560583697867017783e-01
6.758978709295636322e-02 4.921848707884546315e-02 4.508618450010559164e-01
6.669862163238383934e-02 -4.200022333137356546e-03 5.043317451130087115e-01
-2.860692050530038930e-02 8.494801836646533044e-03 4.469161443566954106e-01
5.614523252958686372e-02 2.746784711017429340e-02 4.529107997611950265e-01
-4.659474703669970637e-04 7.110242567607055232e-03 4.402459287771973706e-01
2.642501973746416016e-02 1.759759753638849220e-02 4.446838928996427187e-01
3.500550501716108431e-02 5.279936759490874709e-02 4.476464581078272720e-01
8.425296873633743300e-02 3.115733859954496893e-02 5.082325747487002054e-01
5.177316519322423816e-02 6.175068346793446961e-02 4.563696583009589358e-01
8.890923645616806426e-02 4.168316643020761325e-02 4.971164919550989381e-01
9.036242817346804013e-02 5.379283119107636929e-02 4.818296297910581449e-01
9.914258355652962040e-02 3.278292781778426729e-02 4.832193203391305647e-01
-1.526601623437691749e-02 3.676599771362314834e-02 4.472575544591114172e-01
8.841159123725124414e-02 2.154039554776327955e-02 4.932405100537026188e-01
3.920651311916805576e-02 5.264748616238458523e-02 4.479325635168074360e-01
8.943654499523837065e-02 2.322507273339122560e-02 4.928428015778892890e-01
8.425848149670030207e-02 3.669423022393048656e-02 5.059139692515011166e-01
8.241578008955216528e-02 2.101276623955626588e-02 4.649130437661052606e-01
1.032241236545600738e-01 2.869713260395016785e-02 4.766269620334733226e-01
2.779726952320135322e-02 3.100156862471252842e-02 4.461015751575233557e-01
6.183273380956219589e-02 2.826853695879903879e-03 5.204684617117397716e-01
8.571527367137352083e-02 4.884863709744936833e-02 4.953132439588189828e-01
-6.493567941890095001e-03 8.622890859893981783e-03 4.402348864030670161e-01
8.333306468166420955e-02 2.190223145156700024e-02 5.080207429603644798e-01
8.253155690094303443e-02 8.749324645895941929e-03 4.813045027956782684e-01
9.020821856451502474e-02 4.703793230917917984e-02 4.926170886256905357e-01
2.437993582180139271e-02 3.652835631591266896e-02 4.460193678728698319e-01
8.862638537203775327e-03 -1.176577276045737315e-03 4.389105000799392031e-01
5.451232532865220998e-02 3.390916918236932392e-02 4.514809276340431832e-01
2.701732825808272898e-02 6.033234185639831104e-02 4.504967515805128331e-01
7.702882042360262305e-02 3.324290401006893547e-02 5.161268292502245725e-01
7.812391389328647573e-02 4.448712185589014274e-03 4.766969090861765124e-01
5.390789893506126029e-02 5.993744289694200728e-02 4.536671999804039457e-01
6.755545851429010928e-02 6.255018364082313119e-03 4.609324895849423731e-01
-1.048912101569068889e-02 1.068349935618010706e-02 4.409446516604738631e-01
3.865961788553751860e-02 9.480799390208278707e-03 4.464407651798988352e-01
1.889255647113066011e-02 -7.669645909711012358e-04 4.401158767303658959e-01
1.399490294964640669e-02 1.455653874869197381e-02 4.426304373106088041e-01
7.638182771137123905e-02 3.667131176743448906e-02 4.589212002606447016e-01
5.736271270901955460e-02 4.410481813127249684e-02 4.501927089492970269e-01
3.649240153002678705e-02 -4.898483238702911954e-03 4.440689299975293380e-01
-1.100022288807615822e-03 9.824021280752631702e-03 4.405503314031189999e-01
8.245534663563082456e-02 1.380372072492282685e-02 5.005913599844026285e-01
7.449438759103184371e-02 3.276318674565825012e-02 5.193999222492022838e-01
7.791375405204509219e-02 4.769295587395139258e-03 4.931605358069735545e-01
3.004363191547379172e-02 -4.047159783295466509e-03 4.416833897863503000e-01
8.625768720529031208e-02 3.884294036378035248e-02 4.611378358741205497e-01
8.839515595052158115e-02 4.557877510109402397e-02 4.572328685486049538e-01
2.214242337654002274e-02 4.593454332713448746e-02 4.460880610847303140e-01
3.493596079051020098e-02 9.697320969046796524e-03 4.456319403450906824e-01
8.474584289903276668e-02 5.059942235537217420e-02 4.557626938028130348e-01
6.923009766471294180e-02 -1.307285669717305312e-03 5.012035359192109629e-01
1.201436736427626689e-02 4.359659463379089023e-02 4.451313471865216420e-01
9.974757612441911836e-02 4.425651527290174608e-02 4.719272996737762793e-01
8.350753619147367746e-02 5.821808535643551580e-02 4.606622270640658434e-01
8.438431788902225894e-02 1.089122974820591790e-02 4.847098956640927825e-01
7.177746172898433197e-02 3.559062068228220632e-02 5.165720173358978595e-01
7.812855745611066438e-02 1.128944835625532439e-02 5.059094591942371322e-01
9.514810613552043828e-02 4.095616643914915672e-02 4.616256930096048205e-01
8.348329723056935325e-02 1.406851137734153011e-02 4.980439658013504078e-01
8.289631330585739422e-02 3.960936893658674463e-02 5.051043548722691234e-01
-4.380090636948543066e-03 5.266779074406875705e-02 4.486637876724486884e-01
9.839252766692870023e-02 3.554563719032872993e-02 4.642319893480849613e-01
-1.501296473373652397e-03 3.243708456654740419e-02 4.440083527437312938e-01
-1.628582328940706564e-02 1.910274842842048237e-02 4.442746107641751263e-01
6.465608535850074501e-02 -5.142522555574484053e-03 4.648858259022897177e-01
2.104706926784693025e-02 4.665580048466407698e-02 4.459932189856152807e-01
7.466364737533004448e-02 1.299480439979203497e-02 5.126951584263520489e-01
9.237345086864176547e-02 5.554733484287294881e-02 4.745471381843908154e-01
9.413314955162319086e-02 4.763937314024289243e-02 4.872076889713817249e-01
6.092280425906271973e-02 3.144286623398876573e-02 4.535849399129944226e-01
3.477596106641156481e-02 1.261098377484363639e-02 4.459525222122334154e-01
7.218107067128300136e-02 2.688246079995319435e-03 4.678410198816854160e-01
4.778440726544196104e-02 -8.287472251734304129e-03 4.508635983982748896e-01
1.056033043867143778e-01 3.863025745151189155e-02 4.714284908649965522e-01
-6.141577992707355181e-03 4.752728483747190036e-02 4.464249332644806834e-01
1.372605286791820506e-02 5.013481281970780246e-02 4.460623134735581807e-01
1.325417730679968008e-02 2.617490898858951601e-02 4.434078067568251180e-01
1.698450118307262557e-02 7.279546011839681599e-03 4.418484343566377315e-01
-2.727943151155430568e-02 8.200082280221884790e-03 4.454440155769329168e-01
6.930642540641236693e-02 -2.711812066490633822e-03 4.692073066359085942e-01
7.467321150951707065e-02 1.833376792686115461e-02 5.180656258180367235e-01
8.939898742520907549e-02 2.653938488417796615e-02 4.956028385289977245e-01
8.673185142765488242e-02 3.674307645840377279e-02 5.026261358465357043e-01
8.024372301326559986e-02 4.775098737976707364e-02 4.540498420239389987e-01
9.451580875988237207e-02 4.808803957220297853e-02 4.619782089259314439e-01
2.213412679254843363e-02 4.563944836706738950e-02 4.460778671628919945e-01
7.179528220260412985e-02 3.354432884860336118e-03 5.027557165835763175e-01
-4.793219152433296493e-03 1.198064058883392853e-02 4.406272273765465264e-01
8.950447815940147656e-02 3.934244097366285803e-02 4.618162516121784855e-01
-4.082559196068036994e-02 1.978064767357522440e-04 4.411112889559356542e-01
9.336437764377808826e-03 -1.688255615482080717e-03 4.388009101974819082e-01
9.314329883363840767e-02 4.514717260599727944e-02 4.897816762202460428e-01
9.527226618202208619e-02 5.203023188847687858e-02 4.680758123214531774e-01
1.411911061163713052e-02 9.107139742613569802e-03 4.419694685204496043e-01
-7.811960383855233794e-03 3.862329791536694285e-02 4.456334708189633731e-01
6.207489988703506628e-02 4.099692963375787397e-03 4.573581377548693316e-01
6.985921514657647546e-02 -3.519428305852560952e-03 4.712674710201543160e-01
8.390238993856215244e-02 3.979744757315320514e-02 5.038711439970162687e-01
2.051537460139523164e-02 4.799574209322170215e-02 4.459511679937729900e-01
4.730539766063636409e-02 5.699382418864288452e-02 4.487432437549170872e-01
2.126062711840697936e-02 9.314881565821320902e-03 4.429920793661516476e-01
2.766977227861648972e-02 6.143845041455966299e-02 4.515730952335719195e-01
8.455689734048810191e-03 4.795104911237592013e-03 4.404539695905753116e-01
1.083063097646790388e-04 2.869139689461866136e-02 4.433665486174113712e-01
6.783504233141243733e-02 -3.067443821263349420e-03 5.023315640701065954e-01
6.359998881407270821e-02 1.059671035647852602e-03 4.592037284972971811e-01
9.077062773557406650e-02 4.615266094382970002e-02 4.923098501978742658e-01
1.854454449797247884e-02 4.363796321389426872e-03 4.413697959112956593e-01
3.924105366871832173e-02 1.821650407252840137e-02 4.477439971688526033e-01
7.264583858885856338e-02 3.693953147923773050e-02 4.567819969177677186e-01
8.450364247012669139e-02 1.394392006885688574e-02 4.941916766099470060e-01
3.758417953186863475e-02 4.848334030344834261e-02 4.477505680245738029e-01
7.645830793877703146e-02 3.519014974457944367e-02 5.147099117013522740e-01
-1.516903213717452244e-02 1.875354469580208655e-02 4.438090659085713874e-01
1.612782337749280731e-02 2.678628120056275250e-02 4.438181206400793055e-01
9.109000163725532173e-02 5.181960498993833791e-02 4.600781376772929421e-01
6.708288063121876921e-02 -4.993716949089395223e-03 5.030187878889643693e-01
2.968535022897049805e-02 4.083456919992684703e-02 4.469906793855495941e-01
7.168738964925894241e-02 6.094906942847371986e-03 5.077847962203597687e-01
7.667905622779965652e-03 1.432357615726556968e-02 4.418745969173554222e-01
4.787461388444022581e-02 -1.190144188850441459e-02 5.315447195537601477e-01
8.963228803968252556e-02 1.781991341938651482e-02 4.846604903708177647e-01
-1.574194645847187823e-02 4.285474144756360598e-02 4.486922127918419045e-01
9.456349772233222858e-03 7.443297260589162856e-03 4.410904851148054751e-01
8.808098168339517642e-02 3.909549716070196551e-02 4.615549852791836494e-01
-3.256181400423642514e-03 3.542061573591753082e-02 4.444858961850937651e-01
2.123711689244841411e-02 -3.823731130544852190e-03 4.398073646415260329e-01
-2.163995460711557253e-02 3.002289800410590584e-02 4.487823111028210743e-01
8.197894764728051731e-02 4.997032871553581251e-02 4.963352948876224580e-01
-8.158206371047228844e-03 1.803073846997413701e-02 4.420778997847971681e-01
8.958253420398727684e-02 2.345144211577122537e-02 4.927532256809754596e-01
2.802610667427707716e-02 4.862424121439318236e-02 4.466442404268995414e-01
4.104303637256472015e-02 2.660818708235020234e-03 4.466905087569043586e-01
7.450620521493438175e-02 2.434447991329170835e-02 4.595999192279806023e-01
8.512105866795560694e-02 3.282024593295242154e-02 5.063194441555708414e-01
6.731772651877962477e-02 4.668016534283776602e-03 5.130342749204693797e-01
7.454205047996126376e-02 2.765417585840593273e-02 5.221432303062017999e-01
1.531364310349806260e-02 2.928276193006435976e-02 4.438992598262247458e-01
8.603182582875128215e-02 1.272160426776224734e-02 4.827605988060561515e-01
8.482757054849933420e-02 5.485569288556737394e-02 4.863194384377290680e-01
1.766422438199458447e-02 5.809711634112521561e-02 4.500489369452727040e-01
1.691028513840903483e-02 2.142844364422338485e-02 4.436440289743449616e-01
6.814005821170787680e-02 1.237549065040384998e-02 4.596356512460492150e-01
7.685500672124691464e-03 7.943559785335771450e-04 4.393648003510737254e-01
6.437992845891703231e-02 3.855229128011738310e-02 4.526581492726546307e-01
-3.532620563258191595e-03 4.964973991421946925e-02 4.463383480509804935e-01
6.547780699921378067e-02 -6.304450012538063974e-03 4.670191474106481500e-01
8.826045196983667296e-02 3.005441239015067822e-02 5.008513082259693494e-01
4.816671016481656464e-02 3.611693447851381522e-02 4.498615991176981854e-01
-2.821199816481986464e-02 4.988535258271600825e-05 4.407604755698057986e-01
-1.719022168090227412e-02 1.145402703294844463e-02 4.427227216761973061e-01
9.205862997812315485e-02 3.788114290890868402e-02 4.930203890876110884e-01
-8.014556891618691142e-03 2.658295483382929359e-03 4.392670942977904835e-01
6.769314293273939742e-02 5.987404620608376138e-02 4.557353756021789715e-01
9.226330344562008734e-02 2.083528983441599799e-02 4.814641699823806742e-01
8.480402087658350796e-02 1.630171497119371066e-02 4.969015360083851585e-01
5.219225639610423906e-02 2.211936150291770632e-04 4.521546023843692752e-01
5.757892301915530642e-02 2.082988612266920350e-02 4.535975093625002064e-01
7.066849912839685832e-02 -6.344326457258218227e-03 4.893293873400308414e-01
1.629091631762505203e-03 1.567602178284648040e-02 4.414878865277753750e-01
6.980713587746503745e-02 1.457769110846901181e-02 4.600200483488954273e-01
-1.833563993622020286e-02 3.373988407825048719e-02 4.479589027453365069e-01
6.596119457080890092e-02 9.590512973005503247e-03 4.588634943422166823e-01
6.214014241912008824e-02 9.066567519468535230e-03 5.246950334020831219e-01
3.520945939751194548e-02 4.411304490026879410e-02 4.475396234698081899e-01
6.136274057984742597e-02 6.196017623876932598e-03 4.564132478453292729e-01
-7.194843411027898594e-03 9.793940375003203080e-04 4.388188827090855337e-01
7.268392761883542275e-02 5.944052930964022902e-02 4.580691085062714163e-01
5.667119641796459356e-02 -7.302611842576477857e-03 5.220739403891747621e-01
8.575198749923183816e-02 2.499433735693927863e-02 5.039896954509560656e-01
7.862635586220388662e-02 5.874744578588917548e-02 4.600104055077823828e-01
-9.739122637514398273e-03 3.065168171591536872e-02 4.448017096325345143e-01
8.547754362798093419e-02 3.594684322945006921e-02 4.637717558847331834e-01
-5.722647724530276897e-03 4.073080190367603381e-02 4.454536591686121816e-01
8.673045999364006886e-02 5.765925181288802243e-02 4.761871538820597327e-01
6.059048020533690238e-02 -3.442961667437873657e-03 5.167411650258789679e-01
7.620760105420225361e-02 7.295409912284579572e-03 4.685355355170305880e-01
5.499982867276866777e-02 3.823507639707780792e-02 4.506491256599336470e-01
5.380310127878208670e-02 5.112588343557419868e-02 4.492222019285034840e-01
9.452709881264685643e-02 5.080136898575487309e-02 4.820433693178873824e-01
7.041372334989647042e-02 2.487923261742187864e-02 5.258364737087416474e-01
-2.737668189643305272e-02 1.058279325532274218e-02 4.468989702778478068e-01
8.505903190636585065e-02 3.753143173232546814e-02 5.043155950196861470e-01
3.549043513794575971e-02 3.610907300185918489e-02 4.477542136609149459e-01
7.447986132410305826e-02 8.990144844206755109e-03 5.079808927133027119e-01
8.951719512917737098e-02 1.780417930434565962e-02 4.850178342970570822e-01
6.312030232395725304e-02 2.428410273748000600e-04 4.590133440895908246e-01
8.386088567433094831e-02 5.753664465798839084e-02 4.786379311904822020e-01
6.688810032488391732e-02 2.808670966072381384e-02 4.559443614258510413e-01
8.584100733464576638e-02 1.755475830881932098e-02 4.700097881702086644e-01
-1.799628364991788174e-02 8.472800652479949360e-03 4.419387054246290414e-01
5.347384670899764381e-02 3.995194156436422672e-02 4.501274493188984760e-01
5.550158043871752933e-02 2.841058367933748871e-02 4.526547897054051806e-01
8.586764742912073034e-02 1.243781769156117670e-02 4.821028444309040650e-01
8.051227764367759054e-02 8.633842217764279778e-03 4.961564668597810424e-01
8.246607389835471091e-02 5.662800980406003382e-02 4.586842316399900588e-01
8.906963281258059584e-02 1.792794247334271451e-02 4.745235317424960075e-01
5.832070507439953561e-02 1.507148937872666676e-02 4.544920559446557484e-01
7.599967965936435879e-03 2.150975374984311246e-03 4.397203836019450418e-01
-1.637450295232871500e-02 3.906749048282377040e-02 4.482922797856415675e-01
7.362762272841491540e-02 2.970106832824742638e-02 4.581792190191616987e-01
9.467799580090283107e-02 2.316438890207727849e-02 4.792847937997702368e-01
3.193739189146943547e-02 4.915547446144097332e-02 4.470436125034303321e-01
8.189072431434232802e-02 2.705624506543679447e-02 4.620451145134556459e-01
8.418202007697571376e-02 5.806647388591550801e-02 4.600910669155868216e-01
4.459915448445657404e-02 2.960227517854176899e-02 4.495235748991751601e-01
-5.842689385340705394e-04 2.857019602825798185e-02 4.433832797367727729e-01
7.785996520393465015e-02 3.474942950249455906e-03 4.840362645371611428e-01
1.744225106308601794e-02 3.010975555031682876e-03 4.408338596554644551e-01
8.070136352120566015e-02 3.295646657245260291e-02 4.615327411725107520e-01
1.004496374745345866e-01 4.378429912746567565e-02 4.753712283327150567e-01
7.513584557562999477e-02 7.362288495714877819e-03 4.671534491276831957e-01
7.156815958190353155e-02 5.766227242611254855e-02 4.525636298061740947e-01
8.223671495079146188e-02 4.350420697632363665e-02 5.034963369083804707e-01
5.540973182875734426e-02 5.724063604409840300e-02 4.502827555615802613e-01
7.874229747518660116e-02 4.660982703983702208e-03 4.819965878506219936e-01
-1.623743130771336182e-02 1.779573947709949325e-02 4.440211532109799020e-01
7.427375234381736191e-02 3.154117009843803582e-02 5.210238819752551764e-01
9.217625756418658389e-02 2.487769148164529001e-02 4.889238214345571487e-01
9.541692349765246162e-02 2.713831341510523562e-02 4.681906860201788811e-01
7.198909586910930136e-02 9.786618084692113098e-03 4.625857232185781598e-01
7.286088598972641217e-02 6.539541483662396435e-04 4.713485545649496733e-01
3.934472290065887945e-02 -8.523771791147599988e-04 4.459555216842812642e-01
4.028801226348830561e-03 3.492909608613000566e-02 4.439559354297099580e-01
9.956787373908909666e-02 3.057585067886103153e-02 4.676414346892886487e-01
-3.868969134167562357e-02 2.986832495946132281e-03 4.451524600524715547e-01
7.963849166655966039e-02 2.710161921787386519e-02 4.610424362957739053e-01
5.781550622839804615e-02 -4.918736947621493369e-03 5.204185656267135140e-01
1.074019346488193014e-02 3.363932597527820312e-02 4.439719550880436572e-01
3.199903330475033225e-02 5.123688493578865133e-02 4.471652887381839525e-01
7.894903149992790747e-02 2.301282603765651691e-02 4.626939548008310865e-01
1.222871116256982540e-02 4.664108493413522856e-03 4.406312297356801411e-01
5.175824747157146966e-02 5.045809595424721045e-02 4.490923145710636333e-01
8.673263002930839405e-02 2.474266110114947681e-02 5.006638422479717798e-01
9.176789134861483566e-02 2.438184144268113612e-02 4.687627031942793177e-01
7.640004701351986449e-02 3.844415196605349000e-02 5.110403829822651733e-01
7.519729691534360327e-02 4.104113677587693798e-02 4.558498179711322207e-01
3.753988272587314295e-02 6.440907214409084813e-02 4.522375742391312459e-01
-4.227487667926528581e-02 1.767163821395154348e-03 4.418769972700068993e-01
3.449850139404254945e-02 5.998845368695221447e-02 4.487968892585593728e-01
7.434873065215945320e-02 -5.464567864614214461e-04 4.787603208466088556e-01
3.804841510854185815e-02 1.503556873726787611e-03 4.456363361152384517e-01
6.295888802499799430e-02 4.659474889694006916e-02 4.506678290577907364e-01
4.555612149307518982e-02 1.215407207897912546e-02 4.493101551657049941e-01
8.952244380328748530e-02 2.529602196840177730e-02 4.942754666668291441e-01
-1.259803775057024948e-02 4.340380835576523183e-02 4.474969677200150708e-01
1.723962477553991467e-03 2.614568838461269265e-02 4.429068758760965063e-01
8.435535224859271042e-02 2.074826177245522180e-02 4.662288815554208044e-01
6.176990292604134236e-02 3.670964532277446596e-02 4.524727278845376843e-01
7.060567354760161063e-02 2.473454140015398511e-02 5.255777360013770272e-01
7.081484806400260845e-02 1.753368028257267647e-02 4.598534597593776363e-01
7.211576328721949758e-02 5.127208524659320615e-02 4.519865131860018037e-01
3.272598870776256136e-02 2.853394457895700592e-02 4.467886124814654525e-01
6.845363991352228228e-02 5.336530742821977286e-02 4.515085432868056747e-01
7.856065081656245230e-02 4.937639803765020430e-03 4.766825018603114139e-01
1.319348847159658271e-02 4.638662208419500749e-02 4.455621161127153451e-01
3.306640547555481091e-02 2.267993430683267614e-02 4.465890255447104162e-01
7.508366906526696416e-02 2.197842152567358251e-04 4.887164576729483012e-01
8.912465321168334953e-02 5.409316971104569105e-02 4.829588379503254036e-01
8.407514722203887625e-02 3.567326243987493928e-02 5.069968947776051227e-01
2.775085697701293319e-02 -5.161379880778885383e-03 4.409201276783369372e-01
8.261658868536803091e-02 5.621634372114630435e-02 4.839069075541294618e-01
8.377762816316813854e-02 2.215905723598234067e-02 5.071125651889406560e-01
5.790181298863208981e-02 3.435663111518482554e-02 4.521214980593872834e-01
-4.100200803044673319e-03 3.185216965182259552e-02 4.441523404113204010e-01
9.010015068329903232e-02 5.381550740302978170e-02 4.823011346984685810e-01
5.000502318504807669e-02 4.625762306032532578e-02 4.492696953325471809e-01
8.660945063869147920e-02 5.132908831876299011e-02 4.925629232894752629e-01
8.910849693756826839e-02 6.037605595110429740e-02 4.676361264738069790e-01
-2.492854334597921842e-02 2.260703978689691546e-03 4.409733667019224423e-01
7.099073698822863654e-02 5.010678163575644530e-03 5.071956574972942278e-01
-9.735761878548436152e-03 9.069505913286214291e-03 4.405882672415226686e-01
-1.508986647975965774e-03 7.706316931303833044e-03 4.403335212672028764e-01
4.004861072024430008e-02 4.718477164531870161e-02 4.480004851403895372e-01
9.844033223885849393e-03 3.045672956157836897e-02 4.435439980585312303e-01
6.989021495359737379e-02 4.732114473569237756e-02 4.516045203693141441e-01
3.020560504854353373e-02 1.733235418278017068e-02 4.454429187877161356e-01
1.859455020667235767e-02 3.619874375825888474e-02 4.451355660307129702e-01
8.634370496016668950e-02 2.903989596333595574e-02 4.636198032050418694e-01
6.742073792412831001e-02 6.028516087590835709e-02 4.568255927430909247e-01
7.369467389061279405e-02 -7.139777563769308943e-04 4.762283659958701509e-01
1.071211801921082563e-01 3.814327910571379404e-02 4.744844356389299467e-01
8.394814025354055409e-02 5.299068646753238299e-02 4.557182884180174254e-01
8.107942287759305200e-02 1.518182386057600683e-02 4.669418676369472276e-01
-3.041183112570421555e-03 4.086950813695799933e-02 4.449090891203997811e-01
3.147681553773653412e-02 5.034858585038363976e-02 4.470480535346916251e-01
-1.786843196947443535e-02 2.551719805747915907e-03 4.400402974215970042e-01
1.014067279312930586e-01 4.184914763061734627e-02 4.687286867771550680e-01
8.913436041545066968e-02 3.752428113730218312e-02 4.980736230632026862e-01
-4.628184225734180944e-03 3.195799055108436426e-02 4.442167788347221036e-01
5.125759497305118484e-02 1.217242859376564505e-02 4.515079680279752150e-01
4.046283082926353108e-02 2.341246427852571380e-02 4.483638733859506287e-01
3.432849138070499795e-02 2.194305519426505841e-03 4.442747571528916639e-01
9.376509814836378465e-02 3.835502001493080321e-02 4.908652310545859043e-01
1.528745080582438569e-02 4.424463561599849964e-02 4.454200877196601294e-01
4.729319672684708514e-02 3.144132220430511087e-03 4.495042837012234171e-01
6.947997071461772811e-02 6.934735780140131346e-03 5.124797152461113559e-01
8.167643615463711371e-02 2.177437675560717559e-02 5.110581765912539653e-01
3.121412625017360581e-02 4.012922960823772645e-02 4.472043558377115091e-01
8.352130834010124127e-02 1.307791436779089447e-02 4.960885543011432364e-01
8.215866295266009700e-02 4.056934597543968707e-02 5.053482722137175864e-01
-1.730015205603265688e-02 3.703017253334546510e-02 4.483257822590379638e-01
9.447242515217993408e-02 5.165215278616392541e-02 4.803665365152018918e-01
6.228296318448819230e-02 -1.051314070714206433e-02 4.662931859524783729e-01
1.074634988142970649e-01 3.743093876189166475e-02 4.730857047055919140e-01
5.282863682158636665e-02 3.754329556266429446e-02 4.503835789574500703e-01
7.661737507895609312e-02 4.159962688904073058e-02 4.561941621757339971e-01
1.006896816332494005e-01 4.271960962788615146e-02 4.806659055871619901e-01
2.117489430817131278e-03 1.473668824561171972e-02 4.414061978384126728e-01
8.899601462477192693e-02 3.801328798238465256e-02 4.981402500302161696e-01
2.528277981762518806e-02 2.229314671140400148e-02 4.449667616293186412e-01
6.723745030826067115e-02 3.952780890041059092e-02 4.530516192378947760e-01
4.195035149716001832e-02 5.248840381762272939e-02 4.480615288788634687e-01
-2.310787884351386736e-03 2.448189981951466934e-02 4.428090698319829266e-01
6.328893560353667479e-03 2.756640930809923715e-02 4.430185713277370874e-01
1.038024705573102058e-01 2.882227148547118756e-02 4.757651390099710276e-01
6.996092510468088221e-02 -7.994296818125863624e-03 4.814483658557828227e-01
7.371337071653677464e-02 5.304954309137998800e-03 4.673434747778694165e-01
7.488635515294388145e-02 1.381582894646246618e-02 4.629694515422474455e-01
