2.062635393700607001e-03 1.956112092514173881e-02 4.421475818157410975e-01
8.446951339737755748e-02 4.262336362053053412e-02 4.596344362349050749e-01
4.810658743758965822e-02 3.483396234624331483e-02 4.504605124458900822e-01
8.950528344995689611e-02 5.172736268813079435e-02 4.893139265731800691e-01
9.235359987897945322e-02 5.436730450601502673e-02 4.767526342497888092e-01
6.267598080897870093e-03 3.432103140676175113e-02 4.440830934884466008e-01
-9.380618364563938355e-03 4.886481031228326159e-03 4.399008464686631203e-01
7.364796450776425751e-02 1.453299594537810820e-03 4.734849824369448124e-01
-2.618795389757362299e-02 4.806484249891112767e-03 4.424179694622248915e-01
3.784191928511283082e-02 -2.496359707372562513e-03 4.452639235012317842e-01
4.054189615699608368e-02 3.764497318731808290e-02 4.489581258923909246e-01
5.528230734987990905e-03 4.861177507551090599e-02 4.459268730397213387e-01
-2.000839474493876571e-02 2.262173962271161326e-03 4.401763368339504656e-01
1.889352288455976511e-02 2.577210595065700452e-02 4.444208503469070370e-01
7.782984941047607630e-02 4.817892379661300323e-02 4.543947725553748040e-01
8.537650259850955436e-02 2.430809916923202738e-02 5.025776351260023977e-01
9.517467818316709127e-02 2.519444147626351618e-02 4.817495771776473257e-01
9.240476783092922697e-02 5.377212035647897792e-02 4.787450960543690459e-01
5.142098268163745878e-02 4.150545748079811220e-02 4.503352533364657351e-01
8.697886050336425812e-02 4.610109746501898920e-02 4.965108580093630097e-01
9.434219305866282934e-02 2.426263050592745649e-02 4.766256305074017541e-01
8.986003290185450021e-02 5.633835207087688202e-02 4.763917989185474378e-01
9.502830828656855244e-03 4.923201291894454407e-02 4.461017616365644534e-01
2.038116615483141422e-03 2.025227023152557232e-03 4.394354742913426648e-01
1.810806523197010937e-02 3.054566393668659181e-03 4.410745336705138575e-01
3.317168620776837773e-02 1.543645786547127342e-02 4.461876715478804156e-01
5.007458859163267662e-02 -8.440515856369819672e-03 5.280261285147789252e-01
-6.531747849508680488e-04 3.153134005846953969e-02 4.439532411112709354e-01
7.456846047221603324e-02 3.567328170757501360e-02 4.592501243399554900e-01
1.015195428607491498e-02 1.277684239454950077e-02 4.421485813459241077e-01
1.027681568838380993e-01 4.129397875692819575e-02 4.769743947819188867e-01
8.714744331667710620e-02 3.514371425570369384e-02 5.014829269413614288e-01
8.638981891469499352e-02 3.962912689102195130e-02 5.008580881872940482e-01
1.391327195567289808e-02 9.299898751005515607e-03 4.421211022257316992e-01
5.948375528842073795e-02 6.052430727825045681e-02 4.577919379138737921e-01
7.819376765357613501e-02 4.896409534266735197e-02 4.994631879811126662e-01
7.139791270193179828e-03 2.129774151625293821e-02 4.426928425718281712e-01
7.732282920959772377e-02 2.219196869625218033e-02 5.165032172642095576e-01
7.822459778504921302e-02 4.936136325176684186e-02 4.544438217079903586e-01
7.024953743543638218e-02 8.783045488192621486e-03 4.626300089507076052e-01
1.619398884708932868e-02 2.984697209453240907e-03 4.407312332706260216e-01
6.144928351100879815e-02 -9.560196490862640437e-03 4.650497631316450886e-01
-1.055433141766926215e-02 4.349577758677966588e-02 4.469312017382108815e-01
-1.949081839891390888e-02 3.381792667965755061e-02 4.484974945594578655e-01
-9.297690861515783139e-03 4.810381765085579991e-02 4.478958931225849316e-01
9.540550027551857049e-02 2.787401893589726634e-02 4.850530114721710584e-01
9.497565529490059610e-02 4.217814366547995714e-02 4.878041057998537267e-01
5.593459495367918838e-03 4.161774557432572352e-02 4.449464994105368776e-01
8.045776373320349950e-02 1.240266133616124700e-02 5.009197298013932098e-01
3.458194381009382229e-02 -3.127120318504237034e-03 4.437008191836070981e-01
7.362886450435765506e-02 7.259126398793619081e-03 4.668059198753554684e-01
2.964917428670254054e-02 1.417123479291132471e-02 4.452662828983434129e-01
6.800746585950864787e-02 3.970418962917172251e-02 4.544707441996119202e-01
7.146902460561385673e-02 5.284732105895500326e-02 4.529967351555962418e-01
4.370604105791814353e-02 6.011833714379953564e-02 4.504138567475219901e-01
7.398943102173173580e-02 -2.080425152783155381e-04 4.807062625721805760e-01
8.803281172183773096e-02 5.093582724135407858e-02 4.587386602536755453e-01
5.641479470395843049e-02 5.628675232026818936e-02 4.508499628715050833e-01
2.177202742850912337e-02 -2.855428066961616506e-03 4.402096313056214627e-01
7.625028092880672612e-03 1.019012309143388882e-02 4.415253077898421696e-01
3.752820631767567888e-02 6.478113601498922125e-02 4.547104966441483098e-01
7.728890680480716979e-02 2.824214927394264746e-02 5.180775616003723272e-01
1.679708410825920834e-03 2.712533346337737614e-02 4.432394902987703555e-01
5.326561616162799051e-02 -3.807440393931507683e-03 5.241155205856138366e-01
9.574668975169139951e-02 4.983648449777509926e-02 4.719528152603778559e-01
1.059980889592111210e-02 5.614926315010912439e-02 4.504571830450322389e-01
3.471353881157743931e-02 6.848770506720356331e-03 4.451956458059523891e-01
-2.530381250732988141e-03 4.217259739871702211e-03 4.398185473959882463e-01
8.526221966141005193e-02 5.524769631798223668e-02 4.852017643686126758e-01
1.025892213778857726e-01 3.881165291433812808e-02 4.796165722957057009e-01
-1.450993587632023671e-02 3.201534283263627462e-02 4.459445579151791184e-01
6.970483885825937143e-02 3.824230232065109394e-03 5.065043302823001303e-01
1.239288886404089907e-02 4.570100896086325137e-02 4.457922667867993405e-01
6.221907862672042960e-02 -2.851038854302121416e-03 4.608650782365300014e-01
3.408563092099202441e-02 6.517602093197794044e-02 4.536492889529050165e-01
7.051492722417281034e-02 -3.562295359147179923e-03 4.746780482341162455e-01
5.795278191059955591e-02 8.506136561165351245e-03 4.549286546313625612e-01
5.076949906426977965e-02 -1.135482393770042338e-03 4.518404739079375232e-01
7.417857304808550545e-02 5.705940590215729386e-02 4.542517085647809760e-01
8.301825542029614424e-02 5.449864639523963744e-02 4.572500302602389155e-01
5.787977126243969150e-02 -7.073019647128874626e-03 5.203957800832581526e-01
9.016612389915255876e-02 3.284364935635725874e-02 4.646568749416155608e-01
4.258400760023466763e-02 6.358969076926197783e-02 4.549985444788283706e-01
7.827319041141321543e-02 2.755044184473452035e-02 4.613076857030320443e-01
-3.191761402014778315e-02 8.678563572891587283e-04 4.418128234729833403e-01
6.969974025413301633e-02 -6.257495598217251848e-03 4.773542196196663423e-01
8.808150098938948014e-02 2.128769103280358024e-02 4.915054697479859236e-01
7.848901267261340631e-02 8.478490573937156466e-03 4.990212358346818866e-01
7.468790249881715471e-02 4.589985567458559207e-02 4.537367490295964867e-01
2.456068159642171497e-02 -4.327458672431472655e-03 4.405072989022785768e-01
6.291230848002134224e-02 5.220815202287104606e-02 4.507763643523163832e-01
8.327188393052004090e-02 4.414846021971997880e-02 5.016403592217167917e-01
9.452012100599180289e-02 5.036304344233169528e-02 4.809422610127582765e-01
9.232880014459383944e-02 3.627438769703769661e-02 4.922398211523579259e-01
2.348751488149668568e-02 8.923558110231388091e-03 4.434609836248675774e-01
7.183328226283737516e-02 5.657219670617347207e-02 4.535303997189740755e-01
9.623792601348994669e-02 3.276757171182157619e-02 4.853816675002335934e-01
-1.851341509156948645e-04 3.413541216253548893e-02 4.442415098431146125e-01
6.308203828572726823e-02 4.725177192917123792e-03 4.585999427087488756e-01
8.288088196676435260e-02 1.902401327027551658e-02 4.674850856735235927e-01
6.789201319890122988e-02 -7.240593786950560952e-04 5.037172454626643869e-01
4.636677123745642365e-02 1.866942534563059350e-02 4.502406695354564392e-01
9.079662264058120658e-02 5.814244349224566288e-02 4.689807326108719754e-01
7.060837025420337032e-02 3.762235998298925355e-02 4.566009711696095708e-01
9.206679332394382409e-02 4.553144462239104573e-02 4.903435609730537048e-01
-3.702569150050887686e-03 4.361564418504299857e-03 4.398408642916274980e-01
6.339963450891517027e-02 5.817755046967236499e-02 4.546919492019388387e-01
1.009418100890901726e-01 4.194984060765119538e-02 4.706630897570270311e-01
8.712850924986283163e-02 6.012702594396226313e-02 4.633480059591388867e-01
6.954537186777073887e-02 3.503851026919078265e-02 4.565562338737425563e-01
7.033385590593835279e-02 -6.510130201922286440e-03 4.884248788124347374e-01
8.085296560733970517e-02 5.787183276544292931e-02 4.786350747498233082e-01
1.533973677240844241e-03 2.423050837505247301e-02 4.427523577413416955e-01
7.478379546314815884e-02 1.442324422181331597e-03 4.906817107196215222e-01
4.520493801865348160e-02 3.738026657095249589e-02 4.498339818880365826e-01
3.800597564606405382e-02 -3.278422176802830643e-03 4.452970038780790785e-01
7.928143157933463525e-02 5.155675989175878549e-02 4.550578132167202861e-01
9.264294532962935591e-02 5.393669466733898299e-02 4.669398633333347037e-01
9.771241312701373083e-02 3.337271232501812929e-02 4.660125700807813964e-01
1.805215339846581203e-03 1.155804376860928087e-02 4.411104883686470246e-01
5.403966435382304145e-02 2.807114694046940542e-02 4.528123473016791301e-01
8.338709393412585547e-02 3.560691291230354272e-02 5.076573403981066157e-01
8.673103824865825706e-02 1.490759706944322360e-02 4.798290038084623288e-01
1.231560585693728532e-02 1.555867436595467779e-02 4.427365023851396186e-01
6.395230549597986924e-02 2.928533880595035610e-02 4.556059910597516360e-01
8.115105912889525319e-02 1.258639594445576208e-02 4.710637248352164685e-01
-1.176270992187724435e-02 1.926128217102036563e-02 4.429498321576329500e-01
7.086565270995826005e-02 1.357007512616194289e-02 5.177319995782956319e-01
-1.430388990769675475e-02 4.566343748995848467e-02 4.486475600040512601e-01
7.171650523740663585e-02 5.289455890705923279e-03 5.049941772076559365e-01
6.469196764737873695e-02 5.102599409984490131e-02 4.510281105486793063e-01
7.785175010848870147e-02 2.551562131296000041e-02 5.172337511941622612e-01
-1.333761204477402346e-02 2.880666384754370854e-02 4.451368820371148782e-01
-1.260493891921828265e-02 4.687984019150583798e-02 4.490717168994372011e-01
9.499715388043050712e-02 5.092405060500677927e-02 4.706510256326053021e-01
3.154618063362139152e-02 3.264520275606662414e-02 4.473182224313452249e-01
8.227588214284153878e-02 1.115515918185894066e-02 4.914819477411694337e-01
-2.082192443843017618e-02 2.605804697794201000e-02 4.472523864201565225e-01
7.297075373539915755e-02 -7.653112263347194855e-04 4.766756008643316389e-01
7.037479166151547338e-02 -7.569813105971703524e-03 4.864124337603172865e-01
9.591419138535729749e-02 3.141380307442093178e-02 4.667972151178897966e-01
8.429048992081429603e-02 5.160115429678662630e-02 4.569435122659178949e-01
7.299508494878834131e-02 1.500469838009840448e-02 4.623857504814216091e-01
4.744742754117392547e-02 -3.010694567323080398e-03 4.501474153875494322e-01
3.297411961032584854e-02 2.455751902141524792e-02 4.470152699761223425e-01
7.455191708599927247e-02 1.508545340611538998e-03 4.920295455100191506e-01
2.601559552203038667e-02 5.052191175847422361e-02 4.472826876146880903e-01
6.857879161160307206e-03 4.957490836270677520e-02 4.461964234381778360e-01
6.401064725051244797e-02 -4.342461777748360223e-03 4.642466514105427211e-01
3.780475162017100932e-02 8.875233916663390760e-03 4.463579939896824555e-01
4.273861944469900531e-02 5.367333216574602522e-02 4.487055934217761832e-01
6.956061437447837170e-02 3.285132921543815893e-02 5.235796645895787194e-01
7.154524633530241762e-02 5.725403608162944746e-02 4.535668596342354864e-01
1.223037584757163433e-02 7.594646604487229405e-03 4.415090184844996379e-01
9.502151183856344385e-02 4.644614978301354197e-02 4.865373273035554780e-01
7.618549671787416822e-02 2.450915083365747590e-03 4.875697521938406886e-01
3.948830101044389224e-02 5.260939078929054158e-02 4.484999505650166807e-01
7.943033015198795732e-03 1.557270644871975793e-02 4.421886137568435404e-01
9.342588663029752216e-02 5.251339060943920750e-02 4.796494734479433975e-01
7.844594878612720645e-02 1.437817747739858487e-02 5.081125609140906274e-01
1.682287151849410495e-02 2.144737836570903555e-02 4.438780054466817115e-01
8.347383902381515230e-02 3.816122176446189868e-02 5.053313846566337419e-01
3.830542699731295797e-02 -2.270809289032224738e-03 4.455599623314277502e-01
-7.177236010273235420e-03 4.298893202855167545e-02 4.461651095467206729e-01
9.593414494111714153e-02 4.540211178059215535e-02 4.860346693682146557e-01
7.017187973778858667e-02 1.079178685970699596e-02 4.619407887597024032e-01
-2.659815429623346369e-02 1.243006932673636385e-02 4.470412660615155076e-01
3.652434889956739095e-02 1.488454357669136661e-03 4.452790490079452934e-01
-3.642649685446926189e-02 4.589537239139641553e-03 4.473255569739062465e-01
7.759965003725867450e-02 2.880739103142494067e-02 5.176508654356389849e-01
2.905389963901011674e-02 2.913652603690250822e-02 4.464852584758485787e-01
2.510188851539175287e-02 3.916978806712558686e-02 4.467840906584529814e-01
7.813815521854203250e-02 2.610950986960906828e-02 4.619642934303477833e-01
7.686095374818685544e-02 6.828457204451200344e-03 4.992319517644419613e-01
1.346441291839861262e-02 3.289767238791480031e-02 4.445249073613999902e-01
6.722902795353480343e-02 -4.869772364753356501e-03 5.019410466397069559e-01
2.414320091682777003e-02 3.206326220066239852e-02 4.459712053050445824e-01
9.220485339037469419e-02 5.344559676627168299e-02 4.801621052993823024e-01
8.065439866122886721e-04 7.868412983805287211e-03 4.404586483420828702e-01
8.973767995022075006e-02 2.893064143598921695e-02 4.658031503123384875e-01
7.689040739473992914e-02 1.189771452234166318e-02 5.073643575329681576e-01
7.181396253007281405e-02 3.157421686958575193e-03 5.011115577720223202e-01
2.207296812360850374e-02 5.145830609166744674e-02 4.472637927591683882e-01
8.907253645379496765e-02 2.408345169291920690e-02 4.925286143184937626e-01
-2.217325595194013024e-02 3.362011166448337918e-02 4.501404625535352921e-01
9.849075304168494749e-02 2.683044755516207289e-02 4.774141646776797199e-01
8.762513818181057179e-02 2.328822812256790831e-02 4.946071992302840670e-01
-4.608475656366878975e-02 -6.117183330910263596e-04 4.454737836688020813e-01
9.639335249646090176e-02 3.541392863106335165e-02 4.865962354353000063e-01
9.167183312627222302e-02 5.334670076299655173e-02 4.644845827206161570e-01
4.050919363016526609e-02 4.165818951647778934e-02 4.489029071410359228e-01
1.254718046714728939e-02 -9.294700047531192881e-04 4.392744750621824235e-01
8.553851897374822877e-02 4.579041339495412005e-02 4.984293914918753177e-01
9.868075876358518850e-02 2.636053533082177019e-02 4.743295631983742711e-01
-2.505059890367737283e-02 8.097857808557307885e-03 4.438202141057659977e-01
8.244007378733336777e-02 3.820102852422506412e-02 5.064748469045528001e-01
6.789523120888568686e-02 1.301572636053557885e-02 4.600467557611817582e-01
6.133242003198276227e-02 -3.359032870975750366e-03 4.601732796820871552e-01
4.160398144733719328e-02 5.005715812528930414e-02 4.486924157468620278e-01
2.520588628606504691e-02 4.611371352351318481e-02 4.468451340682619288e-01
7.972029462606176897e-02 7.241212745551852369e-03 4.774601369289722674e-01
7.334158203808589793e-02 5.338620954046954803e-02 4.534197757911517801e-01
1.652079206486810337e-02 5.662468278926760523e-02 4.489780517392034653e-01
-9.516523246624953788e-03 5.134225554405455472e-02 4.500086390938760617e-01
9.209390039785110560e-02 2.753121241122500826e-02 4.677628390209643827e-01
-9.310536615621197581e-03 3.036438095223032915e-02 4.448075974852848669e-01
6.733984364326840721e-02 7.130758248212700455e-03 5.154424702482052201e-01
-5.324707217049711241e-04 2.362672437138146897e-02 4.427253556763339759e-01
4.291658474257970673e-02 4.274225223458888445e-02 4.491996520439432428e-01
2.252682896771656881e-02 4.070728911695751379e-02 4.465017914332158888e-01
9.182607957172820787e-03 1.834228748724501395e-02 4.425969332096403863e-01
8.007303513724348121e-02 4.924946627906104379e-02 4.550721443228241125e-01
6.381055539599873871e-02 -6.349743134679125198e-03 5.090316813332547152e-01
8.869117170821495810e-02 4.607890568562551803e-02 4.587415273078653266e-01
4.999392657897582665e-02 1.144122179955741996e-02 4.513814625953818105e-01
7.554752923383115104e-02 4.075617397934144792e-02 5.080401095498553454e-01
1.520254246552361563e-02 3.817241951146965045e-02 4.452795660070017481e-01
8.034290266590252139e-02 2.623102652159402942e-02 5.131996396398358362e-01
9.703838989298030349e-02 3.809997250045137063e-02 4.857720192348298216e-01
9.053655695485159083e-02 5.678851147289271789e-02 4.724872256931528236e-01
5.450914563351968306e-02 5.749004442884891874e-02 4.510211637763439918e-01
9.035177787271110594e-02 2.161754388945945349e-02 4.866393927764907645e-01
6.507503829466988743e-02 1.584850080252083598e-02 4.579729591429519964e-01
7.975594931032467527e-02 1.767371250839221836e-02 4.652904474562942205e-01
7.548797883202633396e-02 2.266568893557104666e-03 4.784892047549342275e-01
2.801720677633039863e-02 1.354847072106423779e-02 4.449004576958419666e-01
1.099664381163658645e-02 2.048279700521941742e-03 4.399842059979768849e-01
6.965853646728051296e-02 5.908570269053613905e-02 4.538334823033351451e-01
8.431762766018319200e-02 5.142056358523215687e-02 4.569315045453664625e-01
7.100787765649052563e-02 1.080887201689735566e-02 5.145415213384485487e-01
-2.400645485218291797e-02 1.050778074395408712e-03 4.402934871382210846e-01
7.179559943097717223e-02 1.893770597779147885e-02 5.212045225177346364e-01
-1.488787111536655702e-02 2.195215545767432476e-03 4.397365897904954024e-01
5.870152666377114956e-03 3.685537250319645408e-02 4.444225957524401971e-01
8.974179959953570984e-02 4.276266040133146207e-02 4.608005223001582773e-01
7.504288386075470829e-02 2.965421798967840875e-02 5.212087753864000916e-01
6.922120828223533862e-02 1.457211104496839056e-02 4.604305649552010715e-01
-1.231853463476660117e-02 2.920178035595612231e-02 4.450671580811886852e-01
9.731501914598408853e-02 4.479561405813035219e-02 4.673839143705089683e-01
6.163596405353220786e-02 9.555739493417293945e-04 5.176532570423606483e-01
-1.174057350086775246e-02 5.735629186091231735e-03 4.402534470400192301e-01
9.807362394650862361e-03 5.159203213789282511e-02 4.470587377001644103e-01
3.629264698392272587e-02 6.026087871557332665e-02 4.493555731087832683e-01
7.304932798014615591e-02 1.477746323178525181e-02 4.624745978182449591e-01
6.661699704119050658e-02 8.197039787802559013e-03 4.603487314867079627e-01
9.674815003022349535e-02 3.498748947989608477e-02 4.649724335878651083e-01
3.172629648503465932e-02 3.061174454553384702e-02 4.471489784374696463e-01
3.952908858647827262e-02 2.986917292840670507e-02 4.488740232079206360e-01
-1.165827689490659368e-02 1.044237730252810855e-03 4.389269812581075847e-01
7.772631238375832252e-02 4.619477770349029663e-03 4.824897946344951505e-01
7.498543269965134150e-02 2.989021031634760128e-02 5.213005152014981158e-01
3.247737328748068197e-02 2.915537597615817586e-02 4.471689771328529739e-01
9.846872585129573530e-02 2.984207391430733838e-02 4.694103295033715262e-01
2.341700690747165747e-02 1.823262241356446087e-02 4.445413593780988548e-01
2.229022455214528520e-02 5.430925964960836572e-02 4.479601202346825684e-01
3.830747116412518138e-02 -2.663863135615411083e-03 4.455284869681486737e-01
8.074246997316382457e-02 7.923039801096038240e-03 4.846362305792145664e-01
2.977508068520898915e-02 5.038837315318801108e-02 4.474063927756291581e-01
8.151286217074121820e-02 5.509297278533366315e-02 4.570776977470800140e-01
7.362791934302154173e-02 4.622746504540213575e-02 4.534570377915633776e-01
-2.081712284769414445e-02 3.536319624871902406e-02 4.495262227373805208e-01
4.522876223418378222e-02 1.610680823364719905e-02 4.497140402366995859e-01
6.989056350267180973e-02 2.082711138761338902e-03 5.036170892125323428e-01
4.616866296929698910e-02 5.215786270184905732e-02 4.491253187978799244e-01
7.785773668728609986e-02 4.513811894614389031e-03 4.880575223110292793e-01
8.820312510763894664e-02 5.295696872798934252e-02 4.596386728976513125e-01
5.393450301603136543e-02 4.422339697502998546e-02 4.504619876161357617e-01
6.559707250258625666e-02 -8.080097666333592096e-03 4.699371415674066244e-01
8.546197189781756798e-02 1.376569925202679456e-02 4.851817471442138041e-01
-3.389472458125683541e-02 3.244363285847829455e-03 4.435154773285925334e-01
8.225162407945399434e-02 1.956302051367134545e-02 5.063656052710686639e-01
9.567452004029879109e-02 4.528440556380174120e-02 4.863953166159623032e-01
-1.980629306278332280e-02 1.158257133476672286e-02 4.437492703754895573e-01
6.440874970100914088e-02 5.965753058855309543e-02 4.566328575539980728e-01
7.382037856604249659e-02 5.957665968226090458e-02 4.625431270370635173e-01
7.031193146836051122e-02 -3.794017942012778769e-03 4.936724079213649641e-01
4.626636382870452646e-02 3.555021138591046848e-02 4.500820358334033933e-01
9.761182464884626819e-02 3.493415773598542579e-02 4.650943214033414486e-01
9.300700630372933653e-02 2.612322748651708937e-02 4.695103248113388639e-01
-7.626770834393810719e-03 1.147737762903765918e-02 4.408153908879056115e-01
6.819992686648533586e-02 -5.424382795715200489e-03 4.717085959732154610e-01
9.444098681059850953e-02 4.327397988283188807e-02 4.883314534642654303e-01
1.036644244833532097e-01 3.887423233757268670e-02 4.782206449098646561e-01
3.050682524036981910e-02 7.805890848627517441e-03 4.445471317772678455e-01
-2.123382698646704078e-02 2.996067890910714820e-02 4.483055855744251805e-01
7.253290814171427237e-02 -2.105273959131480355e-03 4.785973665554347778e-01
7.773547610844322442e-02 3.650939072708100225e-02 5.125995872604036663e-01
7.785789686337730997e-02 4.851795461478922156e-02 5.001533291677110471e-01
8.124618117502775683e-02 4.851385040831333872e-02 4.991418405881578590e-01
7.458777901556318257e-02 2.408847150846876641e-03 4.945774594503438704e-01
9.520062957182269525e-02 2.431014150306742144e-02 4.745871528632423231e-01
-8.081513595160516594e-03 1.066664897798947666e-02 4.407131915327777150e-01
8.386851098105564672e-02 1.182183806968616427e-02 4.862033130687603566e-01
-1.648655440824460441e-03 2.173555323228278102e-02 4.424593104176359759e-01
8.729459143234798157e-02 3.959662549596853348e-02 4.995712670304663372e-01
1.765612681726063532e-02 2.873070386429103784e-02 4.444899552363731354e-01
6.130304708938422165e-02 5.783396812185064018e-02 4.538110220634031244e-01
9.039103414304654194e-02 4.904217866036700985e-02 4.908162169922435925e-01
8.403089809853381276e-02 3.879327769434095380e-02 5.041744777014324219e-01
5.430940777561859417e-02 1.432099933198310339e-02 4.532463494347037658e-01
9.454543814574647986e-02 4.597669094477765950e-02 4.874524257139735139e-01
3.007160019998100786e-02 -6.960292651317324594e-03 4.413504687568194362e-01
8.365951343666302997e-02 3.377423619564946106e-02 5.079738748485729261e-01
1.640512696919717468e-03 8.173957675851505761e-03 4.405741543561488283e-01
2.188396100529960836e-02 -4.401405847009477040e-03 4.399519422783125244e-01
6.742303824966279502e-02 -5.262516428647218483e-03 5.012443813406570747e-01
4.915940643519935843e-03 4.167355084347052104e-03 4.401827084865199136e-01
7.963275352199836177e-02 5.357153644082276317e-02 4.554364136017783338e-01
9.419609120498227683e-02 5.245052564886856089e-02 4.711661295048786280e-01
-2.029726831773540074e-02 3.958854122961199401e-02 4.503712038645291127e-01
5.558279162168846405e-02 -1.082408533769306860e-02 4.582783829099906225e-01
6.092742448913424785e-02 -7.356296460452249261e-04 4.581332918238113505e-01
8.520630992560872252e-02 2.865246333203983614e-02 4.640064579488992758e-01
1.140206688316195045e-02 5.150969618590274524e-02 4.469141178081570964e-01
4.670997506213390993e-02 4.150338968360750905e-03 4.495362975471760003e-01
6.354061907964357603e-02 5.850408885908702818e-03 4.587246072889289983e-01
2.925990890164060360e-02 3.369738891570608907e-02 4.470048941437794188e-01
1.293233028763318172e-02 3.355820128855603601e-02 4.445253632586004811e-01
8.298205055990928725e-02 5.382098182782429907e-02 4.915384401639543155e-01
7.384116042110135114e-02 3.557200608133759961e-02 5.166069945266605901e-01
-8.275501091760607136e-03 2.451448855776723612e-02 4.434984329287041671e-01
2.931644319342084290e-02 7.840931856132847544e-03 4.443085362177193187e-01
1.332766273898862604e-02 5.752605065774245990e-02 4.520175419869763012e-01
6.851215754875746022e-02 7.650875807817325742e-03 5.141577041282665572e-01
5.878814443238118692e-02 3.072768802311013833e-02 4.538063876218446091e-01
7.307663150485917136e-02 5.469776636998328889e-02 4.535532206580175640e-01
1.024601676923130034e-02 6.456295936479896150e-03 4.410414964491196632e-01
7.451989850464132981e-02 2.103479077741659750e-02 5.192445714658203704e-01
6.689646490032492843e-02 1.061072646914920647e-02 5.200689427219628014e-01
7.250279165842771212e-02 -7.252403941899322574e-04 4.747814781953923480e-01
5.845491411393267944e-02 5.317745166015527825e-02 4.501929058805864137e-01
8.880014147197248797e-02 3.675184195024851913e-02 4.978882012255186895e-01
6.348106848837249683e-02 -9.215248452195370227e-03 4.676014315418791645e-01
5.170586134156873043e-02 -9.007728815430927211e-03 4.543926971743594834e-01
9.960200334590384175e-02 2.985176185275241825e-02 4.804545641038560078e-01
8.522126203769389563e-02 2.562196082285482512e-02 4.656481075471013420e-01
6.158881279009808911e-03 4.394716085460518423e-02 4.452395388707682811e-01
-3.558397564557150977e-02 4.116521584562247288e-03 4.457241745551787648e-01
8.205240312411758719e-02 1.847322628821446155e-02 5.056772140120530112e-01
5.590717286975264988e-02 6.371233773518858792e-03 4.539308274892591699e-01
8.121936886126423713e-03 5.633202716342671640e-02 4.509361185024636232e-01
2.689129806722635740e-02 3.458445788042861790e-02 4.466727846288730541e-01
8.999257466591267796e-02 5.441818497138666000e-02 4.634540392120470309e-01
-2.145551723365151861e-02 8.625420452989116665e-03 4.429628610716893622e-01
-3.811216135349035014e-03 -1.022382552267666125e-03 4.383510703848234602e-01
1.292317972464424036e-02 3.969573491206777188e-02 4.450907220571275746e-01
5.145097999806168276e-02 1.774348663824368288e-02 4.519626315349778989e-01
5.827128507771851124e-02 2.790326461370569444e-02 4.541537235917558202e-01
1.185489093759035419e-02 4.034176549210096233e-03 4.405504715010659100e-01
8.633197274330968451e-02 1.439257399588139696e-02 4.789487487978173474e-01
1.013482273364799541e-01 3.457168750057596635e-02 4.807146936226158185e-01
4.731969492443249131e-02 3.711792550264665647e-02 4.502342685775418407e-01
1.862398125313851141e-02 4.519080443221128174e-02 4.461097912657283060e-01
7.146196369091245559e-02 5.629215106755854764e-02 4.533913403573780476e-01
4.925187263039686181e-02 -7.205958549636734718e-03 5.281482173157018289e-01
6.908658180434812390e-02 3.050822238245436482e-02 4.570345560363970328e-01
9.138330403544844827e-02 4.988789547080369619e-02 4.609408166961144748e-01
-5.311804464320791716e-03 3.337448749856889579e-02 4.446565312307405038e-01
-7.543585316717163133e-03 2.610687125888675256e-02 4.437515123145167051e-01
7.195932990829663478e-02 1.060789546747866515e-03 4.975215370328291420e-01
1.466222347139995753e-02 1.634215780251134162e-04 4.397940790599563221e-01
9.260384620472938977e-02 3.102901663348502440e-02 4.914996720086308724e-01
9.926656241088267774e-02 4.221747648168727024e-02 4.675487449346475421e-01
-3.766117943409824902e-03 4.168580521145216766e-02 4.452986673243623517e-01
3.726308903780923415e-02 3.661820547588408997e-02 4.484748439747890947e-01
6.171697315213496571e-02 6.038870953477293302e-02 4.576046848319462179e-01
8.980691445313317145e-02 5.495488579695003567e-02 4.787900153542622994e-01
1.069987745768780779e-01 3.663159583400490277e-02 4.711704806102194332e-01
9.361469415633748292e-02 2.753827601792378094e-02 4.878335108920546781e-01
6.226174352544608381e-02 -1.309625894292747953e-03 4.599452297288433300e-01
6.062376646919592077e-02 2.288298845683559707e-02 4.552097070558405179e-01
2.824123002777293931e-02 5.408187583801783022e-02 4.481104098692218485e-01
8.537579473279380271e-02 1.315115666671912500e-02 4.802477913913378860e-01
8.337676319291727201e-02 3.633219311780953864e-02 4.637244612212749195e-01
-8.647697870631264327e-03 1.872565984989491006e-02 4.423333556670626110e-01
6.425254785555171988e-02 8.945765274036086845e-03 4.585841964353543077e-01
4.046369947540897488e-02 2.167930321388851500e-03 4.466922761730198754e-01
7.689558699132643949e-02 4.066230569837617909e-02 4.580899367098690278e-01
-1.877654319485696360e-02 2.267862653733379932e-02 4.459535070442035010e-01
7.327507522772000459e-02 1.272183020983186884e-02 5.134742484520227190e-01
1.916178352965113366e-02 2.478301290253102918e-02 4.444069596362751340e-01
8.171682357257722962e-02 2.073600279559572462e-02 5.088504806552830440e-01
7.744090148034241117e-02 3.051354622754499230e-02 5.179065876810849955e-01
5.589832751530526139e-02 4.456971246724505953e-02 4.506422753213928378e-01
9.346345558563344535e-02 4.152374938517133796e-02 4.622468538485781098e-01
8.955854216989542205e-02 5.276490805970263098e-02 4.870563633896813904e-01
7.919544817715568064e-02 1.265073621116656957e-02 4.686332452059319698e-01
7.005135505164655774e-02 -7.315707701391602202e-03 4.834614194443611623e-01
3.521268721897999332e-02 -3.771723424969959226e-03 4.438678537147033865e-01
4.073658791190634676e-03 2.852750687363666757e-02 4.433490766407611750e-01
-3.788415924387481676e-02 3.117722053380794431e-03 4.438632115026698299e-01
-1.892424213629273488e-02 2.232656071405144521e-02 4.459833205358104680e-01
9.801745541177528734e-03 1.629850233141922830e-02 4.424936708885898184e-01
8.436245749624657342e-02 4.187375932956017427e-02 5.017746194611624189e-01
6.920541667666042784e-02 -7.758510819852243098e-04 4.682701270737580912e-01
4.564912303622230272e-02 6.341569190318881166e-02 4.567746107076826045e-01
4.099796387117641411e-02 5.545511369994547690e-02 4.488539040282567005e-01
6.942773899237347779e-02 1.376571111295953054e-02 5.195267916224415305e-01
6.852842034480041700e-02 4.167906372445915469e-02 4.536810993257524016e-01
9.944633826236852492e-02 4.263964218213797674e-02 4.820591952534338254e-01
-2.523564866404696960e-02 1.287220081425784549e-02 4.461921389250498859e-01
5.462891749920194967e-02 -1.032676909114647532e-02 4.572051624991269048e-01
5.588431671458007899e-02 -1.086525757292690440e-04 4.547209951126614524e-01
5.379671286528905916e-02 5.285947721593951820e-02 4.497869579073858759e-01
7.413451461270270659e-02 6.237292159969463207e-03 5.029803841149084187e-01
4.667460139418583287e-02 5.171421936722394794e-03 4.494901367591866426e-01
4.327549957574265693e-02 6.105942119075038338e-02 4.508754597266232955e-01
7.728115598280142773e-02 1.065713638907201527e-02 4.683376903308332784e-01
1.598635720653080600e-02 5.349846776081988026e-02 4.478151948849751207e-01
-2.191527338463011149e-02 1.032427815982202637e-02 4.439017196996955517e-01
8.891679802528498766e-02 2.924795011744001083e-02 4.651085039501954288e-01
4.084220542495091422e-02 6.194004128221273359e-02 4.511075026650547826e-01
-1.558714696175742334e-02 1.290086522415202427e-04 4.391921775378120341e-01
8.658309664615838896e-02 3.213919704524789006e-02 5.026347918455591479e-01
1.824453847363969108e-03 4.517711603620222505e-02 4.453837609459767033e-01
4.958937575419389981e-02 1.495031575057700728e-02 4.511888690524983314e-01
5.310859004802164635e-02 1.369881104307182212e-02 4.527275402008355543e-01
-4.128224154305322469e-02 1.466222007262847323e-03 4.416092974357333500e-01
8.363262482121988639e-02 4.973040694022793501e-02 4.958606506727498142e-01
5.328586320323194792e-02 2.769209140436951558e-02 4.525949199025078307e-01
5.010240441733325445e-02 3.733565617173496831e-02 4.506135991274383135e-01
1.003398866526140631e-01 4.157422240775797417e-02 4.681935455580382155e-01
7.519368535861431502e-02 4.014670912140952397e-02 5.093790839467273734e-01
3.848506188440177500e-02 5.930356294239410436e-02 4.493171336130920568e-01
7.998432781371972444e-02 8.056054434778723433e-03 4.928352332993062301e-01
7.269874265207283692e-02 -1.924121418884066096e-03 4.790586198993727618e-01
7.063750004371438518e-02 3.330561084817669493e-03 4.663998723735563456e-01
8.684528717301413792e-02 3.808928900112590332e-02 4.628536489443345059e-01
3.321028980217641258e-02 2.845989073271040868e-03 4.441226495618885717e-01
5.453779611388565388e-04 2.362198082443884781e-02 4.426850562607192452e-01
6.676340433434127530e-02 4.640586655127262872e-02 4.521874065612352944e-01
1.009996780807667222e-01 4.042631026568319769e-02 4.666126276640079062e-01
6.383945078578391608e-02 3.624305289078295217e-02 5.177612960338322523e-01
-3.155137736145001426e-02 4.633192185272812236e-03 4.436208110120188342e-01
7.724150934527604373e-02 5.578003708877154673e-03 4.954548349146289388e-01
4.171035197612570772e-02 5.747961358673232823e-02 4.491807895478894808e-01
6.124154941299459615e-02 9.498534405181089518e-03 4.567407089653625074e-01
9.022369046789330271e-02 5.084018490227852627e-02 4.602275025490678573e-01
9.345388963554265849e-02 5.311885223116726701e-02 4.685818213546775746e-01
-2.270208550795667357e-02 1.612059085125699953e-02 4.465407403670875741e-01
1.428265753130166307e-02 5.270817283812941761e-02 4.474583534833739829e-01
6.943033186417219005e-02 9.112449159859916867e-03 5.146031155840032900e-01
4.920274262732129977e-02 3.456689608390550728e-02 4.506941420179066404e-01
9.262501978314328921e-02 5.399083849030653082e-02 4.773761787886666719e-01
8.511593876524518876e-02 5.506576298287840093e-02 4.590623751392599039e-01
6.385760274430690719e-02 2.890880747220301444e-02 4.556240092828585109e-01
7.407376703577416011e-02 3.329209301745743050e-04 4.782376040074048928e-01
7.457851736672869991e-02 1.323858358605042342e-02 5.122259070457856334e-01
5.307659849370285204e-02 5.627929074728714801e-03 4.525500105275067075e-01
-1.858679945802967776e-02 1.638684858058005178e-02 4.446305423422650116e-01
6.103827221993419344e-02 -3.071773483398084446e-03 5.158580470975993038e-01
8.124418533424590527e-02 1.516748165711002613e-02 4.686982222742152593e-01
9.408401456652207284e-02 5.264778164226674440e-02 4.734096999589803012e-01
8.797747610355254044e-02 6.107949955744302467e-02 4.676368999718750197e-01
7.379662257466726438e-02 2.867913687587054280e-04 4.772213401323047721e-01
3.646791468118430052e-02 4.087392790460311204e-02 4.483666333976644158e-01
-2.038322373095734913e-02 2.637038107572839407e-02 4.470795582697537074e-01
8.347387456502761149e-02 2.034380193773500239e-02 4.672375824521458609e-01
7.421215599918086492e-02 3.591577003033727400e-02 5.157305000946812434e-01
8.064003063220631651e-02 3.230135925542210185e-02 4.622991553774296603e-01
6.929360275370953504e-02 2.149925944189932936e-02 5.251938300225337253e-01
1.071128853849824883e-02 5.157035112841477920e-02 4.469873370385226141e-01
6.801094376147186205e-02 1.941968051451072388e-02 5.255300872407179247e-01
5.020833789130086516e-02 4.620022410676296459e-02 4.499027634695280664e-01
4.098688732697317039e-02 1.361150630656752895e-02 4.479903315615305637e-01
7.673782463849236624e-02 3.111799884791884886e-03 4.848128471951312912e-01
8.331366155841875287e-02 1.752952855266749418e-02 5.011340731723111785e-01
8.663490034656068373e-02 3.334077443764549287e-02 5.025546123731209347e-01
8.002898127715026011e-02 2.708712997675974052e-02 5.137586301837493430e-01
6.996375847934284409e-02 1.134963671400277332e-02 5.167732682203537431e-01
7.820808375834124859e-02 3.715568587187968730e-02 4.609827716741115577e-01
5.657155816284084593e-02 5.880713655985403410e-02 4.540895841602239358e-01
4.088502666856981549e-02 4.713357577537671816e-02 4.487104183034020810e-01
-7.473311873605149869e-03 2.465577989413066801e-02 4.434274796160661558e-01
3.056133614860022732e-02 3.362713292478235194e-02 4.472285258955641107e-01
4.828257457837258071e-02 6.178270042232431730e-02 4.547111312049123555e-01
6.204893004865029427e-02 1.259277645475035540e-02 4.568782495023714363e-01
8.427185917914140068e-02 1.690422588796538020e-02 4.967501497412818989e-01
7.156248679723041517e-02 -3.939473946960423897e-03 4.882162629769614681e-01
-1.163173172283072342e-03 2.986931460057753313e-02 4.437465583886600062e-01
7.181779769074504716e-02 -1.476873831282544177e-03 4.934854627082862488e-01
4.476419205257491790e-02 3.592798180254671431e-02 4.497831859094580942e-01
1.003243567849812085e-01 4.359242727603671042e-02 4.746941846828898748e-01
7.099285404761752905e-02 3.832704513079382425e-02 4.566664565511528440e-01
5.871189307789248697e-03 5.077116075421177904e-02 4.468376047356378278e-01
5.669300159256391441e-02 5.793649634471106924e-02 4.519997383146640568e-01
5.455960872518742649e-02 -5.610186597530578481e-03 5.236287702568058755e-01
2.086274696500520220e-02 2.731338481345427574e-02 4.448151878063102971e-01
1.167319927397141369e-02 2.354021175848060310e-02 4.432752146611337873e-01
6.256960555337910679e-02 4.700506349763466929e-02 4.513393450625936554e-01
-1.784448130434710235e-03 4.997650791190123842e-02 4.467696645242664744e-01
5.948663419752013570e-02 -1.235939022662183029e-04 4.570493645134452998e-01
5.024184397548853154e-02 2.406237585457324593e-02 4.516219603983438469e-01
2.136675701209875614e-02 6.233171432471620171e-03 4.424568001850484600e-01
2.588121618423470244e-02 3.083802921787619569e-02 4.461083075826474675e-01
9.648436707864280204e-02 4.812286758810327414e-02 4.772188926640537066e-01
1.129504932643741154e-02 2.550340465700014908e-02 4.434229974116509210e-01
3.995617811321796123e-03 5.087086652620977784e-02 4.469705895683956931e-01
9.105559483508697538e-02 4.484738305809073816e-02 4.598707494534877704e-01
3.473043012346756220e-02 6.558146312426384184e-03 4.451345412936850154e-01
