8.242801134115454453e-02 1.643796325365223451e-02 4.993782531976662109e-01
3.706800923863044772e-02 6.460425853668227969e-02 4.552561408859465697e-01
4.840092138362213359e-02 7.218178041324384460e-03 4.504713059980018919e-01
4.159306218920730269e-02 3.631783064309107578e-02 4.493488949660983667e-01
6.531279540379371362e-02 3.465856297036371686e-02 5.229182063500328326e-01
8.143130180273498719e-02 3.322351168152689466e-02 4.629289087559689264e-01
5.972532306877659930e-02 4.643066018452117472e-02 4.510845724914454014e-01
7.979077648074012208e-02 1.999713246527839300e-02 5.099034103955460973e-01
1.044752137101384454e-01 3.470620458744296671e-02 4.703375432889414509e-01
7.677192233737653582e-02 2.760405749994132574e-02 4.608800995688083213e-01
9.395288962431660312e-03 1.738620722203310792e-02 4.426162580187297801e-01
8.487776336603836125e-02 2.813425746024525442e-02 5.037882530759912880e-01
2.821357458559391185e-02 2.408903641560382336e-02 4.461056545300200460e-01
7.503177484759956939e-02 3.829135104740711767e-03 4.737493558251250625e-01
5.364452729498448563e-02 1.439550438559480949e-02 4.530844430867077555e-01
7.914188645581683723e-02 5.567284788712172083e-02 4.568870742098099513e-01
6.106583868876244020e-02 5.347904041795203955e-02 4.509541477909456697e-01
6.636422051453733095e-02 2.841653302538822527e-03 4.619898363547366715e-01
8.028537384952151579e-02 5.790335079904086052e-02 4.804417369039544750e-01
9.458243482712742900e-02 4.825586583392112161e-02 4.817608232558740489e-01
7.016578658696535908e-02 5.969038039731879020e-02 4.599714267944406965e-01
6.520166153326696634e-02 1.263230272305587536e-02 5.228008308557138273e-01
1.788328659385413771e-02 2.457177405403380196e-03 4.408900108566060072e-01
9.824678907379369441e-02 4.350322782608346400e-02 4.807774838576097665e-01
8.413425129197778241e-02 2.107334791904253574e-02 4.682803620206790196e-01
8.905254528140824077e-02 2.108904349257537114e-02 4.856628411317091554e-01
-1.608192908977295818e-02 6.249932657488421056e-03 4.406737067228714833e-01
6.521114663652476107e-02 1.605958984608911802e-02 5.253607222076220884e-01
8.721997410781902327e-02 1.820758766831945957e-02 4.762444545369892146e-01
5.217610225496263632e-02 2.000362530883817783e-02 4.523368260536770880e-01
1.384722390940260062e-02 1.250299062044790688e-02 4.425964517291582911e-01
3.326005234967920748e-02 2.169260958025074140e-02 4.469914053595295256e-01
8.679188023606168589e-02 4.904879348723500954e-02 4.939928469643180553e-01
1.783004879761972399e-03 1.156677411678882009e-02 4.411374992852626908e-01
2.038286077083738268e-02 -4.341314931661943537e-03 4.396622343718984416e-01
4.721192299032425654e-02 4.179741398158986349e-02 4.499402072314777068e-01
1.008383379620307330e-01 3.774173422117790139e-02 4.800478864864250461e-01
8.460509843189378820e-02 1.354401639572673163e-02 4.792062498508090629e-01
-9.800640249854147140e-03 -1.385973760516266045e-03 4.381815624299636447e-01
8.044130865616237747e-02 4.009742711688626254e-02 5.062277528903210699e-01
7.786408838224950779e-02 6.011068636973393789e-03 4.786733097313365382e-01
6.479511164132122081e-02 3.342553040145010423e-02 4.551196434764564480e-01
7.593604125331362975e-02 8.111515510309707383e-03 4.697322981222939453e-01
7.891359244965293063e-02 5.192927083218820683e-02 4.553588456489655045e-01
-1.824197065415114963e-02 1.377616259628681311e-03 4.397856485323622389e-01
5.603437970922677674e-02 4.123249820441790559e-02 4.511442110649261372e-01
6.736865208772005453e-02 1.607624128789059137e-02 4.593676445714807710e-01
4.273293505913803442e-02 4.002934220818721994e-02 4.494145464845057392e-01
9.746425559962709761e-02 3.116525845313463522e-02 4.809932273284108217e-01
-4.252674211695628599e-03 3.016833389701249757e-02 4.441024361029818901e-01
7.277995198494509321e-02 -4.509486432218356641e-04 4.776069428661295913e-01
8.464340657009832014e-02 5.619762298760590941e-02 4.598289046511358502e-01
4.163298001066392806e-02 -3.058559658009340782e-04 4.473254128863871082e-01
8.475648195208755620e-02 2.106317154212392073e-02 4.689265403476385319e-01
8.605140967248373074e-02 5.447852036573686690e-02 4.865344344526433273e-01
1.050042765960600491e-02 5.727476923975952788e-02 4.531181300098694464e-01
1.948309790800603972e-02 2.971279786695998903e-02 4.450788401272323669e-01
3.194284484304503458e-02 3.616045457794345164e-02 4.478434079200530604e-01
3.908392329238492141e-02 5.451565726073677454e-02 4.487377409729177424e-01
4.385210579587326546e-02 4.375690157144624531e-02 4.494730145041728742e-01
8.542410281188109189e-02 5.537455116286017082e-02 4.828625448280364219e-01
7.439041422740978737e-02 4.572048245322612482e-03 4.713363389539073633e-01
6.259782977571892726e-02 5.043690063161816034e-02 4.509943530293799574e-01
5.044512829381996716e-02 3.592124236418652028e-02 4.510149914948911043e-01
4.395574554867424932e-02 -7.533820258305525507e-03 4.486330108409122830e-01
8.720331949319395926e-02 2.427930843352858054e-02 4.682643504488811503e-01
7.660824545675516684e-02 1.119739215004371055e-02 4.679013054487123902e-01
5.921783482043164321e-02 3.059569963547564136e-02 4.541274552956363064e-01
-4.363947853062000171e-02 1.365140919876434936e-03 4.437634249305077438e-01
7.768973627318673247e-02 1.301442062046263143e-02 5.058304465571614728e-01
7.573739100577915606e-02 2.730017486653250197e-02 5.190605897637683430e-01
4.708221917609739515e-02 3.028165766918495053e-02 4.508268674705729895e-01
4.721502217700832005e-02 6.345289883489256197e-03 4.498661949136595339e-01
8.722105882865173465e-02 3.205542930554709791e-02 4.997309314438314054e-01
-1.158851748717544192e-02 3.765629858148482334e-02 4.464302167549288880e-01
5.905334227088672450e-02 -5.396964081742321867e-03 4.588487401496288420e-01
8.345688349942229078e-02 5.125939721759534273e-02 4.940256272600679899e-01
7.057249138441852587e-02 4.125924021412109843e-02 4.553255350745690766e-01
6.531868948902286309e-02 -5.921719568184774171e-03 4.679482906222965921e-01
2.984850918911978110e-02 4.632394021017052776e-02 4.475784567794459656e-01
9.084278808319740106e-02 2.295503924538452173e-02 4.761528918879480154e-01
-9.262907508676603355e-03 2.216657019537351253e-02 4.431886219804522242e-01
6.756787415250453677e-02 4.443055564859540313e-02 4.529300704546095346e-01
9.403453956495282096e-02 5.037019166392537467e-02 4.773494845600212977e-01
8.889291766029117081e-02 5.137805088973190770e-02 4.894165103139458406e-01
7.205924893096214701e-02 4.359802327443925568e-03 5.011673602433428520e-01
8.542271276622480369e-02 5.756742406644238530e-02 4.621522502548846556e-01
8.516405152096187536e-02 5.946815740024064684e-02 4.624185900662454718e-01
8.551180819995128635e-02 3.491731784822826867e-02 5.027153386729174001e-01
9.155253771412956432e-03 4.376212046535794126e-02 4.455347270212329791e-01
6.662308950780113093e-02 -3.478709886108482998e-03 4.677844263225213184e-01
6.766994420653152376e-02 1.789190879482573104e-02 4.591275081147301318e-01
9.601987555247962214e-02 4.659044111156566970e-02 4.803891792775052405e-01
7.846377895112616185e-02 1.413064341742283764e-02 4.673657391874460054e-01
9.535277980635833983e-02 4.045478866985141586e-02 4.855578920909334739e-01
2.064923245145074832e-02 3.921119782692378958e-02 4.463052493422689504e-01
9.573669954629876466e-02 2.723379373209494636e-02 4.810702472337362035e-01
8.246485752620488774e-02 1.197434328727638685e-02 4.746199159279852475e-01
6.260398572368686132e-02 4.206380045743857501e-03 4.586177635308937295e-01
6.871257063796752662e-02 1.004998967001046947e-02 5.156683531257268971e-01
7.606224914527877357e-02 3.786403959122248974e-02 5.117738632259247744e-01
2.572401352939371333e-02 1.681280574638984240e-02 4.448037721182496185e-01
9.066231053434584131e-03 5.206668338351091302e-02 4.475775776432535102e-01
6.114779948756650374e-02 1.047079282466739300e-02 4.568152466631924535e-01
5.554115755371471369e-02 4.750919249384590731e-02 4.504980507012260049e-01
5.928551857193031793e-02 -9.122575743014994104e-03 4.620746549828896876e-01
7.484654188212229442e-02 6.788266727035348856e-03 4.695484205922006993e-01
8.224995836026287310e-02 1.450726969257516361e-02 4.716418414844529838e-01
6.088470588356020147e-02 2.477040595332768991e-03 4.576376069373624400e-01
8.971340141929497192e-02 5.191546936876204749e-02 4.867130750562573271e-01
7.143399794168446559e-02 3.490878329991276008e-02 5.190809517891349367e-01
6.669512887747723606e-02 2.545632967164419141e-02 4.570696728274113441e-01
8.790651058249909777e-02 2.751986027425376569e-02 4.951928990333883118e-01
8.025597451292694473e-02 2.005436050440458431e-02 5.090375457038859297e-01
-1.908596237991853472e-03 3.277127720713735731e-02 4.443291258978560032e-01
7.989308087844909645e-02 3.776884689334098627e-02 5.093734078703465729e-01
5.374649717820517703e-02 -8.028815091521604441e-03 4.558422883666007897e-01
6.251158095606153264e-02 4.639188299389460785e-02 4.516629351891593425e-01
2.195492357724600913e-02 3.196133732807249911e-02 4.457672730356345148e-01
8.352354456305442765e-02 4.064047384828146231e-02 4.608972765628101542e-01
1.029062787955704883e-01 3.375395120928656456e-02 4.699445880358199545e-01
9.599704530668684566e-02 3.872147623152429746e-02 4.849895604120795234e-01
7.987614273667766052e-02 4.950044488407650406e-02 4.979704125031349515e-01
1.546127987737695242e-03 7.842447244408393484e-03 4.405522577641272086e-01
2.263663067002619211e-02 2.376377384617602354e-02 4.450012711180428848e-01
4.841497543497343126e-02 8.962822645575522357e-03 4.506384453426134362e-01
-1.694449846465804696e-02 5.125323412735624529e-03 4.405085482453726664e-01
-6.301902916395696157e-03 1.509019218819410320e-02 4.414456236927732924e-01
5.313052471961332568e-02 1.483090986454016838e-02 4.528469921887278149e-01
9.415218344735877543e-02 4.880377869647268413e-02 4.819757810477951487e-01
-1.865661792232777352e-02 6.879313418606496436e-03 4.414625465077484656e-01
8.455467397195846890e-02 1.391551993007618740e-02 4.845183596379936675e-01
7.854929539354867096e-02 1.125858962773738058e-02 4.699977745202308377e-01
3.252312482483851741e-02 2.418735105046915940e-02 4.470224378093369255e-01
4.328843142621668916e-02 1.095787081270403231e-02 4.485152986649993401e-01
6.916923826607618286e-02 -7.802273866069756036e-03 4.904252593070465571e-01
-7.659484725549617172e-03 4.048904607088034402e-02 4.459789094525151709e-01
3.875998541445043605e-02 -6.869118877692169389e-03 4.455324567675773562e-01
1.887674715795689684e-02 5.030671877399844200e-02 4.470696890283796798e-01
2.780009718959604997e-02 9.678529683752528506e-03 4.443280399103082257e-01
6.200465138650816665e-02 3.960505625329111684e-02 4.528514761215811646e-01
7.081720265692975635e-02 3.037986660602644620e-02 4.579773372792301234e-01
7.807024453976883771e-02 6.893707963831543876e-03 4.928368515229554769e-01
5.415532194285600787e-02 -5.553165388333071960e-03 5.237206041611560670e-01
1.018698802418096377e-01 4.058782963097994079e-02 4.721607279261093026e-01
8.509774924226200243e-02 3.741800717643822827e-02 5.025907187016172006e-01
6.535713573123999587e-02 1.828309975804463024e-03 5.109159612381456439e-01
9.758965069390158897e-02 2.945924391228015721e-02 4.696486910593536956e-01
7.945776264196005578e-02 2.221865712891333416e-02 4.643422167375759191e-01
7.098626627530865707e-02 2.082582988739239971e-02 4.602322118881507218e-01
7.642454351147996705e-02 2.806716331971002495e-02 5.181455784841711987e-01
2.026586350613751586e-02 5.490817872509649172e-02 4.485138468968242198e-01
7.230694177601623696e-02 -1.620360351035081588e-03 4.794325491249174509e-01
3.103203240701583876e-02 4.553607751347945459e-02 4.477197807303476829e-01
8.458462525822027511e-02 2.539014987926222627e-02 4.657738328957968243e-01
6.377457816308806579e-03 -1.813110762375709593e-03 4.386426545142956823e-01
4.915102153258661677e-02 6.176735405380566479e-02 4.569389021153574260e-01
8.012615655521554414e-02 3.530732421406948540e-02 5.113938440504319782e-01
-2.500808622078981580e-02 4.215683777268776702e-03 4.418173080043987788e-01
8.081669840182280351e-02 2.692094756368815234e-02 4.630446594129019600e-01
8.586240718098601954e-02 3.904134721295542815e-02 5.005228877823163502e-01
-3.572181587456224605e-02 4.327230133708821411e-03 4.461994008873818029e-01
8.414607174530790157e-02 3.522619250945788899e-02 5.051371848256633879e-01
5.914503905166668823e-02 2.205046498432224056e-02 4.548285482100553612e-01
-8.176669669050215528e-03 4.096794024382090053e-03 4.396866018674589482e-01
6.715002886270395044e-02 3.981576397026221487e-02 4.544805103923957867e-01
8.921221922204009003e-02 5.013426277327662911e-02 4.601532614248483033e-01
4.979365412106655231e-02 1.599099064522030086e-02 4.513973220389074781e-01
9.041518027860119544e-02 5.558276278672837079e-02 4.755685603334754430e-01
8.218184463673199047e-02 1.105050598706083624e-02 4.875570094220375017e-01
-8.228505252880670071e-03 2.654366759201452070e-02 4.439611121964730511e-01
7.988139508223860569e-03 5.501823803465599738e-02 4.491090411228839119e-01
6.386445823102206154e-02 2.877197980480540682e-03 5.147892793576467341e-01
6.251779003960460102e-02 3.479373422661746328e-03 4.586968301068426457e-01
7.975298760882752747e-02 8.234179003700256572e-03 4.780436845648760591e-01
6.169844209725307282e-02 -5.520489700312079979e-03 4.624736310407016049e-01
8.977404890258441905e-02 3.639607142385842958e-02 4.638982358423500707e-01
-3.424009954132472416e-02 4.591963699303261252e-03 4.457707982786108247e-01
1.515662137576774884e-02 2.356145140354792052e-03 4.404080677655634046e-01
4.981426272928800997e-02 4.625893690578336548e-02 4.500045229691534421e-01
1.359316442324328029e-02 5.909314203323295933e-02 4.544730529132620100e-01
9.494832457569708783e-02 3.035916100041284940e-02 4.676187624038465329e-01
-1.101128646594477789e-02 3.850265473867800492e-02 4.464198959087327112e-01
2.311192624344116792e-02 4.048442383442543702e-02 4.468028510681823495e-01
8.828050675992976659e-02 4.147341729345570271e-02 4.615213414795421576e-01
4.118763042364972232e-02 4.608422819091193001e-02 4.490129352280203268e-01
1.085194236994288172e-02 3.486849444783168134e-02 4.445918053163882000e-01
8.498368286249508019e-02 1.602221123436205208e-02 4.887778973662977311e-01
6.796425373162812145e-02 2.065720665115369781e-02 4.586659653747832133e-01
4.066480824163912905e-02 1.116794080156203323e-02 4.475735046150782770e-01
5.315082935067502734e-02 3.295853848591370067e-02 4.520733822134757607e-01
5.855327751791931240e-02 -6.211547590086685666e-03 4.587586706222195887e-01
9.002781623997542504e-02 5.638834777881573945e-02 4.687259051623489103e-01
-2.232629332776286252e-02 5.838447247085903902e-03 4.419042375095021957e-01
9.120834836986298211e-02 3.537858029560030093e-02 4.919697301922977273e-01
8.184158646048289576e-02 1.344790149362925201e-02 4.961048703669614368e-01
2.043057329844670186e-02 3.377949342379987958e-03 4.415693604112622128e-01
-5.300638223193493079e-03 1.273952439611684279e-02 4.408615727054622235e-01
3.962262851228130073e-02 3.614552529630721701e-03 4.465747508948214040e-01
7.232839555916566188e-02 2.283576296808327750e-03 4.710648589125723817e-01
6.204617274413917055e-02 5.536152815299685316e-03 4.579222857240023981e-01
1.239486544289154259e-02 5.475482888539786458e-02 4.486644450306759846e-01
8.446344376440259594e-02 1.371675716916045951e-02 4.838042831433143620e-01
7.281100732802615882e-02 -1.332578075122874128e-03 4.876878713869151061e-01
5.027360934510609336e-02 -3.611322316234956767e-03 5.261774953663367338e-01
7.166623644586615771e-02 -2.700636876873104691e-03 4.800083652734060680e-01
8.577681827525925062e-02 2.864336999906073183e-02 5.014731035180175489e-01
8.654181627151216749e-02 2.141713644113849360e-02 4.705377958107349046e-01
5.542971389479165595e-02 4.014025760906324986e-02 4.512432504846918824e-01
8.405501048868879721e-02 1.394038210642810187e-02 4.884973091783307853e-01
1.034317968260464599e-01 3.359403870597833797e-02 4.703546374618355896e-01
6.698599112869886574e-02 6.033060011316726534e-02 4.565851145955160950e-01
8.127514297247866171e-02 1.210793087583049953e-02 4.951467763457615412e-01
2.950663385903274163e-02 1.649670512454963142e-02 4.455509737162430817e-01
6.337238561378338852e-02 -2.343435719242102991e-03 4.623206267657545832e-01
8.706053037204312950e-02 1.870064231212896499e-02 4.875483474604554446e-01
3.466203057080308875e-02 -6.170641911347966857e-03 4.432656040257744734e-01
6.779641730746917283e-02 1.070030970348708269e-02 4.607663729207374659e-01
9.327075307175203278e-02 4.665152313934213535e-02 4.641354432946366293e-01
1.949706343012878873e-02 4.756415699707784717e-02 4.465302800878078182e-01
8.238808081977162801e-02 1.474609645724144109e-02 4.970139103706190942e-01
-3.256176961599099168e-02 5.977520600420106051e-03 4.476709609471178908e-01
1.012334475311369580e-01 4.138847725123463717e-02 4.774716578077318196e-01
2.358255948271054808e-02 4.065874040045010240e-02 4.468601675726375788e-01
-3.054231473593287116e-02 5.290484297454377781e-03 4.436492782675970359e-01
-5.715910450860704067e-03 3.294744941201545319e-02 4.446937328746113360e-01
8.404192175015350041e-02 4.603063230365219555e-02 4.986835643075073210e-01
2.988256937301524488e-02 2.753486127492734900e-02 4.466859208368375023e-01
9.417789107437629648e-02 3.332539304573055999e-02 4.868480366556422467e-01
6.698456198649595239e-02 1.650574461732337572e-02 4.590697292646125915e-01
6.725082589799401267e-02 1.632096684516854898e-02 5.232472164897130629e-01
9.522719597728598884e-02 4.656512496818588503e-02 4.677390227629357189e-01
9.843106291230599436e-02 3.537894301248039469e-02 4.661335951651507936e-01
4.721945119903023236e-02 -7.505102121735581291e-03 5.294642223967441774e-01
2.403944878335607244e-02 8.865181951815829034e-03 4.435763979201264307e-01
2.159504519910936116e-02 3.444332162615955373e-02 4.459671650085362260e-01
7.159466015998737498e-02 1.191611928563538446e-02 5.136396959875516588e-01
7.821413363185331091e-02 3.511736557772855011e-02 4.615413092947867613e-01
7.542730086506614640e-02 3.215294944785107578e-02 5.185503486138868245e-01
7.131085438109406593e-02 3.531018611287663634e-03 5.010705601930397490e-01
6.911384485369870267e-02 4.327722831282602295e-02 4.536666657439248351e-01
6.110686144051227092e-02 1.540357394372187348e-02 4.563334653154866860e-01
-1.345223774784277612e-02 2.385680301885712701e-02 4.442712852446842886e-01
8.405684156687041886e-02 4.293585077679417522e-02 4.596661405493397412e-01
8.745130937788338221e-02 3.999435839617926369e-02 4.621598327909664516e-01
6.805253104611524995e-02 -7.918293555598424766e-03 4.764532073983084315e-01
-3.678586785292842221e-03 4.214546769707619260e-03 4.397897554083284866e-01
9.613100841938312935e-02 4.057286299171028454e-02 4.845180471973530856e-01
-3.405899030406754797e-03 4.015458363305809963e-02 4.451819001712566393e-01
1.086659245229382002e-02 6.849169984143572629e-03 4.411871471680815504e-01
8.647434264131299841e-02 4.517300878660733543e-02 4.586759096949715175e-01
-5.490921562986398122e-03 2.129204017848067634e-02 4.426042353565461940e-01
6.918984778351605636e-02 3.439860148548676277e-03 5.054929277920628961e-01
2.819019910365527792e-02 6.283783644701418369e-02 4.528679894587223642e-01
8.380465799664271742e-02 1.264801902481620804e-02 4.822551320236654337e-01
3.097596156450212884e-02 8.262057219108031800e-03 4.447621688335904322e-01
-5.123168843045393904e-03 2.152990417157462158e-02 4.426270647885649501e-01
6.740814829657867935e-02 6.028984611034696878e-02 4.564222376905708312e-01
-1.649605739825373354e-02 3.496186797511147137e-02 4.473102643143137547e-01
-2.052038143086491392e-03 2.603486394655058975e-02 4.432508320123160761e-01
-2.599664182743921526e-02 4.221866179549126769e-03 4.420555055986049031e-01
7.024944161321333702e-02 5.969990798474373445e-02 4.597119636553576583e-01
4.500624534794010756e-02 3.384048733746184562e-02 4.500629573007486339e-01
-5.145539817497069360e-03 4.836926942373509161e-03 4.399125271218789490e-01
7.574612708467423627e-02 2.207676456016691158e-02 4.624737411472513715e-01
3.774156509351726807e-02 5.996274987340323437e-02 4.497741045970251039e-01
7.056751496781801455e-03 5.162333222569117502e-04 4.393157233180268184e-01
6.976496101449156106e-02 -5.163319418085022747e-03 4.912548722994322103e-01
1.135138128842851785e-02 2.933454179985691204e-02 4.439597393388033386e-01
7.449738242835790558e-02 4.350859290661542901e-03 4.718303076114405692e-01
7.217101547596010969e-02 3.048482963373902802e-02 4.585871039552538164e-01
6.105016675089255246e-02 3.391422691704897019e-02 4.538878780757173437e-01
2.633679773302793903e-02 2.495116295467009540e-02 4.457943066466991122e-01
-4.708121616587919445e-02 -2.105146830150519521e-03 4.457458615677730718e-01
2.215905330969260983e-02 1.979566838814544177e-02 4.446681341179262170e-01
6.925876004342439163e-02 1.056700101707793230e-02 4.617236574289920181e-01
4.444129702718437047e-02 9.248329889754486680e-03 4.488209264280777488e-01
9.775980573984206778e-02 2.755038461678001316e-02 4.773539753432028965e-01
2.750100971801606314e-02 2.636447094700013205e-02 4.461277480548092589e-01
7.757755267960740608e-02 1.254028184703728441e-02 4.677855370190146522e-01
7.880307283011896147e-02 8.037507341448268255e-03 4.943612152594925035e-01
-3.740177338952100673e-03 2.781210083195799834e-02 4.436681111485255014e-01
2.201888487052564014e-02 4.390460804569681387e-04 4.409956929700349360e-01
-1.785370685771986779e-02 1.025162226603459729e-02 4.424420193256768941e-01
5.144827709868084187e-02 6.059002391188228476e-02 4.558824624314404272e-01
-1.269512063075368957e-02 4.268739624046441472e-02 4.473775527453043299e-01
5.821830763141212089e-02 5.375302284483101517e-02 4.504209492456454633e-01
2.527086240786959037e-02 4.652661686070858754e-02 4.470797635478391263e-01
1.103399391227606000e-03 2.303276039949180357e-02 4.426072366400529146e-01
1.895906560161885607e-02 8.398145078206561975e-03 4.425759639006305868e-01
6.686310641231293928e-02 1.569282397299411741e-02 4.591766811271663640e-01
8.148878287176510027e-02 1.023072977980192533e-02 4.764215448443458456e-01
1.181965250905110849e-02 2.746970878654439105e-02 4.437948717197354176e-01
7.818108250562011419e-02 1.706212846008161796e-02 5.100322089837767692e-01
7.515199812239332922e-02 2.733350566004461024e-02 5.198222845628178712e-01
9.023769883137343351e-02 3.133277282885157944e-02 4.932863797418418073e-01
7.591165696367951909e-02 3.492893610050203882e-03 4.812344699586358909e-01
7.217395762946129945e-02 5.968964880794986640e-04 4.728573287668689784e-01
-3.768500764333273904e-03 6.598678429718867443e-03 4.402151806681062762e-01
6.958388108223753643e-02 5.884122582759317849e-02 4.542815217310712250e-01
8.699761766931007889e-02 5.079322503251409993e-02 4.929084443406820393e-01
7.937395799464189161e-02 4.049719465881253255e-02 4.598393649689603846e-01
7.957219943794657802e-02 3.744555777369352328e-02 5.099236167957470478e-01
8.768550176252819239e-02 1.989358154838143794e-02 4.877114661757009362e-01
6.050186431022903932e-02 -1.043381176208947082e-03 4.581320371832264260e-01
4.612829156413538606e-02 2.700576182744395329e-02 4.506615611422228884e-01
2.329174201588812138e-02 4.560492523540296550e-02 4.468751685112756222e-01
5.355948721169764837e-02 1.701759317847520089e-02 4.529883385726828915e-01
3.484267958314738595e-02 6.484623387730188704e-02 4.545282799293843268e-01
6.851614653298288005e-02 5.630728601577351944e-02 4.530954983169779848e-01
-4.417531819026550288e-03 -2.032607146188053493e-04 4.385555333225075181e-01
1.525470796679044561e-02 4.885622341528538665e-02 4.465243855429489317e-01
7.842752474427489018e-02 3.436914310742703038e-02 4.616616707579407342e-01
1.017531815683491020e-01 3.881627200884280038e-02 4.671704372357988189e-01
-3.800026277922063152e-03 4.806700660967497263e-02 4.464101799477389054e-01
7.107841840329113745e-03 4.475372431783689042e-02 4.455368686484986185e-01
2.428599362938469938e-02 -1.658402790066000046e-03 4.409094364785982600e-01
2.911233812074382962e-02 5.356974475326754803e-02 4.481438967309460120e-01
-1.842958461922753963e-03 4.030468225738149946e-02 4.451233448815212768e-01
4.892631667634284379e-03 2.207366708358882157e-02 4.426919260431053660e-01
8.316197328810000233e-02 3.383284478018638852e-02 5.071678374809681644e-01
-7.228916104113978017e-03 8.914897536541791651e-03 4.403155020369753370e-01
9.490673103047368719e-02 4.628749189138603448e-02 4.665596595892923526e-01
-3.571351315362799195e-03 3.512132004401208318e-02 4.447151136991228659e-01
4.962886643964607887e-03 2.892777636408411929e-02 4.434776955345849925e-01
1.588807694345853797e-02 4.277736690986640167e-02 4.459482754606834964e-01
6.078640943660442580e-02 5.893519911368080844e-02 4.557246808216177114e-01
7.285850799534639155e-02 4.213616877626215340e-02 4.559436351484121297e-01
3.644568850763113543e-02 3.479614593399671385e-02 4.483789129809669372e-01
-6.521525592900314153e-03 1.383140441778006602e-02 4.412193970526956388e-01
6.135638966502839770e-02 -9.051462550785530168e-04 4.591313197900631082e-01
6.334084296273376213e-02 8.366052456319928582e-03 4.583326115789165822e-01
4.522166651037243246e-02 2.391310136923618934e-02 4.502127804705487457e-01
4.389249169273751888e-02 3.772259214313839273e-03 4.483663033898528383e-01
-2.220359228441544375e-02 2.255598020000896403e-02 4.472189763564429765e-01
1.013015976620495889e-01 3.713762239889498162e-02 4.670090482407944776e-01
-2.095789949997359930e-02 1.354260690314375293e-02 4.448463124577540229e-01
7.584018367479822276e-02 9.862274985770034044e-03 4.681211717588969479e-01
2.956331249727627009e-03 4.843273620277373237e-02 4.460833323475554835e-01
2.813161320694495052e-02 6.181151773575575825e-02 4.523076967503275592e-01
7.070827682633330780e-02 3.536031581765384374e-02 5.182405167349009023e-01
6.556511496894451563e-02 3.214708270750377128e-02 4.556847063363858585e-01
6.890204997910509555e-02 5.690605420138369203e-02 4.532406646323892674e-01
6.714280329392463553e-02 4.374081141105933511e-03 5.108183457515205195e-01
9.492951421587271510e-02 2.925693375351069714e-02 4.836248309699581749e-01
9.237874116221253540e-02 3.207353617817946395e-02 4.898773743080300780e-01
5.373144868452993383e-02 2.417864645208145716e-02 4.529121141243199200e-01
7.542816670404868529e-02 4.005843821502542458e-03 4.933889761930814188e-01
7.087219762212007557e-02 2.393465888843580164e-02 4.591140899382187279e-01
8.606962316433619531e-02 1.606804550630584749e-02 4.765947631172597343e-01
5.753006131654658101e-02 4.496293628299025819e-02 4.509030179737868460e-01
8.731256463182865066e-03 2.804571323740306758e-03 4.400399382881256538e-01
5.351682631762411102e-02 4.430259836103847548e-02 4.505357863967406895e-01
6.687343869749470815e-02 1.856462625093760477e-02 4.585533056215004843e-01
-4.068721626460480162e-02 2.767769745191365864e-03 4.431907375250877523e-01
5.008237809727236062e-02 -5.711858928733391620e-03 5.269889853543224811e-01
8.183514960343561684e-02 1.765155026034817554e-02 5.030628209128341632e-01
9.383466063440810967e-02 4.946646975326004364e-02 4.815265336394801143e-01
6.626207389351779220e-02 2.081025251922085512e-02 4.577270224252016906e-01
2.614581467842183593e-02 1.962684829655037509e-03 4.422942000913642757e-01
6.632990792155632476e-02 6.035431632860901313e-02 4.573655007204012746e-01
-6.013302385967036860e-03 2.099026953793231391e-03 4.391676578776992357e-01
9.248165561770205906e-03 -7.402050244086858660e-04 4.391129418303583165e-01
3.345429885495891653e-02 4.494344103555999656e-03 4.444686680120429334e-01
6.548333254765646705e-02 5.675937844008014516e-02 4.525900320288107626e-01
7.265157320027346155e-02 2.533355974000991995e-02 5.222607432083103962e-01
8.109638898764305603e-02 4.517908241640859052e-02 4.569603100350640434e-01
4.219140904525078839e-02 2.513974483179286928e-02 4.494520835425800942e-01
5.700351716852669615e-02 2.728757734050269237e-02 4.539186686987539132e-01
8.674040930278754946e-02 6.012314788470757981e-02 4.702243965378390955e-01
-1.100906306113267133e-02 5.113185532454486010e-02 4.507020886017134020e-01
8.236216695056153281e-02 5.333201484800408759e-02 4.919787032702533924e-01
6.361283589930309679e-02 1.763975937607563729e-02 4.570195541321316890e-01
6.210706132583215106e-02 1.950921035667121245e-02 4.561494244183755264e-01
8.485371922448525783e-02 2.152663341876592112e-02 4.979790596931105706e-01
3.923506883587199456e-02 2.799685181195262981e-02 4.488706074522091360e-01
7.697503086672591310e-02 3.759091257353357196e-02 4.606165530327670510e-01
1.894891271503205965e-02 5.545804909457330290e-02 4.487614540987984735e-01
4.294698876976762308e-02 5.068153740786732891e-02 4.491130961512329045e-01
8.583077341122899440e-02 4.994111070607753361e-02 4.941623604733047515e-01
2.094322935674219552e-02 4.120241092490200402e-02 4.465400074188514146e-01
8.664186876336686660e-02 3.365061184279243695e-02 5.007299083207061852e-01
9.928758763753146865e-02 4.220177232805759349e-02 4.802572884075981263e-01
-1.537750136155624156e-03 2.640715144630885816e-02 4.432964868769903588e-01
9.828200391485611420e-02 3.603107644466412712e-02 4.825681085628061862e-01
3.726300709943024952e-02 2.869724890098449346e-02 4.484248537433322412e-01
-3.413032098484033300e-02 2.692219446768368864e-03 4.431216728525383952e-01
7.810060281922822506e-03 4.889736435738243486e-02 4.462418302040331297e-01
1.288016030108814561e-02 1.686077825688962056e-02 4.430137444808951441e-01
1.009113974056733559e-01 3.760948988729286013e-02 4.664992644553300760e-01
2.147172324016770675e-02 2.531756765210197227e-02 4.448914325193536468e-01
8.166061006702987624e-02 2.516352465456434678e-02 5.096365223912455722e-01
-1.593236857220696120e-02 2.812226873080895390e-02 4.455737720372389132e-01
7.675411569170244308e-02 1.095738736049794992e-02 4.682666936976566663e-01
7.978260349562521503e-02 3.536737938039401924e-02 4.622977644617176640e-01
8.942281234403649803e-02 4.797526377757515420e-02 4.909534482092519636e-01
6.931080459997884802e-02 3.678372498417990105e-02 5.153549025993382493e-01
4.744018243062831167e-03 2.759498008643453126e-02 4.432640677478824065e-01
6.561526343819566731e-02 1.071924760201986918e-02 5.207521282503707605e-01
8.928568150139816473e-02 5.119749535275632674e-02 4.890717552977677518e-01
6.258036493573743142e-02 3.868708989768569056e-02 4.531650983420927870e-01
5.562722850646768802e-02 -7.938783406610845292e-03 5.230891866183251526e-01
8.000359246856605933e-02 4.920121323422028958e-02 4.554079704425670339e-01
7.487874215596319882e-02 4.514115946573589444e-02 4.546796572498065236e-01
8.678991100471161735e-02 5.776238464049297805e-02 4.632260850762106585e-01
-7.900975428256670763e-03 2.255479972793442145e-02 4.430372090995201018e-01
9.148845636971390805e-02 4.491217325461403787e-02 4.616238734495872742e-01
8.793841062603786896e-02 2.303547957914556243e-02 4.911543917955719096e-01
-1.295380338679146849e-02 3.108926114654981046e-02 4.454444901386515610e-01
4.795566496306704479e-02 3.079425880123978776e-02 4.510121006867989224e-01
2.648466645827105351e-02 3.309925898795530036e-02 4.466450273349487632e-01
7.078715172838787040e-02 -5.294832629956666877e-03 4.854822288421997145e-01
9.407090228983584768e-02 5.010818839217899556e-02 4.782368683552697952e-01
6.973157394012598209e-02 2.418753425444818139e-02 4.583824428928959804e-01
8.111174580392478684e-02 4.358601771995650881e-02 5.032920173468328207e-01
8.677537807557482441e-02 4.902466740688079389e-02 4.584387827425845385e-01
3.983415524558103771e-02 4.125993048857820589e-02 4.489953351011731209e-01
8.944725790601704141e-02 5.456334588448068929e-02 4.788522584619253619e-01
3.143206673154737285e-02 5.881374786221461870e-02 4.492491424209174578e-01
6.766497035183931252e-02 3.391206773580039691e-02 4.561793785322095784e-01
4.084446938627570023e-02 7.358008111285780153e-03 4.472281188468641422e-01
4.898222343857322469e-02 2.960973025034999498e-02 4.513710731498104534e-01
4.823943128254529894e-02 3.010307665390131449e-02 4.511554070589900989e-01
7.338239489012218786e-02 1.316714269581805395e-02 5.123716097047558149e-01
9.218576316297120987e-02 2.399919148838212252e-02 4.778471792664241713e-01
3.780567663957164204e-02 6.406848099904206839e-02 4.542409961411766339e-01
4.270816022192811673e-02 4.809524218670453016e-02 4.491627220825000211e-01
7.775220044625288929e-02 2.521234803092037985e-02 4.624975519883354758e-01
6.834921025784755633e-02 2.727341177866043562e-02 4.574215758462821246e-01
-2.416664861356804684e-03 5.105787722855348147e-04 4.388015645504024231e-01
6.170833863260621194e-02 5.447204608941835086e-02 4.513187663663608129e-01
5.956596003708834047e-02 -5.477183703092315323e-03 4.596091505465391136e-01
7.819691200762649008e-02 6.342649684146920222e-03 4.797020896177637272e-01
9.334267861948208900e-02 2.948725088481084222e-02 4.674945046286451689e-01
8.604787743611597151e-02 5.008417232060674573e-02 4.939426920047738090e-01
8.932384894773873207e-02 5.420735335005563704e-02 4.635795711138488984e-01
1.034224880813035263e-01 3.849270752253276112e-02 4.762741971243612538e-01
9.930419637804341337e-02 4.257246256830130721e-02 4.796115087950201250e-01
6.917138942743773777e-02 4.481838148826836066e-02 4.531175735835611396e-01
7.327352443708674834e-02 3.022847439082807820e-04 4.907863059753985735e-01
2.958331922442720280e-02 5.932990861226779267e-02 4.495660428363863481e-01
7.258579083013158573e-02 6.700236705458267363e-03 4.667936158785323530e-01
9.928160237882877048e-02 4.098582333567808711e-02 4.667973476629553864e-01
5.115832344040875668e-02 -9.174119243039100674e-03 5.274188297781811086e-01
5.630387378327268016e-02 1.338454626166616333e-02 4.542264084121290235e-01
1.533869363619952061e-02 4.193494678417104826e-02 4.458059022919730330e-01
6.100017344437889955e-02 1.995549045489091594e-02 4.556503331986073158e-01
1.009360035006197087e-01 3.671105332741543548e-02 4.800305901954065035e-01
7.904954052538648579e-02 3.211132199164953849e-02 4.617677588711290859e-01
6.765389002655969319e-02 2.209510486894146822e-02 5.261936246573002407e-01
9.155565676684085386e-02 5.438132199107372639e-02 4.734564172919550895e-01
-4.592368038459333258e-03 4.827882407039794932e-02 4.465515981453918593e-01
4.246460613222436536e-02 3.256914331074531148e-03 4.477134261164310569e-01
6.286211884129841443e-02 -7.129331252438784322e-04 4.607287989639290426e-01
8.901376717490463997e-02 4.578515661062144276e-02 4.925496951418911751e-01
9.164883915999919028e-02 2.918833401774204028e-02 4.895879046250112276e-01
-1.180302635675162769e-02 1.872189687405174593e-02 4.428216798699117773e-01
7.938678838645495117e-02 2.788137993508581214e-02 5.134709833736621487e-01
7.662165048458274841e-02 3.305614597888056200e-02 5.159159912661313019e-01
9.243231411409841281e-03 2.727406424445911678e-02 4.435695974985417456e-01
1.540429260820630128e-02 9.279841862469669078e-03 4.423272097722235618e-01
-2.112903323270323708e-02 1.756651456686380251e-03 4.401353418757463221e-01
8.047084312889897506e-02 5.723804034642149263e-02 4.825430053257151464e-01
9.233257247404090540e-02 2.409304165614382237e-02 4.762422228407103275e-01
6.344445304794035789e-02 5.342514699307464310e-02 4.514400674369553612e-01
-2.096463159765787551e-02 2.860771790625969702e-02 4.477568000215862987e-01
5.856508991238932801e-03 2.057123929327684189e-02 4.425967674600690405e-01
5.980404062006785398e-02 2.942239522790520909e-02 4.545228083264120089e-01
8.001430217225442842e-02 2.040742905219237319e-02 5.098821812427960509e-01
5.028115131279172617e-02 1.122277388476262613e-02 4.516207512992699846e-01
2.529053118994691561e-03 1.546792773794159609e-02 4.417173394902482730e-01
7.624280436318378595e-02 2.891777356958417228e-02 4.602818499982229694e-01
3.935224352181770913e-02 4.632750669275373552e-03 4.465694270868141857e-01
2.544627222363327404e-02 4.203553839753127602e-02 4.470898349478095168e-01
2.641421805903652192e-02 5.838033042909663434e-02 4.492300793521326052e-01
7.056564024503066135e-02 3.224781885470466569e-02 4.580065065878505259e-01
8.225311243151170459e-02 4.889682602303605657e-02 4.972453044309908532e-01
9.988122169737635725e-02 4.285433033747571008e-02 4.758918317159837597e-01
8.182725180566481626e-02 2.853247652171894688e-02 5.097111511804859330e-01
6.959459395442417484e-02 3.567473305299007080e-02 4.569019748687824789e-01
7.955020655639928606e-02 4.033587461955028680e-02 4.599726414599590862e-01
1.021664664123297234e-02 5.562977194347009519e-02 4.497425382172680619e-01
8.547106851567863595e-02 5.497578145090554341e-02 4.850905642127907313e-01
6.371224734332696371e-02 1.217695717746755842e-02 5.241540133857578443e-01
5.190971706061005969e-02 -6.221106822866985173e-03 5.257753674424491264e-01
7.584153617481170784e-02 2.190172153260470239e-02 5.169948776728903184e-01
6.231869084628260946e-02 5.283832419387372728e-04 5.146025187834153414e-01
1.653160424006937246e-02 4.042422785306296062e-03 4.410898000479386294e-01
9.808406290377474218e-04 3.162509775173728832e-02 4.439803956521402029e-01
2.016978114479976020e-02 4.046770834082252799e-02 4.463748934560059500e-01
-1.129077071735719480e-02 1.637261266773210391e-02 4.421888253942766189e-01
5.531070896011290594e-02 -9.115960959092206037e-03 4.573473746738036527e-01
7.478135919842363033e-02 4.294633683762674910e-03 4.724134392872432753e-01
6.665680217356981241e-02 2.889262319820031649e-02 4.565586106884007567e-01
4.786283696955236089e-02 5.456773069762366896e-02 4.494421118960210126e-01
4.992480815116723952e-02 6.061048460455396164e-02 4.545200411047111699e-01
6.676668850612514639e-03 4.203599262828708327e-02 4.452121785183302816e-01
9.864733866496571205e-03 5.722298012266466283e-02 4.533301739728504143e-01
2.696674710357990778e-02 1.874473458640604773e-02 4.453143785685177436e-01
1.015051069268109313e-01 3.078112618954742183e-02 4.774055815998412555e-01
