5.117927074239076585e-02 -8.905588003267239650e-03 4.540536060526307871e-01
2.638565918648132919e-02 2.065554191463417344e-02 4.453781516387199102e-01
3.840228505458165298e-02 4.949380937643706180e-02 4.483662159416861859e-01
9.283660147059655254e-02 5.113166489174834906e-02 4.659956795778490424e-01
7.431014728425146265e-02 7.163418757584990790e-03 5.024466396773015209e-01
7.980088657747895844e-03 4.723742583990839239e-02 4.458566778981947754e-01
-3.779149512425706431e-02 -5.083478911589002849e-04 4.404285099519669733e-01
5.203443892468611470e-02 -8.065918648741289901e-03 4.544183827313583168e-01
1.141915599569501977e-02 1.185968730626847829e-02 4.421684901511557242e-01
4.223690837890285016e-02 5.830253638070243688e-02 4.493475621961114386e-01
7.296081403037785185e-02 3.976913044820307511e-03 4.985377977499881319e-01
6.899699171378942397e-02 1.485600908464008475e-02 5.195887630369807608e-01
3.167322963143023168e-02 2.162870460737225178e-02 4.465289228866743954e-01
6.896596714428371300e-02 4.676017588128995352e-03 4.634689773498707477e-01
3.145016292700636429e-02 2.717826058093564603e-02 4.468601384015776778e-01
8.559784892839980563e-02 3.915481841536462559e-02 4.617003761465512945e-01
1.075565576087782714e-02 3.904148145929847019e-02 4.449658369740286390e-01
5.225556770321932581e-02 2.874351195407521056e-02 4.521906524731475474e-01
7.340554863819280518e-02 -2.963038115094121169e-05 4.887821403469567727e-01
8.063506245772812664e-02 8.857682920235853199e-03 4.848106915218029500e-01
1.916258603036762390e-02 5.683343555543098058e-02 4.491116440947440225e-01
6.828664358627492548e-02 1.565762415654125758e-02 4.597571155142672339e-01
8.276406520134803324e-02 3.983413566305875342e-02 4.606628276833590885e-01
8.828979032756700818e-02 1.868180938775741706e-02 4.810907466776824792e-01
7.063841675821259936e-02 -5.778273902853601346e-03 4.859043830159223143e-01
7.496554435001198669e-02 1.300373845835308892e-02 5.097621274690729010e-01
-1.742229274986280968e-02 1.888966625581238457e-02 4.445490802480716042e-01
1.598063415243367383e-02 3.214208684291458562e-02 4.447427811583906099e-01
8.985057276843760876e-02 2.251976893341625652e-02 4.714067796339033167e-01
8.165333752022990721e-02 3.144526559137057059e-02 4.626734361605918666e-01
8.476600423218902391e-02 3.143139878739078380e-02 5.039416888095678004e-01
-1.681436737003235218e-02 4.030467612477073996e-02 4.485366601696353928e-01
6.521562879057166140e-02 -1.340206434222505211e-03 5.072510481045422459e-01
7.518044520498094740e-02 3.191904849276799849e-02 4.597848481079812588e-01
3.267347829224262479e-02 2.049222958898383289e-03 4.438297954199522111e-01
4.533714285957789018e-03 2.645469770700177581e-02 4.430476790703967160e-01
7.153407741305300993e-02 4.504212149499306483e-02 4.535181106591341660e-01
8.017181893387778646e-02 3.223712516763492519e-02 5.121587390691185737e-01
-1.211598904947807503e-02 5.322392254540796001e-03 4.401426918454003356e-01
1.478669600761046282e-02 3.760618880053225727e-02 4.453030567167274856e-01
8.161599839012598223e-02 1.306769213289810973e-02 4.721243480866406661e-01
7.514129354544255013e-02 8.932273380899736354e-03 4.678371312677602201e-01
8.608995023715845796e-02 4.635752192392648963e-02 4.958136223281952581e-01
-1.893803607423979671e-02 9.040353593605870292e-03 4.423721524382512871e-01
-2.910447588397859983e-02 4.370367046128131698e-03 4.428264867819465267e-01
4.072494325769334539e-02 2.003791035735968951e-02 4.486229499486286132e-01
4.505171856920570095e-02 6.304238446238949467e-02 4.562483568553602487e-01
8.064918075914342954e-02 9.295455516250109712e-03 4.882489689462737315e-01
8.600770488296642646e-02 4.269537390952458239e-02 4.600479223359112413e-01
2.976178182018530960e-02 5.977226580767507763e-02 4.498678011898621931e-01
8.589244429711531681e-02 5.310810562781929922e-02 4.898464841453631924e-01
-8.928311547197073650e-03 4.603260513444462632e-02 4.469343671008988439e-01
7.238899038820512111e-02 4.178594480833503107e-03 4.999643786058851624e-01
9.760061054676598402e-02 4.033031846723581643e-02 4.823918370031344272e-01
7.086694709796269309e-02 3.548866963104063688e-02 5.178909274329174250e-01
3.315573990056233655e-02 1.431124322765615735e-02 4.460377314879007127e-01
-1.366392551058523766e-02 3.625537704137404057e-03 4.398968544698395600e-01
9.535657696086269342e-02 4.724667757807743396e-02 4.698737127347815679e-01
2.698388265932545951e-02 1.836039677089559147e-03 4.424051229841003408e-01
5.334767360574690226e-02 3.924938317876365546e-02 4.507681726122616528e-01
2.293998496918222760e-02 2.850242111381039861e-02 4.453643359187542394e-01
7.198546410665987438e-02 -1.236579032197118472e-03 4.908921170601411865e-01
8.787585540735104450e-02 2.314700536812943146e-02 4.911344200218397682e-01
6.070525385583887962e-02 6.594555083914531782e-03 5.230300164773937777e-01
7.367122579079139755e-02 1.564950587060503356e-03 4.758592542793343982e-01
8.461400555927463263e-02 5.550382085434733132e-02 4.839696566050649129e-01
6.648263612439600512e-02 8.693749443031339660e-03 5.173250338264255843e-01
1.117224199898913389e-02 3.688422292347065534e-02 4.447452958444242932e-01
8.805227593088311988e-02 5.885395005334244367e-02 4.722269136287159941e-01
6.816095725488861834e-02 1.574256848467638081e-02 4.596743291068818849e-01
3.007378449350078115e-02 6.216816750998144236e-02 4.518396000181588712e-01
9.588104914753667329e-02 4.546955756399443521e-02 4.830595757194260376e-01
6.513098834497986489e-02 -6.227549682770301860e-03 5.050295472921356721e-01
1.050792007459516904e-02 1.938541540439863570e-02 4.428878961023212102e-01
6.376166632513105559e-02 -6.689992025241724150e-03 4.662895505027819243e-01
5.801593955178728501e-02 1.301058870329918453e-02 4.549405690852649231e-01
-7.928053733874007580e-03 2.547320033490444238e-02 4.436390190436786396e-01
6.527961934213834250e-02 4.715950407435468700e-02 4.517186845486592106e-01
6.110119947817001934e-02 4.924043738927144642e-02 4.506948165892397662e-01
9.018391677597301093e-02 2.887401176488484794e-02 4.913519999224771895e-01
9.024619196830481471e-02 5.580668928559933545e-02 4.695434017138082616e-01
9.147330350155999379e-02 4.568817527181130711e-02 4.890528269156849683e-01
-7.748076663194815479e-03 1.364642243896063700e-02 4.412540219003464048e-01
5.270807019871217441e-02 -6.392480178856508460e-03 5.250863482843984853e-01
7.075190910242000475e-02 4.175938611263700813e-03 5.030163091155960275e-01
7.170492506779573005e-02 -4.715215784478672158e-04 4.938464724751501778e-01
8.177740802816937937e-02 2.761593220596608722e-02 5.094726080180438377e-01
8.746100060434799928e-02 4.758313998843406722e-02 4.934468210090666718e-01
8.784673248178062610e-02 2.011937154633650082e-02 4.738797580117161679e-01
9.264794088342089007e-02 4.712401407174580947e-02 4.869864941205230280e-01
8.354154710684709439e-02 3.787678847630389367e-02 5.042773180711193071e-01
5.162263198579262330e-02 -3.945091979132713672e-03 4.529883523980755555e-01
2.382984433605753530e-02 4.510336893081111354e-02 4.468005313888353536e-01
4.409286886312044351e-02 1.145097545682831515e-02 4.488748161251096547e-01
4.062196069123338860e-02 7.427575316571110101e-03 4.470708230219221369e-01
8.719690957575611245e-02 2.333794095032299537e-02 4.689471261610476116e-01
7.096635486400657000e-02 5.141809758076644650e-03 4.658541935750544760e-01
4.248735445446245006e-03 5.088880715669528987e-02 4.471548451479267494e-01
3.585658319776296316e-02 -1.623047243115635987e-03 4.445227714867759361e-01
5.983793497013471796e-02 4.510443955153119189e-02 4.511232349923909868e-01
5.592153742273334865e-02 -1.113075583966950319e-02 4.592445662377892535e-01
1.617784285339094602e-02 5.548225861151384608e-02 4.487404883230581842e-01
8.250345162840530544e-02 2.509208966955251904e-02 5.077782501499492618e-01
7.172750723315479693e-02 -1.498891096450269238e-03 4.760232323880588257e-01
6.915514868353397904e-02 -5.758361914185440925e-03 4.763152813890797477e-01
-3.493594112914675393e-02 3.521896030247340277e-03 4.438806898882888263e-01
7.202910975352298795e-02 1.225153544639043940e-02 5.131076953854478706e-01
9.052305921532698141e-02 2.228376173870108209e-02 4.773634622880084111e-01
-4.583511213366078460e-03 1.237517929714392062e-02 4.407797188382827080e-01
6.556078943984208762e-02 -9.263192243957558752e-04 5.066709738760988291e-01
5.869572623264175670e-02 5.882483941644937875e-02 4.553346427333972435e-01
9.174206883079473462e-02 5.258948466443998798e-02 4.808922906517045792e-01
6.932190223868940626e-02 -6.855885830927562798e-03 4.910285104127652400e-01
-9.226151621752911453e-03 4.205360346527203634e-04 4.386523718066100974e-01
8.015074736764833674e-02 1.238524131991769646e-02 4.985407103601824375e-01
6.564916693362360389e-02 -1.913850751696686159e-03 4.650544083340694135e-01
7.490080554902231458e-02 6.352664598116942313e-03 4.998510282296204088e-01
3.837426339060664993e-02 5.843100969270265121e-05 4.458062848180383564e-01
7.232611148187224892e-02 4.750972373562259432e-02 4.528952056271809967e-01
8.614998203714296920e-02 4.895536825828065292e-02 4.946007648975175863e-01
7.816553425526304166e-02 1.659787263878018115e-02 5.093602333304819707e-01
8.653003572758651007e-02 3.117212979260333694e-02 4.636851063239248449e-01
8.788603444891046612e-02 5.007889271133283277e-02 4.589438617811295029e-01
4.175014170762185450e-02 3.141897817026673145e-02 4.492734412253671095e-01
6.490316670765093610e-02 5.782780927458363966e-03 5.163419697563436106e-01
2.468592870468536149e-02 4.644352164833583790e-02 4.468979234659463673e-01
3.164114126581500652e-02 6.215115066834914215e-02 4.514132629376625405e-01
-1.621047535524382591e-02 1.957447447703682120e-02 4.442160943544227747e-01
1.022283465300368871e-01 4.094075659084842056e-02 4.753372870210224588e-01
5.968807343536853931e-03 4.772961123727392091e-02 4.459186623931000737e-01
8.084657240353655683e-02 3.649939927276450724e-02 5.093734045869139360e-01
6.775839219444972084e-02 6.009980285109852577e-02 4.585060336303895534e-01
7.864617046839487979e-02 3.210848169049947132e-02 4.613294321236773299e-01
7.989593225711418001e-02 4.849768191538845336e-02 4.990780986334353853e-01
-1.970906989710681165e-02 2.473509232152223611e-02 4.463114251882162598e-01
6.639773486452631157e-02 3.231044303942170320e-02 4.556623002686463475e-01
3.454453067300317093e-02 9.237818794847415388e-03 4.455989347440369452e-01
9.117900242309399939e-02 3.147217798778779302e-02 4.912711005370784534e-01
7.889389965430883278e-02 2.669608719030786351e-02 5.140409778263055340e-01
7.355855330530786454e-04 3.383730997853275080e-02 4.441935996415132260e-01
5.558694150690385305e-02 1.899480641111451693e-02 4.534558479047913759e-01
7.751127166844264116e-02 3.758246412590583729e-02 4.606523828570893708e-01
7.208620470496408805e-02 -8.642160487806061896e-04 4.915319411468672683e-01
3.609978275330920361e-02 1.852916388904205305e-02 4.472675297175444098e-01
1.693360093004758760e-02 4.032960001468726546e-02 4.458084045533388662e-01
-1.777161667443019621e-02 4.091108064496933039e-02 4.491631978322387919e-01
8.965182053084695679e-02 3.447409175182189478e-02 4.948639519953214605e-01
2.560191290335616862e-02 3.740760787261925707e-02 4.468057463854785416e-01
7.090378468333162487e-02 2.801376243427995162e-03 5.006270219239313812e-01
1.005769408486185401e-01 3.156318403876114120e-02 4.694814365027481506e-01
-1.610273022294726047e-02 2.378305770381195297e-02 4.449315759699755679e-01
7.794249986602654057e-02 1.295313595582787795e-02 4.676339500773813995e-01
7.255411865456247444e-02 3.275653369926592728e-02 5.206537587520444488e-01
7.562445211297201542e-02 2.783175328866156414e-02 5.190191278991116430e-01
-3.861703907103138794e-02 3.743800053595064837e-03 4.468857585628183138e-01
7.468103369086384613e-02 1.687889671752780887e-02 5.144908374538147422e-01
-1.575058280039233483e-02 1.082030912534360893e-03 4.394741482350306150e-01
4.689720208692028242e-02 5.928974676502148100e-02 4.507249751699138329e-01
-5.833508942436251704e-03 8.500554266652892918e-03 4.402953741258633369e-01
4.832921711000583848e-02 4.530179803349077688e-02 4.497308111397394503e-01
7.694456353783613034e-02 1.166429376413597938e-02 4.676783183743314365e-01
6.266186450305703814e-02 5.517269258528705034e-02 4.514361303349772037e-01
-2.345439641574828191e-02 7.996178179884965917e-03 4.431747240236210694e-01
-1.900736840268650932e-02 1.157425646177122347e-04 4.395505912495646372e-01
7.464864947303415099e-02 2.830675197560322820e-02 4.593732731066574315e-01
1.020555238576362628e-01 3.924064274251323758e-02 4.774310903944604667e-01
3.281475070314571196e-02 6.133376964666959613e-02 4.506433123840857813e-01
3.469289750877184442e-02 4.077608441465760576e-04 4.444396717025667631e-01
2.722398665721701555e-02 3.705798407231773034e-02 4.470369487932944752e-01
8.801143489257866326e-02 1.860875484563831103e-02 4.835348268705541019e-01
6.150806416394426906e-02 2.369132801756918677e-02 4.554527332473505274e-01
4.579909455221499448e-02 5.648284297415048089e-02 4.492551909639181384e-01
9.567160888897258131e-02 2.871711697674676766e-02 4.815158760790447245e-01
3.877086978030998277e-02 8.306164638238420009e-03 4.465286901465478353e-01
7.011446494020127929e-02 6.309050346483555463e-03 5.079828139473248072e-01
8.918885168301456112e-02 2.390786809112719138e-02 4.889187805514635388e-01
-3.654017710039366568e-02 2.589945184105200016e-03 4.428308721990826258e-01
6.170187599932989986e-02 7.842206300481336864e-03 5.228687087696187730e-01
9.104415733022182267e-02 5.379034575596289280e-02 4.792037149632605297e-01
6.620097506345976046e-02 3.646307844683264326e-02 5.169195607064146492e-01
6.946961702930477475e-04 2.029235614605490526e-03 4.393194077732987535e-01
6.326984618377313671e-05 1.008351478789552662e-02 4.407376804748648902e-01
8.482346378906867324e-02 2.668425316636818811e-02 5.028379754810230473e-01
8.903943518507208277e-02 4.085265814631221237e-02 4.938446427992783661e-01
5.527440037214935431e-02 4.737033946622502129e-02 4.502683448575455771e-01
9.460445896145207312e-02 2.499181911876728265e-02 4.729707300583885221e-01
-5.291199088352099844e-03 1.141362449375412334e-02 4.406224656789867189e-01
6.350757580788989054e-02 -5.992496851446934593e-03 5.088556844815079749e-01
-2.496393954947743240e-03 3.613671553158504662e-02 4.446375612242149389e-01
1.015490353604118004e-02 5.733830313325812000e-02 4.532549643805023898e-01
9.222456325776835773e-02 4.557874626064368356e-02 4.882039916636158883e-01
9.129831954345207778e-02 4.965533169594155138e-02 4.870116187554697773e-01
-1.092124361423262718e-02 8.238773978212658028e-03 4.405699685537477484e-01
9.740749041203256020e-02 4.078243883295334243e-02 4.824581982302167948e-01
7.063993235925805636e-02 1.748090687457616935e-02 5.198718393504665469e-01
3.016463391813772876e-02 2.517115796027601798e-02 4.464660398097021199e-01
8.413382088299327377e-02 1.535033196197098382e-02 4.730426887440190575e-01
6.959966242951334814e-02 3.107225813151602567e-02 4.572572878887307124e-01
6.604805682601405659e-02 7.586330792809349924e-03 5.166276019930522434e-01
5.144663325727821118e-02 1.542487005343434053e-02 4.519549372989327130e-01
7.381913482865364029e-02 1.857174365054391207e-02 5.172455375510528475e-01
4.234013038963457473e-03 4.141865516971030003e-02 4.450040007517468421e-01
-2.042499273836671445e-02 2.162640477110963633e-02 4.463587406689366044e-01
5.707576180134527749e-03 2.958649298687376916e-02 4.435021021030621791e-01
3.586158121732883897e-02 1.635429711994737176e-02 4.469715788169016379e-01
2.144721389444137483e-02 2.198676308922647635e-02 4.446427771072016810e-01
7.327035483700698737e-02 -6.450784075474093326e-04 4.829527283138792537e-01
8.967433937158429680e-02 2.154362073490259308e-02 4.766336855774673253e-01
4.153760976442338881e-02 5.532353767802968697e-02 4.488865114276219259e-01
8.288008855400776087e-02 1.845587194537031198e-02 5.005635214274229972e-01
6.965840738781139962e-02 2.075816665359124166e-02 4.593452120908543268e-01
8.320930398093054348e-02 5.113529181293669651e-02 4.939696657870918939e-01
7.850133972549862282e-03 3.811919241397932617e-02 4.447217712717163041e-01
7.637795212519084276e-02 4.017893446025443127e-02 5.085145583388872570e-01
8.235072620939369592e-02 2.252106187655221470e-02 5.066818192061302017e-01
5.906414360720077528e-03 4.879788664707786910e-02 4.461098933396595023e-01
3.265912923264684131e-02 4.261647662300357964e-02 4.478412685195689025e-01
8.063635398434497448e-02 1.485377586263754608e-02 5.023585906872649609e-01
9.050015462686461509e-02 2.918823393878383632e-02 4.909468937695008472e-01
4.544753762450606804e-02 -4.913442465407178578e-03 4.491285351754153443e-01
-7.470516686930262634e-03 2.507622581419014646e-02 4.434921277584020216e-01
-4.324129747020441505e-03 4.188457504129326076e-02 4.454271088757657537e-01
7.528917663700331053e-02 5.933780285509602376e-02 4.608333800234151179e-01
-1.738684094615090478e-02 2.589393657420186595e-02 4.456427581035537488e-01
4.390695357978745966e-02 1.409678014416534259e-02 4.491485260762612675e-01
1.004151000809155453e-01 4.147308191156100915e-02 4.701487664811225820e-01
4.811843318173190595e-03 8.258018376400283120e-03 4.408906707665422586e-01
4.934829159271942461e-02 4.722343035293211089e-02 4.497029104964658242e-01
-1.414614985993425944e-02 -1.392875061565160971e-04 4.388404352791033802e-01
2.231704572676044065e-02 5.649370162598268963e-02 4.487022305513725384e-01
7.409808535813784680e-02 7.990036538638087965e-03 5.040338888754822833e-01
7.376148859711073591e-02 5.007780542184169827e-03 4.697079057052537809e-01
1.026603058806662000e-01 3.612532045545471110e-02 4.680612880204324533e-01
7.742121422698984567e-02 6.395201021805888356e-03 4.736872513487459524e-01
1.338602331534068275e-02 5.599309191020962473e-02 4.497277681549644579e-01
2.603581757046048370e-02 5.117971437482297936e-02 4.475513554768064672e-01
9.412762913613491322e-02 3.878863229436452231e-02 4.633939182846271709e-01
5.788194548749377860e-02 1.251206521894555543e-02 4.548806178728279082e-01
5.651208321058800305e-02 5.767542507688079578e-02 4.515804057010098238e-01
7.402686317331667876e-02 2.076270415864043140e-03 4.926235723385132270e-01
5.716779306440596120e-02 -1.035143856000281942e-02 4.602258596520327205e-01
-2.434983742866830142e-02 2.594886910248674853e-03 4.409161341963658831e-01
8.591922730517763396e-02 5.727527304559450888e-02 4.621191123163763681e-01
5.368463483824623822e-02 3.508289953539783096e-02 4.516817678205710118e-01
4.818659899361799753e-02 6.085581628778020946e-02 4.530626825358108900e-01
2.314756586775393657e-02 4.563863831483647160e-03 4.422810420950907817e-01
6.305641700489184043e-02 5.886190724407952546e-02 4.553124920918686924e-01
7.128465731223800061e-02 -3.472621480181201613e-03 4.814781671733440183e-01
1.206480895465038630e-02 2.253962657355283380e-02 4.433115828573996331e-01
1.003455411144247855e-01 4.264596233855354190e-02 4.747859894963519234e-01
8.216606467502314548e-02 1.717339244174178117e-02 5.010533270392141247e-01
3.705124039990781437e-02 -3.898027456205796319e-03 4.447137023781931320e-01
7.510715034004315782e-02 2.487912198193380567e-02 4.609168946190117522e-01
6.723008897648653781e-02 1.678568009655357837e-02 5.233641195731424389e-01
5.300608644980380618e-02 -4.605512066164031693e-03 4.539964222475047495e-01
4.674438979040102665e-02 6.592009957682073637e-03 4.495748347701025160e-01
9.510337214896863456e-02 3.071084056190843264e-02 4.671134304132695259e-01
8.743776699443246703e-02 2.631053732067654971e-02 4.948457458847044799e-01
-5.862289283359242882e-03 3.745893609330191998e-02 4.450988865669160965e-01
9.621481294378497751e-02 3.454493108409591173e-02 4.839164534647760751e-01
5.510385377792727940e-02 -4.404793495075041455e-03 4.553230982422104556e-01
1.044410177636182074e-01 3.831079273257868151e-02 4.719155476528623661e-01
-3.108436470173888896e-02 4.762998900849566009e-04 4.414885367881870581e-01
5.145530642214553307e-02 5.574288399881205391e-02 4.497040397852363203e-01
9.018154161214871067e-02 2.332181155238716164e-02 4.857337815374183632e-01
8.683281499798566061e-02 1.677753035378887550e-02 4.785607805379939461e-01
5.907490017860964754e-02 5.775503841129670662e-02 4.528667091538018941e-01
6.471273848789590999e-02 1.743025616246855064e-02 4.574798569087614175e-01
-7.153965675233065619e-03 2.848820211139157718e-02 4.442037458918735027e-01
6.654678609838243081e-03 1.620943053526725450e-02 4.420952205558950632e-01
6.806168487349495422e-02 -6.696355512092499671e-03 4.968699992146971001e-01
8.371685309723884971e-02 4.385220953634619973e-02 4.586224632585769734e-01
1.381812893681841348e-02 5.575416517158533064e-02 4.490461342801267408e-01
3.716883959665091830e-02 5.966879039157996917e-02 4.493995020801074824e-01
6.380907891996581704e-02 1.429967016584211305e-02 5.253727644773623640e-01
4.045339263884786818e-02 4.606774437574580328e-02 4.487450297042254732e-01
6.435920981906322058e-02 -4.386509485859876878e-03 4.652750833093719507e-01
9.522235708405938498e-03 5.660379942473271059e-02 4.524287684452907299e-01
9.694765725710505211e-02 2.809911946413122183e-02 4.705451536774586940e-01
7.135000332504880249e-02 -3.308800372015728748e-03 4.811048510017941204e-01
9.922065679612172839e-02 3.717059613148185337e-02 4.816586678832520119e-01
7.073358824564629499e-02 -2.918797690781214232e-03 4.907716812096236669e-01
2.508700203420065333e-02 -4.362076509135704404e-03 4.405626393887670522e-01
-3.964982124773103189e-02 -9.318286560814161880e-04 4.405377082501134578e-01
6.146827452904039812e-02 8.272427774690791283e-03 5.234258548495827057e-01
7.836932506755039940e-02 5.423284949078516909e-02 4.551614859813348235e-01
6.317947244986533983e-02 -6.139962441957293356e-03 5.094214430155442619e-01
3.657149043277946321e-02 2.965144783864231623e-02 4.481893650601936341e-01
9.671540210041584817e-02 3.326318599166856044e-02 4.657499553675538695e-01
7.986239979477846584e-02 9.794521836284614952e-03 4.947050010533270981e-01
3.309150000283173770e-02 5.172080805377547025e-02 4.480527251078115780e-01
9.263649892677877640e-02 2.499249029100118757e-02 4.831879309133603750e-01
5.517766680401162138e-02 1.534905324380025915e-02 4.536054806916326454e-01
3.934809191777052795e-02 6.074893742395730961e-02 4.503006535204088223e-01
8.029963450845775674e-02 1.316381919857512184e-02 4.702097930137142945e-01
3.516285618890020725e-02 4.579378201134318843e-02 4.480500502086413595e-01
8.563402144304463337e-02 4.645812513986277009e-02 4.963390805366628689e-01
4.990320530310421443e-02 -7.390983952558567022e-03 4.525730953635444531e-01
5.044468738840064692e-02 2.391753970138512861e-02 4.516693580842718325e-01
6.970119677351299670e-02 -2.763010268661679480e-03 4.723058815406654398e-01
9.533396293173285185e-02 2.930002452120834475e-02 4.824089759298412772e-01
6.405560841083234036e-02 -2.473923560180151665e-03 4.632912155370672025e-01
5.219417178730907658e-02 4.743008689652290777e-02 4.499654664015916850e-01
6.836572843880860118e-02 -7.922993215453297267e-03 4.948672506298907314e-01
-9.721207129369458660e-03 1.142791112835168932e-02 4.409883102865888027e-01
9.374845710235067686e-02 5.067692477117121536e-02 4.780327348205566373e-01
4.809321706189833429e-02 -6.519991529384408860e-03 4.511195900582261054e-01
9.801569756747001427e-02 2.809356991934884931e-02 4.779542773774585473e-01
2.158204407919369662e-03 4.720265250659502754e-02 4.457737194409262527e-01
1.019303304956168110e-01 3.115615575352182962e-02 4.728630164537895308e-01
7.333140581466010555e-02 3.547043770592719220e-02 5.167080924243410145e-01
4.602410641496804122e-02 1.918197731238688655e-02 4.501407887135607244e-01
6.237539549291990643e-02 -3.229892774255154614e-03 4.616224346911704246e-01
7.832946211425322047e-02 3.967402726210909197e-02 5.081103418012571371e-01
4.235009956904628101e-03 2.794991824477914468e-03 4.397269667379524738e-01
6.901650284376503741e-02 3.438845383886506707e-02 5.212521113029925379e-01
7.409898666976738602e-02 1.627086306476146788e-03 4.907822518050370397e-01
5.168814118497110782e-02 -6.513353577063346264e-03 4.536119908418256297e-01
7.385135503657259959e-02 1.978583233677185145e-03 4.930664695929967145e-01
7.134571106312093125e-02 6.931430245813140385e-03 5.066311893223243157e-01
4.919392407317389748e-02 5.929961549105797897e-02 4.511415583162826648e-01
7.278299041379295009e-02 -6.713751752947163393e-04 4.896951430233915659e-01
6.677681891237929879e-02 -3.325462359555994302e-03 5.025881592138090603e-01
1.628472919020739276e-02 3.109190008212016007e-02 4.446307333687373187e-01
8.100734390701967713e-02 2.674888164988317024e-02 4.629804939916731810e-01
-1.863044558072842393e-03 2.295439552987993403e-02 4.426592734044330069e-01
7.330872669838810196e-02 2.863891340145988552e-03 4.718671691553845138e-01
7.014886542708294315e-02 5.894402515316227165e-02 4.547855731231270626e-01
5.543373833699474090e-02 4.236771361663305147e-02 4.506902587893855672e-01
6.211903749654468926e-02 1.156663830607104239e-02 4.570829014018449321e-01
-9.376477302870075622e-03 2.226696659024929303e-02 4.431846391342423308e-01
1.597819166682731135e-02 3.666406760792856323e-02 4.453276615541354455e-01
1.591235394007790849e-02 3.327668235901611732e-02 4.449155456115039264e-01
7.512870954811340374e-02 4.046003144388798933e-02 5.086329423320001819e-01
1.980182540316776860e-02 3.764133004330023902e-02 4.459032550258292815e-01
-1.491323042015282353e-02 1.524371065080557322e-02 4.429637692032876717e-01
7.596304321549766925e-02 5.387548631465770288e-02 4.542400431025582219e-01
7.004386278115708186e-02 -2.991298466517868480e-03 4.935964909459177874e-01
7.481345860112842416e-02 2.251374325605458391e-03 4.892729537030096609e-01
-2.214140130257260392e-02 1.612717726031968543e-04 4.398561935332481743e-01
5.509909232158296394e-02 5.604522778116352577e-02 4.505697114704458883e-01
7.536343484982413465e-02 2.754953424266988818e-03 4.814176754082152843e-01
9.489838098478803330e-02 3.346107481629156943e-02 4.849804764047281336e-01
4.033856547846859791e-02 3.029144400728018063e-02 4.490284019659150361e-01
5.349144585507743105e-03 8.123924067647475544e-03 4.409286487480762462e-01
9.826746649124067090e-02 3.278799924494148199e-02 4.805121639673043954e-01
-3.124925227439215997e-02 7.185832408726521882e-03 4.481058184142323042e-01
-2.174219839737992488e-02 8.706399455895892300e-03 4.430053537296104738e-01
8.683482493629522680e-02 4.258814433671020971e-02 4.970566093087941950e-01
5.176967902910376701e-02 -5.144943774351675575e-03 4.532819274292934075e-01
5.360529467735877102e-02 5.943706746896581378e-02 4.544879421061771563e-01
7.081418402219015473e-02 3.093104732555737590e-02 4.577831069043411527e-01
-4.525208110331526562e-02 -3.105338029676502597e-04 4.448375765028239615e-01
7.939220626742202191e-02 8.893146386784787569e-03 4.941589238829172115e-01
8.631930705905815904e-02 4.188540164200482002e-02 4.981266993114853991e-01
8.672334382251302431e-02 2.397388468861398961e-02 4.943406745847131467e-01
7.457866512427605010e-02 4.289178426125531823e-02 4.561004845926071027e-01
-3.414713632192906308e-03 1.775993301143079586e-02 4.417486419472303472e-01
8.258715157194027046e-02 3.873335133811593722e-02 4.612852799956513872e-01
8.923797840002389847e-02 3.748389799687855406e-02 4.945850840356142974e-01
3.600406432763778725e-02 6.448255163263112710e-02 4.539753455498820034e-01
5.659644848907658538e-02 -4.830376524551789966e-03 5.210900443383778002e-01
8.288461051181952866e-02 3.199847077213056196e-02 5.077875531356157435e-01
8.065351768087182516e-03 3.896360447008567762e-02 4.448240679222612570e-01
1.389541474940188953e-02 2.950471613678727276e-02 4.441220442873020646e-01
3.340590622178925273e-02 -5.734021000469325703e-03 4.427434857963555848e-01
9.318658470670773686e-02 3.570980374818318037e-02 4.888746224809019103e-01
-1.865601897507145057e-02 1.515705771933217524e-02 4.442811657600639896e-01
9.137595780620597075e-02 3.160767271839064196e-02 4.911179135545105101e-01
-8.290790698353180110e-03 6.237009354081638098e-03 4.400221285374016911e-01
5.572784733590859657e-02 2.144470007720415683e-02 4.533881828396634228e-01
8.260774906488983771e-02 3.768508663294757588e-02 5.055386174023123180e-01
1.735853278496063412e-02 9.576818330091049075e-03 4.425806614177543730e-01
8.774837749101900564e-02 4.418026211442947077e-02 4.592514884754404503e-01
1.010430615397212711e-01 3.456566228838223176e-02 4.788756799800356623e-01
5.946376652280026959e-02 -5.555579348180414781e-03 4.594253950654074714e-01
9.192403311564459334e-02 5.187686419992176834e-02 4.646502075892245953e-01
-1.255650652276206480e-02 4.338900715300436639e-02 4.474175047636436142e-01
9.042130965075152738e-02 4.933754982073088047e-02 4.606649708634997786e-01
9.551145204037715664e-02 2.722191003830522898e-02 4.702770689296165152e-01
-5.376197816556452756e-03 4.903972222797554903e-02 4.467162601299995428e-01
6.710814484071783714e-02 -4.025993171855027884e-03 4.688952357414207239e-01
2.860853979191370702e-02 5.924761226405433900e-02 4.495089792858688593e-01
2.030594885986795883e-02 -4.106883443739028569e-05 4.405549451669064087e-01
8.814701931640472887e-02 4.024128885449541893e-02 4.956720706740680993e-01
7.335063061666871609e-02 5.207694284071389540e-02 4.532075901010965691e-01
8.498675402242750199e-02 2.594997343581188082e-02 5.019000561259030491e-01
4.662268410241467848e-02 4.404897806355555917e-02 4.496523812174666457e-01
8.779132535104657020e-02 2.845834477874745194e-02 4.960753171537400363e-01
8.627234540117373340e-02 3.562590245556366414e-02 5.009024401769607282e-01
6.477609019200313012e-02 2.195068327631550381e-02 4.567306167192188848e-01
-1.286004533115298401e-02 3.072145312234276712e-02 4.453463633543038314e-01
3.523724306554010949e-02 2.157978324832959816e-02 4.473087485561372256e-01
-3.998958199693875525e-03 4.635142011688250796e-02 4.460967204407357833e-01
7.162520473084635353e-02 2.001817169889745854e-02 4.605564578392186692e-01
-2.868030446827192145e-03 -2.269616618891470098e-03 4.380185038143831200e-01
9.468313343371537183e-02 4.965677049679805000e-02 4.754720786384075137e-01
7.043350328790390358e-02 5.009756687649424139e-03 5.050711975742107063e-01
-1.200502372823243971e-02 1.779593829349924994e-02 4.426007117509898059e-01
3.545934122355379886e-02 2.210519442629612849e-02 4.474126889579725375e-01
7.567668934645727097e-02 3.697169611901415798e-02 5.129174371927861520e-01
7.617722716215007128e-02 9.681384709074675188e-03 5.037968181878329510e-01
7.142671171028033839e-02 3.609430716288661994e-02 5.163463316896085287e-01
6.315188086419627755e-02 2.895155578862370748e-03 5.158627794620425089e-01
4.535170277248119775e-02 4.962439536880677154e-02 4.492128823881367250e-01
-2.744383780908611625e-02 6.522158494954619946e-03 4.435078205660449302e-01
4.657339716538500332e-03 8.132662368972981212e-03 4.408565441649546224e-01
6.555246045237485275e-02 5.671335303891840950e-03 4.605218127182515442e-01
3.955201064705584496e-02 4.685490735077153281e-03 4.465580772009484778e-01
5.357800141337174839e-03 3.391562926837871778e-02 4.440617859373171550e-01
4.648328833856264081e-02 2.979846650787229198e-02 4.505534597183116774e-01
8.694060445888364408e-02 4.024168438894498018e-02 4.616628233301831585e-01
6.772205949714962814e-02 8.840370781903479636e-03 4.611341585419366784e-01
5.899264965493005580e-02 4.491186585106304863e-02 4.509612969539074645e-01
7.277724098472938830e-02 1.475608711199654331e-02 4.623956549157981488e-01
8.563655773605963195e-02 4.694807661217789002e-02 4.571557584857948164e-01
2.136767885327943428e-02 4.891144143128216271e-02 4.467613699318926934e-01
8.711768475747334872e-02 1.705295035883396676e-02 4.830014551834193037e-01
4.037546430810193959e-02 6.050160868139031062e-02 4.503141209345487561e-01
7.545413197926055526e-02 3.116040394072044570e-03 4.794717644786225530e-01
6.840494979743912130e-02 3.622431692397592995e-02 4.559016136497384686e-01
6.832325547721254666e-02 1.474932769465611519e-02 5.203418769761467555e-01
3.657858718241979029e-02 -4.587541799830977159e-03 4.443733308284835704e-01
7.294041165655282266e-02 -2.919206832170152810e-04 4.901629605274812618e-01
9.578247460092345622e-02 4.590025299330618286e-02 4.825315552247630979e-01
-1.439758866987575839e-02 4.912640039857468777e-02 4.520182956174373934e-01
-1.470736569826434220e-02 1.664462887602654803e-03 4.395158948545334066e-01
8.229654264040979494e-02 3.067765789043966351e-02 5.088634679439250075e-01
1.615972913112596193e-02 2.981007044900231898e-02 4.444682866741072047e-01
8.023812651179823563e-02 2.538201416935214824e-02 5.117211051340860850e-01
6.517673224781210528e-02 2.534043415131478558e-02 4.563868853021308403e-01
8.674506163614438548e-02 3.981491724348121958e-02 4.983690933278255852e-01
9.472253240293121435e-02 5.010926809010766286e-02 4.729187339675367530e-01
5.931934435566255798e-02 3.273649107960409366e-02 4.534878200742452625e-01
5.604293257847543092e-02 4.535407469131861810e-03 4.541085451042413124e-01
4.552730467156668182e-02 1.845910063474054050e-02 4.499306317023190060e-01
3.995802004204221380e-02 4.984672376048850800e-02 4.485508133486688087e-01
-3.399890786643184476e-02 5.108875397617174130e-03 4.467281156134421671e-01
8.329085409451374156e-02 1.273889653035345688e-02 4.877465169241113063e-01
8.809973378856947313e-02 2.195265443708114064e-02 4.891339616250848787e-01
6.345663415796902462e-02 4.679168269259238733e-02 4.515001995009807478e-01
6.698621811880041410e-02 -4.274057949164834780e-03 5.016066472757175765e-01
6.808810584359832607e-02 1.634549153069999455e-02 4.595159152827608673e-01
4.815747076752310146e-02 -7.037490743402596838e-03 4.512467503925962631e-01
1.240398035938662311e-02 -1.671876960968481530e-03 4.390154314737509389e-01
-2.553175538590920016e-02 8.745562666799754428e-03 4.442196071439882266e-01
1.909897382236349847e-02 2.925423535229454072e-02 4.448628952686590754e-01
-4.787716668697574764e-03 4.460844211640313528e-02 4.459265551850300491e-01
1.582145375356108427e-02 2.835950536025607163e-02 4.442341634420781116e-01
7.330765830145051509e-02 3.483855512793318510e-02 5.174855237339804903e-01
8.872880923866989511e-02 1.979102092189729406e-02 4.789704628110531548e-01
-9.825666576056601986e-03 1.136460746029201163e-02 4.409882162834466435e-01
7.382091572964534498e-02 6.622605230619499350e-03 5.022603915825532006e-01
8.256171080465957157e-02 1.110015741651839555e-02 4.831120786113118903e-01
1.380047694921812326e-02 5.786794639485120378e-02 4.523874434164557035e-01
6.168710031724408682e-02 1.539199146496256741e-03 4.583197559747553829e-01
4.831885628045259895e-02 1.943617337003785209e-02 4.509152055052202401e-01
7.715530649313591394e-02 1.535571883661948113e-02 4.648154814812602842e-01
2.454945025535417227e-02 2.348604434870913554e-02 4.452433201344539460e-01
6.875552276105327543e-02 3.597574035271926263e-02 5.173453017222776618e-01
9.164264348715175923e-02 2.317684491534326846e-02 4.811206058517866757e-01
4.407177803690664336e-02 3.113651134324224579e-02 4.497905426363856263e-01
8.007547192877478848e-02 3.674905020179041609e-02 5.101753489552125487e-01
-3.052217319335780339e-04 3.538827831324255213e-02 4.444170281290376057e-01
5.690429380733577625e-02 1.980436108030603215e-02 4.539227690480944211e-01
8.169894545883858716e-02 2.324019964288633402e-02 4.649255752223221405e-01
6.668727699020168820e-02 2.793143711408836022e-03 5.094889529796292615e-01
-3.116562401254661246e-02 1.117136579924108211e-03 4.418587086382033124e-01
8.141852653159711850e-02 2.719841372207629226e-02 5.099981396790999044e-01
1.416977935826129603e-02 5.646111621082632037e-02 4.499295144036730143e-01
4.307240092845675272e-02 -5.735347198556764794e-03 4.478597697576749415e-01
6.392159436720844246e-02 2.764552106309016693e-03 5.143309685729055003e-01
7.726224878361223625e-02 6.156133835433985277e-03 4.742619177364975069e-01
6.330350584731361807e-02 3.648279447452974084e-02 5.180677058308225114e-01
8.576573023351825864e-02 3.091045053960753825e-02 4.636248821728125025e-01
7.971428560189003365e-02 1.346518681609397416e-02 5.022020393636116298e-01
9.227267062731241143e-02 4.690788572464863609e-02 4.876215209876301193e-01
9.249611371475784192e-04 6.589390108552978763e-03 4.403086650660379964e-01
6.471970074444279020e-02 -2.922011859098751305e-03 5.076451036004948625e-01
-7.386431913237515717e-03 3.729751775127890939e-02 4.453911953160776260e-01
7.141112795784033962e-02 5.961768994831843915e-02 4.591015005956697870e-01
6.547119202492618362e-02 7.074711876191721628e-03 5.169076588026626506e-01
5.427354392273550654e-02 -1.394368973048557524e-02 5.260816541367046018e-01
8.698489185791012657e-02 4.648028685453962916e-02 4.580990678763503521e-01
4.030229414622582551e-03 1.988757843008229914e-02 4.423346414738160148e-01
6.016314312306950129e-02 2.853169163625624352e-02 4.545262528652819767e-01
1.666586298068033559e-02 4.352073171973804694e-03 4.411447630286559618e-01
-2.162801542617077966e-02 3.489194976861797332e-02 4.497672893409523920e-01
8.585073868138906605e-02 4.167164371741825107e-02 4.607416295744619084e-01
-1.533667263629131736e-02 3.175908322649530907e-02 4.460458101565060729e-01
-2.894470144842419684e-02 2.237137316373554244e-03 4.418417324176655558e-01
1.444905174227771247e-02 3.930215971170365752e-02 4.453847133591639085e-01
8.673729883537661944e-02 6.100671409779932775e-02 4.636491545623725452e-01
1.705809776932762020e-02 2.735389317677352355e-02 4.443242908190773721e-01
-1.563389505863919428e-04 4.240400226966313524e-02 4.452142561549381483e-01
8.500684021665065593e-02 1.889725622535798344e-02 4.926178772328864697e-01
-3.836733022451264529e-03 4.779925133009556987e-02 4.463059371374244466e-01
3.209544624951529267e-03 4.511610202669836742e-03 4.401181494899037427e-01
8.442413907540050055e-02 1.570090717687738779e-02 4.896356752876849239e-01
8.682916234659072974e-02 3.973146504283840696e-02 4.618690994808992145e-01
