-2.040142292016975528e-02 3.923455144420005813e-02 4.502122691644661612e-01
-3.439858709660975622e-02 3.612937633553477568e-03 4.437045164788305240e-01
6.462626470027139913e-02 6.061418196058982605e-02 4.593197509878346740e-01
3.291151200638655488e-02 4.487609008746888672e-02 4.483751738756786565e-01
2.319188617779416837e-03 4.169044689607062648e-02 4.453008920538175652e-01
6.562966358734248495e-02 1.805666699643486070e-02 5.260241167746699809e-01
3.150399401869240917e-02 6.452041654551839145e-02 4.532253762075517667e-01
-1.381796287720803498e-02 3.688887625990350770e-03 4.399649542426340432e-01
8.083110128755741086e-02 2.495159365468036655e-02 4.652879982279946591e-01
7.817546991191440253e-02 8.040855626434272041e-03 4.759711054850211398e-01
4.394989365304225598e-02 4.659162445636320926e-03 4.486586977042282820e-01
6.346840672561049335e-02 -3.407553389771448855e-03 4.642184356146925595e-01
4.344286624327665935e-02 1.306474751973059518e-02 4.492930658716882686e-01
1.003931056020059553e-01 3.949236021351357206e-02 4.797629115540422706e-01
3.132235279514160309e-02 5.031843854756265499e-02 4.483044338181892963e-01
4.925158052977260392e-02 1.996640996039121888e-02 4.517657250658115298e-01
-2.470679955471213364e-03 3.671014447755825694e-02 4.448721319181517253e-01
6.388302102308970887e-02 5.556923167799467794e-02 4.528669799762568005e-01
3.123940892367892824e-02 5.162366795456539009e-03 4.442345434639584645e-01
7.962919209748298144e-02 5.592604958528180070e-02 4.892160077817258590e-01
9.454544652878058009e-02 4.762720997612295004e-02 4.712277290567675192e-01
-4.394447880718268390e-02 -7.424324264055639708e-04 4.413856430758278937e-01
7.428026613184407489e-02 5.926695291451626602e-02 4.605863387381034513e-01
7.301265415699871586e-02 1.785194832756608393e-03 4.759164837206438792e-01
6.731429840199305847e-02 1.848780115006800479e-02 5.244492006395969907e-01
-3.001366916004447397e-02 8.299228347579158671e-03 4.476175589457911941e-01
6.468554855107323115e-04 3.470107059000690497e-02 4.444957868686784663e-01
5.421308286911266650e-02 6.795775049245991392e-03 4.535778358706152313e-01
2.486730774270803912e-02 2.636414306551966569e-02 4.458688852772914601e-01
8.473789322020654213e-02 5.318949654032427421e-02 4.590976588457361118e-01
3.500647668844910493e-02 5.415655177818688021e-02 4.489632599584475470e-01
9.447233406187310889e-02 2.846534044441405981e-02 4.826103715475127953e-01
9.083713258512451927e-02 2.959055243630788479e-02 4.678185886859194675e-01
5.489300025615516387e-02 1.600865363993290991e-02 4.540514184803754461e-01
8.651374255248477085e-02 4.991464491358325178e-02 4.599301568764418979e-01
5.340032319649996168e-02 3.121585754718138317e-02 4.529718576765886517e-01
9.446773665410182486e-02 2.842737088801638654e-02 4.826055639956939314e-01
-1.536799914247770002e-02 4.196491766917110483e-02 4.482597520950195036e-01
-1.716080917987691107e-02 4.466314393982864783e-02 4.495693491769462424e-01
-2.080845125991175829e-03 5.177079377523162440e-02 4.482146994126489092e-01
7.586615676482466597e-02 3.453378015735580897e-02 4.612730054423628823e-01
2.379291394845498009e-02 3.403677652195244430e-02 4.465820076605315214e-01
5.136702034029432679e-02 3.654013028027636167e-02 4.517037288390556293e-01
4.004253410838561067e-02 2.057710687121979548e-02 4.489116142255036856e-01
9.692691690060276088e-02 2.805920301975617717e-02 4.757592960374188995e-01
9.612273218957220755e-02 3.121006028293458676e-02 4.694701309804886202e-01
-1.087193564880133134e-02 4.151389090303441061e-03 4.398277209467768567e-01
7.648874861625382104e-02 5.716798186020827233e-02 4.585134365971021420e-01
7.042689361432762085e-02 5.188902128930682200e-02 4.537043915375763015e-01
4.143651315645723032e-02 3.284577836967790543e-02 4.497512677188235664e-01
-7.028276529166101530e-03 6.171611791531161385e-04 4.387748476841458189e-01
4.248444277063446323e-02 1.306349381848111516e-02 4.488653899006899151e-01
-4.047333485654402291e-02 2.242785723253849783e-03 4.420979358192262954e-01
6.136339744199113821e-02 5.264864639661576834e-02 4.515329338302406237e-01
4.449701760681813029e-02 5.143178808695369336e-03 4.489045870528168281e-01
7.495096694440657459e-02 5.076641712096745945e-03 4.955802049701082401e-01
9.803458804738514332e-02 3.837262053239529069e-02 4.661612161861973247e-01
8.220300348478956631e-02 5.485708889717019754e-02 4.906564367153865014e-01
6.673464271377969881e-02 1.264331708531883473e-02 5.203956502750354263e-01
4.176065698313321389e-02 2.227354759052494956e-02 4.495043658997562863e-01
8.009507008495173053e-02 9.966814561382379006e-03 4.891506407594553019e-01
9.160556332896800658e-02 3.304749010750695354e-02 4.656034823825918600e-01
7.949100938716688325e-02 2.157918451923872966e-02 5.107454071176267263e-01
8.043300621422630470e-02 3.720564705842534931e-02 5.091607101841915117e-01
7.553801863744379064e-02 4.062596143393729792e-02 4.593528798085976250e-01
9.188888974207935767e-02 3.790219482170310156e-02 4.902752276424321431e-01
2.128180705434852549e-02 4.388553537832017709e-02 4.469235591473970648e-01
7.381382297502844803e-02 2.179485079032428621e-02 5.188888802749774820e-01
7.844331932423255493e-02 4.920672385059841197e-02 4.559911711093006526e-01
8.451229349466255619e-04 -1.325532545609053089e-03 4.385111578733617566e-01
6.976523777985073338e-02 2.425287454761885370e-02 5.246493147957023151e-01
6.593520884203955823e-02 -5.019412706116633920e-03 4.690862025063433638e-01
7.271548439903816052e-02 2.707842683902616024e-02 5.226277829995391588e-01
6.741131408366418665e-02 4.040955312403709393e-03 4.632803121209487229e-01
8.490911265313662304e-02 4.354279346729076489e-02 4.990394326863522023e-01
9.120348740334344173e-02 5.400427017533369206e-02 4.770965778962815151e-01
9.018973028058559216e-02 5.004439249108792731e-02 4.627179639644252718e-01
4.018328946194335560e-02 3.589388475351255187e-02 4.495310529110842501e-01
7.593737205688737453e-03 4.563298403160045980e-02 4.459251216988668887e-01
9.650296912385834466e-03 7.510118123685275218e-03 4.413249774716126450e-01
6.551890948875835341e-02 -5.695482972503261056e-03 5.038176253376945857e-01
-1.008299059352694245e-03 4.831617827408593580e-02 4.463970390423194767e-01
7.376120598666870143e-02 8.171762514626543586e-03 5.039408867271962800e-01
2.188788663455418226e-02 -3.280959657902823325e-03 4.402236375125856416e-01
5.340766125485929203e-03 2.748913935935240471e-02 4.434504933273172300e-01
8.061534897316616211e-02 1.531991734933387320e-02 5.013129994636950082e-01
7.368600600202369899e-02 5.616127860507809377e-02 4.553300209942117704e-01
1.714811453422861176e-02 1.982405097968440669e-03 4.407138462161874215e-01
-1.860742581725945491e-02 1.923558946828527599e-02 4.452232109020112794e-01
5.199548189230133316e-02 1.013474305672515223e-02 4.526728656086240754e-01
-1.019091106477744771e-02 1.257791514076209670e-02 4.413440606618451167e-01
8.859316052211614612e-02 3.208807034164946198e-02 4.648448635343442881e-01
8.353923403904178757e-02 1.432698195427323934e-02 4.877561058937926464e-01
-2.185405200030007128e-02 2.789771073215465899e-02 4.479385029300788634e-01
8.870726714785155675e-02 5.501933613560716640e-02 4.798489790926077636e-01
3.674972906657107685e-02 5.888402006367386005e-02 4.499089843879131023e-01
7.938999225592074938e-02 2.887081631523520653e-02 4.627246155162756946e-01
6.342935872786151230e-02 -7.975455348389077354e-04 5.109154445586895354e-01
9.407911637879559641e-02 2.957900283577342276e-02 4.694816595025992356e-01
6.523000146752686024e-02 6.725647684673758189e-03 5.163931140988529123e-01
-3.294577957057365225e-02 3.565386159189904564e-03 4.433500166287068778e-01
7.016371242588058388e-02 4.191412805545674525e-02 4.560003197994135782e-01
-1.431204512459626627e-02 2.483784608342776840e-02 4.446476035851535946e-01
4.793127284460829696e-02 6.194332219044161592e-02 4.574392283148774885e-01
1.577235473680264205e-02 3.633167590120957996e-02 4.456053943358110336e-01
3.389016762607730340e-03 4.082699144629414051e-02 4.451889803577083748e-01
5.965663318701117795e-02 5.993394535659418015e-02 4.574582897401163195e-01
5.661945819124168666e-02 1.816158038958155460e-02 4.546601855298105788e-01
3.734687363064071591e-02 1.016683246323585137e-02 4.466822836709595235e-01
-2.802887850198643171e-02 5.349892630448042918e-03 4.430261782245870084e-01
6.250468364629412077e-02 5.769525985057186168e-02 4.543195427082906135e-01
3.255525333875979727e-02 4.542277464859043740e-02 4.483210530142276995e-01
4.152984328378321599e-02 1.582261148257960853e-02 4.488367582218972252e-01
9.157708526326865939e-02 2.441266609826929154e-02 4.738495446691096125e-01
6.247968911689712190e-02 3.642655201037409141e-02 5.190025165900548076e-01
7.467820921277580626e-02 3.694094054376973607e-03 4.918641602261856760e-01
9.394194878154876749e-02 3.798585548452151212e-02 4.873910353593174372e-01
-4.877266652193026041e-03 5.794562203844008143e-03 4.401203940346851695e-01
8.288689468820500950e-02 1.504909619837938375e-02 4.923670930515214872e-01
4.436653572739630846e-02 4.406218817290521658e-04 4.488514318809768144e-01
4.550308065161450671e-02 -2.354616789405895166e-03 4.494288137922192172e-01
2.468268599715623887e-02 3.389733001849775523e-02 4.467187553126556465e-01
9.120309571279172633e-02 4.232631764815192321e-02 4.904663895427054388e-01
-1.574436305749208481e-02 3.023211533703063295e-02 4.459083081075175259e-01
4.610214634137007467e-02 5.176041065710407924e-02 4.498965802224036414e-01
6.767708323258705971e-02 -5.358318856390294552e-03 4.982937338011407813e-01
7.221603653429424508e-02 -7.546483884807702464e-04 4.800258543587355708e-01
5.080664590359974114e-02 -1.977355623643903097e-03 4.524850599146554297e-01
5.208519333250097999e-02 5.723911863031411196e-02 4.513869460509050135e-01
1.036318249054057720e-02 3.081864388965990451e-02 4.442601988206466013e-01
6.262286279706526237e-02 4.940139516808651765e-02 4.519012890326579712e-01
-8.315294409071227397e-03 2.945988277024115184e-02 4.446488670383997865e-01
8.205096782963645918e-02 4.787261444424802115e-02 4.572559357569367378e-01
6.393070221963663424e-02 5.316905492730471250e-03 4.600289234068815070e-01
5.278009849325673852e-02 -1.177948422006476915e-03 4.535745205268012503e-01
6.966544134674450273e-02 -6.919958918767218914e-03 4.858086761685272981e-01
8.652101990304116030e-02 2.950047489884993768e-02 4.986152633155614966e-01
-1.261180681980013374e-02 2.319461826700758636e-02 4.440308013361117800e-01
-2.833718575750739446e-02 4.656446129458471569e-03 4.427777619473073911e-01
8.413297372617892234e-02 5.591096063321590592e-02 4.606582216851499711e-01
-2.235238642177616274e-03 1.136425994198621801e-03 4.390175919069644883e-01
8.922909400349229858e-02 5.454802883582343664e-02 4.811808173056751903e-01
4.941436274531631895e-02 -7.287892390452273619e-03 4.526043900614641347e-01
8.807495509871998696e-02 4.493146117681893342e-02 4.937807550375927779e-01
7.460437222917000455e-02 5.024044416910013189e-02 4.546956551321834628e-01
6.216983308907852307e-02 2.465919599628480993e-03 5.167142694430200134e-01
2.626475226512426861e-02 -1.274144375759622694e-03 4.414332551967822260e-01
-1.233304191713404437e-03 2.178285751543770216e-02 4.425734434827973129e-01
7.888079394509994735e-02 8.789647261199773007e-03 4.756715994808802805e-01
6.369569898852905920e-02 6.293533834776729972e-03 5.185606285840442808e-01
5.282537030494009744e-02 2.728155609281165267e-02 4.531016022090693651e-01
-1.655294166616958634e-02 4.194932113387626199e-02 4.487202622189961354e-01
9.466790457926685387e-02 2.752196478462238041e-02 4.722417862079726358e-01
7.947450897634480982e-02 1.201314320625470992e-02 4.979725287740361939e-01
8.243528162209952381e-02 5.363838230620895237e-02 4.924548875584831564e-01
8.281742864896134149e-02 3.082303183754369832e-02 4.642850270411528757e-01
8.726472325474736447e-02 4.484511741667467077e-02 4.952874513687992031e-01
-1.876760174592340125e-02 3.252980765802199886e-02 4.477105705840370709e-01
5.587265770190281283e-02 5.040765792315976546e-02 4.509825096814280010e-01
9.044337402323333885e-02 4.944918439551692496e-02 4.884385139601027381e-01
2.040551201255294544e-02 3.823127111342648765e-02 4.464374784536483398e-01
7.301261428213381977e-02 1.091928482355383236e-02 4.650830021584679841e-01
8.908530584305612843e-02 5.653670023276015366e-02 4.721011015893803453e-01
5.165718465004154325e-02 4.931720201058449604e-02 4.505855952814372123e-01
7.109448203133862144e-03 5.381307760324392786e-02 4.488314966465459799e-01
2.441057609981731047e-02 5.809774388017969332e-02 4.495492324022282715e-01
2.763972582612872486e-02 3.817123356062240153e-02 4.476741349975727480e-01
8.467280929834121450e-02 1.953111336423600519e-02 4.715480729365212342e-01
5.794866854167776693e-02 3.791852023595122453e-03 4.558582711282496147e-01
6.094908957964045165e-02 2.210542405506474989e-03 5.189072032460563255e-01
6.878084654884081273e-02 2.084682042202255607e-03 5.033230619225872449e-01
8.027133532047734527e-03 2.754298060977965548e-02 4.436804733942012469e-01
7.550734803789117822e-02 6.275638195002989500e-03 4.727295876103523864e-01
6.587338030440670344e-02 1.155341018959356314e-02 5.206320619663635796e-01
8.164001923274211148e-02 1.665338013072282033e-02 4.704647156194685098e-01
3.215876593350162210e-02 5.197921428151377338e-02 4.485558045280706452e-01
6.539360054355407292e-02 6.089251061021642986e-03 5.152865675854966243e-01
7.572557527595896731e-02 5.970348354314861800e-02 4.631544416406603304e-01
7.881606120178624719e-02 8.259523468081134134e-03 4.806714338679267118e-01
6.192348631617037615e-03 5.376582648511579049e-02 4.488715567191416400e-01
-3.028214846091183826e-02 2.670601410060241716e-03 4.423409130123759914e-01
4.363158663388851805e-02 1.010697704776170741e-02 4.488074633516113687e-01
7.722482160379035010e-02 1.397662574007541882e-02 4.676845890377188675e-01
3.381446184151178785e-02 1.428906232966330007e-02 4.465020546969196147e-01
8.012488194276798370e-02 4.010686062224770587e-02 5.065614527380408738e-01
-3.937801351775138681e-02 2.282598123099386853e-03 4.422589360878477205e-01
7.381191615231866288e-02 8.840275415900159667e-03 5.049404086876783104e-01
6.736175594544692447e-02 2.144417207679760393e-02 5.259744744664172078e-01
8.463720157753697182e-02 3.050570595350668088e-02 5.036179878508096897e-01
7.208798403718455483e-02 2.777341674295060597e-02 5.235062668901722116e-01
8.124412463547840690e-02 1.266702788802978596e-02 4.924249309573940914e-01
6.575239722217506022e-02 1.415054538148467420e-03 5.088300332823524341e-01
7.435768000906391173e-02 3.871307312543114700e-03 4.749520365571245351e-01
8.545673500180905879e-02 6.019408459531224581e-02 4.646954269797244352e-01
5.096833199897334021e-02 2.069020005789598896e-02 4.523615037157456276e-01
7.845947971104336172e-02 2.308169580705806551e-02 4.645512330367782550e-01
7.297070745562797556e-02 3.483429367648230995e-03 4.722447232719566013e-01
1.466552002159223628e-03 2.550839235345163380e-02 4.431412614904721714e-01
3.496012160301048555e-02 5.846288934363636641e-02 4.496752606600947777e-01
1.936090437682553081e-02 2.600805428237151426e-02 4.448525408342874909e-01
3.215305183277347018e-02 4.021565640908926487e-02 4.483591821866522720e-01
1.340224662546677173e-02 1.466220691052353212e-02 4.429418403062735932e-01
6.951171882097538501e-02 -6.809171045860140485e-03 4.845061593031806391e-01
5.857240788659891922e-02 4.283770935152973400e-03 4.561719967275705279e-01
8.520255778225110932e-02 6.187845540833643299e-02 4.687088334608432438e-01
6.119348020517366427e-02 2.303267040244601563e-02 4.561248440271717386e-01
7.335276759096895360e-02 7.441699093573704744e-04 4.820226471035316540e-01
9.275252413231718784e-02 4.281695417600678288e-02 4.628017302361268070e-01
3.010537476138341190e-02 5.574326957112279296e-03 4.440893849763736800e-01
7.184228282703518376e-02 4.152729604229993959e-02 5.089213017813740692e-01
6.485423197075433632e-02 3.523444085395316394e-02 5.216612147043919734e-01
4.443377573120037283e-02 -5.160404825235682252e-03 4.488773604710052378e-01
8.359688103311903318e-02 2.055959046816922126e-02 4.986053338723976935e-01
7.845827038137108411e-02 4.747761403828714560e-02 4.560521360041494554e-01
5.468892024531145368e-02 3.491636271024402965e-02 4.527341055330655895e-01
9.259772399305453427e-02 5.093514000601127856e-02 4.813925253161436824e-01
6.156360736044762944e-02 2.952279709973740576e-02 4.556230916101892126e-01
5.035427492755987361e-02 -1.318102253770173267e-02 5.293801281159277172e-01
1.075721688571287284e-02 8.457630743699711892e-03 4.416487971560224546e-01
7.384993257052928362e-02 2.674350860864937313e-02 4.607356684939811209e-01
6.664515920997207687e-02 5.573049335311627828e-02 4.535363037714578716e-01
-1.134617429430741058e-02 4.094993792537270083e-02 4.468684061324121326e-01
5.972311264301968792e-02 5.557285282414509142e-02 4.519081127493264627e-01
5.707758666621018384e-02 4.096732881373488233e-02 4.521432169306095483e-01
7.180503493046117014e-02 1.990283119986768420e-02 5.202214146564860808e-01
-1.209353655659139472e-02 3.184706191206333747e-02 4.454696845402711936e-01
1.465437911796659345e-02 5.253064334953856662e-02 4.479627505186006831e-01
4.149715508383231694e-02 4.227220088302394152e-02 4.496590633518634528e-01
4.055967824508041608e-02 9.683803511920236612e-03 4.475302902572726449e-01
-1.047212520702896395e-02 2.122437651237657572e-03 4.391514567018192650e-01
-1.805863715191020902e-02 3.235495251239123293e-02 4.473421845581026512e-01
7.360144542601074202e-02 3.398290371360128403e-03 4.736138846087964982e-01
4.769355995894162398e-02 -5.585738466742983487e-03 4.510761221404098187e-01
4.345929663328990805e-02 6.328091964395865521e-02 4.570491508126726665e-01
1.344545354576271237e-02 3.145895219556469474e-02 4.446801970218948741e-01
7.940162164554355473e-02 2.882231382432222377e-02 5.129357042302166159e-01
7.747112984097881405e-02 5.002964168794478417e-02 4.988609232988640008e-01
3.686216002262816815e-02 4.720127526907107879e-02 4.488417124114622569e-01
8.231506547958784836e-02 4.213710436378389351e-02 5.027236190874383448e-01
1.960133373555362699e-02 2.150884147016259712e-02 4.445958110510351835e-01
6.448796558797841028e-02 3.746088242581967903e-02 4.547660323809721850e-01
-9.768857417775686156e-03 8.170632151402439786e-03 4.404921148787798724e-01
6.173084469748816791e-03 2.937316825895144520e-03 4.399750810314804195e-01
5.275086804964974896e-02 -1.266435071331476619e-02 5.270427821264213053e-01
-1.906700801043341789e-02 3.408908704221013525e-03 4.403162445935772662e-01
7.388223232698043486e-02 2.441001825707242792e-02 5.201340021436088312e-01
8.013429156319244739e-02 4.180116954114936750e-02 4.605906911198867637e-01
9.118626783258289292e-02 5.296662367158313373e-02 4.813086849613626983e-01
8.941668637637789629e-02 5.325542172528699436e-02 4.844757719940521179e-01
4.749221961510877166e-02 6.163003296760201713e-03 4.503097342366365607e-01
4.457118111654428949e-02 4.420201213068561397e-02 4.500590910729589389e-01
7.920628203028165504e-02 1.244041478380036175e-02 4.994606041929691709e-01
8.430654722219384223e-02 1.859818465167806592e-02 4.920215424810141513e-01
9.539013953711734939e-02 4.278724214952017713e-02 4.639225862721731986e-01
6.986821613344594561e-02 4.601554496513090425e-02 4.538684155018560817e-01
2.229476026146987380e-02 4.954756213833525630e-02 4.474157929157824842e-01
8.309395662196973620e-02 2.538998279285480109e-02 5.052986922205764397e-01
1.042945082506323284e-01 3.811042238431146950e-02 4.742791522549120176e-01
1.631840417423893047e-02 5.012522965748145848e-02 4.471947490894396804e-01
8.149873336032570359e-02 1.254196200425564470e-02 4.909800601326587688e-01
6.911033615996341195e-02 1.040400814830353717e-03 4.683358487244406732e-01
3.293726260753367802e-02 4.426260292942933716e-02 4.483891270657408556e-01
7.333714052676781198e-03 2.681073943483761393e-02 4.435339990719436853e-01
-1.773484274014020326e-03 2.198639955015324263e-02 4.426336400687099770e-01
7.088269215106803023e-02 3.392888541093254124e-03 5.004734170201212695e-01
2.214971966788924218e-02 3.926131678620229520e-02 4.468422773974726758e-01
8.405122602524410513e-02 6.261391763202038552e-02 4.674267957879911783e-01
3.604155224854865142e-02 1.360737701525624455e-02 4.469503781294349443e-01
-5.150482920501994570e-03 4.116619411206896145e-02 4.456281673017429279e-01
3.732431145467877270e-02 5.955471787020508168e-02 4.500361890258640640e-01
5.183816695487730719e-02 6.104620025152765472e-02 4.586314980627920201e-01
7.617758445628312891e-02 9.881582744659420797e-03 5.031998512805156976e-01
6.257430286893665705e-02 -2.112907442700877065e-03 4.620274897940491177e-01
1.806631159764535144e-02 5.728247324837690280e-02 4.497415497405226614e-01
4.378905197453536046e-04 1.846418443245207916e-02 4.420657732109986582e-01
2.865682017365018056e-02 3.167758087082884338e-02 4.471799452913320372e-01
-1.859582403584479626e-02 3.948217084705554769e-02 4.493119768473100017e-01
1.812232496730776729e-02 3.066660590063320820e-04 4.404427002252607748e-01
8.498661576050453581e-02 2.423134918678547176e-02 4.973033584451197475e-01
8.582356374008680289e-02 5.795822766013223465e-02 4.643782640822761709e-01
7.092468701339486870e-02 5.157596098307059423e-02 4.537585851888825683e-01
8.113040690430659008e-02 1.962613046478031698e-02 5.053150110126436445e-01
2.176732383798753168e-02 2.040518359605785620e-02 4.448764128169219179e-01
3.038148717279279612e-02 6.282855949625584802e-02 4.525415397408287799e-01
4.661104553495006714e-02 2.597892107777417456e-02 4.511355674014205230e-01
2.703272873167157642e-02 2.807855618522971108e-02 4.464439139767060749e-01
3.478947750338322320e-02 5.201024997367322683e-02 4.488627920885276956e-01
3.013032882566908655e-02 2.569005734248785283e-02 4.468869942774176818e-01
-5.456855163886860718e-03 9.078557188193774052e-03 4.404570441188790375e-01
4.138767372229865821e-02 3.271727785145860101e-02 4.497367992161917516e-01
8.691799322684190532e-02 3.599615942486462938e-02 4.990418183920344863e-01
5.695838026063527321e-02 1.445709941154677512e-02 4.549743638498475184e-01
-5.009194748835175091e-03 2.765764462682163138e-02 4.438754113429739800e-01
7.381234982387066546e-02 2.706675430928143569e-02 4.605830346668443043e-01
2.342597987087704364e-02 4.343238919692821859e-02 4.471778433199476432e-01
6.941966649107272902e-02 2.435211711509749355e-02 4.591164095898319641e-01
8.966806555008076385e-02 2.318421492591101959e-02 4.735181095089250891e-01
8.747012062633374718e-02 5.429456401443509550e-02 4.859558240728267253e-01
-1.951865678137888402e-03 1.198726558732025362e-02 4.410372546290792783e-01
8.504017696602149401e-02 6.218229231538906221e-02 4.670204642965696817e-01
1.797054935392568623e-02 2.108835022773266656e-03 4.408881005746604353e-01
8.386569195769134899e-02 1.902009060178014646e-02 4.948530941620161716e-01
3.554403209586855239e-02 2.961393434853890408e-02 4.484107215107631661e-01
1.993416233192405601e-02 1.316355422129785249e-02 4.436073682866650825e-01
5.691900445788888180e-02 5.218268527456602218e-02 4.509730089520883611e-01
-1.895429941833894766e-02 4.155434553894165467e-02 4.499047914029166151e-01
6.753921327315975942e-02 2.130438428833605902e-03 5.060569352009710586e-01
3.441283266623260811e-02 6.461971367062738225e-02 4.546689966462898469e-01
3.004845201014290021e-02 1.745138683355692416e-02 4.460096238981333117e-01
1.002079729982254808e-01 4.272873533075441377e-02 4.770170041434484420e-01
6.550886823989203467e-02 2.728478711439381171e-02 4.570759032456050974e-01
7.009179988072965217e-02 8.023506426601569735e-03 5.099330251351259502e-01
3.185336913109545337e-02 4.330938454781449454e-02 4.482702414752345321e-01
1.095007109111052063e-03 2.448887164181162354e-02 4.429725954531909538e-01
8.291628822080007732e-02 5.613553045816772891e-02 4.852914386002734615e-01
7.412936228514303838e-02 1.986747962746616275e-02 5.173878414086913180e-01
5.935035182725260927e-02 -5.350839956002770466e-03 5.170596335652311026e-01
7.213740970428456079e-02 1.103643953012100817e-02 4.640636662885240793e-01
-1.445787397181826778e-02 1.971597836594691372e-02 4.436659080805474553e-01
6.990382121646103453e-02 1.271750776413436458e-04 4.706930020589606412e-01
6.929968290162255573e-02 -4.914205103663179218e-03 4.926817789169676831e-01
3.654311921629902100e-04 3.511030092183617390e-02 4.445561786243005242e-01
5.647320565541374265e-02 2.194402831762905931e-02 4.543333598416970931e-01
-2.190193603661929472e-02 2.141817115634961355e-02 4.468886708057843715e-01
1.013921442438372594e-01 3.947893391271764529e-02 4.679898017184556114e-01
-2.647585231979174281e-02 4.087012602115120893e-03 4.420974367294404073e-01
8.262667711391444292e-02 1.448650954593540957e-02 4.920757846188380524e-01
-2.139242269953402914e-02 1.867227902031879522e-02 4.464158772157575950e-01
3.514965229111946532e-02 3.104363926648480085e-02 4.483787406721602697e-01
7.131082863258426940e-02 1.531014110746662521e-02 5.170944102071358683e-01
1.001288305389590877e-01 4.168959157804626864e-02 4.704912967954985037e-01
5.268689605549212347e-03 5.192633199277835870e-02 4.479705899278105807e-01
-1.765978024884786585e-02 1.754199700248757973e-02 4.443902804716987620e-01
6.666264872632463034e-02 -6.382787795670989174e-03 5.006151176595377006e-01
7.466449179866208041e-02 5.752274030042186376e-02 4.574778862773761223e-01
3.097103627683099603e-02 4.308982960301217108e-02 4.481637298908341394e-01
5.808235411657111658e-02 5.355416048186725092e-02 4.510376034471472173e-01
8.464468065691863052e-02 3.503886411948748530e-02 4.647167545341147621e-01
4.733819212587680320e-02 3.949052486189838507e-02 4.505946159773088766e-01
4.155650260527760792e-02 1.037971944835308462e-02 4.479280641348346581e-01
7.140788063298784960e-02 -2.769679792138689430e-03 4.851330870606249679e-01
9.292684250359586895e-02 4.436860903362274677e-02 4.632357010869129765e-01
1.248838180687057535e-02 5.596688277671540979e-02 4.503765209212084453e-01
7.004824315092789133e-02 -4.534934239933709199e-03 4.890116170819036046e-01
6.666741759230221387e-02 -3.770608530584456525e-03 4.691045663921496467e-01
-1.446311069922004422e-03 3.391375784891594719e-02 4.445071634670276217e-01
7.799355942195784763e-02 9.845414877835086120e-03 4.983501951554709097e-01
5.651386698194559022e-02 4.132470256965418282e-02 4.519360982613949140e-01
8.280238679246575140e-02 5.454093482933017323e-02 4.584601472226845775e-01
9.131970004391853912e-02 5.371387229360466420e-02 4.690812176936937083e-01
6.943853015099933634e-02 -7.422438294753056984e-03 4.856957422659298196e-01
7.525305604266434301e-02 5.262088790398292831e-02 4.552133512000602344e-01
1.022583649992383076e-01 4.094028236748432914e-02 4.744290122715713598e-01
8.281814242429090533e-02 2.754641187228944535e-02 5.068133230307018122e-01
1.009399430830227457e-01 4.168199577628393937e-02 4.729021747266997644e-01
9.083388212704071596e-02 5.427094586643947671e-02 4.790665469021815337e-01
3.953465190385573036e-02 -2.370917970435624383e-03 4.465292733294567440e-01
-2.535888567104126884e-02 3.895313101336502631e-03 4.417503519604877860e-01
3.326323839691427975e-02 2.971613173124984172e-02 4.478523798796391620e-01
8.532845552094180108e-02 4.962034506825150487e-02 4.590835866985549241e-01
-2.253854189604101096e-02 3.126707104732820430e-02 4.493994211799872129e-01
2.641995916298490663e-02 1.125789588108218504e-02 4.445000496024215098e-01
8.055244491116153593e-02 3.357519784201814378e-02 5.108991776956599562e-01
7.853918494653455706e-02 1.299712193499058012e-02 5.028345137039141877e-01
8.614980505347090423e-02 5.770184410780483664e-02 4.772511924452018106e-01
8.976731369870828703e-02 4.907754993388554338e-02 4.623665509301646548e-01
8.907039123132970415e-02 2.641957607579992554e-02 4.692406241670435962e-01
5.450341362218066865e-02 5.804351627491261684e-02 4.522722630573057789e-01
9.999150315920653231e-02 3.192344978292702140e-02 4.724330455485873936e-01
-1.893927192118240871e-02 1.971971103532348460e-02 4.455049476205540371e-01
6.867583840470285750e-02 -4.653419329133358373e-03 4.747312622056863440e-01
6.311009733109435027e-02 7.939324804006255010e-03 5.212958086243562050e-01
2.303057627411921049e-02 3.049239783287134575e-02 4.460127583161180298e-01
1.698609339490919634e-02 3.473538828592723227e-02 4.455436748741837261e-01
7.531395127616953566e-02 4.023643020202900822e-02 4.595095374025766621e-01
-5.007339081263608230e-03 -1.732679659164132122e-04 4.385867946278502183e-01
6.683920487473898886e-02 3.536067502393211437e-02 4.563605563632618378e-01
8.888145903604460774e-02 4.151232747331426443e-02 4.934307234786898255e-01
-2.143505548887539303e-02 3.883194915728598387e-03 4.408106067910029791e-01
7.361946077673084399e-02 1.496740379008312978e-02 4.638001793934823924e-01
5.261408702952426880e-02 5.649555934088341946e-03 4.527813917550052580e-01
5.937744059231456206e-02 -1.088126330258503902e-02 4.644191458506787828e-01
6.460478941108843687e-02 3.465438541296305547e-02 4.555180698514579296e-01
2.398947328965912729e-02 5.564317871875839455e-02 4.490102502902663106e-01
7.309951202402378834e-02 1.904801000319063589e-02 5.181583945482903797e-01
3.272550283318911846e-02 2.987842003743232736e-02 4.477446893484338664e-01
8.344556734577375512e-02 2.250825020084143424e-02 4.683145518456105494e-01
5.809665955923087877e-02 4.913752143023205482e-02 4.513039455371936071e-01
8.127423859353764823e-02 3.356095106940684691e-02 5.098194682028823754e-01
6.938598297196496567e-02 2.040096247094357745e-02 5.234013200894721551e-01
1.778482812711026234e-02 1.631261293220601441e-02 4.437280178777937012e-01
2.597738145671663057e-02 4.893819530187886596e-02 4.475609690773744154e-01
-1.496234782099454402e-02 1.947151489340982061e-02 4.437979708879012941e-01
9.167930419326357494e-02 5.249295825093622941e-02 4.807879089147245599e-01
-1.683329487829197252e-02 -1.294909313512045655e-03 4.388687191954971922e-01
-7.414345698985337629e-03 5.128815288486071600e-02 4.491078490022567538e-01
-2.534298641748530811e-02 5.776589596595632647e-03 4.425888710240931112e-01
1.012854791813162375e-01 3.970707440237242203e-02 4.683006566000890714e-01
2.539701122792635546e-02 1.605951705096870033e-02 4.448794192517310231e-01
8.653598148851934790e-02 4.646885835466884468e-02 4.952921343376843755e-01
6.165236544236488148e-02 4.027151467907570843e-03 5.198575412080750358e-01
8.368394414700588979e-02 1.429858779503725454e-02 4.854767440660484046e-01
3.975571827217298099e-02 6.083865482521618601e-02 4.511677062393299464e-01
7.753114487078476003e-02 1.427071869046847574e-02 5.065411625223308345e-01
7.667480632501980087e-02 4.964640931074004032e-02 4.995871744759899369e-01
2.917034861658063249e-02 5.638361904100250548e-04 4.426975563193120689e-01
7.178582104867173297e-02 -1.326417809429857432e-03 4.792952312387692704e-01
-2.088148484671752125e-03 2.983017522299876920e-02 4.439682225964177720e-01
2.808521195231354281e-02 3.260700783355484356e-02 4.471808227372722766e-01
7.302098311475907488e-04 1.234938288028989729e-02 4.412693026072586622e-01
5.148288852424045409e-02 4.783095200515309620e-02 4.506516084371622322e-01
9.547948966444669283e-02 4.242320731969790454e-02 4.635395278012783282e-01
1.001468562010823515e-01 3.292409101593876675e-02 4.789445468317319876e-01
2.482172045411529943e-03 3.228267944364852926e-02 4.441919784206286859e-01
3.950106537079865754e-02 3.807066441409497071e-02 4.493808646331024503e-01
8.139891377651403692e-02 3.031492279499861664e-02 5.099047251628606725e-01
-1.697337062916755290e-02 2.696494600689199050e-02 4.457244019853091044e-01
8.187686202949444325e-02 2.030040952634813017e-02 5.041819343738764836e-01
2.892974026869057566e-02 6.061177805208935176e-02 4.514168003248335004e-01
9.865380160101754059e-02 3.364250745314881219e-02 4.693056069965882982e-01
2.839419270747082363e-02 5.716487057913979125e-02 4.492115099654568899e-01
5.106834892524834621e-03 4.837387555168824391e-03 4.404001752645577139e-01
-1.188521766313133977e-02 4.419832015270317577e-02 4.474067322571454453e-01
7.162787860461551637e-02 4.550634654872882240e-02 4.547638386076297001e-01
6.123603728384476724e-02 1.203471161354482087e-02 4.572271546683340793e-01
2.909606493431795421e-02 3.672115556460012718e-03 4.434404291906456907e-01
7.318211284777718928e-02 5.319312260296510386e-02 4.545941620572711561e-01
9.663156473144907110e-02 3.545933468394969063e-02 4.833214395077821135e-01
2.343646314333531350e-02 2.804308430304839825e-02 4.457428800573857708e-01
1.152730510440386387e-03 4.728372299464254913e-02 4.460621919253570100e-01
3.474820992154681321e-02 3.400437066519090834e-02 4.484163318507877194e-01
4.658535122163424969e-02 5.029127030819954131e-02 4.500125920771370636e-01
9.218145855778857312e-02 4.571778413826044912e-02 4.641861034022226051e-01
5.545129148220813431e-02 4.535833140689646964e-02 4.512578520476580035e-01
1.022486694939699070e-01 3.891211846914240796e-02 4.775089372641583285e-01
5.540265764841990209e-02 1.925299119676895238e-02 4.540221437929155557e-01
8.276533912008997296e-02 1.523900752931306966e-02 4.932793547141231527e-01
8.878144992748930597e-02 2.751604860778448722e-02 4.680142669383526299e-01
6.402840319821105630e-02 -2.618837429293080412e-03 4.644092641055911352e-01
1.977045845582793906e-02 2.407663231423123190e-02 4.447890829327117990e-01
6.549376128673799202e-02 -6.158921686260554820e-03 5.036459565736171040e-01
6.216872220122565684e-02 4.495358825806630015e-02 4.526694022916100679e-01
9.653811551773115035e-04 2.567812809534920568e-02 4.431884609688056531e-01
8.916136820722700418e-02 2.532121397998388090e-02 4.888000955927531144e-01
4.303674654233487218e-02 5.181507223792557182e-02 4.496017528879506231e-01
-2.061293777945296529e-02 2.491603352968612024e-03 4.402573988202697075e-01
7.547752649669384195e-02 2.736298454338337988e-02 4.614353023219594507e-01
8.783542123259885370e-02 3.961193371873212438e-02 4.959627212281784714e-01
7.528209401509669552e-02 1.098152180945122756e-02 5.059975892278227860e-01
-4.688373981356414033e-02 -1.834349468038615769e-03 4.461657813965032027e-01
9.804734100818364440e-02 3.147244690648712956e-02 4.800912921629766905e-01
2.141083684824268002e-02 1.638497775404392995e-02 4.442504406696322072e-01
8.506740923395518517e-02 1.642843506353180300e-02 4.865549978352479710e-01
3.377709073679500268e-02 3.838750316495203457e-02 4.485969815513171643e-01
-6.048700015734013655e-03 1.688287355443807841e-02 4.418127356688097418e-01
-9.858238321362631021e-03 7.638150761352839949e-04 4.387880794916569904e-01
9.727581504702260962e-02 3.348336528253285233e-02 4.814607612021329364e-01
6.520804017702178101e-02 9.197864245625618843e-04 5.092642658213314411e-01
7.786354767114812836e-02 1.535218614044789320e-02 5.073579811936343997e-01
7.683030312566876963e-02 1.659985713220044762e-02 4.652496804205415448e-01
-2.431492456853938736e-03 1.790642607841533632e-02 4.418644340382200664e-01
8.543163382381523119e-02 6.077384109484295499e-02 4.712103529193480411e-01
6.944742855201095633e-02 3.860017734652016613e-02 4.572518697361028783e-01
4.282875181146126448e-02 5.290819225236672446e-02 4.495298797107027400e-01
8.907413826811481916e-02 5.176761927743691455e-02 4.884989129917086670e-01
6.841652381009855066e-02 -1.240401557871336716e-03 4.695468836558334136e-01
6.745506132786778519e-02 7.425677269597877328e-03 4.622189251693186729e-01
7.016023700063450663e-02 -1.809118350798706240e-03 4.936849585205326241e-01
7.297052318109573110e-02 4.058032205219696750e-03 4.714043979256133388e-01
5.286276361538191915e-02 5.284660447446606901e-02 4.504987138698984817e-01
3.333876637548047889e-02 5.989149991651333133e-02 4.499306158056998739e-01
9.628487859224754697e-02 3.366468499263300385e-02 4.675218865240932664e-01
7.798299821094212270e-02 1.172490286189603950e-02 4.704791917731444562e-01
8.253579807775092425e-02 3.852300835562175868e-02 5.050977186380632977e-01
6.018628774255485592e-02 3.632382419168517923e-02 4.537513524711990764e-01
-6.134850062440517886e-03 3.548199168793762792e-02 4.451037957415491242e-01
2.491799953043572630e-02 5.731813501271683375e-02 4.493425588029090756e-01
7.131526325331297156e-02 3.449207845895779778e-02 5.199062032926381471e-01
2.253341031684246917e-02 2.246560681617492186e-02 4.451513420153460632e-01
3.753018817414439413e-03 1.074398257242450624e-02 4.412702932692426083e-01
7.432240252141865400e-02 1.099232449936257683e-02 4.667180374450292102e-01
3.104320883031084014e-02 1.323013371694829569e-02 4.456837705500774627e-01
6.931524077940666440e-02 3.571636301006426983e-02 5.183836292288275249e-01
-2.159560741246211932e-02 3.188695137490465958e-02 4.488561834093267588e-01
8.399565869229219661e-02 2.662734310605780266e-02 5.036342040029646583e-01
7.819795312662653625e-03 2.482918501299059312e-03 4.399582758659690840e-01
-1.772462133105678211e-02 2.417978770623400650e-02 4.455773771457015586e-01
6.517056852422377367e-02 -4.189329097744814295e-03 5.054118751549605548e-01
4.975963146806348242e-02 -1.441776584434239193e-02 5.302946019686649581e-01
-2.005819954718520218e-02 2.141606423317431868e-02 4.462270985698775227e-01
6.854589650585321547e-02 2.521753135816467289e-03 5.044527918616443785e-01
7.404668414778593777e-02 1.370558502010230280e-03 4.849850105271264478e-01
6.410326663805179792e-02 1.477919990809194520e-02 5.253263605485894994e-01
3.737612018522698532e-02 5.430728394402017933e-02 4.491091052355838942e-01
6.670925522989515355e-02 6.021507394153863962e-02 4.614351240453037906e-01
-1.664379365012860768e-02 1.743268703388766577e-02 4.440142686321185139e-01
-1.845214244449164959e-02 3.185310258863620347e-02 4.473961295408046546e-01
-9.377909485512335441e-03 2.680555903300832835e-02 4.442314418441387081e-01
7.000972192258815563e-02 6.977290432341078444e-03 5.084261785721301274e-01
8.516274284768461655e-02 1.591253233478906806e-02 4.790941161609187371e-01
