4.127565722034189782e-02 1.668521481216047112e-04 4.475322652086665687e-01
7.636994229758943542e-02 5.380442306944734424e-03 4.818046481877896192e-01
-7.522636378796701551e-03 1.620814889539647780e-02 4.418816967773820936e-01
2.933513694220288986e-02 4.996968800530579569e-02 4.482019904449036085e-01
7.033301735886463013e-02 -4.060160871851667408e-03 4.818520637666976469e-01
8.820002587827227569e-02 5.755482643124033154e-02 4.730570475330305169e-01
4.214087371383219011e-02 3.681719617480388312e-02 4.501597930329580555e-01
-6.885827695582073457e-03 3.428615893195899322e-02 4.451264388221506385e-01
9.869846599787526764e-02 2.945261975887225950e-02 4.762875823064706693e-01
-2.078751710677310613e-02 1.617726189678577418e-03 4.400982066875689935e-01
8.899126150444823524e-02 5.665761937880339771e-02 4.725958347544864102e-01
9.230426557396465004e-02 4.025369197027808821e-02 4.649880498682991137e-01
9.212651369199058304e-02 3.220897995018921767e-02 4.895592314090069230e-01
2.055914605005594586e-02 3.648874160634513197e-02 4.464229840904168634e-01
9.733056645943917451e-02 2.965907020890878529e-02 4.799052102065313186e-01
5.482681560781119817e-02 2.152678020903828551e-02 4.539937139103483732e-01
2.638413561482269576e-02 7.174331333092131939e-03 4.437955385218088078e-01
6.580191945003956155e-02 -4.102646634864110659e-03 4.683450671461834580e-01
3.684698557499501564e-02 2.951201264755329984e-02 4.489404337884760343e-01
-2.315769962143835164e-03 -5.401469003691612009e-04 4.386084873109546423e-01
2.896955108535349648e-03 4.142481770688193066e-02 4.453534496028869194e-01
7.720029627081734236e-02 3.391437077752915141e-02 4.622786268109964625e-01
-2.253122870607043859e-02 1.709945438215760422e-02 4.466041664326476091e-01
7.993408227319180603e-02 1.169395567846110914e-02 4.737943757932507327e-01
-2.450295911089423601e-02 1.279892621322687406e-02 4.458241225532640351e-01
2.758442245638408757e-02 4.063460612344327316e-02 4.479175143269116810e-01
3.720051670325556087e-02 2.426578150249661392e-02 4.486050743250573070e-01
5.863803116621005979e-02 2.239046631948388849e-02 4.554910145306733105e-01
1.000011181541600319e-01 3.617324553969639145e-02 4.696854850888362853e-01
8.252300156367582684e-02 1.500132458249391065e-02 4.938670278352812471e-01
5.809109170033623093e-02 4.361089976117635270e-02 4.523429667932931109e-01
7.633407293639418723e-02 3.119642483038688116e-02 4.616264851859090412e-01
9.467198137566582711e-03 4.744895268328211402e-02 4.464549121477259241e-01
5.252214671992491701e-02 -1.064312344373175186e-02 5.267215773561489955e-01
7.137136877842356619e-02 3.569806070043999441e-02 4.593731601614025606e-01
7.804652133489824173e-02 5.887390329994568461e-02 4.767375116680188096e-01
4.263648809520118738e-02 6.034453590157878682e-03 4.482174634970047533e-01
6.920022180270966883e-02 2.326805249643843637e-02 5.251952027139386026e-01
8.769906014346356971e-02 2.718901895941227762e-02 4.940091342813818787e-01
6.840240069281865176e-02 4.720840611524236563e-02 4.538719852811989863e-01
-1.197743922371191996e-02 -3.565453782555768128e-04 4.385214715198215152e-01
1.355364679940950119e-02 4.946651137606001419e-02 4.469914910888959092e-01
2.185102223370005009e-02 1.531556377008877826e-02 4.442824801984949779e-01
-1.338680426456436562e-02 3.290037445729645377e-02 4.460371479197294264e-01
9.392245693253084560e-02 2.993215961018466306e-02 4.848454157307736101e-01
7.479274859520207430e-02 3.876044055345013225e-03 4.916868890926078817e-01
8.133819241022134661e-02 1.340215323097451380e-02 4.940906813025899846e-01
2.816035787196359205e-02 1.964024121826880159e-02 4.460494717712982227e-01
9.656148209674840499e-02 2.819605954458446681e-02 4.746154067451603953e-01
6.458513364510852506e-02 1.793687873206508548e-02 4.585746118832319529e-01
6.270294758251584999e-02 3.544871311789711023e-03 4.596370522083143562e-01
9.567951916333423956e-02 2.846119107506024648e-02 4.805134335892319308e-01
7.586062808717129735e-02 4.781234052880129620e-03 4.814079503052411946e-01
8.818612824600038924e-02 2.383206347271444800e-02 4.894963747693489298e-01
4.670342524319115451e-02 3.885613710157570511e-02 4.508951784583533073e-01
-3.128222846643932686e-02 6.160510426721961703e-03 4.459651913009284319e-01
-1.025907631482325839e-02 3.001376451249424156e-03 4.394262081500437955e-01
5.549198626750111163e-02 2.442407352891008687e-02 4.542642390562570687e-01
8.432230572204020558e-02 1.495478262428831528e-02 4.811622289120648932e-01
-3.821029359105219177e-03 4.056537695522274833e-02 4.454541070386751067e-01
-2.508333268045410264e-02 1.712506375477203940e-02 4.477696786747514812e-01
7.466481496934568307e-02 2.155023582410753660e-02 5.180544551515371410e-01
7.873076007487106454e-02 2.201871406427254388e-02 5.124801159122942540e-01
8.576585378459358755e-02 5.418615504721105425e-02 4.614267105269627134e-01
5.413672253043599891e-02 4.248059541356162538e-02 4.516844340413024850e-01
7.310692297534210349e-02 2.456399157061875047e-02 5.214325959005129407e-01
2.106280364198313826e-02 9.897553580746908802e-03 4.434815121142887118e-01
2.136240466312979217e-02 1.173762143516364834e-02 4.437943056831782918e-01
4.797616717929653607e-02 -8.663018766593371875e-03 5.295674473115877801e-01
1.643710904775861487e-02 2.129109352361988235e-03 4.407022593070317185e-01
9.555060456721718720e-02 2.759840155182062549e-02 4.765999035212211687e-01
7.226655178486025843e-02 8.119269576747394773e-03 4.670015155678864938e-01
2.608475509749269214e-02 5.613613421802707282e-02 4.492732323258361027e-01
-1.347812703718982534e-02 2.414301426766321881e-02 4.444203313820116463e-01
-3.027461850036453767e-02 6.505525591338348797e-03 4.451673532005644418e-01
8.961322000655114195e-02 2.348026792202823065e-02 4.842360005216456709e-01
6.137087490339588475e-02 5.398578938925539979e-03 4.582497250157447355e-01
7.376510735813295028e-02 1.075310716775559894e-02 4.667139888919221713e-01
8.985960800917758284e-02 5.552357803305786599e-02 4.702119925240713649e-01
7.454322880081745706e-02 1.277161056330298854e-02 5.096594688330148282e-01
4.433989313554708572e-02 2.937088206721690659e-02 4.508984494463794124e-01
6.925764982221271904e-02 -6.733402158027989443e-03 4.831685649237496549e-01
8.474312855863980198e-02 2.800237744179186541e-02 5.023739599323545635e-01
-1.149732850185529627e-02 1.070891114555888937e-02 4.411751203045246594e-01
5.082514912041364435e-02 -5.044740870479316915e-03 5.263346833660563773e-01
2.512822521253280789e-02 3.164920505329932299e-02 4.466760264684581649e-01
6.894234065612202256e-02 -5.234700172714463508e-03 4.943315124315393883e-01
9.385584411153639894e-02 3.706666921706802675e-02 4.656712561642645798e-01
1.035943104764017880e-01 3.865143756548575921e-02 4.767582161626684467e-01
7.659789022042590156e-02 3.358920504455815970e-02 5.156776440485414392e-01
5.607253851475389045e-02 -5.639923448041310461e-03 5.219578846440973141e-01
6.559370082176313455e-02 8.180079317329537469e-03 4.609290478029275939e-01
4.377903544313930390e-02 4.615347504126825207e-02 4.501903193022163685e-01
8.428507051878157685e-02 5.560602560296391134e-02 4.611481007806383370e-01
4.454909910287108143e-02 5.206641313760571044e-02 4.500549041142956619e-01
8.769609388938645611e-02 2.287804784450976625e-02 4.895127228044182099e-01
1.011437879187518929e-01 4.075065408365387276e-02 4.700392257193774515e-01
8.039780251283834556e-02 5.229514311372417817e-02 4.958151241472041892e-01
1.824809290486155769e-02 8.196288280507188148e-03 4.425955562164134438e-01
6.920156972497404357e-02 -5.960252750154217474e-03 4.801363826476195418e-01
7.722855267118716727e-02 1.091282841643052490e-02 4.708435297279319198e-01
4.767769510700303054e-02 3.941909996034690528e-02 4.509818792974898405e-01
1.213648473611763680e-02 3.608758069853174044e-02 4.452308459329220591e-01
3.294333376181517170e-02 4.208860939284578100e-03 4.445380531552321490e-01
7.316862305763222052e-02 3.742033421002773953e-03 4.964289994011087948e-01
3.834058887922234260e-02 6.217784972212068995e-02 4.521660733498202855e-01
7.725529453631892196e-02 1.360719055338171536e-02 4.686055979428116469e-01
2.407570155708300269e-02 2.485186953676098067e-03 4.421265019429860277e-01
-3.470753362412107301e-02 4.878839783373778438e-03 4.467101624964711637e-01
2.070035697046497883e-02 3.022882903968791921e-03 4.416833617819456159e-01
6.306529092043118567e-02 4.611474069547341625e-02 4.530725689084509344e-01
7.808104682338655803e-05 -1.893283316820894768e-03 4.383670298893103112e-01
-1.069826450102922752e-02 6.999727848453355175e-03 4.404411470662254469e-01
7.803889389886067840e-02 1.121557366747025393e-02 5.006076524735211253e-01
8.366252650421172887e-02 3.524189164065218843e-02 5.055799516039307662e-01
7.541274461281119446e-02 4.379816767307188885e-02 4.581584587133824549e-01
3.902402957615923318e-02 6.441033037692129454e-04 4.464783214601164563e-01
6.035641689640238589e-02 -7.276577304640876112e-03 4.630724402950588958e-01
9.455948286100981925e-02 2.871338868868324526e-02 4.716088549812020858e-01
6.894143451952552959e-02 -1.454501710034821491e-03 4.711913134003099524e-01
7.809861192149623876e-02 2.875074630075425200e-02 5.153859989272446818e-01
8.414855262137319047e-02 2.200386366697004714e-02 4.985605601514912499e-01
3.811030911650101910e-02 -6.527374219896532256e-03 4.454371274181011531e-01
8.218815373643441335e-02 1.307732762546930452e-02 4.894310730474411009e-01
4.738353185410223989e-02 5.759402636661399219e-03 4.504230867102515523e-01
-1.926429360835267904e-02 4.661063226905494405e-03 4.406741892181487708e-01
6.617497055545698559e-02 7.462793491287099661e-04 5.071031504122985867e-01
7.160926565146849554e-02 3.359354972077006896e-02 4.596740427972740295e-01
8.171744168141395481e-02 2.655872141839567269e-02 5.091330972658620890e-01
7.824948753548537084e-02 1.840466162409881007e-02 4.660951031150966650e-01
3.060521206622068835e-02 -2.098529396642069035e-03 4.425641256643698118e-01
9.750940798762684769e-02 3.136141867434728836e-02 4.710889557274400286e-01
9.107591018319138865e-02 2.493578742440366938e-02 4.769099529576704688e-01
7.774779930907370351e-02 5.875400005679978777e-02 4.615560771453638966e-01
6.759231398572879135e-02 7.530667189641323048e-03 4.626165032413239175e-01
-1.577805206948908190e-02 4.325377561940255133e-02 4.487287009145461969e-01
6.094517056449552661e-02 1.948670034321202046e-02 4.566353263153839492e-01
8.906580463969140937e-02 4.258766575969768348e-02 4.934549663611563219e-01
-1.650244642294346198e-02 4.665070933336382467e-03 4.404194137888022276e-01
9.870045490004734912e-02 3.615214181023142931e-02 4.817816313673173312e-01
7.101186373116039063e-02 6.943215057497130298e-03 4.662901745891391836e-01
3.023719557811683795e-03 5.062993733526932605e-02 4.474807717866286505e-01
2.794448442176873659e-02 -6.235577948473271237e-04 4.421017664484880871e-01
1.576351513361785167e-02 4.697304118157759334e-02 4.466494634577074518e-01
5.381105192605984550e-02 4.912066802423600831e-02 4.512186457026576281e-01
9.407434488552099405e-02 4.614408361171101758e-02 4.674273145901833293e-01
1.448547055778079407e-02 4.403118132737760676e-02 4.462982534366395360e-01
5.442900529975559787e-02 4.492248820155670536e-02 4.515534216645185062e-01
8.964146265755040810e-02 2.706042403640697772e-02 4.899396076053357252e-01
-1.138439642514564587e-02 2.247009550304028200e-02 4.437207099292370116e-01
-3.411531207656499400e-03 2.421118529572752198e-02 4.431595281765909888e-01
7.036157340042882569e-02 1.632638698062886806e-02 5.193351044604735955e-01
7.432552946635430369e-02 7.844852504896228373e-03 4.698359101733659560e-01
1.734539554257390898e-02 3.260289262810415339e-03 4.411771827549202385e-01
-7.303193132644398428e-03 -3.288905634610339926e-04 4.385496870778600176e-01
1.007742086853530804e-02 4.853240781257234238e-03 4.407891094801486553e-01
2.002588827075422670e-02 2.400268650851465277e-02 4.449526018420701390e-01
7.395660127014357099e-02 5.614900277591022143e-02 4.559992314669323865e-01
3.175696005965376184e-02 4.866759286706189014e-02 4.484498436332600702e-01
7.276206530992709864e-02 3.331985819608165172e-02 5.202843795303794261e-01
6.524401391289717800e-02 1.843691247408118031e-02 4.588350879148447858e-01
2.752427345837225869e-02 6.037363847042952897e-02 4.516021839290184081e-01
-9.069715518788615261e-03 2.245383362510913750e-02 4.433204266030020824e-01
3.366978856465969311e-02 4.527964714188056905e-02 4.486982073126238313e-01
4.440300906019437749e-03 3.175113613672635171e-02 4.441790435578839014e-01
1.233422688703970579e-02 2.610197544532137995e-03 4.403504517942907759e-01
7.741438706538002201e-02 1.925829487474082016e-02 5.122931178534623209e-01
5.294884912177437453e-02 -2.274220793838640196e-03 4.541106728404326054e-01
2.707961501164380530e-02 4.011865601487776128e-02 4.478508725822862302e-01
5.778361183993666744e-02 4.607885933490050989e-02 4.518820600151992606e-01
7.589797144559876085e-02 5.572786403616047241e-02 4.565828295995733588e-01
5.489851173585143240e-02 5.955179662983465377e-02 4.566146836680111676e-01
8.619247410033065160e-02 2.433256634779230529e-02 4.701767166611490190e-01
5.596518245833470573e-02 2.449059610447066465e-02 4.544151498978982184e-01
7.473337516362112132e-02 4.534534460755150487e-02 4.566452148191518789e-01
5.900764509242772266e-02 5.769507043983247707e-02 4.534852642459644145e-01
-1.867500816335887492e-02 1.250491782233422236e-02 4.436252988967731015e-01
8.014562724194702892e-02 1.417390146928551586e-02 5.003040190642397134e-01
8.735008108179846686e-02 1.993544132493108023e-02 4.793206940874806254e-01
8.220911874042047263e-02 2.786357657101586061e-02 4.653192414805760180e-01
8.056222260386465550e-02 3.117289704132455291e-02 4.637437942103775357e-01
9.361153062513340173e-02 5.096433999992306535e-02 4.742912997042572076e-01
8.042351972903639956e-02 1.351109291178612289e-02 4.726919695268868571e-01
9.346751688911027200e-02 3.480762484278597524e-02 4.878217142675834728e-01
3.855860185218779740e-02 2.404212241550337387e-02 4.489585477108516964e-01
7.661681646675057300e-02 7.534903926251721069e-03 4.735775139066745187e-01
8.409614425347188005e-02 4.831471411894273926e-02 4.587883860245822731e-01
5.222578133836489750e-02 5.946293841306422162e-02 4.547001039819401624e-01
2.440036349121105924e-02 3.005931587513865910e-02 4.463275751131611790e-01
7.433498210749966972e-02 1.438778311412235514e-02 5.118860994972618261e-01
2.846715977539370293e-02 1.594483508226657992e-02 4.456045704402121777e-01
4.221260663414983655e-02 2.087796549825551157e-02 4.497384134786588938e-01
-3.092321235114006694e-02 5.943304401831915780e-03 4.445420257931931851e-01
6.480134233179021819e-02 -6.030416812194161784e-04 5.081477998013504971e-01
8.126802838321482703e-02 5.779554266299508081e-02 4.616151309866663999e-01
8.540542071834600346e-02 3.310190280939832863e-02 5.024547566201071902e-01
6.176448531926000823e-02 1.093075617694373898e-02 5.253158911397509678e-01
8.102811014264188483e-02 1.208261765203194962e-02 4.913473691451543113e-01
7.188658844112687241e-02 -1.786017488784419176e-03 4.873009990557234383e-01
8.165055078467452210e-02 5.613837977954919817e-02 4.604076990516183798e-01
8.791304006579929442e-02 5.238866505648684391e-02 4.621214101632246662e-01
8.670632718529031058e-02 6.145233185715612279e-02 4.688955473202724988e-01
9.026339598424651389e-02 3.109158971201131036e-02 4.919225673125435239e-01
1.212979885387633315e-02 1.137383693260001979e-02 4.424465516339175508e-01
5.430865283839333979e-02 -9.479958515540081246e-03 5.248361129254923707e-01
-1.985810889717946198e-03 4.756587164985537353e-02 4.463005053545338052e-01
7.801457897795764651e-02 1.043911500356927563e-02 4.993466363909002670e-01
7.838800017762934114e-02 2.502418069343877519e-02 4.646177644391615291e-01
7.372736471369868705e-02 2.318597794788125957e-02 4.624926756144465689e-01
4.527691399715558229e-02 -9.310131866806937995e-03 5.319188638962896176e-01
2.362162241286814429e-02 3.398479132726641566e-02 4.466951291049984785e-01
1.007573142931709603e-01 3.241801534531336959e-02 4.788647954310907839e-01
3.175478877753592361e-02 -2.490328124066021331e-03 4.429053423784454768e-01
7.871959680804727078e-02 3.195738554543139931e-02 5.145825856647704422e-01
8.352734953160038944e-02 1.587545757914968214e-02 4.907248084171383917e-01
2.649861526590020777e-02 6.145595481334970023e-02 4.529726028553757722e-01
8.273353120665388749e-02 1.324416615023123016e-02 4.864822381872820900e-01
3.590556942112999722e-02 4.942485166328972751e-02 4.490752359523592641e-01
4.605156523414264541e-02 1.170872201681607064e-03 4.498656510321519808e-01
7.633830651776882248e-02 3.075981195178977348e-02 4.615905322897652097e-01
3.873304941706713633e-02 5.387629758582322681e-02 4.494494509246257929e-01
8.051503962595933650e-02 3.151339260665918240e-02 5.117546494659578338e-01
2.949814213903929547e-02 3.937111367294774972e-04 4.428044411068324249e-01
7.879060028010601013e-02 2.003247884195763495e-02 4.658473636639413606e-01
2.598165816886859741e-02 -4.089021881842598918e-03 4.410171614698976672e-01
6.644080928677993658e-02 1.574059426788085997e-02 5.236819162046327802e-01
7.734999301443198916e-02 4.629608243720802208e-02 4.569812243885817415e-01
9.428692189400009194e-02 4.868753241588468644e-02 4.726399550970052932e-01
7.015168297754184601e-02 -4.629392924306927407e-03 4.830973102708092104e-01
8.844667032486894231e-02 2.125645976927735201e-02 4.828450550792467433e-01
4.568516210229939950e-02 5.975254280272745272e-02 4.518602342217278300e-01
6.412216933372401340e-02 2.728133688606779877e-03 4.609247908110911673e-01
8.979967917428245683e-02 5.598536421775771738e-02 4.683958117615067973e-01
1.729483868164451849e-02 3.431751215660759635e-02 4.456473318519236226e-01
5.277314145676246376e-02 7.186302454513208635e-03 4.530680975506105601e-01
6.137261573475681631e-03 1.558593308259928825e-02 4.422271130827684638e-01
9.681968308242909493e-02 3.309615421637469856e-02 4.693300216014211768e-01
4.150681569174371338e-02 5.284803221446926491e-02 4.496982957687414295e-01
7.611488476264340053e-02 3.497507175539361912e-02 5.149595496447381127e-01
8.100534636035064406e-02 4.808513323216571933e-02 4.575221307992327069e-01
2.159313008599197253e-02 9.236692215598888908e-03 4.434403129093956730e-01
1.530045767269871092e-02 4.373081924953810956e-02 4.463396719586250616e-01
7.835526759428504406e-02 2.784439982087727819e-02 5.149099971161662515e-01
7.548012349123713050e-02 2.761903552777233289e-02 5.193823541688031842e-01
8.627943878291172153e-02 1.897464076407234454e-02 4.768131462445977520e-01
8.929174340140298705e-02 4.249492793265925716e-02 4.932264591624254124e-01
8.706065738947101063e-02 3.146066217257983966e-02 4.988403856078425513e-01
4.368146845524493310e-02 -1.825312195811779059e-03 4.485604772663441819e-01
7.939332134933806129e-02 9.114886651139218060e-03 4.813027901399027919e-01
8.769358167085156142e-02 6.104549063140002341e-02 4.683930294069498235e-01
8.376320237774453892e-02 4.492826648816934665e-02 5.001289429905497741e-01
8.333566338737509460e-02 2.232488915818652692e-02 5.026525911252278656e-01
9.275126847989187406e-02 2.616356511395648635e-02 4.731957804553817981e-01
4.533556730315493194e-02 -7.953980710361029799e-03 5.311279056361671858e-01
-7.372810353288905549e-03 2.571236420276651335e-04 4.387088781162603035e-01
5.460115790643760986e-02 1.060615096124857722e-02 4.540732915894150068e-01
4.086750449926975642e-02 3.083968136016678688e-04 4.473508381366097519e-01
7.935632695381165946e-02 8.889848978500494714e-03 4.837197563370793651e-01
3.445016281017426046e-02 5.650598447664249846e-02 4.494323817612114746e-01
-6.386129766546352372e-03 2.245230343290188085e-02 4.429835880932879721e-01
9.133618067377009819e-02 4.918587543452774408e-02 4.651047284866298703e-01
3.314341377948421680e-02 4.949464527233832928e-02 4.487209371313429229e-01
3.849805178992872501e-02 5.912195049875210856e-02 4.502903078741503640e-01
1.827214557279786128e-02 1.608726351191391716e-03 4.408595341066550155e-01
-3.770143198235274828e-02 1.706761653336166633e-03 4.420491881913298227e-01
8.159309488768443086e-02 1.993301045874093166e-02 5.046770668929356773e-01
-3.994466457970324846e-02 2.862713976868608810e-03 4.432580374977935778e-01
8.838046873346190602e-02 2.706773476063424264e-02 4.925563601122027735e-01
8.692901913757659915e-02 2.480314719723211714e-02 4.936474708982071524e-01
7.288086649647169957e-02 4.097281244065553024e-02 4.584481886526898808e-01
2.717591574344372859e-02 1.115632942062045642e-02 4.447249759333225527e-01
7.057071769265184369e-02 1.890689464943653281e-02 5.213322631658652284e-01
8.942165308459976494e-03 5.407986479302806515e-02 4.489430888653792584e-01
7.277316415986874454e-02 1.403196814283087790e-03 4.929449506165383132e-01
5.046386627785362511e-02 -9.675923302817442465e-03 5.280776251450486347e-01
-2.511388722291954360e-03 2.184759173715207503e-02 4.427088487458777921e-01
-1.157068661614607183e-02 1.016484762630614699e-02 4.410879826887333377e-01
-2.592039717992264750e-02 1.113804984972339290e-02 4.457981613073554450e-01
8.250083987682278741e-02 4.779246607237326583e-02 4.992933384967024324e-01
-2.736225374711197082e-03 2.154937819793897869e-02 4.426667912204455546e-01
2.978939312759477931e-02 4.872615991954971221e-02 4.482023525717554469e-01
7.094882890739240278e-02 -2.857089692979613085e-03 4.818158072151396132e-01
-3.502648285557014018e-02 3.069465033431752112e-03 4.433663060987606541e-01
5.248655359060777625e-02 -2.236296881566312601e-03 4.538052935229540674e-01
4.990415798912867934e-02 -1.467642186884521999e-02 5.302870511677153509e-01
9.354825592039547888e-02 4.128747136779994248e-02 4.648048522361916679e-01
9.664338072610836883e-02 4.448275286357671054e-02 4.694061081563885574e-01
8.741414480927080233e-02 5.495346284856813396e-02 4.840294899054780609e-01
2.726949663847538438e-02 5.569000082280544522e-02 4.491513409065533979e-01
5.410565356805596693e-02 5.516636122783279313e-03 4.537150498078685312e-01
1.622115621021896076e-02 2.139905258237015384e-02 4.441805914729752836e-01
7.518076157618172606e-02 3.105404162336987059e-02 5.198815436231155607e-01
-1.599443123820913984e-02 2.065189911471016632e-02 4.444271979789521376e-01
8.087972387277914121e-02 5.523529667836685891e-02 4.914435869740133578e-01
1.019429512650700809e-01 3.731157856827642394e-02 4.702931858945379462e-01
5.231764969476158933e-02 5.895597587530066602e-02 4.532819728188337005e-01
-2.611887469764968828e-02 3.507293213074145870e-03 4.417793219996781207e-01
2.230895986204502190e-02 5.826243918064670513e-02 4.501292901240346866e-01
5.506310316618331924e-02 -9.143302562915777212e-03 5.240615003577580033e-01
3.715306788042022079e-02 5.806216587104062743e-02 4.500605421489434765e-01
-9.362862538949155711e-03 4.430859478470946383e-02 4.469657308969381404e-01
-1.773838618801521633e-02 1.012037407589454728e-02 4.423977151931976493e-01
-2.032077234431298521e-02 1.163343237432157458e-02 4.438828348116586331e-01
6.834813670521301676e-02 5.662246601123472299e-03 5.095618280979603565e-01
-2.058935362842877898e-02 3.109644451190008568e-02 4.482196714967172091e-01
5.032891686798502545e-02 -1.310068220291124227e-02 5.294412372044858817e-01
7.774371221637665919e-02 2.651812128960071707e-02 5.159018039107649001e-01
8.019711308138305350e-02 1.908450577528302688e-02 5.071313721626516946e-01
3.054026214561890440e-02 2.368054989891119240e-03 4.435424283688157443e-01
8.975551322047110869e-02 2.317608023821774929e-02 4.826664902209503727e-01
-2.403919885987379143e-02 7.036128376120488054e-03 4.428884184822909909e-01
-1.066025426931166593e-02 3.874088148907703366e-02 4.464909657316925018e-01
-1.678836444712379292e-02 2.713378865730525259e-03 4.400076063454330666e-01
7.178197657716464675e-02 -1.713612500620102005e-03 4.880374114960909782e-01
9.339772744542743088e-02 5.043095247711740226e-02 4.796588745436369261e-01
2.406483020540276310e-02 1.678707115410822681e-02 4.448138831850768082e-01
4.362682162305758782e-02 5.785472535751132878e-02 4.503312164673137774e-01
9.130627184695122578e-02 2.736751833327734709e-02 4.707200499244901248e-01
5.411199023339279685e-02 2.692785087581566969e-02 4.538218162763000829e-01
5.965162655764608829e-02 -9.428828287322815055e-03 4.638363136516421847e-01
8.888345200428573664e-03 3.433254328408957140e-02 4.446379466059256491e-01
9.259995349088973038e-02 4.465171124901900351e-02 4.889068452015210009e-01
3.888207801119130530e-02 3.544863383344867835e-02 4.495233951224484881e-01
8.919616707222295660e-02 4.107989293972758721e-02 4.937230215502453889e-01
1.596417099907281728e-02 2.829623642511789727e-03 4.408238460551066606e-01
1.003751124496714137e-01 3.448850837353401033e-02 4.798931304521589780e-01
8.706820253290559197e-02 4.556539333707733397e-02 4.957352026946101331e-01
-1.386165996804987997e-02 4.360973883634455817e-02 4.480766727529726934e-01
-7.200424802465095649e-03 3.837223645546249812e-02 4.457153428481600566e-01
8.875770754824481579e-02 5.678994794560437293e-02 4.777729458919225403e-01
1.128306633921589454e-02 4.116516138078843423e-02 4.457065636581025170e-01
1.361035837581969256e-02 4.403426386797550107e-02 4.462569295947775294e-01
5.137771448949222594e-03 -3.167714617104532698e-04 4.390771655833690668e-01
9.886636952061501893e-02 4.395721890045257985e-02 4.739106603593675748e-01
8.801156726807674024e-02 2.194731496658301056e-02 4.873916495041372143e-01
3.694978826254348425e-02 4.120520813737520160e-02 4.492789599791999211e-01
2.746047433581680353e-02 7.925541662477603513e-03 4.442032164907100955e-01
2.448375573674839434e-02 4.474826100695841746e-02 4.475016171423490396e-01
7.350392710753994585e-02 2.955159433446913515e-03 4.756766160587682091e-01
-1.519059302111311176e-02 3.442491685043591598e-02 4.467747836329814537e-01
8.116011143334869726e-02 3.428958493268469132e-02 4.641950632233446394e-01
4.664959919768998237e-02 5.062749399954651758e-02 4.503352241232808639e-01
3.889152239093110475e-02 2.677308119523128319e-02 4.492543032382156354e-01
3.379610220285825944e-02 6.091085813525033005e-02 4.507810511939610021e-01
3.821839064450179013e-02 6.731609182051154910e-03 4.467160061625744527e-01
7.828354252136708602e-02 1.819638637716169960e-02 4.662799012755170502e-01
7.469300902003636611e-02 1.859465400779441654e-02 5.159948615644097680e-01
8.107153829375969567e-02 4.150855662356328635e-02 4.616526076425474523e-01
-1.645495430613724830e-02 -1.170910530640867017e-04 4.392328651033760578e-01
7.993038946955455942e-03 2.297502540325602888e-02 4.432567061155096022e-01
3.567321080451291843e-02 -6.476683494371818228e-03 4.439756566397877191e-01
5.295533931597140587e-02 5.090739002818372994e-02 4.510176768215118370e-01
8.663914889324171587e-03 3.620669534142209600e-02 4.449108532479422173e-01
6.797415126025693755e-02 5.879822521278034453e-03 5.105191285780603661e-01
8.755748825605969010e-02 5.957057138331835894e-02 4.719454786592389151e-01
3.510874583133385268e-02 4.106725248671004580e-02 4.490067446811934482e-01
5.716469544880325299e-02 6.015629035943759195e-02 4.581615184771676286e-01
8.201262960161453952e-02 1.901248260667691772e-02 4.697206535676328176e-01
8.073508184351443906e-02 3.408828045098082071e-02 4.639707413419879578e-01
-3.533943455063073488e-03 2.647213835983988454e-03 4.394404155435740478e-01
-1.183392760276479050e-02 4.653758489882100363e-02 4.485351997939575619e-01
9.205231308853618899e-02 2.793432929244756002e-02 4.706841118362267151e-01
-3.947048678545837797e-02 -2.833451133463489677e-04 4.407225087111361073e-01
4.996496566597613542e-02 2.954984627834399136e-02 4.524274280256283531e-01
6.833783082009739496e-02 2.906978046023392381e-02 4.583276045546746946e-01
8.889608625775723139e-02 5.401610404442737379e-02 4.846830748645291065e-01
3.633687928308204640e-02 -7.247004821084523322e-04 4.452213648627840747e-01
6.720592856936459525e-02 3.605830650527508396e-02 4.568923062322620687e-01
4.095325953012590031e-02 5.414030217861200145e-02 4.496146998040635445e-01
6.789457553810306079e-02 8.732010811218660074e-03 5.146586431889415003e-01
-1.445013537471256243e-02 2.576538476749250239e-02 4.448720789174077095e-01
7.061296606450745417e-02 2.749694889678552800e-02 5.253315831015089588e-01
9.923585917264743372e-02 3.201917060480930638e-02 4.799056656768011520e-01
1.548313122566196548e-02 5.555742737413441740e-02 4.493341539879650015e-01
9.184241369393773835e-02 4.732956400929324431e-02 4.889968552087850528e-01
6.461726989149642331e-02 -8.669137241813911279e-03 4.708266552576886310e-01
-1.495070294066217637e-02 1.166107877286276170e-02 4.419452052214645765e-01
4.468765894057880050e-02 5.416904510853126631e-02 4.500164779138637883e-01
7.401235201397650398e-02 2.791966614922152673e-02 4.609084629770577868e-01
7.091342057270320909e-02 1.529996398145698662e-02 5.178327368593050872e-01
6.396942457734400289e-02 1.265800080621722404e-02 5.241774369894931507e-01
8.824061350730179332e-02 2.082738997562029459e-02 4.831749360745852262e-01
1.095601811857507477e-02 2.919932133131627680e-02 4.442113602188174082e-01
7.466750786956929953e-02 5.032668180789975562e-03 4.961640359226364150e-01
6.741104085447657823e-02 -6.597652878924093953e-03 4.745806695171422285e-01
8.877186359180354314e-02 4.810584114572141051e-02 4.921598744311243001e-01
9.905162512750528836e-02 3.067584814584313480e-02 4.738109218445982762e-01
7.235209299601942645e-02 4.010408933670209924e-02 5.111640056379072039e-01
8.279527324381688591e-02 3.936350337069178390e-02 4.633303398357612735e-01
6.447624424527065301e-02 7.163621000365266202e-03 5.184472677019952291e-01
5.456013545045082513e-02 -1.351485114736986938e-02 5.257637216458879159e-01
7.218654734807533613e-02 5.177384352137867629e-03 5.012584021220002350e-01
-2.506169266954839936e-02 1.373918286896017547e-02 4.464665236872600307e-01
7.651752859783154948e-02 5.719868726965738823e-03 4.799058070754463334e-01
6.506745565240169837e-02 -6.023704235030068709e-03 4.688814221696881446e-01
6.801870229797653267e-02 3.500290044912153509e-02 4.575539406167811740e-01
4.515704848352072170e-02 3.363069025406502377e-02 4.508424039392798788e-01
8.984126500134152760e-02 2.392186954194190640e-02 4.756020373512414579e-01
-2.226416234323027113e-02 2.534140795699321366e-02 4.477355065030541592e-01
3.174537139056547719e-02 4.668922414372346508e-02 4.484314771918597176e-01
-1.743696305858807513e-02 3.997540026924581436e-02 4.488507308425326858e-01
1.021866367971150241e-01 3.843740058092180029e-02 4.786889142550930787e-01
-2.548593998228527654e-03 7.127965097662017357e-03 4.404229510158123584e-01
7.203491644591263066e-02 5.567605946121138849e-02 4.553339444805010738e-01
-3.272262167373193864e-02 3.912440638050496654e-03 4.434736486905535569e-01
1.050589745229070920e-01 3.639808500074094566e-02 4.744576338132708848e-01
4.979212968041300119e-02 7.146350910198521686e-03 4.516216571839159477e-01
-9.626539863182646817e-03 4.302752948095766444e-02 4.468457427971485041e-01
8.765171999123967661e-02 4.651096968539039644e-02 4.604227044976177963e-01
4.147853469269959653e-02 4.341998706233523436e-02 4.499126501122504562e-01
8.727237546442812022e-02 2.221685613832259654e-02 4.897332944926039988e-01
3.353438874163230249e-02 1.355751488742195504e-02 4.464502980488173067e-01
-1.975611451735662452e-02 1.200286960396376897e-02 4.438394454301175518e-01
9.181248073466181936e-02 3.761686512629251050e-02 4.910165647785005860e-01
-1.666610663563476702e-02 4.503454412903842158e-02 4.494336677239880173e-01
6.966416179502195327e-02 3.288067516593601216e-03 4.675324473855950180e-01
1.526394884196545509e-02 3.482841555095687880e-02 4.454583626456254386e-01
-1.234584424619402862e-02 2.066142046331461909e-02 4.434531822599781514e-01
6.469810373930069691e-02 -2.459225412028807553e-03 4.655383230138795958e-01
3.489888215611301053e-02 2.395653881300780982e-02 4.480035607765524008e-01
3.410228538721794822e-02 3.758014304740939920e-02 4.488203903237820702e-01
7.965933863970109385e-02 2.340077155102813708e-02 5.121848570056366512e-01
9.392146188182512456e-02 2.730639035022717001e-02 4.800928989706322314e-01
8.056486311478634754e-02 1.270092503367846459e-02 4.961972088988783613e-01
8.811927399223135060e-02 5.205096553521001979e-02 4.903914378173603317e-01
4.769629625852912086e-02 5.597627538891378207e-02 4.503934511591638490e-01
6.694918533602485511e-02 -5.429808226758836912e-03 5.004287868200634204e-01
6.945573657260524503e-02 4.794709120302979161e-02 4.539550142347384409e-01
8.397598055656188554e-02 3.391711866858434371e-02 5.050166735103386317e-01
7.548697756129874037e-02 4.287245276637000752e-02 4.587242439860405585e-01
9.353241213851649916e-02 4.283660141637053720e-02 4.638996110140296003e-01
9.105140618418613996e-02 5.178600389016542460e-02 4.666353403595629445e-01
2.972346512261999502e-02 3.661914570624857923e-02 4.480612274644293347e-01
-1.468632518737637317e-02 3.918963109999229477e-02 4.474758458128056393e-01
9.371906415265766899e-02 4.865035585057060630e-02 4.702115515041423444e-01
8.542989243454196524e-02 2.133559834625136861e-02 4.930850546664874989e-01
6.174075033292572567e-02 -3.484456752628846323e-03 4.621465058548437366e-01
8.871809566581556616e-02 5.684564143855308505e-02 4.776394127417823432e-01
3.245755038632767292e-02 1.537284492388697049e-02 4.464643485784883237e-01
1.384030246126014690e-02 2.839098580760730794e-02 4.443751850926014879e-01
1.322623098393963664e-02 5.441882561139271129e-02 4.489105395393356845e-01
9.171432171557738697e-03 1.111541025175107750e-02 4.420533925164678024e-01
6.524280643625100795e-02 3.743493636103786132e-02 4.555055800219614537e-01
9.263910850635362348e-02 2.779305021342316079e-02 4.712010876922632652e-01
9.126114114348884976e-02 3.354301209151273888e-02 4.916278893940772554e-01
9.117484657707675133e-02 5.294105663561775310e-02 4.679570927062915442e-01
7.729527537488128930e-02 6.090725495143398463e-03 4.880802923464305776e-01
4.618327601873799260e-02 5.962719404782198390e-02 4.518972786001967390e-01
5.156120150905340455e-02 2.293632724366593406e-02 4.528899914670887483e-01
8.760617821601805744e-02 3.403590334743169382e-02 4.653917258940692969e-01
6.510195744601411649e-02 1.216511191577157591e-02 4.597319364212468229e-01
5.931365268673030600e-02 3.414623315788388805e-04 4.577077419059480401e-01
1.066795597254434867e-03 2.606329737494689214e-02 4.433307924887888718e-01
8.768732856268428300e-02 4.716862769789893772e-02 4.613021961598657850e-01
6.495088732651746466e-02 2.939160990086284175e-02 4.570588501178073915e-01
8.087596973700467151e-02 1.938766083166149762e-02 5.058814437006411424e-01
4.975767317073443753e-03 5.193983602141013373e-02 4.480754925226009266e-01
4.500594873387216144e-02 4.704752020667117562e-02 4.503306361471127173e-01
-3.786733828521463008e-02 1.817149560297472589e-03 4.421091244694234090e-01
8.039293646220858902e-02 3.699127170950157473e-02 5.098201125809856959e-01
9.246871120295671598e-02 5.281522758942677753e-02 4.731324667227840286e-01
9.144941763681439795e-02 2.798280115366192158e-02 4.702427418248291136e-01
7.069461762377096670e-02 1.767075315634656545e-03 4.706815464275143635e-01
-6.681826809408302620e-03 3.935777591332775133e-02 4.457629191392231127e-01
9.314280842640745850e-02 5.047886262902297888e-02 4.811356539549419553e-01
6.418721412993150591e-04 4.802342393714117280e-02 4.462641776977286923e-01
3.192064645505084813e-02 -6.680848635690437437e-03 4.422045569697904965e-01
8.645646274457798042e-02 5.733443754376925383e-02 4.786441449777810719e-01
8.928068811125813853e-02 5.628053228578585448e-02 4.769840516934976127e-01
8.591735980146292251e-02 5.347742288601300270e-02 4.608285176862382815e-01
8.484878463727558995e-02 3.994867246610563777e-02 4.634777429285810157e-01
3.006771374132434851e-02 2.903190106014879104e-02 4.473071467159456804e-01
-1.468899162323541834e-02 4.132745657243112880e-02 4.479184605987555079e-01
-2.004132277559018266e-02 1.716643744596281496e-02 4.454337270434305940e-01
6.063206703857748625e-02 3.531372878019332223e-02 4.545748563579337098e-01
8.895444290615925342e-02 3.627005291445043605e-02 4.955132416075706536e-01
-1.562750741094448732e-03 1.323447065377894409e-02 4.412705595423401239e-01
9.098446109484875644e-02 3.954572451039387038e-02 4.649064141693548535e-01
8.279009904685426247e-02 2.064386521984469536e-02 5.020853585393457719e-01
7.649138453914625102e-02 9.678736991662688013e-03 5.022376053939836549e-01
9.202387769131800677e-02 3.912823408853915996e-02 4.651131647461364538e-01
3.756567666593561144e-02 5.694554909587683927e-02 4.498679287298220641e-01
6.875200786322430146e-02 4.063593087692171126e-03 5.063276745228770803e-01
2.256463468151157642e-02 4.801854171688390432e-02 4.473628160879736249e-01
-8.915307883850070308e-03 1.238660774828080971e-02 4.412208100575961134e-01
5.732422948500193877e-02 2.764508374002595109e-02 4.549178935598481854e-01
9.492730515276491532e-02 3.450517644252967808e-02 4.853702855775771652e-01
4.416013697202137572e-02 3.792862450989762518e-02 4.505546430638235900e-01
-2.283902310484239861e-03 5.076447856647664514e-02 4.477660805351237339e-01
-3.191667683592321753e-02 2.233949113352113117e-03 4.425393225724792989e-01
6.311527443829564876e-02 9.571997695730992406e-03 4.588548441358696883e-01
8.830308276057695360e-02 2.170982436235530111e-02 4.786610317130149395e-01
6.767530757917571138e-02 3.902470054174995984e-02 4.566298628008256255e-01
-2.172638388681391239e-02 3.610790829126074575e-02 4.501814292161233078e-01
9.365861392073744629e-04 5.364204113335620944e-02 4.491251253559562784e-01
3.804973618526902301e-02 2.573375438034296997e-02 4.489481629190887890e-01
8.591337596462132742e-02 4.014301335236038215e-02 4.637151758007291846e-01
1.749777332973937588e-02 5.235869983943380879e-02 4.480503842480482724e-01
6.466609701883536954e-02 3.537529780725302136e-02 4.558152891608656110e-01
4.005522519795674113e-02 5.428481213086290558e-02 4.495538050694100063e-01
