-5.078245997577693523e-03 3.340684742707107635e-02 4.450196210329767643e-01
-2.753277040911888615e-02 1.300480664228741493e-02 4.480172773654124141e-01
5.031366779425878316e-02 3.486781126218566756e-02 4.524424232582190952e-01
7.076559066454914115e-02 3.562213432894682785e-02 5.182485906909878315e-01
6.269120552194552831e-02 3.545319658620331438e-02 4.556485785879171302e-01
2.661688954858435971e-02 8.524471636848553538e-03 4.443737840710761389e-01
6.361452828805655435e-02 1.265406082150615473e-02 4.591298030525348683e-01
-3.645860115368648995e-03 9.375451027751169342e-03 4.407332510134939207e-01
8.707338992506283293e-02 2.465478796231251185e-02 4.958600784556954078e-01
5.746390224126617791e-02 3.136889262993816652e-02 4.549233612230479395e-01
7.786768243650291077e-02 4.478122631478995835e-02 4.585801637882887527e-01
6.433712865686429250e-02 2.522787989865701852e-02 4.578729009727218191e-01
6.138951209432769174e-02 5.094185650647596597e-02 4.525739861660272312e-01
1.775764233921675421e-03 9.323935651283110117e-04 4.393285043350785291e-01
6.314141202161649424e-02 4.596560037030856388e-02 4.536546851204898423e-01
8.489727536320361423e-02 1.933467736688086747e-02 4.947839964847205452e-01
7.368376360632683530e-02 7.738780965643662912e-03 4.689308137125478559e-01
1.075086385226264873e-02 1.269323268176841130e-02 4.426029419780780905e-01
1.892606793936877849e-02 4.880436685061600305e-02 4.473722753835441268e-01
1.048362808817538960e-01 3.519931002486750837e-02 4.744320331208551900e-01
1.051126845436280849e-01 3.519117985814566862e-02 4.785738571878664915e-01
2.650478970431255354e-02 6.181868806628675050e-02 4.536153312638195878e-01
-3.670208621668868965e-02 7.019763549649176912e-04 4.414619230570511754e-01
-3.949165435266490526e-03 1.232421853431617427e-02 4.411044361377985390e-01
8.007309111918094191e-02 3.747672313459745469e-02 5.109027963094581182e-01
-5.571063805689923862e-03 4.339086110065003277e-02 4.462768963612562811e-01
8.534239329659522311e-02 2.644676690253309342e-02 5.018306186866301477e-01
2.345900872501936046e-02 4.163618551841256205e-02 4.475561358369845033e-01
8.587939158302805576e-02 5.764213058827732244e-02 4.656038164289230674e-01
6.997335858325921809e-02 8.072416117119578585e-03 5.122223240643954956e-01
9.441047606884769849e-02 4.501242298777732159e-02 4.671088039397670588e-01
-6.195648852862130525e-03 2.377207830567987928e-02 4.433709852892508407e-01
2.533538990188458767e-02 1.834150488301143286e-02 4.454655089760362618e-01
3.136957325288787513e-02 3.307908873032174707e-02 4.482724189320793085e-01
6.957431390152354900e-02 2.846098974835274600e-03 4.675702229112959074e-01
8.555425516031263042e-03 5.251397445119598134e-02 4.483375737059292487e-01
7.277413702098176063e-02 5.486298505700649281e-02 4.559547414112933295e-01
4.169324730168017662e-02 1.056924694257302573e-02 4.484225964297806066e-01
7.081438673428576414e-02 1.880588549640037355e-02 4.621759028940814473e-01
8.754027866272909297e-02 6.066375914881778214e-02 4.723236230964464877e-01
5.604895158670853555e-02 5.611764575908236886e-03 4.549392961362260790e-01
-3.434314562692315428e-03 2.832830115991814401e-03 4.396038192045894077e-01
-5.338881534515050242e-04 5.271446181814133658e-02 4.487548168074197985e-01
7.615009814164142021e-02 5.615004129021510318e-03 4.963993782186613690e-01
7.940661868080031716e-02 3.951264288962381965e-02 4.630288024547984937e-01
2.906157416160000395e-02 1.176363304646080125e-02 4.453762382038871648e-01
6.633067351243961129e-02 6.052874063004520105e-02 4.588607843922973828e-01
-2.636191114096269120e-02 1.227919932662737031e-03 4.408743424247395515e-01
5.866884178711660736e-02 -6.663142104705747915e-03 5.192379628740153574e-01
3.951606536947437076e-02 8.454082926562835054e-03 4.474916176765187936e-01
1.120938044292466712e-02 8.732664511943209404e-03 4.419813803775843319e-01
6.427041525012419654e-02 6.056176302478557399e-02 4.593040665205347373e-01
1.855709872841798669e-02 1.474671927742246362e-02 4.439108027705939707e-01
8.796560665118073608e-02 5.992065023635095161e-02 4.735960861394123977e-01
4.662988404197495468e-02 -3.655826473265322372e-03 4.503473466925776991e-01
-3.749786698516589800e-02 3.573090595362597016e-03 4.458124873925977116e-01
7.842267190068341609e-02 3.913344376650881168e-02 5.104746776254275309e-01
8.471322749931019247e-02 1.431924057560020856e-02 4.830488349534745041e-01
2.070817200128280064e-02 2.594738671321078494e-02 4.453781561718849757e-01
2.911150089784452291e-02 3.438193688624135991e-03 4.436719904676675874e-01
7.662772324317973505e-02 4.884983618536710426e-03 4.909597507183592890e-01
3.978489410388900971e-02 6.338231287876409936e-02 4.548463892113538409e-01
2.273199709150364178e-02 5.587925092196781990e-02 4.493750381917490100e-01
8.778315961164695480e-02 5.131880662786608704e-02 4.938127423925993131e-01
8.290540636499416083e-02 2.207216442406036150e-02 4.686509691754879858e-01
6.722095660687812599e-03 5.612908083389480524e-02 4.517607620340798880e-01
3.192739505978369613e-02 -7.444586169287823775e-03 4.421898367006794062e-01
9.910215128574323407e-02 4.229410715908415996e-02 4.699718366921633583e-01
-1.948228719404162743e-02 2.334298101103490005e-03 4.402217510000833722e-01
6.904915031212868759e-02 5.920016037481724488e-03 5.106307576648370095e-01
8.087819436738678813e-02 1.760578898208846332e-02 5.064969297519626990e-01
9.360397911475003274e-02 2.939732966205794301e-02 4.884379256255392265e-01
8.640160460367836415e-02 4.881629057627490109e-02 4.967394339547407944e-01
3.364360781444361570e-02 4.591139403704306426e-02 4.489932662497574944e-01
1.064337963190489268e-02 4.259146245248674606e-02 4.460001215922810291e-01
-4.561156756867522019e-03 3.483929171036698191e-02 4.451138846150409778e-01
6.722032816876775951e-02 -6.242279548306466953e-03 5.005623184782231894e-01
6.803047574346425541e-02 4.646924596719850115e-02 4.545259906379864878e-01
1.008938546823158061e-01 4.132233960133387118e-02 4.716158847816929733e-01
3.321108756813928586e-02 2.062321281684091970e-02 4.475455169618472451e-01
8.591693706199191038e-02 3.171719143571295751e-02 5.035808847566450863e-01
6.293036771120286144e-02 1.449931937956190804e-03 4.604090360079358124e-01
8.551655299560442791e-02 1.939092060283153368e-02 4.731485691898239532e-01
9.017931278106867954e-02 3.559311921858877847e-02 4.954105237610407775e-01
4.542624222166964654e-02 -3.752992731041638816e-03 4.496806644559873112e-01
5.605056537435823549e-02 -1.059121956664598081e-02 5.237498113432733637e-01
9.197162351561719018e-02 4.133083420247850998e-02 4.653164677289190476e-01
2.536346038447916812e-02 1.112830443927208257e-02 4.446204944421049965e-01
8.087577656208684573e-02 4.429859293189740421e-02 5.049493186621478724e-01
1.625452171006524366e-02 8.760528605756748646e-03 4.426483601562739012e-01
9.056903294423615525e-02 5.544865871478893427e-02 4.743246074604404727e-01
3.897679962451335023e-02 5.697823897790981612e-02 4.503627941543828506e-01
8.298974854455716532e-02 2.682388132266027084e-02 5.086644248104824628e-01
8.037705114863433198e-02 5.488206363621457584e-02 4.928122096426407195e-01
4.433144100600640986e-02 6.185584460739591839e-02 4.535404169049367384e-01
2.477809316509057766e-02 6.893400977963412123e-04 4.419219891402025868e-01
7.094091650042999575e-02 2.678270149080282103e-02 4.601699367909702909e-01
8.330480995822586721e-02 5.477116456765929176e-02 4.909262833800214776e-01
1.139689587824887704e-02 2.590111810702128495e-02 4.440387131437448787e-01
9.390872154754234362e-04 -2.263940835220737500e-03 4.384141772308317031e-01
7.000050931063016291e-02 -6.506042330201600513e-03 4.851166340060767412e-01
-2.339461816169946182e-02 1.573707084432166697e-03 4.404105034603011948e-01
7.026768282702845758e-02 5.007870569968188995e-02 4.544679580934245511e-01
6.126070110839743760e-02 8.067270616513882997e-03 4.580020890190065752e-01
4.005987140604046898e-02 6.261809441200945348e-02 4.530660614339274694e-01
4.266940932461497221e-03 1.979908998876634546e-02 4.427445788401366822e-01
8.511283293222313140e-02 3.777145483144694893e-02 4.661197505537649222e-01
8.124749498701958061e-02 1.777875157048893276e-02 5.057791940373033146e-01
7.925951349354191933e-02 3.384111872705024976e-02 5.146115179774926052e-01
6.165967737655805164e-02 3.449580376580588595e-03 5.209602921973813805e-01
8.387790497177914639e-02 1.741550652605040189e-02 4.960231903407034681e-01
8.593782269427537035e-02 4.175665577397005834e-02 5.009188172538380224e-01
8.890012329954900816e-02 2.199620147401602777e-02 4.762120356114312725e-01
4.828306134320610454e-02 4.496579389751546862e-02 4.512614840506519731e-01
7.073890825255102488e-02 3.386695451492526682e-02 4.597195927913515501e-01
6.818787693649581982e-02 -2.953994172049951260e-03 4.998576812417316884e-01
7.014383696855929634e-03 1.334712804473714085e-02 4.422348748178858147e-01
3.761208766395782166e-02 2.148057044395029411e-03 4.462976161081981252e-01
8.915580264347897077e-02 2.407311436238456989e-02 4.906870688815362924e-01
9.980778739390984422e-02 3.481049664487834150e-02 4.827492510876431053e-01
8.581663588467872139e-02 1.919056713161365613e-02 4.737684393827670815e-01
4.358046921435700105e-02 5.821587936259290524e-02 4.508749768969019800e-01
7.468639973432221468e-02 1.912321238381991390e-02 4.642563413103353298e-01
1.626273422971685149e-04 8.447449200259285820e-03 4.408144526820121367e-01
9.127872196878486499e-02 5.433895481662588678e-02 4.797947944601993475e-01
3.519864892702178477e-02 3.336952771864606232e-02 4.489669088594330781e-01
6.185244356239374269e-02 6.496973969007887456e-03 4.585934203701578227e-01
2.289814769665329819e-02 1.046582338553594949e-02 4.440785494487817786e-01
8.548906310692968094e-03 5.083848145881580960e-02 4.474987595019567221e-01
6.449226542276242924e-02 8.458530181468562961e-03 5.216168465293976597e-01
-9.248066716960625516e-03 2.611641405082595901e-02 4.442481425833992859e-01
3.762336865899674337e-02 1.979799317674310437e-05 4.460642423310678395e-01
-2.502194127172715186e-03 1.023072337806251245e-02 4.409042299963621958e-01
8.495580382786784013e-03 2.466128743110165833e-02 4.436503581536844765e-01
6.552784417137545725e-02 -6.665898122375083987e-03 4.700290553594482224e-01
8.934580886772060249e-02 5.664787478624544459e-02 4.779914502774750273e-01
7.765668904882741530e-02 3.968784032757369934e-02 5.103162746799003724e-01
9.454045035831237787e-02 4.417006687067676768e-02 4.658337159348441281e-01
3.548000465568379447e-02 5.026932299667311727e-02 4.494278284041005600e-01
1.884710154859611407e-03 1.655185223713342632e-02 4.421227629615646637e-01
8.023656217528288281e-02 3.965352070960966036e-02 5.084607387783307564e-01
6.541752827673687209e-02 -4.437806438303418602e-04 4.647505338366775263e-01
8.826765867328982551e-02 4.588109280988578176e-02 4.958074786597851946e-01
4.759889091705416658e-02 5.343051684488808739e-02 4.507722314561707910e-01
1.424277213831345520e-02 8.717120151389838242e-03 4.423773200532423733e-01
8.381548661942223033e-02 1.352936090502518396e-02 4.870527955410876575e-01
9.445223277418826613e-02 2.751560162431831991e-02 4.728000837089530450e-01
5.992212185931031221e-02 2.966283000601407580e-02 4.560134385115851563e-01
3.261984840487958115e-02 1.691834679581764866e-02 4.469115520900462379e-01
6.927282461769403155e-02 3.352166123399934194e-02 5.232476560364157647e-01
4.621828218517777531e-02 3.999261415642732520e-02 4.511060561794842383e-01
4.600397733677613621e-02 4.891970554580623437e-02 4.507848071332460349e-01
8.209294882477691235e-02 5.525383703282505526e-02 4.902731064472635736e-01
8.397832006375478830e-02 3.405646194434255869e-02 5.069873614102305970e-01
7.410386732225542061e-02 6.590104997308378516e-03 4.704289086364044636e-01
5.068872351287823791e-03 4.988837565285979964e-02 4.471239665705826205e-01
1.888161022120533189e-02 3.362796282396681574e-02 4.459950404758770137e-01
5.589964224964984879e-02 2.173665751974395051e-03 4.553603523207021553e-01
-4.518161303126823694e-03 3.351259534520817374e-02 4.449885213797791783e-01
6.700758808752176054e-02 7.887094352902237690e-03 5.169704022115075848e-01
1.036878365759467402e-01 3.784119174338047148e-02 4.715777171658899203e-01
7.841211201477557569e-02 2.239266282112311462e-02 5.151655883918233592e-01
-1.721889361464006181e-03 1.047859071309909310e-02 4.409984537024096984e-01
-1.672579310606913880e-02 2.463011800546912808e-02 4.454835967340902148e-01
9.770156496266430013e-02 2.940992543803255810e-02 4.734325867509271424e-01
8.188051012277802743e-02 4.098581095546098563e-02 5.058080058741586393e-01
5.779177754180067628e-02 1.754565090785055806e-02 4.558709333830038291e-01
1.002817951416435233e-01 4.193189335811041418e-02 4.823833895144125083e-01
1.364760629359537160e-04 2.104460740961072718e-04 4.390400211930367003e-01
9.455051591324212246e-02 2.784715747164453331e-02 4.853763509759245198e-01
-2.398242089464943869e-02 1.653018029388998375e-02 4.473067173696356758e-01
-3.732130005013888779e-02 -8.149660408107023413e-04 4.402651920401145502e-01
6.542107956350534659e-02 1.289527494617414248e-02 4.601568293209322702e-01
9.483397275137839255e-02 4.713359891686501324e-02 4.862487382977032091e-01
-1.459768774194319420e-02 3.459609694367429128e-02 4.468113258766993057e-01
6.710544989156251583e-02 1.742344454882761504e-02 4.603911745740019712e-01
8.356395788505681377e-02 4.641117824959273275e-02 5.010524346941814811e-01
7.285375780476097130e-02 -8.416551380304461948e-04 4.830172198884361001e-01
8.367796355811052411e-02 4.405778268286482391e-02 4.615756772324077217e-01
-1.782581278763484614e-02 2.595282009469692536e-02 4.460222296418623333e-01
2.953884785199164045e-02 5.626053302124223859e-02 4.495334587911458679e-01
-1.897799085654673645e-02 4.100144842640055659e-02 4.500803520729794172e-01
8.988110411062902316e-02 2.993906634875571904e-02 4.945998830522121970e-01
7.257464688568419919e-02 9.391283910551608341e-03 5.099660255001889908e-01
7.398153496054130085e-02 1.441436917699101972e-03 4.803545379259431813e-01
8.976443005034820399e-02 5.514766756171229911e-02 4.809271511253242481e-01
6.519333287742015703e-02 -6.692977335381986199e-03 5.053683285963115335e-01
-1.282729514522081352e-02 3.125115563415890862e-02 4.456679628917074032e-01
8.573134056586168006e-02 5.591854185663783922e-02 4.825373313063439085e-01
7.082624473477835969e-02 2.057097109719347242e-03 5.005499051188621040e-01
2.895422536039606032e-02 5.084775854985363469e-02 4.485334530547110954e-01
7.677728138090864074e-02 1.839438579631119675e-02 5.145020224059391190e-01
6.849188747415578538e-02 -2.141699755634797302e-03 4.707190715653713498e-01
7.807953300542969099e-02 3.958705092343152432e-02 5.102055347042608879e-01
-5.376592305852712431e-03 2.768391525641114223e-03 4.395428598361856287e-01
-2.919105245889908051e-02 9.528741339272362235e-03 4.477396021521931058e-01
-1.849630888931508288e-02 3.329161048221613434e-02 4.480168465434039016e-01
8.488185257303190734e-02 5.134389767309868041e-02 4.960052111750552495e-01
5.849956543988284186e-02 -5.718909130260647206e-03 4.592233750858563668e-01
8.333007708859599405e-02 1.547610228260892264e-02 4.950598765611565755e-01
1.574856068073663545e-02 5.510073580876145155e-02 4.493666905104040099e-01
3.154443444008547121e-02 3.146866545593941106e-02 4.481339918917029985e-01
-2.169898973162753125e-02 3.135215069498670931e-02 4.490719886620710422e-01
2.705365700233324650e-02 5.939342144185062343e-04 4.424185296107979171e-01
8.514357358433961853e-02 1.821975822824475899e-02 4.738831285607082999e-01
4.230476635743463457e-03 2.990190110343175084e-02 4.440474328670144244e-01
8.492409401164130456e-02 1.585736040482025461e-02 4.895715553299205269e-01
-3.369799612629185374e-03 1.544719619078236197e-02 4.415734667189908369e-01
7.089721692866102210e-02 3.412016478639771228e-02 4.597787421111313444e-01
8.976163671098845442e-02 4.222088638488383228e-02 4.946218142655614547e-01
-8.693711998614763597e-03 1.620725230763790659e-02 4.421248815134452004e-01
4.686745561891190320e-02 2.779419054709655543e-02 4.519715683196070533e-01
7.948372118004516651e-02 1.263050028579039072e-02 5.023116541240043587e-01
-1.550606005831206774e-03 2.108380362276566361e-02 4.426840263781982032e-01
9.471921708821806271e-03 5.493291179586722028e-02 4.494905981510208814e-01
-1.232208186827134754e-04 4.087467798313353801e-02 4.454807820785008365e-01
4.282478322181106772e-02 2.734570454820943117e-02 4.507073276907120896e-01
2.349951293955340054e-02 -3.446214024831013942e-03 4.407478684733484586e-01
1.042590738472305156e-01 4.023518137481133655e-02 4.779691219291074544e-01
7.314737989444780597e-02 2.016372736245149264e-03 4.748416269936178713e-01
-4.283287328409529811e-03 5.758589478641622586e-03 4.402889032217979226e-01
5.946534076956735970e-02 4.203998580710054285e-03 4.572059736748254055e-01
7.902439227184447634e-02 5.587048559695569072e-02 4.587950297621649631e-01
7.871178366597612885e-02 3.434919208834415205e-02 5.147862917018372064e-01
8.016002145699129000e-02 1.541392682179681083e-02 4.702092434519720143e-01
-2.340003717276422507e-03 5.346740404169216324e-03 4.402457850110321758e-01
4.909769577572581367e-02 3.690861031840180634e-02 4.519520436737310409e-01
-1.697434274968054237e-03 4.054771116864990671e-02 4.454976594402964563e-01
5.464372462902674504e-02 3.713395835585159288e-02 4.531761125833490556e-01
2.511342032986533038e-02 -3.476389583526688642e-03 4.410801106279173545e-01
1.101411636696441286e-03 5.333652138941057802e-03 4.404512216355946919e-01
4.767728425147568783e-02 -3.616179698895489840e-03 4.510462005648928629e-01
8.505582626366040011e-02 1.969741617514443252e-02 4.724249044651445684e-01
6.317068524308236399e-02 3.409311298356644537e-02 4.561557721807492083e-01
9.104880224425664081e-02 3.473184159865042725e-02 4.942772725896907859e-01
9.278551303552226570e-02 5.298719718985921145e-02 4.767396556190117707e-01
6.463052278961425867e-02 7.364702312557111150e-03 5.202238384006784289e-01
8.800582848812721348e-02 2.887744155370889493e-02 4.976087612957350026e-01
7.804369904975684558e-02 5.619332412396353671e-02 4.905729475871509204e-01
8.603722354132477268e-02 4.060403902730879561e-02 5.013627705607118790e-01
-1.246613499220939475e-02 3.222991217436834734e-03 4.398920010253775659e-01
7.433189244100454895e-02 3.055049500249992778e-02 4.612410143395151985e-01
1.804756821292394231e-02 1.528277130612805748e-02 4.439083268933632365e-01
8.821132707151294050e-02 1.999007975052454963e-02 4.866344993902631533e-01
2.995228742351261492e-02 5.307023543275629640e-02 4.489275891956145959e-01
7.421809426936123999e-02 2.584411501368507041e-03 4.936995730419966311e-01
9.635210447927168576e-02 2.790500004999783845e-02 4.821163003352488818e-01
1.646096547583115327e-02 5.917366619877787587e-02 4.533885524602419004e-01
7.106917085038325088e-02 1.093544110750589195e-02 4.640967521606563784e-01
8.969187469339010010e-02 5.625911947520331052e-02 4.721351263316490576e-01
4.382193649643385813e-02 4.698194456164811461e-02 4.505642343291021423e-01
1.904479162121117813e-02 5.306893977396075213e-02 4.485958736526698409e-01
1.618551933494404363e-02 1.202120019942494629e-02 4.432140930880635876e-01
6.612865242703360770e-03 5.417176987403614363e-02 4.492727425480308456e-01
9.324196316102802140e-02 3.796322982305681826e-02 4.912170648590530320e-01
6.961075918369705184e-02 3.633445539529518015e-02 4.585998006603961286e-01
2.663213816469818182e-02 1.582644144382795237e-03 4.426265736793209560e-01
3.437202114132765357e-02 5.175380386265190230e-02 4.493715886195609466e-01
8.047090207127056971e-02 3.349070615479689955e-02 5.129334602527630960e-01
9.447860456617165892e-02 3.694321859293194649e-02 4.897644607670816885e-01
3.965639667630004722e-02 3.371793097591680582e-02 4.499715839361178027e-01
6.625132514399269257e-02 1.467949883362676400e-02 5.246305795679188089e-01
5.373659332408718681e-02 2.535119643512288162e-02 4.541105223703773008e-01
5.462519017244826108e-04 2.346327499951467166e-02 4.430392314753540672e-01
8.926017978508957174e-02 4.307572928497245546e-02 4.949519728102170779e-01
-2.007392169435153612e-04 1.528313924054513183e-02 4.417770208732290094e-01
7.484351636267526364e-02 4.360000632303691337e-02 4.584137895338994961e-01
7.214970899450644237e-02 2.261672521150690299e-02 5.231795537447780919e-01
4.925859250941180129e-02 1.517641720945166715e-02 4.520543691502088568e-01
3.247870163949652389e-02 -6.633098525063197380e-03 4.425681484573366076e-01
3.541611932630137072e-02 1.529543286693567719e-02 4.474923589764984722e-01
1.807113156318582159e-03 3.113522601704750078e-02 4.442573381038479874e-01
2.589247299528095458e-02 6.189426711231510447e-02 4.538080704258763975e-01
-7.371286371821887846e-03 -7.154777629681237459e-04 4.385296021690187063e-01
1.058787964303585169e-02 5.706919335713210584e-02 4.533549008869554586e-01
7.540726889343278908e-03 2.740436499682870342e-02 4.438711581700018338e-01
4.233162527596193159e-02 1.175160266381039022e-02 4.488808800046456549e-01
6.990527743158676810e-03 1.074115943420408774e-02 4.418680316184688817e-01
4.972870299111407932e-02 3.589596005344522500e-02 4.521593684373853006e-01
1.717319401873899573e-02 2.287012712960248551e-02 4.446359960831111624e-01
-1.493002442008936614e-02 3.445249039678913855e-02 4.468426899002057584e-01
5.166235298289464928e-02 3.007746790930862849e-02 4.533451974721247058e-01
9.287909674808142446e-02 2.884466059826271828e-02 4.895332600900690334e-01
1.013349788218186193e-01 3.531494535802603973e-02 4.817957500987558594e-01
3.101585578647043928e-02 3.103317393641753449e-02 4.479721747983048119e-01
2.117855340548364940e-02 4.059409534245696921e-02 4.471778236547858110e-01
9.412876174637792304e-02 3.909480189464254601e-02 4.664946014382067574e-01
8.702277155289213362e-03 4.885049862754682615e-02 4.467525108298947001e-01
-3.325595207919925401e-03 1.563296868130832629e-02 4.416117298936289570e-01
7.320399678339616079e-02 5.867292634070659513e-02 4.598090395587502988e-01
5.197426342044438041e-02 4.231662517831985548e-02 4.518833548930554223e-01
7.548767391677251026e-02 2.853357144585256730e-02 4.618961991206194662e-01
7.380755072724101695e-02 4.350526335421984851e-03 4.987355847780584606e-01
9.585559425218372065e-02 4.297033890131082140e-02 4.656997395581117805e-01
7.833332894340265529e-02 2.308649218623235605e-02 4.654744191083143856e-01
5.475624057386625776e-02 2.408297959615293693e-02 4.544220655392661734e-01
9.914436171593198066e-02 3.070873075505902924e-02 4.731497401293021099e-01
2.231692600843099283e-02 4.037999882186454892e-02 4.473205346956264372e-01
7.620145068382039311e-02 2.200379431844281045e-02 5.181163988178528745e-01
8.462377985546501447e-02 2.994592614097390040e-02 5.059931844436342807e-01
7.486049283997558978e-02 3.284390022435539416e-03 4.931109013560050491e-01
5.154383294138439181e-02 -8.932155024321744921e-03 5.273558138827048047e-01
8.785947603815533191e-02 2.061774401398647552e-02 4.893149850028529202e-01
-1.394794797586694848e-02 4.655708423107648986e-02 4.496235695626623063e-01
6.952938285846431421e-02 5.805996439598795633e-02 4.556296880760060675e-01
7.630520437162945091e-02 3.540090648515347577e-02 5.154375285673953311e-01
9.329198291678740540e-02 4.188630504153717515e-02 4.906016423471326049e-01
7.616830470663599195e-02 1.138045795363082542e-02 4.691342978333105651e-01
3.678975573133399374e-02 2.917751153039579298e-02 4.491849727159454297e-01
2.779488544602455591e-02 3.970390006628296553e-02 4.482191831559950157e-01
7.940511466450439482e-02 4.985068968363100261e-02 4.575413841249332814e-01
5.726924563525134793e-02 5.973815866658358648e-02 4.584211002083179443e-01
6.406938145051255251e-02 -3.213506260476441286e-03 4.650708725130854315e-01
7.353950718957005805e-02 8.055303621595691355e-03 4.684819501499725702e-01
3.204480086339040606e-02 6.534085138383145808e-02 4.552521166100261807e-01
9.489511792389521139e-03 5.207927649405400677e-02 4.480684099214031213e-01
7.159615554140486005e-02 3.619809309335365877e-02 5.168163615381644593e-01
7.314434129140741370e-02 5.917584522536177560e-02 4.611971765170304050e-01
-7.011333103684081955e-03 1.864021551377036817e-02 4.424273693927786022e-01
8.981829815321901167e-02 2.259907878572751591e-02 4.869730416014919627e-01
-1.158090178548109445e-02 2.494135630948435267e-02 4.443960754090438559e-01
1.997168167377560716e-03 1.682019933212925561e-02 4.421676618664534542e-01
8.674307949035207910e-02 3.951432180368825986e-02 5.004703614612915352e-01
1.310233091235496299e-02 5.218254784160225590e-02 4.480648614075144476e-01
9.090960241965939659e-02 4.403145093803146476e-02 4.633136818290544134e-01
8.120677349372106002e-02 2.172831412879727350e-02 4.671861599935789866e-01
6.492901973807094218e-02 4.633611602628188303e-02 4.539363097002074854e-01
4.394595512656489927e-02 6.245766046444633374e-02 4.551742594819388477e-01
6.900767254325772260e-02 -6.649863040734317610e-03 4.945468222964071736e-01
4.292566205525201462e-02 3.147464560883078688e-02 4.507478224320435323e-01
6.244360434112118663e-02 5.964399170337154887e-02 4.583203598616490959e-01
7.135576837247513404e-02 4.134255336256439928e-02 4.577697765669541674e-01
-4.350767990552138753e-03 9.122493752713844994e-03 4.406795507494871700e-01
8.265741993079062100e-02 1.255691315728138004e-02 4.902675442512218762e-01
8.499834121464910908e-02 1.476539339909213426e-02 4.838774702409948114e-01
6.965325130199645498e-02 1.095597290664399384e-02 4.632128131086877265e-01
6.949451998208408532e-02 5.984236242658123178e-02 4.585339750458710117e-01
5.971403494227735254e-02 1.266112766692215064e-02 4.570033849441660356e-01
-1.573816215550736045e-02 1.583379425791343192e-02 4.436291972535507111e-01
1.558041541403009864e-02 3.295934727570363348e-02 4.454407512327861474e-01
-7.037277139253572851e-03 3.180159256722240452e-02 4.449634018270787750e-01
5.253776444408689988e-02 6.089864784437701989e-02 4.594877511239356949e-01
6.857129856947821733e-02 2.057324935603340940e-02 5.261249804795452567e-01
1.857729085957394305e-02 -8.638453752672118572e-04 4.404459042954035897e-01
6.819383116941236944e-02 -4.726991988319435671e-03 4.729112968195917643e-01
6.389049758525806866e-02 2.209109515358165243e-02 4.580044444162136852e-01
7.302447771173121993e-02 1.800873984540414183e-02 5.195750173598745469e-01
5.893189877809563992e-02 3.208080686853227032e-02 4.552661837065738459e-01
7.537027554702030452e-02 1.201264281538863034e-02 4.676243247782589929e-01
7.466581373618147444e-02 1.238757735909678213e-02 5.110034874552865647e-01
6.708652799982046944e-02 -5.962548546987037068e-03 4.721185283181992265e-01
7.385463076255088799e-02 2.017653758426735371e-03 4.776748176268341139e-01
6.040208336311700399e-02 -3.726037593980097932e-03 5.165525801710456610e-01
-1.855879946543279035e-02 4.241127275462953233e-02 4.501396155199222648e-01
1.712442277044902775e-02 5.434602956131173029e-02 4.490843111850525982e-01
7.980739535581805877e-02 1.151869078846516799e-02 4.990936726247073851e-01
4.147684016981773719e-02 4.117439189099618424e-02 4.503330260080337100e-01
7.355003765115106229e-02 5.742858467330140548e-02 4.567274106298755965e-01
6.330840886904195997e-02 5.589826312670546568e-03 5.203147498163112061e-01
-4.590799444687921477e-02 -8.372703997254551944e-04 4.445832043634717623e-01
9.625029997559271522e-02 3.548311261784416193e-02 4.673993550462584023e-01
4.631595718691620955e-02 -9.102481445803294394e-03 5.313023150710945997e-01
1.056923980753482623e-01 3.513519503831726010e-02 4.774396323056744329e-01
-2.105605402646570576e-02 1.566825155933798848e-03 4.401897655671953569e-01
8.075142803157420168e-02 4.632516952538044686e-02 4.587843395820186965e-01
3.268523841528431229e-02 7.013387413134602316e-03 4.452998744850547030e-01
8.186462848367095924e-02 4.740295860466173239e-02 5.014881538868429800e-01
5.364403787523384926e-02 -1.113429660044005023e-02 5.262212121784022312e-01
8.993005237046751421e-02 3.161965984216548453e-02 4.670669694233750002e-01
1.383782577115084955e-02 5.097714522369802687e-02 4.475474396001414279e-01
8.470673097667616447e-02 2.220284873413544760e-02 5.002479237625080399e-01
7.791201323945490254e-02 6.411962922307816275e-03 4.817002057195763354e-01
3.830755218294008835e-02 5.058803828261833335e-02 4.496681691056648167e-01
7.282307661559474232e-02 3.575059792502070701e-03 4.989242922316778905e-01
7.233367756131149628e-02 2.666551905466268274e-02 5.248117883580575294e-01
9.610681826625039337e-02 4.393593338751754229e-02 4.678991661020022730e-01
4.093765395553700115e-02 1.908225291819752936e-02 4.494932949392342891e-01
8.290284831900847362e-02 3.227154303042895078e-02 4.655820531268882179e-01
-6.036767262523615868e-03 4.367052627083173322e-02 4.464037572000397192e-01
6.750684759901176557e-02 -1.254769179597027551e-03 5.031057325203117658e-01
8.171655754761876500e-02 2.012524649791693279e-02 5.071826767091919264e-01
7.784532601709678867e-02 1.743260010283142342e-02 5.121610937515993500e-01
6.848698064635992677e-02 -6.064682811603726992e-03 4.967459424552996272e-01
7.366463922962185329e-02 1.572814674289557332e-02 5.163656381084209546e-01
6.454459726544529985e-02 1.159100984842508690e-03 5.124984814816789802e-01
8.205132267593855111e-02 4.743317655716619563e-02 5.012748690012149844e-01
-4.188767161334464029e-02 2.620814688502231746e-03 4.426651106083924758e-01
8.014824638089448894e-02 4.939117511009468581e-02 5.003590999326125166e-01
2.579008926937428892e-02 4.987931893372268138e-02 4.481449029658425842e-01
7.064504142205633649e-03 1.830325154442024801e-02 4.427888063902668536e-01
-1.963361006528105412e-02 2.233904139103490977e-02 4.463479806109253989e-01
4.862093448537388451e-02 5.410483525746122985e-02 4.509006567410384081e-01
5.169738215393174241e-02 6.025145171020864637e-02 4.566207713411042368e-01
9.976583938371270943e-02 4.374436670907497215e-02 4.791366422123110036e-01
7.254040472838407805e-02 4.936202128694285735e-02 4.551842829760813780e-01
8.583690757062252888e-03 1.021628405422277640e-02 4.419915994797976033e-01
3.555499580908414586e-02 2.631692734339675932e-02 4.486080667112770093e-01
1.860685306941653461e-02 -1.636733205948145932e-03 4.402686875990406978e-01
3.475190136905093041e-02 5.976501642007177317e-02 4.504866843078725314e-01
8.042060256802094353e-02 1.664073609296647452e-02 4.696068945272960926e-01
1.830921128912442464e-02 3.565508841500401177e-02 4.461439998237128335e-01
4.704329046113563811e-02 6.107682886180445386e-02 4.537764460225129914e-01
9.141282817101611946e-02 4.568139184295183508e-02 4.919165334300667491e-01
-1.186390799143306231e-02 3.965906718080666055e-02 4.470004626419366023e-01
6.091890674116072490e-02 8.335798286202384874e-04 4.588437278076665793e-01
8.398123406333193874e-02 3.274601312740640230e-02 4.660637157854945478e-01
2.329019194605704002e-02 1.055971250185898380e-02 4.441627843023436273e-01
-9.715575423822869761e-03 4.540913316777255709e-02 4.473387041916055407e-01
3.271513776111675820e-02 7.705669175061153134e-03 4.454760577314216818e-01
8.699392696538686687e-02 1.817714168575331607e-02 4.871833937349616117e-01
1.613861812606910001e-02 5.712772506808703327e-02 4.502371968331971286e-01
8.453836473518754058e-02 1.402163783125244881e-02 4.816731978067517184e-01
9.009531741699378093e-02 4.743772276638265339e-02 4.638198814180162222e-01
2.621399692885810484e-02 9.228231387282722752e-04 4.423113811603568979e-01
1.032105917550957264e-01 3.443656783655314746e-02 4.731881327235845647e-01
5.821631024576078006e-02 3.289749809180454732e-02 4.548670518032330023e-01
9.880136309584394705e-02 3.792423352005842158e-02 4.681703099070407270e-01
7.733045654627473953e-02 3.689275733201344276e-02 5.134576654913387550e-01
3.438981967843398463e-02 4.716219398045531919e-02 4.490832653323165724e-01
1.237852953694745448e-02 2.540725785576813944e-02 4.440813290729150320e-01
7.472530735262143675e-02 4.260226417357422524e-02 4.588368143178450098e-01
6.070359823570856822e-02 -5.843757149513371073e-03 4.622781274965571119e-01
-2.184141842393925309e-02 3.500410011996827817e-03 4.408507154919187876e-01
-2.114491129659329394e-02 1.535097121545253573e-02 4.456701920066851175e-01
6.361020666845323968e-02 3.646621222349483160e-02 4.556825668285320874e-01
5.730561556982687738e-02 1.960043871181637535e-03 4.562008833592602897e-01
8.176596972416905196e-02 5.044862809854466085e-02 4.586073309884816651e-01
3.940186483070547141e-02 1.840186596173393196e-02 4.489761323903380119e-01
-2.312622774064060967e-03 4.500621641998376471e-02 4.460851246316523411e-01
7.205381198919898200e-02 -2.251964251073500494e-03 4.882828878714331466e-01
-1.785880184491000361e-02 7.753337615574550437e-03 4.417196666150662310e-01
6.107995189610452083e-03 5.354895999365475584e-02 4.489910329916897980e-01
2.119906628979798327e-02 5.378647051111331429e-02 4.487837577170080694e-01
7.070569405662041618e-02 3.143580447212679374e-02 5.252567954920848159e-01
-1.671829022199412471e-02 3.431186367548387517e-02 4.474770699493491044e-01
8.967716213534693281e-02 3.652950270277115913e-02 4.667724199114453576e-01
7.608916375479780891e-02 7.444783031668745707e-03 4.724876675870512965e-01
1.169005022318374797e-02 5.096297712441402034e-02 4.474912911090689893e-01
7.346955028531450271e-02 1.231975099381939481e-03 4.780865461066307609e-01
7.468728629663659579e-02 2.327641512254252643e-02 4.634265086084531360e-01
4.608639339728584639e-02 2.302238764563682011e-02 4.513616925331166985e-01
3.668119975762560575e-02 6.439509068092312549e-02 4.556506272747617992e-01
-3.723617718880281938e-03 1.605683130647171664e-02 4.417151390509507780e-01
8.907478094646466282e-02 2.228988190028832750e-02 4.886090131278221227e-01
-9.423412540422483608e-03 4.941584788788579152e-02 4.490117503992261394e-01
5.848737830285301309e-02 3.926300711315905412e-02 4.537172141557375693e-01
3.289999047821307726e-03 1.195469171474859704e-02 4.415869812583989584e-01
9.340917083324162817e-02 5.163562026338235772e-02 4.732101472325352387e-01
-4.015672570994319873e-02 8.092315526815232595e-04 4.412010104821449952e-01
5.094198071179450657e-04 2.261891157908655844e-02 4.428892008391652202e-01
1.173093104320683741e-02 3.489405580130869322e-02 4.451830894689546292e-01
6.790583580324152657e-02 -2.434073811427930195e-03 5.009892052358955183e-01
-2.074346413076365997e-03 2.601103779519645109e-02 4.435616241289953576e-01
8.801656871343543909e-02 2.097394699184984557e-02 4.894452905134714649e-01
2.960399369257502022e-02 6.075775167984147351e-02 4.520573845785595402e-01
8.459076968830540888e-02 1.897626120240460471e-02 4.724408095985128120e-01
1.037719349521733087e-01 3.824166939905488533e-02 4.714066756822061777e-01
6.049230722279319572e-02 6.221421228588187857e-03 4.575967239115548701e-01
-1.542045493933684279e-02 1.784216616733067320e-02 4.438881492576052246e-01
-5.718323096093188077e-03 2.671143193601125104e-03 4.395078471150659083e-01
2.522255165356996828e-02 5.866501457992324975e-02 4.504538870434969811e-01
6.735891860889571536e-02 -3.296474327104208495e-04 5.047775076927891735e-01
6.844529735777167556e-02 5.164119206663000949e-03 5.105153968561990663e-01
8.248973838048834217e-02 4.049328442985990206e-02 5.054302243151532759e-01
8.574205517432978430e-02 5.518511515854731403e-02 4.861709299670279316e-01
6.382598475230065460e-02 -9.074471612142108456e-06 5.122820632923354989e-01
8.931417669311904339e-02 2.244554187328751810e-02 4.741804845835573823e-01
-2.822920380239159199e-02 4.104510400011114959e-03 4.426135392053889839e-01
-1.747310393671418216e-02 8.355885618040214888e-03 4.418038947067412514e-01
2.626455501287457139e-02 5.936217113851385840e-02 4.510623566172536347e-01
5.967915111980637982e-02 5.093851061394293056e-02 4.523567281524425443e-01
8.835223709958620053e-02 2.624530269516267555e-02 4.946706221410184234e-01
9.548272206324384670e-02 4.397714825943545291e-02 4.666947073902994458e-01
1.895130801827404898e-02 3.764101966293972173e-02 4.464964067037381357e-01
6.185059429948531334e-02 -8.853821912731917390e-03 4.663383313081645998e-01
7.544111553863265540e-02 1.427511023808162964e-02 5.121879265990025853e-01
8.414075662333719841e-02 4.137177348959778650e-02 4.634001729148360393e-01
7.993055484638316235e-03 3.782506742357857887e-02 4.452381106285204782e-01
8.159814380971153192e-02 4.573881276554007946e-02 5.033819647963311272e-01
9.817358233495478148e-03 5.717363207947962628e-02 4.538629285331626795e-01
-7.402968607756531955e-03 4.738792284932961951e-02 4.471895096455498764e-01
7.667338582730802432e-02 2.806757155771609155e-02 4.627641244866698145e-01
8.292462622432746067e-02 1.222675780446124370e-02 4.806932237485541104e-01
4.230064234960351915e-03 1.495154732284123891e-02 4.420914594390640828e-01
7.611490484462503370e-02 1.945405946478812043e-02 4.649653668019435582e-01
8.616086366047885636e-02 3.896893224871589984e-02 5.016802044981494291e-01
8.783901389938046644e-02 2.655288472123384230e-02 4.958987037919239116e-01
5.221854700983926539e-02 -5.288875493512435952e-03 5.256062613843426323e-01
8.300543268443882905e-02 1.220633510131620414e-02 4.822470495071239927e-01
8.662768082449720519e-02 1.778065592797396788e-02 4.876936771411568006e-01
-9.733156794437838183e-03 3.867295720883544979e-02 4.464564722294467325e-01
8.227592082044647703e-02 4.927664730490655121e-02 4.988186644507793255e-01
6.242582818109358722e-02 7.031968315029357404e-04 5.156399527266639637e-01
7.874846756254397229e-02 2.999815641857083576e-02 5.160933995722926104e-01
6.536312787583085926e-02 1.685171622628217625e-02 5.273781088305888876e-01
6.917334344879561003e-02 5.636410859296563103e-02 4.552672982051100270e-01
9.094497251936096982e-03 6.315039165454283676e-04 4.397296556230179676e-01
7.109837499417677453e-02 8.835176981343820582e-03 4.647028355994594073e-01
1.011132941128268202e-02 2.132611394750186240e-02 4.434433834543659025e-01
7.013067735986472373e-02 3.041090121121747814e-02 4.593776147238637364e-01
