7.583566602889733888e-02 4.316487409133092784e-03 4.768672834495049084e-01
8.742472652470054117e-02 5.030619454776406874e-02 4.607950176445595458e-01
3.474513211674046254e-02 6.033059744188370294e-02 4.504346654051717969e-01
8.027597424764770784e-02 2.398895426822396371e-02 5.126796080591801141e-01
6.555336945354384159e-02 2.313216748475559192e-02 4.579950025314277751e-01
5.716056933214108682e-02 4.959138187575413970e-02 4.516224747249849569e-01
1.821062569934716810e-02 2.440707182438560385e-02 4.447635711860295493e-01
7.500761189596388823e-02 4.089481472541836582e-02 4.590150108125388151e-01
7.918895315923339673e-02 8.171330475781911351e-03 4.762732912065326119e-01
6.910891807769291295e-02 3.115511692079000333e-02 4.583843741490812862e-01
7.572176819593451173e-03 1.679064011456733209e-03 4.398432096234152211e-01
9.057366025462655623e-02 5.506483804026451184e-02 4.775610872723541900e-01
-1.822382509534853368e-02 3.787881893752432366e-02 4.490166747784907764e-01
2.250962488525343197e-02 1.118136433438519277e-03 4.415065546249576922e-01
2.604567798303797713e-02 4.803533908987603351e-02 4.477782919818576457e-01
-2.261073074480898781e-02 -1.376857036523882437e-03 4.396192057486955074e-01
7.406872124790737921e-02 2.193041644793587708e-02 5.201688479770520956e-01
7.746913863296953084e-02 2.399589587103668348e-02 4.641656024469189568e-01
3.413872885860560341e-02 4.772974823992265359e-02 4.487808978073875021e-01
8.948255398044988040e-02 4.588146963218854568e-02 4.620874723608098811e-01
5.364518712120806831e-02 -1.353270492975983119e-02 5.267948062334860682e-01
9.307403566163749420e-02 5.172616485106556333e-02 4.785917440644087972e-01
3.712678899707263364e-02 4.374933460459459050e-02 4.492872317250549696e-01
2.146982994834568600e-02 4.910196137060052202e-02 4.474724563256973209e-01
8.868459591549840773e-03 5.758471634073863282e-02 4.548358846620932927e-01
1.496651498367101117e-02 5.820521812668633804e-02 4.528185084120466275e-01
3.375190989511838574e-02 5.634557342819895842e-03 4.450723652336327496e-01
-2.161018922574417869e-02 2.813171149040663219e-02 4.480394930164245393e-01
3.948545852292528052e-02 2.928308380581421538e-02 4.496807857199021652e-01
2.696203281143051342e-02 3.978029609664700261e-02 4.478855550581558598e-01
6.649040106750216117e-02 1.203971778841222973e-02 4.604505176182270287e-01
4.509740454847749325e-02 2.807027086868428903e-02 4.511616838326444889e-01
7.193784958893728598e-02 5.531266893458075540e-02 4.551052615130964374e-01
3.247903639279066390e-02 3.504153698188073457e-02 4.484432291115557634e-01
3.198586701625708018e-02 5.644900178123909290e-02 4.492715041298212530e-01
5.599579101241840273e-02 1.042979505381557218e-02 4.547015762071941469e-01
8.543004779887518330e-02 1.606206489180026301e-02 4.884102876566742690e-01
6.509458982506463598e-02 -4.288593871195832755e-03 4.669712058869109894e-01
8.414883324069986903e-02 2.875952269219143875e-02 5.062074243750926961e-01
-6.135029490557319769e-03 2.109143937346855124e-02 4.428035965943581953e-01
7.966306998045775967e-02 5.819462569287604803e-02 4.617789355877789936e-01
3.910812319030587680e-02 1.209990097376725457e-02 4.477253547519997601e-01
3.118555983942651252e-02 4.648181301452743164e-02 4.484001105075038907e-01
5.058096507060978048e-02 -2.888066542908688823e-03 4.526282317857994730e-01
-1.631399458076289097e-02 2.292175726484463327e-02 4.451552094105071244e-01
8.996657583746563158e-02 3.241018392253659786e-02 4.953304708601952711e-01
1.934481791746332086e-02 8.788275208315477621e-03 4.430023513437297278e-01
4.732613537161636103e-02 5.843476980141484173e-02 4.514930858465333596e-01
-4.940769633363797410e-03 4.270121103956921182e-02 4.459877378619473975e-01
1.027471640290779920e-01 4.076292265247848795e-02 4.765747773814671961e-01
3.704372777882605078e-02 2.878348021658652320e-02 4.489910745709390083e-01
7.291432730241907689e-02 7.754650804006787447e-03 5.063469099917252692e-01
2.935113769383381616e-02 3.499130105317309163e-03 4.436240113650919970e-01
2.237582339033847290e-02 4.712344679796508229e-02 4.473614320258036958e-01
8.199049898832544425e-02 4.374629726482705955e-02 5.032903234728950403e-01
-2.158944222096783119e-02 3.165520903747129355e-02 4.489802955259547534e-01
7.944108200389250751e-02 4.384174905225421415e-02 4.588877698164725016e-01
2.469803721362996349e-02 2.723212812754809836e-02 4.460952066494349721e-01
8.964006150764988745e-02 5.456788959802214012e-02 4.804279084993269278e-01
7.059462494284393652e-02 -1.970748263846348880e-03 4.742476274837764683e-01
3.113764813761284167e-02 2.138376964713495365e-02 4.469622263364106951e-01
3.568353820345527422e-02 4.336169777904615164e-02 4.490811399049965957e-01
3.261840192079277362e-02 -4.904958835093941108e-03 4.428264566129876401e-01
8.313042723487462649e-02 2.539711451459865030e-02 4.665097355553508018e-01
5.514289811845973083e-02 -6.871486953525120407e-03 5.236255531429250265e-01
6.324043747942660609e-02 -6.409909740253768098e-03 4.659958240474572633e-01
1.030584222489458052e-01 3.975261672845516181e-02 4.782264252274213701e-01
-4.293503296408478914e-02 7.757087170195437354e-04 4.416597316652466909e-01
4.839956991849775347e-02 1.796908250655162784e-02 4.516546443836239599e-01
8.660207000069469752e-02 5.261350613723437403e-02 4.604653144323597180e-01
5.313709472522754051e-02 2.588380022700212738e-02 4.535414353873352122e-01
5.861252701636512213e-02 2.290843016932048518e-02 4.554477524198596305e-01
7.167026218269512139e-02 8.942792644106075522e-04 4.967882380904500850e-01
9.130019290533764043e-02 2.724243003769000193e-02 4.697116190404049263e-01
-8.098788056002271390e-04 4.233442166268840817e-02 4.456051917861402201e-01
-2.234182652305391915e-03 1.421811937675883809e-03 4.391889962601465691e-01
7.686061280916622884e-02 5.893887496475155169e-02 4.616768926065505374e-01
-2.242617577672647092e-02 3.050127826345640225e-02 4.493335787357875533e-01
7.028796262804239137e-02 3.150537598718750748e-02 4.589575344153863923e-01
-8.058360196433123762e-03 4.662598341112821065e-02 4.471472964699523267e-01
5.875449691005114189e-02 1.004414255885367410e-02 4.561514275868894241e-01
7.792872055263282138e-02 6.579464516722704701e-03 4.922489305052897279e-01
-7.408702829979685323e-03 2.173298844613217803e-02 4.429928702316072719e-01
8.399021883669191557e-02 1.871735564900752977e-02 4.975876256712251089e-01
8.975370210742079913e-02 3.379065941922961003e-02 4.960690465045473063e-01
6.236879232368015141e-02 4.844346922070143224e-02 4.524134816012955751e-01
7.360933986043177724e-02 1.172748487938610890e-03 4.779609872100892276e-01
4.772910038372207842e-02 1.648990313589553808e-02 4.513182543246164746e-01
5.236800219848047541e-03 -9.230040160910953084e-04 4.389711816812368883e-01
9.674073006031998212e-02 3.153685899913542812e-02 4.834373252554843847e-01
5.074129943764200262e-02 -1.118032599340056804e-02 5.286995448451593527e-01
7.702081886434641866e-02 8.536701406854771065e-03 5.010116988215258527e-01
7.958986245917404334e-02 1.422211071040994750e-02 4.697804979528515945e-01
-1.985730402322409549e-02 9.312100902134485408e-03 4.428916507635823341e-01
7.347702197677838387e-02 5.907533428947540910e-02 4.609407432622449896e-01
5.025853325455618970e-02 -8.410896931944297078e-03 5.280073218757274089e-01
5.206214396446699061e-03 1.474332320088927832e-02 4.420686506869812571e-01
8.063936109712688260e-02 4.490213853996319338e-02 4.586383785385332867e-01
-2.113953043155602021e-02 1.235229890456909438e-02 4.444882814732581400e-01
7.526618484461376768e-02 3.149492982249877185e-03 4.793106555267288016e-01
9.001426966528892903e-02 3.507520300618985343e-02 4.951322958161176180e-01
8.345253221900721108e-02 3.488317116395567297e-02 4.653469479477436166e-01
-1.125505253727022807e-02 2.147655701076028444e-03 4.393110510488073550e-01
4.118784592764099250e-02 1.435161714775053457e-02 4.487618770394991574e-01
-1.488171099782817364e-02 4.769747407592839911e-02 4.511362322550507287e-01
8.731758872576197983e-02 5.634823972975714496e-02 4.791857003221063338e-01
5.693085003751918727e-02 6.008002661230671393e-02 4.584992897075676477e-01
9.687840745215253735e-02 4.474336794895771019e-02 4.699275014165147368e-01
8.692845007809228697e-02 5.282617282054741237e-02 4.610078675587377384e-01
8.541324945751976871e-02 6.087760902987077866e-02 4.650505303663958756e-01
-2.110537653834730284e-02 3.250011716521594013e-02 4.489481879231629891e-01
8.806920661263545336e-02 1.894723601076954769e-02 4.848338045831314669e-01
5.626245180641756272e-02 2.912664188928823505e-02 4.544870097251249019e-01
6.928436970353592239e-02 1.704890877111722583e-03 5.034640284742132321e-01
8.290992552350912037e-02 4.355323379144879908e-02 5.024066565650674443e-01
4.708287615205017373e-02 4.223795086866833498e-02 4.507898435333563270e-01
1.574019129153932800e-02 9.915290384108679106e-04 4.403665261302721068e-01
9.039348729720476927e-02 2.599248266777100247e-02 4.897712818703742199e-01
7.957410043550990075e-02 3.582597287678736947e-02 5.126069532950022767e-01
3.819393125187738741e-02 5.472975046418047940e-02 4.495045306538996699e-01
-1.984833673177197055e-02 2.450516049079283845e-02 4.465153141427845029e-01
7.703796252621264440e-02 4.697854188496474598e-02 4.560058895906406451e-01
3.376151830925674946e-02 5.644821442110837389e-02 4.493773752062931726e-01
9.880075406314309250e-02 4.299514060832022172e-02 4.720806796339505063e-01
6.979996853818447311e-02 -4.384839327009957925e-03 4.930970531465063700e-01
2.950148998589518373e-02 5.940044244948766011e-02 4.503423817597387857e-01
3.478364681644102729e-02 3.932493395874615827e-02 4.490366504434784578e-01
5.886318793715221431e-02 5.765958861167846256e-02 4.538581677174138851e-01
8.673723463882301865e-02 3.822216664693059429e-02 4.645571879915817992e-01
8.497167583570771482e-03 2.948953599739533721e-02 4.440769948733986894e-01
2.159153615321691283e-02 4.970872798314641960e-02 4.476272284823328285e-01
9.220305026284730809e-02 2.771779822260002010e-02 4.888318257354583030e-01
6.112536766813417288e-02 2.612116234984008384e-02 4.562504815739915065e-01
3.285739480769363230e-02 1.324431680750268701e-02 4.463165156325451521e-01
5.385894196814661888e-02 -4.448552881255066899e-03 5.239402904570891195e-01
2.733486898765050827e-02 2.218770190332501960e-02 4.462378456919933734e-01
7.366247025785260805e-02 4.982897034961492055e-02 4.547880519837176339e-01
-1.461665119129867789e-02 7.941399303857087089e-03 4.410202352474876242e-01
-2.606842836981030330e-03 3.889028765404045629e-02 4.452711750618659758e-01
5.491515894133726372e-02 1.043250283478244257e-02 4.542256307987478370e-01
1.811843856682798792e-02 2.574581080304370623e-03 4.411815173250747679e-01
6.838359242505508140e-02 2.421848239327928365e-02 4.589444430009205211e-01
3.341350893566257668e-02 1.462958314949651915e-02 4.466721647833774567e-01
2.288363953504912729e-02 1.510539837351576294e-03 4.416897271324283780e-01
1.302938607463071871e-02 4.401388432829924507e-02 4.462549013990508850e-01
7.920014594306606925e-02 1.057442556046524901e-02 4.989278180227383896e-01
2.132904949729674121e-02 3.481716189561981367e-02 4.464292249468598817e-01
-1.693233974893546684e-05 2.921526347103933080e-02 4.439523437794263283e-01
1.010207699273339144e-01 4.167916627405646168e-02 4.798212654988551762e-01
6.531812790331577301e-02 -7.063900280459933616e-03 4.697016170646240441e-01
7.111334010807397743e-02 1.765304682289231888e-02 5.208646434700883177e-01
-8.455627005536342500e-03 4.716284377516932746e-02 4.473003370061700013e-01
3.230141684657712037e-02 3.466705250892587048e-02 4.483842848030625272e-01
2.989114969469482824e-02 4.392341879876941399e-03 4.439496942016007419e-01
7.763455638323528418e-02 6.824363749114757162e-03 4.749207032374142545e-01
1.988410032015502232e-02 1.836874364152071490e-02 4.444975312156902447e-01
8.276813086220274895e-02 5.273962622081049267e-02 4.585263298103990359e-01
8.887265385533471562e-02 3.363983590083641229e-02 4.658475404707552170e-01
7.424258366396228881e-02 2.799983497701923063e-02 5.219778382538896588e-01
-1.950264978833361057e-02 5.447128050950986351e-03 4.411472439764433373e-01
8.549398370433741734e-02 4.150964903317200944e-02 5.007917813918371097e-01
-7.018963117903873755e-03 1.062638777129616165e-02 4.407366659631279382e-01
8.688225067711566330e-02 3.917545257483890514e-02 4.640588669805768007e-01
8.995555030505836269e-02 3.250985793429891912e-02 4.953930393903848706e-01
1.570165207783089448e-03 4.048740166870392482e-02 4.452939618163290758e-01
-1.730970258667678327e-02 4.083782224610475742e-02 4.491229117088727518e-01
2.032440448902252984e-03 5.122268783143975150e-03 4.403980153261971009e-01
7.007962398113178060e-02 3.942522979437582814e-02 4.575670705050289833e-01
9.422995563177190281e-02 4.654304619705552232e-02 4.677659824269592148e-01
2.306304633957180147e-02 3.021528507846575964e-02 4.461773280566280198e-01
3.292205315608522087e-02 4.272642324842541167e-02 4.486902362953020806e-01
4.537166247544293513e-02 1.307427250101721346e-02 4.502633914976035823e-01
6.316544705423386696e-02 4.030546655457590958e-04 5.137151037157675626e-01
9.461254733731726263e-02 3.723887724432764501e-02 4.885138594078689556e-01
5.537204370513554297e-02 -1.187556579729697956e-02 5.247601462305803155e-01
4.751266891637984102e-02 2.169346637654839816e-02 4.514997284086273988e-01
8.843946993555776293e-02 3.135209616235441060e-02 4.976794759292608727e-01
6.876035543666217387e-02 1.318874993712719490e-02 5.197118820438756392e-01
3.386539848987753232e-02 6.171780667195921749e-02 4.514877776042341972e-01
8.428580902307666878e-02 2.402100205548888048e-02 5.036887812972806744e-01
3.586361874302294861e-02 4.546051585724252692e-02 4.490341912515239398e-01
6.580993736405177374e-02 3.773421435871502500e-02 4.555738380236619145e-01
-1.830558848125379834e-02 4.913800150143212385e-03 4.406741420191578329e-01
9.165707174087897591e-02 5.404688998224493890e-02 4.738229533707766228e-01
8.281844594123775882e-02 5.838812887533081919e-02 4.626704712656091734e-01
-1.548159914249909192e-03 4.585505250143660262e-03 4.400619258163879777e-01
3.046410146623228926e-02 4.406198764721454275e-02 4.483402129226553012e-01
-6.194868893439923682e-03 2.720307961797679280e-02 4.440689780038412082e-01
2.167645500799138605e-02 8.802806748527612982e-03 4.434296726098815311e-01
4.341815666490594916e-02 1.676150946701349120e-02 4.497966412428958671e-01
-4.668081087696803085e-04 4.168007681355890420e-02 4.455146759358746267e-01
4.363405733214893029e-02 6.289221150670404326e-02 4.561872841140958146e-01
6.387026895966022022e-02 -6.900817949764619444e-03 4.672818702860851436e-01
8.332423526301920014e-02 1.756678314756008122e-02 4.712697952609005148e-01
3.633131523397584856e-02 5.995603746421080543e-02 4.503760656730173007e-01
8.840271956626381822e-02 2.280056955739056743e-02 4.905767400973716774e-01
3.447119823773082264e-02 8.764889757626424804e-03 4.459423466475159747e-01
5.629163822577564619e-02 7.577870684057312969e-03 4.548234136950919382e-01
8.389098051785150167e-02 5.850359768919707881e-02 4.631621833315228143e-01
7.444633678575114655e-02 1.308473639077594765e-02 4.650095314521398016e-01
2.446188056914701259e-02 5.785500258250407535e-02 4.497397918735497879e-01
7.988230374512270138e-02 3.341548547588377854e-02 5.132854146109218085e-01
7.648876751004041186e-02 1.190665249177397592e-02 4.683462624670353680e-01
5.464772339834284703e-02 -1.070352204723786296e-02 5.251414290189302392e-01
4.956834185439622231e-02 4.613258509479269132e-02 4.509352405668185515e-01
2.274991174190019519e-02 1.071682517263077006e-02 4.439759196762712024e-01
5.646982809003532611e-02 -4.865782859953681969e-03 5.217189600029715768e-01
8.619300660630048461e-02 3.166974471359650795e-02 5.025114111732823519e-01
7.979354574140540279e-02 5.463478342084639172e-02 4.576460960793150012e-01
9.454148076171048354e-02 2.758940635981637496e-02 4.714723288108631505e-01
-1.587405955528293361e-02 1.555114632029224418e-02 4.435541561849628556e-01
8.411409186712280606e-02 3.286549281889922930e-02 5.061711651946128043e-01
8.059884809778705694e-02 1.115751296241197267e-02 4.959482302327328229e-01
9.022070803812443085e-02 3.158030074260143732e-02 4.659338636839288061e-01
8.182275207427697206e-02 1.310573523033457810e-02 4.958317768157372019e-01
-3.977944116584192225e-02 2.838862434225131702e-03 4.455640645291115698e-01
8.531689427482951060e-02 3.786492791519624479e-02 4.646008167454900861e-01
8.440498743515663371e-02 4.840162590805698745e-02 4.976222237573615370e-01
4.739181266144750632e-02 6.068220725087916656e-02 4.528833859308630805e-01
5.822833337987319557e-02 3.193006904527657952e-02 4.545725847072468184e-01
-1.492294378595387591e-02 4.204992775947627437e-02 4.482908053069865062e-01
7.637479485542805757e-02 3.881601114768547245e-02 5.113719952423860793e-01
6.869564762984700645e-02 -3.049871252020583661e-03 4.981977391101776176e-01
7.056251925249619472e-02 5.048057419349232314e-03 4.664886924289348147e-01
5.007287848318429935e-02 1.791694537628298403e-02 4.522470950707679904e-01
9.416194527132715208e-02 2.581645084506763513e-02 4.822967966932907857e-01
1.044203404732739829e-02 3.940858435852992447e-02 4.454687882951495759e-01
5.555729858338449845e-02 -6.462850255355755656e-03 4.569101268033511909e-01
-3.757179995237904663e-02 1.386199064695229494e-03 4.418452859763147278e-01
-1.650836690309206208e-03 -8.581762363862896568e-04 4.386046188538948454e-01
6.658483885944128933e-02 4.652036882368758980e-02 4.535947138589837557e-01
-1.973168971007794800e-02 1.085060190906088178e-02 4.434847221931247918e-01
8.187285637666011362e-02 4.705297866136155804e-02 4.577240090224293789e-01
6.644935475864258839e-03 1.406381589581411594e-02 4.421953305365279863e-01
4.480523410535735412e-02 5.277487787244762585e-02 4.500788929300358898e-01
6.036374471385887869e-02 5.761478305320347215e-02 4.544372284948453578e-01
3.361790404689629815e-03 1.352263927368951152e-02 4.417452529111717263e-01
-3.102812548689206848e-02 -3.292125975790810045e-04 4.409046573380971945e-01
6.574152086617993801e-03 3.073964529508194099e-02 4.440769182520039604e-01
-2.026667679631175001e-02 1.831432243789917619e-02 4.459453628169548489e-01
6.597329881703616061e-02 3.000902097970628568e-02 4.573069608806881736e-01
9.465647544643183975e-02 4.920340858815167029e-02 4.782677852979989042e-01
2.178974383542224558e-02 5.056404827782440270e-02 4.478472190038563783e-01
7.420888111241200069e-02 4.130829561386560600e-02 4.584192245301184077e-01
7.146791222555616552e-02 4.009027020835408822e-02 4.578005540770023196e-01
4.835304669387049253e-02 -7.462195281675632931e-03 5.289177024082072354e-01
9.424470704224469086e-02 3.042075398645221682e-02 4.867552769955400538e-01
6.191960893155468854e-02 5.125567878063996829e-02 4.520499928793171307e-01
-3.105775177309602966e-02 6.594800359015360464e-03 4.471336691131023167e-01
6.401680837390007206e-02 -4.795535712844078979e-03 4.658529373995788925e-01
-3.331109387615164424e-03 7.940576209474966424e-03 4.405545790199807965e-01
2.892005070161727739e-02 3.190526952327545768e-02 4.474905582525298131e-01
1.734832137299209889e-02 1.849079373651238423e-02 4.441386188761206055e-01
1.001863387965473973e-01 3.629650814415416593e-02 4.688889937020455090e-01
9.367825681495751955e-02 4.928220003760112183e-02 4.836448403154264830e-01
8.888598952466950087e-02 5.713619584326089934e-02 4.722546032130374716e-01
6.515608554255505891e-02 1.224832778302823583e-02 5.235148922942264305e-01
7.874121119916634159e-02 4.330710905587992904e-02 4.590818958693872465e-01
6.642480496097426246e-02 3.015964412202188499e-03 5.111814520577513399e-01
4.691394001961474852e-02 5.204595184046247047e-02 4.503314095307337506e-01
5.908550266489577540e-02 3.996554449871678183e-02 4.532000232224602798e-01
9.770428687080930097e-02 2.758894008513879115e-02 4.746836329606516358e-01
3.236323968302513149e-02 3.055041349213850899e-02 4.479708324825182331e-01
2.995749161990723247e-02 7.317497135510585456e-03 4.446663384226141602e-01
1.292708564710942643e-02 4.817512791512377351e-02 4.467687946436865731e-01
2.839552845852583857e-02 1.513192811751265174e-02 4.455747699756880120e-01
6.954443450188997622e-02 5.954047480201467984e-02 4.574684611295309344e-01
-9.493889754807716477e-03 2.604815276644029121e-02 4.442135949682520790e-01
5.046731350553265716e-02 1.572999142864108316e-02 4.522961574431932918e-01
3.290001099019926323e-02 1.185761212150967039e-02 4.461580880960838158e-01
1.818780531222480984e-02 2.312010768035810404e-02 4.446757911638332672e-01
-3.479543335717894675e-02 6.438360327248417777e-04 4.415659072532889251e-01
7.426889737735070662e-02 5.723223703567612008e-02 4.568766070949815128e-01
3.150575752918843841e-02 9.454136143512040930e-03 4.454768769865566358e-01
8.661535071964497623e-02 2.242657804685956741e-02 4.944038426231343597e-01
1.657265564804129634e-02 2.374128239709192428e-02 4.444781101405465562e-01
8.356064844790912771e-02 5.226726439259371526e-02 4.587655469133434805e-01
8.431717112984493667e-02 4.685011211314211305e-02 4.588936995969584709e-01
8.109511757153410605e-02 2.569798597625214814e-02 5.115227043468164592e-01
5.207725823359422163e-02 7.958112761597763846e-03 4.527508028616226143e-01
8.950756033125090161e-02 3.715122302660701925e-02 4.955682857812108155e-01
-2.669490879080887308e-02 4.858485860656548694e-04 4.405904695778291580e-01
8.121711229278164024e-02 4.329546985092898315e-02 5.044305167470369833e-01
1.746467094034793652e-02 1.529219344926558734e-04 4.404326578232365397e-01
-5.479816958869229010e-03 5.184787188987017605e-03 4.401161539739655293e-01
-1.637552031300717331e-02 -1.134144456509531690e-03 4.389258636739859498e-01
6.939833652047021351e-02 -7.183615108073995899e-03 4.825238267084046018e-01
6.455651581199725597e-02 -7.023355226866947326e-03 4.683561031946593678e-01
7.129423751578653490e-02 2.119269578875657492e-02 5.229703034094191905e-01
6.232706595387543791e-02 2.992609105149066778e-02 4.562178844215951101e-01
7.947293342755071266e-02 5.799546706252311362e-02 4.806555934749386361e-01
8.456346258260430404e-02 2.628361982384587459e-02 5.043169739862678469e-01
1.033957859457253214e-01 3.876360577151781450e-02 4.722145770006259680e-01
2.835539991408604285e-02 6.193920351980521793e-02 4.529997124160308197e-01
-4.252535337049319353e-02 2.312396961544075247e-03 4.435439957685552992e-01
-1.031954870872099118e-03 5.108208993379467593e-03 4.401575817711799177e-01
2.318805977386057676e-02 4.704832396629229224e-02 4.474489442583662324e-01
7.029807325913750571e-02 2.860995106500710886e-03 5.029727495062351617e-01
9.301440319340201213e-02 3.094686151485642051e-02 4.895212542025390023e-01
6.648083832131883308e-02 2.219957400246453001e-04 4.651429056868995882e-01
-8.600098068940256746e-03 4.803480147126956007e-02 4.476055096061683503e-01
5.628256790673305532e-02 5.858354157380585292e-02 4.550917879571478863e-01
-9.743372837047866927e-03 5.767964404038060378e-03 4.401861055131613965e-01
8.320955515032495142e-02 5.729384842279092172e-02 4.807360729903845109e-01
9.278345319410227776e-02 5.085525955845313084e-02 4.682970635060038633e-01
3.333270835345351901e-02 5.850574217723943093e-02 4.498590245757839723e-01
8.206392428366708625e-02 4.040013256742933101e-02 4.621027922912495645e-01
8.343432660823754676e-02 1.808659259394822597e-02 4.988830487285472182e-01
1.970818404864200374e-02 1.343996234638412078e-04 4.407752914392533694e-01
8.114581150165886547e-02 5.805163606650317470e-02 4.807801626818808960e-01
7.345553533557412640e-02 1.652202442297068252e-02 5.171748246533903748e-01
2.904382521007292314e-02 2.311390747019488948e-02 4.466620283679721970e-01
1.850649023347457692e-02 2.287161225634648173e-02 4.447059509490874918e-01
5.045464283045093118e-02 -6.972509467983981427e-03 4.533326450175407252e-01
-8.933512548339846843e-03 5.201278864545663683e-02 4.506991672280368233e-01
3.942130475161562120e-02 4.681333703883604203e-02 4.495317208035679579e-01
8.113004547842769809e-02 1.911633280215609826e-02 4.677823699963105097e-01
9.780300337668348942e-02 4.367860096437427286e-02 4.703613329510512586e-01
7.023826985889362884e-02 1.602500379970473940e-02 5.204111071781660769e-01
5.671166246356020013e-02 -4.388729325538009811e-03 4.569172126096220921e-01
6.846332671726954033e-02 2.049408084710925906e-02 5.257044635495118357e-01
5.032387658043812467e-02 6.035960009274857208e-02 4.553898014791404325e-01
-9.460900468955311601e-03 4.094865604987711627e-02 4.466415921362656971e-01
2.136890567666645951e-02 4.753898912648468061e-02 4.472584741010091069e-01
8.471969276454424658e-02 2.083269599377238906e-02 4.979715725568663598e-01
9.414022796571150375e-02 2.535219554740621856e-02 4.739752237761077902e-01
2.241137631364294516e-02 1.803633038096617847e-02 4.448153677195998412e-01
1.046791641631680536e-01 3.741000481675609696e-02 4.718881038037333053e-01
7.834483260015799588e-02 3.774577443788885989e-02 4.627457970997619352e-01
-2.110259829015916772e-02 2.896978502786019122e-02 4.480213091493147615e-01
7.312098569575543883e-02 5.429424472768799859e-02 4.552468496870933912e-01
8.454350430800726401e-02 1.733976712318066604e-02 4.730586649208879946e-01
7.910388718255373375e-02 7.513926613488345826e-03 4.825709889174801814e-01
8.598693031461408787e-02 5.031069786153834905e-02 4.597904744905327856e-01
1.769594886990465826e-02 3.663892154805595269e-02 4.460641902773470613e-01
9.190439604920271066e-02 2.402663693511139162e-02 4.772286642231434173e-01
1.000269641419037625e-01 4.263085794351877122e-02 4.747726925782130847e-01
6.006908672434069923e-02 3.217996223322828423e-03 4.575021256255220603e-01
1.051308350079535325e-01 3.603481746428432303e-02 4.764041690821809172e-01
9.134351298585108303e-02 3.493790220444985273e-02 4.930663071723960789e-01
2.063003290656710911e-02 5.916692219637443434e-02 4.516798295064524682e-01
6.789211215337119520e-02 2.129352501664213276e-02 4.595243173449518603e-01
5.907618682814713695e-02 -1.154132705455483861e-02 4.643355364518800266e-01
5.734771694748846266e-02 2.114752650084176372e-02 4.550060904397451034e-01
1.306214701581270843e-02 4.351574311299454684e-02 4.461913365239672524e-01
1.090079119267699237e-02 2.708368461205122937e-02 4.440263579587839238e-01
1.117286265616922007e-02 2.183913832867036275e-02 4.435377699153880693e-01
5.073073084368332625e-02 5.153588103665748821e-02 4.507478703140983534e-01
9.475657922528502031e-02 3.741208239667502544e-02 4.883064561501164191e-01
3.841300290822412256e-02 3.529263604773325100e-03 4.465419631772994391e-01
1.920739098106764506e-02 3.177843939111875404e-02 4.457165524050281658e-01
5.174774547658674527e-03 2.625077828568688973e-02 4.434400737917896795e-01
8.220967837634576836e-02 1.832463968642773777e-02 5.035919044374141951e-01
2.100897551785650685e-02 4.818861572385938624e-02 4.472302652059758632e-01
9.421477523299573442e-02 3.174123419203752489e-02 4.679444285281206817e-01
3.242827210240397523e-02 5.832102970547722171e-02 4.498124444254116283e-01
8.462523408633523814e-02 3.634922888818768044e-02 5.048080585183600810e-01
6.657122113941964237e-02 1.834280125638556441e-02 4.594122818569540412e-01
1.026266159192114752e-01 3.218229176736342456e-02 4.750271081145214791e-01
1.107717120720685781e-02 4.952520228539179087e-02 4.468814724823397810e-01
6.598944866693093325e-02 9.745855582180371068e-03 5.203876376915382851e-01
6.911312202309564945e-02 3.266137786066261595e-02 5.244139291667609948e-01
-2.547005009956136018e-02 4.010488903922482425e-03 4.419025707232001610e-01
2.845631026629462726e-02 2.895335123966983129e-02 4.470225381955504895e-01
1.005195961954172684e-01 3.432794795768299989e-02 4.702174285933586884e-01
7.302531194404116022e-02 1.050247063050734411e-02 5.106837178461481885e-01
7.404858164475289217e-02 2.392479546223752820e-02 4.621806019446056957e-01
4.453467414949216496e-03 2.998977428834087230e-02 4.439679176944128502e-01
6.732479626119931837e-02 4.068239819207144364e-02 4.554232337062290581e-01
8.053176515912072175e-02 1.961433203737215220e-02 5.089599252764185344e-01
8.121892884860797135e-02 2.932057855656306639e-02 5.116785050411652991e-01
7.242735067211196476e-02 3.434870605771878083e-02 4.599894896728808913e-01
8.923142330858976901e-02 5.679077485254680618e-02 4.715746218755693664e-01
4.430289677337226339e-02 5.443457189358374970e-02 4.499994862461889622e-01
1.485478329398381980e-02 5.746293963907986996e-02 4.516714381617142893e-01
-1.219942525764317401e-03 5.354844882669552997e-02 4.495587899225507167e-01
4.304665179461818203e-02 4.772360417688694539e-02 4.500709073592638054e-01
4.540035008847385922e-02 4.697371264021973913e-02 4.504308525100861327e-01
8.372180239355521414e-02 1.294500975885942012e-02 4.845738763052689912e-01
7.671346225872341384e-02 8.184878488256740192e-03 5.009618237570253596e-01
9.055497208231576278e-02 5.404880509285315410e-02 4.669640715768881845e-01
-6.062437161834048280e-03 4.064289752724502269e-02 4.459240553147092445e-01
6.113101344069017673e-02 1.154695617606883197e-02 4.574265002729968610e-01
-1.180752791225937390e-02 3.389129662906367746e-02 4.460404161555927560e-01
7.171917797730287258e-02 -2.993345120485543971e-03 4.845215246984640456e-01
8.433629703651338017e-02 5.384895675275783861e-02 4.594101612181113459e-01
3.172943986801306931e-02 5.231394307994738369e-02 4.487591793997761647e-01
2.879780224263164823e-02 1.081676434286087986e-02 4.450526201990083197e-01
6.274697032185769241e-02 3.945201829158827972e-02 4.542005049355409829e-01
6.238415989651961702e-02 4.713373367032083067e-02 4.526879189236329148e-01
4.762683006574410655e-02 1.861085028080988746e-02 4.514237846220079398e-01
8.742189976116432337e-02 2.077962317283742200e-02 4.733180228239347587e-01
7.825459191426857586e-02 4.909802756478565122e-02 5.002925454068901656e-01
8.087832538157309348e-02 2.481279919313989293e-02 4.656137942051979395e-01
1.017244965741064960e-01 4.171204451649487138e-02 4.769052224736001211e-01
5.490848571186626725e-02 4.175697804302950372e-02 4.518772639715148975e-01
7.439696293348824208e-02 2.772678141277752986e-02 4.608612239386032927e-01
4.638723705242271678e-02 5.698721313488487594e-02 4.504872092808177575e-01
-8.198757212208938449e-04 2.178890109700069855e-02 4.427011471840457957e-01
2.880991675147023465e-02 5.461325708402615248e-02 4.490063591215452954e-01
4.623482344689441165e-02 7.514468189933083860e-03 4.499997372674371943e-01
1.941669621603251891e-02 4.796093965887485849e-02 4.470569391463711795e-01
6.577560218630459921e-02 2.502437097947990755e-02 4.578391320553464872e-01
-1.816107333518852257e-02 1.549531859581804345e-02 4.443370220523001346e-01
5.957179479203576766e-02 3.208598700511327423e-02 4.549707466899329256e-01
4.694943570633140599e-03 1.093861736317999420e-02 4.415314012435385682e-01
6.949984403598517824e-02 6.159535437163609836e-03 5.100051054261688366e-01
1.012449780369383684e-01 2.994065502407878068e-02 4.768635243765175780e-01
8.441355585939462614e-02 1.415732888442006177e-02 4.872154820460075086e-01
4.697275138035194447e-02 3.204467957627108593e-02 4.514386089659461199e-01
7.324374079879503174e-02 3.256096139893668688e-03 4.973988108112150641e-01
-1.388843245040320001e-02 3.620038384192993119e-02 4.469012547499564003e-01
7.023224486021442670e-02 -6.248265837323368870e-03 4.874638202318325453e-01
7.980095003321252545e-02 4.783915269353072180e-02 5.015002169551581179e-01
4.297323748803134197e-02 3.816914055888244450e-02 4.503640949006034178e-01
8.072845894682603718e-02 1.156638467491804753e-02 4.965308091012510250e-01
4.705500343115932155e-02 2.809635687027646489e-02 4.517250263928150322e-01
6.927464053233274577e-02 -8.530876870683240520e-03 4.854276744863513238e-01
8.409438645274754098e-02 1.391539497776736120e-02 4.886545187045153726e-01
7.644826316457434268e-02 4.242817047081751114e-03 4.830650965904748073e-01
1.965074119192496832e-02 1.031650581004853878e-02 4.433752452722825033e-01
8.092094123118410975e-02 1.629151678509872456e-02 5.046274635382083096e-01
6.838349303317331485e-02 9.239091385523728016e-05 5.030518186488205368e-01
8.447887864407416236e-02 5.859239788667071347e-02 4.762760032332246096e-01
-2.972262676698238931e-02 9.520222162864813709e-03 4.480756586245000506e-01
9.607722532915295710e-02 4.672529904528157502e-02 4.747579341525993701e-01
2.136723483802039150e-02 4.548784915673161067e-02 4.472024860117660983e-01
8.376678640549974075e-02 2.298868267321632630e-02 5.044493296977511365e-01
7.017758052970676265e-03 5.458948164072676378e-03 4.407844042981198251e-01
4.145217830641061835e-02 4.192671822103359591e-02 4.499877961479194499e-01
6.157338283561747394e-02 3.004901155053616574e-02 4.559815023785734889e-01
7.300909600417901379e-02 2.201238233512715567e-02 4.621709498854474907e-01
-1.977923330124047030e-02 3.269440361660387595e-02 4.483919557842062087e-01
4.633022988948853199e-02 4.815213810930885074e-02 4.504669649274702925e-01
-3.056896901764091096e-02 4.805508313319771171e-03 4.434526614934325428e-01
6.587925232006747178e-02 5.911858511703305466e-03 4.615730189221680657e-01
-1.942987680668267769e-02 3.475062788226977728e-02 4.487711187716206807e-01
5.897646413185959934e-05 1.725392792894761551e-02 4.419932675646261466e-01
8.406721015151989718e-02 5.603460026655232573e-02 4.830452282379562035e-01
7.101493517744729422e-02 3.590884588076359574e-02 5.172377163732201355e-01
4.230313282165507754e-02 4.317442168780390166e-02 4.500888887684268980e-01
8.841257911812244741e-02 1.970861459701099896e-02 4.800641798964790929e-01
6.831035697618999258e-02 1.124195661073479693e-02 5.186464376687708322e-01
3.549840967396864291e-03 5.362865208403532619e-02 4.490480011608325439e-01
-3.032332722893110039e-02 5.851694894520461342e-03 4.439557874567021667e-01
8.867083556775989805e-02 5.397623543212728275e-02 4.849109340215398967e-01
7.690312678012402314e-02 8.269518307453925174e-03 4.720891991634383333e-01
8.517789039452372535e-02 5.191525291509013068e-02 4.940649290526162307e-01
8.285640355132746493e-02 1.207823177862403854e-02 4.875653800259521220e-01
5.851976480596798869e-02 5.416861351421786708e-02 4.517009084104722239e-01
-1.795180645044324591e-02 2.332428292734133046e-02 4.457627959455882083e-01
1.540032462092877363e-02 5.645778203915546162e-02 4.497177994461963868e-01
6.841486860786452628e-02 7.649062911220694694e-04 5.039603689530489650e-01
-1.775714217082602700e-02 4.660511565927098580e-03 4.405668134103858935e-01
7.101713577627534468e-02 -2.839180356906488914e-03 4.904816119716302603e-01
7.449765335720358317e-02 3.735531012333154210e-02 4.606403796663695593e-01
3.382343928894042395e-02 3.067053837170025110e-02 4.482915851958095277e-01
1.906373170276836476e-02 2.952282067729686266e-02 4.454027507080229875e-01
6.964102141973568805e-02 -7.316367612908497228e-03 4.844579943119106669e-01
6.077998531581751962e-02 -1.070589364116896966e-02 4.660723457720142293e-01
7.096587891600408815e-02 6.481641285240542782e-03 4.657845122943818361e-01
4.444747603973736583e-02 -3.495705429247620080e-04 4.490060049991120850e-01
9.407823646804978901e-02 3.548636675229822207e-02 4.890756475582297980e-01
-2.025711549419203020e-02 2.514951874118788455e-02 4.468077237712524408e-01
8.471278626242109699e-02 1.396668864854249542e-02 4.812936550255735302e-01
7.186438649169052395e-02 -3.055518331086689871e-03 4.865944448032817893e-01
6.815068958694923962e-02 8.651065954034505359e-03 4.624910725222950991e-01
7.353659219341705799e-02 5.851440246026386877e-02 4.594992397789248728e-01
3.523739259373252081e-02 6.401506875937384988e-02 4.534754412472276064e-01
3.095384856486270431e-02 1.065640093786523676e-02 4.455476258108546639e-01
6.550968658557837498e-02 4.447842862677551384e-02 4.538098572201677006e-01
9.170449675406777690e-02 4.037552463724998486e-02 4.919882192104869101e-01
-2.972513338012049752e-03 -1.752219780661125109e-03 4.382965014253727976e-01
8.878800760984512097e-02 5.308096404217134412e-02 4.636531505350586779e-01
5.486671496961870176e-02 2.323256581362819623e-02 4.540678229884033690e-01
7.298691259417984523e-02 5.964968761772642541e-02 4.640255386067020371e-01
7.318446594174672637e-02 5.818475057920704727e-05 4.794882788606833479e-01
7.055766446640610035e-02 3.027973954228515424e-02 4.589943209960208326e-01
-4.097144062037418218e-03 1.569736576019558141e-02 4.415845698852352563e-01
8.824642606662511102e-02 4.249104699477141561e-02 4.626297542331173074e-01
3.175757624391993550e-02 6.037951374692530904e-02 4.510383006873165401e-01
-3.189454972190171236e-03 2.047943819022620543e-02 4.425727668777941215e-01
2.065818770466016502e-02 4.776161933042814139e-02 4.471845906375936930e-01
-1.010730910473412944e-02 1.059813602857697518e-05 4.386547932072776268e-01
8.578978023044178669e-02 5.597101681720533656e-02 4.810019745578986150e-01
-2.943596563872956026e-02 9.207215481711324839e-03 4.477204676499976777e-01
1.584252947486293819e-02 5.776419363045737221e-03 4.416846694116489114e-01
7.816291577136351421e-02 3.279472994659663604e-02 4.626972685943232522e-01
2.004882379189090735e-02 4.092935211632720005e-02 4.468829105615028108e-01
-2.530882863516621326e-02 6.221050482368841589e-03 4.428911695278454075e-01
6.491833308154966453e-02 3.974919369250352018e-03 5.151082701931014585e-01
9.163878927077069581e-02 2.756151637332070192e-02 4.696250031586987062e-01
7.956008962025395981e-02 4.019993932325437863e-02 4.616400299533678919e-01
1.029829741004975874e-01 3.828491901163363909e-02 4.701409663441288855e-01
8.645270986445063865e-02 4.207843968417647462e-02 4.992785987262070013e-01
7.219685202572401206e-02 1.865099166632169445e-02 4.624273564604339248e-01
4.981127904214403823e-02 1.656223324153564824e-02 4.520687695034091291e-01
7.989897314558801200e-02 2.308017358707168537e-02 5.130852222513094807e-01
1.754986680880570374e-02 3.535811103875853047e-04 4.404938459781751470e-01
2.233711843760210342e-03 -3.944184498610621425e-04 4.389290188754774724e-01
