7.674809108426219884e-02 5.386239128403619292e-02 4.564433995440513314e-01
9.246349372587060744e-02 4.991487713972055096e-02 4.672315994728335475e-01
7.425510083448663701e-02 5.362029212185712851e-02 4.554902475669022066e-01
3.890881225618338796e-02 3.425321951408593496e-02 4.495457640753061646e-01
-2.201105755608697562e-02 1.942316652524666773e-02 4.469002605916876925e-01
7.126471885446339360e-02 1.720284085699616897e-02 4.622559196021881478e-01
1.406560666110681472e-02 4.404271511223496055e-02 4.463531273840566915e-01
7.147068760585299774e-02 2.572741316428159633e-02 4.600514091327649879e-01
8.675463322568099933e-02 5.476189690980445141e-02 4.630978353796185720e-01
2.994658527273088774e-02 -1.676451366592408582e-03 4.425022722236709449e-01
3.924856814537476535e-02 6.143866562383649976e-02 4.518406021086560642e-01
9.316519876795470098e-03 1.464611069251794268e-02 4.425934878748437051e-01
8.195743013104055119e-02 3.221241073584529130e-02 4.644819780460198166e-01
1.003490718830694906e-01 3.180553763269561296e-02 4.724183307008102961e-01
6.299517863318955524e-02 4.568781543592352612e-02 4.531207342744098532e-01
8.539970670436959621e-02 2.448413145993378476e-02 4.688170210360351198e-01
1.524521436713791034e-02 3.517965587958555435e-02 4.455586817158645463e-01
1.000001495775482141e-01 4.094134887278375046e-02 4.695827987892494115e-01
5.091413880633881284e-02 1.204449118969482327e-02 4.525016709140549098e-01
6.161832768896216561e-02 5.722143295907875307e-04 5.163759170906626617e-01
9.818621462882019812e-02 3.319824332449505810e-02 4.694376241543132822e-01
5.356385595116614634e-02 1.825063449725564460e-02 4.536437018298961621e-01
-9.755445839585697582e-03 1.149104356836273474e-02 4.411875222466883906e-01
4.967359791416599973e-02 -1.808423760953174579e-03 4.518491836040912091e-01
2.147662600688501205e-02 4.917044753092333215e-02 4.474986585003155048e-01
8.850224214971491588e-02 5.469469850857030385e-02 4.815966032924981488e-01
9.269984254249262479e-03 5.685716395524388622e-02 4.535160482284136263e-01
9.484947533249944718e-02 4.866620944331921661e-02 4.740605596284609979e-01
1.956905834555981369e-02 7.086997424218331731e-03 4.426289859195755017e-01
4.088826448960766746e-02 2.389780709770716882e-02 4.496474461887710605e-01
7.645315673706376547e-02 1.184665442537215577e-02 4.686159324061043852e-01
3.971486921576308782e-02 1.373782694409655253e-02 4.481695224580501957e-01
7.568422113121801853e-02 4.757393034190055686e-03 4.942190573261400766e-01
1.078192247380765564e-02 4.978783558240332946e-02 4.469438603600682236e-01
8.794285237768724450e-02 4.316927709666915775e-02 4.959138511905209490e-01
-1.813133580041066586e-03 3.509510559330811241e-02 4.448017989894363922e-01
7.791968638497649702e-02 1.929787114639069934e-02 5.125487347079927813e-01
8.554216965828294328e-02 2.041988262712251395e-02 4.933964866918870151e-01
6.703406191070637732e-02 3.372993467128720946e-02 4.571149900520075082e-01
8.057268508400879103e-02 3.461200362821519744e-02 5.115081311991889201e-01
8.003942137920244670e-02 1.007158810403963045e-02 4.748113911738933157e-01
2.877635229750484525e-02 5.553766908311381229e-02 4.491700392838575695e-01
2.049757534796737765e-02 3.830653025423568642e-02 4.466521489618238139e-01
7.436127857934266006e-02 1.552680951267640472e-03 4.836895348113288695e-01
6.867920429110831171e-02 6.004507077067357951e-02 4.597630932824447458e-01
6.517908904124962433e-02 -4.758380443740310543e-03 5.059204350622370505e-01
3.936443728517217966e-02 -5.138322656345315625e-03 4.463287868686868221e-01
2.669276316563155144e-02 4.832644372684554573e-02 4.478672320704377152e-01
7.770862505031558842e-02 3.785285751925362985e-02 5.115008269670902052e-01
8.619724892829497276e-02 1.647502031791947541e-02 4.814678165467462523e-01
1.294727503354862509e-02 1.959411859496645869e-02 4.436018741179878488e-01
5.145077108552222750e-02 -5.780654534360154737e-03 5.262244098640431744e-01
7.344101552645533604e-02 4.507064911105421179e-02 4.560218071719957522e-01
7.636432627161483799e-02 6.526253762494768802e-03 4.735968477910449392e-01
-2.700894299861858472e-02 8.995878387661811193e-03 4.457497320395802376e-01
6.110316924998272087e-02 4.424591938058957535e-02 4.529769693616078063e-01
-2.287152018251360427e-02 -4.249960237102511779e-04 4.398540794152309696e-01
1.585985941942737523e-02 4.294812724098127921e-02 4.464339860240184588e-01
8.091347657394791504e-02 1.229206654283418465e-02 4.963854201073186756e-01
6.487997635964193321e-02 -2.452492124634662960e-03 5.077893021369042081e-01
8.708915052433482962e-02 1.867473468759905941e-02 4.781267859220699190e-01
5.197463940758314388e-02 2.719565539287373268e-02 4.531712957793213037e-01
9.289207649806265066e-02 4.784111807322011939e-02 4.665659935135565428e-01
-1.387258408966306027e-02 -1.641984115079561310e-03 4.383899382975399162e-01
7.855288800824172801e-02 4.195512007714452540e-02 4.603061084665467373e-01
1.008795344157258078e-01 3.879546824247631642e-02 4.681625248785331594e-01
7.369346110463956268e-02 7.688600949233210559e-04 4.820565443519457816e-01
6.955958900167229231e-02 -7.453727366177077644e-03 4.852126490647726276e-01
8.581993595487649729e-02 3.983800330083542979e-02 5.007977365978194539e-01
-6.010243875069445907e-03 3.813989277745225698e-02 4.455062715313097277e-01
-8.334956079345584926e-03 2.450557345442411911e-02 4.437056975062410036e-01
-2.307186539443890905e-02 1.516464690914490904e-02 4.464400910742763462e-01
6.158415993856444781e-02 4.215369945571113830e-02 4.534425838899554528e-01
7.721922899716514299e-02 1.655357998010449638e-02 5.114858730247696661e-01
9.702470308313647374e-02 2.973455468231396559e-02 4.713677664761297681e-01
3.164450479910442537e-02 1.887360859564184146e-02 4.467745188852386140e-01
8.482697257210897179e-02 2.296053630961152406e-02 4.990600519167650573e-01
3.822734184320936146e-02 8.393590947625489615e-04 4.462259581298071986e-01
5.178061244828612020e-02 -6.352909481764854906e-03 4.541823121781015105e-01
3.822672652715829872e-02 4.944609653574439517e-02 4.493009938527971481e-01
6.579687479627942259e-02 2.835129194020677163e-03 5.116468378754528423e-01
6.860005920065431750e-02 3.408570797775787448e-02 5.221196780176546870e-01
4.845083264344868940e-02 4.659846891828738763e-02 4.507756197406662113e-01
7.534201456177704037e-03 7.256458677453472145e-03 4.412070849211628398e-01
9.287712089562639994e-02 2.549136546335110942e-02 4.796195462393048059e-01
8.453951410049613535e-02 5.846509811521147237e-02 4.638986196963855724e-01
7.000710729371320551e-02 5.607206362159611324e-02 4.547706590292121542e-01
9.192217247194052476e-02 4.178343060345789811e-02 4.910058538234729486e-01
8.608146067182549654e-02 1.683972526642087825e-02 4.782005627630533384e-01
4.735697067215362266e-02 -5.096502653331777717e-03 4.508909285850178361e-01
3.791148436426122759e-02 3.742451097898809309e-02 4.494273007794467034e-01
7.427346160924909457e-02 4.675703416722727310e-03 4.724952016459713633e-01
5.615737113433727501e-02 -7.613586936868970735e-03 4.577466076098056780e-01
7.914347734960978931e-02 2.657439949228784098e-02 5.142836884400873165e-01
8.186775822014316639e-02 2.452705053431555871e-02 5.095101980432606981e-01
7.675801890085874601e-02 5.861479626621156347e-02 4.613722412544871698e-01
8.029155316721067748e-02 5.597809661187946179e-02 4.601961485117723183e-01
2.572435920369734244e-02 3.828073938855806879e-02 4.475769262525069458e-01
-2.224195938293734368e-02 7.941900828380796251e-03 4.428506667150969300e-01
2.777412957711797997e-02 2.673767451763579828e-02 4.466985338121740590e-01
8.661109658409623865e-03 3.350000549067835148e-02 4.445609834405940819e-01
4.311373907155033325e-02 6.172595011383503333e-02 4.526640464354431126e-01
9.659420757687862957e-02 2.713354609121726782e-02 4.766549562470032697e-01
8.211123154173298466e-02 5.129645250136163209e-02 4.959898846846590992e-01
7.992154213021439302e-02 8.895908498819266388e-03 4.814176565044672729e-01
3.504561776907287596e-02 1.206154699019852932e-03 4.450441398590626596e-01
-2.013875484957623752e-02 3.372474808536057855e-02 4.487885059735601256e-01
7.377537434790394644e-02 3.308731999073603186e-02 4.607006191009901941e-01
6.126441101590977822e-02 5.579144567956577372e-02 4.527580207131017831e-01
1.011335894998084545e-01 3.817034964762417576e-02 4.808460145299839894e-01
9.345544239898426198e-02 5.115688320715089388e-02 4.728826022078193025e-01
7.753209375794335723e-02 7.228903136230514781e-03 4.957880777106736248e-01
1.980371018465493585e-02 5.050578621118057693e-02 4.477104346713579597e-01
2.764610773289579576e-02 2.842444366323727822e-02 4.468103327026658467e-01
8.381688552693339345e-02 2.324956870418915661e-02 5.037490880974219154e-01
5.434801173341052144e-02 -7.247908112727081964e-03 4.565179359701903028e-01
9.725306441834760673e-02 3.007457963271128326e-02 4.711927500593078855e-01
8.702839784742300022e-02 2.933326829016687579e-02 4.990850425739228324e-01
3.448208375500469436e-02 3.597379191409796895e-02 4.488265064082762601e-01
6.290442900411975791e-02 -4.590248694522057818e-03 4.642700847473232861e-01
4.959737662080101334e-02 -5.236791013299286340e-03 4.523853669434188540e-01
6.512489839249310797e-02 8.536196520731582221e-03 5.201055587540137637e-01
4.463435115391730865e-04 3.291990297912755076e-02 4.444512960921321310e-01
-1.648094643023369915e-02 2.190627983078741528e-02 4.450213703501714746e-01
7.590524499935083491e-02 2.099418515074202504e-02 5.168427546293374863e-01
1.052239782124121253e-01 3.464268648537198458e-02 4.760797650540704584e-01
4.543848019111370456e-02 5.164869117212563324e-03 4.495148734230633436e-01
2.508018392810686115e-02 3.339070547875467448e-02 4.469443031982539560e-01
5.078380758663032790e-02 5.221121882346593107e-02 4.507326936806459461e-01
8.217943998946679318e-02 3.063971225294611495e-02 4.644993241614585600e-01
4.487806783868775878e-02 6.251976828407873610e-02 4.562051230346160779e-01
-1.198634949946867159e-02 7.423093491529852810e-03 4.406969019756290518e-01
8.770381032729997195e-02 6.011208918321992584e-02 4.667919969337226971e-01
8.703349802331714069e-02 5.304085205325796692e-02 4.902646021757816053e-01
-1.355331098485261510e-02 1.965005243642334309e-02 4.434694536484143357e-01
1.078411979448368890e-02 2.067267729382742461e-02 4.433945748486153304e-01
5.421557504852631687e-02 -1.408496714336002729e-02 5.263860272094527115e-01
1.009092168976040774e-02 2.621428333849579531e-02 4.438441191377436312e-01
-5.834839843124481340e-03 2.099793517086680911e-02 4.427616360996415312e-01
2.689568315898038797e-02 1.714149228464788288e-02 4.454821203977563093e-01
5.717299639053825128e-02 3.369595883816554893e-02 4.538958863235593166e-01
3.381451910297698232e-02 3.345387383114484248e-02 4.485090241376184506e-01
9.108757735430259017e-02 4.082512021104368893e-02 4.642803626881021883e-01
2.108121198467854257e-02 1.602051936950055211e-02 4.443255569498041346e-01
3.819787743841396299e-02 3.103670281867334027e-02 4.493479690174632113e-01
8.631219808168011376e-02 2.446303571207015040e-02 4.960575367858163776e-01
8.085533785385935757e-02 1.016653352502129397e-02 4.781000921708709051e-01
7.141605948482609989e-02 3.519633896601333245e-02 5.188860998187404538e-01
3.246387140068656557e-02 4.926072622422791869e-02 4.486486009062206626e-01
3.938460408533029505e-02 -4.785644721808214250e-03 4.463752780668033271e-01
9.060263684689486008e-02 5.132615489053524160e-02 4.644981925011187895e-01
1.001433022379689536e-01 3.750530474890290122e-02 4.684227573735374461e-01
6.340075748439355507e-02 4.890775160822700279e-02 4.525476452978500763e-01
2.532523313476969795e-02 4.920731872168131182e-02 4.477670103519793554e-01
8.629660480183884430e-02 4.738848538970853730e-02 4.601063281670346172e-01
-1.360036019653907205e-03 3.401666539436774134e-02 4.446598272185048328e-01
1.164704487127476810e-02 6.148379785637806370e-03 4.412832578918698401e-01
9.216621606435478065e-02 2.473843702660494248e-02 4.777381907107603465e-01
6.111723973508337987e-02 4.305637824071609915e-02 4.531762803780856053e-01
8.403834361610731940e-02 2.379914766825248426e-02 5.034148498510142566e-01
5.794450150141875616e-02 3.488993473325482930e-02 4.538734381241745774e-01
-9.103196761566916331e-03 4.161542115908587608e-02 4.466369190126332489e-01
2.091295109914831710e-02 1.795961737684365761e-02 4.445733495124604695e-01
2.124284783525636280e-02 4.328475300745427551e-02 4.471215920572304547e-01
2.521665946635873179e-02 2.514812946224481705e-02 4.460342863382109058e-01
-1.793439734048531131e-02 4.013272936840983629e-02 4.492565169861486574e-01
9.341457232655904497e-02 4.030801065245976506e-02 4.891715003484695123e-01
7.584546909332247344e-02 3.604689045103604342e-03 4.884507422259082854e-01
8.411120628247355235e-02 2.626262556337668336e-02 5.047379969129569544e-01
3.497441685166457342e-02 5.214886154398624268e-02 4.491938099131556617e-01
8.966017340976666083e-02 2.664428991811794434e-02 4.695276420377729742e-01
-1.838137958378084635e-02 1.852440396974378012e-02 4.450648974315969397e-01
-3.333934052368504181e-02 3.094237475207914367e-05 4.411212418606354491e-01
8.231908489570181897e-02 4.716123116893042311e-02 4.580790331282050820e-01
7.290642253902807068e-02 3.459279457325709073e-02 4.602643258428015804e-01
2.583987277258708443e-02 4.649323335254915146e-02 4.477395471106380143e-01
4.034347285228385982e-02 6.055286522111336112e-02 4.514197807720037869e-01
5.924804061603615446e-02 7.344265919556655642e-03 4.563258597195218869e-01
1.006342369141955684e-01 3.431220992484236565e-02 4.705390968623084369e-01
4.719195852953735060e-02 5.779567206091316967e-02 4.511275467855774268e-01
5.273049637471440704e-02 -1.297330617064146319e-02 5.273670769018180549e-01
4.552080030966360741e-02 5.182652030933154047e-02 4.502080648261860274e-01
8.651949019651332395e-02 3.637361466189805576e-02 4.657096943913103249e-01
8.454880058142735799e-02 2.679073537262700172e-02 5.039067631867768515e-01
6.852059025360870970e-02 4.646379206089299232e-03 4.642056628327646539e-01
2.608707867810323294e-02 4.580558217625140330e-03 4.431612435391950044e-01
6.441377840174046521e-02 3.544712570960881215e-02 5.203055640265857873e-01
-2.063811377090086357e-02 3.731907825392750955e-02 4.499597447353209656e-01
5.005254361332555496e-02 -1.271387773610520820e-02 5.297342298678302530e-01
-2.146566599947517806e-02 8.198462600191587513e-03 4.427749855454923278e-01
9.104679463502274306e-02 5.448666009708898195e-02 4.758850652995711417e-01
6.553374378427176405e-02 -7.171572547163967103e-03 5.038226205622829967e-01
-7.934132652152370291e-03 2.229482083931753986e-03 4.392790423440542935e-01
9.786137413763117132e-02 4.377295333783685211e-02 4.706508163338632977e-01
9.516551048793764345e-02 3.899517021432801628e-02 4.870785336236244101e-01
1.044140915088298815e-01 3.502948097800924476e-02 4.728583881403929379e-01
4.833655877813153312e-02 1.685194482690724471e-02 4.515550042974645351e-01
3.821675233441682723e-02 6.147741486102963060e-02 4.517035479125733333e-01
9.738131745448222465e-02 4.463768539595640295e-02 4.807081533376665328e-01
3.345846220301250395e-02 7.316737581212363201e-03 4.453862728880559341e-01
-5.711292439965411083e-03 4.941692825612324647e-02 4.472288833333940561e-01
-2.336545040076785235e-02 3.678711513634014534e-03 4.412384181552826412e-01
2.242025262514583776e-04 4.118800630498706261e-02 4.454258107526159471e-01
2.176628368263523045e-02 5.751625331468730729e-02 4.497937389322790303e-01
8.371422914738617382e-02 5.245284544528799192e-02 4.939963490953665493e-01
7.503921192180374247e-03 3.310994051827403743e-03 4.402709968455984502e-01
4.090509224475336741e-02 2.405952266915222654e-02 4.496636481420217546e-01
9.000913760912339356e-02 3.712806353858508907e-02 4.652719362595398311e-01
6.912303627011062712e-02 1.353086477096832399e-02 5.191522233957976962e-01
-2.246516929224347259e-02 1.280347716369749020e-02 4.451317189524560125e-01
4.843946370577671690e-02 1.959498015639203269e-02 4.517620822067204278e-01
8.546588624282151769e-02 4.533909587534525054e-02 4.983237956144750402e-01
7.068382066652674489e-02 1.156328059172013686e-02 5.150643875195149990e-01
6.846029414857197903e-02 1.745429959083111965e-02 4.606868976077471700e-01
7.034208286444663949e-02 -7.199801091414577544e-04 4.963281786873445789e-01
6.442934185136039993e-02 3.474469029494729050e-02 5.229424945021258209e-01
8.809918669696742421e-02 2.339013128017230353e-02 4.716076954366321683e-01
7.447132978995224528e-02 3.426437151627914623e-02 4.610883484036132907e-01
7.596829385527952005e-02 4.222340083748884337e-03 4.808377848687414025e-01
1.572891546263878795e-02 4.017125335354471138e-02 4.461840134346791720e-01
4.098755115157445145e-02 -6.001578738929938105e-04 4.473732237087685304e-01
8.001543228720423007e-02 1.628904067726993921e-02 4.689263938338991133e-01
7.541029229209136875e-02 5.442287058907993580e-03 4.733700612545533315e-01
8.752902230176888565e-02 5.824373713387390183e-02 4.661746030579887456e-01
-2.169409047949089064e-02 2.893471458072947866e-02 4.482466757534597779e-01
7.969613983566112281e-02 2.225098247438887095e-02 5.122499263184936424e-01
5.045812658872504686e-02 5.409823001815935312e-02 4.506987294299165669e-01
7.974503462116511177e-02 8.755105340719762305e-03 4.805784885135402362e-01
6.248469967422279336e-02 2.506941810695141170e-03 5.172836243291532021e-01
-2.158027191565376965e-02 3.466445197917637083e-02 4.497780350046696740e-01
9.307220592460894310e-03 4.931828456385595194e-02 4.467760920992404072e-01
-1.708966716647609269e-02 8.577496297868424796e-03 4.416604500186977478e-01
3.247993042364446387e-02 5.576237215516154089e-02 4.491688303609644439e-01
5.208273891179631548e-02 5.500283467389451703e-02 4.508327167607768526e-01
9.755211107532236331e-03 5.345247040708411140e-02 4.486498864811043208e-01
-2.270480500692065307e-02 2.041321421302363590e-02 4.472141441056397548e-01
2.616393346152356622e-02 3.453885690859416491e-02 4.472590434493938782e-01
6.602196610330218762e-02 -6.216939872041256365e-03 4.703202662459742833e-01
3.404548231147968423e-02 5.413699148594228183e-02 4.492118600941096829e-01
1.047549075818226400e-02 4.714300050683341466e-03 4.408295046596693023e-01
6.773975401168627619e-02 7.052589961714319025e-03 4.627195098118314087e-01
8.993814379995462849e-02 4.555711044951334110e-02 4.621963575003176228e-01
4.687248307941549452e-02 4.391983289941610302e-02 4.507423490724716819e-01
-1.225176687240291107e-02 3.438939609148102677e-02 4.462329036988599840e-01
4.029366659105545687e-04 2.021386530505603352e-02 4.423990623504268083e-01
5.852840316661405556e-02 -3.122459215906455646e-03 4.578693295073626990e-01
5.604423970565840935e-02 -7.058335527999504144e-03 5.225780172986608241e-01
7.852967295235933898e-02 3.462630461649759267e-02 5.139648090632649158e-01
8.255332978185801751e-02 2.038772610733869534e-02 5.042893048990297888e-01
8.925657747705122158e-02 4.330704701400747703e-02 4.623690725751520847e-01
7.747582618280712818e-02 5.916081702034606954e-02 4.620255166626128229e-01
7.308576017391538171e-02 1.326332930209219579e-02 5.133708154126532808e-01
5.552952849166556404e-02 -4.745952535944342188e-03 5.226075573546083985e-01
8.235114426445543090e-02 1.584972183363273293e-02 4.721171524605463632e-01
9.312464200962379535e-02 2.765154793241251380e-02 4.708175989450143484e-01
7.879031261037390543e-02 7.345950606465920414e-03 4.847697021057117972e-01
1.000417143398743408e-01 3.174004167093474188e-02 4.718422228101508686e-01
7.278297007595931067e-02 1.923279663770539535e-02 5.197355480969874097e-01
4.614719503079752101e-03 8.649649569443685487e-03 4.411677336866809407e-01
8.085275202659035487e-02 3.290642317237552766e-02 4.639828469021712309e-01
7.193650637214461796e-02 -1.949784229819320237e-03 4.816583517831498074e-01
3.182118318882566632e-02 6.163423617945406469e-02 4.518971736626241631e-01
9.567354980096993977e-02 4.672440966965809434e-02 4.825624044985093453e-01
7.175574929371943134e-02 -1.712780879678352198e-03 4.900627267162860345e-01
6.885793815582419430e-02 1.563721333664319646e-02 5.213010399468912537e-01
8.538855746185874951e-02 5.430180300754867961e-02 4.608715412428187608e-01
3.886391228950131227e-02 4.351911434217849151e-02 4.495665621090369490e-01
5.758864278092562516e-02 2.065455638784149950e-02 4.551315194313675372e-01
6.840400675822543020e-02 2.165062008748063274e-02 4.597933388820747980e-01
-5.322546272372095412e-03 1.883851495322171402e-02 4.422863666262724092e-01
8.770312676928837536e-02 2.546993740202003684e-02 4.941064554010455856e-01
9.569455119627304218e-02 3.295221654481313156e-02 4.680030610667099689e-01
2.026042696588410685e-02 2.441491592443504471e-02 4.450660047574929168e-01
5.421568899662304597e-02 -3.874372552329669039e-03 5.233973729822957166e-01
8.538244147265523776e-02 2.583864566884547589e-02 4.996275132349078385e-01
1.030731126940769987e-01 3.921347567190399536e-02 4.779105906457318254e-01
5.211227664544347549e-02 1.767811172957799160e-02 4.530396569338774881e-01
8.046349067804305089e-02 1.859803024337590774e-02 4.677130521340600033e-01
7.715671210990071582e-02 5.371015256955067284e-03 4.842707506847022669e-01
7.046765559018398906e-02 1.482359216110363045e-02 4.622644651186133546e-01
8.076555190346237922e-02 1.390150448169526209e-02 4.998848627700926417e-01
-1.567150333534132398e-02 3.467229959414644402e-02 4.470023724566085654e-01
9.359965926410591941e-03 1.215101429637639816e-03 4.398191989761467413e-01
8.652370819332028118e-02 2.727679099416216446e-02 4.982917459728951060e-01
7.804592268444995873e-02 2.138372935511530931e-02 4.650821529064033677e-01
7.731622441656291200e-02 6.498936130816460391e-03 4.935429887037920405e-01
-1.055316998964325043e-02 2.170560273457647349e-04 4.386946717816211372e-01
1.662198891583983873e-02 2.085591934235523845e-02 4.442346974485109068e-01
8.645134820349877069e-02 1.687539417733520050e-02 4.835723489755159865e-01
8.038021137926783244e-02 5.802340051328614551e-02 4.816460598233999191e-01
-1.207550242483258068e-02 1.583288372752904294e-02 4.423353832167427058e-01
8.713303507545541726e-02 2.377967798852990977e-02 4.706108049010425121e-01
7.366000864648010460e-02 3.536348858380513466e-02 4.605913492762712114e-01
3.957323546257511537e-02 -1.731721938228646552e-03 4.466884423560606998e-01
6.942426582494871934e-02 -5.102458249581240043e-03 4.935540829400008045e-01
8.278116931871770667e-02 5.795494817852876041e-02 4.622781015824255491e-01
-1.133317015284459467e-02 3.852817524828805115e-03 4.398777493139320871e-01
-1.073621767322460036e-02 5.039106103060615738e-02 4.502745524581805991e-01
4.303342441861449791e-02 4.182296163516141009e-03 4.484056892805852734e-01
7.799450602038045244e-02 1.181132995140113731e-02 5.038255094350633234e-01
-2.142915776071951592e-02 3.843604305849189495e-02 4.507525548300651552e-01
5.633364979080896645e-02 9.081944726579950500e-03 4.548675660193149395e-01
-1.232605636806329875e-02 7.836316306534526349e-03 4.408075563268280539e-01
8.173316169898271755e-02 4.247664872969332539e-02 4.610032034547935642e-01
8.018134720327697862e-02 4.209207962354601096e-02 5.060600057450850287e-01
7.189141817406541346e-02 3.448556892334961321e-02 4.597539227131351436e-01
1.378065584181982842e-02 4.357036860250872168e-02 4.462590472296767419e-01
2.022306771871184086e-02 -3.754688550162815427e-03 4.399341947184335355e-01
5.927085269321067523e-02 2.735057481399423909e-02 4.555702158355678377e-01
9.257657754702676434e-02 2.566483431781444585e-02 4.845824981491065886e-01
-1.794997526159355233e-02 3.343882048603141754e-02 4.477092235885618554e-01
8.423341905665360230e-02 2.410081197795433880e-02 5.028609316720256128e-01
7.797040394504740901e-02 2.464586825832245504e-02 5.161794483511527032e-01
8.927001075213486514e-02 5.220628923072181266e-02 4.879025399995512435e-01
4.338327037380764611e-02 2.557709248912942365e-02 4.504660080692438617e-01
5.477715674361319578e-03 5.218869618991849035e-02 4.482452070031606173e-01
1.350529932132075658e-02 5.387477591625725731e-02 4.487338825789767838e-01
5.300445884909959354e-02 3.993324755944719501e-02 4.517876828101062836e-01
6.108291071460682231e-02 1.349621394707506764e-02 4.572590267383153106e-01
5.759585168835981012e-03 8.416329973871792408e-03 4.412643209608125283e-01
6.374982185106264909e-02 -1.420487231546026935e-04 4.621752847772884198e-01
9.768915120320585677e-02 4.501626395261836000e-02 4.767309724861439335e-01
1.361646491495149477e-02 -1.508822095997942175e-03 4.394287106103085816e-01
5.766860337379352969e-02 -9.862889840159328944e-03 5.214224702770050568e-01
7.639113406907152570e-02 6.239891907896866208e-03 4.963701655667480117e-01
-8.096302912673580474e-03 4.372939104232577423e-02 4.467195039419042391e-01
1.030995909445927838e-01 3.772621868640631954e-02 4.701796401818138516e-01
-1.299212763823414784e-03 1.222621215186952583e-03 4.391693274105781808e-01
1.028485550394249715e-01 3.378156923504094938e-02 4.727080767812670836e-01
-1.470982616089862305e-04 2.648009907736664694e-03 4.396112390710722462e-01
9.164244317231586001e-02 5.359191037076870001e-02 4.784870305183283046e-01
-4.979041634216741646e-05 4.793759815875971858e-02 4.462773719152184349e-01
6.424723649279334703e-02 5.185977190838152173e-02 4.525705098004642046e-01
-1.912720540798178159e-02 2.909921526715537540e-02 4.471976070146378435e-01
7.809896179110430159e-02 1.113540868988736887e-02 5.021850277045932787e-01
5.354130035829089695e-02 3.769681765631539838e-02 4.523564894430293637e-01
9.258272017208397930e-02 2.956527068821031279e-02 4.891415601698374527e-01
9.582182456308531437e-02 3.994845895856722479e-02 4.861040555000785690e-01
8.086056047546905101e-02 3.559907499476699932e-02 5.107956022300620402e-01
8.362421302148340119e-02 1.544098638345989087e-02 4.742845268872878939e-01
4.896674367582599940e-02 1.033850081119318948e-02 4.515444091151652461e-01
9.148215590804377462e-02 5.111890490268942294e-02 4.859481951036215830e-01
7.674178329959635558e-02 4.018778481214416165e-02 4.605526012260107716e-01
7.422077297816483121e-02 2.699164561289047349e-03 4.929750561024489053e-01
8.827752637589859896e-02 2.079041382869810384e-02 4.781020841472016225e-01
3.389377058654511471e-02 6.214857954273220186e-02 4.517432372216834136e-01
7.609414455969466806e-02 7.139839307100099078e-03 4.992195154952825953e-01
5.512717737234813786e-02 -6.192028849099154297e-03 5.233518302343785900e-01
1.013170277745119030e-01 3.982194878791021908e-02 4.698706847391929675e-01
-1.343851257406307106e-02 2.250807328925631332e-02 4.441187160426227076e-01
7.506486493553911343e-02 3.303719647543011499e-03 4.785950150141632942e-01
8.604758016357839934e-02 4.147917944017422837e-02 4.998007122725157680e-01
-8.696567244480556992e-04 4.736120829318004460e-02 4.462036819001469756e-01
3.598262557956657254e-02 5.915858301243438755e-02 4.502334844240282741e-01
8.004779964008273963e-02 8.629607443355346436e-03 4.873121684259629216e-01
7.167582775384045979e-02 3.362915559828749679e-02 5.209669524183632161e-01
4.715847349108547026e-02 2.287227764971184324e-02 4.514181629034220711e-01
1.433283003163875365e-02 9.405712836574686361e-03 4.424558483739312043e-01
5.166121487963755421e-02 4.923753091651299901e-02 4.509988977277836764e-01
4.597988332062513672e-02 6.243449013816310122e-02 4.572554848933182425e-01
5.661506495159479568e-02 4.050255816243476803e-02 4.525132021496061085e-01
6.671916025980180465e-02 -1.317672974775649288e-03 5.040323254394505348e-01
-3.340664117796546956e-04 1.444086481464731779e-02 4.415721866685384800e-01
9.134799378903991907e-02 5.146879199581085029e-02 4.662162428292319083e-01
2.487535583301029099e-02 3.974690835304308702e-03 4.427573687725429585e-01
-8.706574854445477823e-03 5.033851591972352685e-02 4.490576063814689656e-01
6.609222097346893754e-02 4.642454958205677329e-02 4.535520432270935265e-01
9.939494061322602658e-02 3.846536030217893171e-02 4.674040646919727648e-01
8.073566404066363777e-02 1.223790069741572187e-02 4.967737112019469103e-01
9.822106730689299237e-02 4.231229967849840096e-02 4.690185242837660029e-01
9.350295326073818081e-02 2.546509877975598052e-02 4.736657125075384722e-01
8.237226065776451223e-02 4.037035437257309456e-02 4.622891873215356218e-01
5.963821390800660288e-02 4.657844325097457161e-02 4.522236680008996923e-01
8.835079696922171211e-02 4.205967549609895134e-02 4.955408112119004116e-01
6.324133204178414291e-02 3.584678890265138862e-02 5.197281939045257371e-01
3.423207662672532459e-02 1.771960959034688844e-04 4.445992027886683240e-01
8.452475193990124924e-02 4.063021608584387739e-02 5.020495773568987019e-01
1.211097023710267472e-02 3.806763903441466590e-02 4.454671272949277117e-01
4.047607449173173944e-02 -7.031345033422412016e-03 4.468138058602224572e-01
1.028869882090574922e-01 3.325689909814407569e-02 4.744027053872568178e-01
8.923219019454972645e-02 2.135429820724557559e-02 4.839658390413956734e-01
7.668837963472365654e-03 1.137709376959882175e-02 4.419568293704114192e-01
6.693062106518878063e-02 2.234991289667540015e-02 4.587266118906246359e-01
3.296925477342867866e-02 1.119350048776285821e-03 4.442114129676672518e-01
7.493807493424956001e-02 2.315418327116834998e-02 5.194520922830374587e-01
6.802054876259906735e-02 -5.433212002202353515e-03 4.981841847894534769e-01
-2.253407437620376721e-02 1.096011691093120612e-02 4.443410206652816941e-01
4.832145884159819160e-02 4.687841123877441174e-03 4.508663744956242780e-01
8.351617641491289323e-02 5.343574319357053543e-02 4.590112014393942785e-01
6.951132057301909195e-02 1.190315097043417696e-02 5.172591521685883098e-01
2.684691632244537787e-02 5.686589227879353808e-02 4.494776619128258988e-01
-1.127739672825023125e-03 5.134802068527662827e-02 4.480621597784920640e-01
1.777468438145316659e-02 2.227674958915299916e-02 4.445426269753349202e-01
-1.454073492072376246e-02 3.072285053517501488e-02 4.458135487400238794e-01
6.599921245308860984e-02 6.653031357271145182e-03 4.615247184435511407e-01
8.384530921340667409e-02 4.091834488005167275e-02 4.625926633170571178e-01
5.889801081554121853e-02 -2.066101086855884339e-03 4.578852553817703841e-01
7.320916888878439832e-02 2.274868264002754756e-02 5.211976631760809608e-01
6.917132079836244007e-02 -7.475206288477835234e-03 4.901882822664656580e-01
7.416400385312599264e-02 4.201875226643143890e-02 4.581934727527723350e-01
9.027343881036497403e-03 1.370566948184305869e-02 4.424324223338619300e-01
-9.875837212520173491e-03 4.065293409927629720e-02 4.466647304547219366e-01
9.328483116694659405e-02 4.214884322569999175e-02 4.638427797044551992e-01
6.454409143677444782e-02 5.886752950952702651e-02 4.562659842032310564e-01
5.693341189761922522e-02 6.575348036370184598e-04 4.559963473391838162e-01
9.507084307212969321e-02 4.839403470280515679e-02 4.744803335576175951e-01
3.390190908336644660e-02 5.174585120024809137e-02 4.490586595647944601e-01
6.396107749219735739e-02 3.456131280837129727e-02 5.239349606382610602e-01
7.975413687388896444e-02 5.426795003496549807e-02 4.576761177672313829e-01
-1.661572198038327799e-02 3.545219758688000072e-02 4.476247142199143436e-01
9.538793036791536062e-02 4.720590633655923768e-02 4.809444504110679808e-01
8.514776084191861324e-04 5.267824643266638684e-02 4.486751700595703052e-01
3.470765176588026107e-02 -2.139743643125139021e-03 4.442456599941165818e-01
7.497762771534623172e-02 2.816506060109893496e-03 4.817671318069539632e-01
-4.636089266755328425e-02 -2.259787217479073459e-03 4.419545199500078403e-01
7.623979925745059949e-02 4.853184897728136243e-02 4.557504909578047325e-01
-1.630180621157667833e-02 1.689527199074044445e-02 4.439171798150649551e-01
6.583453248557992465e-02 3.984502944298813631e-02 4.552905085654030959e-01
7.094063215851295623e-02 1.360778640800426945e-02 5.170877041309368538e-01
1.417657679100266591e-04 5.135653236918277798e-02 4.480229979183153466e-01
7.296685703723012825e-03 5.059016613455981359e-02 4.473408789495981197e-01
1.010307183091534514e-02 3.934653021933363914e-02 4.454407506426234509e-01
1.997572180382430757e-02 5.482934533932452836e-02 4.490523121270627582e-01
9.307997757387986848e-02 5.007919362327908214e-02 4.691691283762343678e-01
7.612710830800567541e-02 4.159305261835321080e-03 4.893211786826948129e-01
2.237596661288253005e-02 5.141144801296944344e-02 4.481039050890974207e-01
1.037543559426595818e-02 4.157090381384671851e-02 4.457481146488050383e-01
4.331826288760670662e-02 1.324232943072510549e-02 4.494829135840552325e-01
7.333919711538791630e-02 2.666056943990982239e-02 4.607791913869340172e-01
8.338403034273172282e-03 2.449587017443699555e-02 4.435091981828542806e-01
-1.668192911065003239e-02 4.275365355108735541e-04 4.394803645229913291e-01
6.255184851610764984e-02 4.093126995532227197e-02 4.538877944627994210e-01
5.478349999363048978e-02 2.801837422588972226e-02 4.540619175662304885e-01
8.962247397702968743e-02 5.620163874531396153e-02 4.747691506495139713e-01
9.700823279005993394e-02 4.467423111842897671e-02 4.703836570941475337e-01
7.926408179178720537e-02 8.157401104101782638e-03 4.813794208482184422e-01
4.968370145653300263e-02 5.756426090658861572e-02 4.515098324660739570e-01
6.516183993150251319e-02 5.830293964396048717e-02 4.552334650510310721e-01
8.670598532368013756e-02 5.763006229103555950e-02 4.653759656442352233e-01
8.729617950907249402e-02 4.931793817941188679e-02 4.607919612346965121e-01
6.651932064121060181e-03 4.542973473247154809e-02 4.459966571828053450e-01
7.336662787570749633e-02 1.356859744633107795e-02 5.132987838397776725e-01
-3.199078849227017518e-02 -9.637129733931673169e-04 4.403896311960991961e-01
2.913235281893079842e-02 4.491694843752076088e-02 4.481581857948107039e-01
3.853124044123545922e-02 1.714590684585750452e-02 4.483577184429288764e-01
9.536331542112008730e-02 4.712519220773895429e-02 4.825833803964768021e-01
7.338889516229508969e-02 2.228414947399570429e-03 4.752656837826989000e-01
9.078880817773264666e-02 4.156923894257372881e-02 4.638140198641851897e-01
6.905371723231745751e-02 5.432259695880822803e-02 4.543232876531735909e-01
8.858105201498706061e-02 5.948005825135606328e-02 4.704728367521482935e-01
8.929097555616644089e-02 5.513862412290862491e-02 4.667345923308648947e-01
7.367076552955775792e-02 2.210630454697716171e-02 5.203588649526635912e-01
7.159810708774863586e-02 1.644244891482785596e-04 4.951962296790277662e-01
5.170468290505132042e-02 -9.996535757111815051e-03 5.274047019995113939e-01
9.937522099311299484e-02 4.322588283290573763e-02 4.747251174449710898e-01
6.235357686454612997e-02 2.622363599581778275e-03 4.594292320407087904e-01
1.671064054016252118e-02 2.847344858937490841e-02 4.448542015501513180e-01
7.672715260458744246e-02 5.944852578452725078e-02 4.645431652517757470e-01
8.809661606939796219e-02 2.504498689940680770e-02 4.700333434235213215e-01
9.137743082154128893e-02 5.398601175269891750e-02 4.773773087419817540e-01
6.850629010531457397e-02 -8.094355380129271069e-03 4.801551861666393806e-01
7.905089609654636362e-03 5.592233956678901996e-02 4.513217706121626094e-01
6.882345514763496541e-02 5.974241595433699148e-02 4.572552894565101722e-01
3.138701060802456116e-02 -2.293374692294387115e-03 4.428351396681817209e-01
5.562360441241406828e-02 6.067682513999630295e-02 4.592370979463479830e-01
6.984857489601727087e-02 2.295846357460481352e-02 4.602022527011565001e-01
7.012221806548746272e-02 3.178551741359589983e-03 4.677800276809843671e-01
7.170287486216041228e-02 2.456483194595603711e-03 4.986308105841729121e-01
-1.177019667598057893e-02 4.469586503938187405e-02 4.476175203760864307e-01
2.058751289619025274e-02 4.954080638002904963e-02 4.475287420774795022e-01
6.682838469516537427e-02 4.566729438983858913e-02 4.538413051731851056e-01
9.711111621309702346e-02 2.936063841250799791e-02 4.717941261816485099e-01
3.363085542337900663e-02 1.333145779849279327e-03 4.444989486251859079e-01
9.029598139793382217e-02 4.527751040731068516e-02 4.622455991009166154e-01
4.809454589875281766e-02 4.952737584404750398e-02 4.505812787279340204e-01
2.327533942276822226e-02 2.530849090764209462e-03 4.420367470821323641e-01
-2.138789627336629487e-02 9.292579999247853328e-03 4.433041767523756560e-01
7.675646009233612344e-02 3.134133988199384879e-02 5.181150112429115939e-01
-6.038979782353333901e-04 -2.567015032895798680e-03 4.381857651788035879e-01
-2.082348097165634838e-03 -1.139298639266546342e-04 4.387702734718762487e-01
-4.446420493782874545e-02 -1.263689595310457311e-04 4.435441052707593812e-01
7.180124088366859891e-02 3.748876169117671547e-02 4.591595393225998967e-01
-1.527808030362537428e-02 1.449963600674513894e-02 4.431218874496261062e-01
6.519764554399616607e-02 2.438491095933788613e-02 4.577417335137965448e-01
6.822105700561569008e-02 5.025235145091653394e-03 4.636550333176410743e-01
6.433998289378545232e-02 3.386050190562363976e-02 4.560481815789704796e-01
8.989873623344998843e-02 5.679075000113311539e-02 4.686018790501374487e-01
6.457197850083369606e-02 4.700315702297479248e-02 4.531520102082660095e-01
4.746675887704852187e-02 4.169404944387807010e-02 4.508427697607563234e-01
7.030976905986613401e-02 3.418947505004643617e-02 4.589138159125311089e-01
-3.479741592080083049e-03 2.990272855947904290e-02 4.442248710033005477e-01
9.692893132631168196e-02 3.649819431536182462e-02 4.852455124097022621e-01
2.709607804413492749e-02 2.401854417416849491e-02 4.463349723035365257e-01
8.438007761447055555e-02 1.943551456845279968e-02 4.958423287960938008e-01
6.341740449266142221e-02 2.565434318796180110e-03 5.155520865286892240e-01
7.145842569016629120e-02 2.168885941302346743e-02 4.614529917221573685e-01
6.057176449755059811e-02 -2.805175947424869923e-03 4.601149384822211807e-01
8.778021827720468295e-02 4.466609539037656729e-02 4.957218053564282356e-01
8.492136694573049205e-02 4.601292815255508817e-02 4.986179992315808995e-01
8.720708823211525962e-02 3.962340342261044812e-02 4.983793087401067745e-01
