6.589830044603503523e-02 -4.039310185651068252e-03 4.691022671287019552e-01
5.467289913458846240e-02 2.606502883667979539e-02 4.550912690561105811e-01
8.052802179715216890e-02 1.395958104243456496e-02 4.737626450452701588e-01
6.542951920358465456e-02 -3.805858228286389863e-03 4.682721290304420192e-01
6.490416466342473212e-02 6.026785216009625940e-02 4.590324473290948726e-01
6.371507592971750733e-02 -6.105953579162710747e-03 5.089679637381134825e-01
5.026506816058967653e-02 -6.492173034434766191e-03 5.275961772136816830e-01
4.780188138907540130e-02 2.522657326454368076e-02 4.526229064678335412e-01
-2.770795630647748808e-02 1.259435062188131102e-02 4.479670612820390585e-01
8.777787876974176007e-02 3.273146071714787969e-02 4.674093971974759287e-01
6.647320747788602879e-02 3.601031694110642944e-02 5.187564387196893501e-01
3.199561869960187988e-02 1.510616722754160209e-02 4.468527433461558784e-01
5.870633842303688010e-02 2.805935801910215688e-02 4.565804628944987176e-01
6.314668092142210198e-02 7.723651521178865470e-04 4.619835443919819151e-01
4.596889437144984630e-02 2.854992585176982598e-03 4.503408671321558199e-01
7.664480545200602624e-02 1.964238416828256728e-02 4.662198286459598440e-01
6.045730771353757110e-02 2.003243915378811676e-02 4.574795392645382153e-01
8.208974926389712989e-02 2.687158148087518544e-02 5.101392081942233148e-01
3.455648205354684005e-02 2.480596291042919815e-02 4.486920991806189751e-01
7.890825173943791238e-02 2.853306702786276988e-02 5.156788265695357865e-01
4.147505058103932371e-03 1.704668453401498446e-02 4.425595402870542983e-01
7.413144363738413678e-02 2.131874719058261466e-03 4.902432099836036561e-01
4.551096875135843267e-02 4.393803967580043462e-02 4.516119510857809494e-01
2.567226906226451402e-02 4.137983439411611203e-02 4.483625491237341887e-01
4.626484377413600524e-02 1.320979494356644586e-02 4.512664456300956028e-01
-2.088638855542140904e-02 2.123239256601056058e-02 4.467524206491721439e-01
-9.526910478241672371e-04 1.163838634990898343e-03 4.393290776755868765e-01
5.221863685229310124e-03 4.612116877734669801e-02 4.464734525390453568e-01
6.223485897057821903e-02 -4.080759113403089645e-03 5.128011229309866748e-01
7.978210780501751587e-02 5.180983408144961000e-02 4.594392566127883937e-01
-1.130532168694693002e-02 6.162764453848936126e-03 4.405275142600738048e-01
6.451999878256449439e-02 -4.529656305761083079e-03 4.675263896312987777e-01
6.193272740609566396e-02 -1.086238451443785136e-03 5.150962239001393161e-01
7.492247357467238245e-02 3.402270510220952587e-02 5.182216554888984250e-01
8.268790109452558990e-02 5.617293627545287549e-02 4.878107983807133397e-01
2.637637757629411606e-02 1.049461617570291924e-02 4.449309017938062327e-01
3.732936115434976054e-02 6.357651558644225598e-02 4.548546887418382645e-01
6.159576087070258582e-02 -4.294984999742087681e-03 4.631552427361871338e-01
1.647581165374094672e-02 4.036788617121175177e-02 4.468243547158370910e-01
-1.229229003232246500e-02 4.276363542070685253e-03 4.401851269244638765e-01
7.887912348942878460e-02 8.305778608413076636e-03 4.914487327702796171e-01
9.953173942616955899e-03 4.147162902200724616e-02 4.461400099013849707e-01
7.831562334472885745e-02 5.824213710714844228e-02 4.842634015719178842e-01
8.383352201829424866e-02 2.092494766318548846e-02 5.001681316494297480e-01
3.000923896260010090e-02 2.475765813717293110e-02 4.475876660600524026e-01
2.605718226525775838e-02 8.755610386452224864e-03 4.445437513274509977e-01
8.789839994904000142e-02 4.190387697736406430e-02 4.976422390055632028e-01
6.161437592351894088e-02 1.864620757168083433e-03 4.597974266705426305e-01
4.967720211856012369e-02 -7.205330508573477843e-03 4.534160103357129934e-01
4.150750100754057453e-02 1.117188439964425864e-02 4.488105937333889406e-01
7.636169377321284923e-02 1.674346230972522179e-02 4.666803884746725806e-01
6.757441266227272314e-02 -7.752867961111902829e-03 4.771008375940189450e-01
5.140645008518118786e-02 2.348534677972755752e-02 4.538297472606053762e-01
4.054693844170866035e-02 6.254036443669909462e-02 4.539677631884656561e-01
6.493093957565847230e-02 -1.184959544155227791e-04 5.098968553460094810e-01
7.913489368684410719e-02 9.006001766066244751e-03 4.795927793269822992e-01
4.916302582099044138e-02 -1.571765385364659595e-02 5.313701860625298368e-01
6.183324442482669714e-02 -1.019935247825655856e-05 5.159445717377721952e-01
2.827721959359340981e-02 2.330103839008601171e-02 4.470653751861428105e-01
6.814180833059062248e-02 3.958894411659840545e-02 4.583038699549884520e-01
9.716466785639055193e-02 3.591286264464052524e-02 4.700056077894573248e-01
6.846996389759988332e-03 2.291355844718329093e-02 4.435505291898462765e-01
8.722314373160638956e-02 5.908704850954033666e-02 4.692007959010729978e-01
2.541367683862371524e-02 6.049967386992007035e-02 4.530173940459000237e-01
8.963575529216259719e-02 5.579399061115351832e-02 4.701564437534819785e-01
2.362223908111952403e-02 -1.539711688969010346e-03 4.412980933299464614e-01
6.676818242070056697e-02 5.594235627698244950e-02 4.558041439595718614e-01
1.943805782782686772e-02 4.482764263497280612e-03 4.421860945314120550e-01
3.813224147472946135e-02 4.822413143479303832e-02 4.502688946465931985e-01
5.040438508878461454e-02 -7.593047896668577400e-03 4.540880303952485875e-01
9.236993086326274194e-02 4.506887301749722824e-02 4.656427975440405320e-01
3.523170505901646737e-02 4.300954533857831441e-02 4.498991098213369066e-01
6.637228114452532746e-03 4.887158355194068382e-02 4.470329867083960851e-01
-1.384789858013316111e-02 -1.330980311536849973e-03 4.385786709013341222e-01
-3.134014391805961877e-03 9.297405426968056302e-03 4.408729529753278031e-01
7.607447739064258918e-02 7.089244297340129702e-03 4.989791389352912221e-01
2.825032405432570393e-02 3.795540915436945023e-02 4.486640614379973635e-01
8.891068589347063400e-02 2.466109729777434673e-02 4.736018047427414390e-01
2.553705750767395338e-02 3.088831179072436782e-04 4.421247049899061921e-01
7.350552622523627566e-02 3.851903295301040142e-02 5.141615951615806646e-01
-3.653222076602945234e-02 1.387370512549121384e-03 4.419882564525299262e-01
8.063124103169679036e-02 1.996909621488365469e-02 4.690895351048677830e-01
2.420023929793257284e-02 3.754113392325156978e-02 4.478291992545594957e-01
-7.335643052405873242e-03 3.837308800590502611e-02 4.460797892198415382e-01
-8.069179088032989861e-03 -1.577236342505226093e-03 4.383397070239652416e-01
5.633072622082697239e-02 -2.810440640817728729e-03 4.570286947352513729e-01
9.004690526258753158e-02 2.405260922537924215e-02 4.776098328074460664e-01
8.881380474093326927e-02 5.261421679120577288e-02 4.656908188514937152e-01
6.155482981541769705e-02 4.403221626499269695e-03 4.593334920434686275e-01
6.455665410390606929e-02 -3.822948356258834123e-03 4.670584674507277101e-01
4.865940856054835895e-02 1.618256412136984124e-02 4.523861946726130956e-01
-2.702917417593610552e-02 1.172539269670456498e-02 4.470772001313427779e-01
7.199659758087029182e-02 1.712278675005430434e-02 5.200309513674457040e-01
9.553469347283122248e-02 4.710283232480549920e-02 4.850202864024756866e-01
8.544226893035677950e-02 3.776678634662574557e-02 5.033365383145487204e-01
9.460180290923361768e-02 3.539645586204002298e-02 4.887351149232903036e-01
9.663635457956708252e-02 2.927566777136641346e-02 4.752266524188147323e-01
8.185446960272400874e-02 5.093796461197216269e-02 4.601587794944117515e-01
9.292207985727506114e-02 3.939454858813367516e-02 4.916755069502483644e-01
7.171002299211376441e-02 9.968629367644716438e-03 5.120073819422324979e-01
5.980963640431167030e-03 5.601516948822517911e-02 4.520920783741169680e-01
2.976806318050858463e-02 2.235555003949858330e-02 4.472903204351432183e-01
6.236874708224343644e-03 1.212617497657483834e-02 4.421421390304551835e-01
-3.380170628160042694e-03 1.012853808291359035e-02 4.409513542108412509e-01
1.048316575067785306e-01 3.823669692478624121e-02 4.777693768164447130e-01
6.951382805176198332e-02 2.463191864937664538e-02 4.610005245186549749e-01
4.096405275695078757e-02 1.552226256229538234e-02 4.494722291133465553e-01
3.025334141590961881e-02 4.033054474965904607e-02 4.491012406631285647e-01
3.054656517896255086e-02 6.900746868062099769e-03 4.450344166707303484e-01
5.985928109315969553e-02 1.681723769988300102e-04 4.588026588753612578e-01
2.492196323603951269e-02 5.470451528130507862e-02 4.497848418846822072e-01
3.188399918077833989e-02 -5.980896653015427625e-03 4.425996942870892292e-01
8.627094340013137519e-03 1.390514636935352537e-02 4.426964498785725954e-01
8.201214402471092985e-03 4.298690613044903186e-02 4.461901122671674824e-01
2.643655251199836936e-03 1.020341580579952646e-02 4.414033375753255717e-01
8.110404852939799569e-02 2.448204734880425268e-02 4.677169421336945243e-01
4.978806408310958859e-02 -1.384365314306319240e-02 5.305248194475898904e-01
5.969623451955045207e-02 -6.301856349061228484e-03 4.620003768849216264e-01
6.990708267673065301e-02 1.282018577169437464e-02 5.184644961657052242e-01
-3.579529868811312521e-02 4.807267765007027828e-03 4.473706704775625709e-01
-1.924683534132068385e-02 3.201581492281655589e-02 4.480693400798697046e-01
2.358538474435304191e-02 5.540557371297060579e-02 4.498495479535652430e-01
7.163065451925614002e-02 2.226481189888335557e-02 4.629293494622836458e-01
4.229221196515089293e-02 6.316975124591871216e-02 4.574440045005112587e-01
1.745543421031404193e-03 8.335243893041084651e-03 4.410313027478450221e-01
-1.340594592007647405e-02 2.239436676748838770e-02 4.442514449656647102e-01
1.339411012678598523e-02 1.249011983845603642e-02 4.431080140465204487e-01
1.016441433603730571e-01 3.604753982442911869e-02 4.821724100297097304e-01
8.845769360947082494e-02 5.308197863704128272e-02 4.896481921282391236e-01
2.059663784644657353e-02 2.428441700503530115e-02 4.455889011835857949e-01
5.021475571503202645e-02 3.603045664189858527e-02 4.530387931774410570e-01
7.938307023748336633e-02 4.822518372513544260e-02 4.589076266513721358e-01
9.017897514762457378e-02 2.589613532775631236e-02 4.733622097180835153e-01
2.526768336293127443e-02 3.782726747986592947e-02 4.480682158962322470e-01
7.009218733149658043e-02 1.704587184246906389e-02 4.629734332871708324e-01
4.916812845410478694e-02 3.839477080467844188e-03 4.518457041622149228e-01
2.555321998368992667e-02 5.235006279495241222e-02 4.492452936084914139e-01
2.205798416006451296e-02 4.633500787553408024e-02 4.479628039927908145e-01
-5.692276085169416244e-03 4.439638096586896038e-02 4.466255789844094659e-01
2.797311874095880641e-02 5.432453402150164146e-03 4.441023401738470877e-01
2.070460070776424313e-03 1.231324014332724030e-03 4.395287582573455532e-01
7.609374668472328185e-02 1.726871465861470542e-02 4.664169742618425318e-01
1.014796286582301116e-01 4.278657133184165379e-02 4.790054003315670772e-01
8.599194305512208869e-02 2.776961386664055648e-02 4.691321530197884448e-01
9.804293047011851392e-03 4.968136639974499169e-02 4.473180089118290459e-01
8.106635125541720305e-03 5.663566838360278161e-02 4.541794168792431252e-01
8.559256826173852750e-02 1.661846582558407226e-02 4.827619693209862506e-01
2.433413439596605193e-02 5.280692597992371617e-02 4.492583852605608885e-01
6.535742227514111657e-02 -1.184294036467711028e-03 4.662440472146755499e-01
9.087485860144493832e-02 2.483086639125824807e-02 4.867472650187256167e-01
5.690285382050371682e-02 5.831008520777473947e-02 4.555582330463958662e-01
1.685477820422819073e-02 4.306723209345493519e-02 4.471077618476859694e-01
8.477907621845413855e-02 3.575890543139791100e-02 5.052939605099636688e-01
-6.463931082697237963e-03 2.377697079902230462e-02 4.435419349444996717e-01
5.870288528575308071e-03 4.720461050907432538e-02 4.466940329764176321e-01
8.615469986655620305e-02 4.123904653574788498e-02 4.656084373959409883e-01
3.218327602855292763e-02 5.154631199235675670e-02 4.496277842915362699e-01
8.415175025419965871e-02 1.560646743821636137e-02 4.899437262304042751e-01
8.918388213085802485e-02 2.607245470336693252e-02 4.919971313738120133e-01
4.462728356610605462e-02 -4.898832715186954463e-03 4.495270597634740128e-01
8.887862067135679500e-02 5.096577663550371645e-02 4.928233107706698757e-01
1.033007603847967276e-01 4.048231753404871180e-02 4.764280333366298636e-01
7.554801067284921956e-02 7.211466125357533091e-03 5.006713051173219409e-01
3.036420668924806263e-02 4.502720488299707946e-02 4.491027246291864894e-01
1.930996854781826672e-02 3.411111652820791179e-02 4.465015418910707190e-01
8.786529900174112895e-02 3.019168635203159368e-02 4.689434492829487322e-01
6.856190512209796306e-02 -9.698300254169225573e-05 5.019850255890265789e-01
-2.462927458082990115e-02 1.146607741081472065e-02 4.453917495589075903e-01
8.211365779607054938e-02 1.753306745500390895e-02 5.016477346755385813e-01
6.973314735005679832e-02 -2.315804647101844631e-03 4.747574375688993764e-01
6.633238512774655704e-02 -1.996879766302089940e-03 4.682109337277014505e-01
8.197293947132210101e-02 3.907680715658128773e-02 4.655256412575485281e-01
1.846832988992411911e-02 2.791896271146168673e-02 4.455257017750897663e-01
6.990844706523750840e-02 4.587821399226440708e-03 5.060680632543305135e-01
5.090291664686598383e-02 4.479351356344678237e-02 4.523914705881997289e-01
4.803433667555583042e-02 -7.701183601736856857e-03 5.293809587874037659e-01
1.573831970298446292e-02 5.829216079451221555e-02 4.527270458284476939e-01
8.583885778211373940e-02 2.100773341272496597e-02 4.935953878082849910e-01
1.153571538351725288e-02 3.512610862840948207e-03 4.408205864531750673e-01
7.701829010535295172e-02 2.268356960616564610e-02 5.173254105404052616e-01
8.591090463021627821e-02 2.239422286389815622e-02 4.732922635922179322e-01
7.624643263817096339e-02 4.948974652857225827e-03 4.842273269920691070e-01
8.395030638030981374e-02 2.443336034394919670e-02 5.040915762932711708e-01
9.182514124981855375e-02 2.510534368130703381e-02 4.756290428846581819e-01
4.958434983677093705e-02 2.596013228640505974e-02 4.532961423346137386e-01
8.931980593664477774e-02 4.010293870862310928e-02 4.668166851113951243e-01
4.831873803149963620e-02 4.866855642734892184e-02 4.518172351471101966e-01
6.319452632992923757e-02 -3.252481580319733882e-03 4.646946539599989823e-01
1.058073363592306332e-01 3.751003803298352118e-02 4.759459640752463083e-01
8.006693489932439900e-02 1.533260614025699041e-02 5.051089173223483053e-01
9.195058821715496045e-02 4.110195169132163651e-02 4.927211787862955106e-01
4.605496378198024876e-02 -3.889287929020460773e-04 4.504081488387541854e-01
8.057549075237645242e-02 2.025205943996166019e-02 5.094545953561612217e-01
7.332154404762124267e-02 1.159465557038175457e-02 5.117144515090948920e-01
7.163590995021051899e-02 8.454508165719474069e-04 4.962159435897892656e-01
8.039515882794094626e-02 1.056759160024818567e-02 4.782206791506591892e-01
6.588918796964333968e-02 -2.758139109433545722e-03 5.054735992037514558e-01
-1.615200913154929765e-02 1.006770595109307900e-03 4.396968892403312346e-01
7.974073406759350779e-02 5.592982256972452854e-02 4.912251835376625908e-01
8.123942050531235415e-02 4.432333228886832510e-02 4.619935644731322233e-01
6.749059064256626717e-02 4.063242508704834749e-02 4.575492809997701027e-01
-1.454638365007505582e-02 2.230471120734273116e-02 4.444839219177071366e-01
2.489718572182170880e-02 4.514791719037421908e-02 4.482875770663272141e-01
6.185436952238802105e-02 1.065209300006680036e-02 5.265992884715997580e-01
8.354504861235158286e-02 1.653764633149421362e-02 4.938258462003514149e-01
8.449531261267934079e-02 5.907716397687543669e-02 4.669411675524174354e-01
7.929867145264084261e-02 1.685226327288536288e-02 4.697626374353232603e-01
2.868103779045059337e-02 -3.856749154022157903e-03 4.420153146011188139e-01
8.335778950164934864e-02 1.652887356814238679e-02 4.946981010360984587e-01
-1.486628512532740809e-02 2.979257825577454402e-02 4.458492175226398957e-01
4.766529950712952712e-02 4.423886641322241631e-02 4.519518880945067596e-01
7.591294202495570131e-02 4.645598090687666493e-02 4.581289949921407700e-01
6.382570841467903600e-02 1.414628670410339115e-02 4.598504195740308886e-01
2.947062997607670376e-02 5.597277559232446964e-02 4.500204703213914192e-01
7.921282781509675353e-02 5.360018680703565463e-02 4.960096334455383893e-01
8.885675250262980995e-02 2.681440636209909620e-02 4.716385894240657239e-01
8.692177639824322233e-02 3.357630808777754827e-02 5.017430328396293993e-01
6.402006223554680686e-02 -8.846554631721436843e-03 4.704428838514039257e-01
-3.974767324236370102e-03 4.033099218163080368e-02 4.457681712427565279e-01
3.935140188899847319e-02 9.246049284572309401e-03 4.478395901411709734e-01
8.907265376079297192e-02 2.550618909773305631e-02 4.915443356811824427e-01
8.404606900524773383e-02 1.757023399242923015e-02 4.750118506967833665e-01
-1.780180649277701005e-02 3.426220489443450399e-03 4.403774732322062735e-01
2.105601556624560333e-02 3.469257104128350283e-02 4.469038424195905801e-01
9.096667642694088174e-02 2.880481942061021913e-02 4.917470733111469761e-01
4.080442727748464365e-02 2.779062870045688471e-02 4.506914132856952859e-01
8.643185048390292224e-02 1.955236332262378154e-02 4.772537319193756455e-01
6.738408872290310714e-02 2.462269425744687684e-02 4.599091598691448235e-01
6.791909279747770922e-02 3.103700660714224513e-02 4.593721591495158463e-01
-1.051086298372452821e-02 4.735424452619248215e-02 4.485363883840221555e-01
4.375405458043613721e-02 6.197599297543960467e-02 4.545675831633822495e-01
7.574279496490318730e-02 5.797229932290389603e-02 4.621388658348593026e-01
3.212113610417133280e-02 6.044490991789323864e-02 4.517689922568042804e-01
8.510822642430235230e-03 2.511053853249914369e-02 4.439511785866914195e-01
-1.795378926519833329e-02 3.343058149113605632e-02 4.478607855162647922e-01
-2.274032189927693848e-02 2.479588419689462281e-02 4.480874761035203435e-01
-8.306268285698673384e-03 6.604634166912324959e-03 4.403718897846589098e-01
2.324973439424104713e-02 1.456228448769230840e-02 4.449087242558362743e-01
-9.919683968509642596e-03 3.375173356638916378e-02 4.458168003291684278e-01
8.383726219679250857e-02 5.155618240743231606e-02 4.611265393785750621e-01
9.834144717563735039e-02 4.454513540196570337e-02 4.823190185045408418e-01
-1.562802636994941805e-02 4.034688978412966087e-02 4.483383608638652484e-01
5.420639795630875085e-02 1.860342607147544292e-02 4.548583305503603458e-01
1.040031549964125050e-02 3.132176669947019099e-02 4.448871628768457653e-01
7.093676264571410761e-02 4.727608793985146191e-02 4.561582141122660916e-01
9.063456123532452613e-02 5.105391090295352541e-02 4.902040005959518165e-01
7.939168881993592664e-02 2.192751641093636933e-02 5.133165299257842484e-01
-2.857535885625788266e-02 -6.834906619972644370e-04 4.405260011263342212e-01
4.947938019798771986e-02 4.769258910612552554e-02 4.520306748315278678e-01
6.055561878896748712e-02 -1.138374228095294025e-02 4.671998033155024821e-01
-4.531180328875104336e-03 4.077233386259029868e-02 4.458934023515931377e-01
7.964314822814416717e-02 1.515044368956703497e-02 4.713992652244183845e-01
5.700730890051459304e-02 6.028219953015452603e-02 4.599887095876154519e-01
4.447762233122284914e-02 4.703305501081889162e-02 4.513911857126965410e-01
3.284096393516966472e-02 4.238375853315282105e-02 4.495079332252065463e-01
9.167548657438151505e-02 4.919025692763863422e-02 4.678972055522400697e-01
9.038556190577462512e-02 5.322880336883629299e-02 4.688842683066123951e-01
8.440735728312895314e-02 2.491885577547010150e-02 4.702259155221515385e-01
9.085338491775703240e-02 5.218268385487545569e-02 4.871537567811258795e-01
3.639320836075395083e-02 3.523946704794513052e-02 4.498397194666340360e-01
-1.271195757864332192e-02 3.900944621006045832e-02 4.472051209241511005e-01
8.706035239490578226e-02 4.449138855252925823e-02 4.982891302513335341e-01
-1.185381992198330722e-02 1.183228305475635643e-02 4.416531732158401335e-01
1.017608707198931345e-01 3.211268115963303998e-02 4.784596810603566897e-01
3.574563127975066007e-02 2.215426184093751902e-02 4.487304860354924263e-01
7.527926155874717362e-02 1.291807451342987488e-02 4.682684975993842147e-01
1.895704895112227187e-02 4.318098981596081576e-02 4.474057429277889519e-01
-1.517652459588395876e-02 4.514110350051871168e-02 4.491670578451201212e-01
5.705930080852467112e-02 2.077484637120791469e-02 4.559473729177041523e-01
-7.939653026690280703e-04 1.046947840100697497e-02 4.411880074771332150e-01
6.217731504021906108e-02 2.969185747596824951e-02 4.575318967181103980e-01
4.799400243663894811e-02 -5.333513077367428232e-03 4.518512361225883733e-01
-1.531088348669205727e-02 2.996284690064109080e-02 4.459818572773930345e-01
2.852103967254291869e-02 2.656282193704667324e-02 4.474166579354184603e-01
9.566503602988081501e-02 3.604177637593778544e-02 4.685968152724351854e-01
7.290044216443045122e-02 5.933955638792159232e-02 4.628292406650331703e-01
-2.996627518186037453e-02 5.682460290137976433e-03 4.438206497170091303e-01
7.102034152675204548e-02 5.893561827161260258e-02 4.591905373995624484e-01
1.364549338396221258e-02 -1.004649597222123571e-03 4.397664688572442970e-01
4.101197464736458520e-02 4.467279404785000352e-02 4.508408906524674631e-01
-5.023549814111733305e-03 1.241384981530452465e-02 4.411615295394047953e-01
-2.455182515036562901e-02 1.677528768264559614e-02 4.476542220356125035e-01
7.084279517892232148e-02 3.386450180801412607e-02 5.221632543563834439e-01
6.117820723483612805e-02 -1.851395243043192813e-03 4.612471514523861504e-01
-1.680146435519460496e-02 2.147161021592029762e-02 4.452355922738633898e-01
9.533251600676009851e-02 4.194277441498052428e-02 4.883933412310976219e-01
3.068826507225492356e-02 -2.104530073134964954e-03 4.429219409521215067e-01
-1.240667915009115857e-02 3.717270484245956824e-02 4.469050533415882542e-01
1.298486506473088033e-03 3.511672464968996349e-02 4.449908338005924557e-01
3.839741156281680640e-02 4.503784744565394321e-02 4.503851836153308641e-01
7.816066495876144993e-02 5.035343176918302688e-02 5.007695441223545263e-01
5.095664592159446227e-03 5.106403335422085576e-02 4.480641571587186123e-01
7.400278213595844201e-02 2.139939322184010451e-02 5.205525231858278978e-01
-2.451936193036979503e-02 9.692578496310548519e-03 4.445349579761631031e-01
-1.108230170607667556e-02 3.376460078071591431e-02 4.460434750572186413e-01
9.138573318125210732e-02 2.520855194393690352e-02 4.801462796164402413e-01
3.874301851965362975e-04 1.326896127447108747e-02 4.416944028478087536e-01
7.028264304043874144e-02 -2.999648614636293842e-03 4.918787815172881439e-01
7.450509333495318465e-02 1.941722896404425927e-02 4.650730189573633044e-01
6.410834250157677883e-02 5.935757173057008840e-02 4.582246688071652807e-01
2.957232143131295621e-02 5.915518251306597225e-02 4.508830218483884655e-01
1.049105839097286275e-02 3.450528325549915426e-02 4.452986054387091386e-01
5.895040989157469824e-02 1.395301035020619917e-02 4.572000595605615891e-01
7.926855198790955237e-02 3.696264708615809580e-02 4.651610490811475818e-01
7.703600505034985391e-02 2.743779402016070790e-02 5.186992645581640637e-01
4.671704308753028140e-02 1.937749599213219737e-02 4.519202117899954185e-01
7.498353981503132204e-02 2.923397632708637367e-02 4.625946519472533547e-01
1.473445738358991966e-02 -2.300474207443718722e-03 4.396244479130080318e-01
5.913538328752550310e-02 4.795334073992186391e-02 4.533970906489753760e-01
-2.074267069475820013e-02 2.330585964043621963e-02 4.468405177195173827e-01
1.042646143648818906e-03 1.448291622236980505e-02 4.419251741986914839e-01
3.510491242495365066e-02 2.658146661721807677e-02 4.489682024055288712e-01
5.547448891738911148e-02 -7.441386271404718498e-03 5.236753354407513994e-01
9.316333492093596333e-03 2.577531532145358600e-02 4.440995816359597503e-01
-2.980493734747898232e-03 2.483643516253951702e-02 4.435604726828001332e-01
5.742023173841015460e-02 6.487448522589357031e-03 4.561350356796693983e-01
8.516903630206329456e-02 5.534428024640154070e-02 4.641307735138462953e-01
8.068502112411057858e-02 4.386478206147931963e-02 5.058041319708868055e-01
-7.701390262445580691e-03 3.333293999966001689e-03 4.397238239703887830e-01
6.435298185250412639e-02 1.447987838756436586e-02 5.268532896060083015e-01
-1.030956057705459741e-02 3.317296012400177546e-02 4.457514270726218863e-01
5.992320065732521794e-02 6.084719742950374377e-02 4.608475927960536955e-01
6.940348109852095826e-02 -2.731193166685939606e-04 4.995000762455829579e-01
8.393090879161410611e-02 3.218850310835550538e-02 5.068914534303664565e-01
8.486955091159376074e-02 5.507205771748150541e-02 4.896749864552716880e-01
1.120929784954852355e-02 5.530702149677452911e-02 4.499738172864302110e-01
-1.154161559708851391e-02 2.063643594786906954e-02 4.435570218735837567e-01
7.130566197794971361e-02 1.666040252906856450e-02 5.203859939018287140e-01
7.921264971432685764e-02 5.451375116886542777e-02 4.597163242069966516e-01
1.008379396216385337e-01 3.937136474165064265e-02 4.832665919751485406e-01
8.050309137873896959e-02 2.593999499444275131e-02 5.129171613111198624e-01
7.046931739085496305e-02 5.004096063048227641e-03 5.056662534791553920e-01
-1.424292489177937920e-03 4.960179946735254752e-04 4.391201133572927295e-01
8.513202568037701867e-02 5.401753428771094434e-02 4.624758241172621798e-01
6.914996483710049435e-02 -5.423991882086678408e-03 4.944915498113007790e-01
3.503320213412208090e-02 6.375236750075391479e-02 4.539316822765475656e-01
7.434596397949339019e-02 3.370465468608703496e-02 5.192959722643012421e-01
3.625162943330917376e-02 4.549576046719108063e-02 4.500069729279472797e-01
1.812667462085718051e-02 3.236909113346533862e-02 4.460736463978108857e-01
3.304127647868646683e-02 3.247275843884740720e-02 4.490038701713491842e-01
5.342464173315443487e-02 3.146261004967552954e-02 4.544943383214337107e-01
1.181524214363963848e-02 3.429097232305984566e-02 4.454507310897247718e-01
3.633209712839331751e-02 5.245923550361706461e-02 4.502272907871612828e-01
8.538453095606006460e-02 2.242073133792862882e-02 4.727172635247756660e-01
9.339036891157476150e-02 3.580094801155375706e-02 4.908900962076685470e-01
6.052679313483355639e-02 -4.487555794179750451e-03 5.160461126934874354e-01
4.377169335481852913e-02 1.965085887031151057e-02 4.508518000740098230e-01
-1.901839911895657903e-02 3.694118954943627353e-02 4.492580905400931912e-01
8.445952998508242382e-02 4.050287755689102598e-02 5.036737820778423025e-01
9.114582211301586190e-02 5.444751257502111058e-02 4.768197593609349583e-01
7.839935420875884797e-02 3.036018964690649635e-02 5.166697982556655022e-01
8.335754364626693502e-02 1.405822169202899929e-02 4.889550037469094224e-01
2.224515100572634768e-02 -2.568874049889706586e-03 4.408102328663453529e-01
5.193993168914912140e-02 2.467686516238738574e-03 4.534978431081472250e-01
-4.246324102340320872e-02 -1.121832662393691671e-03 4.409504562935501748e-01
2.489522371750198942e-02 3.793394079582816658e-02 4.480066799284330159e-01
8.723062169489791129e-02 4.995034600964847610e-02 4.634398379894260622e-01
9.173586302733627296e-02 3.673570743253608967e-02 4.934872770993437019e-01
7.231834806774552205e-02 9.385311810572196517e-03 5.099686793829106835e-01
2.911669166773137724e-02 -1.528021658917638834e-03 4.425771809010911606e-01
3.497536456954047912e-02 4.771372762979639998e-02 4.497796211352187989e-01
6.180143856018520399e-02 3.099380081678177259e-02 4.572979435251858793e-01
-1.556920897034787601e-02 6.393893498838845550e-03 4.408802322022419840e-01
7.930896678081099382e-02 3.502402188109550452e-02 5.142297621821436682e-01
8.332233370250614890e-02 2.023988625606532726e-02 5.012427465638342738e-01
8.631619383988865801e-02 5.267308609123592250e-02 4.940560569073831343e-01
4.370214862003152234e-02 5.824382163123551642e-02 4.516801097666008902e-01
8.457888622632793452e-02 5.083805009130019231e-02 4.976749835824169077e-01
5.801326386107357597e-02 5.403122674364973371e-02 4.529498520171659215e-01
7.321990832895958201e-02 2.626483105067301330e-02 5.237738440880441715e-01
3.793548269474893847e-02 2.479062213214950489e-02 4.495986655353046979e-01
1.343003248395876342e-02 2.761273210259695965e-02 4.447209389399157664e-01
6.407017667386619153e-02 -6.738042231694496564e-03 4.685115999854574942e-01
2.809058801766414065e-02 5.396084792739177377e-02 4.496478189786970447e-01
-2.254732982690343945e-02 1.528064442620567613e-02 4.463376881891289449e-01
-4.717837297463564096e-03 1.207302530476467295e-02 4.411449710993001205e-01
5.120087266719748620e-02 4.304097198913287015e-02 4.525123464973513365e-01
-1.724577295852992853e-02 4.455355234199981362e-02 4.499276837364527548e-01
8.466912572702736672e-02 2.536245298692110794e-02 5.018358362199819567e-01
3.654499127956438442e-02 1.270515150756988502e-02 4.476520589646932335e-01
3.068819308047976077e-02 1.619471507892843165e-02 4.466710508154049242e-01
7.369842233393479602e-02 1.302561888363895290e-03 4.834644379070852649e-01
6.887905830063817403e-02 1.030424712085158123e-02 5.168906615600504795e-01
1.903251498534121178e-02 1.547989791072361745e-02 4.443295901356247302e-01
8.399099735405392980e-03 2.586617120518999377e-02 4.440245571218437992e-01
-1.961704862036009467e-02 6.887428456109964160e-03 4.418841574126335936e-01
4.346791227404066260e-02 1.668173115869651946e-02 4.504938279404275825e-01
1.346113008426171910e-02 4.764097282048211646e-02 4.472388474557096871e-01
-1.419588285137118704e-02 4.541082400313233708e-02 4.488644245667631760e-01
9.068947467433723097e-02 5.340354829890162081e-02 4.848790225229600015e-01
5.650844120984434282e-02 2.728440378368738456e-02 4.557573494398183267e-01
8.316377284920109525e-02 1.971665907633180295e-02 5.010627701598812100e-01
9.367562729744467742e-02 2.973505402589895347e-02 4.877973747773061142e-01
7.585696391867496891e-02 3.867720343921110526e-02 4.631568774271759836e-01
1.687884063301124497e-03 3.818425918413294318e-02 4.453454651253798691e-01
2.575826672744106760e-02 3.788452019692545997e-02 4.481702040027008560e-01
5.882518417005316164e-02 1.895503562433425646e-02 4.568655433116858289e-01
5.153207688836732026e-02 7.365925196895174373e-03 4.531505142032697941e-01
7.342396433944393952e-02 4.183366185789083591e-02 4.599668176031164180e-01
-3.258043254150561757e-02 4.179323173698691260e-03 4.436612784919315433e-01
-1.627428796143570028e-02 1.751847174227027723e-02 4.441861052050803949e-01
8.144075473880367511e-02 3.924297587215652694e-02 4.651794683931143592e-01
4.765867800913908131e-02 5.899387013098197907e-02 4.530566934267484802e-01
8.974172615472959802e-02 5.316521113839017126e-02 4.872083344643102221e-01
1.490962148397288745e-02 8.374861272258352085e-03 4.425480209965949596e-01
4.827784383462947748e-02 -1.279332212638238306e-02 5.316537268612833156e-01
6.825988648655759161e-02 -1.197072353675362631e-03 5.008705087648590570e-01
8.464566804758845431e-02 4.191929050312321464e-02 5.027319341632379146e-01
3.318649858972647776e-02 4.806020315455976355e-02 4.495221636786779773e-01
-1.453730194731181480e-02 4.314148614524564856e-02 4.485188515127545017e-01
9.019889386514942653e-02 4.672248031589709000e-02 4.654692403816858004e-01
6.685878739279702693e-03 5.939924648507384150e-03 4.410717028155683450e-01
4.165074173949379066e-02 3.113381783600966193e-02 4.510435458978630519e-01
7.146814447393406988e-02 1.422020266838367429e-02 4.643106786414712417e-01
8.993198528398378688e-02 3.862815012938540515e-02 4.671749751285957375e-01
-3.874730009447328871e-02 3.000406283873434041e-03 4.440621122680096788e-01
7.609306289288045311e-02 7.449634359231929043e-03 4.998073085195448573e-01
-1.071900984197729327e-02 3.804075440079988935e-02 4.467010229194341431e-01
7.355511561655229957e-02 2.520000046667372068e-02 4.632614737179967523e-01
-6.777478686615100688e-03 4.408002387330823939e-03 4.400538950642851610e-01
1.896200132162725177e-02 3.428923288129004376e-02 4.464561583136483769e-01
9.391323303443409320e-02 4.905404957901795399e-02 4.737183734099607024e-01
-2.057786062837784272e-02 3.365793032104007210e-02 4.490962287187993951e-01
5.167601204818092486e-02 4.446577944255716321e-03 4.531408994209855101e-01
7.926145207211157673e-02 3.832553589961504997e-02 5.113375253965785072e-01
6.154173251922456789e-02 5.334381545643730044e-02 4.536679421859112771e-01
4.916053870408004095e-02 -2.076907038891942850e-05 4.520034268965330559e-01
9.590054458720463637e-02 4.729534012802113357e-02 4.785260232288269799e-01
5.794700613304298170e-02 -6.204653399575408429e-03 5.204250291588133903e-01
5.487418197132619413e-02 3.531398005874812618e-02 4.543540204099619784e-01
6.399675288569772746e-02 3.537560737855783427e-02 4.570792030392640259e-01
3.880357789878950692e-02 2.118442661834297764e-03 4.469679224961314867e-01
6.820040523434145463e-02 1.491840844659319751e-02 5.224645560414921119e-01
8.387563409318010699e-02 1.440294406225233262e-02 4.846061779089713695e-01
7.691069847246365110e-02 4.992818422638497372e-02 4.579751897701594410e-01
4.348544368070993843e-02 6.293644308118616360e-02 4.576371706841506626e-01
9.116337801333974922e-02 2.988666522954261384e-02 4.922401534213668439e-01
2.896142856924800724e-02 5.822455003383186084e-02 4.505997444660364004e-01
4.526222703708287706e-03 5.686716343375974002e-04 4.395068866483061165e-01
6.694913922815667884e-02 5.879511991200223053e-02 4.563388894611135060e-01
6.393814503825789863e-02 2.554530159899112696e-02 4.585252855147317064e-01
6.441378176720874427e-02 3.417086422346499175e-02 5.243520142506460369e-01
-1.838885659165720877e-03 -1.413684800139886327e-03 4.385751392698428730e-01
-3.921659524932752383e-02 2.917168594747630850e-03 4.452202973062919233e-01
8.843045547310376953e-02 4.461058969178152700e-02 4.958653386711196487e-01
6.175592318206573478e-02 2.928424105634425817e-02 4.574349300716510913e-01
6.420871512967227246e-02 -6.536168929045152627e-03 5.075544714415636260e-01
-1.322044875573824899e-02 2.186411992355681913e-02 4.440988805583858112e-01
3.260286846165686564e-02 2.667130136616688296e-02 4.483699070166408118e-01
8.319813104943854509e-02 1.930385598211051615e-02 5.002325727621461660e-01
4.381733404427664430e-02 1.500899397912256773e-02 4.504943147226459499e-01
7.342057481497377136e-02 5.994088603876678023e-02 4.659194011477303388e-01
1.015248823816971430e-01 4.070538739418348706e-02 4.724513574742977839e-01
-1.135072938617389705e-02 4.621756724638919483e-02 4.483641816581483419e-01
6.060545295579553710e-02 5.874028559010086026e-02 4.577581621163659964e-01
7.975586052288878569e-02 1.393273417926465044e-02 5.030463286988888783e-01
6.953705137767288158e-02 3.507770842885796214e-02 4.599402467517707538e-01
7.158195912705195285e-02 2.046332866981431450e-02 4.632344641984331157e-01
8.735093536466888298e-02 6.119247864593885256e-02 4.700437109414595249e-01
8.322971030582487773e-02 2.983202876664178826e-02 5.083695473848368618e-01
6.326100601146052160e-02 8.275554389477990727e-03 5.231300337528947964e-01
8.886608445786943478e-02 2.280638150865868519e-02 4.784443449030024165e-01
3.883212720658258538e-02 3.838232659327322355e-02 4.504720290584227627e-01
9.479407721508904816e-02 3.861743604916010458e-02 4.895530823590465430e-01
1.043476773971626914e-01 3.813493974990301433e-02 4.740879714113307442e-01
4.887338470790410228e-02 3.216451835735108927e-02 4.530552104066947749e-01
1.763359013072711423e-02 2.111110128325242169e-02 4.448097795513491493e-01
8.812596062262979812e-02 2.147136972088161885e-02 4.802989437001303208e-01
3.166541714262709195e-02 -2.675656611424017100e-03 4.431421210840658653e-01
5.951897361370771244e-02 -3.947859403831150554e-03 4.602417966681873751e-01
4.273679987026161170e-02 5.429982025281886865e-02 4.509306681116023174e-01
1.011127505858310516e-01 3.602049594471733868e-02 4.730293049459335375e-01
6.918126437364519044e-02 4.093666311992679580e-02 4.582556881585290176e-01
8.103791560804228522e-02 1.664635434784716289e-02 4.718325085598505941e-01
-6.282807587107544500e-03 1.461294055168646522e-02 4.417337877122670675e-01
7.020233654353609520e-02 5.462560936970152492e-02 4.564089423220917818e-01
5.617259634988403666e-02 6.532178523257129929e-03 4.554815994668353629e-01
1.758491861569319234e-02 3.693859380752768928e-02 4.465894957963962297e-01
7.220968728219998023e-02 8.227472123504124026e-04 4.765152336418638779e-01
7.308465921548069899e-02 8.962459700947939326e-03 5.080229153605145820e-01
8.042341885714499039e-02 1.028891968990844168e-02 4.819293239788966510e-01
7.681610592140580840e-02 6.300193186471191725e-03 4.790647447513898260e-01
3.537652165800268117e-02 3.464419365083457741e-02 4.496107370982674323e-01
4.307594131440817958e-02 4.412999928997285437e-02 4.512055756587213806e-01
8.043055092326019395e-02 2.196799287485273755e-02 5.116469929467698519e-01
9.783766747327567181e-02 2.981233497875067015e-02 4.817104368625325650e-01
1.192289344671092557e-02 4.845162196223254392e-02 4.472668681641824295e-01
2.657345217819357883e-02 5.257966520354730167e-02 4.493882763517270673e-01
3.914447626597639812e-02 2.836364905459708586e-03 4.471587341483336808e-01
8.540697638278553494e-02 1.924853020355986322e-02 4.751656586901061852e-01
8.693138769112850051e-02 2.521915402494861319e-02 4.959872041351362504e-01
7.213896796403485023e-02 5.549588081337538531e-03 5.036352077478961631e-01
3.084877817209962653e-02 4.471866573323018262e-02 4.491788722802168010e-01
1.214287091781276681e-02 4.276908648965853377e-02 4.465039953917764315e-01
9.399187845105128059e-02 3.011748199025702719e-02 4.872831029585812934e-01
7.233811560255451467e-02 1.621885534954142088e-02 4.644396664835253596e-01
1.430434135317366906e-02 6.971878415216753271e-03 4.420797860884310149e-01
6.895455398723331075e-02 2.106611605338868515e-02 5.261934431690831193e-01
7.680067509603248632e-02 8.985287981367537369e-03 5.016715382037517656e-01
2.197098563355986273e-02 2.571170636364916023e-02 4.459149862811480070e-01
