-4.884323934350029081e-03 4.121337462065264440e-02 4.460308661419453702e-01
7.449611341761956662e-02 2.597140935956467663e-03 4.799918126253481798e-01
7.031829277482981588e-02 -4.455672602631978972e-03 4.802414386317311878e-01
6.827618097447948897e-02 1.366159589470120582e-02 5.220100510118930170e-01
9.448052195126906139e-02 5.013608863340589944e-02 4.762961348259665550e-01
-3.692335887868336552e-02 1.941453686029517151e-04 4.410667471632889747e-01
7.202536668754590254e-02 4.428850625954302081e-04 4.753577268787010368e-01
1.939359648694727323e-02 5.966780529811782641e-02 4.529022893762360558e-01
8.392003432179143130e-02 5.595787165686873926e-02 4.868823686515028615e-01
3.934301133155160800e-03 2.555425057405685124e-02 4.435478995310357386e-01
3.363444832555076425e-02 4.936288234892430293e-02 4.495799970925451472e-01
3.809185930189827596e-02 4.894704067395488217e-02 4.501692592985320762e-01
1.529835574835954927e-02 5.840062190137461362e-02 4.534038515007789982e-01
4.039253521812417175e-02 2.442914710294699990e-02 4.502567122799858712e-01
4.296118165547478662e-02 1.708944364911248182e-02 4.503111257727346328e-01
7.993755508885358463e-02 2.853403584991030112e-02 4.653560696545702147e-01
9.115216980809924541e-02 3.349863063692760240e-02 4.680931660944761541e-01
5.125776865738033983e-02 2.230510887436709666e-02 4.536918397530227409e-01
6.154541607464739800e-02 4.670322162666194071e-02 4.541013481906406857e-01
5.199022543834455612e-02 3.614547054265300659e-03 4.533659521143136861e-01
9.619014048658389160e-02 3.051858625531764235e-02 4.854474457984069291e-01
5.887397826357532865e-02 1.122906644269685596e-02 4.570545294858738283e-01
2.105433474999501842e-02 2.618881598659788743e-02 4.457527671342082498e-01
7.043097801952753756e-02 1.490309672619194795e-02 4.634157054898262462e-01
8.529478743655038997e-02 1.525762326172033258e-02 4.827024827991299172e-01
5.366721699694665393e-02 3.541332256324263798e-03 4.543296165086940785e-01
5.481583909145369693e-02 4.422330572689463918e-02 4.529595969950135914e-01
-1.422424948615561013e-02 2.802608828309514216e-02 4.454591646589460829e-01
5.835025347335584534e-02 4.445458911575355353e-03 4.568876645482476961e-01
3.897046855288421180e-02 3.936828809567088222e-02 4.505137100215445556e-01
-5.929590407015077015e-04 3.207189251976275135e-02 4.446519409880740348e-01
1.498951039631325885e-03 9.618666615670214137e-03 4.411963851464723585e-01
1.527719694512695917e-02 1.211826614800410110e-02 4.433151358678610876e-01
5.306883305194669276e-02 5.302445925070684019e-02 4.521841818180736272e-01
8.658723451882302524e-02 6.143975092090799700e-02 4.725225054205566821e-01
5.952741055054870667e-02 -5.184995973366021867e-03 5.181586173366582448e-01
6.183857058263080714e-02 -3.480249879026746720e-03 4.626851875838101091e-01
-5.448234764597928957e-05 7.899848826352206393e-03 4.408575368400760586e-01
9.741454027941398586e-02 2.825884159741554047e-02 4.765826847057956228e-01
-4.080293797168918490e-02 -6.048352803779692873e-05 4.410217728158549177e-01
-2.015501413916351986e-02 1.537235803617273411e-02 4.453183922197872513e-01
8.059650836491451253e-02 4.876012567781932983e-02 5.020960266575069664e-01
4.972112489388308409e-02 -1.254669246505058476e-03 4.523490372854490627e-01
-1.797263451797061207e-02 3.117908695201001418e-02 4.473896596583492036e-01
8.910416492104063224e-03 5.030595777602035745e-02 4.474734915435462090e-01
7.106582626728420726e-02 -3.312892771248281826e-03 4.818651128269090256e-01
7.817525411527842527e-02 6.616042910320122164e-03 4.854782784172538279e-01
9.431867268455874920e-02 5.039788545159648581e-02 4.761608429821165833e-01
7.568727528498582491e-02 6.220669497414302307e-03 4.740532959321346329e-01
9.455328609865464029e-02 3.717861442785452136e-02 4.910463482262949486e-01
3.947128467400162072e-02 2.546523786003852124e-02 4.500692483922714149e-01
1.075936228233469703e-02 5.244379313365193918e-02 4.484700258558657615e-01
7.565591188194849270e-02 5.711498853091881434e-02 4.592068412266452904e-01
9.381556095392151740e-02 3.172077881420554135e-02 4.900694839919704227e-01
7.144154927196562366e-02 1.760472618835687633e-02 5.219030212889600451e-01
4.866315602714351568e-02 -8.796394319685232194e-03 5.294230552282651603e-01
6.502130502712499815e-02 5.761768338931675532e-02 4.559937625929949556e-01
8.543673793688967566e-02 1.552708877424888168e-02 4.805974788881937632e-01
7.344503425086541804e-02 3.798080814939810285e-02 4.615836717878008533e-01
9.446277311189625603e-02 3.302298401940600980e-02 4.892683064868070253e-01
1.021702879069780467e-01 4.056107670309957308e-02 4.729542876085185421e-01
6.948453445727430233e-02 3.721358627722883353e-03 4.673772138018351119e-01
7.637188154826864139e-02 9.924737231901098466e-03 5.058129016120850308e-01
4.818017461048640523e-05 4.977942385925351182e-02 4.474337561877998470e-01
7.383837970371000259e-02 4.195053915001745182e-02 4.598552134202437136e-01
1.948237209227767289e-02 8.493598923606794984e-03 4.432495633990510275e-01
5.632075754961568537e-02 2.397190040761619859e-02 4.555943603030152556e-01
7.417154239240780766e-02 1.435071318850704956e-03 4.832842173660843454e-01
8.900628527787179944e-02 5.712146283167421346e-02 4.765289438925053855e-01
3.376925199850482756e-02 4.565862345073691542e-02 4.495345298620017638e-01
4.648858670689170330e-02 4.320132674911816156e-02 4.517263728282133184e-01
5.818209231561668332e-02 5.842923004201452247e-02 4.564387154841406669e-01
4.770634757095731926e-02 3.395149352191789011e-02 4.524560132143026769e-01
5.333163083939200522e-02 5.031458972335245416e-02 4.523854680291518049e-01
7.392111701430249815e-02 3.119728713024536113e-03 4.758602548592202330e-01
3.299220775098601899e-03 4.582092662469774980e-02 4.463152332291308033e-01
6.791529079124214441e-02 6.941661826602654392e-03 5.147420029778984052e-01
5.628499174332764199e-02 4.889260457378731550e-02 4.528934881493121845e-01
-2.176608915484303311e-02 3.406616056485625710e-02 4.500510843299524444e-01
6.948031748967421761e-02 6.052929980866025850e-03 4.653890430377931597e-01
4.302907636502258104e-02 2.902871395403458510e-02 4.514177352909383711e-01
4.259263318085234479e-03 5.342845276761394591e-02 4.492175029959987742e-01
1.329472405287447298e-02 1.375219121211968421e-03 4.403707004439242345e-01
7.252492092400619761e-02 1.086181568259841912e-02 5.129980484279460518e-01
-2.085046289380532852e-02 1.424355062994691300e-02 4.453545322654388072e-01
7.227952793171961432e-02 -2.094532086877398148e-03 4.877896085383143787e-01
5.267758604772983938e-02 2.770467308940353229e-02 4.544108335559867706e-01
1.099526611656598263e-02 3.908397818725060230e-02 4.458504823776647252e-01
6.418969620550449284e-02 2.175945768044198342e-02 4.588541775101272480e-01
7.026220762531192043e-02 5.461950118452850444e-02 4.563234844433431969e-01
8.515732364458279691e-02 2.572067082014614647e-02 4.696777064313945593e-01
6.682755257555858530e-02 1.979910616382543186e-03 4.651871489427131245e-01
6.439171185528300145e-02 1.285864449120173447e-02 4.601820722561669741e-01
8.685263832790227068e-02 4.480407316256467681e-02 4.635653485194234924e-01
-1.720977139653165691e-02 3.813995012397652061e-03 4.404518745359520260e-01
7.586902077802731847e-02 2.299372420188718069e-02 5.200884353942450966e-01
2.138416131781241750e-02 3.554547269653572650e-02 4.469942600965692292e-01
9.114117526755834142e-02 4.817340599668702705e-02 4.924904571065867875e-01
4.857227070460549273e-03 3.344694281390951651e-02 4.447595123678322881e-01
8.740935483093532909e-02 3.724487225330968404e-02 5.011135529638689468e-01
-1.510724808148038167e-02 2.960094729142834571e-03 4.401108170921995133e-01
1.155983440777384220e-02 5.367956241123689881e-02 4.490505876597543078e-01
2.546240749558098537e-02 4.466579252894510577e-02 4.482814362123656582e-01
4.410202808570677646e-02 -9.137641941769521908e-03 5.328535113172753190e-01
6.985395644875613819e-02 -6.540399175526252079e-03 4.848089102579629106e-01
7.914440787130075372e-02 4.797512208376178422e-02 4.586543205528141876e-01
8.461700646411406124e-02 2.384332198251917778e-02 5.029199310081078345e-01
-2.609460272692510491e-02 1.353129148298983647e-02 4.472611539280644255e-01
6.944781453318935038e-02 3.970740817259969108e-02 4.588217554115129881e-01
1.441640991923015189e-02 7.710017413799016318e-03 4.423158329446333359e-01
4.407862619870105136e-02 2.247252872047538277e-02 4.511857365563421984e-01
6.740938031013958553e-02 4.232902269110227350e-02 4.563510786836074695e-01
1.715774093992168681e-02 2.983535652770157379e-02 4.455290111394255570e-01
6.364458460140492990e-02 5.225766228593514001e-02 4.538353316536841708e-01
5.826449901064083281e-02 5.257928672735313891e-02 4.529487298361605241e-01
9.866718392021146811e-02 2.931192970896467215e-02 4.814366221589232997e-01
3.782190464460254056e-03 -2.665194333929461409e-03 4.385697824141055468e-01
8.446867575119991478e-02 1.749789836768547713e-02 4.939958379682956591e-01
4.893821680063906859e-02 6.097817031879641803e-02 4.565943057738305333e-01
6.711815343021972080e-02 5.972338425124371075e-02 4.577347504870163952e-01
3.606065700863838458e-02 4.669833483017367393e-02 4.498673721859061114e-01
7.264345322696320884e-02 4.693370527147753060e-03 5.022194155118724357e-01
5.639313272268474397e-02 1.691415340449240953e-02 4.558664592075054034e-01
5.614168657387592909e-02 -1.019324757522904745e-02 5.237478584128306691e-01
5.879616384583759986e-02 3.929751460840526928e-02 4.546290178104139268e-01
-6.313950197784688398e-03 1.171145020765739994e-02 4.411099555088804358e-01
9.524877748964850899e-02 4.681711068700961098e-02 4.876781118026258244e-01
6.499399680934475620e-02 2.403893601192478441e-02 4.590096224761906485e-01
7.087928628792884711e-02 7.369287790345121353e-03 5.104557606430284444e-01
5.997230147297904872e-03 4.590449136917311435e-02 4.463958423689666777e-01
6.756826404840124423e-02 2.719099553124807236e-02 4.596171681089568084e-01
7.961736962571624998e-02 3.424644531883376530e-02 5.147772519223149379e-01
1.016136515955366748e-01 3.501384373670499844e-02 4.828809864878908509e-01
4.500336240276694988e-02 2.689742799984340058e-02 4.518592045481659714e-01
7.223113268627782968e-02 2.677262350995764442e-02 5.257549750831789215e-01
5.667561067627899241e-02 -8.752993903687797048e-03 4.596179461535673250e-01
7.043035946114824253e-02 8.999457911043024644e-03 5.135802585888492588e-01
9.139547353618032721e-02 5.085188070657055415e-02 4.900535176236369139e-01
6.053535329659143205e-02 -5.093996299934580585e-03 5.162130859408594619e-01
5.129097439853429891e-02 2.401618664966219136e-03 4.530667398104034072e-01
9.208895384206886026e-02 4.143952816751106383e-02 4.935651024873459747e-01
9.890933224291724446e-02 3.111191831158102716e-02 4.833906410101906359e-01
3.274645446432448981e-02 1.308879710365338546e-02 4.467516202440453554e-01
-1.558412791446731754e-02 2.746832953479863906e-02 4.457027344141842873e-01
8.509476854314247662e-02 6.224186646204325768e-02 4.698705568905416907e-01
8.813606472604749997e-02 1.947369010098483344e-02 4.862225119488116087e-01
5.392893637013220637e-02 4.344743817830985094e-02 4.528779302813681351e-01
4.631733560205283234e-02 -1.477979011759413897e-03 4.504776546577354268e-01
-1.153425399297853225e-02 4.035783746366011088e-02 4.471685642831623175e-01
8.243296466132442324e-03 3.589725172960882369e-03 4.406309104901137141e-01
8.546420467076334959e-02 2.668269411229727897e-02 4.691872220734282228e-01
8.461672774106401840e-02 5.513511273781776523e-02 4.898313361747335115e-01
7.909108704707269732e-02 1.648792276716814706e-02 5.097311457960346237e-01
7.508392924067792962e-02 5.351205334466329136e-03 4.741327057576568693e-01
7.894147349949939829e-02 1.089861606566721458e-02 5.009689177883610567e-01
-3.826175403859708064e-04 4.777564098661408326e-02 4.465158579284643214e-01
3.854282158617746562e-02 6.231098150299407834e-02 4.531935805484272883e-01
5.002316766478624201e-03 5.306215107058966790e-02 4.490092892555424542e-01
9.023920044500763349e-02 3.239836655260187881e-02 4.681052739013308872e-01
-5.691663175534912578e-03 2.610824472297444340e-02 4.439921972711499132e-01
4.833717418643654340e-02 3.974165936429559232e-02 4.521783666066636620e-01
4.002429437309679150e-02 6.153821197439198615e-02 4.529006268404462410e-01
3.150326555095425002e-02 2.816212534689689628e-02 4.481896002700332393e-01
8.507117304233630106e-02 1.729244866419147805e-02 4.919146317289373460e-01
4.687488634003949411e-02 5.405351168054298855e-03 4.507408037340471241e-01
4.028724660836816018e-02 6.283070242291693974e-02 4.541433369310680090e-01
7.395691379405402999e-02 2.743694053234022046e-02 4.624363882519134661e-01
2.281553950527561575e-02 8.093868304178764364e-03 4.437861977917332279e-01
8.274012818164167005e-02 2.537630362562055125e-02 5.096918200994179360e-01
8.127827360130598922e-02 3.554361224014607884e-02 5.119707034569531690e-01
7.815679157091767748e-02 4.372631028326880165e-02 4.609170714627572885e-01
1.690393015551899109e-02 3.277172829046971075e-02 4.458469230490779700e-01
6.998577082567443430e-02 2.012000754245543352e-02 5.252853602811791145e-01
-1.464440446286652438e-02 3.099951331416306646e-02 4.460651286267577342e-01
6.667541389916160910e-02 6.023290849056940621e-02 4.630728825539363047e-01
4.893141685735404728e-02 1.975260791346180808e-02 4.527443208735318358e-01
8.380278010195822691e-02 5.500759175275188317e-02 4.910530851259756191e-01
8.931170492303218411e-02 4.079753951689744224e-02 4.664835513110155985e-01
7.825050638036001871e-02 5.839811565272818444e-02 4.806454005563073340e-01
1.198292255877588322e-02 5.564651177410632338e-02 4.505042915000696535e-01
8.823037716553271126e-02 4.007007702966448176e-02 4.665517617719102117e-01
7.943589513766778631e-02 5.642256611493925295e-02 4.898262063072099104e-01
-9.653018639655485886e-03 4.259875081808531250e-02 4.471070606016004922e-01
-4.753627750063536134e-02 -2.638412769078297276e-03 4.431858226161610737e-01
9.514257751561688847e-02 4.123899467566537191e-02 4.897838760835477312e-01
6.717256824094043621e-02 2.127576969834887692e-04 5.065134818106504788e-01
4.779472561487848464e-02 2.743197231835663510e-02 4.527886912218679338e-01
4.884929915105664516e-02 4.066106250808627226e-03 4.516677380297008382e-01
6.658181858055563229e-02 3.483680953170336519e-02 5.210290327793957177e-01
6.144697672273932709e-02 7.193656923258563013e-03 5.248289186443984011e-01
-5.684160030612553025e-03 2.703246679489500551e-02 4.441976408505940999e-01
-1.158577285974302790e-02 1.886275991813191402e-02 4.431711637571810747e-01
7.568875862958243661e-02 5.403338469419206348e-03 4.975453115626574108e-01
7.782740284387558438e-02 5.946200686605018076e-03 4.871884133539745032e-01
8.491557555079490283e-02 6.144936680252086753e-02 4.678154752352953194e-01
4.302323368091989092e-02 1.961310024082148218e-02 4.505813261320072982e-01
5.547035745902653692e-02 2.331774841114853461e-02 4.552598959371102483e-01
8.546940361609700609e-02 4.953871060045807184e-02 4.615678054701872757e-01
6.472361141242197191e-02 4.111514728478115471e-02 4.558547305259659788e-01
4.211530310051119635e-02 5.352579097677823139e-02 4.507742861156894265e-01
4.512769871203013705e-02 1.947165836835823560e-02 4.513086855651520790e-01
7.258591900651120699e-02 2.138216940170182059e-02 5.230039276926051750e-01
9.243111019994537658e-02 3.297668200874692701e-02 4.930987673183464537e-01
4.158536333361408793e-03 2.873706697586317360e-02 4.440699992371264226e-01
5.154282002609399116e-02 -1.195320476607250430e-02 5.284590137843380164e-01
6.842238631561180229e-02 1.708343474166400949e-02 4.619407664638426336e-01
3.084323653797124004e-02 3.463092136175384417e-03 4.442803343094549051e-01
4.991442618353547633e-03 5.487252865967730958e-02 4.499644212988977987e-01
4.378248157197243973e-02 1.985255909806089847e-02 4.508380407887349617e-01
5.395643343292261251e-02 -5.655518646090252483e-03 4.561849347090299878e-01
-2.689670174537151653e-02 3.968882799848187648e-03 4.422991852405156465e-01
9.025243175753969171e-02 5.319663557063578768e-02 4.677659679249573377e-01
6.860159540365892705e-02 1.281147505178038999e-02 5.208223664316351531e-01
3.250879938787935852e-02 -3.113498903697729629e-04 4.440819201008118222e-01
3.250870477999315972e-02 3.065646563382581208e-02 4.486404022510894762e-01
8.651058863089641782e-02 3.899826646425576943e-02 5.020475883030053321e-01
-1.254162130796478494e-02 4.191218346131005829e-04 4.390243043012896362e-01
7.015941458101847272e-02 4.207669822551610844e-02 4.578933087552257697e-01
2.388038680090626489e-02 4.884251170848093182e-02 4.481612339708321291e-01
5.977208438551299963e-02 1.129908691649771525e-03 4.584630070510491429e-01
1.024016872662503012e-02 2.068819995527438650e-03 4.403494299455052996e-01
3.741463517238612785e-02 -3.266888602872115854e-03 4.456512132414038319e-01
6.498828407854372047e-02 5.848402007206255498e-02 4.571465190460577976e-01
7.137269749054203638e-02 2.926835312815778689e-02 5.268826179300067913e-01
8.069008312648547065e-02 1.193775917715248630e-02 4.980111038644285948e-01
9.538353601487353783e-02 4.442640687728335869e-02 4.681148899498340232e-01
4.256390664780342753e-02 5.758629402867073560e-02 4.513245795019349971e-01
8.297540816085184623e-02 2.331978352622727721e-02 5.078410049560565520e-01
7.096708751262725823e-02 2.114455386860917413e-02 5.246856951152527593e-01
3.929553975550139494e-02 5.954546559619640356e-02 4.514735812981163221e-01
5.247982325239352458e-02 2.898861524647760798e-02 4.543303161469720575e-01
5.012095347965461051e-02 4.222085387853015404e-02 4.523119656301901048e-01
-4.085880860733841213e-02 9.984719771511517839e-04 4.413825189560189322e-01
4.780272209702524089e-02 3.302136226165729854e-02 4.525880891496499303e-01
7.367693551270607100e-02 1.104718213485080501e-03 4.808212164497605023e-01
8.589722018562181982e-02 2.081824437122344051e-02 4.737067214367605139e-01
8.617697876557052494e-02 5.526584543705965330e-02 4.865171405230452883e-01
7.082562895788391266e-02 4.492829296656959681e-03 5.051585492730722438e-01
4.883052689108777905e-02 2.734303457016790465e-02 4.531088763705328204e-01
8.865496651573159803e-02 4.166640791384702835e-02 4.975562704792068636e-01
6.457773197574410984e-02 6.813047924975137309e-03 5.203787711559064721e-01
8.309201024005612168e-02 3.901865308462110910e-02 4.656931780653069675e-01
5.358856287244175010e-02 4.088320207528641642e-02 4.529833518178154605e-01
9.532422723439858137e-02 2.780147137996330162e-02 4.748370871482416877e-01
7.976694650352826599e-02 1.474101187842197409e-02 5.062107268603343035e-01
5.057802867732043989e-02 6.101503137967387996e-02 4.586109794755352520e-01
8.573095194002881836e-02 4.413244636692887496e-02 4.637776122171703430e-01
7.751295300957222745e-02 8.171358522298924690e-03 4.995530244949120124e-01
8.300773941989920968e-02 3.357486079985954469e-02 5.097320863206999952e-01
7.287647149790373036e-02 2.642179201518487369e-03 4.739717177973585271e-01
6.778404244525969291e-02 -6.294430190804843443e-03 4.992040312048888206e-01
6.639360687749658319e-02 4.894351874679087749e-02 4.547209983285703805e-01
4.527189131933577471e-02 5.906566727149638318e-02 4.523740042519046045e-01
4.316088090775872105e-02 5.082343283525928707e-02 4.510118936248408983e-01
-6.900768867379414653e-03 3.968780402066202084e-02 4.462109379223418992e-01
8.189770763454246039e-02 3.426078560958542574e-02 4.662306075345756806e-01
6.001954007679760617e-02 4.119225386193899746e-02 4.545534898309493976e-01
3.469554721348418885e-02 5.976974264295013134e-02 4.510464344690428007e-01
8.260870834517750061e-02 2.118952415967407035e-02 4.699856387316927453e-01
9.156972320386258524e-02 2.413850188978649419e-02 4.853655664677290482e-01
8.643330624634393278e-02 1.997902642110905430e-02 4.750233765520448515e-01
5.112810033656095543e-02 2.054014401706447113e-02 4.535723906949329365e-01
8.267814786770497082e-02 1.400418621952745878e-02 4.950633889117588837e-01
6.440260501012433358e-02 5.538405123946806008e-02 4.548788364867862866e-01
8.907690316028918365e-02 4.164852049435783382e-02 4.660583274793595465e-01
4.453833529422946552e-02 -3.557949316794520225e-03 4.494548953300555039e-01
9.544950623851906901e-02 3.237261143580524164e-02 4.873329603976729318e-01
8.069687219720096671e-02 5.641771657576066107e-02 4.888925517251423436e-01
2.630137810950223046e-02 3.242102195809569432e-02 4.475793925400208262e-01
2.985898082729928488e-02 -5.717386516165173620e-03 4.420108611567626911e-01
5.624744566384778238e-02 5.143552771768160684e-03 4.555776930909697930e-01
8.273356893791637690e-02 5.134805063652741336e-02 4.981818129590869226e-01
9.668170915170509749e-02 4.617263307066812872e-02 4.856590559472205859e-01
8.510518856087923023e-02 6.218865547819932976e-02 4.713354401457681142e-01
7.675190586569977103e-02 6.520132733534612923e-03 4.975001299947220956e-01
8.856385263961898124e-02 5.153497851210423614e-02 4.934269608636425164e-01
6.750389262537065393e-02 3.370911649249404979e-02 4.587387087057927526e-01
9.670581450463765216e-02 4.260335072150447933e-02 4.671469835994316311e-01
-1.433143064006351655e-03 1.772801072954123536e-02 4.421568939846720059e-01
6.259325230507016558e-02 5.482785280817244200e-02 4.542388694747488964e-01
9.859471706155781279e-03 4.774594860543297792e-02 4.469391025628593472e-01
4.604018222548855732e-03 3.794069905876143456e-02 4.453163128588445985e-01
6.907936181038662471e-02 1.110826725862033328e-02 5.186894863227307084e-01
1.051442831184855459e-01 3.768595707129045874e-02 4.793947587061835325e-01
8.650394012412555844e-03 4.277910498381871929e-02 4.461244806774140037e-01
7.218726505248247716e-02 9.507963348907157858e-03 4.663492312323415656e-01
9.044679799022418976e-02 5.550734051903159771e-02 4.744142515073063171e-01
8.515503859133453923e-02 2.463562303800428607e-02 5.013967171751055885e-01
6.775037618581379595e-02 -6.534467322676274989e-03 4.990973881291200231e-01
7.168207967277452630e-02 2.470248389562191074e-02 5.255891975693838258e-01
9.248667801512644449e-02 3.295360833765169362e-02 4.929935190608280560e-01
7.569854376582510480e-02 3.461353519305784051e-03 4.898102444651831755e-01
3.061712141453184349e-02 6.278305052514392137e-02 4.536814085012340070e-01
6.140740452473793937e-02 5.454213698519477793e-02 4.538535931972318971e-01
8.775610375975569089e-02 1.946634416151192884e-02 4.807024042663833319e-01
8.371058235912448575e-02 1.446992629943389189e-02 4.920146752904515086e-01
8.045757107829076826e-02 1.591610360096958054e-02 5.063304040146568985e-01
3.622386110731115605e-02 3.657316718378379045e-02 4.499002259732765574e-01
-2.057281002704421102e-02 1.880349021019092626e-02 4.463868986005424255e-01
7.184435717772312546e-02 -1.872139075941969821e-03 4.807428929660548245e-01
3.339827621768028110e-02 1.477611584238959323e-02 4.471642254080553380e-01
7.337739429265238700e-02 2.947909635035189310e-02 4.617510904314514608e-01
9.024787196984025706e-02 5.571706879707996607e-02 4.744529510555763885e-01
6.349728317608355210e-02 -4.771452509387785236e-03 5.105652216372459362e-01
-1.613102444049330231e-02 4.206293368146766382e-02 4.489672568001599195e-01
1.679201269952661918e-02 5.017468873290201886e-02 4.478892181403790751e-01
6.971251416485502173e-02 5.643856166509537975e-02 4.564891155576867865e-01
8.491743967759365908e-02 1.512729829499674661e-02 4.877534415529597434e-01
1.907311907775677967e-02 5.666754688931596208e-03 4.424610567494121072e-01
1.622301493314023957e-02 3.099639695390248029e-02 4.454887164091108076e-01
-1.076104755091791473e-02 4.002142509290602251e-02 4.469795083585903495e-01
6.882183222814119983e-02 -8.493994755466213395e-03 4.925458108604860996e-01
5.381618518188169970e-02 3.900503617150124364e-02 4.533610394641156560e-01
5.154465176732295206e-02 -1.352777319806977054e-02 5.288896660463940913e-01
6.579399641491816275e-02 9.637915932908098365e-03 5.216867123391842886e-01
9.638303306084028410e-02 3.199414046721088534e-02 4.720065577248860889e-01
6.761677639148200303e-02 2.202520603602840365e-03 5.085434853072706707e-01
7.593812894857175644e-02 2.621059838492733121e-02 5.209530167533691358e-01
4.979126211082353370e-02 5.230637255461601312e-03 4.521723300694756031e-01
3.094327490930163030e-02 2.056931045604832101e-02 4.473523382491883527e-01
2.632058682989387582e-02 2.412600955763402957e-02 4.466736933731389469e-01
4.840322802091816257e-02 6.156658473917606123e-02 4.579497967800670311e-01
-1.384227712891930410e-03 -1.759615456477745974e-03 4.385233919087084820e-01
6.417584383089200428e-02 2.332232953362605495e-03 5.152764651140004926e-01
1.876219271357713880e-02 5.021223834873062702e-02 4.480573956377583156e-01
8.698465803464855428e-02 1.953661746657223142e-02 4.768008134848508162e-01
7.165543405911664609e-02 5.183779844197904108e-02 4.561724098749906364e-01
8.573286688060499650e-02 2.030545099183269503e-02 4.946745151425295806e-01
5.776281083503952835e-02 -6.530922712070463126e-03 4.593374152394325005e-01
7.323074003256016540e-02 3.265403746902210275e-02 5.217820205673219247e-01
9.038307654991245554e-02 4.900839123681280385e-02 4.927361910110176768e-01
8.603120981262303568e-02 1.793906084769021289e-02 4.765835750903506529e-01
8.952528565023375184e-02 2.343100860896233512e-02 4.897451554030042287e-01
8.139488186627628907e-02 1.140811343517572629e-02 4.923732515438125068e-01
1.024840494961572757e-01 3.237851827320653575e-02 4.806990487367547304e-01
3.239334342210393319e-02 4.344795903415953064e-02 4.493582820026317814e-01
7.560041004315358470e-02 2.064309223464809787e-02 4.653535885141333317e-01
9.245346017054142940e-02 3.474656832687296470e-02 4.936594541865287900e-01
7.032643160365553703e-02 5.645295332446612080e-02 4.566408412389722504e-01
8.865043527688913627e-02 2.042683174989786202e-02 4.866216138830446458e-01
1.012772316918193055e-01 4.256511866226388857e-02 4.826965130301517637e-01
1.700459976462471642e-02 3.841553392225285912e-02 4.466490214808878645e-01
9.346590993565479996e-03 8.527149585034294807e-03 4.419141682589008968e-01
7.851894865868941364e-02 7.157997580180571265e-03 4.841410963464712336e-01
4.011571719455127999e-02 -6.750115823594017746e-03 4.469202027532657162e-01
8.234165217237227052e-02 5.023968474314061822e-02 4.992242131337950029e-01
8.419707833851872159e-02 5.498225107402578832e-02 4.908371379669757562e-01
5.748474677999995675e-02 5.884213327374528124e-02 4.572718483307934290e-01
5.118352123417856808e-02 3.529601533759684634e-02 4.533231516898779123e-01
9.146291717356185014e-02 3.208289824555714959e-02 4.944764075964734329e-01
-1.876128210603564272e-02 9.251066679287454908e-04 4.399031113901382128e-01
9.482233783589706644e-02 3.764461715846309509e-02 4.906677031067298578e-01
2.717439426601670621e-02 4.646975087391948950e-02 4.485427390455116181e-01
2.456077807036081279e-03 4.803464454443229226e-02 4.466327641879715427e-01
7.872536514977819533e-02 5.654097024547265898e-02 4.612195547133779994e-01
2.619996835225173182e-02 1.066315404141818940e-02 4.449405176776890514e-01
4.534955994129238194e-02 2.470392908878709347e-03 4.500239562031466689e-01
9.628296915670501999e-02 2.697168621503627517e-02 4.776766723410958426e-01
6.281306760907716391e-02 3.232925317642434959e-02 4.573480607323687774e-01
7.490346215124438212e-02 1.275705263257133348e-02 5.119098340281701409e-01
7.344384655844712548e-03 4.880036207869578591e-02 4.469635769333072384e-01
8.263111027677896847e-02 1.222767725852035546e-02 4.789276623817824707e-01
7.961449061830795648e-02 1.641339306007530072e-02 4.699234712017515969e-01
6.691986141828830392e-02 -2.380466423874262865e-03 4.689607057657486644e-01
7.981276427854750583e-04 4.647615450093707523e-02 4.463407088280019197e-01
7.780865527703045847e-02 4.732261819676128467e-02 4.581650607059029046e-01
6.437340529098020681e-02 5.242095500040660355e-02 4.541302931820948019e-01
6.200040189990370376e-02 -5.981300356368080603e-04 5.158702154899458270e-01
8.289172511270682941e-02 1.507168903914905128e-02 4.968944105642533193e-01
1.737933922874503392e-02 3.447011707816965975e-02 4.461565959482560184e-01
7.015864193684095973e-02 3.306920744232245274e-02 5.238347810616538203e-01
8.819980271153142481e-02 5.495340770340313014e-02 4.846426932278829480e-01
4.473312501767673366e-02 4.597957869998661740e-02 4.513846732379936944e-01
-2.017226564671681030e-02 2.368438361853987192e-02 4.467300156396308286e-01
4.546459317129913219e-02 4.747377046731226374e-02 4.514668458363554349e-01
7.876625780275731126e-02 1.424621444421148714e-02 5.074354276417417653e-01
7.792365490689762142e-02 8.770391708573238923e-03 4.999458903072019900e-01
1.008193230336523749e-01 4.151791524178252007e-02 4.722112729692512501e-01
7.880664100711648468e-02 7.977922706771053279e-03 4.940182585945158689e-01
7.203076164778425550e-02 2.219584976015195454e-03 4.987742841817919826e-01
8.599682243429380979e-02 5.767019340760212720e-02 4.810004391662003331e-01
6.694683483076786790e-02 6.043164170851142436e-02 4.608208763027700217e-01
8.193435185118896902e-02 1.551694730356374848e-02 4.735008037468291797e-01
3.358098771821019755e-03 3.258669840587848088e-02 4.446798837844291863e-01
9.216879603243892383e-02 2.807197119250338241e-02 4.906482541673956033e-01
6.788897435148699699e-02 6.012165141061997370e-02 4.583527548277062658e-01
1.017672112223321976e-02 4.858709996686291777e-03 4.411011978700240532e-01
8.324803085213324655e-03 5.666572493920694897e-02 4.539929386861132343e-01
3.001941304245756351e-03 1.402915108833796207e-02 4.420268635729828199e-01
8.583679160588542079e-02 3.865725886890546137e-02 4.669489952830386259e-01
6.651871005968135186e-02 1.691599556431563900e-02 5.270344536273481317e-01
7.346607363701769533e-02 2.665062425446251305e-04 4.897913846481627420e-01
6.178535415789678659e-02 1.977283158653775005e-02 4.580249657674378416e-01
8.695302455936176900e-02 3.050276631002314665e-02 5.021763966040342364e-01
1.015976602738418305e-01 3.377791169763804530e-02 4.741990805521019703e-01
4.431152355438128243e-02 3.925215708237023149e-02 4.515159001226689561e-01
-2.942558547079742598e-02 7.791009611439379812e-03 4.472368238073585189e-01
8.352446568545257577e-02 1.388839408515844115e-02 4.773413894392687928e-01
2.823369780121561673e-02 5.915963049078728359e-02 4.509470695475316648e-01
2.546657992552650226e-02 2.200216512466585117e-02 4.463179406342973610e-01
9.680649912645052091e-02 4.659572117077671188e-02 4.804614320452473830e-01
2.166798083520929050e-02 1.156162079003516391e-02 4.442601721886818567e-01
8.404337041923773399e-02 5.629221763290366554e-02 4.849918062093079851e-01
1.644296700301135783e-02 2.628489129775753511e-02 4.450362934227481970e-01
5.650117224979731012e-02 7.782191991850535666e-03 4.556408469079395451e-01
8.265288851203306253e-02 2.013846565780566880e-02 5.056583279290818300e-01
7.615602079968220028e-02 1.842762286778377653e-02 4.660787746063505543e-01
4.976512706402152347e-02 -5.711542529653943975e-03 5.277996519624343907e-01
6.703978277741035052e-02 -3.607397944515782461e-03 4.701524362212328167e-01
8.381454712089964065e-02 5.520195071129781195e-02 4.624520561603033819e-01
5.339885193710127570e-02 4.963384252136626706e-02 4.524341267541112099e-01
4.170814263258550841e-02 3.176240602624962051e-02 4.509924091921120315e-01
9.291123861145908491e-02 5.158506641660653980e-02 4.836437944022037305e-01
7.734896790810819045e-02 2.026402754397791869e-02 4.663887029592198030e-01
9.910477681802747074e-02 3.625427674620507884e-02 4.853749469449731846e-01
5.655347825828691694e-02 -1.122627375025043138e-02 5.235735835729437015e-01
3.141808885489238284e-02 2.768824642646276063e-02 4.481276845586693036e-01
3.633303149021897133e-02 6.448847540198906613e-04 4.458646145367943237e-01
7.531260592151277355e-02 2.532283523853673043e-02 4.640865135877796366e-01
2.605958159989729683e-02 5.120073089130935950e-02 4.489137099762690042e-01
5.801514809681159596e-02 -4.204880469658198866e-03 5.205069390313624700e-01
-2.209446145448196175e-02 1.813316594053275554e-02 4.469243833534043420e-01
2.509719115584866864e-02 1.266061320016567508e-02 4.450931183734068153e-01
7.730771837115597844e-02 8.766681831711916478e-03 5.015469505559908558e-01
8.757654155587636657e-02 2.584092449663771829e-02 4.712113011508621274e-01
7.196233651600772441e-02 1.502263385369917263e-02 5.189651516970000822e-01
5.703926195331701643e-02 4.379313578113427224e-02 4.533095784821056795e-01
7.059908182663016118e-02 -4.564656638946080341e-03 4.838898421546813933e-01
7.877681489239427015e-02 5.946641622533632016e-02 4.666144349667262214e-01
-2.047115652805756719e-02 2.709738654879771322e-02 4.474373637466097509e-01
8.564171916384095973e-02 4.118054185523304517e-02 4.653320330388222015e-01
8.852101305550140464e-02 2.945897414659559913e-02 4.693985367120905305e-01
1.049275979183979662e-01 3.561806710415141991e-02 4.760343155887474254e-01
-8.205258695453854223e-03 1.069581674859943279e-02 4.410775850193446312e-01
8.705272998416800634e-02 2.035442032511580041e-02 4.754799843924719660e-01
6.483557740140992454e-02 1.709002600044728926e-02 4.599186527627027177e-01
1.374428347574528642e-02 1.660960797260549850e-03 4.404829115399250261e-01
5.451830317024427414e-02 6.920772430511343970e-03 4.546076664982837134e-01
-1.995208152607452767e-02 7.843795955155968835e-03 4.424132229923232185e-01
-1.055052659991578476e-02 4.583371234080198253e-02 4.477210399373127148e-01
-1.646504758113418940e-02 4.480820912472827794e-02 4.496719407132911406e-01
6.914081066437430256e-02 4.288572925224093564e-03 4.663994470168660311e-01
7.853413993871531662e-02 1.991516697268461838e-02 4.671064809040244570e-01
2.408717477329000434e-03 3.148238503672759481e-02 4.445178715803040914e-01
1.307827007397702711e-02 3.259249875585364283e-03 4.408787622439718779e-01
5.432383119259275722e-02 3.149791187952708828e-03 4.547565797917246244e-01
7.005221361404383174e-02 -5.728782478448492602e-03 4.893780758126818342e-01
6.467110208970891505e-02 4.728867205596998073e-03 4.616801873307000981e-01
3.756124972916455307e-02 1.128270267882717365e-02 4.476323204161478109e-01
8.258099137844120141e-02 2.225829939534517549e-02 5.081800641763500881e-01
-1.507858693970911754e-02 2.711910305339155364e-02 4.454952832650648231e-01
6.285130857772634749e-02 3.106028334642890482e-03 5.188941565596894012e-01
5.072644965659699884e-02 5.970677900913709535e-02 4.542666256558022808e-01
4.614575234406521204e-02 1.315282204217144320e-02 4.512045451984965649e-01
2.977129560793459646e-03 9.427834268790787758e-03 4.413285107207096658e-01
7.967263258927902159e-02 1.833526759556958902e-02 4.686434268676765713e-01
9.091764860703147044e-02 2.398638714494832555e-02 4.792624512586780572e-01
1.111555456820858059e-02 1.604943245495392065e-02 4.433026094178081356e-01
-1.550313686572702548e-02 1.202604358575981580e-02 4.425549683049919691e-01
7.999861811833813841e-02 1.023080801999294229e-02 4.759486168950211038e-01
5.545628400769041927e-02 5.597702854355002255e-02 4.530707693770436029e-01
7.197445098993478230e-02 2.064466487517183351e-03 4.986349971773769707e-01
-1.738589422019410496e-02 3.339525893939112450e-02 4.476650582618668106e-01
5.474279005622102734e-02 3.493381685163073069e-02 4.543308348190374102e-01
6.419163231682589732e-02 5.842886867778292886e-02 4.574652764735148702e-01
8.095479252655447822e-02 1.310625791282619100e-02 4.993831313641730607e-01
2.519053783593202395e-02 3.466499378746790844e-02 4.476291502500658881e-01
1.195398729853674666e-02 3.286402957019182031e-02 4.452561691162434943e-01
9.408860607342202365e-02 2.624734386927910293e-02 4.804941959099625626e-01
7.745997554672941210e-02 3.430024613697564562e-02 4.640285217608234314e-01
8.434844487271750402e-02 5.771084258424816898e-02 4.652619070948276758e-01
3.858050145712375173e-02 3.480739745844677741e-05 4.466827791698382288e-01
8.721858938541376949e-02 3.262809069101380022e-02 5.023477205850291893e-01
2.624387346219791278e-02 2.277035987593780189e-02 4.465493737552687636e-01
1.783070493563744530e-02 1.915859988711143130e-02 4.446516176823285815e-01
2.716057246716983148e-02 1.733500309896848085e-02 4.460202376450105310e-01
7.428288244995312484e-02 3.578075359645065817e-02 5.173960451415804407e-01
1.654648748639570358e-03 3.746894724782952584e-03 4.402252573277219416e-01
-5.283501947484021272e-03 4.698954535810324906e-02 4.469435840109522995e-01
7.976053735020809110e-02 3.966348752158460611e-02 4.643741482970292211e-01
6.005152138489202457e-02 -1.695478151004499098e-03 4.594019884170473245e-01
7.485361169179953478e-02 3.456853518421754839e-02 5.180998592628300869e-01
3.293010916801494131e-02 2.706461797072747671e-02 4.484416901729281757e-01
7.007685843314094554e-02 -6.634524536501246357e-03 4.876210641011530234e-01
9.138517696728758188e-02 4.454897074024411624e-02 4.647038060667514903e-01
-3.335897673585508372e-02 1.762079921346793509e-03 4.425039472496373194e-01
6.183264188624070651e-02 1.094846892584395992e-02 4.588152839747204892e-01
6.716244652789458980e-02 -6.541262864343793532e-03 4.733448106368945418e-01
7.418912641952481180e-02 1.151079660832036826e-02 4.673807728395122374e-01
6.237327058911032451e-02 -3.179637275728888855e-03 4.631369747957089222e-01
8.431295966525366448e-02 5.519295759673505802e-02 4.900579052100118571e-01
4.971636697457607057e-02 4.197138019960419686e-02 4.522487346269845609e-01
3.140402582783998614e-02 -5.309605801657718734e-03 4.425039476629321067e-01
7.187975849536537565e-02 4.047004582165725228e-02 5.120789872047665225e-01
3.813889878425141128e-02 4.513955520282187522e-02 4.502648315255287637e-01
8.948480480909941359e-02 4.112892679033642446e-02 4.964557829589768545e-01
3.040815132333980070e-02 2.650323972008122864e-02 4.477941850258516099e-01
8.827603646048468033e-02 2.187087011978653198e-02 4.756956388493427945e-01
1.026264187119481364e-01 4.184691322529206226e-02 4.813859432992285137e-01
7.010623679776048500e-03 3.913765340759658984e-02 4.455918651952029963e-01
