9.277301602185779317e-02 3.946610093556599669e-02 4.938235802470074542e-01
8.927677263713536260e-02 3.963561473511904160e-02 4.674722966736116758e-01
3.067247576750412041e-02 2.727264017285573397e-02 4.479568389358453695e-01
2.776048092021076233e-02 4.969319515705690471e-02 4.486968179715180027e-01
-1.732347712387155916e-02 3.371429574151157266e-02 4.477612356998076915e-01
5.483120085514690129e-02 5.999320184437725856e-02 4.591157908703178969e-01
1.451178609380392864e-02 1.510325170645052464e-02 4.436334907184147358e-01
6.254339025901817228e-02 5.418711408452528411e-02 4.541744920415995979e-01
1.317487450938854311e-02 2.850172679159771946e-02 4.447912649939467222e-01
5.809757578013854951e-02 3.168549830982122367e-02 4.560152321587064850e-01
3.621540017125988303e-02 4.381692381556955007e-02 4.500283888119787079e-01
1.566310470262174265e-02 2.433985553017418285e-02 4.447898077795003902e-01
1.767984049608276043e-03 4.583381172580733992e-02 4.462426904206884815e-01
8.698288135067476501e-02 5.839323605918662896e-02 4.800538302692405890e-01
7.043749736166886322e-02 -5.589309977048701264e-03 4.884948806087990314e-01
4.664383793760605232e-04 2.460181773043875961e-02 4.434404320651820219e-01
3.799397448905693364e-02 2.488603805311390832e-02 4.496413034241844575e-01
5.753530246920976476e-02 5.643131721251426480e-02 4.538093336248349430e-01
6.925586505923495007e-02 3.057702339649675388e-02 4.600875702665964684e-01
8.097086404289317862e-02 1.676187747205227715e-02 4.713119079398476741e-01
4.543620070373503850e-02 6.184550993085089626e-02 4.546168990381592723e-01
6.627633441750653553e-02 5.446701920182395532e-03 4.629396971725555643e-01
3.452302417865462519e-02 4.377444114355513206e-03 4.456421248760395470e-01
7.982241776958919066e-02 8.163846469849326756e-03 4.896482787396362335e-01
-1.573584351547288596e-02 4.501798777930889756e-02 4.494076891432569609e-01
7.762750911931604048e-02 4.291261751070361841e-02 4.616003146352072872e-01
8.797515615677807543e-02 2.873191608862656760e-02 4.992390136087411223e-01
4.575665587026238323e-02 4.011838112302413412e-02 4.517835290477840160e-01
3.025511607207721429e-03 1.987658820764950235e-02 4.428379666935021719e-01
4.764911930180413396e-02 -4.108787818444003571e-03 4.514453291063565410e-01
6.221741885086107260e-02 -1.094109449077161796e-02 4.689581269949992803e-01
3.017475438664349655e-02 2.922134093727981122e-02 4.480170950606102709e-01
7.577172137986628274e-03 5.375513888061364196e-03 4.410671825678951774e-01
7.866206483208604272e-02 2.308439225248553467e-02 5.168399203789523222e-01
3.691580187555963677e-02 5.211703718156764087e-02 4.502598752644852431e-01
8.517982601116094732e-02 3.951972008024657451e-02 5.047884129715592971e-01
7.014849108562007385e-02 5.294405156404254770e-02 4.561827480830685788e-01
7.032862533893394219e-02 2.640585547124946891e-02 4.610478134861121791e-01
7.512976732087238430e-02 3.019027571948772193e-02 4.626217732702389007e-01
4.171767716825670186e-02 6.202712557592990339e-02 4.535620208095062500e-01
8.800122994855787140e-02 2.849002105773169521e-02 4.989359286095473300e-01
1.964503225835908390e-02 2.637372852356866665e-02 4.455623359974744124e-01
3.287456875999009154e-02 -3.158744293429804981e-03 4.435759663668794039e-01
9.966630036396669726e-04 1.097411476618229131e-02 4.414268859082259855e-01
2.722165721636835706e-02 4.097718151673172132e-02 4.485663225906653673e-01
-1.233673115459326709e-02 3.770203645734226949e-02 4.469784683104107703e-01
8.970510349084890450e-03 5.612258846820427499e-02 4.517172874503526669e-01
9.308213847233923199e-02 4.971080930302342049e-02 4.696916903362670648e-01
4.795213440444844738e-02 3.318176903618599155e-02 4.527179168571313084e-01
6.002740982233184530e-02 1.679188844266051375e-02 4.577024637415346153e-01
1.362555706711192707e-03 1.506162217298199352e-02 4.420453876759524170e-01
-4.670723385775329972e-03 4.037636629117768300e-02 4.458948050535819774e-01
6.489732251285038056e-02 1.619870718212476288e-02 5.287368042255956579e-01
5.612934564062307952e-02 1.882805331190082546e-02 4.557461016892707106e-01
-9.339581130520007574e-03 5.079541530892072408e-03 4.402187795309160379e-01
8.913149703933644086e-02 2.791872935587563082e-02 4.708360887971030362e-01
8.873780471391072566e-02 3.486070983050840177e-02 5.004471439429705182e-01
7.542277208465011928e-02 4.601161589756411902e-02 4.583042550654654601e-01
2.818607743775110308e-02 4.187918768046201140e-02 4.487183346913575233e-01
8.420492692117156897e-02 4.299141228109373825e-02 5.039501347067423254e-01
5.687446461128269765e-02 -6.434187990781212348e-03 4.583798624456089099e-01
5.050917548503063709e-02 5.701766295673253715e-02 4.524646220446162936e-01
-4.158902368645027436e-02 -9.632422299933359041e-04 4.408552273873486138e-01
4.622134412653445407e-02 -4.976456949656462604e-03 4.505925282706099155e-01
7.006374223622646724e-02 4.278157104619811392e-03 5.068132417732691408e-01
7.738653589830003787e-02 2.385905698601404126e-02 5.192179358959312374e-01
3.808300018161882294e-02 9.296136071499209313e-03 4.474976063415278538e-01
7.199287390040001559e-03 3.654483893553917007e-02 4.452617989153795364e-01
6.621911370840566358e-02 4.456324252182154722e-03 5.147372910713527983e-01
8.111652466857333099e-02 1.801734467733648315e-02 5.077977264447395278e-01
9.878443896521922618e-02 3.707839349329829920e-02 4.704982227346776735e-01
6.399585398510285184e-02 5.792199932553917380e-02 4.568912192879715506e-01
9.554588109525807837e-02 3.937357643180722927e-02 4.904956911614788417e-01
1.233471250040155337e-03 8.835816275287724716e-03 4.410711854199440562e-01
9.177806291540566153e-02 4.244960232127586303e-02 4.667803933104259229e-01
4.275099461247088700e-02 3.965015248697571770e-02 4.512878444817122747e-01
8.061244379867826826e-02 2.281433821786520849e-02 5.138325072258123072e-01
-2.097174621217029120e-02 1.275425367578619969e-02 4.447596752765012873e-01
7.101763550149550741e-02 2.486582875303388132e-02 4.618230833384683320e-01
5.078337241507838162e-02 3.943492380456124768e-02 4.527903164222966126e-01
1.098291340989147012e-02 4.771360925481583914e-02 4.470051440868438308e-01
5.335350619303638742e-02 5.909030513884063612e-02 4.550416932216496124e-01
-6.284647012349049711e-03 -1.851654109456906099e-03 4.383305267970727948e-01
5.754752564971146733e-02 8.777910757348971610e-03 4.562772977332112956e-01
7.958283992415421393e-02 8.868287879020303466e-03 4.783825404416884863e-01
-1.715088764714159039e-02 1.010695023432110588e-02 4.424878745089220744e-01
-2.736125956040804524e-02 1.173685199094444409e-02 4.474889103316491701e-01
5.370004609202616574e-02 2.425075205507040352e-02 4.547741209603665680e-01
8.634315963033653563e-02 2.921755108577854185e-02 4.687865902746655711e-01
6.661876116104457901e-02 7.013457258100513035e-03 5.176556651076829052e-01
6.407016737091694725e-02 -2.216189643552846783e-03 5.109332516048213924e-01
7.212778074319052546e-02 1.886074257861130449e-02 5.225068933424017459e-01
8.333065064501241070e-02 5.233508685053638032e-02 4.974672124628513048e-01
8.785039182798820567e-02 5.908707346228415924e-02 4.767485230880080804e-01
3.781084624820097578e-02 6.328447525919431160e-02 4.537423440270229591e-01
7.389778652231515643e-02 1.178987202425182609e-02 5.126010646995253772e-01
7.208147861322763972e-02 6.011979980661907863e-02 4.682357927055166846e-01
8.218381235776306415e-02 2.630674315050198636e-02 5.115492991550141255e-01
9.394319240248169556e-02 3.008918033117247495e-02 4.723101102465146472e-01
1.066378012655206792e-01 3.834607690507487593e-02 4.763620518370382251e-01
8.956706671016603782e-02 4.274790222661066508e-02 4.967262546485831654e-01
-1.365872626779325019e-03 2.164862121587724300e-02 4.429599685310615098e-01
2.447050195767599620e-02 1.338944267053702661e-02 4.450723875033469334e-01
7.872009079112060603e-02 2.953889613519120050e-02 5.174904931771259209e-01
6.115878485153978389e-02 6.028671623705649657e-02 4.602982833525260942e-01
3.465397002251655728e-02 -6.157312160290951374e-03 4.437948142576102484e-01
5.922957520931105418e-02 9.374323702439069095e-03 4.572253060138903868e-01
3.992991192295529401e-02 5.556241692196838000e-02 4.508252797250464905e-01
-1.024177658448863909e-02 3.171146062020562678e-02 4.455251134845164551e-01
-3.808365529889946345e-03 4.792465586456471152e-03 4.402715156731857316e-01
-4.172565733551862957e-03 3.205611150345959171e-02 4.448979499424916551e-01
6.173005983301799865e-02 -1.774483205996872865e-03 4.616392864306647636e-01
4.007261012162603719e-02 6.243776872551181495e-02 4.535510204668365963e-01
7.054590772185151404e-02 -2.134140210609326502e-03 4.949162864977216802e-01
4.056323722807530369e-02 6.361355691415061797e-02 4.565377258647477232e-01
7.201052609049864162e-02 9.400492254376238699e-03 4.662693650794612066e-01
4.100262310113452630e-02 1.482932633912387513e-02 4.493716280024164789e-01
1.797606478791172711e-04 4.759039220199479114e-02 4.464405489297527119e-01
7.404858583241762104e-02 1.073936982740961166e-02 5.110088120315467997e-01
8.901535946373319297e-02 5.996008701948762898e-02 4.722505289156528341e-01
9.070134892856114572e-02 2.354631371731864473e-02 4.798205572689639431e-01
5.626602464421463085e-02 -1.051727414964695809e-02 4.604019668896973116e-01
5.103881854686017489e-02 3.086091936229071186e-02 4.538546056078289759e-01
5.464255373781400776e-02 5.868410401863675963e-02 4.551861803806755424e-01
2.914764624072507110e-02 4.779141588937534796e-02 4.488587929169599589e-01
6.645742494628005537e-02 1.226634605090444648e-02 5.235248042706690530e-01
-1.640476896973992044e-02 1.592043569583482393e-02 4.440411200609858944e-01
9.871721265321439787e-02 4.504685067842113116e-02 4.757491806814994062e-01
7.265998151076925871e-02 3.962531950788708221e-03 5.010426527129632213e-01
4.968191148451593653e-02 -1.390888223684789808e-02 5.308133359509384919e-01
8.114352426999159318e-02 1.061602699663039169e-02 4.775493271811807050e-01
8.241355327182217638e-02 1.190150042997441086e-02 4.788084957736724601e-01
6.460375072324729684e-02 -5.845683230956147391e-03 4.683124205021392261e-01
7.925350940930010746e-02 8.936311004136965677e-03 4.968890549032053405e-01
-2.261817262267656545e-02 8.960703864290986420e-03 4.436914495957882676e-01
4.315822660530702765e-02 -6.503824671036773086e-03 4.487142664472968945e-01
5.168224171621984414e-02 3.362482135359653318e-02 4.537810223510201357e-01
6.260183364652732729e-02 4.351199929901203994e-02 4.550510685299512526e-01
-9.488455500132421394e-03 5.337818162365216140e-03 4.402767511770029896e-01
1.844009117604313366e-02 1.163873438236114749e-02 4.437143207467134087e-01
6.276301408820028627e-02 8.187432456289348666e-04 5.161812996195668246e-01
9.179060925666680804e-02 2.469161689196397100e-02 4.800742293383093995e-01
3.240980832833440656e-02 2.759451200643904187e-02 4.483914098101514090e-01
6.031377377284213859e-02 4.690641270524465584e-02 4.538718311503118774e-01
1.850608944896883074e-02 1.650447626894043299e-02 4.444136446076352165e-01
8.950162463369162880e-02 2.173565752051179537e-02 4.816544774949573782e-01
3.315741596230409316e-02 -6.077255243858809171e-03 4.431573054610510320e-01
6.079039625797544311e-02 -6.740080775802210523e-03 4.635675401860392952e-01
1.276789437466299346e-02 5.798500250312336318e-02 4.541079847055092822e-01
3.522055889108476751e-02 2.572180494213159585e-02 4.489457138481384724e-01
8.822257831924568139e-02 4.337320216565063169e-02 4.986274080686455834e-01
5.661459795163042291e-02 2.087743748251551928e-02 4.558327555950754117e-01
7.415696860603901430e-02 3.487399578312683213e-02 5.188398044222203298e-01
7.453220851375047529e-02 3.741460628557621848e-02 5.156306250314282025e-01
8.252965149067235939e-02 4.563852488120302697e-02 4.618026057315883781e-01
6.695739254952931541e-02 1.931657227534715193e-02 5.284944078661195643e-01
1.933126354745415623e-02 5.448046468763569766e-02 4.494654205219766330e-01
8.909367270887799672e-02 5.480391360282289848e-02 4.853578844056101183e-01
2.508354439585892479e-02 2.121536319421852418e-02 4.461913461976467765e-01
8.058392487997351195e-02 1.816270190693382303e-02 5.091477749640164197e-01
3.874052693744049758e-02 1.213545040776714892e-02 4.481953095075993376e-01
6.754025941128292965e-02 -6.994398518028837469e-03 4.997322630680016142e-01
7.688072887414279522e-02 4.192775114348304411e-02 4.616970884567935807e-01
5.677930826173767376e-02 5.022003403677022942e-02 4.530470701472200101e-01
1.141748284165870764e-02 7.134257512280091362e-03 4.418066940995943881e-01
9.508982779389127393e-02 3.445542072762250441e-02 4.696315668910100993e-01
8.143097481012478989e-02 1.874143259723029878e-02 4.704487191587633510e-01
8.550747141730459522e-02 4.674011391622369394e-02 5.005730089291764440e-01
-1.788740353919962816e-03 4.379421764438672787e-02 4.460511406514618415e-01
2.373242443803490545e-02 3.941647756401024660e-02 4.478457201784431518e-01
3.579869268104770436e-02 9.397092210637742610e-03 4.468566662627067032e-01
1.607036573020733175e-02 3.361533740342474014e-02 4.458834517629318150e-01
7.510197142351097976e-02 3.894038948897840524e-02 5.137385981541254809e-01
7.546447946817790020e-02 3.980255311461090677e-03 4.787881063088854083e-01
8.305362956965142707e-02 1.888029784077590797e-02 5.033316706047871181e-01
9.956373952276018069e-02 4.412424502457437669e-02 4.749070494152426991e-01
8.968753395757016189e-02 2.420478177888205767e-02 4.744938912421884369e-01
9.323341484764338660e-02 3.177050326333298591e-02 4.921648199478982355e-01
5.327536455407988480e-02 -3.202876155394125419e-03 4.550705319000087345e-01
7.155537113767883317e-02 9.506876044271334036e-03 5.130736172110559323e-01
7.250870294840912333e-02 8.736067629086186059e-03 5.101813570700125533e-01
7.751207440376815805e-02 1.945143084507749975e-02 5.155834227451910889e-01
-8.995098384579760381e-03 3.142380812912187044e-02 4.453390771705300066e-01
7.031838161209162663e-02 6.006961264514795035e-02 4.669392470146020990e-01
6.468810129139174192e-02 2.145334828762258950e-02 4.592584353886172699e-01
-2.019077382529683995e-02 1.951238928863499589e-02 4.464409246050641267e-01
-1.995839195304256047e-02 1.980989699849601549e-02 4.464087606611793491e-01
7.538792411435568663e-02 6.150666411379001122e-03 5.006572763668490911e-01
4.464578480072975419e-02 5.477666267510509363e-02 4.511873040192970752e-01
4.851189309567815328e-02 4.148389201068580084e-02 4.521736290313682072e-01
-4.332924696028605388e-02 1.791747167869592577e-03 4.436644266775050527e-01
-5.850333809963671750e-03 5.741333496765933450e-03 4.403992209354498644e-01
8.565088789300723260e-02 5.158320252111694981e-02 4.622198467034895342e-01
-1.356659842436594952e-02 4.466796651705928073e-02 4.485506954980991723e-01
7.691822770721921942e-02 1.682967485311023803e-02 5.144369544683553563e-01
5.735951992295097723e-02 5.066927881905908260e-02 4.531049671045285776e-01
9.149057590641272372e-03 1.568177996655140821e-03 4.401620573695533278e-01
2.790101572518195044e-02 6.154650713002921686e-02 4.536728152216475407e-01
1.136049705511631494e-02 5.562404302816603696e-02 4.500577583150348060e-01
1.008520296118700504e-01 4.348375757477890291e-02 4.831805725551261421e-01
2.111723947651851507e-02 -1.028313342111424576e-03 4.410120400569552679e-01
8.905395604076313254e-02 5.332663895180098784e-02 4.662323385913874074e-01
2.983338393744081746e-02 7.531193936601504949e-03 4.450900839747774507e-01
6.657657954858324512e-02 3.854964419010931207e-04 5.084470642548745145e-01
9.118745723960561267e-02 5.373827894523922066e-02 4.697262569000974497e-01
7.004034032663764009e-02 -2.550143941353842474e-03 4.956027862347898716e-01
8.007463908906944927e-02 8.464058774776111321e-03 4.889469958466906019e-01
9.420215268109839724e-02 2.576287095894410489e-02 4.782154060553504560e-01
8.717209813465764956e-02 2.738941538807280335e-02 4.700700860397830638e-01
1.858500591125882700e-02 1.640292758897472086e-02 4.444118218757962535e-01
1.711291055987187656e-02 1.382884748398669622e-02 4.438227060404997260e-01
2.288547595863222456e-02 4.811997156508838330e-02 4.480215629521772658e-01
8.002338071331858982e-02 1.894044932672046821e-02 5.111384387805250062e-01
8.221700770256401558e-02 5.929727668171235616e-02 4.661091479909906243e-01
-4.415393443445260468e-02 1.183863886808216980e-03 4.451480450331434247e-01
5.443969687351692816e-03 1.928177887948772859e-02 4.429821067931141165e-01
1.979395988146259028e-02 -5.560983321742913156e-04 4.409084767673593364e-01
7.344789531791166837e-02 4.214894520210535518e-04 4.911437212794759755e-01
6.588257656921645000e-02 9.589715214814126948e-03 4.616610743590340293e-01
-4.058876005347371307e-04 9.863182734874631485e-03 4.411307207326614632e-01
-1.149494747919393468e-02 3.102560034478521120e-02 4.456012080917216012e-01
7.149017587967221310e-02 1.607883340692372806e-02 4.639815912249597996e-01
7.329385451849447508e-02 2.581129314645341614e-03 4.748702209828242204e-01
9.513878956115784380e-02 4.533724416573588212e-02 4.902227878672958949e-01
4.039735956292865235e-03 2.134002569648248138e-02 4.431050607512763695e-01
9.211779397578083103e-03 -2.506510545681872940e-03 4.390143544572753243e-01
8.191311322155220287e-02 2.545151057801636058e-02 5.119230396165120878e-01
8.172162443246235031e-02 1.472819519617904818e-02 5.013732869326547048e-01
7.628094201537481689e-02 2.160907628276404271e-02 5.191530020550597646e-01
7.707847191836750267e-02 9.401643288418828209e-03 4.728529200041266534e-01
4.281139377257392464e-02 6.341532813419474557e-02 4.577980610036143094e-01
-1.010068735883241746e-02 4.371112543022565716e-02 4.473343106014040504e-01
-3.630242651811992939e-03 -1.792590418509661110e-03 4.384058362184055091e-01
-1.464662936005155930e-02 4.662533383892892430e-02 4.499034704932055040e-01
1.544345262470965888e-02 4.220427542793808717e-02 4.467023316339375216e-01
1.037318209014554959e-01 3.324053574795913374e-02 4.790573700488826581e-01
7.342662648918947543e-02 6.027696977105537028e-03 5.040819437382232371e-01
6.032704444528737275e-02 1.391155776394240040e-02 4.579397039177279805e-01
7.041557455726218939e-02 2.212976405890141121e-02 4.623052150585025277e-01
5.939049521738302279e-02 4.180726834828569181e-04 4.584270969249774619e-01
6.480296947577211808e-02 3.536288055931911117e-02 4.574584075444577125e-01
-6.134771421100202252e-03 2.591254031516412870e-02 4.440101694336028859e-01
9.520646472498489610e-02 2.719457044935748996e-02 4.825860333161725024e-01
6.439147699162593719e-02 8.777480583532504266e-03 5.231528748326370604e-01
7.414019467140664510e-02 3.369254096772799495e-02 5.201698497291751266e-01
2.609580833317838230e-02 2.891078720653157685e-02 4.470812942172955329e-01
-6.373434792014022812e-03 2.623564171946246235e-02 4.441072862618193895e-01
-2.609614135433317716e-02 9.281784158522297240e-03 4.454566496677093701e-01
7.882936357153533247e-02 2.272368322538536808e-02 4.669808974549945479e-01
6.726442724442123489e-02 3.413661473099183913e-02 5.224462335307196170e-01
8.923753583165709713e-02 2.254146006292439761e-02 4.774237993954877357e-01
2.549121905009504863e-02 -3.590736317071059266e-03 4.413606671273564985e-01
7.833151490210257806e-03 1.238850719220264962e-02 4.423965081795921961e-01
6.427054619879404851e-02 -4.988193310277965788e-03 5.091401009905118791e-01
9.170937360945412981e-03 5.591076573593212889e-02 4.509693532355604217e-01
9.287603615706507831e-02 2.552288953910581901e-02 4.866952719666580718e-01
3.056808118811652278e-02 -5.076625500234275418e-03 4.423580548157283743e-01
6.306124606610792604e-02 3.546262077273575758e-02 4.568334971640343189e-01
8.670350273103226424e-02 2.392563998017538732e-02 4.726973416225367930e-01
7.788101194315222298e-02 5.645461815988338933e-02 4.915321349653128946e-01
8.123076306116354395e-02 5.689331747312709187e-02 4.877611890795398031e-01
1.016070896103180854e-01 3.201602532352275376e-02 4.770973071351263251e-01
4.838060529759485862e-02 4.565535257571706751e-02 4.520570407343266206e-01
1.006544409061550516e-01 3.127432211024787356e-02 4.764700180272321006e-01
7.181501720977895298e-02 4.996281028705922000e-02 4.562226232431408346e-01
5.788075935168188191e-02 1.375724458374399245e-02 4.566196157751473694e-01
4.035742820217952387e-02 1.923606531606988565e-02 4.498225281904657535e-01
8.586437875436768452e-02 4.082347422754557809e-02 4.658801787350600465e-01
2.703548532748705630e-02 6.194086177768665796e-02 4.540953590513076010e-01
6.860711293946339384e-02 -2.208234836935957061e-03 4.716295040427864738e-01
-3.499159612605491024e-03 1.270392360227703271e-02 4.413308040027618673e-01
4.666206538101214107e-02 1.115731496009907467e-02 4.512228179371112757e-01
-2.168197056986950755e-02 8.674420412163159899e-03 4.432520871646081217e-01
7.306086830268603005e-02 1.597045627414679647e-02 4.649648537182705654e-01
1.535611482656666291e-02 5.823765778481622413e-02 4.531479822111749156e-01
5.014027170213550960e-02 8.483559562553337138e-03 4.525479089505595187e-01
7.321062969176858615e-02 1.392947358316790930e-02 5.162674561300336640e-01
9.206843994303103018e-02 4.310644015378449490e-02 4.941163844050835419e-01
3.576133040508065047e-02 4.808825537348563467e-02 4.498683143336134616e-01
8.000531393931510638e-02 8.850271850101223622e-03 4.836010688256005552e-01
8.374703715186494757e-02 5.267393568769370565e-02 4.614028821960482474e-01
4.940036463472400295e-03 3.952173677357481013e-02 4.455039578866009653e-01
5.435555386337170836e-02 -5.055733617162793715e-03 4.563478655217708679e-01
7.998134995083154564e-02 1.581694147889360288e-02 5.077960651208233145e-01
9.365968745282575447e-02 4.297040231049257392e-02 4.668546882829626155e-01
7.457992266642773926e-02 4.081171804891332161e-03 4.750717439597668679e-01
-3.723685933420065649e-03 4.752891862773605397e-02 4.468371959902363022e-01
6.774144234243650864e-02 1.340153994243877683e-02 5.229078285884112276e-01
3.578333602675648484e-02 1.529137849402055493e-02 4.479767521066854719e-01
7.588441973976987887e-02 3.957113032343701625e-02 4.628692236999891740e-01
-8.789154314423305511e-03 3.291871434394855189e-02 4.454837394285695029e-01
8.350112203720165549e-02 4.301232328492761436e-02 5.046189924935281512e-01
9.923642185816233807e-02 4.535993910491628589e-02 4.795042843955183987e-01
7.402776711125322318e-02 3.314287202437402741e-02 4.623794778222246049e-01
9.210381873382780804e-02 5.046946812954007655e-02 4.903302802957739126e-01
6.362902475940775127e-02 -6.350439429433948728e-03 5.098029904973149229e-01
4.701145826595640870e-02 5.744227031360882307e-02 4.518564994377155530e-01
5.325112444875166121e-03 1.899068263163649142e-02 4.429331155548560384e-01
1.541013833575687574e-02 1.311046959342518879e-02 4.434922113220323148e-01
4.359663303596571227e-02 1.365181903281541091e-02 4.502659860467810304e-01
1.436643289076694995e-02 2.895214018517603891e-02 4.449639814713589048e-01
7.676032571376704972e-02 5.852042669094575759e-03 4.777257713748627177e-01
1.006483755790913009e-01 4.350906139294166697e-02 4.762252551149298574e-01
7.214070819616487384e-02 2.601229747627376021e-02 4.620714802634049434e-01
9.024412022723227178e-02 4.839190207010999473e-02 4.656602387784751218e-01
7.238040100463569160e-02 1.048822591385375341e-02 5.132286644880078574e-01
7.026799219633406146e-02 -4.873238060977883555e-03 4.905260377170861386e-01
5.830282300043893376e-03 2.821319865377281896e-02 4.440102388410081535e-01
1.631659044628144817e-02 2.266299111709981981e-02 4.447710616682098439e-01
3.091147440621331427e-02 3.846316415005891776e-02 4.491919670923625318e-01
6.385461578605959587e-02 4.832686744418931285e-02 4.544902892499740332e-01
2.683205271728086524e-02 5.634855762914660338e-02 4.501027158905241965e-01
6.883107590638816442e-02 -5.379138780523587925e-03 4.765318053091739392e-01
-1.093362692970420262e-02 2.113784608039181306e-02 4.436232064038351797e-01
3.625776010149200750e-03 2.944011669369163073e-02 4.441904589829310801e-01
7.732417883088123223e-02 1.539520764041913542e-02 4.682963816041175176e-01
1.054347562905954272e-01 3.942113178240386900e-02 4.764240766758894852e-01
-3.059250189554743593e-02 3.181331240516116054e-03 4.428098194161655399e-01
3.518110052897848589e-02 3.503608576202291852e-02 4.496352950945100013e-01
6.895076161743197984e-02 -2.538623316178248348e-03 4.987215880738201657e-01
5.388498790287959972e-02 4.293713515685480819e-02 4.530454048288835023e-01
4.254324230154401393e-02 -5.992112753698855890e-03 4.483604053057151373e-01
6.594589652658704171e-02 1.626283846466438504e-02 5.276152306951142901e-01
7.886455063106205532e-02 5.634476810637711192e-02 4.911774507161163483e-01
8.619170558270797255e-02 6.107023450205428805e-02 4.689459084858721982e-01
4.737089239073088293e-02 6.126239727477769681e-02 4.549330978146363114e-01
-6.649558362543318141e-03 2.632276425399836597e-02 4.441561093772278257e-01
-1.509609348591453744e-02 1.512183857896319886e-02 4.434550831877139276e-01
9.516840282629589198e-02 3.183646996881839275e-02 4.720051514675890902e-01
2.712256331591430397e-02 5.878798481570696871e-02 4.507058568531706610e-01
-4.264114876808539067e-02 2.273082883233459080e-03 4.429034519264474223e-01
-2.283857422181362340e-02 8.432512533277387173e-03 4.434776010316717754e-01
8.275065912032451843e-02 5.586772934610200608e-02 4.899109661573990970e-01
8.702286466403257037e-02 5.892444591447922042e-02 4.791454359746730729e-01
5.839971455993476362e-02 4.723172731058490094e-03 4.569453959940209531e-01
7.401199317007595146e-02 2.981884989138630995e-02 5.242718692375101242e-01
8.174459728654832891e-02 5.683864385964366994e-02 4.635163937861273564e-01
-7.623656836231544436e-03 3.414172503934576747e-02 4.454907976216310739e-01
9.264331219015099761e-02 3.113255152315520455e-02 4.929476735982952218e-01
9.253625959415667790e-02 4.767802586577475632e-02 4.922559928566818677e-01
8.407621472451401456e-02 1.416062217224001683e-02 4.905702224454349669e-01
-2.559234239557214418e-03 2.819190669485809736e-02 4.441386779775637339e-01
5.981409909701172756e-02 4.277882058353136424e-02 4.543749272581588672e-01
4.677777110678683209e-02 5.012963507008259822e-02 4.516226856199199724e-01
8.044648687902472561e-02 4.226382982152114554e-02 4.633829568111105246e-01
5.587790258077894590e-02 5.912231344355946272e-02 4.571174895400118010e-01
8.170292871183416905e-02 4.332786591874521198e-02 4.630487461323231635e-01
8.617673344203392871e-02 1.642875203174915671e-02 4.812176727513031160e-01
8.889922389638607592e-02 5.887332052403423943e-02 4.742838010497579249e-01
6.560317929449943630e-02 -7.558331689423861480e-03 4.715227976701880652e-01
9.561801761129913590e-02 3.106968846220196923e-02 4.727179665042117729e-01
7.392212025576938572e-02 2.269352174075243891e-03 4.950797586677871953e-01
6.806633064408267042e-02 1.601733519218519197e-02 5.248944002947324439e-01
4.337225672006535943e-02 3.304573916217609913e-04 4.490274934953241148e-01
7.239462268048713067e-02 1.710808054502179106e-04 4.771099460050112206e-01
2.401165998387237016e-02 9.165403429578347638e-03 4.443000159300642959e-01
-1.262453162743690238e-02 4.800323030280963243e-02 4.505738408109722926e-01
8.574142039838555940e-02 5.195028533576949437e-02 4.623525901037326968e-01
1.132383626623878134e-02 3.351506839536233517e-02 4.452297273241511144e-01
8.003724873904638146e-03 5.409515736307436012e-02 4.493810165576431759e-01
3.935111648916277301e-04 3.860794638564547104e-02 4.453940933227106824e-01
7.369129609177602069e-02 3.548409479186782900e-02 5.185103723560883227e-01
7.202783873961125793e-02 -1.337037817454385987e-03 4.793017342323033225e-01
4.940087923208202197e-02 4.283200146384240348e-02 4.523102515393219170e-01
7.802569175927168144e-02 8.454799802934554603e-03 4.995163375624144253e-01
8.323226371110756250e-02 4.974156553453412677e-02 4.605924397984384466e-01
8.276104058736802327e-02 3.128337992021174019e-02 5.111705018462805450e-01
8.618116962215266463e-02 3.855726126315621449e-02 4.678693346376806561e-01
6.089221461879257280e-02 3.987618548104048671e-02 4.552360829401356224e-01
8.227325146945657641e-02 1.494048087554988337e-02 4.999598527377209778e-01
8.168583301099117955e-03 2.975253325129603114e-03 4.404835223640520270e-01
1.039310643984681509e-01 3.361572572564616723e-02 4.814338574849768015e-01
6.215536354807421615e-02 -1.069084902053991275e-03 4.617368499694552431e-01
-1.857464016935679585e-02 4.057958004067737864e-03 4.406368549750808716e-01
-4.604960881542140977e-02 -1.991756291908278707e-03 4.421170624097818247e-01
5.398485446905003371e-02 5.267519142977946517e-02 4.524754131459730599e-01
7.567415644825711829e-02 3.966560224511314972e-03 4.928852321861623698e-01
-1.287393573503932930e-02 1.605165517102197931e-02 4.428777364902335423e-01
7.273569621778674943e-02 3.691222535174892155e-02 4.614919628499969395e-01
-1.258991586685975078e-02 4.324136617629417700e-02 4.479048340015476803e-01
6.456751183979746178e-02 3.164544437744260582e-03 5.160513308951809597e-01
-1.084731734537348891e-02 7.176519243321428237e-03 4.407490298227087488e-01
9.115568472525328869e-02 4.453511698102316507e-02 4.652401859904584103e-01
9.116820833495765941e-02 4.980188310028816484e-02 4.664869175538410850e-01
6.889620185599457103e-02 1.325207185658074972e-02 5.212954313706120724e-01
5.838298225905383387e-02 5.493028222616332806e-02 4.532679982019708897e-01
-2.094973267199940273e-02 9.524202722395954529e-03 4.434804278301827107e-01
7.297784221367258073e-02 1.515752116808538608e-02 5.181747625689774317e-01
6.823777435481746811e-02 -6.765514867863101078e-03 4.976721646442686109e-01
2.126983061477875567e-03 4.722755013843373678e-02 4.464406805358293595e-01
6.476260203186054443e-02 -4.883770801920730292e-03 4.678231715986436168e-01
8.871777904614008836e-02 3.451011144899294308e-02 5.006043965999696921e-01
-1.039926606544071264e-02 3.478146413542677201e-02 4.461529865303963116e-01
6.800188375667000351e-02 1.804737826501432666e-03 4.669779901764711805e-01
8.152532696769917986e-02 5.684758343980865491e-02 4.875132624855377239e-01
7.950963265480663622e-02 1.538955831394842565e-02 5.082389877994945016e-01
9.258698126274698958e-02 2.458319009971930008e-02 4.843720730968272825e-01
6.557202071492274076e-02 3.667322460981527893e-03 4.626655328666039457e-01
8.724528207322836126e-02 2.219147541807321017e-02 4.744958413149821808e-01
7.823875886633907539e-02 1.461784162206511764e-02 5.095780226586078543e-01
6.866649866866167407e-02 -3.348986981812775588e-03 4.990115801586276212e-01
3.313722000212098590e-02 -7.087725320825674635e-03 4.429677932471282609e-01
1.294948124608120629e-02 4.009706374823747421e-02 4.461452211640066778e-01
7.387358793488923991e-02 9.386260138127142105e-03 5.091938152125891071e-01
7.060880515426729009e-02 8.613233584474317556e-03 5.132280653694363259e-01
-2.153181156164984955e-02 3.008903869593245774e-03 4.406529833110501282e-01
4.532342429373916598e-02 3.644081959031489348e-02 4.519035436620044144e-01
1.399728417763480663e-02 5.541415781004449537e-02 4.497893352111689835e-01
9.785442263482434233e-02 3.141772514252425680e-02 4.849785245809685730e-01
9.145290829183014281e-03 1.423429059806551392e-02 4.428223061799008153e-01
8.006264624076710190e-02 3.441645968627642799e-02 4.654825704409341625e-01
-2.431280995330365249e-02 3.214900173007711331e-02 4.516344431693234407e-01
9.755280751379291626e-02 3.287781480596795730e-02 4.724716333184904027e-01
6.130806197534403174e-02 6.058164244255153860e-03 4.588205223931931531e-01
7.679816607441174170e-02 4.134701963518071927e-02 4.620764471755039460e-01
9.018734412729043082e-02 4.714946604123245594e-02 4.654636249850934715e-01
8.377516562417020030e-02 5.821065947601615498e-02 4.824426646904630411e-01
-1.319842494822836589e-02 3.087668999161620811e-02 4.457936440507205278e-01
9.187484545289717475e-02 4.234832089626803381e-02 4.668701867562704000e-01
2.571293757287744508e-02 1.788363539645983127e-03 4.426625132656141215e-01
-2.065781729060857386e-02 2.730570195177463300e-02 4.476212825890090730e-01
6.900248481923100530e-02 -8.443483719142592589e-03 4.840105443955220466e-01
2.577223736676378940e-02 5.285292300599041260e-02 4.492931455144557051e-01
8.413189157017968156e-02 1.811399765575798237e-02 4.977024675693516587e-01
1.033153885086508239e-01 3.765174986492650366e-02 4.831159209555888623e-01
6.159138897340965535e-02 1.017793722529822600e-02 4.588154601780253805e-01
1.010779697504488039e-01 4.336974057578069086e-02 4.829650252171596714e-01
6.216906295699466817e-02 1.204647984809012647e-03 4.603728859619222180e-01
8.317460600620038558e-02 1.659277967538691501e-02 4.992343395845290077e-01
7.954840190031724212e-03 9.704871772049138492e-03 4.420144204120482478e-01
2.929062438884377784e-02 4.201526834108332449e-03 4.441519724694899529e-01
7.241757364070683378e-02 -1.945822118070247636e-03 4.863395065405915485e-01
5.103379452170166142e-02 2.929829691573024308e-02 4.539144016060555620e-01
8.368852460859647902e-02 1.495875593529360711e-02 4.940051425203625390e-01
6.505326194329655309e-02 1.389922472561081618e-02 4.606215979185295795e-01
5.107187226332745439e-02 1.290939271549749762e-03 4.530568574691638539e-01
5.971659226431311196e-02 -4.625787106169827398e-03 4.606469712256382465e-01
6.700358257786717675e-02 2.075213944082500081e-02 5.291329138074494232e-01
7.289348036497353411e-02 2.495651447309679694e-02 4.629484606622168985e-01
6.659365625240976083e-02 3.317849441475478889e-02 5.255427107610968207e-01
4.126173151748663975e-02 4.576513940586436624e-02 4.508569345455996635e-01
2.664227321053859454e-02 3.209435348124071302e-03 4.433162017958235390e-01
5.281412283433897792e-02 1.001576849911640053e-02 4.539881197853223305e-01
6.427884082912173336e-02 4.960732484887413890e-02 4.543620664021325029e-01
1.605620598421039075e-02 2.069841112256472215e-02 4.445370959373466380e-01
-9.362279110635082086e-03 8.711717140749277583e-03 4.408708484728067756e-01
6.111068367037564286e-02 5.259136149088863843e-03 5.239978320713100102e-01
4.455632777846131598e-02 3.528339721248011096e-02 4.517632682940038169e-01
6.537444824518853781e-02 3.525933264203495732e-02 5.203915292306019458e-01
2.801182471618714198e-02 4.439528409672895831e-02 4.486999196043434113e-01
9.027060019578567185e-02 3.651591208547163431e-02 4.972101614441846729e-01
8.219112266134188938e-02 3.809795861597166378e-02 5.090478045592081724e-01
-1.406704367814034726e-02 2.093056170274806491e-02 4.441706160703728923e-01
3.877316345995575342e-02 1.534790403540464525e-02 4.488291637519642441e-01
6.912849064089358897e-02 5.271094501652587305e-02 4.558592004732636149e-01
8.362680738322651741e-02 5.794818448012175466e-02 4.829751225345898513e-01
5.739051940982126121e-02 3.750273765414671723e-02 4.547424954069005931e-01
-3.728263420435632552e-02 3.891749884772887670e-03 4.464225574449715572e-01
7.092956748470019557e-02 5.220184088812292698e-03 5.067962396193687047e-01
4.877242205433176409e-02 3.650690215630118633e-03 4.516941502820738807e-01
-2.093671318006900400e-02 3.736339475013480960e-02 4.504348700595894317e-01
8.275878016754240063e-02 1.215528560459265724e-02 4.894156290226515660e-01
6.037316431002811429e-02 -9.665362507375006851e-03 4.653141909749698435e-01
7.306914074680408155e-02 5.046638904120262156e-03 5.026559954855940315e-01
-4.603263683782775860e-03 4.268822314542291413e-02 4.461945874673144408e-01
6.535921618766539487e-02 -2.376661581119461110e-03 4.668033642534215044e-01
2.613459072977052187e-03 2.413556738433494941e-02 4.433221258777069185e-01
5.488829282725283046e-03 8.946601342053769196e-03 4.415738918054507578e-01
2.949366900431798361e-02 -3.469175984621155999e-03 4.423551441440315979e-01
8.107921671831069821e-02 3.343786028966367480e-02 5.134716920501470883e-01
9.216553225268531158e-02 5.363423188990940754e-02 4.823006547689509538e-01
6.197297831844378324e-02 3.442476462239065643e-02 4.567303206708764884e-01
2.681747840633189051e-02 9.779165940924761102e-03 4.449377332483101521e-01
7.396606024295089565e-02 5.940608331561227778e-02 4.635473042469924754e-01
7.028834274841629093e-02 3.390181432738321315e-02 5.224316048125778877e-01
8.241854595411458873e-02 1.159037258716431006e-02 4.833993073843468880e-01
9.321519813383562225e-02 5.093844025594117947e-02 4.712874119491191061e-01
9.600869416680753166e-02 3.907373665997621037e-02 4.900712483316408963e-01
8.068884593475249278e-02 9.464337249588989850e-03 4.900758455839359651e-01
-2.241883183301437640e-02 1.161484552279980556e-02 4.447514371532587663e-01
8.079938634731471947e-02 2.281267621408784516e-02 5.135246114758964531e-01
-8.726473732467108016e-03 3.045876800862610395e-02 4.451956676824309067e-01
7.760935319562742296e-02 1.738612401333972449e-02 5.138145625548982132e-01
2.520946614448841411e-02 5.949628546075677593e-02 4.518331424748961433e-01
4.287086197509222367e-03 3.746103056372176998e-02 4.452020442641419495e-01
7.613556654569354765e-02 9.459633789820199104e-03 5.060275834480320034e-01
8.346794590569960037e-02 5.637103360691102932e-02 4.867270567374306633e-01
-6.919378182457710733e-03 1.617799114219169165e-02 4.421256386198570421e-01
4.252788547921972084e-03 2.017500306175001173e-02 4.429836462335028924e-01
7.915884898350138144e-02 7.795231150163093453e-03 4.844617203290469964e-01
8.903040489245826750e-02 5.463776878892562944e-02 4.862649742298462141e-01
7.181532541259529057e-02 -3.051133006954399440e-03 4.875029942490834434e-01
9.081446333580867752e-03 5.244668804524799111e-02 4.485103074968053161e-01
7.044483159854955656e-02 1.662097480315904985e-02 5.225899363051095259e-01
8.057675615021862858e-02 1.422860038984625174e-02 4.730066795974129379e-01
5.982860958087746206e-02 5.888393715583083859e-02 4.582034023179543114e-01
2.292854527531264230e-02 -2.308487933181367809e-03 4.410491693258545287e-01
8.735760003200700174e-02 5.843620164237975367e-02 4.797388295366560307e-01
8.685957194026037997e-02 5.480853036767995706e-02 4.650566437760602634e-01
8.503376444191289296e-02 4.899648280430608793e-02 4.999279278215899569e-01
