-1.111454123965210233e-02 2.629866895431570012e-02 4.447211117174200146e-01
1.021092818923276940e-02 5.501566025975310886e-02 4.495666131216592976e-01
8.762810064929139886e-02 1.856092934566540981e-02 4.890001934981517140e-01
-5.439316530961357810e-03 1.668000072356850064e-02 4.420816289215651063e-01
8.503451736374709191e-02 1.577481006787271114e-02 4.916299135380990948e-01
1.030574314006473119e-01 3.697172099463907208e-02 4.841305597180767251e-01
7.483146488175869415e-02 2.495484221355857152e-02 4.639842694680840762e-01
9.096769768259121980e-02 4.876675687048769720e-02 4.658837565173507000e-01
8.572283096208259401e-02 1.817067331241559516e-02 4.935008453601828493e-01
4.440314716760354087e-03 -1.690106810554645352e-03 4.389135367401927890e-01
4.917533164967549664e-02 1.658084991021673352e-02 4.526106144410289023e-01
-1.500913750339766001e-03 2.385150666583863224e-02 4.433076491387762941e-01
9.259667424671050306e-02 5.405877928329003851e-02 4.727738212395251605e-01
1.004062546524793209e-01 3.999553202233016580e-02 4.699020562333258710e-01
-2.784343147400349106e-02 1.119470726780625279e-02 4.476860567781819622e-01
7.350044884220302555e-02 1.255473335963758555e-02 5.147308720170834517e-01
8.030170065388696210e-02 3.535480913521748397e-02 4.655444053393677506e-01
8.106775376024290269e-02 5.599130453517900396e-02 4.613065306619359984e-01
6.351354897088670737e-02 7.596287617648321555e-03 4.601616649273911341e-01
1.062172990307539977e-01 3.517945091403738844e-02 4.811845520485191208e-01
1.018775960430450128e-01 4.380966249228773063e-02 4.793371215019507359e-01
-4.152686318313502344e-03 3.237281532747188217e-02 4.448930911826422530e-01
-1.951997762937647540e-02 2.469510379111739332e-02 4.466457024404999476e-01
7.505754391829427830e-02 1.674025422014323652e-03 4.865562968623357021e-01
4.391670216126992987e-02 1.318530539229550470e-02 4.502250263350550119e-01
3.941223251850188916e-03 3.485583291652473437e-02 4.448413356044326750e-01
1.918283854000477420e-02 2.589262085626863399e-03 4.416251309506867284e-01
5.617844258778377509e-02 2.444208278141043328e-02 4.556088258050601802e-01
8.897354634289773856e-02 2.900747206500150013e-02 4.984303431685772057e-01
1.057728130258102223e-01 3.459312203244771511e-02 4.798448529533212992e-01
6.500495879267075006e-02 9.031549021262658128e-03 4.609726429921585100e-01
1.576621481709276559e-02 4.452790921823183978e-02 4.468170291137301686e-01
4.587685718063157919e-02 8.764895733844391482e-03 4.504809644541525882e-01
2.964721125442050173e-02 -2.025705998334647196e-03 4.426482932555039773e-01
9.312679271686265248e-02 4.202376968599080831e-02 4.939610959130206758e-01
3.112382226664554656e-03 5.374190707196314573e-04 4.394445446351946116e-01
5.557449617715354978e-02 5.547285044579600144e-02 4.526792290705111688e-01
5.201936076173474532e-02 9.544590947987888208e-03 4.534896300336621056e-01
7.500733878855856025e-04 4.549585928483955433e-02 4.460751786954473275e-01
9.031900254407200512e-02 5.157769232419869704e-02 4.925308798872023441e-01
1.732598423480608690e-02 4.046099370353907487e-02 4.467212817424708882e-01
-7.806319822263541042e-03 2.371607653272662496e-03 4.394888571901928165e-01
8.524690103452189915e-02 1.713584847274311068e-02 4.760056400860052106e-01
9.179647704958313059e-02 3.699021263873152054e-02 4.689627699907512604e-01
9.904169089925282665e-02 3.426958383404730968e-02 4.861345171841442991e-01
8.111345607828786275e-02 1.430508190771226720e-02 5.037335656529072780e-01
6.310578686552582861e-02 4.589933119819488566e-02 4.546579544570695242e-01
7.330991570821944470e-02 3.879260849361897828e-02 5.142614742718982779e-01
5.552894194116994586e-02 1.042351402199332561e-02 4.552429976023711355e-01
-7.074113675804283990e-03 2.377173039260569234e-02 4.436101378602919643e-01
3.316799293076330007e-02 6.010912538945545336e-02 4.510901783064477644e-01
9.223773764656788277e-02 4.749469245084973756e-02 4.669214836105926580e-01
6.425218473953019094e-02 -7.998682006544646783e-03 4.692701585413730503e-01
1.831967328389596042e-02 4.530491564336603522e-02 4.471499846598577799e-01
8.532611072404008845e-02 3.300403479434629861e-02 4.678555879516184679e-01
7.051249878088697298e-02 5.197043352343086453e-02 4.559194249001692900e-01
9.231356373323036657e-02 3.593435376281584048e-02 4.689196615772165400e-01
3.389929232761127592e-02 1.342085213107407568e-02 4.470887195786414359e-01
5.976408339735569258e-02 5.772959478515638648e-02 4.547142074971446957e-01
-2.305839258058968791e-03 5.003766953649790156e-02 4.473584679543787246e-01
-1.676257940526081763e-02 2.920444329048186433e-02 4.465046371696426153e-01
5.564116509486692619e-02 -1.240778717311403524e-02 5.250777190866784405e-01
8.734381963683188199e-02 6.096204599433605736e-02 4.749407409233558641e-01
5.246266740589593941e-02 -5.954078903506078782e-03 4.550488874019297247e-01
9.499922250184528183e-02 4.158242043243644270e-02 4.917223749118643239e-01
6.452555191780927346e-02 9.121307349531504807e-03 4.605785733936871851e-01
8.944642338183253494e-02 2.337902916261759903e-02 4.920305180609011453e-01
3.104632302063292659e-02 1.802255410015145103e-03 4.439531855658456205e-01
-1.424261344973938581e-02 4.689489573875459810e-02 4.498881080553461809e-01
1.052235659634644521e-01 4.010337025521153870e-02 4.813161481366846628e-01
8.394110579426693891e-03 2.006439301438628017e-02 4.432876905067849038e-01
9.393358728489072107e-02 3.378545844311036522e-02 4.694517436253554110e-01
6.542097100457834949e-03 1.296085917914504421e-02 4.422731280299252998e-01
7.835373552342474179e-02 4.798633711905050947e-02 5.043986761903292981e-01
3.749461840060188018e-03 2.186475841148638466e-02 4.430783550072754928e-01
-2.004730683915424000e-02 3.663542973437267092e-02 4.497524053361558471e-01
6.325584090166851137e-02 5.937406094650786448e-02 4.589109104755788038e-01
6.380609759227504063e-02 5.670542530534788614e-03 5.211170194050938065e-01
7.258295804793271633e-02 3.428957403674343790e-02 4.615600126806624348e-01
7.678562963113116924e-02 7.948891760090866579e-03 4.735475470327197289e-01
7.032046234343677926e-02 -4.778177576921218903e-04 4.723989502858284562e-01
5.799910302479668878e-02 1.607351639702524204e-02 4.566117346239780828e-01
4.313639740129868866e-02 6.182012155916891127e-02 4.534128498804105289e-01
-1.426526140936226587e-02 2.888910368256524669e-02 4.455743446238313865e-01
-3.041082545452171090e-02 3.740516328032757361e-03 4.430558176283304062e-01
5.958839685804746822e-02 -1.050826777665972780e-02 4.646795661417961743e-01
8.848696655526079591e-02 3.142375643716834033e-02 5.010769796238194740e-01
9.107667249206868876e-02 2.770439761981241880e-02 4.721651605006464414e-01
7.557249823276655787e-02 4.720832930343369510e-02 4.573628758589774468e-01
8.647797538651838534e-02 5.568215907730461600e-02 4.861219335288370913e-01
-3.521729687746209814e-02 4.427852365973644969e-03 4.462859950471954051e-01
6.058512162138010755e-03 5.265977230771560352e-02 4.485282772214454483e-01
-1.414118225942827614e-02 2.256735092321135450e-02 4.445164937691152285e-01
8.657406087767076375e-02 4.617160859529339384e-02 4.631058931113583021e-01
8.444037716918152692e-02 3.367303396594253928e-02 5.085647266504175201e-01
6.216822739242077595e-02 -6.283455541564175739e-04 4.612976084558429446e-01
8.348122894164602958e-02 4.417944976629061687e-02 5.046030414369568895e-01
2.818883621997798905e-02 3.186646118273803174e-02 4.477955881586518361e-01
6.706086148763876209e-02 9.810388279570265990e-03 4.623636407866762998e-01
1.081273247826342564e-02 1.272418982560265775e-03 4.401937761940823979e-01
-2.251119237118138008e-02 6.670923661141967172e-03 4.425647684532658666e-01
7.379643444035144384e-02 3.912543955480743407e-02 5.138433246748250749e-01
4.799222292202245943e-02 1.470355055980843671e-02 4.520292313093870473e-01
-1.236354603302187126e-02 5.730516341427016602e-03 4.405757447887042044e-01
2.159429739811622589e-02 2.491911128240563433e-02 4.457042397124902910e-01
-4.219249250417641053e-03 3.552413118848521401e-02 4.452731494521487421e-01
-3.921042063515228770e-02 1.408467900732806970e-03 4.416704805212423035e-01
1.005518974375502472e-01 3.123814005094403476e-02 4.759107321199729790e-01
-7.415467049126170385e-03 4.250013365046284401e-03 4.400321095814971328e-01
7.247986422264175721e-02 5.988063893768617862e-02 4.646084983441102767e-01
2.525089394357554751e-02 1.904866001882676851e-02 4.458181383186691216e-01
-3.967937479260638667e-02 -7.654239520694082217e-04 4.405979091586830765e-01
5.069347309524161599e-02 4.059565308947135631e-02 4.525302787949744276e-01
1.584885194528742880e-02 4.584776393134439021e-02 4.469541403153729497e-01
8.456219696041357425e-02 3.619998652041041959e-02 5.079890904607570201e-01
1.902007859664001099e-02 -1.848735625907361969e-03 4.404639812418089662e-01
1.031515905704247088e-01 4.256650637664757125e-02 4.780786224198366186e-01
3.709282930691285007e-02 4.973112006214917488e-03 4.466760487440183391e-01
-1.677789834833208135e-02 4.462035316371745775e-02 4.498859535820539657e-01
9.807021267942374332e-02 4.282912623664017482e-02 4.680260972528582086e-01
9.223764120091021423e-02 4.676659825757525230e-02 4.938219379186158942e-01
5.219942478981946798e-02 2.824724893800137360e-02 4.542738801192072740e-01
9.050418962672224232e-02 4.521747962219904715e-02 4.958967562894432413e-01
6.598757567693841475e-02 1.671004537645692442e-02 5.283270207506227667e-01
-2.339424048847479204e-02 4.601327516962537556e-03 4.418321676530562181e-01
3.299578019050597444e-02 2.155287581428478802e-03 4.447016883996726122e-01
6.869719262944662397e-02 2.013017828827185982e-02 5.275072611564238789e-01
3.511785021826643871e-02 4.662923439082865273e-02 4.496256985604635825e-01
1.200567238051740253e-02 4.512869587281145844e-02 4.465665282640287614e-01
7.386041818342686804e-02 2.386356350713846053e-02 4.638099480547724918e-01
9.053030235060825770e-02 2.244223839390257699e-02 4.876242828181893141e-01
-1.408005915989005846e-02 4.029157339626366491e-02 4.478429351036869455e-01
-6.779798272686981576e-03 2.061123238079310555e-02 4.429146460974988653e-01
7.001613158925050484e-02 -4.915375363741958901e-03 4.786569717633914478e-01
8.799763899244658627e-02 5.420873730840625876e-02 4.907686248762062053e-01
1.958511721159419960e-02 1.501120515684616075e-02 4.443266114236046338e-01
1.409495776527140004e-02 2.634414285409229090e-02 4.445962134811746180e-01
8.159160044662093492e-02 2.774050336254457391e-02 4.668027892938889645e-01
1.346957505464849679e-02 1.762815061489084179e-02 4.437646874754641590e-01
3.103283688721039310e-02 5.201460600375245463e-02 4.491695738108775759e-01
5.991642340041072878e-02 -3.928688244888857081e-03 5.182674899290098391e-01
3.991215450525640446e-03 1.539360563770324035e-02 4.422818359794190024e-01
1.690857825882918948e-03 4.608029146331050346e-02 4.461423581573608632e-01
8.642614563985705212e-02 3.452176233752766304e-02 5.052522716818582671e-01
3.874234644680275147e-02 4.004116039090292040e-02 4.504316055373585592e-01
-8.015396853730340915e-03 8.957251096365862614e-03 4.407793793933730830e-01
5.000921963480038993e-03 2.615507395090792275e-02 4.436382081304851566e-01
-1.524660466324375893e-02 -1.205429496643995943e-04 4.392492831576471635e-01
8.017395597382295791e-02 2.964753126225938562e-02 5.159326737220514270e-01
-1.730648414911578614e-02 1.984019497941436061e-02 4.452312070498729568e-01
4.348262827590626545e-03 4.653310576736084669e-02 4.462779960695821280e-01
7.570014188106186093e-02 1.867875802225579113e-02 5.183730702925103406e-01
7.311183110496698168e-02 -2.481180791795213093e-04 4.802312106489229349e-01
7.758053230913139475e-02 4.369187934749501484e-02 4.609601177661145632e-01
6.229881066121421840e-02 9.964143105003665443e-03 4.591683317416064281e-01
4.717050844050416081e-02 2.764352329485326651e-02 4.525921369403460570e-01
1.030299811347164390e-01 4.272352355725340944e-02 4.783805094577597283e-01
1.020524667781218808e-01 3.645806385736946598e-02 4.846455334622308264e-01
8.331359889062642243e-02 3.149229889808238814e-02 5.108540820351045175e-01
4.958382192974448294e-02 8.908906610595162395e-03 4.522698237628278717e-01
7.124900798054219220e-02 1.102327549580205471e-02 4.649383734182090944e-01
7.817661426871928831e-02 1.105314929867816202e-02 5.053974313513078798e-01
-1.345125774766767549e-02 3.997516766929998938e-02 4.475512887666944217e-01
3.524690321847944591e-02 6.506896813133752899e-02 4.562392504368846802e-01
8.958742424135533733e-02 3.938333190268814704e-02 4.677781809375714528e-01
8.234850476534213981e-02 1.629719547192548176e-02 5.031408299173455445e-01
5.234148453235061560e-02 -6.206430060405931752e-03 4.550326461920416454e-01
6.499761473844352377e-02 5.862419950682944136e-02 4.578496839492558479e-01
7.714951702613472018e-02 1.395672635797281028e-02 5.113381247136781216e-01
4.984766251643206122e-03 5.029901964211067750e-02 4.473482754343334755e-01
2.040815741576287867e-02 -3.636193812193449885e-03 4.402702280255668676e-01
9.315278645235455790e-02 2.969883286650521273e-02 4.719886492544889678e-01
8.448898494421901162e-02 3.049630373101682237e-02 4.674873534851313739e-01
-2.398857453473174361e-02 1.248547227863968170e-02 4.457387724918277505e-01
8.141770707175623178e-02 5.834119000180674336e-02 4.838249231955786267e-01
9.673959236126800088e-02 2.752527635819409374e-02 4.817929941040374753e-01
7.269105319770430285e-02 2.619419520368325774e-02 5.260127174141046025e-01
8.259474038906637616e-02 5.240620348867715272e-02 4.606239281922676065e-01
1.223773183775194243e-02 5.690594511198258411e-03 4.414770575900073268e-01
7.072558594925862363e-02 1.878009990094223897e-02 4.629918916596466594e-01
7.698869594520477144e-02 2.994553872401979275e-02 5.206854524221322666e-01
8.754121269576035924e-02 4.253120170923399557e-02 4.657983556405356773e-01
6.944201572653557752e-02 1.352094932358920316e-02 5.213428262216047715e-01
6.226364986021767217e-02 1.861786063109786317e-03 5.191950783898082733e-01
9.135606977256778560e-02 5.430634935473420410e-02 4.699290442431331427e-01
3.228274103729432409e-02 6.096172116577303762e-02 4.522022159292236609e-01
-1.342261038221643707e-02 4.777595258123614602e-02 4.505724718640276016e-01
2.396668710452872983e-03 -7.144005400277154885e-04 4.390492253334519757e-01
4.302714732949834003e-02 5.713634904647295343e-02 4.512177873368103387e-01
4.296765204734757926e-02 6.379066288999114820e-02 4.584024496656455838e-01
-1.209608371323105981e-03 4.881689588354552051e-02 4.467235272868406160e-01
9.010516033180129836e-02 3.052849769975968242e-02 4.700429130139931466e-01
3.712268263248513084e-02 1.406260074678269273e-02 4.480555505184404819e-01
-1.489490754483448025e-02 3.043269353882615408e-02 4.460555794258464490e-01
2.246491317883571315e-02 2.946650084832897615e-02 4.463273896619149861e-01
8.385816528634920664e-02 1.380449976907617386e-02 4.775312835972615466e-01
8.358616468914961684e-02 1.266659739911598324e-02 4.784932005446569381e-01
4.031600987132098746e-02 4.021396391051912378e-02 4.507041133545982015e-01
5.635614397963115141e-02 2.697845868995737278e-02 4.556973662616901066e-01
4.186579751879665467e-02 1.881760779490026375e-02 4.501425208485095308e-01
7.602080827925254691e-02 7.708995342691806960e-03 4.726217349560669079e-01
-1.796057793442054976e-02 3.605415322096591768e-02 4.486773280546118015e-01
-9.483604010092779556e-04 3.738194506154973729e-02 4.452058584520842133e-01
2.236714522192867483e-02 1.753389007055816337e-02 4.451249805701144036e-01
5.451494514500224153e-02 3.610767932411431541e-02 4.541239700050036521e-01
4.945898468197499655e-03 2.710812785425422561e-02 4.437670542011921127e-01
7.932191700490853759e-02 4.090861311181964027e-02 4.636103792606510177e-01
-1.798273460667395261e-03 3.714664956895871034e-02 4.452237280986690582e-01
8.380336496596640927e-02 1.377229241744653415e-02 4.923783446110230888e-01
8.333509373922516617e-02 3.680835731812948097e-02 4.671948020949797664e-01
7.275091556178811536e-02 1.327295679902799203e-02 5.168002254330447132e-01
1.049045835027283616e-02 5.751981586878764097e-02 4.542126500441026060e-01
5.899919486569395882e-02 5.168202769660209042e-03 4.571597261619028130e-01
7.165854197887790156e-02 2.004112627612553155e-02 5.242957731015376321e-01
9.522083831207336924e-02 4.926184684442851125e-02 4.858307913696762736e-01
8.857982005621000549e-03 5.242711436631880551e-02 4.483474010742551363e-01
4.462894899419708045e-02 3.372668512483756320e-02 4.516727157444587748e-01
5.782006059791076208e-02 1.250085448740751934e-02 4.564661008101386641e-01
1.058648462495081904e-01 4.071427261945110426e-02 4.797650699632808879e-01
8.080894777927655204e-02 1.611331168725213536e-02 5.073084578218092222e-01
5.689472210823667830e-02 1.924731724115179982e-02 4.559617291751101309e-01
1.643299876343202320e-02 4.478033803457281969e-02 4.468724445966905101e-01
2.860935188400479806e-02 3.649232494702373680e-02 4.483864856900701135e-01
3.109190831279344883e-02 2.841335128491658674e-02 4.480509090469491085e-01
7.257254125305143133e-02 2.329717700767252112e-02 5.248856684618419255e-01
1.187291857497705348e-02 4.555268748672428036e-02 4.466153895888572700e-01
7.479762817718745016e-02 3.774980333179903114e-02 4.623718448923331281e-01
8.576020812054556408e-02 1.659923699745032011e-02 4.772571977470100868e-01
6.851340012242518318e-02 4.463967162148850011e-03 4.650870878902852446e-01
5.860005041772103906e-02 5.476971173967708911e-02 4.530700825917281516e-01
-2.554730592641174525e-02 1.306910255399008902e-02 4.467844599694182905e-01
1.674895719220385881e-02 3.697408766165986849e-02 4.462740956853787355e-01
-2.838487392050164509e-02 6.049038066406497993e-03 4.437236910878006868e-01
-4.250927919439897312e-02 2.225405057754095521e-03 4.453374589770143221e-01
-6.709271597566060161e-03 6.690402321546969414e-03 4.404870524432564771e-01
-4.223532949507587120e-02 2.570557920258014113e-03 4.422039383217398756e-01
6.807721462239546550e-02 3.474136616779292634e-03 4.653494356956154321e-01
-1.620827379472046179e-02 3.153052641046880100e-02 4.468215728848956014e-01
3.686692255442507171e-02 4.181840688970901027e-02 4.500610744868634439e-01
3.363903097846079188e-02 5.182088923711566930e-02 4.496129586933344524e-01
2.978992721071921368e-02 3.013688756889945294e-02 4.479160733855530596e-01
1.041118670496154891e-01 3.626481181248988189e-02 4.831051084090029479e-01
1.516813714162584120e-02 9.812110147000540836e-03 4.429435654074663775e-01
7.067492376028852719e-02 1.493332567129620515e-02 4.635921861894657936e-01
4.948120861171745322e-02 5.165962068477967378e-02 4.517723137752237550e-01
-5.342699025485213131e-03 2.083626353431779210e-02 4.429071458884399903e-01
7.309455535824689598e-02 2.508629452475483364e-04 4.786716644519973807e-01
1.822501533630888765e-02 3.454155467890149961e-02 4.461626466753557119e-01
6.430355667208703663e-02 3.585963377939037355e-02 4.570330770863821335e-01
8.322537472013327720e-02 2.851323560237468621e-02 4.673598770668964675e-01
7.325356059215862303e-02 3.323874255390069088e-02 4.618368682095101430e-01
2.588925417003848026e-02 5.852335620855789872e-02 4.504414766864976438e-01
4.553603143490936311e-02 5.531524298031782055e-02 4.511980604143772666e-01
-1.362231360124266377e-02 4.910637141193933269e-02 4.520189322697831802e-01
-2.992351266567662557e-04 3.430345324465206014e-02 4.448577098946153163e-01
9.827426562066866877e-02 3.500290026282142086e-02 4.708939777457087916e-01
5.563772668744523808e-02 3.900967317157400666e-02 4.538655780243809890e-01
5.346682143670227622e-02 4.185306264856213793e-02 4.528844987120095311e-01
8.872547411754254376e-02 5.834206238286127055e-02 4.781570603947651876e-01
8.444988643373858850e-02 1.506405514813739972e-02 4.770590785337495698e-01
8.277066454086194625e-02 4.553737359045231803e-02 4.617751369113078930e-01
8.582737845732198168e-02 2.963699877244338129e-02 5.060458126072422402e-01
4.064793704568246679e-02 1.491674153688833486e-03 4.477064133511498012e-01
3.485956561302813034e-02 -1.993680670548527573e-03 4.446570165770732386e-01
8.085554136101388845e-03 3.944332636135403775e-02 4.455612009372081350e-01
7.001224809183659303e-02 -6.673952612444146101e-03 4.891884724474286905e-01
8.652208330824824600e-02 2.763878870811907473e-02 5.027023369924582541e-01
7.030016365588495630e-02 8.878793580796230829e-04 4.707925629988303773e-01
-4.115237991954678182e-02 1.085541321884786166e-03 4.414610494422147591e-01
7.149860058901426341e-02 4.466830535144591940e-02 4.572399572662423917e-01
6.246434940717677381e-02 4.904351926349768270e-02 4.539091933696854930e-01
8.599192485207070302e-02 6.150316885848008258e-02 4.740606861642404635e-01
5.052083943388710474e-02 9.607702094189346509e-03 4.527924883675962242e-01
-1.919954984386202865e-02 1.507785779882034154e-02 4.449025853670646735e-01
7.154578614452859753e-02 6.006890955981898650e-02 4.623525688896799046e-01
1.032217922037953657e-02 5.491305056704818416e-02 4.495111211018617547e-01
6.440663327341039635e-02 6.070849223461594057e-02 4.608505132318519992e-01
6.309951319958244376e-02 7.258928593779073214e-03 4.598824639961858751e-01
4.462097087572046428e-02 6.537084960027938520e-03 4.496755507778999461e-01
8.151493344858981582e-02 4.934650825642606514e-02 5.016636580252872291e-01
9.018793924189319466e-02 5.705803476593371976e-02 4.706563951468520357e-01
4.707044709226323315e-02 -1.156666794139670634e-02 5.323288250684442557e-01
1.127904557648742520e-02 2.274014123617339178e-02 4.438879111254479537e-01
9.387787527594299020e-02 5.094648446742072040e-02 4.715595361175129452e-01
-1.874246886873896095e-02 3.648324722702870476e-02 4.491349192637702492e-01
7.148750648227437943e-02 4.486353405630585933e-02 4.571370733258465768e-01
7.124064402919266792e-02 1.695715525725777217e-02 5.225273064474947882e-01
7.110337693775928281e-02 6.013842013884612703e-02 4.620358840194694339e-01
-1.013762788811191709e-02 2.322583734304666664e-02 4.439510782406391187e-01
6.128406510076802455e-02 6.997030183022133476e-03 4.585120763530756149e-01
7.015832483512741968e-02 1.846582846619124890e-02 4.627283276488698971e-01
2.831612027353895469e-03 5.165984968534992339e-02 4.480840824070273509e-01
1.019103924444026144e-01 4.374875980653940982e-02 4.791677591601199437e-01
7.645571435563192075e-02 5.675552864277888521e-02 4.587843760447560260e-01
8.653551563658684609e-02 1.975121770862223181e-02 4.750599398544232410e-01
8.160902794183177988e-02 2.897190562248817824e-02 4.662711739016897061e-01
7.338011298726726528e-02 5.916780610378697541e-02 4.615210525251344231e-01
1.201976307665588405e-02 5.660419169405025291e-02 4.521459186699481880e-01
4.726957961668404318e-02 -8.237739739713572512e-03 5.302961180701024624e-01
8.308178586658232501e-02 1.557030430443647959e-02 4.995362363033845066e-01
2.740294944618710746e-02 8.500281555496572508e-03 4.447558014206821064e-01
6.958676924372043937e-02 6.041207305148942053e-02 4.606116436536059622e-01
9.747189657633882620e-02 4.215042107364735946e-02 4.683498056448842095e-01
6.912361281409318270e-02 -8.251356996235498231e-03 4.927359489903469503e-01
2.795427547210061620e-02 4.302079597318210491e-02 4.485414349156712777e-01
9.052618847811949587e-02 2.692553409324528052e-02 4.724765906315814834e-01
8.690176050493618465e-02 4.466725651882003101e-02 5.007451398162211520e-01
3.507417350029650577e-02 1.905261402172155755e-02 4.481674712736575250e-01
8.153904941296472031e-02 1.014183263944560057e-02 4.835244917269945208e-01
8.123752453101312776e-02 2.310211545134270919e-02 5.134845244055058489e-01
4.641803268992048676e-02 5.995803317199492610e-02 4.529194887895696686e-01
9.745833801447084666e-02 4.737787605837972399e-02 4.803345129196288643e-01
-2.127842256690219442e-03 2.419664715477211347e-02 4.433873911245803101e-01
6.034484405809016627e-02 5.883905572815056190e-02 4.580397797802560622e-01
7.766230509838718821e-02 2.305566381088204955e-02 4.661406929405524369e-01
3.331409189446868369e-02 4.619712833148283820e-02 4.493505174533209412e-01
8.440632794994189225e-02 3.392515232261844593e-02 5.086330509486374218e-01
8.603198034495876390e-02 4.579922873995601051e-02 4.632342621718226194e-01
6.450664994531356278e-02 5.137412435293640597e-03 4.614023531387794197e-01
1.763493656813014052e-02 1.898772773485358709e-02 4.445501729435481497e-01
1.747061564880548340e-02 4.739037840111464533e-02 4.471827871979461300e-01
3.999185395531548726e-02 1.063573284650468249e-02 4.482758619096930963e-01
6.157489110032644819e-02 1.317561695772124716e-02 4.585006450141651535e-01
7.309952226273973286e-02 1.721585071661991748e-02 4.646122248977739289e-01
-3.968820589724904833e-03 3.934636950396031008e-02 4.455865924418889179e-01
5.485225753304437402e-02 2.794792738765691092e-02 4.551867322322400988e-01
8.710423890668414493e-02 5.920932229049211126e-02 4.791512303284510832e-01
1.016023156759698065e-01 3.101888146504745702e-02 4.775511668174177160e-01
7.547780258113405416e-02 1.750131103955599593e-02 5.177830015737618918e-01
3.658796275243968860e-02 8.951963041341905875e-03 4.469331443345843091e-01
2.134838526593948668e-02 3.539971291035086051e-03 4.422912384701223609e-01
1.011333343999624296e-01 3.260661050177677406e-02 4.837997238094071117e-01
6.890376207301963929e-02 -6.080902797115395400e-03 4.771718926097207603e-01
8.113742732618513254e-02 5.872453249003137948e-02 4.802357355421745244e-01
-1.870231086689562450e-02 3.786559292667460164e-02 4.494754090177607297e-01
7.835232501767508406e-02 1.669879385611734712e-02 5.128387187416756365e-01
3.113583762544478578e-02 3.295577948474316676e-02 4.485434802512710539e-01
7.747202488276158650e-02 5.694237498834529149e-02 4.598005208980861513e-01
-2.711904403956035079e-03 4.175801709735294659e-02 4.457431987926395167e-01
6.198875976524529513e-02 -4.903581023471953286e-03 4.636366335330114330e-01
7.216401881007643293e-02 2.094001438606687970e-02 4.633985591718124963e-01
-2.285680341955943925e-04 5.010321833475104430e-02 4.473566859676124108e-01
9.254706374915024070e-02 2.995794198442764886e-02 4.934131974173825430e-01
9.044791814688185605e-02 3.377168116894212896e-02 4.685034033655176566e-01
6.120111966924703800e-02 -1.333640222014075396e-03 5.172941953190250963e-01
5.935721296390424756e-02 2.462636281591145879e-02 4.568394662797114480e-01
8.754681773547785817e-02 1.812682963014005527e-02 4.807918675989229507e-01
1.005801120618287081e-01 3.469222894573860405e-02 4.730709081119421899e-01
8.260378953912543565e-02 5.750508626605568135e-02 4.848300440374031517e-01
6.136554369998265673e-02 1.712432877232043446e-02 4.582065453153938428e-01
7.646988613773553212e-02 9.747050297702461799e-03 5.065886918430217989e-01
8.625278685762985398e-02 1.575142791012052595e-02 4.832039787281344201e-01
-4.389144038329407388e-02 1.349432310017709222e-03 4.451905562922616744e-01
6.880200395789021206e-02 4.674483256076342533e-03 4.652992172243772817e-01
9.561545755619774156e-02 4.324311773852318463e-02 4.671792946202333319e-01
8.504282693975716290e-02 1.643187583943416658e-02 4.764543441636153731e-01
8.403304605639651259e-02 1.308519678489394704e-02 4.801008337705994222e-01
4.267513720301831931e-02 2.789614053969938570e-02 4.511736682976207335e-01
7.949061092953252361e-02 8.026727196689592558e-03 4.815490372125885155e-01
-3.410348047360060864e-02 5.092101345725436046e-03 4.470124174591508237e-01
4.705994840652295841e-02 5.866272931944108149e-02 4.523257688074520666e-01
8.060203587439505879e-02 4.399091935536828674e-02 4.619121140116174695e-01
6.885044477334868740e-02 1.010045111298958631e-02 4.636470883514691721e-01
7.931198430336337812e-02 7.080262103942471311e-03 4.896027018887449400e-01
5.513927330688994655e-02 5.803508139369271956e-02 4.538960112469204722e-01
7.384743069504432628e-03 2.720318100804179282e-02 4.439794973535957645e-01
6.575187081332537625e-03 5.022632973014129476e-02 4.472768644540228156e-01
4.519200270895438326e-02 4.540991920909566437e-02 4.514316507278853252e-01
8.297972924386715077e-02 4.376262788446162039e-02 5.052838724915512669e-01
7.638118226792361097e-03 5.463830113076267175e-02 4.494920727498553092e-01
9.410880429450274587e-02 2.749284404127801118e-02 4.885344826243510075e-01
5.464696067368678828e-02 1.699554158139968824e-02 4.550491343037790237e-01
6.975373865722091227e-02 4.019093183493581412e-02 4.587217180232562308e-01
9.230708784019911461e-02 4.316940743438218292e-02 4.664675327099443991e-01
8.762374479730793142e-02 5.479296718953803602e-02 4.653486663617375507e-01
8.309483168204472026e-02 5.929872278106207428e-02 4.663288353485252613e-01
8.497074501091964049e-02 5.467105464038347906e-02 4.924705762723490254e-01
1.310437262994682515e-02 5.647426571243596011e-02 4.514777634885682733e-01
6.897917938981783237e-02 -7.279470398843479635e-03 4.954119721300450085e-01
8.145727663610133340e-02 4.299058393608149592e-02 5.072435160722998937e-01
8.780611421893043389e-02 1.815115469413166108e-02 4.873436594024513902e-01
-1.230258635993089662e-02 2.916956474805371818e-02 4.453992548525341211e-01
3.854047157538843110e-02 2.726135108251537265e-02 4.499030120030209634e-01
7.311085272995630768e-02 2.772064826171954238e-02 5.256566893011923591e-01
-3.703057733036218581e-03 3.955493147407503768e-02 4.455838215290717219e-01
-2.412236077457163147e-02 1.111002701667671184e-02 4.451556053232458288e-01
4.993915460825380792e-02 4.048675037428826895e-02 4.524044395008780528e-01
8.590821191281200475e-02 5.234562083596040055e-02 4.967213900542047922e-01
8.799294321552732223e-02 3.457243937763491981e-02 4.683047883170124992e-01
1.890201817569345331e-03 4.342694176572346743e-02 4.458131425840955453e-01
3.632466379270630347e-02 4.813786474250359576e-02 4.498039430580398901e-01
6.649264949106185874e-02 2.591069534871617147e-02 4.594397840940943056e-01
6.322896968105183590e-02 5.476792198411042228e-03 5.219174030982717261e-01
6.920955787426079364e-02 -2.452448676894198112e-03 4.726253970861579723e-01
5.264659012934456983e-02 2.147793794291275385e-02 4.541916849435659875e-01
8.913964753369636729e-02 2.801273847635223774e-02 4.706927834961841528e-01
6.886219488009673317e-02 5.612360069161679427e-02 4.562520071435244851e-01
5.332508404281906256e-02 3.557264384228661647e-02 4.539030295464609455e-01
8.978708413188180026e-02 2.105603324238100940e-02 4.854829059396654767e-01
9.055101858802457049e-02 2.228881589124038359e-02 4.853376642564112275e-01
7.731551634858556399e-02 2.542394017815237731e-02 5.199949612889991357e-01
4.608913431200242078e-02 5.108600987778488811e-05 4.503936933464562364e-01
7.592826184143283696e-02 5.677752446692615335e-02 4.586064047286950718e-01
1.366054842382502695e-02 6.445422540501382497e-04 4.402139046050035365e-01
4.287911547593951933e-02 5.900214074183415813e-02 4.516003546272125413e-01
4.915300463251429108e-02 9.900212662807153161e-03 4.521837458619188954e-01
9.305950751874127180e-02 2.856173806416451022e-02 4.727653666223538553e-01
5.007549924360568672e-02 6.059002658367675098e-02 4.551207423385097428e-01
7.282765382160853729e-02 1.535212210069476953e-02 5.192963006675781479e-01
7.074914724534021870e-02 1.872994038426008950e-02 5.245512543245124393e-01
-3.522137366506307432e-02 5.610342357390105290e-05 4.411459240432952233e-01
3.175566805707573381e-02 4.729600203617558007e-02 4.490997732303414480e-01
9.698333182573999622e-02 4.751216482220445986e-02 4.832421700883355320e-01
6.923410026332976232e-04 3.580214334105742691e-02 4.449861507243016989e-01
9.157811055260552113e-02 5.414932748946374441e-02 4.850582961454819042e-01
2.980870351846858987e-03 3.531330922363794256e-02 4.448924098456912835e-01
8.386308926430094401e-02 4.394459861957118046e-02 5.043548686882762810e-01
6.094916455668192290e-02 8.335855387406575223e-03 4.581919304964630069e-01
1.030285962055093180e-01 4.155840844429482817e-02 4.834101456131147390e-01
5.412134324364636234e-02 3.580129386476176012e-02 4.540743411279037911e-01
4.664738985750993550e-02 1.542774557397274399e-03 4.506686921155114711e-01
1.243341467495917736e-02 2.339218718403307876e-02 4.441203628061637376e-01
2.025521994864224948e-02 5.753495191085721688e-02 4.503664622370096571e-01
2.045505171194791222e-02 5.769949086264926363e-02 4.504167225708654021e-01
8.977485729347292609e-02 4.108093027273596737e-02 4.670108122940454520e-01
-5.248773677078880789e-03 2.577551152219864986e-02 4.438544468243655894e-01
6.245445974403759232e-02 -1.492354661076634613e-03 4.621234326616561194e-01
4.457257926425538253e-02 1.614475557369262487e-02 4.508347878628412575e-01
1.064945831826365069e-01 3.552661350425228431e-02 4.791040415248229434e-01
6.363448029700916053e-02 5.953004318261795325e-02 4.591506866330184455e-01
6.542451020378881044e-02 5.882368677171512239e-02 4.579061415210360364e-01
7.568706664437130360e-02 1.084288573613020196e-02 5.092956868758553579e-01
7.420661028315117536e-02 4.079091042108995945e-03 4.991218815939781339e-01
3.893094705797537497e-02 2.516462781682089062e-02 4.498413540247224729e-01
7.443190549768705089e-02 7.885027527877105924e-04 4.860520998618341193e-01
-1.171761044756210526e-02 4.890581470793493174e-02 4.504569479397149689e-01
7.527682990864663359e-02 1.156882314984651779e-02 4.684989912765498699e-01
6.537889838546497023e-02 3.898498298789541960e-02 4.565619996696176908e-01
6.822294237779688575e-02 2.174562922197546301e-03 5.082502551555263537e-01
5.553544545529228577e-02 4.857121393629994233e-02 4.528428559629291694e-01
3.770011481543712045e-02 1.732988300488934319e-02 4.487202773825942348e-01
2.349318972222320945e-02 2.551106708569467890e-02 4.460773396575318239e-01
5.661719222369088894e-02 -5.278465240839013209e-03 5.223335180449600879e-01
9.262067281255781381e-02 2.762647632043909590e-02 4.732915074532758060e-01
1.563022734977438308e-02 5.889785392544117509e-02 4.540110846006121803e-01
3.469744923319263707e-02 3.649064940735369245e-02 4.495674986525915462e-01
1.062480773836553816e-01 3.887665135260390953e-02 4.801348294303631747e-01
2.609018781624847239e-02 4.844872933883781485e-02 4.482830559700498041e-01
2.425625258575881543e-02 2.139948376469384683e-02 4.459974436071552084e-01
7.597949937831846579e-02 3.401969344136270001e-02 5.180281513212863231e-01
3.960067763099874016e-02 -4.269801748517881509e-03 4.468474979457343621e-01
-1.664480078857612233e-02 2.987788717642191755e-02 4.466328616965156706e-01
-2.068463594541293873e-02 7.556532970466287545e-03 4.425167201207774181e-01
-1.875447821305948823e-02 2.639143314193762371e-02 4.465736382436859553e-01
8.546018019841450375e-02 2.213325338071793144e-02 5.002822690052938226e-01
-1.697916530893740436e-02 2.793821206903212596e-03 4.402401353925868288e-01
9.246038569253466066e-02 5.362906485006392610e-02 4.837807351788909194e-01
1.278698729812745294e-02 5.368335652912377409e-02 4.487969386484700340e-01
6.513661491977702778e-02 1.407001262890205003e-02 4.605538221013434907e-01
5.706694149660650195e-02 4.423985728994082184e-02 4.533550844757487375e-01
-6.516640535338227500e-03 4.986127856302170064e-02 4.477975467901865736e-01
8.077263661186488697e-02 1.743709357154681061e-02 5.088404979829104224e-01
4.942229530105141100e-02 1.783545802429438096e-02 4.527930264162870477e-01
3.923165187892837386e-02 2.235855799342828867e-02 4.497163398913349153e-01
1.047119597490039355e-01 3.322628514955863754e-02 4.805099404228790894e-01
7.727459366324852807e-02 5.078617199886293829e-03 4.845509522908750255e-01
1.785033496786663301e-02 1.309285771174350556e-02 4.437884974027555551e-01
6.949690597457515440e-02 6.812941566418517433e-03 4.649166096604248066e-01
7.867587828484565171e-02 1.393888368051652768e-02 5.086039327771391116e-01
9.215066429772722501e-02 3.286108676899151398e-02 4.954720217656760073e-01
8.754922478757311277e-02 4.548638067925257766e-02 4.995847613092946338e-01
8.622441796127285063e-02 1.590413096193006234e-02 4.807239381151853230e-01
5.009295000468683146e-02 6.061683071694160679e-02 4.552495748760667094e-01
2.466869175939678457e-02 1.976499942806398541e-02 4.458358954236036897e-01
6.850256713703427314e-02 -1.917472280700202591e-05 4.689379914853450404e-01
5.282272070458503277e-02 4.109162183327570717e-02 4.528615271712146395e-01
-8.474476875666096809e-03 -1.000793123947947647e-03 4.385294293917656461e-01
1.588617917082505576e-02 1.718480367767742656e-02 4.440473477602316921e-01
8.988299432806033662e-02 5.940971876070606089e-02 4.721049098154737611e-01
7.385434079551501940e-02 5.265300308106325711e-03 5.024307845603264155e-01
8.114099489035933588e-02 2.137244862582954319e-02 5.124383181181286773e-01
2.275226892912740953e-02 3.087630840503403570e-02 4.465910608620242694e-01
5.542009037865543858e-02 3.257708315630541973e-02 4.548827640943318706e-01
5.149854641872943922e-02 8.121230558706058963e-03 4.531157472518935747e-01
8.684470473961461434e-02 6.040652695434223229e-02 4.763711551532153754e-01
8.518452052961676679e-02 3.041639733058406139e-02 5.072352364697544358e-01
7.665196067334456576e-02 2.247109511952474770e-02 5.199031450688700318e-01
-1.946624330615218806e-02 4.011655390258769133e-03 4.407185459967461472e-01
6.458155406239185492e-02 4.796198118903619023e-02 4.545866848423786855e-01
5.031589211393253103e-02 -4.128666260175791088e-03 4.531600453920594518e-01
-1.360379368611862316e-02 5.988879121402734991e-03 4.407180679635566700e-01
2.571764107683401079e-02 4.974227800223713497e-02 4.483686909702069845e-01
9.440432620208569214e-02 4.239874580964794054e-02 4.923553639671469639e-01
6.619430490805908174e-02 2.482026313336384293e-02 4.594610160572118462e-01
-5.300192103166594636e-03 5.275862989509998852e-02 4.498155732275552210e-01
8.067549422367069345e-02 8.762197726278895746e-03 4.884420335434991878e-01
6.940038553465632809e-02 -4.850356396161700778e-03 4.767325260436867662e-01
5.643105121912340288e-02 -1.116206811182065411e-02 5.238805519608514816e-01
8.364180025422746079e-02 1.812991744283038234e-02 4.729350410744653233e-01
-2.012365670372284060e-02 1.452879352553981124e-02 4.451917767173496077e-01
