4.114924206929131134e-02 1.941735586434739994e-02 4.498557599763332027e-01
6.430582237750860630e-02 1.962958346824375533e-02 4.589554183022989675e-01
7.027862387495587004e-02 2.890087237045020283e-04 5.008764401512864062e-01
-1.101774848227778797e-02 7.130010317244474607e-03 4.407414464742467342e-01
7.978260349105177618e-02 3.241496930393125697e-02 5.162784729124048066e-01
7.784648260628772298e-02 4.056267213123890963e-02 4.625248851547821838e-01
3.141649282809841348e-02 -6.174938664138852895e-03 4.423174198294859694e-01
2.483033113803482378e-02 5.198967956595808987e-02 4.486147387222030325e-01
6.359617674940634680e-02 -1.307444710247666290e-03 5.129178889723310375e-01
1.060868816179860452e-01 3.413692999430532893e-02 4.806616011263074584e-01
8.310369644796075650e-02 1.962795641943226518e-02 4.707517699272039113e-01
7.795016411631716657e-02 4.707831762338935550e-02 4.578341418076495861e-01
7.438930110106910243e-02 5.500094608034047233e-03 5.022683186364553798e-01
9.269175364391243899e-02 2.760866460817136547e-02 4.914760159365624270e-01
8.205933042450640202e-02 5.373115275087042564e-02 4.961682262738043026e-01
6.930898342727032091e-02 2.320879310211293109e-02 4.608837888828421492e-01
2.398209449969246343e-02 2.758051637643832779e-02 4.462038239768759684e-01
6.433131732079271081e-02 2.689032750351821530e-02 4.583434348126753655e-01
6.604564726060813129e-02 -5.747784395042997152e-03 4.698260254315343443e-01
2.567699353292503262e-02 1.444850958484981181e-03 4.424590338957165581e-01
-3.261519570185047665e-03 1.248984956750182063e-02 4.412433623187954623e-01
8.786623250035298371e-02 2.981946962562701670e-02 4.687467854689194580e-01
-8.243311023497583781e-03 1.761109498852255362e-03 4.392851080926495344e-01
7.263399673653496424e-02 3.684396538269554128e-02 4.607558402515395390e-01
5.972080146552505298e-02 4.615404284503817067e-02 4.533265175801950986e-01
6.020751267725021894e-02 3.458403242152926702e-03 4.580972096814490691e-01
7.813216325833537146e-02 1.690251384284671005e-02 4.672962767347199620e-01
9.285623025136578723e-02 4.785899034505219918e-02 4.667735728406081086e-01
8.394340279455711484e-02 1.818235239203074699e-02 5.011271192131985242e-01
9.251960871957796984e-02 2.599087850444287487e-02 4.740881954969719536e-01
4.615238004019159984e-02 3.372751516239522185e-02 4.518206708399171712e-01
7.573263901433963108e-02 4.469235889865389062e-03 4.757981610529093963e-01
1.584831752347540257e-02 2.614333489525857979e-02 4.447320263627930759e-01
-9.047507687611160490e-03 -1.377854245531257623e-03 4.383928074240687200e-01
3.567690966083948007e-02 2.677723561827489995e-02 4.488706507755051978e-01
9.291959571431768206e-02 4.988173348350219416e-02 4.910680020472643070e-01
9.975273518814088691e-03 4.359882504253213831e-02 4.460307332830724669e-01
8.510959958706232342e-02 3.154749939636657119e-02 5.075320392119081481e-01
-1.677586164953865505e-02 3.256573796368541444e-03 4.403165033979581366e-01
8.841390002826148009e-02 2.068358144745256755e-02 4.914058863397353094e-01
-1.212625310054346942e-02 5.004139478469364632e-02 4.513976827739103470e-01
6.507073263587088985e-02 2.243171449720297861e-02 4.590195444311263584e-01
5.454542002099831838e-02 1.345677359233541336e-02 4.547374401148154277e-01
8.464653241651350080e-02 1.548442143780798252e-02 4.933982300829500844e-01
6.426415105706584363e-02 3.424480018718507185e-02 5.233698049401575014e-01
7.503221614850136278e-02 1.751648833678166612e-03 4.899797280310531078e-01
5.868670848630019171e-02 5.339957775765115378e-02 4.526597075328600561e-01
7.383778063599433228e-02 1.303610186229159189e-02 5.149690222890819236e-01
3.488550655279022000e-02 4.673164415559048074e-02 4.493530655883382630e-01
6.105644883340430318e-02 -1.025969402854155083e-02 4.663252636720845445e-01
7.643957313003474363e-02 1.183206828041533619e-02 5.097035406654538692e-01
-1.029367165487181206e-02 2.812476609430955565e-02 4.449082246499166393e-01
2.873432657705887565e-03 1.346270793024673812e-02 4.418542907963485256e-01
-3.128349343777455608e-03 1.842151662941531390e-02 4.422830961603484434e-01
6.709325740886599998e-02 1.470786107932009999e-02 4.613344284273796503e-01
8.613696493734827875e-02 4.369475286185386942e-02 4.640629416470348212e-01
8.887953936105162656e-02 2.239133772124508176e-02 4.748234588090843866e-01
7.213520553194843754e-02 5.344489046197938020e-02 4.562445820081190706e-01
8.903365644293102787e-02 4.870640296493498889e-02 4.635401548980063180e-01
7.552866437309380121e-02 2.528272589936547340e-03 4.840314889263233611e-01
7.691298764226778273e-02 4.825891663011279420e-02 5.040957212040845237e-01
1.001522117568686282e-01 2.962468391252373948e-02 4.822579298805368953e-01
8.157049485311153314e-02 2.342671010099696763e-02 5.131462903250494367e-01
5.369558326891213373e-02 1.353102090015219014e-02 4.543548513282056889e-01
8.827084726353363886e-02 4.495191079535950512e-02 4.990660504653090523e-01
7.199271488483523218e-02 1.081297909836906931e-03 4.983351052718740792e-01
-6.104986415246659720e-03 3.695290453655902113e-02 4.455413890192941873e-01
8.333000934782164304e-02 2.262038165832603101e-02 5.086332712695796898e-01
5.564552267802350127e-02 -6.065219259568922078e-03 4.572759921362073432e-01
8.012356048792010355e-02 5.553624159130346460e-02 4.929843064212907078e-01
8.782202168147919263e-02 3.269398012047004809e-02 4.678169397474828961e-01
1.032592285224368661e-01 4.180026477512435723e-02 4.746235064056774644e-01
6.794523173815815269e-03 4.423049114271170729e-02 4.459097283558193792e-01
7.915300228367370960e-02 1.139701435477560171e-02 5.038144932949757404e-01
6.128605044297923132e-02 1.006420772403067432e-02 4.582284604548925167e-01
5.846344096823496289e-02 7.946552369499936680e-03 4.564769752215308007e-01
8.932162984212865808e-02 2.335468319231998394e-02 4.928360317679675862e-01
3.530618995262312793e-02 4.201507439356168272e-02 4.495600019066187114e-01
4.152929581633345302e-02 5.697934377548553170e-02 4.508059742875908937e-01
4.737401628430028960e-02 -1.118116805624760728e-02 5.318931177728490889e-01
2.881795943117339970e-02 5.306956966278042476e-02 4.491462532458658230e-01
9.266508010567375830e-02 3.286086490674900579e-02 4.689601171468718577e-01
7.108301749251999535e-02 3.710243575585450010e-02 4.597339657028176041e-01
8.634525034929425857e-02 3.122405787523296200e-02 5.054409659440382008e-01
8.281658033322326917e-02 2.365552176118987382e-02 5.105728820316465244e-01
7.623456291367784743e-02 4.228654006439929412e-03 4.939836187902003073e-01
-1.594834982159626380e-02 2.385159327612558847e-02 4.453472125225204636e-01
5.897416494615085811e-03 1.938989647151436596e-02 4.429033779081045785e-01
4.382428346363440030e-02 4.500693597634191495e-02 4.509459452329219742e-01
1.271445924456078916e-02 2.619481342913123137e-02 4.442822305071509881e-01
5.034882831471871462e-02 5.850745164571263118e-02 4.527015977829696447e-01
1.915106903333754773e-02 1.352122116455698429e-02 4.439609373061836894e-01
6.375802758660292779e-02 -1.163680707904333513e-03 5.126751285318411622e-01
8.117019671173189566e-02 3.416577854418725857e-02 5.138041322101345454e-01
5.316465519389950573e-02 5.297652574471808928e-02 4.519076341841742894e-01
9.189225945884134383e-02 4.487210138989240066e-02 4.647046317935653037e-01
7.040869635793395309e-02 2.415801601225102228e-03 5.041256756312949561e-01
8.483885531101431621e-02 4.693649998046690169e-02 5.017073687823423445e-01
2.610061514934000279e-02 1.499297765843807945e-02 4.454188081617150852e-01
4.134899416835329661e-02 4.381058830312313523e-02 4.505599535408393308e-01
5.110752488266455396e-02 3.016428472986667705e-02 4.535664833996485568e-01
6.929548004067861977e-02 7.890982400872293204e-03 5.149110874725608689e-01
6.620243284377454185e-02 3.090887819298081263e-03 4.630517965143426951e-01
7.903418611448997932e-02 4.013424588132822463e-02 4.635156683529239596e-01
2.141587616650825199e-02 -3.952469893391543157e-03 4.403704804195716638e-01
8.071373338934019481e-02 1.804435513456262297e-02 5.099111862354961389e-01
8.321331205082373172e-02 5.552184917826911287e-02 4.907663520913349564e-01
6.398271565601534872e-02 -7.385774702370116393e-03 4.680921660363481229e-01
6.119645919247920784e-02 -3.121590742376201787e-03 5.166183740757135379e-01
5.467706822823808349e-02 4.405975825015510938e-02 4.527213884928275589e-01
3.441751720184130225e-02 -1.228938394301614528e-03 4.445791644663587006e-01
2.561749019369071942e-02 1.738957966407111283e-02 4.455406021194501243e-01
9.309900763257286660e-02 5.197160754483434730e-02 4.697770714091420441e-01
-1.295113868454404391e-02 2.021235879601010216e-03 4.396562368746710359e-01
7.863258751359322729e-02 3.960787586440336211e-02 4.636953333951897016e-01
7.858297081461872169e-02 3.703442510993655568e-02 5.138577607556431559e-01
6.623200948614559047e-02 1.226900922839497740e-02 4.610835136579959359e-01
7.308922468897881275e-02 2.714833931543757239e-02 5.256447653914178009e-01
8.510365398265525017e-02 5.334961919456817497e-02 4.952097686272460830e-01
9.027943277961665569e-02 2.171785083437464264e-02 4.810992666660416361e-01
8.757859923058942953e-02 5.179545282959550218e-02 4.962322784651727603e-01
6.262487649311056226e-02 1.617502589569561749e-02 4.586390009850550564e-01
1.050456359905762097e-02 5.628466102709989843e-02 4.513488219411477265e-01
9.524289156226346809e-02 3.079480484439193338e-02 4.720492999288495306e-01
-1.481095432629005865e-02 4.262947625169372784e-02 4.485471150455416223e-01
-1.468358481261733753e-02 4.543744036788215784e-02 4.490686278688018063e-01
1.659116070085502742e-02 5.758107867451998929e-02 4.510175827752247457e-01
4.755710473043633923e-02 -1.188526898599127045e-02 5.321487803929566551e-01
8.840918307718105551e-02 5.885549842187657449e-02 4.689958558746096240e-01
3.299923476997023222e-03 2.990629418777128803e-02 4.441064241222910658e-01
8.879217305405676108e-02 1.890791226513939549e-02 4.837142949898705080e-01
8.716656238006680046e-03 4.697362097653340340e-02 4.463648627870194785e-01
-1.670811150597304937e-03 4.644031262087936623e-02 4.462478262522896477e-01
2.580812292283287887e-02 5.915865143123282682e-02 4.509659431950329145e-01
6.775535197920015684e-02 3.177832515841637340e-02 5.271701752420344667e-01
3.283527936381027551e-02 -9.395656288195005463e-04 4.439820985827441779e-01
9.589623603381274008e-02 4.989769802584290842e-02 4.809115831564981236e-01
9.746739446631812187e-02 4.400191221684979226e-02 4.679276175036919949e-01
5.977844029014484778e-02 5.629172089550448649e-03 4.573856309343743987e-01
5.974194214371292277e-02 2.533399414242104228e-02 4.567277511576106619e-01
8.227202660421040203e-02 5.753032324399452030e-02 4.637348280662050293e-01
9.515690656942794867e-02 2.599491932944346384e-02 4.800466870916816897e-01
6.298420463323034513e-02 5.679726155490005812e-03 4.598264673567864502e-01
6.784746158443583086e-02 1.075103246984477137e-02 4.624389791782028691e-01
6.122969780882103752e-02 3.603744191131625502e-02 4.555883127374871222e-01
-1.843262388883622552e-02 7.406193367204001732e-03 4.419122399240157373e-01
7.534172801481180126e-02 3.086432490218512983e-03 4.935301075916997959e-01
7.939843640775965522e-03 3.721176991898623304e-02 4.451726566633033011e-01
8.920039718933597817e-04 3.075082004886139919e-02 4.442769309050541016e-01
8.386601162960392875e-02 3.699041421514063371e-02 5.085931863705838163e-01
8.401924755584699867e-02 3.834969680916468920e-02 5.073974896771331622e-01
8.471376508184053078e-02 4.918098567703788060e-02 4.604432289085754748e-01
8.340310566511698054e-02 2.942882385276186785e-02 5.107737405559977795e-01
-3.028932421307443251e-02 6.263131331013962674e-03 4.449209377351347472e-01
1.023903761475552510e-01 4.213037774145605291e-02 4.732328980882450908e-01
1.007946150506341121e-01 4.398386454437353682e-02 4.839547504249810395e-01
9.474653154210960215e-02 4.644111375355827742e-02 4.683570237502454048e-01
5.024441523371583895e-02 -1.613656536333521203e-03 4.525562458450763104e-01
8.236008826753955792e-02 1.061899890448879391e-02 4.885000042073843196e-01
7.522382753930627330e-02 1.048220375407544341e-02 4.687727419362588965e-01
-1.791685928179843554e-02 7.774561558682942936e-03 4.419109634231596639e-01
6.404392591258542544e-02 4.045537560728841055e-03 5.189336940504850615e-01
4.252531013973611523e-02 4.929265319407485219e-02 4.505702007209413384e-01
7.688005259805918978e-02 3.030760190635029688e-02 5.208949595404974708e-01
5.947039808262613581e-02 5.523460761162128640e-02 4.530906452055821210e-01
3.494167977241403877e-02 8.426439725168610034e-03 4.463214026774109944e-01
1.434894384291868913e-02 1.599232859148557936e-02 4.435975297508855664e-01
8.244724853162453682e-02 4.472569058173915535e-02 5.052821740306189247e-01
1.896668706326671769e-02 5.785110361686012642e-02 4.502728746800813142e-01
1.383380217825043619e-02 5.446248838304341977e-02 4.489764951166210216e-01
8.659688586158449664e-02 1.590095061751096300e-02 4.859721334529390480e-01
4.425383244693937429e-02 9.282027481132850560e-03 4.495732612584995569e-01
5.434244316144486858e-02 3.854835995813096772e-02 4.533141397105853176e-01
-2.429358250049467195e-03 5.242392562231035918e-02 4.487040869502897378e-01
-1.526745289108280210e-02 1.738122850966146785e-02 4.439348039149407787e-01
4.604550199034215113e-02 1.170201231172773512e-02 4.507539487791318300e-01
8.471000282571200524e-02 2.734135270529113038e-02 5.080103084283553727e-01
9.284266523042403185e-02 4.159933526422294331e-02 4.670483628168258794e-01
7.818421986941447022e-02 1.060028196191676979e-02 5.050264003929730849e-01
2.257592422178970187e-02 -1.937198488127211612e-03 4.410057751416230354e-01
4.097925504219713383e-02 1.999735534153114849e-02 4.498805481665853478e-01
7.924600672053824790e-02 5.739778356570945927e-02 4.627752826448915946e-01
-4.011991174230088164e-03 5.080114925633267414e-02 4.476302103679479227e-01
4.106112165088595528e-02 2.644511215084569510e-03 4.477941509225787931e-01
-3.104980957424456969e-02 2.854408551841649752e-03 4.427952015851455148e-01
5.276825542000116581e-02 2.254575662720222085e-02 4.540657707877283622e-01
9.576385763310062138e-02 4.307288847724966008e-02 4.907626303194478345e-01
5.840607000867913817e-02 9.726023436465638244e-03 4.565211684049151342e-01
8.387020288818272662e-02 5.221776714267473835e-02 4.974400886241965303e-01
6.431485575806357435e-02 -1.567768005377842251e-03 5.112823752197828142e-01
3.252379946848783787e-02 5.857566970537612938e-02 4.503138133514934527e-01
1.023728427222703047e-01 4.122148708902351188e-02 4.843230382320644067e-01
7.017593623473519782e-02 1.888145293200539990e-02 4.623477470582465498e-01
7.887183576583478573e-02 2.592732556889727411e-02 4.656793416148108378e-01
-2.349894917707068959e-02 1.985372595992471872e-02 4.477948736227053694e-01
1.013738752318477515e-01 4.108586918111017255e-02 4.693796144432302309e-01
2.207050865516626409e-02 3.915921162840815817e-02 4.471588957475748916e-01
8.949223743500528405e-02 5.279005387952290934e-02 4.646236180467764321e-01
2.096453342729388564e-03 2.317731291850894451e-02 4.430423340375260755e-01
6.932827207474058506e-02 -7.630938540325851206e-03 4.932967963874351214e-01
9.559817365880704521e-02 4.950908885294214717e-02 4.741230885467234146e-01
5.094334810230848748e-02 1.652836699952955554e-02 4.530988383040115419e-01
7.790435041595490662e-02 7.222013915587719574e-03 4.983834395979727661e-01
6.791093838229948776e-02 -3.490753110724030724e-03 5.018471346881657746e-01
4.871745132433449171e-02 2.423477865464379946e-02 4.526438734843648004e-01
2.260506804643948320e-02 5.326071658490836441e-02 4.487212348527042094e-01
7.702348267134362381e-02 3.162006266788755515e-02 5.193236373086956847e-01
7.737489150903054114e-02 6.316068732338909336e-03 4.974982741601929881e-01
8.331955159995101112e-02 3.928688757841400370e-02 4.656691306874991554e-01
-2.000382726141505460e-02 6.250968596990186428e-03 4.417865411165302070e-01
9.865549238266120569e-02 2.811747404512871668e-02 4.805538957306937919e-01
2.302149363568641027e-02 -3.371702882939316137e-03 4.408040402488090370e-01
8.608108335128308863e-02 3.106224490183293746e-02 5.058737194312246110e-01
4.654390774013533738e-02 1.411535018512781285e-02 4.512799784843483097e-01
3.643942262634210227e-02 2.933664288664051753e-02 4.492713674707681792e-01
3.080794262543586418e-02 3.340454887590572214e-02 4.483398452990904892e-01
-1.712228811169949627e-02 1.005437225082444867e-02 4.424778206730434205e-01
9.540389214530358569e-03 5.601195910914149451e-02 4.503387333850678576e-01
1.003090515090267892e-01 4.446422408968689344e-02 4.752040626164829029e-01
6.095008704534215366e-02 -9.611035117423928631e-03 4.656448855860778058e-01
4.120461008137081549e-02 6.409127052085285270e-02 4.572182499012109047e-01
3.242514879360765961e-02 4.079794122976809073e-02 4.490960421923829715e-01
3.631635246844362730e-02 -2.575667788317964960e-03 4.451179146234706674e-01
6.988538120308704360e-02 -8.254354235072508539e-03 4.870976490839019624e-01
5.934755242540962900e-02 4.898352593285613954e-02 4.530768370922154675e-01
7.068288988589294108e-02 -4.880652515234043878e-03 4.902292500987906476e-01
2.969687094864072521e-02 3.419403506119677444e-02 4.481879090812874167e-01
7.594568874902397904e-02 5.604768764832758314e-03 4.742329882959676057e-01
1.944757011349607101e-02 5.940241889206329846e-03 4.425405327998075400e-01
1.013141339880445219e-01 4.321933895617059707e-02 4.737647918964411620e-01
6.398441615609866406e-02 5.734973645959338950e-02 4.553557034258732261e-01
7.307527118435493130e-02 4.043741620397259262e-02 5.118243489167582094e-01
8.757725296395367509e-02 1.858801280915933427e-02 4.778952524390432388e-01
8.572464687279823803e-02 2.113050807131203190e-02 4.987363703429336659e-01
8.269940500386097071e-02 2.898247233377525961e-02 5.119994924175289563e-01
3.866924287097144031e-02 -6.582456665149332732e-03 4.459510700649201853e-01
2.965771324630945682e-03 4.895209111757161877e-03 4.405829255460892990e-01
-1.574462012632011840e-02 2.507284385948109137e-02 4.453824777812672164e-01
7.497283860212668183e-02 1.014894620396502613e-02 4.687134923230958372e-01
7.088795788610487147e-02 1.243653352159887135e-02 4.640414216294207472e-01
4.933712016136685558e-03 5.114197152583595946e-03 4.407613884798241011e-01
3.648325377964066474e-02 1.979359801760539189e-02 4.485064400472756896e-01
2.713385858290263530e-03 1.777557278850473363e-02 4.424163903995388392e-01
1.010408611061226480e-01 2.993941043895322410e-02 4.773898963094045933e-01
1.014094104250954850e-02 8.507321616205090406e-03 4.419286468012260105e-01
6.344477668002787563e-02 7.329190567075094531e-03 5.235123203510145817e-01
4.027479867633031174e-02 4.932476773314339868e-02 4.501647319985298545e-01
5.715320813244519765e-03 8.621120940813530725e-03 4.414710548658632439e-01
4.327776503498804300e-02 6.302355054037404869e-02 4.553827035847917704e-01
-1.740078259509360292e-02 5.118278739602768329e-03 4.407822984235572616e-01
8.286157467687749190e-02 3.187282546828969915e-02 4.662686645418036013e-01
7.516810096170531419e-02 2.526849819930435809e-02 5.228259057844146795e-01
8.762435636208477929e-02 1.843356578773044929e-02 4.785517733770989213e-01
3.115774580390084057e-03 7.368849258562957735e-03 4.410221803789708961e-01
1.633337345537503801e-02 7.012312503619029871e-03 4.422976935643320173e-01
2.330962376643341133e-02 1.413964041609698866e-02 4.447464921477944366e-01
8.309803938521809208e-02 2.391863076885352921e-02 5.100253608977978192e-01
7.366412791232161694e-02 5.078210426218622564e-02 4.561921062686553063e-01
8.910054168444560274e-02 5.657944221942069751e-02 4.819687101640844906e-01
4.990065502726234031e-02 2.846485943469055993e-02 4.532918384822167690e-01
1.014320252535200334e-01 4.445948034903873108e-02 4.797166772430025983e-01
7.265955403423361714e-02 -1.709037532649451512e-03 4.825802958033668655e-01
2.260335895968303491e-02 5.404698792340652952e-02 4.489078036723864185e-01
7.922089041826900491e-02 4.640034420030336726e-02 4.588989732542188560e-01
1.478091736570460828e-03 2.603439948322759656e-03 4.398730664912062216e-01
2.184434299345931751e-02 5.389167503800331577e-02 4.488904826257740788e-01
8.447657206261582896e-02 5.522704948456079455e-02 4.907916547436303456e-01
8.641757725941658086e-02 4.787901231766639176e-02 4.998145679625539683e-01
4.212118981869410889e-02 4.451493611803321315e-02 4.506664101520514998e-01
6.745045456201599621e-02 -2.896150996852462668e-03 4.695291716487301481e-01
5.667477659796536088e-02 3.232381898395556181e-03 4.559103555857339507e-01
7.856887117642058493e-02 1.358575970912727880e-02 5.085790871321924644e-01
-6.517303466170108923e-03 4.116111729126192137e-03 4.399878441215467340e-01
8.770014869331088647e-02 5.563487427049515488e-02 4.657182019974995257e-01
-1.823328680411744410e-02 1.663329825056347397e-02 4.448423164771166949e-01
7.591103455847764137e-02 3.823306410824393875e-02 4.625184115486840053e-01
-3.025800780717119096e-02 6.580637710340827250e-03 4.459796662799669908e-01
6.454346429030274890e-02 -3.478403084175016053e-03 4.659203565765963062e-01
7.185013866453339448e-02 -2.459614070951070264e-03 4.908060998099356698e-01
9.827889215423206426e-02 3.533561850404864924e-02 4.699751576506797646e-01
5.625112059846961192e-04 5.055404827001482027e-02 4.474210598835551278e-01
6.177611186518646574e-02 -2.975462093978793396e-03 4.619202507795066581e-01
6.210005904027434548e-02 1.003274452230267129e-02 4.588250237515412167e-01
-2.312450291396986324e-02 9.320804478448217051e-03 4.440592480608999693e-01
-8.329872574178994599e-03 9.786355750544898854e-03 4.409262480320477740e-01
3.675952128047608666e-03 2.120065471093807510e-02 4.429167072200246857e-01
4.190222149970918714e-02 8.559589708327323271e-03 4.485345852075036110e-01
7.337303215525857458e-02 6.388215108685834677e-04 4.779160296132328178e-01
7.090959799014368015e-02 5.211261621471819337e-03 5.078202078403342146e-01
7.623705262408446426e-02 3.530182986713612664e-02 5.168931675785101154e-01
8.933182789299330684e-02 5.240976169709733734e-02 4.642121934153713436e-01
3.829193078851932108e-02 2.674756748988781074e-02 4.496026544063797536e-01
5.107357633683191206e-02 2.638398996957534454e-03 4.527520324039891464e-01
8.551581241397500366e-02 3.306681953742229840e-02 5.069133710717478314e-01
7.084229361453385498e-02 3.852794556014667131e-03 5.053846443493812401e-01
7.102773882052547394e-02 1.738991708907691378e-02 5.231849691716961015e-01
7.716079032568158580e-02 3.656356744466476849e-02 4.635259188401054664e-01
6.276802471504153158e-02 1.019526138513762205e-02 5.266105657510371518e-01
2.451812098876551479e-02 6.084559830714114659e-02 4.530677518888756028e-01
8.793939367371381155e-02 5.821329344543332840e-02 4.683743682212512804e-01
7.552768504538985572e-02 3.243436461087396278e-03 4.932717352889006701e-01
6.583744695377229117e-02 5.842211780378387537e-02 4.570740354235715008e-01
6.001603347224785528e-02 6.058304050939750107e-02 4.602563824512203583e-01
-1.427039476837170008e-02 1.138406095369775758e-02 4.419516269688598675e-01
-2.183211427064692123e-02 1.074188769881259317e-02 4.442508851621020383e-01
7.008831138375032355e-02 -3.806146864579860664e-03 4.762880181010993863e-01
9.479520680318558046e-02 4.357878171463323846e-02 4.662498333173877851e-01
2.993245837497304079e-02 4.832699520844382229e-02 4.485922301932867007e-01
-8.298402582186403115e-03 2.064337033314271250e-02 4.430626946971040203e-01
-4.703946915318100302e-02 -1.973793910059504046e-03 4.444533954447814628e-01
8.335132731511904480e-02 3.510812538785773596e-02 5.105685461796569680e-01
7.221515126824622210e-02 4.707152557122141860e-03 4.697128318944808201e-01
5.884303078576428453e-02 5.846044636011932250e-02 4.558790516422405736e-01
8.451071506272013478e-02 4.221940668116348078e-02 4.643804833929630616e-01
1.007635077903058507e-01 4.326403617425735731e-02 4.854279102469304386e-01
5.556300682198764621e-03 3.337030924350228855e-02 4.445799649752371629e-01
7.974603227575884079e-02 8.500378464964552377e-03 4.769694160421930063e-01
-1.589589886775251079e-04 2.625358180018552354e-02 4.436190624286741602e-01
7.954412836371162199e-02 5.667477872074637435e-02 4.897676562152916135e-01
5.296711678528610162e-02 1.396209713738443686e-02 4.540395492147782930e-01
5.903611880234810316e-02 9.647528664135585769e-03 4.568617288590607339e-01
5.117606069434469523e-02 8.128735391655558459e-03 4.527945153269189449e-01
1.052603775583451778e-01 3.327664288761604527e-02 4.803233383110738774e-01
1.034732965665611515e-01 3.230295012478971717e-02 4.817349318704663430e-01
4.673761816879203057e-02 3.688585555905243146e-02 4.518575139440563770e-01
9.847388992104182115e-02 4.614242774666806046e-02 4.828542826554577116e-01
6.490552280127177831e-02 5.767834691639771305e-02 4.562054526085823625e-01
2.168087158127542102e-02 2.599978684213069546e-02 4.456418550961742664e-01
8.051141360824025373e-02 4.615416358108851563e-02 4.596966076486672104e-01
7.423647267089741875e-02 4.543488431701613733e-02 4.576820415024694388e-01
6.276519515437037344e-02 3.082973662355621008e-02 4.574029591521068250e-01
7.318994633841061082e-02 2.600619739776655927e-03 4.984278915496779261e-01
3.823961502804901214e-02 1.270656059420828543e-02 4.479898192211261287e-01
3.008932679764657336e-02 3.790217263838525918e-02 4.486397734766340850e-01
7.802610583488259199e-02 3.085585163583918003e-02 5.189506635293412717e-01
2.316983102289331062e-02 4.210563177975577831e-02 4.475832647651523666e-01
8.724082681556141750e-02 4.002421131616044209e-02 4.662756788617918868e-01
1.032962648039354239e-02 5.650662516872045904e-02 4.521084369619843280e-01
5.096378500275816625e-02 -1.687931655098473191e-02 5.303737148502172261e-01
7.174881207978043782e-03 5.747033450693288942e-02 4.552503982853508546e-01
4.070077289394060521e-02 5.594573381408556034e-02 4.505518018454194307e-01
8.171632217847260571e-02 2.051433908691771557e-02 5.104984356472850315e-01
1.294940498935765079e-02 4.925874180984956413e-02 4.470065751447501179e-01
7.903023751458460033e-02 4.558537015568134981e-02 4.593813992148031433e-01
1.002621219706419098e-02 6.153992671959887528e-03 4.413895342812451106e-01
6.002907945268336209e-02 -5.615510805995038712e-03 4.611887518927980101e-01
5.910056741704434319e-02 1.694964898298140926e-02 4.569524566815405531e-01
6.108138884865621510e-02 1.385024503504257709e-03 4.590893655377767946e-01
8.395956314485011895e-02 2.029987323061773971e-02 5.044897398805511246e-01
8.975722415308635960e-02 4.958186047527794738e-02 4.641871689840851301e-01
6.994521463104443060e-02 -3.697925918132163522e-03 4.959117994055342038e-01
6.646065996949308829e-02 -2.423750692359548722e-03 5.059403694488495695e-01
6.999312960361055158e-02 3.354072985604943796e-02 4.597829025183457485e-01
5.121558781681621181e-02 -8.970032592923928016e-03 4.548786249087389266e-01
7.454955247224998027e-02 1.113040930479938621e-02 4.674041724100337358e-01
9.184988239420296963e-02 4.608823328536541114e-02 4.943659984910583893e-01
5.904419804471231631e-02 2.287989492700835681e-02 4.564958945671627744e-01
7.653494454516987511e-02 2.450701122829149550e-02 4.648119841625645288e-01
6.446278763517382382e-02 5.784609733332480436e-02 4.564345952201177004e-01
6.316732178245025586e-02 -2.471522825804864897e-03 5.130752487824096209e-01
9.137772923065518027e-02 3.735267265283199328e-02 4.684805337770356903e-01
8.500649923233274952e-02 3.753810038159317852e-02 4.677011694450483037e-01
1.967726812412940243e-02 2.690932044355492936e-02 4.453854066565954284e-01
8.351647747761982432e-02 3.631730715370841411e-02 4.668469464791891177e-01
9.461627072132562655e-02 4.019061309519701003e-02 4.680389650392637324e-01
8.903012125937892485e-02 2.108088684156752407e-02 4.905535562526234239e-01
9.382689029421638349e-02 3.585153445368455261e-02 4.937581482967073332e-01
-7.347101367400798999e-03 4.592864981761785731e-02 4.470044740181405851e-01
8.683702620932864935e-02 4.334412016615388219e-02 4.646198551051459180e-01
6.292500047313147327e-02 1.546626934081848925e-03 5.174893637495480148e-01
3.742407291443602957e-02 2.267434666692000680e-02 4.490273817034774462e-01
7.726751649743014705e-02 2.162113730389291638e-02 5.184393168757565062e-01
-3.635158436544676241e-02 2.608396083125545314e-03 4.429671852700208801e-01
1.150700566086362842e-03 -1.913493664489188768e-03 4.386205431588729997e-01
9.898622546446057824e-02 4.628753340010393486e-02 4.798188826135024732e-01
4.332053562145524173e-02 6.070704966164847810e-02 4.523863117276522017e-01
8.101076947532477590e-02 3.576805550967319947e-02 5.131640467786837689e-01
9.166536331323230091e-02 5.094609647715622747e-02 4.916991854365133641e-01
8.661032625048853406e-02 1.579306700823295342e-02 4.826865242919591847e-01
2.581824609526333497e-02 -3.862897927652550814e-03 4.413230538692366478e-01
1.037715312703756526e-01 4.122250999124648513e-02 4.827383561405150791e-01
7.739058468670792501e-02 1.732747216632027007e-02 4.667687533296785984e-01
5.914292125703414504e-02 2.994854037787540030e-02 4.563348612715586450e-01
1.009181486992097726e-01 4.366594436073024249e-02 4.848916921812568281e-01
-1.707431427986591532e-02 2.883338656480248854e-02 4.465151286480605330e-01
9.425790317049480282e-02 3.129630719090181062e-02 4.712849448630989646e-01
7.468505971732691817e-02 5.999504894471470451e-02 4.681050494962400443e-01
9.121931110565431600e-02 2.297672511068946447e-02 4.866872009817971301e-01
9.293992912250907679e-03 4.382902645568923644e-02 4.459975211715340171e-01
8.595462508390394607e-02 2.790563390854635534e-02 5.050002014825923924e-01
-3.658407452271543459e-02 3.505294689674674519e-03 4.451680626962415399e-01
8.451245404698157215e-02 3.940805101648466036e-02 4.659215156074947850e-01
7.198800436436367245e-02 2.356420021059297057e-02 5.256570126753394856e-01
6.776030340594628443e-02 -2.094974527622551867e-03 5.030658360311425215e-01
-2.574754488846870207e-02 2.035531433963684578e-03 4.411835580091977294e-01
7.545888156700764071e-02 7.792112406770480490e-03 5.051216233355247942e-01
4.075640497435221304e-02 5.768948298306050826e-02 4.508521385284618432e-01
6.981694513494936249e-02 6.019585825622134762e-02 4.591808027356255040e-01
8.745714677027024986e-02 2.504700682758283226e-02 4.983903086610556032e-01
7.486093165169538377e-02 1.442357279142627950e-02 4.659537327322602618e-01
4.785842597143295102e-02 4.714337576419333486e-02 4.515223689728963818e-01
8.238656503955811561e-02 2.160166342583758406e-02 5.100911482431642607e-01
6.818380253025264903e-02 -8.472466693948493832e-03 4.971357205567248361e-01
4.260595191065678217e-02 3.952650624878789598e-02 4.508905426498370783e-01
9.867625555334370857e-02 4.122271251705993123e-02 4.686029803677844718e-01
9.039108865630661460e-02 5.689732109672879234e-02 4.759022411898530813e-01
6.780061552239359524e-02 5.621403892994218145e-03 4.637566677650594160e-01
5.557143406443869338e-02 -1.326976748020140991e-02 5.253619279931397434e-01
-1.336043152695783227e-02 5.321160619923544915e-03 4.405405025160457622e-01
-2.555781076059150669e-02 5.296148417784335427e-03 4.426539758019618631e-01
3.698084406617185849e-02 1.666118585049443726e-02 4.482968194669596507e-01
8.306007694388656271e-02 2.187758745042604064e-02 5.087701103505641864e-01
9.086002426510679519e-02 4.454852876859827920e-02 4.646952988436077181e-01
7.185516798713434405e-02 5.063217658562154527e-03 4.688940766375564451e-01
4.015380725651462868e-02 6.389381600970668595e-02 4.556316174152290066e-01
7.694131271679960360e-02 4.422312440043960069e-02 4.597761393119808027e-01
8.451137193575365691e-02 2.350695604111830567e-02 5.061999426336156738e-01
8.780643404602336832e-02 3.063433673990649531e-02 5.026144271214768589e-01
7.125236442333332532e-02 1.946257219449282812e-03 4.708315994161588192e-01
3.122760687180402284e-02 3.907617365491931373e-03 4.444217507153426783e-01
5.650798489428661420e-02 2.599973928254097760e-02 4.555041167275832303e-01
8.038775053057835296e-02 4.813472594545589039e-02 4.587209180824323718e-01
7.686389569124081611e-02 2.152712158139570217e-02 5.189732647724921710e-01
-1.163515245310746274e-03 1.653533564188668092e-02 4.419135132518146047e-01
-1.700780021298775244e-02 2.892235469996548222e-02 4.465113372187857754e-01
7.652054102040228845e-02 3.600458986167013025e-03 4.897932387181543890e-01
7.381149970959449691e-02 5.875749535619098109e-03 5.041274864834007774e-01
3.492818266671268712e-02 1.838218565170772478e-02 4.479039768283158973e-01
2.858441060112115739e-02 1.007726116325569077e-02 4.452122481855263492e-01
4.359829696598622323e-02 4.596568511497252374e-02 4.508656877930960483e-01
8.028840321218743206e-03 3.086777807725485379e-02 4.442896925456945034e-01
6.920983496199137330e-02 -6.485785421516707810e-03 4.956856947165474980e-01
6.059117942145778729e-02 7.803890882982542077e-03 4.577114845020749945e-01
5.828366016267626237e-02 5.902980248883179376e-02 4.572141288458756447e-01
6.145699784165904039e-02 3.208761469107915265e-02 4.566983863898966822e-01
-4.898669373302272367e-03 4.416168915231116765e-02 4.463227056230599787e-01
6.853439177919065650e-02 -2.073387983521786035e-03 4.705170609505303636e-01
-1.555279994024395818e-02 1.450028907768446257e-02 4.435098042451888212e-01
6.007807609198505261e-02 4.156188633237836196e-03 4.578741907556584945e-01
5.065821576496921247e-04 1.431803690645425120e-02 4.417680444948741680e-01
8.443685365624127581e-02 2.731252989732853992e-02 4.681270364371973303e-01
9.241888830956102030e-02 2.420445372846936893e-02 4.804830492640471684e-01
1.028189571165384272e-02 2.382645949086091564e-02 4.437986504472887228e-01
5.885856444992842301e-02 4.206272379924232835e-02 4.537346868999064808e-01
4.181113600272624159e-02 5.982160097245319691e-02 4.515556613278138287e-01
7.583580233343921451e-02 3.106088454018414349e-03 4.911099365496398028e-01
9.563951725321141739e-02 4.869080110106670245e-02 4.866743690463717908e-01
7.044651460192360992e-02 -5.087948306241752566e-03 4.908151717324347740e-01
6.992095685793082993e-02 4.012820572831216070e-02 4.583880269241978334e-01
4.135907437697647349e-02 5.759736450985187411e-02 4.508850018910424695e-01
2.412353545550416020e-02 2.633854639131859299e-02 4.461318794499564144e-01
2.645837682197530946e-02 4.820845777579851020e-03 4.435675217451385266e-01
5.304208734176394519e-02 1.900794491586977469e-02 4.540537251336956293e-01
9.186042123130805370e-02 5.195474813213190463e-02 4.669345554583083646e-01
5.429075141593920489e-02 1.093620975645034389e-02 4.545352680274074020e-01
-4.200691384170985448e-02 2.525552474840276826e-03 4.457270967877521306e-01
8.781968846716453614e-02 3.365599519978969278e-02 4.679087513143114774e-01
6.185447016153280964e-02 3.369307661730602810e-02 4.564487913130981234e-01
5.807569909072753805e-02 2.073888276401005676e-02 4.561417815327158398e-01
5.038306158368940912e-02 1.766044926213984276e-02 4.529624924848202894e-01
9.265429939001466886e-02 2.768369260412404179e-02 4.916459114744187175e-01
5.995612737498406952e-02 3.345248366321330880e-02 4.558629113057521276e-01
7.580186989145486914e-03 5.011588533524015399e-02 4.470424163632045755e-01
9.199085592592037841e-02 5.495849591100707837e-02 4.805220288228743697e-01
-3.939660875062716075e-03 2.506851126882731970e-02 4.435290707782502673e-01
7.382842409208456580e-02 1.095921710410982346e-03 4.938572058204718784e-01
6.980981400710484230e-02 2.101250190487518807e-03 5.049375179209301123e-01
5.700167311888469646e-02 3.473318637167000650e-02 4.547292925005874675e-01
2.262669557437297849e-02 9.234812920038417208e-03 4.439400404062097127e-01
8.141136551538612209e-02 2.038160121693954538e-02 4.684787581972269521e-01
3.520297178742330668e-02 1.729679332109462786e-02 4.478601794501958500e-01
4.838322079528228903e-02 5.562654358914843888e-02 4.512583729611789884e-01
4.408822345538267184e-02 -8.144417993850164642e-04 4.491448033376881921e-01
8.107670642672502870e-02 9.197587233421927744e-03 4.845479439760884688e-01
-1.013987760365510186e-02 3.651782016816810389e-02 4.462948064698282757e-01
8.673945847165082101e-02 4.952757284177772279e-02 4.988259722293297282e-01
8.984620253930614142e-02 2.278898318741669204e-02 4.908832748503287879e-01
6.398544780396438203e-02 5.338943575060787344e-02 4.537750224293720658e-01
8.019994440895629462e-02 4.385943180634933880e-02 4.613380679221066316e-01
6.360392596398878329e-02 5.212362210159658671e-02 4.534797340100901186e-01
9.213511976947164062e-02 4.997754163469552563e-02 4.662297213754244551e-01
8.376726290649137707e-02 2.305593190512430710e-02 4.693494924154638093e-01
3.349922060418156211e-02 -5.431556249708752518e-03 4.433259970350499346e-01
4.479405274114863639e-02 6.131376081550627549e-02 4.530441955816127408e-01
5.056869844368626354e-02 3.071511912362103955e-02 4.533773145655999870e-01
5.342708597205980681e-02 6.018149923717385635e-02 4.572540689522140434e-01
5.308329031840272605e-02 2.626485146553515435e-02 4.543119263786682960e-01
6.888072163784733637e-02 4.343935225121665217e-02 4.560780719547067319e-01
9.533447501809461100e-02 4.793060732582930805e-02 4.887385719170941334e-01
-4.129298661252185643e-02 1.772922168884710596e-04 4.411835250883140436e-01
4.317087703175864072e-02 4.232361297846842785e-02 4.509160844369809462e-01
3.971412414964209381e-02 5.772760828210293793e-02 4.507772255176927256e-01
1.011313098736731503e-01 4.208987236013350675e-02 4.696024570140057142e-01
3.712015678991742451e-02 2.826920186508134411e-02 4.493838675353208911e-01
3.984949382194619485e-03 2.120241760588459368e-02 4.429440329404749632e-01
8.057956136379168521e-02 1.589343026668070882e-02 4.706423941921076270e-01
-1.588816786908781378e-02 3.683365839034226374e-02 4.479240024697971889e-01
3.425479171569124209e-02 6.244271050674522761e-02 4.524565097961916749e-01
9.359630551061329240e-02 5.363961451937193647e-02 4.781420603671797109e-01
6.991942123843201962e-02 6.085397104635664918e-03 4.652550718768376226e-01
