8.795743313135552521e-02 2.208374718844481957e-02 4.730801383262755455e-01
4.180133381308639290e-02 2.790364556850601779e-02 4.503301223115218077e-01
-1.493093850423595804e-02 4.156545264780295984e-02 4.483614882843710570e-01
7.540814615855923053e-02 1.813713766746052544e-02 5.190529079846916138e-01
-3.409085520893964747e-03 4.839844576344083660e-02 4.465588645761554565e-01
6.521917871406421319e-02 -3.170244583978095061e-03 5.089729463911580876e-01
2.486569276204801671e-02 -1.959440959223128671e-03 4.413303233715037965e-01
8.965833415176244214e-02 3.035339219233858243e-02 4.682519697947719051e-01
9.636407904032726068e-02 2.563984971801335638e-02 4.789077092623159060e-01
1.853023933032455980e-02 3.052564882213275321e-02 4.453283409975681839e-01
7.603344050213275973e-02 3.803349513910574131e-02 4.616909879358572222e-01
8.474683660100477967e-02 1.909783630153134154e-02 5.017773129161912093e-01
-4.924120844483871433e-03 1.525613077153199076e-02 4.416544944621841329e-01
6.587928614827942564e-02 2.296597292022807199e-02 4.588010966992562834e-01
6.488397273978452340e-02 -1.079960122986820632e-03 4.638252881733566091e-01
2.381173608004603579e-03 3.008620569215971971e-02 4.439871218956867871e-01
-2.260533796609616106e-02 6.361147847566803355e-03 4.424502306203289548e-01
8.143588169908949626e-02 2.164258510192208079e-02 5.132648078979430428e-01
8.698167720343336073e-02 1.507339434661580588e-02 4.835610414079608010e-01
6.551600692358190703e-02 4.165767586462582051e-02 4.549971242103134639e-01
8.477499024303292163e-02 2.993127193652988724e-02 4.664329014831140596e-01
6.745915544217867543e-02 -2.874358253746739367e-03 5.039359811440653480e-01
9.971109206788500087e-03 3.568838678275067927e-02 4.448427748502665757e-01
5.748651214704835616e-02 2.873571248106413997e-02 4.553584794941306635e-01
4.718044437229809707e-02 1.790932427462382445e-02 4.514346518190848201e-01
7.218600859567235462e-02 6.938505276096228538e-03 5.094550119803229471e-01
3.901134456986480453e-02 4.340031603701395568e-04 4.466406325800772459e-01
7.230662907833643183e-02 5.157656193685702939e-02 4.551571466663038579e-01
5.776262668716184573e-02 7.575265778090506386e-03 4.557701868060983763e-01
7.224763561770279618e-02 -3.436699593198712464e-03 4.850346295371333327e-01
1.536550192220137619e-02 1.167472733605779724e-02 4.430433554487765990e-01
1.091329506749499911e-02 2.656110163387497350e-02 4.439370311234455690e-01
-2.568577464014833861e-02 -4.681245921447276664e-04 4.402158373378628475e-01
4.641061600625757955e-02 2.134404677624548649e-02 4.513251931775160708e-01
7.112412593882153078e-02 1.490904249972197816e-02 4.629802933438913470e-01
8.113421399279661939e-02 1.149168093387841795e-02 4.999404858460193002e-01
8.819483179200879319e-02 5.176823242051221963e-02 4.956126549986328844e-01
5.699966161807174664e-02 4.748398354681560712e-02 4.522494418941358507e-01
4.201600817457756126e-02 -6.342518283722863894e-03 4.478232855944990765e-01
9.075252400268175867e-02 4.218449576035995102e-02 4.967158404543246530e-01
2.728228976605936648e-02 4.284347227493700422e-02 4.478327939629641041e-01
6.498852941044130915e-02 1.421819904966184489e-02 5.276675781687907296e-01
9.265609610940654661e-02 5.473012896828432367e-02 4.697891585167223716e-01
1.906562444890554792e-02 4.375693461325505518e-02 4.466564830498251926e-01
-1.700671086093837395e-02 2.561931099703065179e-02 4.458193342962544770e-01
9.851103836555684390e-02 4.659992459400424253e-02 4.733694564191204823e-01
8.186568155825495186e-02 2.254490064839603097e-02 4.674026184287236596e-01
3.715340177263777577e-02 9.150922918826791264e-03 4.468279613931870897e-01
2.107555662496135226e-02 -1.494668460169349018e-03 4.407425784854766548e-01
3.700868623050593970e-02 2.141606162031570171e-02 4.484866092083950040e-01
5.499760739324399683e-02 4.856810726972077968e-02 4.518825232501202938e-01
7.405346307770928338e-02 1.097084051873316313e-04 4.797327863541648307e-01
2.684677370679039096e-02 2.258806224543862678e-02 4.462114080798990634e-01
1.616049388877381643e-02 3.360810699759349957e-02 4.453666317900652483e-01
7.324734883506892058e-02 4.092200006253778749e-02 4.586068108148583233e-01
8.386060776089623858e-02 4.249474182696699048e-02 4.628785913722395784e-01
7.733805172628360758e-02 3.970322181457096831e-03 4.844526487918218716e-01
6.138520040057607319e-02 -4.271201099077923460e-03 5.159696020060557942e-01
8.452443612953564056e-02 1.404053777247420837e-02 4.940413817647917871e-01
1.413202851839066854e-02 3.387201670967960460e-02 4.451226176757518416e-01
8.494507610254359298e-02 5.676808453715810610e-02 4.630914669852920218e-01
1.584011689263007186e-02 2.592669618296884748e-02 4.444749404294591200e-01
7.482236523692391283e-02 5.024229199109893351e-02 4.557069692327020971e-01
4.898165052513926698e-02 6.202010997687530669e-02 4.564822948437522454e-01
-3.850694229036692381e-03 4.463020142642692284e-02 4.460545060834756326e-01
-5.150171411545889644e-03 1.876036601278736893e-02 4.423116752809045926e-01
2.257187617998437489e-03 2.339640532709877721e-02 4.429403213884820500e-01
-1.468202402975073498e-02 2.783655526596862453e-02 4.454657584712324314e-01
4.874820885892877653e-02 4.574390403471916694e-02 4.512148210801230630e-01
2.676925912239588173e-02 1.465916272796559915e-02 4.453222634113475631e-01
1.009757337025607576e-01 3.224704839853119454e-02 4.842304131796786870e-01
-2.176032367548581467e-04 3.707510320406223053e-02 4.448708107189296435e-01
7.175540157464598001e-02 1.176468653800222947e-02 4.641702521816870042e-01
5.989052827769039689e-02 1.784412915811410538e-02 4.567500762014595761e-01
7.645281336293328900e-02 3.876950186759432239e-03 4.776131661473567713e-01
3.507525797103114296e-02 1.010694418075609204e-02 4.465601344369540260e-01
5.461302178075357755e-02 2.864062510562484336e-03 4.544471822990407417e-01
1.004142058081830130e-01 4.533900075088357490e-02 4.802146542822586239e-01
-1.944787455910591822e-02 1.388738580198141219e-02 4.447354146366108707e-01
5.771794123809568383e-02 3.368499305145410821e-02 4.545609630040028382e-01
3.516957483947012741e-02 2.335848115544682073e-03 4.453306765999847094e-01
3.952483434413890662e-02 3.547287811711691968e-02 4.498000079522440076e-01
5.200669724181596759e-02 5.928680229482925779e-02 4.528260437562927065e-01
7.490516984097878028e-02 9.952814139280360614e-03 4.676921803940051192e-01
7.667566266187056390e-02 3.506020002597118150e-03 4.917017661419992858e-01
5.743650739566703856e-02 2.268243245218973941e-02 4.553518168836895308e-01
4.872511133440666359e-02 1.509522372540373671e-02 4.518474950213310359e-01
9.683547661899535863e-02 4.852201332548653628e-02 4.731397422446772527e-01
2.209210421844781322e-02 3.563223122120900976e-02 4.464946314094106472e-01
8.662304966328990274e-02 3.233700698765759607e-02 5.057763935098322783e-01
5.306812556927199137e-02 6.084366152328639366e-02 4.574974054375946508e-01
-3.116217017610214621e-03 1.446916000128596440e-02 4.413711560639775877e-01
8.124542799871896370e-02 1.728429338183101738e-02 4.691900777140870504e-01
8.505082014938566970e-02 2.440113603273613707e-02 5.067050548966127721e-01
7.937765781199310200e-02 4.278506021448647001e-02 4.607847751868493491e-01
7.770804615696949580e-02 5.539296107967004237e-03 4.960454656791257189e-01
6.820775643085195961e-02 1.024876964580237471e-02 4.622358876588395504e-01
3.899147646244793125e-02 2.446745723136125455e-02 4.492835324889749016e-01
-1.804121686260106577e-02 3.367344844869877424e-02 4.480774520565017349e-01
6.438194529558087520e-02 -4.789089694043876036e-04 4.628226882812517817e-01
7.758652996943271596e-02 7.441200722124475045e-03 5.013303567102035396e-01
7.121271916476255848e-02 1.239830551843562959e-02 5.187517633319186361e-01
9.216773507427147849e-02 2.295563975189409203e-02 4.773793570936266106e-01
7.556969414548769803e-02 1.298422228151224420e-02 4.661603286247364974e-01
-1.827694800156454049e-03 7.550512119442184117e-03 4.406692004130840501e-01
-3.690931125619192725e-03 3.380479724555794652e-02 4.448647866156573705e-01
7.574788051344906459e-02 1.297518559568181309e-02 5.129460623688039123e-01
1.017975446124059075e-01 3.043185864580338212e-02 4.829587933691483204e-01
-2.187825569333942677e-02 2.347623821641007386e-02 4.476506264407937863e-01
-1.894728330698194213e-02 4.009583537354937180e-03 4.406463010511979528e-01
9.724168912436466361e-02 2.626313143789752239e-02 4.795530878593796120e-01
2.191144438401472147e-02 3.735899471024484164e-03 4.422748626524820592e-01
8.355521450544750595e-02 1.907903130571208389e-02 4.703731003405725586e-01
-8.791833958342633315e-04 4.349692856740497438e-02 4.455720926003659543e-01
4.814068705568169682e-02 6.017674742109358106e-03 4.509330561022266703e-01
9.327766313757049343e-02 4.563036458653144806e-02 4.933700253094328025e-01
3.870518735225010609e-02 6.482871997811691378e-02 4.560347711665976300e-01
7.222600960391006852e-02 9.583023621037101494e-03 4.650816573065797432e-01
2.531633808380310408e-02 5.921582159053821737e-02 4.506946235464227568e-01
-2.021422092501170414e-02 1.417442781007286802e-02 4.451654088193568448e-01
8.174117501796113183e-02 5.328400482353078810e-02 4.588637137515887421e-01
2.247839469699762505e-02 -5.159976550419315307e-04 4.412087120509614047e-01
7.927591024345100046e-02 4.011079689227772110e-02 4.625586152084616987e-01
1.090293802067045931e-01 3.635688416514592375e-02 4.774836536677836141e-01
-9.811731228297709481e-03 4.436522386024421664e-03 4.400263954366855357e-01
7.111439170439617929e-02 3.083106861851026351e-02 4.597119924008124525e-01
7.297548380389706768e-02 3.451924814989863061e-02 5.199423819909045896e-01
1.979349780452737892e-02 2.129146346089301825e-02 4.447934444003585064e-01
6.894045589698404031e-02 -8.801749938692859758e-04 5.030808109861348854e-01
1.059395734790672394e-01 4.103707351636932260e-02 4.780114799290183791e-01
2.009750000977245099e-02 2.801005710622275074e-02 4.452708437751243808e-01
8.884122317110287881e-02 2.836534388243743335e-02 5.000546681851070208e-01
7.208408933934068452e-02 -3.460839984431602484e-03 4.834382076505201464e-01
4.534884292830198768e-05 4.912931393263787055e-02 4.464153591734676962e-01
7.740657965060411538e-02 5.838078365460729058e-02 4.622263146844755588e-01
4.542457387995497281e-02 9.014822054151423389e-03 4.498453416190503207e-01
4.004364737488056575e-02 1.957311640293887128e-02 4.492574079658467334e-01
8.138904862436339982e-02 5.799825868288466246e-02 4.829876224462802958e-01
1.957808667420507867e-03 2.407988893200672595e-02 4.430627336669025751e-01
8.871578432690682692e-02 4.968110268773243826e-02 4.968371803562252054e-01
7.696053341151185001e-02 7.946770624254707524e-03 4.719774892510539277e-01
8.521523703539830852e-02 1.486893305193154324e-02 4.925366344713390521e-01
2.093227789167099659e-02 -3.922689059387739555e-03 4.401788635801899274e-01
4.073723541330139669e-02 3.097332051615175191e-02 4.501254266447800578e-01
7.025755716533892137e-02 -3.366631990472241254e-03 4.961313880088957795e-01
6.041425535988922263e-02 -2.941924996973128460e-03 4.594962336650874613e-01
-2.424164943412270099e-03 3.391169773092736484e-02 4.447667352004640584e-01
4.250893216021743581e-02 6.011940164087358623e-02 4.512245811337551871e-01
-1.527291018054138805e-02 2.113963534282780471e-02 4.446086790122769083e-01
8.485940770743373440e-02 1.257666573461260241e-02 4.804965089864137728e-01
9.755170481813697780e-02 4.453218820556241464e-02 4.677546480432123732e-01
5.657409506142055400e-02 5.644466616660646224e-02 4.523970673086346594e-01
1.253966809224080908e-02 5.820009267482863929e-02 4.538310513823898829e-01
1.028728168363691048e-01 4.270484080621107098e-02 4.745010818127955443e-01
9.145104064122115683e-02 5.659692326498137749e-02 4.765972604148139835e-01
3.442703719323514377e-02 5.471838400718317258e-02 4.491770813777530846e-01
4.134861695911844215e-02 2.626191950059835432e-03 4.476993331381239338e-01
-1.592942136509018294e-02 3.173294421340060179e-03 4.402202351526835478e-01
2.808257106231555611e-02 5.451608917140915445e-02 4.490258822366121061e-01
1.037407845975821113e-01 4.187916919529182519e-02 4.741872209541966865e-01
1.388817568348989576e-02 3.872759269425737894e-02 4.455373347553604479e-01
1.175553166721059022e-02 5.758321958291204301e-02 4.532370609300492847e-01
8.747470569361527615e-02 5.762026233058122060e-02 4.808554462793686035e-01
3.921178527009476500e-02 3.224461075367156260e-02 4.496774875355430412e-01
3.373173894681544965e-02 1.094052134146547735e-02 4.464245432593633156e-01
8.866283243306294359e-02 3.905928623554354162e-02 4.664540694934030118e-01
9.398707042319208449e-02 4.029864014478221068e-02 4.670446550992283785e-01
2.043817694946705593e-02 1.272911447269159738e-02 4.438957420762094652e-01
8.531843774247775680e-02 4.742121110223466302e-02 4.599822951177585661e-01
1.026323507832660742e-01 3.348551246350696398e-02 4.835390311352575354e-01
8.414766653752155101e-02 1.961472333742429741e-02 5.047584500329240775e-01
6.125077517729508175e-03 1.722377540219922898e-02 4.425025166776510588e-01
3.936189842631519775e-03 1.846210184212075320e-02 4.424691208531764675e-01
8.655462414105613567e-02 4.188568163837334823e-02 4.643359826712293303e-01
-1.497147580461819644e-02 4.354128448088587233e-02 4.487612131477496380e-01
8.676886445033775430e-02 2.553203764976146040e-02 4.694086645923771228e-01
6.828577893251623621e-02 3.960762667765963668e-02 4.565425148361471064e-01
7.845398969545958057e-02 3.008173614124994011e-02 5.191503337920120309e-01
6.897470355641514839e-02 1.275939167163651911e-02 4.621504715438800037e-01
6.447135475945302285e-02 5.789331022481781358e-02 4.560447626619294481e-01
6.060360537572778011e-02 3.031034802420688387e-02 4.562108964096552310e-01
5.190085449982596855e-02 6.090998025966673501e-02 4.563775387105265535e-01
2.840752151476483300e-02 6.137269879111439258e-02 4.526164605418454001e-01
1.249033839739874252e-02 4.384220637891386024e-02 4.459724949409850647e-01
9.450783501485686411e-02 5.127653136740007583e-02 4.854039585000251567e-01
7.977620859462476732e-02 2.413922654753989858e-02 5.165959269034782197e-01
-3.820482168085410912e-02 -1.277055998107953089e-04 4.406607624917579513e-01
8.198485201300452496e-02 1.077671836959858027e-02 4.945951765665365651e-01
3.609249474989741080e-02 -4.565312796944776853e-03 4.445017467951361545e-01
7.704583958824332002e-02 4.115543144515362503e-03 4.795374672152156181e-01
1.026159038097333165e-01 4.248854627581600402e-02 4.840647050931300432e-01
7.806818556080634408e-02 6.595234962268320747e-03 4.980373454319613757e-01
3.590908756618643467e-03 3.769733965978167706e-02 4.448177847070165503e-01
4.377073507689496767e-02 2.768423047677218488e-02 4.508920204030023582e-01
8.883877127619864422e-02 4.383412496005009013e-02 4.993061235510667384e-01
4.155984456385099224e-02 2.751252927949840096e-02 4.502334226493963643e-01
4.596666823689132125e-02 5.769524050802438825e-02 4.507132167991094174e-01
7.581927391877413269e-02 5.793592955769765601e-02 4.587740912747844679e-01
2.179610955813917131e-02 4.876393449855741247e-02 4.472097603402901966e-01
2.236030411200641554e-02 2.682663047251698449e-02 4.455340741468442611e-01
5.539731993887158507e-02 4.070146055142554765e-03 4.547019395886770510e-01
1.012189859461385885e-02 2.686567993006052854e-02 4.438946269303759018e-01
6.963113390485382859e-02 -8.683171811544442703e-03 4.844716506063619366e-01
6.308472439532027132e-02 2.416545477787698272e-03 5.189879545202754629e-01
8.912159098121008594e-02 2.593986999329553345e-02 4.971782848211846462e-01
9.963160787013583541e-02 4.294148462004862554e-02 4.870390944692644664e-01
8.345457485397773933e-02 1.942243161263423890e-02 4.700182609292902769e-01
5.197800722337388157e-02 6.133287243825426976e-02 4.577995499950912595e-01
8.976367706615637210e-02 3.336109175903601703e-02 5.007978426501370484e-01
9.116237112088676486e-02 3.036023128490296374e-02 4.970063126373652773e-01
8.399007536504048133e-02 1.860868178483336688e-02 5.037402318260087997e-01
-2.921700305881873294e-02 2.139047908760183248e-03 4.420518850025698110e-01
9.134632856519542266e-02 5.606878744897917516e-02 4.691478752311935008e-01
7.172235290813573638e-02 4.379867668960703286e-02 4.562670012347192494e-01
6.710410867870111873e-02 4.238497790575009028e-03 5.141233797728190780e-01
8.455011359484930489e-02 5.239096433772485323e-02 4.964903540118893455e-01
5.162864137825377148e-02 -7.521441583036324319e-03 5.271844355909071078e-01
-1.471886689773169860e-02 4.304715339590080292e-02 4.485541346434361309e-01
-2.797277956314563746e-02 5.149594076094834820e-03 4.431605588878089197e-01
9.012704124834841624e-02 3.793863260710329116e-02 4.675763233254833784e-01
2.158440922077654173e-02 1.408655978633081320e-02 4.442511211405631433e-01
8.729154753621841401e-02 1.708646592683623483e-02 4.766169518532732408e-01
5.633586125222943969e-02 5.903282292889890093e-02 4.553908304268715623e-01
1.005583390474079769e-01 2.893169094725782722e-02 4.762719534635740382e-01
8.167320365097824331e-02 2.781071760342789315e-02 4.654772660343515223e-01
6.214810526203699836e-02 9.366555515961095396e-03 5.267584338224590157e-01
3.823448609482762994e-02 1.170423332531496732e-02 4.476056231634675808e-01
3.982283103534463298e-02 3.789258656856597102e-02 4.499191579390631746e-01
6.306028335297372833e-02 1.049395548442173462e-02 4.589010720722165315e-01
4.343325903059047990e-03 2.559300351686202152e-02 4.432714681603197593e-01
6.000701707787429312e-02 3.757125392458373486e-02 4.544036036537790202e-01
9.765716702557207529e-03 2.630595541363588488e-02 4.438011742364219026e-01
-6.922677114792274988e-03 4.439221380658713023e-02 4.465847227289602150e-01
9.525403144630367747e-02 3.083017341971579922e-02 4.709792360988683257e-01
5.055261361012704929e-02 4.374691767240477397e-02 4.516051187652994625e-01
6.956045061726222334e-02 2.061607950774460574e-02 5.270519833973319468e-01
4.504700514957018370e-02 -6.147688120869040582e-03 4.495348346719640342e-01
2.402173669622744562e-02 3.533172048119084807e-02 4.468404471930548794e-01
8.425989823770452247e-02 2.205256230911342014e-02 4.692203705768359101e-01
1.289829318901291981e-02 4.358110261581615852e-02 4.459775252586200556e-01
5.494083847944526700e-02 4.347823349478222021e-02 4.522701300440203354e-01
3.128895374564488827e-03 2.637538991061615448e-02 4.434294001590292078e-01
7.511369022192078415e-02 4.767546970821667784e-02 4.559195409545941380e-01
1.970516039646835749e-02 1.680191917419892808e-02 4.443078165614054997e-01
6.482969011046690877e-02 2.003219491761132343e-02 4.586161536709416620e-01
8.236942651911369206e-02 1.406486448841147256e-02 5.018377955940449553e-01
2.975290652219607368e-02 1.933980300822908671e-02 4.464963451433586750e-01
-2.470805254419769156e-02 4.229922807620255069e-03 4.419668645495604120e-01
5.109448467120553811e-02 7.770756596915292559e-03 4.524304032032766543e-01
5.753609066683389867e-02 2.335502262217038598e-03 4.561819733994922355e-01
7.922773946754159413e-02 5.505060981419883370e-02 4.580704399251799286e-01
8.571420309090387046e-02 2.555629793476705408e-02 5.057854633645691989e-01
-2.987572940500350660e-02 7.343273101347514570e-03 4.475948721410804021e-01
9.452311704200638820e-02 2.446953657464208745e-02 4.832412315598972330e-01
-1.974423361708055324e-04 1.186595787027299939e-02 4.413153750306365031e-01
1.061496536765261511e-01 3.758528630179194807e-02 4.815889640580585107e-01
6.844668114711367768e-02 -4.882610509437352447e-03 4.723898228702221869e-01
9.569448665151426836e-02 2.502363440474817541e-02 4.776752203063114322e-01
8.677314040270772688e-02 2.872614755737521938e-02 5.050462183378562342e-01
5.078858038631074018e-02 5.423585778790050715e-02 4.510000493624412021e-01
9.097917493915863574e-02 4.944676291222094983e-02 4.940502986585164069e-01
8.322305116243826351e-02 5.765323876479209325e-02 4.633345797409054168e-01
7.560317859451927414e-02 4.013957074146366072e-02 4.605191509296300834e-01
9.498442387306055279e-02 4.889025805408897529e-02 4.890116142503285190e-01
7.513012349612620266e-02 2.532007120606522346e-02 4.627745039110722214e-01
3.302164567445257243e-02 4.699220050485537065e-02 4.486163040993053075e-01
-1.028725316831762514e-02 1.486723355039701322e-02 4.420541981079283977e-01
8.082732834907507824e-02 3.769135916462142827e-02 5.117242722515580322e-01
9.639419211508247487e-02 5.027618509318626527e-02 4.754233174072493573e-01
-4.502692694794425098e-03 9.199373812660604013e-03 4.406935006736734661e-01
-1.760628601632012458e-02 2.092792757074186938e-02 4.456450488150227596e-01
-2.251463563517515625e-03 2.070877644457472591e-02 4.426233092027219151e-01
8.472634211622862010e-02 5.126338204078730726e-02 4.978452616455935620e-01
2.815139424028256440e-02 4.024101623914935061e-02 4.480218149671679195e-01
6.841259562746936085e-02 3.247242787798538394e-02 4.583839571785549016e-01
1.371208932207393372e-03 4.813297728283737892e-02 4.460004186548521821e-01
7.467177161178240041e-02 8.991873573806876199e-04 4.806921042428773383e-01
6.519358644403554226e-02 6.890139410546241086e-03 5.210033508870048902e-01
7.548531451951709381e-02 1.837628639124042410e-02 5.191254858053817589e-01
7.097571695832496919e-02 1.828654271812141588e-02 5.243367185632210603e-01
4.535100647507230021e-02 -3.563184055396514255e-03 4.495810334496190830e-01
5.820916856846172771e-02 3.665047873377598464e-02 4.541234483650821718e-01
7.064249572811270861e-02 -5.556293911715129950e-03 4.804213077514650210e-01
6.851652799931758075e-02 9.257785496455669255e-03 4.627481913755577825e-01
8.715777557476374338e-02 4.231121795220037229e-02 4.643252978452307445e-01
4.371106701837901287e-02 2.991137809384068411e-02 4.509422561891329728e-01
5.066205052684684407e-02 4.567549012134891617e-02 4.514884646547899227e-01
7.162430941561605258e-02 1.624999821951635809e-02 5.218376338111904156e-01
4.650848492154097125e-02 2.709043277598429875e-02 4.517164373358775742e-01
7.111043535592122267e-02 1.955651223960765822e-02 4.620986591275187960e-01
5.279904195136786438e-02 -1.407242950593214081e-02 5.280670895856061087e-01
7.351964003802721748e-02 6.327494305104126339e-03 5.060849133624131246e-01
9.491067025878852093e-02 3.203121196305288437e-02 4.919123457346026296e-01
6.123065852142420967e-02 2.425365714736360014e-03 4.585763259016742421e-01
1.903940229548227794e-02 5.867448080404721877e-02 4.508406859452662729e-01
8.512521617733661422e-03 4.191193447175184383e-02 4.454565874761093891e-01
7.596714934778475703e-02 1.160310647573268433e-02 5.108671208271200470e-01
8.634582237818781703e-02 1.874821112238189008e-02 4.736161988876685935e-01
-1.851055148203881867e-02 1.258123590378492848e-02 4.439184088633753023e-01
1.007353471096925496e-01 3.146006183965961711e-02 4.840986210089203712e-01
-1.470939427251343953e-02 2.580090116886278248e-02 4.451560572324090304e-01
7.458029106931707286e-02 1.872422092912847443e-03 4.772023018339081601e-01
4.300092818922458815e-02 3.350484351661303650e-02 4.506116206372327571e-01
5.421019044823498223e-02 9.821005200279510697e-03 4.540819615712604063e-01
8.215217700987163807e-02 5.157366092420968134e-02 4.983490308971346150e-01
5.931677503415529185e-02 5.813962056354192443e-02 4.544561771644430870e-01
1.066573094904899877e-01 3.888172537302192477e-02 4.806363667858480349e-01
7.214192262066387862e-02 -3.459211865330877062e-03 4.840534409433738805e-01
2.681281258189463501e-02 3.260680351723729831e-02 4.471077805190073473e-01
7.159811878768022886e-02 5.164209771492719869e-03 5.072766062556506306e-01
2.686619491028111387e-02 7.872736298937581256e-03 4.442635358663704070e-01
8.014029569256703178e-02 5.492316234802327446e-02 4.934825668397950782e-01
6.534159665003237694e-02 2.864463785586037273e-02 4.579267454438992191e-01
8.033157567406178090e-02 7.635932386475593504e-03 4.827211897189254697e-01
9.211353838157844420e-02 4.652580947507142795e-02 4.641727905485377170e-01
9.181341229343872000e-04 -1.946219963963523487e-03 4.385510779691129124e-01
3.933888513263877201e-02 -5.934743995898053397e-03 4.462562534288619376e-01
1.021959649597950076e-01 4.417146582610928518e-02 4.789579624194773011e-01
8.469069439917327469e-02 1.834546770277281635e-02 5.007720001770470386e-01
6.486219469301586493e-02 2.143430858838684186e-03 4.615272824215584380e-01
2.566032597816270654e-03 4.284374731297005412e-02 4.453945436796162838e-01
7.676252976525302363e-02 3.214379548121462649e-02 4.624228864337840972e-01
9.979910333013494728e-02 3.575920969347672063e-02 4.871330342018229675e-01
8.641229938511317543e-02 4.093841683764526396e-02 5.035288822068383352e-01
2.977831192270370339e-02 4.881223120929326781e-02 4.481171842585044418e-01
8.993975958853815678e-02 4.382376222760024642e-02 4.639956591011483167e-01
1.027850865572766358e-02 3.547218673316020112e-03 4.406611435550839562e-01
2.062081795570666620e-02 4.426683855162329151e-02 4.468747346979329294e-01
3.403726398997818786e-02 4.041462038303170190e-02 4.489677315985515227e-01
3.936185268776242613e-02 1.526864090798366741e-02 4.485545129509967976e-01
-1.095560780809210020e-03 4.891808582374900655e-02 4.463660298379774627e-01
8.154571764866357098e-02 2.998491149854355664e-02 5.145793930161890462e-01
4.881032889723992130e-02 2.302423888302838548e-02 4.522354621423695376e-01
7.881811466739319094e-02 1.698362160843152821e-02 5.131516939304284763e-01
-3.112459449596085767e-02 6.068234556332230759e-03 4.460344390573929840e-01
1.040176783725115517e-01 4.198530197496636029e-02 4.754496271061379731e-01
8.227236962864017955e-02 1.135548196022016613e-02 4.757793994682875671e-01
7.709323281876104272e-02 2.320710222601650094e-02 5.202833066012046981e-01
7.813057658409265638e-02 1.420509401304745345e-02 5.111773057103380369e-01
1.953986988514121170e-02 5.172327005435712471e-02 4.477046683178917963e-01
5.018545233142648193e-02 6.005641883721567903e-02 4.528341670458743695e-01
9.639756449133390914e-02 4.909775616686504890e-02 4.724811151615397331e-01
8.583657716353500222e-02 1.492097973055621710e-02 4.906256810438648364e-01
3.486419139906253399e-03 -1.212043755414093579e-04 4.391953678889972679e-01
-1.416653369545311375e-02 7.576415529894997211e-03 4.410312341361437571e-01
6.682824542902605913e-02 1.239362127588734645e-02 4.609265107120931182e-01
2.308188329957744367e-02 4.905599673294102486e-02 4.473832052394353109e-01
8.537343465242959450e-02 2.364664403175389257e-02 4.693929604646991383e-01
8.038840849356408691e-02 2.268899467784465593e-02 5.154975395223349022e-01
7.443973569304344895e-02 -2.706986380936870357e-04 4.855695431577616294e-01
9.119885306474868891e-02 3.640177760081352715e-02 4.680466606708651445e-01
3.268620997451082699e-02 4.707825191927665631e-02 4.485660890303570514e-01
7.577877674603068769e-02 6.727498896234907627e-03 5.035397531205602073e-01
8.632404039285966613e-02 5.999106371603083604e-02 4.661179075642094549e-01
8.351682593896539442e-02 1.122029213723989977e-02 4.890838178964737604e-01
7.633290948404379550e-02 3.166815389880037451e-03 4.919187976291572451e-01
4.413297517499312900e-02 5.844088004956143195e-02 4.506849539068025767e-01
-1.954571861188591705e-02 9.812211248350577453e-03 4.432224060261630294e-01
5.657673935389695430e-02 2.571957055734075057e-02 4.550737753921490492e-01
7.504714307114325467e-02 8.365886346527127634e-03 5.074861337994991395e-01
-2.376265400174310677e-02 1.337460551014553814e-02 4.460683537023336087e-01
1.992693224164877527e-02 5.234497997132887132e-02 4.478825913880479792e-01
3.474048842176963303e-02 4.163709259069548613e-02 4.490431428463573793e-01
1.768244778188917538e-02 5.374037840233335250e-02 4.484037547042804550e-01
8.986934018024053672e-02 4.042910620369733615e-02 4.660442582744559470e-01
2.455283704184248184e-02 2.760499871421416389e-03 4.424852608799163534e-01
8.901390956947873023e-02 5.503471169915318678e-02 4.846971181106121684e-01
6.240191345235705789e-02 7.308009484788722046e-03 4.586023181313009789e-01
9.357223294516765766e-02 3.933122305866792318e-02 4.943616173499904010e-01
8.154107601036106323e-02 2.811741596134426438e-02 5.143407582919101717e-01
1.460134453411068151e-02 1.791205958775780697e-03 4.404766326482050798e-01
3.566336162913992525e-02 2.553997632657889483e-02 4.484597016897509114e-01
1.023805911272384628e-01 3.782129028255649256e-02 4.704884728547299444e-01
2.141389819377618672e-02 2.426314822781083010e-03 4.418138395308338628e-01
7.873956650177948990e-02 6.345334760376794732e-03 4.785196836709735835e-01
9.387740101356897848e-02 5.278702589644597432e-02 4.698265071690874706e-01
-1.887063057926042890e-03 1.895168139421758886e-03 4.394232040135339079e-01
7.733900299028735603e-02 6.772281096899495159e-03 5.003023249248723658e-01
5.451022405401106941e-02 5.372704399223057758e-02 4.514692954410808312e-01
9.999750401692478197e-02 2.945818422547247933e-02 4.748883446149848031e-01
4.410156645320373325e-02 6.332580389037970048e-02 4.557272689622360873e-01
7.955275013716853194e-02 7.846403829905392729e-03 4.973983563088391069e-01
9.951277235730551785e-02 3.419300125370855481e-02 4.865564888260655585e-01
3.777643132223539035e-02 1.742971730429907981e-02 4.483431949334422129e-01
9.131655495906060294e-02 4.285292370319122857e-02 4.959502748051844989e-01
7.105081241789112934e-02 3.633520930994414699e-03 4.679967477279710630e-01
7.259220593874735061e-02 7.092407566903000463e-03 4.671262980754407046e-01
7.115867741383651024e-02 1.207468051356745328e-02 5.184581879081431310e-01
6.776243442532536854e-02 -1.428037941227026930e-03 4.679894223733630509e-01
4.008411242150203280e-02 4.333892268824036942e-02 4.498875147087465498e-01
7.673345563332402419e-02 3.944965190679612654e-02 5.117181691507816099e-01
4.855269254816190622e-02 1.394087400971682350e-02 4.517169928980233617e-01
7.200133271498011800e-02 -3.977896938385127278e-03 4.881151459245309798e-01
6.725939624178375875e-02 -7.855855277749171015e-03 5.014624883534501976e-01
8.480779256991548276e-02 5.005949897609224264e-02 4.596481187964361337e-01
6.625379001241603338e-02 4.363297681385013005e-02 4.547918899138826965e-01
7.777275054102343599e-02 4.572639735651163988e-03 4.841148083473968966e-01
4.693220934645336156e-02 5.020182090306577610e-02 4.507056175748950788e-01
4.297979298602050413e-02 1.806234548688680913e-02 4.499284619254170781e-01
3.984986337637902443e-02 3.443333871355470921e-02 4.498634798110160982e-01
5.892354467177288863e-02 -5.034002240539675946e-03 4.587222532467022940e-01
-1.961157800128996744e-03 5.300574611727303792e-02 4.488178097127417110e-01
7.896779302516508670e-02 2.623234168565794638e-02 5.180608190777736821e-01
8.932514593947749049e-02 4.531229441163807381e-02 4.979899016041575699e-01
1.076384943344572825e-01 3.479695872017600500e-02 4.780896997338417442e-01
7.349751408843992195e-02 7.638049190293000161e-03 4.678989665073798876e-01
4.487947164766437763e-02 -3.112073118000275272e-03 4.493168781840777282e-01
4.391746221610304951e-02 5.806914651663868526e-02 4.506167140354710998e-01
8.780380843021812209e-02 2.459966081638269991e-02 4.985995090860943502e-01
-1.222854948165655146e-03 9.526569919669626400e-04 4.392078722343749630e-01
1.629186621201780816e-02 2.194337604163431807e-02 4.443118862093328181e-01
6.590357786970080234e-02 8.287407766187845914e-03 4.610278247494132842e-01
9.320593215170880743e-04 1.039581605264937314e-02 4.411474710276310218e-01
7.486751288728932252e-02 4.599663183968904709e-03 4.724867990184044020e-01
3.939617724351002909e-02 3.415737981866960593e-02 4.497498178234613508e-01
-2.130982293076536666e-02 2.421602640361193715e-02 4.474928015256884328e-01
-1.134734234875937799e-03 5.108241370768158707e-02 4.474053879659603550e-01
5.999157392261300625e-02 5.856036327305866318e-02 4.559598457035999308e-01
7.330338030659905649e-04 9.018932557424960694e-03 4.409131553785851088e-01
9.099248858886146984e-02 2.543663615874086972e-02 4.933805785298945312e-01
8.130250553637302646e-02 3.860986474631729337e-02 5.101712088185773597e-01
7.315055933812536493e-02 5.977525264037304720e-02 4.642789508418120881e-01
-9.819387848799421975e-03 1.607059322906083734e-02 4.422285950668651822e-01
7.145992006273223229e-02 2.363304218432964870e-02 5.265022636700013026e-01
9.705969061826416611e-02 2.950927482690902243e-02 4.726585494390342368e-01
6.359101895785151948e-02 -9.559301698235520700e-03 4.687356038374280165e-01
4.388328055796383159e-02 1.327260422226640355e-02 4.497922463790501868e-01
7.761440604870119275e-02 6.566365986348742488e-03 4.745116220289272713e-01
-1.124355639797005625e-02 3.585890480368236766e-02 4.463305101558207033e-01
2.876322349811139337e-02 8.531930658697417860e-03 4.448296471137057062e-01
8.996692574751288807e-02 2.208670955176297510e-02 4.914295019780561824e-01
4.826327330654605480e-02 3.581907060554480327e-02 4.517651141903602507e-01
9.773526135599888698e-02 4.720740983762331672e-02 4.857513053927142721e-01
3.616536103300285049e-02 -1.446205089447575101e-03 4.451226804040712137e-01
9.626308896819955885e-02 4.913762660969991924e-02 4.850642630558331669e-01
8.429674891338650999e-02 4.990517692240453024e-02 4.593987048567252374e-01
-1.160708855789351936e-02 3.337439869887279253e-02 4.458826654155501612e-01
-2.393659734816811283e-02 6.926442748142220586e-03 4.430466679730282742e-01
6.913957387473031180e-02 1.337954001076397531e-02 4.621465331621106287e-01
6.888486594872179902e-02 4.473649812320159430e-02 4.551096252138330245e-01
6.245407223969484146e-03 3.402431449783701461e-02 4.444396232264798408e-01
5.902363779449318337e-02 -4.609028602327550073e-03 5.198551405970497363e-01
9.843960554403104191e-02 3.034303211934797490e-02 4.855372765573779947e-01
-1.019132804553410723e-02 1.834391120431836265e-03 4.392384486498666640e-01
6.832512126358167293e-02 5.567888161618136933e-02 4.548253531532663319e-01
7.189280293786518006e-02 2.630247757550339786e-03 5.020613169875074444e-01
1.814621838369720117e-02 2.607408868162893606e-02 4.448402418940773373e-01
8.195550091869624465e-02 1.029171720953233130e-02 4.928915201478106245e-01
9.201901074873651554e-02 2.271035870146271077e-02 4.865671331798535615e-01
-5.172893323136000185e-03 4.654431009622306270e-02 4.465531059898358857e-01
3.237111850751746289e-02 2.959279636620330139e-02 4.479304349554366071e-01
-1.728358720703835824e-02 3.288252583556462716e-02 4.475352252873484593e-01
8.391362937686688839e-02 3.854420965650455499e-02 5.075051479181393876e-01
3.847802453891555063e-02 1.226036037496775963e-02 4.477729676029160721e-01
8.331380351099451631e-02 1.108104637359976288e-02 4.776428076294907954e-01
6.793838840584336125e-02 1.434260091751263927e-02 5.243757270945642590e-01
-5.226228009586260902e-03 2.972409286562891634e-02 4.444783049775689610e-01
9.440405778057814334e-02 2.464082477339939875e-02 4.820275099361885918e-01
7.422124259763719645e-02 5.048803209343243059e-02 4.555028409778035803e-01
7.762224323186242558e-02 1.077804071740910002e-02 5.072887701026937979e-01
-2.725956893601280684e-02 4.772753657111064585e-04 4.408201736084869649e-01
4.462920857112073758e-02 5.826560126154792241e-02 4.506963482335167304e-01
8.440656538763124939e-02 4.579178147312544522e-02 5.030460271648130588e-01
8.300488219880952645e-02 2.789148411094406754e-02 5.120165525402440299e-01
7.023378675270947058e-02 3.488566231266044398e-02 4.587915206469800333e-01
-6.630147366596157374e-03 1.845239167329609797e-02 4.423757383807503385e-01
-6.712721575927931700e-03 5.133728563375828530e-02 4.488465477312081897e-01
9.128569168182150070e-03 4.490602181786042604e-03 4.408291390510200580e-01
7.554018202820454719e-02 6.314047464956986690e-03 5.030661892450135619e-01
2.822158200415049965e-03 3.580765684535763133e-02 4.446426400047426841e-01
5.051834886939853692e-02 1.398546647867693164e-02 4.525412733894402240e-01
1.639053846983790086e-02 1.332777913248397745e-03 4.406545676985405557e-01
8.500708355057783050e-02 1.278626170725696842e-02 4.781101174012125643e-01
2.714095245624393096e-02 6.051075381018865967e-02 4.518550334537910773e-01
6.373871880128725853e-02 -1.024779700973854277e-02 4.696856763350011899e-01
-2.680931280379401579e-02 8.106457383667366179e-03 4.444429405880545580e-01
8.041125071015405024e-02 3.150320524780562265e-02 5.160586971422567171e-01
1.070202326233262030e-01 3.968305985978649864e-02 4.763872842860467638e-01
7.570262130488257524e-02 2.062845122752611851e-02 5.203164948733086659e-01
7.810723662030945313e-02 3.991331991891809705e-02 4.620730573386458429e-01
7.772113226972658662e-02 2.634331448690198363e-02 5.199501431529863771e-01
7.650087587829144942e-02 7.123991236108421533e-03 4.721867063893799288e-01
6.587864163702565612e-02 3.514827155717208974e-03 5.153625769960202829e-01
4.863100125176342270e-02 5.658890275473353604e-02 4.508415769197309797e-01
1.034591798780575972e-01 3.668976123773937115e-02 4.841824386985311701e-01
9.897633857189976070e-02 3.916118191514768310e-02 4.682057095467117014e-01
8.296136548610032191e-02 1.460299714739628218e-02 5.009949369923794027e-01
5.709333597269394128e-02 -1.016374624060168742e-02 5.228696745870610174e-01
7.497216635566386622e-02 1.553527114476274326e-02 4.651398545621177050e-01
4.700748778297122316e-02 3.656336391162452737e-02 4.514540733209227996e-01
9.627073099972620340e-02 3.397579885337542738e-02 4.687110484755591666e-01
6.315230776088370801e-02 4.547862148354915590e-02 4.536624900937656912e-01
3.060671265728834994e-02 4.610519226561274504e-03 4.443111828642994365e-01
2.938910676590730103e-02 3.412008992540663255e-02 4.477630860584976280e-01
4.368771555852282718e-02 4.692589695401529204e-02 4.503344539017579695e-01
7.368917669281685456e-02 2.258964128511222261e-02 5.236266860278800950e-01
9.155248371158737630e-02 5.143007225992356213e-02 4.912048689968752657e-01
8.279486946234943662e-03 -1.106863881094749709e-03 4.392484482154512260e-01
6.597150691343073303e-02 4.639003407500483234e-02 4.541402000383092941e-01
8.496217987680819428e-02 1.289161307528063037e-02 4.869453717165505013e-01
