-5.768697372766677656e-02 -1.091250194196310558e-01 5.334104236594905402e-01
-5.255024432288296632e-02 -1.201469394348483738e-01 5.033218879014482727e-01
-3.984586455286252132e-02 -1.196523066374534233e-01 5.364354057926694619e-01
-5.380263378349250947e-02 -9.551373511881275369e-02 4.543111950565648094e-01
-2.972066340342117280e-02 -1.234240452972708846e-01 5.173830927169724703e-01
-1.702084032264722727e-02 -1.261702729066171424e-01 5.116675468406651772e-01
-6.119390043324300643e-02 -9.241631605009144323e-02 4.504366834217684579e-01
-8.688575955798669148e-02 -1.166836419512977258e-01 5.155662991901748260e-01
-5.546125773916579793e-02 -1.066169329824648293e-01 5.356071921011773540e-01
-4.587261900663027608e-02 -1.208118324788957643e-01 5.065077336773153860e-01
-2.381201644769214212e-02 -1.081821043043878078e-01 5.594403152755889064e-01
-5.685112880140024555e-02 -1.172210799495387035e-01 4.892594567228705227e-01
-2.833054956023310991e-02 -1.231147740259658230e-01 5.072421951453767175e-01
-4.067318615108456159e-02 -1.217011058973269250e-01 5.237080679794411386e-01
-1.086730840721413377e-01 -1.210607210990689853e-01 4.876377757190077933e-01
-3.411169713822878591e-02 -7.886614556991390634e-02 4.454367102373966714e-01
-6.446519690558924487e-02 -6.728920429510334977e-02 4.382602639350042240e-01
-3.189841515617909684e-02 -1.164045879693941105e-01 4.859222284696876892e-01
-6.651911898900303433e-02 -1.142875236720831134e-01 4.783302124180525694e-01
-5.549757430412149972e-02 -7.046059656951338124e-02 4.412407262720614010e-01
-7.171479565794131039e-02 -1.106518911421563167e-01 4.688147209703488749e-01
-8.422941070115690099e-02 -1.209132088826863627e-01 4.925465216808703750e-01
-2.595885754269435658e-02 -1.118674385736696253e-01 4.752346659052356093e-01
-5.240116530921531957e-02 -1.019425037696683745e-01 4.610341140723752118e-01
-4.193824945548950411e-02 -1.175280895927366259e-01 4.898606220620696505e-01
-1.926416988425412591e-02 -1.200328121007441656e-01 5.490615799002972475e-01
-1.185284501452525535e-01 -1.003247390867144928e-01 4.683037522890604043e-01
-1.605850159725953283e-02 -1.266926215304637893e-01 5.186602126655162071e-01
-3.192892377723394355e-03 -1.288698734873483520e-01 5.236058127056338884e-01
-2.254742185184348269e-02 -1.147945222676749755e-01 5.560533464827420724e-01
-8.793693936651497678e-02 -6.946266422957705911e-02 4.431757244415484576e-01
-7.167082523372723946e-02 -1.178941952877718830e-01 4.858421203698858881e-01
-1.646097960063321736e-02 -1.015688215313505088e-01 5.652775843452408910e-01
-8.987477646417274535e-02 -7.185846839051693302e-02 4.445074276546858716e-01
-5.508888649301269674e-02 -1.207839624841910292e-01 5.138624628460072286e-01
-7.024088505909155400e-02 -1.161531109789007282e-01 4.814942558311099963e-01
-9.011807326647512661e-02 -1.173197053648310645e-01 5.132548658858459012e-01
-1.552520943894887713e-02 -1.182902861856274801e-01 4.816037344791838648e-01
-2.068467055441012767e-02 -1.254474828344233628e-01 5.142477903613589252e-01
-8.484898982660198097e-02 -1.215616419270670462e-01 4.990496659883307817e-01
-3.112247291013622852e-02 -1.148542533280394046e-01 5.482204681819602410e-01
-3.655531102000317278e-02 -1.185645600912895864e-01 4.919202056680525015e-01
-6.622068829431977666e-02 -1.201814467716935536e-01 4.991188858918728655e-01
-2.920070255248318272e-02 -1.155891411378422301e-01 4.833054711242469881e-01
-8.033476524487971615e-02 -9.625509582887081805e-02 4.509391423039526559e-01
-5.185335350442088487e-02 -1.097223069786835148e-01 4.729860517128293695e-01
-2.032339955318096525e-02 -1.238117943555062939e-01 5.374076777777541114e-01
-7.423482452468174730e-02 -7.496413662852147164e-02 4.386031868617716323e-01
-2.348370063412159869e-02 -9.674235706608448615e-02 4.556448479300914678e-01
-2.804057783866036047e-02 -1.064755434987038757e-01 4.676208360576457612e-01
-8.288257270972042290e-02 -7.012967655359615693e-02 4.382349533328122604e-01
-5.883742158138204059e-02 -8.993993309306450024e-02 4.491061828099536801e-01
-2.285522660228985273e-02 -1.168409524205318434e-01 4.818100501975029482e-01
-5.645424063778664570e-02 -1.207238459126692698e-01 5.134618334883768176e-01
-1.047042121635909234e-01 -1.177650329150639746e-01 4.690374629311321319e-01
-7.978679847676045656e-02 -1.205606332853866314e-01 5.109743822134549252e-01
-1.014729214722472628e-01 -1.194724852319868358e-01 5.024453463803210118e-01
-2.231579892443198015e-02 -9.877551106231298450e-02 4.569149233342213456e-01
-7.263163215982705589e-02 -5.460660067437567156e-02 4.381617722108948620e-01
-5.466879914716574196e-02 -1.198543794199968260e-01 5.217771814229862359e-01
-1.493373120269260793e-02 -1.204201205807829272e-01 5.497059406229141132e-01
-7.822308660809421110e-02 -1.067964189058361324e-01 4.608595059042171482e-01
-8.968898607258568578e-02 -8.577120947936801854e-02 4.447836580134783557e-01
-8.230902241413479148e-02 -1.180159108785449190e-01 4.764321891976517898e-01
-2.803810433636351809e-02 -1.066170575037460044e-01 5.546211113758279243e-01
-4.291522067360492576e-02 -1.119058544778007980e-01 5.400279392584648175e-01
-8.131959648724400302e-02 -1.210915018971104873e-01 4.960837793390733275e-01
-3.636797559180340172e-02 -1.134412445165876027e-01 5.436822435222125049e-01
-2.330599854946417346e-02 -9.626306928227713888e-02 5.598814824511981758e-01
-3.050444250316457911e-02 -1.025251255038132220e-01 4.633117664431075644e-01
-4.970961709344057233e-02 -1.043405799801379735e-01 4.649468083430257637e-01
-1.026208692832282221e-01 -1.150694457507491220e-01 5.077280692316884503e-01
-7.140776677039874232e-02 -1.044691508170468852e-01 4.599628690467279513e-01
-1.701859262355756228e-02 -1.261992484813203308e-01 5.121283976553525630e-01
-2.529789810219643109e-02 -1.132996994545296121e-01 4.771878357513941737e-01
-1.098576038579051617e-01 -1.207437198749802681e-01 4.912680802341352626e-01
-9.140544157873582709e-02 -1.194913969116078861e-01 5.089491590242132268e-01
-2.025070422614910770e-02 -1.256955032816216289e-01 5.195480685184888925e-01
-7.144953258952924970e-03 -9.586976464572297130e-02 5.703374383467142428e-01
-4.920408985549892117e-02 -9.566288613998291668e-02 4.554854659107381298e-01
-6.387518084172466581e-02 -1.161643439648745446e-01 5.260504850104019692e-01
-4.784149854205940050e-02 -1.128860974311420018e-01 4.791188342766287689e-01
-8.512238149601708548e-02 -1.209742313476401682e-01 5.067314845071851925e-01
-6.884702577791608491e-02 -9.653345280629127556e-02 4.525953379306263957e-01
-3.107168097774225257e-02 -1.143065259288227192e-01 4.814643814594392057e-01
-6.967202720591901544e-02 -8.004419139707535935e-02 4.410564676719052613e-01
-1.176949423635234165e-01 -1.183242110517870871e-01 4.885500665007367349e-01
-7.479559178658756746e-02 -1.204923016920903811e-01 4.946915388853216355e-01
-3.888378478864340515e-02 -1.220182172987089309e-01 5.171764488227056367e-01
-1.020941594629935500e-01 -1.200812547160693827e-01 5.002974129135450143e-01
-1.565601375253918709e-02 -1.159456217540659750e-01 5.571373009249834807e-01
-9.145603374479367720e-02 -1.015365283153812082e-01 4.532529220171722661e-01
-1.682461874582833264e-02 -1.131749419446552857e-01 5.600545821050796347e-01
-9.759031935248092815e-02 -9.205805958280903478e-02 4.483916347384581669e-01
-8.229103589026882937e-02 -7.273352542342197136e-02 4.381985987621432876e-01
-4.747555336276046423e-02 -9.469342009751217926e-02 4.550767103006850278e-01
-1.215380687023196946e-02 -1.249554642613027039e-01 4.980515132183633842e-01
-7.487776714884765428e-02 -1.211509057585315324e-01 5.006625890460555395e-01
-5.976212936390663116e-02 -1.151813076146433606e-01 4.825835581903010763e-01
-3.346059533732523988e-02 -1.078400051761066319e-01 4.703190498578216361e-01
-3.902964327989585230e-02 -1.212951063524557310e-01 5.297839700031483634e-01
-1.011018015923596941e-01 -8.297087275611911283e-02 4.522042378660503514e-01
-8.348526776447472153e-02 -1.210258357616053881e-01 4.945471583265401150e-01
-1.907509718268251761e-02 -1.111171420983656649e-01 4.704813668401976456e-01
-1.085466133523307619e-01 -1.198429001851178538e-01 4.782798982787547226e-01
-1.643016312923122405e-02 -1.148470379964768306e-01 4.750023830711938011e-01
-9.996232158162277059e-02 -1.188072782938835170e-01 5.069573655548956781e-01
-1.054137093837811123e-01 -9.419648274625773421e-02 4.515786524246499511e-01
-1.046610134581525513e-02 -1.146817291857167159e-01 5.585671719504392563e-01
-1.018812953201896909e-01 -1.155520225128329054e-01 4.647730392934524279e-01
-8.508229010802914605e-02 -1.049751284395221695e-01 4.569165419580828447e-01
-3.945872362907366926e-02 -1.152777879100383568e-01 4.840453700527113656e-01
-4.892187741788199540e-02 -1.196732366806882858e-01 5.278302638838158201e-01
-1.532817691117887085e-02 -1.151434366698455003e-01 4.750211611511053200e-01
-5.075513537114403548e-03 -1.220759140990799324e-01 5.387518254829851694e-01
-3.006499952055213115e-02 -1.141664347586424932e-01 4.808076329041010566e-01
-9.352846782047041785e-02 -1.207871709404371857e-01 5.043912144616715665e-01
-1.100106658599798136e-02 -9.992079439170456490e-02 5.681465631099714697e-01
-5.675204965788190059e-02 -1.052129108696527870e-01 4.644275489873072593e-01
-5.038455253373181481e-02 -1.152439356247503405e-01 4.837107502792810654e-01
-2.278176373281671357e-02 -1.182713805361236548e-01 5.513474997047868031e-01
-1.055255837371987457e-02 -1.237953455281038395e-01 4.934542843533487599e-01
-8.408665909225242208e-02 -8.088353411852582109e-02 4.416764826461556104e-01
-1.068707869714809466e-01 -9.817979818289235272e-02 4.532888702672361880e-01
-6.701754887832730989e-02 -8.542520470312216230e-02 4.448261494216089740e-01
-6.867089041635102142e-02 -1.201553221473126293e-01 5.154849308969894350e-01
-5.196583735962571199e-02 -5.996987608287542709e-02 4.388712951499942894e-01
-3.629999221490472217e-02 -1.223144666954772974e-01 5.240338671482795974e-01
-9.637297951012771535e-02 -8.904247793067623928e-02 4.473477820532646976e-01
-9.176669740060393321e-02 -1.141596349266837257e-01 5.144607519504318383e-01
-8.527774815838778943e-02 -1.185591003511871910e-01 4.773899302814656465e-01
-7.878016092570624962e-02 -8.173914874510850026e-02 4.414659820733693452e-01
-6.219307187667282022e-02 -9.500746143921502684e-02 4.522165939871775620e-01
-4.407355890307487062e-02 -1.126071371993800224e-01 4.787314644709393940e-01
-1.591979470909045402e-02 -1.102054411343089541e-01 4.679113707399087385e-01
-1.014818351255161316e-01 -1.123738119185553330e-01 4.620487246681260207e-01
-2.759284789476599414e-02 -1.135302576042875877e-01 4.785967743445133649e-01
-6.930859158834168365e-02 -1.038592313535807860e-01 4.597163189170873632e-01
-5.160589187252141025e-02 -1.205786476757163550e-01 5.071744044724149081e-01
-9.082216294892028752e-02 -1.212412031372772647e-01 4.900417203644789055e-01
-5.222939670736885531e-02 -1.099840716880529229e-01 5.363921313836136351e-01
-1.026760590191162781e-01 -8.833442445892232542e-02 4.500505416774765455e-01
-6.258719661349256003e-02 -1.076090310366168146e-01 5.313907296983819695e-01
-3.143082838875995572e-02 -1.119679941065409301e-01 5.487273894555609877e-01
-3.225772916797413348e-02 -8.106039825265205778e-02 4.464413439286408769e-01
-8.504849565509287057e-02 -1.215118619062850319e-01 4.997843166804319393e-01
-7.402092298990790853e-02 -1.164847009023907837e-01 5.218924945969126705e-01
-4.734348640976722422e-02 -1.199598282304892155e-01 5.290121645987513332e-01
-9.727554372314291264e-02 -1.098571012347918235e-01 4.582848954205063219e-01
-6.607936890671758934e-02 -8.414759586316981899e-02 4.442138474308768292e-01
-7.247315377416400917e-02 -1.068413421196176272e-01 4.627040731409559626e-01
-8.016918589250571214e-02 -1.210680094807174284e-01 4.963837983613784699e-01
-1.087289201215969475e-01 -1.210238689735555068e-01 4.894400665255386196e-01
-3.331097342155137087e-02 -9.905299306728589104e-02 4.603446258173240491e-01
-7.026527973194339471e-02 -5.722329781991959685e-02 4.368827323004388363e-01
-6.692540862370263688e-02 -1.015901084727231785e-01 4.577355836274811240e-01
-6.593146827665764820e-02 -1.197984499995308483e-01 4.971853991670778239e-01
-3.033011658857404438e-02 -1.229399772142481251e-01 5.298024597645563105e-01
-9.613780881409582368e-02 -8.044718630003495907e-02 4.471206544790591320e-01
-5.174360655870887532e-02 -1.193871048481612435e-01 5.248071080091353258e-01
-3.699335562148080986e-02 -1.222076516258656653e-01 5.233681925973605598e-01
-1.022609063830419024e-01 -1.195664776572379490e-01 4.684677425982978205e-01
-5.501916846838390135e-02 -1.030399374548235658e-01 4.618509002483003889e-01
-8.076383939586460892e-02 -9.208905735396731573e-02 4.479537731028637726e-01
-6.545135010887741245e-02 -6.499894142120600515e-02 4.374339891882879083e-01
-6.113587900499100822e-03 -1.279461923926600575e-01 5.080274170023569846e-01
-2.435238270576920577e-02 -1.182867231941778369e-01 4.860007773288341215e-01
-4.000375670379018034e-02 -8.658080770030396334e-02 4.500649717589010335e-01
-7.209943424211605334e-02 -1.210711470802972867e-01 5.024535582177035442e-01
-1.049166752799940566e-01 -1.183899743483200762e-01 5.015905713997401705e-01
-1.021553136936618339e-02 -1.252021092589675755e-01 4.981752494238796958e-01
-7.781243266198354346e-03 -1.240151849426451985e-01 5.360212839562682463e-01
-5.831095586492813371e-02 -1.186466397289997476e-01 4.945940432366254802e-01
-4.691045274946532839e-02 -5.822847668883383843e-02 4.388700294977861960e-01
-9.763495302492308792e-02 -8.720348513357262243e-02 4.479872308867383079e-01
-8.425398394490562354e-03 -1.189882270349482962e-01 5.511634524625230735e-01
-1.341476781720869413e-02 -1.271320176657755041e-01 5.136963608620720434e-01
-1.157692924889513475e-01 -1.193905155693301134e-01 4.862774449333618909e-01
-8.746818691916298516e-03 -1.259384392988404933e-01 5.000851519447180316e-01
-6.544197875592719371e-02 -1.162809922849977473e-01 4.837850085175554038e-01
-1.135919286993148786e-01 -9.980088323426075658e-02 4.584777823252356721e-01
-9.463379707311278533e-02 -1.040943245795348804e-01 4.547106493878068090e-01
-6.886803068802746855e-03 -1.285979255251832598e-01 5.196425891471243563e-01
-8.935006584167297372e-02 -7.177560299368307417e-02 4.439383467724710708e-01
-6.330396490408982113e-02 -8.593396649072085336e-02 4.457537834069903449e-01
-2.607171971539594749e-02 -9.631272408492749793e-02 4.561196960445794701e-01
-1.559379806855709649e-02 -1.244131851781156706e-01 5.356397341745163798e-01
-2.607470862525032226e-02 -1.237455880508085693e-01 5.087419203136044343e-01
-9.283060344490132176e-02 -1.197064387451770573e-01 4.794812715385374235e-01
-2.309240373399376253e-02 -9.798791927535271951e-02 5.614743282234161414e-01
-5.776800261690026583e-02 -9.804686700394472931e-02 4.557355929283547491e-01
-9.822421611515279316e-02 -1.196034712760411095e-01 5.067536744252966185e-01
-5.271915499462895283e-02 -8.694748588895778729e-02 4.483926831506033217e-01
-6.297410717079063303e-02 -9.113159182700746042e-02 4.492364426892299645e-01
-9.027544814323802680e-02 -1.152878218738401517e-01 5.144646215662508348e-01
-6.044838771513699749e-02 -1.062111249094191828e-01 4.649041981161673442e-01
-5.135443850437729219e-02 -7.956043466035490896e-02 4.450677546483660096e-01
-9.563705933095439926e-02 -1.102870361786928571e-01 4.584073249364664093e-01
-2.641838732035639223e-02 -1.217132289371040121e-01 5.409774954672716962e-01
-9.092622152804474833e-02 -9.020010420798874051e-02 4.466236410627889564e-01
-5.420657041150192534e-02 -5.990104321901035256e-02 4.385862861249435474e-01
-7.723027468800093553e-02 -1.193184584856022135e-01 4.881748312761357012e-01
-1.008821165263727032e-01 -1.203969727478553242e-01 5.008712094934356651e-01
-6.344311148032187597e-02 -1.169588009721092559e-01 4.863868171211923053e-01
-4.169443214546145193e-02 -1.029350287444195239e-01 4.642766612932944792e-01
-4.829878249816941388e-02 -1.091869269224877703e-01 4.726004516462356531e-01
-2.575814667087219026e-02 -1.191979923736282837e-01 4.893965923498297954e-01
-3.347083511563241076e-02 -1.225170055605150354e-01 5.108659711792981062e-01
-9.409449780656768680e-02 -9.294261805502576634e-02 4.482798141285687099e-01
-5.076794085348448199e-02 -8.602245184821524782e-02 4.482296160424983911e-01
-9.850270589298125434e-02 -1.215852852630093794e-01 4.945167814174820098e-01
-7.030703139299881999e-02 -1.131980714015587142e-01 4.746542669471194853e-01
-6.435299874957083055e-02 -1.109767915251843179e-01 5.295426622308972986e-01
-5.335327861192867144e-02 -1.158143202915361131e-01 4.850794709978887287e-01
-1.054705555616002044e-01 -1.125042744787386473e-01 5.053566815795595968e-01
-5.030933138303434610e-02 -1.118114285014641801e-01 4.768105407990756439e-01
-4.100747735844446212e-02 -1.042011496955285582e-01 4.657477408130761831e-01
-9.158004136286353181e-02 -8.735549976233382419e-02 4.453453588888560688e-01
-1.068169708169969430e-02 -1.248646516717789312e-01 5.347856962975944262e-01
-4.596922497632799365e-02 -1.199475495421824661e-01 5.315368244286592381e-01
-1.071367696568392841e-01 -8.894857410662680708e-02 4.549646758952100023e-01
-7.999476259632094799e-02 -1.209703971401336203e-01 4.955942465405573372e-01
-9.428261961250958278e-02 -8.747207927194272647e-02 4.456953084223496120e-01
-9.125988760628719887e-02 -7.907406388636629979e-02 4.444673371066901191e-01
-8.927768204365431337e-02 -8.324134172784022900e-02 4.438584603572676146e-01
-5.545096648748582685e-02 -1.081146053803701962e-01 4.691514726110587175e-01
-1.610688419702371865e-02 -1.060309377328562258e-01 5.644088485672429378e-01
-3.342212997095828780e-02 -1.228168353121896622e-01 5.175095687805996159e-01
-8.502346454059372949e-02 -8.747615145095907763e-02 4.450228783411282474e-01
-7.243602659022743695e-02 -1.134289036771219533e-01 4.739303511782692047e-01
-5.077506074026844063e-02 -1.207713144629709162e-01 5.186772974641609135e-01
-1.543911114890499960e-02 -1.177248895673753404e-01 4.803611069255876997e-01
-5.336394234677285103e-02 -1.193258700621529778e-01 4.981704258986400236e-01
-8.806958137246763407e-02 -1.195560931675123256e-01 4.827427180627282821e-01
-2.597134401917858618e-02 -1.006878106718712973e-01 5.561331779992458868e-01
-3.295901952246969163e-02 -8.384691413618319822e-02 4.482760984665556947e-01
-2.822160466769307180e-02 -1.198386554960848421e-01 4.923279305991781207e-01
-2.214198008287655839e-02 -1.133424867524728263e-01 4.756338424886883409e-01
-8.483300515257663488e-02 -1.142071873468446103e-01 4.667809538887820464e-01
-8.788934709731535677e-02 -1.079202548166995901e-01 4.588333478403616716e-01
-1.012326851605403755e-01 -9.698605207363274194e-02 4.510112152751130643e-01
-9.190226892617393839e-02 -1.211765800405599919e-01 4.873973906145367407e-01
-4.913734417741139060e-02 -1.194908127666052811e-01 4.990164587542870733e-01
-8.778875108884330591e-02 -1.215147749425163209e-01 4.970514578191240762e-01
-6.281034551029639201e-02 -1.111246755371584349e-01 4.726912051567973561e-01
-3.019219534893791135e-02 -1.221370527607967965e-01 5.352231028447871353e-01
-1.990539489023986780e-02 -1.149622998666696982e-01 4.768740341668915028e-01
-4.999913266204693285e-02 -6.103077691635726970e-02 4.392100847857451362e-01
-8.391849786795495258e-02 -8.822331900514493452e-02 4.454902268444183022e-01
-4.842924047705042534e-02 -1.208982318651261323e-01 5.108167418425060280e-01
-1.005736174146803913e-01 -1.216233050466048182e-01 4.937136081345364635e-01
-2.820618916947376792e-02 -1.222679626236557876e-01 5.013761614015822543e-01
-1.057290810634535852e-02 -1.269441664780327217e-01 5.062351751135447664e-01
-1.201813402925688973e-01 -1.152367228063499172e-01 4.856297464160016508e-01
-7.966744650493197411e-02 -1.195735430977226399e-01 5.144438901907045780e-01
-6.132678005366355711e-02 -1.039580050191935279e-01 4.614456316660879298e-01
-4.217372583840971884e-02 -7.198792783794144556e-02 4.428998677924390059e-01
-1.004875473083660237e-01 -1.154420534854212338e-01 5.092047725974024885e-01
-7.910711891339368418e-02 -9.885121578997455027e-02 4.530674849327919751e-01
-4.113192255649002205e-02 -1.122640119830118077e-01 4.779730923243418750e-01
-5.607440218891925066e-02 -8.311550102775254467e-02 4.455548202936172597e-01
-5.103867946273036443e-02 -1.128940365653204742e-01 4.788707997104078018e-01
-6.563953258237785471e-02 -7.869850705230950483e-02 4.414493593282545758e-01
-2.177437398118324541e-02 -1.091808154643784390e-01 5.615628651051307596e-01
-6.181354976475953583e-02 -8.870345556861991554e-02 4.477242210285202750e-01
-4.107870333480501124e-02 -1.210727109563906473e-01 5.056575344948583961e-01
-2.887525995447046828e-02 -1.078588437537606887e-01 4.699725968828275535e-01
-5.900128606023568451e-02 -1.039018923228631902e-01 4.620083093098991678e-01
-4.121018559828649314e-02 -9.793925576145320888e-02 4.590654678504264008e-01
-3.801528693028349837e-02 -1.098104248196822702e-01 4.735366450612618627e-01
-5.130530642399420277e-02 -1.090510818336527799e-01 4.718994322912763995e-01
-3.858454601161195874e-02 -1.219724724989516007e-01 5.147369263996576239e-01
-4.854743485909916723e-02 -1.207583026902650930e-01 5.085533353613368446e-01
-5.135021764032977193e-02 -5.931006611793305378e-02 4.388112161988744764e-01
-1.655349925173724840e-02 -1.254252424594318183e-01 5.043016487281887228e-01
-6.091505912283309843e-02 -1.149104876297517286e-01 4.817507270833137900e-01
-1.180233430238449566e-01 -1.179485163143196430e-01 4.828154057957608769e-01
-1.810836968230924299e-02 -1.242316560693061261e-01 5.361873647731161263e-01
-1.352540055411218488e-02 -1.163682120298116657e-01 4.767969875516783751e-01
-2.233130522722160533e-02 -1.095167852933593422e-01 5.609797504828042403e-01
-5.479541261946735409e-02 -1.061335308263789967e-01 4.662019757213689553e-01
-5.068956786873869691e-02 -5.705398700816469160e-02 4.384268074712805441e-01
-2.483751980208594862e-02 -1.245805115840824540e-01 5.200426854504466290e-01
-2.829608690825732853e-02 -1.125142092626286866e-01 4.769391584168384823e-01
-2.856444939709618103e-02 -1.219117297522860355e-01 4.998525437070265864e-01
-3.864164039801681882e-02 -1.088876472257874484e-01 4.721170068632817296e-01
-1.161338245678950609e-01 -1.163489936517852624e-01 4.943083939648449388e-01
-1.423334501027083074e-02 -1.271663563247553419e-01 5.207284423690499153e-01
-8.448873230899404951e-02 -1.087533021528943183e-01 5.210216770876380243e-01
-8.312880331653842159e-02 -9.273920355769151025e-02 4.481376195705297216e-01
-3.181141957656587194e-02 -9.439974117600216652e-02 4.562777770077390826e-01
-2.207244554475264187e-02 -1.186807624039729891e-01 4.853022405598724220e-01
-5.253727367545057980e-02 -1.115396945843314253e-01 4.760924964212812083e-01
-3.915810778144222792e-02 -1.083781643292058283e-01 5.422416655324694412e-01
-1.129308720024384538e-01 -9.570081990380349679e-02 4.576346263886887367e-01
-9.828138064287159081e-02 -1.204378389124888260e-01 5.030829455035193964e-01
-6.902730977038583869e-04 -1.287618486043031751e-01 5.142995215357888394e-01
-9.449735846876765322e-02 -8.212021914846892590e-02 4.453994132259483374e-01
-1.008354352105455404e-02 -1.279154552188599414e-01 5.148754805002111468e-01
-4.720828823894596127e-02 -1.147766283511923585e-01 4.828980851555791376e-01
-7.940291423923218073e-02 -1.209746789103085390e-01 5.077970071798495466e-01
-1.120336825421657835e-02 -1.193942927274187493e-01 4.828111318929518281e-01
-7.871460193199299182e-02 -1.214649398295245958e-01 5.014834633604050573e-01
-5.108951273985556929e-02 -1.125491594600422918e-01 5.353977457029747145e-01
-1.988000256622080714e-02 -1.176122856665476890e-01 4.816169791948034518e-01
-8.824857867984969850e-02 -1.104522109063944407e-01 5.184483752000584866e-01
-1.199004114991370079e-01 -1.151299758528531864e-01 4.886656969398596728e-01
-8.792836576408277760e-02 -7.318632495905384727e-02 4.418354008969182511e-01
-1.067789321448492507e-01 -9.694085102820244881e-02 4.528298630390656387e-01
-6.905606658732954539e-02 -1.178922590944593701e-01 4.868947501505754838e-01
-3.610250787802153638e-02 -1.217678805880994530e-01 5.300250748309567328e-01
-6.693406068638975415e-02 -1.207958570440773732e-01 5.104400782673460535e-01
-8.092315252087059485e-02 -1.153325625940452570e-01 4.721277823590055989e-01
-3.123458170521158789e-02 -1.177754415358353846e-01 4.885954041704789752e-01
-9.891214606073152338e-03 -1.214947011320653830e-01 5.448857509009052968e-01
-8.387715471515450050e-02 -1.162258079471501226e-01 4.708610298354365398e-01
-4.668605312105956334e-02 -7.312064723383164544e-02 4.432043411588031945e-01
-7.924297039460190262e-02 -1.122930142306710344e-01 4.682211736189714757e-01
-3.099225289891788249e-02 -8.122717403457717367e-02 4.463502815781579813e-01
-2.286589100848957987e-02 -9.819597576868871469e-02 5.618558265351465408e-01
-3.335294237053237215e-02 -1.015384058413223434e-01 4.629205628311121590e-01
-9.105759043142383491e-02 -1.173116473786966624e-01 4.655787224263526203e-01
-3.074917159822312951e-02 -1.227520701695293398e-01 5.079311296355371041e-01
-5.014833024082521878e-02 -8.495142267500159494e-02 4.477413180459094422e-01
-2.677405330243813608e-02 -1.213667213039359843e-01 4.963026358921475700e-01
-1.093123055856572434e-01 -1.185420304859580026e-01 4.746250948749760057e-01
-3.101005859379803165e-02 -1.191479179604213734e-01 4.916464658485845685e-01
-2.643133387611868931e-02 -1.233469175386066458e-01 5.325578107808489614e-01
-3.512986425627458859e-02 -8.629074232335087746e-02 4.501741069696374442e-01
-7.353234616838601190e-02 -1.102877766212495142e-01 4.674487177310354680e-01
-3.231792426145429359e-02 -1.192689505481729639e-01 4.925929781117839856e-01
-4.043125474600384878e-02 -1.211449597544665135e-01 5.289595574363225028e-01
-5.872319718651494019e-02 -1.196054952081658934e-01 5.213456675835066445e-01
-2.468717591177550102e-02 -1.242062138706518104e-01 5.300340546211100845e-01
-8.709923356410086137e-02 -7.987265815235415622e-02 4.420693837164093032e-01
-1.204590693043145477e-01 -1.030521144228675606e-01 4.707387012218730571e-01
-1.087882518106857571e-01 -1.162810889972066969e-01 5.005748036881629837e-01
-3.724312578094687853e-02 -9.617833464417012423e-02 4.580548290987736526e-01
-6.703969523267991337e-02 -1.209401825287392818e-01 5.086147001066821938e-01
-1.077137112379022155e-01 -1.207999611943288282e-01 4.936709444359194121e-01
-5.695319656624878504e-03 -1.206366586601445440e-01 5.420392389845083425e-01
-8.669295744705907136e-02 -1.206455258277949888e-01 4.887499779529308475e-01
-4.847786040848778288e-02 -1.105545409982308797e-01 4.748690280155830612e-01
-2.627280201230519294e-02 -1.185194103373433533e-01 5.485578314551639023e-01
-2.579064494740592253e-02 -1.233501781357636967e-01 5.042125626941015293e-01
-1.555653928922983223e-02 -1.247683115538147092e-01 5.341605896033236878e-01
-4.895313284142079752e-02 -1.210969818680281834e-01 5.144254037518597444e-01
-3.272964824997088434e-02 -1.052969842194986794e-01 4.668415338249809476e-01
-9.168977492706102683e-02 -1.171906094282465088e-01 4.634244264387122891e-01
-8.402145045927254807e-02 -7.013870329040605700e-02 4.386569744206985644e-01
-1.050870501960952386e-01 -1.212889678969008150e-01 4.944436404762261872e-01
-2.348409711558020405e-02 -1.248616293107310399e-01 5.253422447941179518e-01
-5.265201270535416200e-02 -1.197878250926837501e-01 5.008411432107570116e-01
-6.299869347110301221e-02 -1.121378421435324096e-01 5.297615717918459088e-01
-2.427404702367281716e-02 -1.243101217520364288e-01 5.300884553691448398e-01
-7.643474636120906052e-02 -9.659652216227858357e-02 4.517267122494832421e-01
-7.533341043745796217e-02 -8.773422237073691399e-02 4.454834017352024000e-01
-9.023865195798617955e-02 -1.210422740927935004e-01 4.882367657035612263e-01
-2.505275699455422264e-02 -1.071706771395092017e-01 4.678210550372077781e-01
-4.507855584953332495e-02 -9.091449346499379247e-02 4.525938548959854146e-01
-9.434911907100870798e-02 -1.202622457156783120e-01 4.749857081670542658e-01
-5.713821444656164150e-02 -1.162457428710493290e-01 5.297623685046779496e-01
-6.742877339475060461e-02 -1.204751969970109110e-01 5.135476015257156579e-01
-2.985370127114983160e-02 -9.010550665456863728e-02 4.523975753013595447e-01
-5.861985087627375607e-02 -8.200141904881498578e-02 4.445949887964281699e-01
-5.139524187135071503e-02 -1.022865595383531251e-01 4.617802684428949367e-01
-4.685069921750183858e-02 -1.116854835456030370e-01 5.376762884433979872e-01
-1.207566985786518027e-01 -1.054499250368476498e-01 4.697000531609536456e-01
-9.470510286307198822e-02 -1.201847080502052439e-01 4.659520669897947442e-01
-4.612239304784920835e-02 -6.989403971044592934e-02 4.420631431353866936e-01
-1.158842651189465056e-01 -1.151917208995354991e-01 4.732844864276489760e-01
-7.830503615558707942e-02 -1.213862778600097031e-01 5.030744727673550631e-01
-1.004458849034179091e-01 -1.207686889967992949e-01 5.000860844163460550e-01
-1.017965929870208175e-01 -1.011382110007948004e-01 4.534106059590780613e-01
-4.505993609672718364e-02 -1.200475822491821470e-01 5.006436274267478392e-01
-6.867692998359146983e-02 -1.207828719627242198e-01 5.094830183033360882e-01
-5.466662219148549218e-02 -1.065805176768554186e-01 5.360614619444800111e-01
-9.070433133125904712e-02 -1.196044288133882305e-01 4.775798592083853600e-01
-4.772549715691688094e-02 -1.104461036920660610e-01 4.747912385107453948e-01
-3.386112818216756304e-02 -1.225217911807418569e-01 5.132359994165479611e-01
-2.481439892360730315e-02 -1.097648063255043521e-01 5.573346384991433311e-01
-8.527179235144186076e-02 -1.150171022160043494e-01 5.179972124494867103e-01
-6.318492450761954704e-02 -1.087340608147460141e-01 4.683449781760385400e-01
-1.193153660597766341e-01 -1.004544056258548507e-01 4.704051730112044361e-01
-7.129684515249617993e-02 -1.159807073231037822e-01 4.802963962600136916e-01
-7.639958936997459649e-02 -1.099777423048751840e-01 4.657241092475637445e-01
-1.022823368443237374e-01 -1.193085652530541940e-01 4.682905227971113082e-01
-3.690401138127311076e-02 -1.175240041108132766e-01 4.890291666816810046e-01
-5.965705553619047447e-02 -8.243733845325243448e-02 4.445627976542796955e-01
-1.014043767088229804e-02 -1.178162527583280217e-01 5.538436557556453144e-01
-1.805910853145226841e-02 -1.261234964371777956e-01 5.252761032251477280e-01
-5.571621061659326468e-02 -1.133323117997474261e-01 4.789342880666707103e-01
-9.993147398928106662e-02 -1.205387326588032437e-01 4.666403002730608596e-01
-1.525392861659790981e-02 -1.269596051031134099e-01 5.214468604007974628e-01
-1.125542609106324615e-01 -1.193636870790478616e-01 4.945904693760339588e-01
-7.570168435333032853e-02 -1.048298066447591881e-01 4.594140432732171098e-01
-2.499589077226691339e-02 -1.007555189000152868e-01 5.581789689147057532e-01
-2.114340867868257784e-02 -1.198186114733938296e-01 5.488327420215651786e-01
-4.120319986849674265e-02 -1.103280659300377858e-01 4.747009011058763162e-01
-3.680812414822258460e-02 -1.212390964226351259e-01 5.330729505746762964e-01
-1.046790488295585436e-01 -1.170738718736493988e-01 5.026185812717580692e-01
-7.547876864675902298e-02 -1.212042066790389866e-01 5.008478437428229846e-01
-5.227890356029062796e-02 -1.181248734077578466e-01 4.931281192158981641e-01
-3.239620649660862606e-02 -1.185910148545731707e-01 4.907608624200480163e-01
-4.187012744747854731e-02 -1.145468271811308503e-01 4.824648110819986790e-01
-3.026625285539929697e-02 -1.125269082629515721e-01 4.777843962829867452e-01
-3.856754509616789478e-02 -1.203964378648113426e-01 4.997312659184225958e-01
-2.753674237501528219e-02 -1.120829923429628727e-01 4.760058972857537096e-01
-7.744489765938875059e-02 -7.783756465858100715e-02 4.394631940328632691e-01
-3.450623849123616443e-02 -1.139243695418353103e-01 5.451761114316978629e-01
-8.048409117703499149e-02 -6.921001034160723098e-02 4.373897460452464414e-01
-1.052274261551968820e-01 -1.154204190124789170e-01 4.666058112692210158e-01
-1.090068864986265020e-02 -1.264682668161511703e-01 5.295112064453358913e-01
-5.178200252418099087e-02 -8.543824310389701304e-02 4.477264127817214834e-01
-9.464469565269244267e-02 -1.208506559380252837e-01 5.023252940211536677e-01
-3.891800041919988434e-02 -1.106356357192981171e-01 4.750251465233637505e-01
-6.317179121599611480e-02 -1.072754332688384410e-01 5.312409812050564728e-01
-2.434871327982699937e-02 -1.233775953678787063e-01 5.025914848434501758e-01
-1.108921267012467904e-01 -9.529712658540526182e-02 4.550330305103407746e-01
-8.690216664037894723e-02 -1.208725001807345739e-01 5.070094848853250458e-01
-8.566543321391081878e-02 -1.088693874021071789e-01 5.202310366786165874e-01
-9.357065413731802117e-02 -7.746344851680453392e-02 4.464946589440233482e-01
-1.678490304260796262e-02 -1.215661016216471324e-01 4.898448632983357087e-01
-4.762388609308682713e-02 -1.000519403907423333e-01 4.599338283036064623e-01
-9.050283479780731749e-03 -1.248852273912667843e-01 4.966694570403601405e-01
-9.532978020534747798e-02 -8.096459081414981995e-02 4.462720768757905132e-01
-6.544978347714365541e-02 -1.073863830118387125e-01 5.302076470933118069e-01
-3.530585483125868451e-02 -9.611018287698430695e-02 4.580441689742119071e-01
-4.236327555012975310e-02 -9.101335848136174467e-02 4.532288890951383098e-01
-1.072139769025872713e-01 -1.141566862239656033e-01 4.660837617362237340e-01
-9.595194237837072204e-02 -8.701781949258848015e-02 4.468010977486098212e-01
-9.998317309015111731e-02 -1.181695737383554184e-01 4.650164707391488128e-01
-5.768879338328270628e-02 -6.212915721740258634e-02 4.385673133379738298e-01
-1.732210356762302686e-02 -1.171328963514510491e-01 4.796756729946066722e-01
-5.513696808427712148e-02 -1.061066613772632811e-01 4.660819405095861789e-01
-1.037848749315829489e-01 -1.153314728270819489e-01 4.660753563283685508e-01
-5.904125101039163492e-02 -1.196588552104435321e-01 5.209285365574984894e-01
-2.343641127752833092e-02 -1.213369481506433589e-01 5.442880481411904725e-01
-3.490831955365732847e-02 -9.023300404595253899e-02 4.532499284617449997e-01
-7.638543592988120134e-02 -9.372702633742074907e-02 4.496263881293802167e-01
-3.013254509823122887e-02 -1.045592942261554664e-01 5.509088061475193587e-01
-1.698897564719296493e-03 -1.288371097795903142e-01 5.143104073719425573e-01
-3.757004033960945066e-02 -9.793802918045117767e-02 4.595591296586896690e-01
-6.705898882630448310e-02 -8.784027072862052310e-02 4.462519406149570989e-01
-7.639250456487474417e-02 -1.148350221057845566e-01 4.746937191989202276e-01
-5.127471329926430732e-02 -1.085263484257298211e-01 4.709579975664061058e-01
-3.361605758452143600e-02 -1.227607754380377059e-01 5.227234531730763356e-01
-1.186559999853946390e-02 -1.221035248612357682e-01 4.890810630638816603e-01
-6.626516743684739141e-02 -1.205802789775353712e-01 5.026635879330749734e-01
-3.971768205857239414e-02 -1.218566536677897494e-01 5.211938245847680395e-01
-5.342503553123034016e-02 -1.205649101273469359e-01 5.073176377986780006e-01
-4.479273228853811184e-02 -1.083294926466442099e-01 4.715227664142371267e-01
-5.942323781811142958e-02 -8.682191662682746391e-02 4.470481057668968528e-01
-1.635010929761760920e-02 -1.235824409252407885e-01 5.397689227369959486e-01
-7.626561010098319160e-02 -8.231489040637679500e-02 4.417523120642639634e-01
-7.371408233415870093e-02 -1.028765347781243761e-01 4.579027784515258270e-01
-4.150223683055010576e-02 -9.818168751602593392e-02 4.592391420860513218e-01
-7.166476124032555850e-02 -6.017185554622547089e-02 4.362077740616069343e-01
-2.634147671987576919e-02 -1.232281493195804545e-01 5.335639838772919807e-01
-1.049769516503633593e-01 -1.217256542063934327e-01 4.867633872952187857e-01
-5.879164272541330394e-02 -7.673840263113385074e-02 4.425769077787434225e-01
-1.693594453833929467e-02 -1.250413699831867953e-01 5.028196732544495395e-01
-2.833799694174235495e-02 -1.212457793342698598e-01 5.409699690065076227e-01
-5.894154201732229592e-02 -1.200446933006161093e-01 5.017581514813204135e-01
-5.340042265294458329e-02 -1.178798984684707035e-01 4.920514905257913907e-01
-4.910432835420347475e-02 -6.307129359004519376e-02 4.397925442754024861e-01
-1.065722475917274120e-01 -1.164503725767267739e-01 4.684385184383124678e-01
-9.143816194860125701e-02 -1.062190580452107291e-01 4.564208553378107935e-01
-6.544361018880030800e-02 -9.534688812648438316e-02 4.520216157514015953e-01
-2.937452899996039271e-02 -1.065413919189025921e-01 4.679280061357187770e-01
-1.017353252357251908e-01 -1.218038191749621912e-01 4.917045695347196932e-01
-1.100028862084000553e-01 -9.799401722024143890e-02 4.546894891199099731e-01
-1.592472883325787153e-02 -1.237097654916677614e-01 4.962539247430651779e-01
-2.568971294941339856e-02 -1.182137535740416939e-01 4.869986924941882012e-01
-9.235958765189368480e-02 -1.167463337760792780e-01 5.125389411122786010e-01
-8.237807061940230491e-03 -1.187364390245893159e-01 5.517696256645704400e-01
-9.918668724660291425e-02 -1.198117683851417509e-01 5.053031177318867417e-01
-8.382213168661291347e-02 -1.214868519411345937e-01 4.987209822451402208e-01
-1.062653337023305306e-02 -1.248001072532688993e-01 5.349404826365851129e-01
-6.177222738376374200e-02 -9.204688827614702917e-02 4.500813558862767350e-01
-8.280018921875145765e-02 -7.910448405148080842e-02 4.407375416757629005e-01
-8.179008419517692918e-02 -1.194863467516713851e-01 4.882625843721106751e-01
-6.949042494060943265e-02 -1.150912968901249001e-01 5.249826077786279299e-01
-9.720494813105692855e-02 -9.326142378565528690e-02 4.486946058696558159e-01
-2.799581803660734780e-02 -1.212476143265725642e-01 4.965950595844740301e-01
-1.084729848948991909e-01 -1.109580758143702828e-01 4.631178639179728274e-01
-8.340065829231503580e-02 -1.166099818421456463e-01 4.721494274712497718e-01
-1.106338808272798874e-01 -9.509353653107681381e-02 4.549436971078339997e-01
-6.570953114577567089e-02 -1.148853810077792859e-01 5.263148501616726760e-01
-4.854933098069631053e-02 -1.084585887718673286e-01 4.713509697784956098e-01
-6.866763059091121613e-02 -1.210708631059195794e-01 5.064879170404772424e-01
-8.778806974271732844e-03 -1.195494697516774618e-01 5.497609921943352740e-01
-1.472647158681816316e-02 -1.227911091969050156e-01 4.921955709832017689e-01
-5.979563891482889831e-02 -8.179506395572953836e-02 4.442909688037112170e-01
-4.116997571213155266e-02 -1.216395374499668891e-01 5.237257954396657977e-01
-3.213458506013665977e-02 -1.170398792097298024e-01 5.457934512849115238e-01
-3.375229845073579593e-02 -1.207923019537050224e-01 5.365037580243129378e-01
-1.135371346310318080e-01 -1.082027872356981502e-01 4.629586217506268531e-01
-2.222670695626561416e-02 -1.080990563163889417e-01 4.676471416885687460e-01
-2.175788337335188283e-02 -1.222116232928489171e-01 5.435282555789749948e-01
