-6.090657826763291871e-02 -1.112877529086302997e-01 4.718020948039591822e-01
-1.066000435134393104e-01 -1.223406064802762538e-01 4.821943928589389472e-01
-1.969265377369956022e-02 -1.250222229340315350e-01 5.323807781434323205e-01
-1.216046624988474795e-01 -1.105535908642353848e-01 4.862550013393711623e-01
-2.458714919204723487e-02 -1.206266623391141907e-01 5.451515344317785505e-01
-4.841819421354398578e-02 -1.163828979499809263e-01 5.344819643317957336e-01
-5.793354364543274598e-02 -1.163114272690733281e-01 4.839386464120531417e-01
-5.801537274953980083e-02 -1.197050887582322004e-01 5.229035440793816658e-01
-1.002733566992870112e-01 -8.179094688580054728e-02 4.531843956091711201e-01
-2.287809513988816809e-02 -1.135198670546283678e-01 4.761665094233978879e-01
-1.408700019349984518e-02 -1.259869838881921555e-01 5.039414020525029292e-01
-7.769119164012934509e-02 -1.011266417513379118e-01 4.542130935221313504e-01
-5.937948695984308217e-02 -8.070121839673377595e-02 4.436291978041663198e-01
-1.787427008612241935e-02 -1.138273582561116215e-01 4.738752651481706879e-01
-1.086946872697005101e-01 -9.774873023964023022e-02 4.536890277143925121e-01
-6.953283735219269179e-02 -8.848057114999952066e-02 4.457435105437610456e-01
-2.558670791576761472e-02 -1.239562743219791568e-01 5.306472025016981675e-01
-2.689150519787465027e-02 -1.052015227043975737e-01 4.654928131560512328e-01
-1.161235635064125360e-01 -1.189108114697167151e-01 4.771580262767776692e-01
-6.130478109098775469e-02 -1.191270646724831156e-01 4.926099252718263433e-01
-2.010890785708491918e-02 -1.225564625415347386e-01 4.949446185138683951e-01
-3.503563171360597750e-02 -1.188476621600480093e-01 5.404819314260123075e-01
-1.065686094901993619e-01 -1.085155139556173570e-01 4.590111324748344379e-01
-7.092149768896308104e-02 -1.197200594998010792e-01 4.888978349052096051e-01
-3.624295747480998919e-02 -8.563996483648844693e-02 4.494752176200608185e-01
-6.046779680814429181e-02 -1.184896065210790800e-01 4.905661887007781163e-01
-3.010773402780195229e-02 -1.105567268814878767e-01 5.500631146536802962e-01
-1.021949722863227383e-02 -9.490936154299130234e-02 5.703925864040909621e-01
-1.063811806808419996e-01 -1.148500345003659051e-01 5.034837337070766639e-01
-1.953316582279976052e-02 -1.167359424334903778e-01 5.552754858868611532e-01
-5.357047650347806361e-02 -1.198375418724270253e-01 4.978984844537985288e-01
-4.263564028283549356e-02 -1.082174084119250784e-01 4.705516475344916905e-01
-6.580675141793213001e-02 -1.211598014381704974e-01 5.137643935392243177e-01
-1.180213650913028156e-01 -1.055757339305903458e-01 4.656799506085474438e-01
-7.862213845646982835e-02 -1.188021584889994847e-01 5.179931726839662742e-01
-1.698186436782075578e-02 -1.153547994751289163e-01 5.577224674774708957e-01
-1.149101138976306447e-01 -1.001404562447979069e-01 4.607164086522582691e-01
-2.078405203907911572e-02 -1.254493226683338625e-01 5.280967794122226611e-01
-3.410594208731426019e-02 -9.998252906068771928e-02 4.611867613952173595e-01
-5.129516411587292657e-02 -1.128494329284051995e-01 4.775772020668236917e-01
-8.194845792207912372e-02 -8.202981654213536977e-02 4.413168140749008650e-01
-3.642623306856380971e-02 -8.586763680720806147e-02 4.496024112776139114e-01
-5.432007145937935155e-02 -1.206714027970642311e-01 5.029904391692535670e-01
-8.075068829962127326e-02 -1.222995856548827059e-01 5.022409683753535914e-01
-2.907742659453031384e-02 -1.096833583795607941e-01 5.522693870942521066e-01
-3.125241266232850479e-02 -9.655104066027382637e-02 4.576942389903073116e-01
-1.046910883970648409e-01 -1.229353337648687872e-01 4.855111307910727203e-01
-9.182163870010169593e-02 -9.689828682466328225e-02 4.493556283195886958e-01
-1.019312538190727396e-01 -1.174682770933877241e-01 5.071593109529466403e-01
-1.158010781917097470e-01 -1.002432821584663541e-01 4.623472742889287446e-01
-5.700724411591556740e-02 -9.925158985466779604e-02 4.562753696354117650e-01
-5.926309525636107994e-02 -1.191898316129067908e-01 4.938008738066114178e-01
-1.134697759287086605e-01 -1.133493079035503837e-01 4.667695526226250391e-01
-1.208370269963491977e-01 -1.137979310431637969e-01 4.861752428240659341e-01
-7.865044314553815141e-03 -1.223404188220141436e-01 5.417347622180310740e-01
-3.217906723721771639e-02 -1.224494716869616306e-01 5.320747457276344683e-01
-2.319976342972952452e-02 -1.079989459014175784e-01 5.599523026541980419e-01
-9.655339560394854415e-02 -1.225627267627847072e-01 4.706723914569371781e-01
-9.803496718506289620e-02 -1.229932864670655185e-01 4.881439838947442822e-01
-2.474867775011751342e-02 -1.245789268757053758e-01 5.137532456285327509e-01
-4.051048119162970612e-02 -1.006009590871081577e-01 4.611754107676981351e-01
-6.688969443826062178e-02 -5.576466573152545625e-02 4.374159561448775491e-01
-9.357200202111856657e-02 -1.210285862109669874e-01 4.657731597342528729e-01
-3.247110733845103014e-02 -1.197929616631644295e-01 4.934775154868158431e-01
-9.342553815738044443e-02 -1.132493717708103476e-01 5.146319494110747073e-01
-6.519772438688944960e-02 -1.135230287870630794e-01 4.753731762213239120e-01
-8.911851306039549059e-02 -1.159905108559566994e-01 5.148906326688150736e-01
-3.778921251241777746e-02 -1.173562175986461731e-01 5.398979651133559710e-01
-1.091444807590758181e-01 -1.200058885329988723e-01 4.747395723172926352e-01
-5.221490068586839145e-02 -1.098860320844506078e-01 5.364614267025169525e-01
-2.235504047111941048e-02 -1.223174843978312859e-01 5.428843221411362441e-01
-1.998642870811209032e-02 -1.252753463205671103e-01 5.067009566125926234e-01
-1.069662080029335216e-01 -1.207020307499938883e-01 4.977754608922274060e-01
-9.879201438996119966e-02 -1.216146352229312000e-01 4.754442616890174333e-01
-3.763757226633542008e-02 -1.214752968416233925e-01 5.037707551324323019e-01
-6.852864879217195060e-02 -9.131720118429660638e-02 4.479198667207277551e-01
-2.440596869360463911e-02 -1.056213756028906992e-01 4.650552574781076087e-01
-3.257992114078328560e-02 -1.209939036390201006e-01 4.981324000022669396e-01
-8.277623984735972898e-03 -1.283754926608497438e-01 5.193526724756076796e-01
-6.984810621560165467e-02 -1.130546742699490848e-01 4.725013693752110888e-01
-6.965219116432762314e-02 -1.218127029172691167e-01 5.048787479437355508e-01
-3.577897543951449183e-02 -1.116791971184651899e-01 5.441165788235231560e-01
-6.618579685012444813e-02 -7.797485759605578270e-02 4.407382052201848643e-01
-4.963993542802491027e-02 -1.212821000746797107e-01 5.097006937128035764e-01
-3.283313697178211199e-02 -8.797363307381557418e-02 4.511481024072566126e-01
-1.205456325983879917e-01 -1.117207145131175056e-01 4.790992414847469738e-01
-8.605490202479353090e-02 -1.071243726879134023e-01 4.574989235775187013e-01
-3.793852576410042948e-02 -1.127376780083400587e-01 4.779573445891726613e-01
-4.410258429670439045e-02 -1.181587171957564353e-01 4.905385691584964736e-01
-2.361593491030719236e-02 -9.803998729115649680e-02 5.593953917802058085e-01
-4.078504968151981658e-02 -1.094579533384387598e-01 4.724386259009099032e-01
-5.267428009434933778e-02 -7.033079256099376841e-02 4.414657334571418512e-01
-2.429155035498514401e-02 -1.078361654302735784e-01 4.682169269355578867e-01
-7.202319591540699839e-02 -9.056404065895835853e-02 4.470293860080465365e-01
-6.936948042595698916e-02 -9.346723771999478070e-02 4.494535380762517685e-01
-5.993545875458008987e-02 -1.089187778211941210e-01 5.321065986094163369e-01
-2.171048261827403583e-02 -1.214065789244735405e-01 5.454058655165565650e-01
-9.100733570239159798e-02 -1.212583693560528447e-01 4.828448543749205846e-01
-1.048763672964033167e-01 -1.155107586640715112e-01 4.651493098448229446e-01
-2.299063625038855890e-02 -1.250655736145658004e-01 5.169344847983513569e-01
-5.318357178997307894e-02 -1.213879315734412989e-01 5.111177626281278030e-01
-8.369081888288637527e-02 -1.155226365020634305e-01 5.190261734612837685e-01
-3.454258301140082643e-02 -1.113342992865230113e-01 4.752414391913084568e-01
-6.727640105869807374e-02 -1.208430865159270950e-01 5.153911386094037761e-01
-5.687377392168144197e-02 -7.060561512460759859e-02 4.408872069963329920e-01
-1.644468574064412991e-02 -1.262524628430889972e-01 5.092986472697272893e-01
-9.238621640476894770e-02 -1.194963527264649578e-01 5.106585892919437430e-01
-1.191208292521221956e-01 -1.103790267195406127e-01 4.701801832547721216e-01
-5.160053386110320661e-02 -8.214900268343455769e-02 4.457592570574671620e-01
-1.174388131284051784e-01 -1.187422447263774689e-01 4.805709524485563544e-01
-7.030524122041897916e-02 -9.713841796001246309e-02 4.521801224169662570e-01
-6.093255345907259285e-02 -1.091592420461480889e-01 4.682745177039628337e-01
-5.866085310183942469e-02 -9.548808394503810471e-02 4.526295902840298813e-01
-3.066898179329777263e-02 -1.234857083607995426e-01 5.181275295443884543e-01
-2.478459489256228804e-02 -9.743918179496384446e-02 4.564747787940542922e-01
-5.355008510270119204e-02 -9.990274749869278159e-02 4.573620687425566933e-01
-3.209758538644565118e-02 -1.232400481782888052e-01 5.218968463244996192e-01
-1.180428344053542217e-01 -1.135359419945337900e-01 4.724898160254124013e-01
-7.046263064315431979e-02 -9.492869822039332051e-02 4.504596220524726413e-01
-1.697095516765681836e-02 -1.092011240240921000e-01 4.666745345583381832e-01
-2.253837801324541298e-02 -1.228494689699480558e-01 4.977607886005716020e-01
-1.150785756979675750e-01 -1.198122601653568570e-01 4.787378005125996761e-01
-6.784788615364922837e-02 -8.274400729699576962e-02 4.425420239587313787e-01
-1.110259104837358624e-01 -1.127367629296954776e-01 4.648396919092658841e-01
-4.578303220359934700e-02 -8.422338947010937771e-02 4.477577373517790948e-01
-9.670251216084151114e-02 -1.216756605982569073e-01 4.742550886013295885e-01
-8.102337179426798153e-02 -8.495014917352296246e-02 4.427520964914866131e-01
-9.071741030820419660e-02 -9.931419408534591931e-02 4.509364117705902397e-01
-4.002816339524303824e-02 -1.213542653372777225e-01 5.300126482015632412e-01
-5.576478688208341694e-02 -9.576238679459246617e-02 4.534456811803614373e-01
-7.091503966117074231e-02 -1.131947018785774001e-01 4.721574821941836309e-01
-4.596573589911039787e-02 -1.213482300207354841e-01 5.233311537703434491e-01
-4.232749420135910323e-02 -1.210145914991728328e-01 5.031710232579661435e-01
-2.117109760985570049e-02 -1.096373778947272726e-01 5.614022520762590451e-01
-2.832369383085749093e-02 -9.506942261846727804e-02 4.557481698583598084e-01
-7.547787904785402402e-02 -1.214258325775193076e-01 5.113732359466514055e-01
-2.786497199787123930e-02 -1.071227385772233476e-01 5.543714123628336043e-01
-7.062739695645031679e-02 -1.017046187469899804e-01 4.562443692536760631e-01
-5.979115890636383518e-02 -1.179146977049362610e-01 5.264066715408031172e-01
-5.038004017019319380e-02 -5.649703454087617871e-02 4.383179144659170579e-01
-3.801880752398031221e-02 -1.223081455415344770e-01 5.139581222073891231e-01
-6.685354442565108468e-02 -1.217016453668331999e-01 5.064868748447518554e-01
-1.004179291111364225e-01 -1.168992799788391435e-01 4.637424595065566257e-01
-9.968505625072590637e-02 -1.063662062731030172e-01 4.559062139325535945e-01
-7.185232772379364363e-02 -1.218524142523453868e-01 5.024539489022491479e-01
-1.015587209649159023e-01 -1.081127807180449207e-01 4.574755226859250068e-01
-2.822705022239539729e-02 -1.177931275759680207e-01 4.874340706819492164e-01
-4.348092594971531694e-02 -1.185722460198484901e-01 5.356480593399965962e-01
-3.700094885796441357e-02 -1.213560096886922152e-01 5.021523642970939783e-01
-8.159571135258425478e-02 -1.093234813543595835e-01 4.608977886390581147e-01
-9.523006555801222239e-02 -9.238632544494390642e-02 4.474202976529322862e-01
-1.953455083320689012e-02 -1.169119794423324338e-01 4.796804711807878263e-01
-3.978008134747240687e-02 -1.135334255809294368e-01 4.795225736652807269e-01
-2.980686443974887509e-02 -1.210861096910616636e-01 4.963599901878443799e-01
-1.022538190140980519e-01 -1.121781535869152274e-01 4.608928927657006125e-01
-5.256601654429473441e-02 -7.949984209466143259e-02 4.445475318740688131e-01
-6.995437049495621673e-02 -1.213779600809488934e-01 5.105856528464869371e-01
-1.833726472150452869e-02 -1.168621388820565293e-01 5.553705576497733887e-01
-1.042931319536626877e-01 -1.218542204506714577e-01 4.773351508826291223e-01
-6.562889103375653399e-02 -1.191030174706744077e-01 5.211131742597959748e-01
-2.482016414612190497e-02 -1.133541589654721432e-01 5.557240968594759911e-01
-4.348127039271604266e-02 -1.067682134612826239e-01 4.682659291138054902e-01
-2.872175920733362198e-02 -1.233373854025852367e-01 5.082479210983437135e-01
-1.152639033700180032e-01 -1.180481725826632855e-01 4.746323919598836039e-01
-2.494438660491484980e-02 -1.235375436590344239e-01 5.347114170245595988e-01
-3.617404836606441521e-02 -1.008833148650706696e-01 4.621248783434301899e-01
-7.947568609631117109e-02 -1.013564616270064278e-01 4.540581557390309109e-01
-4.683451703260234356e-02 -8.619243726601330535e-02 4.486577549507499985e-01
-5.366575979247269201e-02 -1.129379901799014291e-01 5.338762794920026700e-01
-2.429572676576251949e-02 -1.032337549056947523e-01 5.595913954331722673e-01
-6.402824213754447491e-02 -1.153239175122755117e-01 4.797278024507820593e-01
-1.685015896098677329e-02 -1.213112695592793305e-01 4.888626755843191729e-01
-5.985637389192555169e-02 -8.635787180242263106e-02 4.462319841607586546e-01
-6.948910875564137668e-02 -1.168196245734928335e-01 4.811973810486566694e-01
-3.285108158322642274e-02 -1.213248337261349369e-01 4.999099817906822452e-01
-2.932838575045456850e-02 -9.238784110987909026e-02 4.539393026641884710e-01
-9.660318032820543188e-02 -1.217842421418107585e-01 4.648477092015423362e-01
-8.189131832252387333e-02 -1.184723296403232401e-01 5.166494503110696801e-01
-5.207780135138748157e-02 -1.199281517120271562e-01 5.239612913502593727e-01
-3.672290908819842575e-02 -1.223585631296047194e-01 5.122475194439121138e-01
-7.463293880024648996e-02 -5.702759048525193886e-02 4.376399995007350108e-01
-7.717218862731070605e-02 -7.007782927921436811e-02 4.371430298237254375e-01
-2.489846842132362181e-02 -1.033919445723720382e-01 4.623299058454958255e-01
-6.258518114189341730e-02 -9.878356022532906733e-02 4.547588567859500164e-01
-7.962792843346622185e-02 -1.005907916139010122e-01 4.534500017124458160e-01
-7.867212296913413117e-02 -9.885457773059551367e-02 4.522596493217638791e-01
-7.004199603064580060e-02 -9.067814316627595406e-02 4.472590214008854703e-01
-2.948925462873779046e-02 -1.063829759259252994e-01 5.520718482123418980e-01
-1.812991692315067682e-02 -1.159871730797163852e-01 5.566758263090650916e-01
-5.493317895960284081e-02 -1.063348955352495795e-01 4.654365172474740908e-01
-4.837138386711609811e-02 -1.155871350689109262e-01 4.833920664744063567e-01
-7.907791311182209293e-02 -6.663167549326468042e-02 4.368122364589299700e-01
-3.657555342637595214e-02 -1.147988434663076429e-01 5.429114243406737428e-01
-9.399325677847450433e-02 -1.220705857666134070e-01 5.000615756069559659e-01
-1.046067229975308904e-01 -1.144263977069098492e-01 5.053588582635264448e-01
-2.937090999901660268e-02 -9.044854770321117399e-02 4.524051536669174145e-01
-3.141450329528523017e-02 -8.056080626889811080e-02 4.459015618196235931e-01
-5.142273036859829755e-02 -1.212828745964130150e-01 5.167866561739116182e-01
-4.534504314976627731e-02 -7.067515290222989299e-02 4.422634651213829260e-01
-8.470535826397472545e-02 -1.115054394573421620e-01 4.617646775216312505e-01
-2.139322019417854923e-02 -1.254151621490445512e-01 5.270835268065486856e-01
-9.296380864711191461e-02 -1.228019088290952104e-01 4.921614125421999719e-01
-1.075689867383462922e-01 -1.204333439725232685e-01 4.980565947680948291e-01
-7.964146727311194329e-02 -1.087278231548688412e-01 4.611465938956960664e-01
-3.164660547840519172e-02 -8.125659794251079149e-02 4.463432862147177493e-01
-7.165398082998870877e-02 -1.176562338395134993e-01 4.820725577672604900e-01
-6.457055091610093556e-02 -1.179568146225814240e-01 5.236823826618480782e-01
-9.968016225702350241e-02 -8.114897815021422656e-02 4.529392680647461589e-01
-3.161329683416736619e-02 -1.181320955510532095e-01 5.451386020631752150e-01
-3.635461665707480361e-02 -8.639720073394092925e-02 4.499316476876292770e-01
-8.980834308312533876e-02 -1.174214926450713181e-01 4.617910855389507629e-01
-1.214020929666665902e-02 -1.216113297743120630e-01 5.469443388133621298e-01
-3.295025237887468095e-02 -1.178149619529544195e-01 4.882303420714698694e-01
-2.618112455783645071e-02 -1.097397155558216819e-01 4.719481990074406164e-01
-6.536599364494086184e-02 -1.194047672598377852e-01 5.206518177729192454e-01
-4.529312699470348230e-02 -6.902551581106518286e-02 4.416670022573848664e-01
-4.106633799415068675e-02 -1.203459183549404204e-01 4.987292070946752198e-01
-2.493892371270239189e-02 -1.055451804322898590e-01 4.651754818352938359e-01
-9.581292041590114272e-02 -9.628349103299881084e-02 4.492726847256108269e-01
-2.381765327449846675e-02 -1.238830617805802975e-01 5.037298615175050953e-01
-2.676196813125686358e-02 -1.180161285814028543e-01 4.871577483600483816e-01
-2.212781139640807027e-02 -1.188726367874520518e-01 4.854384634436895163e-01
-5.543278207599144913e-02 -1.170651125380244711e-01 4.868931589469039922e-01
-1.019778430185399737e-01 -9.773690656141985345e-02 4.510237482906958584e-01
-1.177430230950985389e-02 -9.704201359713510167e-02 5.690837452800630025e-01
-6.375819706870511361e-02 -8.413703385944494573e-02 4.441049138797904527e-01
-1.097338422079200543e-01 -1.183945356679663719e-01 4.990194325756927007e-01
-3.460832625883673158e-02 -1.185969058139733634e-01 5.411891117921447947e-01
-5.841031654094418907e-02 -1.164228410802927854e-01 4.841428551837552718e-01
-2.416482819354498143e-02 -1.248137624805535223e-01 5.181334033478088852e-01
-4.001391823194300201e-02 -8.757649391198034372e-02 4.504123145418882368e-01
-2.198228010131262830e-02 -1.248722856042585594e-01 5.080443754212133900e-01
-1.063909402201776988e-01 -9.566740497592733650e-02 4.528255956406105898e-01
-9.996297619043251204e-02 -1.228156976452338678e-01 4.838792365809392315e-01
-5.554109809718744267e-02 -1.059809353895150713e-01 5.355606513383120992e-01
-3.675955094169740950e-02 -9.176836611447579395e-02 4.540321304258307933e-01
-2.253782394940694739e-02 -1.250093543086673586e-01 5.120670734378490740e-01
-2.293900616068177134e-02 -1.205207160336737027e-01 5.465264026575774592e-01
-5.977320657618102884e-02 -6.718275403335816076e-02 4.393062257081680744e-01
-5.071211533759681367e-02 -1.215353658478659366e-01 5.131253412450816898e-01
-3.933072589094043642e-02 -8.151134004048615767e-02 4.468954919869364550e-01
-9.991869301206948717e-02 -9.258733420736665887e-02 4.487899719259962339e-01
-8.138315900458428787e-02 -1.200605906181782812e-01 5.149804048473434204e-01
-1.109551859566189902e-01 -1.027827954568895363e-01 4.562780573007138574e-01
-4.727987103622485060e-02 -1.166722353602305529e-01 4.860535997328144786e-01
-4.454895752557416072e-02 -9.918315113832781860e-02 4.591047421476967538e-01
-5.545130999701900626e-02 -1.187006960308512743e-01 5.264345149983212790e-01
-6.536122564651408728e-02 -1.115051663969431617e-01 4.711666954435082544e-01
-7.280559289778130994e-02 -6.512619921972094550e-02 4.358592208336615204e-01
-1.050090111313632391e-01 -1.226855892243464002e-01 4.929804924408941469e-01
-7.059081045397468113e-02 -1.205181655740878571e-01 5.156037568710527541e-01
-1.577246430122252602e-02 -1.255324906280262109e-01 5.035295602146957483e-01
-3.116029136901026647e-02 -1.108939791965466160e-01 5.487528766774776301e-01
-5.283685214384255951e-02 -1.208558352636239785e-01 5.044963038664922461e-01
-3.466864887448562610e-02 -1.199868641282568066e-01 5.389648118162116974e-01
-6.575549430173822929e-02 -1.062948201726414965e-01 4.623580724122693386e-01
-7.683040317214505366e-02 -1.004612590779105641e-01 4.538280091871501609e-01
-5.881788191273805422e-02 -1.178537402221446762e-01 5.269379285870091634e-01
-6.798222293103541036e-02 -6.641145688608847408e-02 4.370728183385601540e-01
-7.572556950759024019e-02 -1.068178366591539391e-01 4.603653548598372613e-01
-1.107823615841508208e-01 -1.217852930888100454e-01 4.850540056992183602e-01
-8.129937712214166390e-02 -9.441520706919702410e-02 4.487282065001957920e-01
-7.194863306711604678e-02 -8.307913086962086247e-02 4.420548703436539828e-01
-4.357910922254151082e-02 -1.033498697998884441e-01 4.640478251099625084e-01
-1.758143173406931728e-02 -1.257002403055804962e-01 5.306423312780116364e-01
-2.721296876005262558e-02 -1.188251802797160167e-01 5.473376446193545242e-01
-5.945627546274278447e-02 -9.229488060206000877e-02 4.500569517871143566e-01
-7.918266178473568062e-02 -1.196778873313449482e-01 5.163865302439071270e-01
-4.469158059637614450e-02 -1.213863189456491493e-01 5.071054942619004358e-01
-7.888424380986620854e-02 -6.459515292748058135e-02 4.368853393623646220e-01
-6.714277600656567979e-02 -7.984841250624676035e-02 4.411119415831688539e-01
-6.173525476144011565e-02 -8.350692585221607123e-02 4.442322206384879957e-01
-9.766479370597624943e-02 -1.196195794659619394e-01 5.084141409313158722e-01
-5.195065141480816745e-02 -8.136850251035981918e-02 4.453897241191331902e-01
-4.510518948369247882e-02 -1.215684263255866898e-01 5.196162640356841722e-01
-9.715740953361928778e-02 -1.053142662584840572e-01 4.547623074773262108e-01
-6.086928868250966913e-03 -1.251944224792963245e-01 5.338655619452096213e-01
-8.697972847167409483e-02 -1.187562516718696504e-01 5.138070896097269857e-01
-1.217778022573904051e-01 -1.099541793428168435e-01 4.795254211558672708e-01
-8.987296363361481355e-02 -1.179927909715797890e-01 4.655459778020836770e-01
-7.113077971739237282e-02 -1.149380749124858242e-01 5.251140958312056073e-01
-5.182832449082658277e-02 -6.825707430559056765e-02 4.408943135138796987e-01
-4.452349555352697746e-02 -1.216653508046090237e-01 5.179365865110526768e-01
-9.782947465330625592e-02 -8.159121735300682576e-02 4.490976322465604076e-01
-4.512998024889629256e-02 -9.399417219252383104e-02 4.545516770887960689e-01
-6.228560654410008474e-02 -1.192628130970464911e-01 4.927350650255868936e-01
-1.715668015912666031e-02 -1.246102474188777315e-01 5.003862384191777313e-01
-7.283096045334754021e-02 -1.168440078349076566e-01 4.789145693344050714e-01
-3.204021617629303903e-02 -1.203144722790791543e-01 4.951087587058393691e-01
-6.811237062823019550e-02 -9.370968137510583829e-02 4.497833590860508268e-01
-8.105590369153257979e-02 -6.460664681021455191e-02 4.384181676402045813e-01
-8.558201918182201801e-03 -1.254544590758324141e-01 4.980662483231317883e-01
-2.752873438832687675e-02 -1.205888802745688076e-01 4.935917512385568084e-01
-3.397714567238666050e-02 -1.229293129778719768e-01 5.226892535489365832e-01
-1.146923820656964715e-01 -1.163888734104246009e-01 4.714640518010623782e-01
-8.450942567433239461e-02 -1.145318417670544708e-01 4.656857762435639980e-01
-8.102592669670984071e-02 -1.138864299756237458e-01 4.679505331049607086e-01
-7.449532678481174397e-02 -1.122615750446760013e-01 4.686293060779270214e-01
-9.394895959627753979e-02 -1.103055031846428141e-01 4.575833559919438298e-01
-4.987879995047413140e-02 -1.150165453948315958e-01 4.819899417787344986e-01
-1.136964939493520094e-01 -1.205035907017622393e-01 4.805560498997394347e-01
-4.210005602101387495e-02 -1.198575254515693439e-01 4.968061698768144185e-01
-5.120016465536859906e-02 -1.006477699527463243e-01 4.587553358165600836e-01
-8.720984899087644293e-02 -1.126346586580255493e-01 5.183877858241178194e-01
-1.026377155714928158e-01 -1.152248621706905007e-01 4.642056143411263380e-01
-9.988653576995177447e-03 -1.278101887029091666e-01 5.118923969562967358e-01
-6.774684734128355590e-02 -1.177603733415100717e-01 4.845425515207743006e-01
-3.746695071915751712e-02 -1.213067025881408856e-01 5.331210256648946100e-01
-4.155796898375170578e-02 -1.208203563303382605e-01 5.011973586747766607e-01
-6.361911185710353300e-02 -1.031899688789873759e-01 4.591070466792454563e-01
-4.606486610262786052e-02 -1.214654981517075544e-01 5.103834334199978118e-01
-1.020288033212021217e-01 -1.226612812604671449e-01 4.818784106080106211e-01
-9.332964575746292846e-02 -1.211196586297377670e-01 4.762868676548679958e-01
-6.835331747545479730e-02 -1.210510877575936006e-01 5.134281020435976783e-01
-4.892953186283465622e-02 -6.945551483672963988e-02 4.415745480477372698e-01
-3.280329516409222212e-02 -9.072200377801407922e-02 4.531387232161057099e-01
-8.876071724940355623e-02 -7.671956745076945194e-02 4.424196890583471098e-01
-3.458005375465245113e-02 -1.200046121545961242e-01 5.389588257661926951e-01
-9.482427652868274937e-02 -8.024059836870370277e-02 4.466061328018048893e-01
-6.148296244781014525e-02 -1.066281559147780611e-01 5.321703297177517999e-01
-1.100694020077781082e-01 -1.208743381359811686e-01 4.952844621344232867e-01
-9.216222906832743922e-02 -1.209823196575013776e-01 4.803188519213718033e-01
-7.258131635375936197e-02 -1.188043601196609872e-01 5.189096355028648411e-01
-6.388853700581764716e-02 -1.206730935450493342e-01 5.167606648455983498e-01
-1.008186749627664885e-01 -8.659693735301121631e-02 4.498521703567395225e-01
-1.061433106649879443e-01 -1.104302323093875882e-01 4.605609113992710224e-01
-1.099239411245675618e-01 -9.778534645046414731e-02 4.543680346463790376e-01
-6.675050641332300715e-03 -1.284707116979026398e-01 5.133398814672280874e-01
-7.473874877268311956e-02 -5.642877134556031210e-02 4.379032646923642358e-01
-9.188846289035577930e-02 -1.216404044765636155e-01 5.052248863431004766e-01
-6.980880497038496890e-02 -1.025036563780116206e-01 4.572281152412431826e-01
-9.284777766894430906e-02 -1.227113992350705868e-01 4.948492569548063047e-01
-7.186752470994808850e-02 -9.861462307067631050e-02 4.532064929438601175e-01
-2.272929210963885865e-02 -1.093203043678279002e-01 5.601924143791048305e-01
-6.826548671930991741e-02 -1.211796941185643434e-01 5.122082458966029650e-01
-7.727899241142177633e-02 -1.040237564064199483e-01 4.570791237326881640e-01
-4.761442474804508662e-02 -8.804029659903286897e-02 4.495906792567979093e-01
-7.865814983194625853e-02 -1.179533743072798263e-01 4.775335404332697875e-01
-6.006901468551069379e-02 -7.583060454551267260e-02 4.416715219265243686e-01
-1.168790544437487977e-01 -1.189997421571514918e-01 4.795141610523395159e-01
-5.887982915511955767e-02 -9.566027699809490081e-02 4.527220952056040804e-01
-5.301285907471135067e-02 -1.150048032556036520e-01 5.329235569686502361e-01
-9.785237765669488330e-02 -1.227101524790221998e-01 4.944230027852823395e-01
-5.763561124947887832e-02 -1.194545965796232484e-01 4.953970053298138443e-01
-5.249228333063017671e-02 -7.479829423170730740e-02 4.428789297989825235e-01
-8.900456829540920323e-02 -1.128670338733731709e-01 5.172977811597492259e-01
-9.888822411495089976e-03 -1.204968474708487114e-01 5.484426706828797737e-01
-7.612520563775180410e-03 -1.213396888249705652e-01 5.437772895025746456e-01
-6.399821807362680859e-02 -1.136412782905865115e-01 4.760507109852064045e-01
-1.017755181076116927e-01 -1.198003913968457568e-01 5.031995931335357941e-01
-1.869036802504589478e-02 -1.188306316034044297e-01 5.517100760870841114e-01
-2.318587000475521090e-02 -1.166155560747758613e-01 4.814911335334419173e-01
-4.281576872276362383e-02 -1.033745005332326050e-01 4.641656371026743888e-01
-9.295981967987698713e-02 -1.030554434504718508e-01 4.534284341801869678e-01
-3.572593116988122264e-02 -9.753083517769514654e-02 4.590306704727160625e-01
-1.318663091112897215e-02 -1.273017542232856569e-01 5.229181947942328490e-01
-4.888503958678672850e-02 -1.173112335727553718e-01 4.876837517059616212e-01
-3.819382387595432471e-02 -1.197637698132345413e-01 4.951898596279749043e-01
-8.696930676088718282e-02 -9.720859422994178323e-02 4.498604415072016693e-01
-4.952876027460354630e-02 -9.033282391091572439e-02 4.507583815586533871e-01
-1.013424664093213745e-01 -1.208897654642620695e-01 4.676512048930304144e-01
-4.704475621781874228e-02 -1.211849420815065137e-01 5.232031422297512835e-01
-1.195166456068391947e-01 -1.093729621311485545e-01 4.698340905425522629e-01
-8.520857795911311594e-02 -1.162329542640920671e-01 4.672249685961286092e-01
-2.250829709391095543e-02 -1.176328535347468812e-01 4.828976792534347973e-01
-3.230558211588421130e-02 -1.144274089752617546e-01 4.811450504922037408e-01
-6.691606674621179696e-02 -1.198310270069143646e-01 4.921529986695980519e-01
-5.065772401928700375e-02 -1.063107307209361779e-01 4.665537523336857895e-01
-4.173260325393028658e-02 -1.198349306312710694e-01 5.355985348796640233e-01
-4.241465929673608748e-02 -1.218600630497438109e-01 5.217360828954673568e-01
-6.468824840956091671e-02 -1.212832309176482687e-01 5.034066510064117983e-01
-4.660161502850072163e-02 -8.064111577343271997e-02 4.459429567092538238e-01
-6.870207172620537706e-02 -1.101974942701952759e-01 4.677485126992022568e-01
-1.749251095921283347e-02 -1.147264200219131891e-01 4.750652608670429822e-01
-7.771312395713794730e-02 -7.899467709306884355e-02 4.396024125073897393e-01
-9.710719952520062426e-03 -1.274742261946371635e-01 5.259194422513191469e-01
-6.524080760628309106e-02 -1.121298561520167325e-01 4.725503288801801705e-01
-5.487442072691002537e-02 -1.111215907685468574e-01 4.734322350986089889e-01
-5.123828950143392846e-02 -1.189366773538835798e-01 4.942406865939591998e-01
-5.036838094613545896e-02 -1.051424038981529641e-01 4.650338903726405904e-01
-8.397409847835390906e-02 -1.110028637081551806e-01 5.205164562398912897e-01
-5.583221988110358830e-02 -7.998877090284894908e-02 4.440894451860410985e-01
-5.674969851061795884e-02 -7.467184378970946612e-02 4.421651346341023414e-01
-7.587783889959741346e-02 -1.165443355757519173e-01 5.222477648182153320e-01
-1.017465372217260244e-01 -1.074020031181520257e-01 4.569428365200680631e-01
-1.178349261962562677e-01 -1.162341226403325600e-01 4.761982044891573951e-01
-1.133401308564073728e-01 -1.117804972101748423e-01 4.650659913110032351e-01
-1.303244506078574984e-02 -1.252828441675555848e-01 5.332643812645566639e-01
-1.001299590433793463e-01 -1.209300124084779632e-01 5.025053389882473409e-01
-1.132581603194534742e-01 -1.186868890582986058e-01 4.741666110367620535e-01
-4.720981713313361638e-02 -1.128099653282290254e-01 4.779466245005003500e-01
-3.098747731092820271e-02 -1.181200653013121521e-01 5.456745217396861136e-01
-5.672800576928196947e-02 -1.211351810392556905e-01 5.146144134580581397e-01
-6.454476588816807081e-02 -1.213544638483872451e-01 5.116548274044488975e-01
-6.917638123318578525e-02 -1.212924111598962101e-01 5.112288930735672254e-01
-9.842574418653426971e-02 -1.187543882218612956e-01 5.086070841515780705e-01
-1.082213159013938331e-01 -1.164345330238549386e-01 5.013523228780630836e-01
-5.002164463590508259e-02 -1.056037263567600470e-01 4.657355706807698725e-01
-1.312198328309768097e-02 -1.239879058998922812e-01 4.949925076405674029e-01
-7.278187443210283603e-02 -6.032941044499937067e-02 4.362496514783326673e-01
-1.852403525953543600e-02 -1.194345176292941346e-01 5.506181491188613109e-01
-7.032213146584609387e-02 -9.870839399070389930e-02 4.534781657969328972e-01
-7.963041939665903290e-02 -1.218160705749657957e-01 5.074152806715321873e-01
-5.356114669819519308e-02 -7.779144652710653918e-02 4.437374367548265197e-01
-6.837673969729472778e-02 -1.207118969387743213e-01 5.155946115042734368e-01
-3.220208414377177808e-02 -1.232017207749426663e-01 5.233100366980125706e-01
-4.169970385226551973e-02 -1.090526267168443614e-01 4.718094320130179486e-01
-4.141631427267231103e-02 -1.219000432184642324e-01 5.117863840633062322e-01
-7.487505872324143330e-02 -8.155175254097803139e-02 4.406699873641609644e-01
-7.965248873061875345e-02 -7.105483298107670431e-02 4.373929857977076341e-01
-3.327000215750668122e-02 -1.185985174676001674e-01 5.429400604442820022e-01
-5.553127034994259636e-02 -1.165873332281073399e-01 4.853627409435000151e-01
-1.207289808364494510e-01 -1.138925520222548587e-01 4.847785906469668227e-01
-4.970647874221104795e-02 -7.799061800367666775e-02 4.445296728514473994e-01
-8.352910856289030850e-02 -1.143666138252183578e-01 5.198115708411416014e-01
-1.014837369395631961e-01 -9.198940337637863396e-02 4.491373210826639650e-01
-6.741448781461382989e-02 -1.179512937797962263e-01 4.852459580222210356e-01
-3.497281351816510647e-02 -1.010653907130532325e-01 4.622977149406734543e-01
-6.827653369505341796e-02 -1.214216861386452490e-01 5.016595795354130694e-01
-9.668653322458072019e-02 -1.212958427769874475e-01 5.044553235393310908e-01
-5.376239932423568235e-02 -8.816797542984927682e-02 4.484898777431846062e-01
-3.717704133235422842e-02 -1.019137177729392690e-01 4.629464511024919959e-01
-2.181401010875695656e-02 -1.253634407585025867e-01 5.256172042120840215e-01
-7.994528602325084998e-02 -6.905043801609590803e-02 4.371756251268714699e-01
-3.668474052380660266e-02 -8.481097579701767086e-02 4.489490243679375436e-01
-2.559101691930178168e-02 -1.016853862807948622e-01 4.606060395292492227e-01
-1.030699461947692241e-01 -1.193194112423593550e-01 4.686138440646129832e-01
-1.166092672478407158e-02 -1.170540022367893840e-01 4.774738671508965138e-01
-4.048465432031176509e-02 -8.236990234246920062e-02 4.473178786835599885e-01
-8.181806980767714066e-02 -1.217299182353911852e-01 4.928681457412413813e-01
-3.862446354091268741e-02 -9.024765246218639791e-02 4.526140706085137744e-01
-7.026678792214950675e-02 -1.211123914011639907e-01 5.131975975230674836e-01
-7.170887444286863643e-02 -6.797551173967289473e-02 4.366517833149277661e-01
-3.997343628728792370e-02 -1.058946137513943342e-01 4.671775491915988732e-01
-9.072213449867841395e-02 -1.128940382793713337e-01 5.160875404434429603e-01
-7.783416297889597657e-02 -1.198927809312042708e-01 5.159144104575847933e-01
-4.252350312857904047e-02 -1.097559558387047329e-01 4.730651970668623418e-01
-1.698803271843882245e-02 -1.009559309614717210e-01 5.650776689148241383e-01
-1.020902277244713358e-01 -1.190599604164440106e-01 4.671783711829484709e-01
-8.160457960949522860e-02 -1.192190752699213707e-01 4.836160253174382473e-01
-1.657195906274611108e-02 -1.129538868354953013e-01 5.603839057524154788e-01
-2.567522070017018779e-02 -1.209060887139817853e-01 4.936690698135869360e-01
-8.908040379263101882e-02 -1.110947934666646209e-01 5.178476312800271986e-01
-9.922751904361833131e-02 -1.203373427657839084e-01 5.065222834230749260e-01
-9.647266585746645806e-02 -9.202194456497232722e-02 4.477004577405857555e-01
-6.903019669788185153e-02 -1.046290460059202954e-01 4.595771629070744546e-01
-4.093666475114694780e-02 -1.217855311027394166e-01 5.260824128721706128e-01
-5.670525645228734202e-02 -1.208023262684375376e-01 5.037838350566602452e-01
-3.411211348739816296e-02 -1.087007721132332155e-01 4.710942947968427275e-01
-3.231758954211737256e-02 -1.050333975039216133e-01 4.661462944773728800e-01
-6.263880364440439774e-02 -1.082678997527332515e-01 5.311416960580683799e-01
-4.319866383555624051e-02 -9.393617573219523176e-02 4.550102047490995338e-01
-4.463170920822207358e-03 -1.258905382295820441e-01 4.980539753639537937e-01
-4.157711663320335510e-02 -1.219333393646242630e-01 5.224804332291625997e-01
-6.394295746654546364e-02 -1.201939995236274150e-01 5.190390573088566883e-01
-3.961023643659176974e-02 -9.669281626047161737e-02 4.577696141106347150e-01
-9.709281342720889330e-02 -1.046494869782009368e-01 4.543115526493303191e-01
-4.491084306924875841e-02 -5.879378579596903492e-02 4.390903224615351208e-01
-9.337039303906179144e-02 -9.649374190129975104e-02 4.491621925659359249e-01
-3.765206255665960733e-02 -1.224454402613684573e-01 5.166328416834939929e-01
-2.387786936893630807e-02 -1.162205091510914584e-01 5.539534563852014371e-01
-1.013814133165676368e-01 -9.456302490748748346e-02 4.495198479503697553e-01
-6.117775120981969184e-02 -1.205881801165566564e-01 5.177958910013226168e-01
-1.005158077018928897e-01 -1.199597706712794837e-01 5.039616083885501974e-01
-2.263663008361061282e-02 -9.826874798917129006e-02 5.617771789235603830e-01
-2.428799735647711039e-02 -1.154912001141358557e-01 4.804010491910945535e-01
-4.681441701351632401e-02 -9.629552653472298052e-02 4.560557111502057670e-01
-3.364610965619446031e-02 -1.087876252504860891e-01 4.711791564370352292e-01
-3.073877733112823432e-02 -1.137037070013201118e-01 5.489498606351175258e-01
-3.341725909250387472e-03 -1.289728941873026224e-01 5.230143782057138369e-01
-6.201049741962177952e-02 -1.204432820104153756e-01 4.985611778530255611e-01
-9.530757593744181022e-02 -8.109199367221300858e-02 4.465946860846107258e-01
-9.215899551037538828e-02 -1.209177230818798132e-01 4.678144649225212670e-01
-5.583242956411381408e-02 -1.189073275609303787e-01 4.934556139483209369e-01
-8.577739513752216660e-02 -1.218484846180510339e-01 5.064881789092127162e-01
-7.949417139160862289e-02 -7.150298919537631526e-02 4.374791131285095114e-01
-2.313984294706562458e-02 -1.013269533221207580e-01 4.593121578953044959e-01
-8.011713147545800051e-02 -1.161272272757659929e-01 5.205370114901949341e-01
-8.710114073861842388e-02 -9.132552786687847535e-02 4.465117420065355391e-01
-1.125362626885507422e-01 -1.110615569501741257e-01 4.638918938010214155e-01
-4.175209748593744497e-02 -1.113862944600237104e-01 5.410119937435504678e-01
-1.850943044630668638e-02 -1.131692623390431335e-01 5.594695516452757866e-01
-1.097940280570764149e-01 -1.191776987244234365e-01 4.984362186177637155e-01
-1.077896817898288256e-01 -1.096830234655281067e-01 4.604300678011889469e-01
-2.508644305772432526e-02 -1.214298189463977329e-01 4.949476971485906596e-01
-3.330804253022733724e-02 -1.229207192917072672e-01 5.145647513730909894e-01
-5.388236309985236505e-02 -8.199770818031125452e-02 4.452484182468063323e-01
-9.098543286732047042e-02 -8.217206549034537788e-02 4.437476973742262021e-01
-2.307107278709845735e-02 -1.095070425225548871e-01 4.699590105229796144e-01
-7.125100118680231798e-02 -1.151658918596366321e-01 4.761942146545680710e-01
-6.700063707460275630e-02 -1.000047771751856052e-01 4.552574486166874879e-01
-6.892531488469945400e-02 -6.733745780046306029e-02 4.370865544467532060e-01
-1.049812720813674133e-01 -1.114566306125393119e-01 4.611188726742647126e-01
-3.519042122262810296e-02 -1.215242388312171573e-01 5.338899546193576207e-01
-1.255320764550958007e-02 -1.098308093000148755e-01 5.630971623539986481e-01
-8.067943072823083317e-02 -7.828538097747941849e-02 4.395676246233090056e-01
-9.010783901571681187e-02 -7.799323434938108812e-02 4.436686513257014353e-01
-5.895526423427507184e-02 -6.120896908091604666e-02 4.381607212842667520e-01
-9.987711727156185770e-03 -1.274856561775029040e-01 5.255557731740422289e-01
-4.588280633990571289e-02 -1.211839179672214717e-01 5.061312830935948970e-01
