-3.451526320290718153e-02 -1.186870134663469134e-01 4.900968390502988825e-01
-8.049036105118732853e-02 -1.224314501050043080e-01 4.936678711093137606e-01
-3.032825684223921028e-02 -1.231560378906419867e-01 5.302953610862495282e-01
-1.037923161651116560e-01 -1.239415339305095926e-01 4.875465331377747402e-01
-4.630639043083132483e-02 -1.180053102136099374e-01 5.344309712268294765e-01
-5.051706053560688081e-02 -1.191442799712879169e-01 4.933628761353186509e-01
-4.178246522180537048e-02 -8.128579510750044701e-02 4.465394793283029018e-01
-7.888856951291466080e-02 -1.128764240845497452e-01 5.245361908160532938e-01
-7.122617464035710388e-02 -1.072114436398415721e-01 4.610701198155564007e-01
-7.813318184264562982e-02 -1.224997674879354514e-01 5.063170308913809148e-01
-2.689571300755955185e-02 -1.241218861958995612e-01 5.280519057255431692e-01
-1.165282019749199621e-02 -1.276154798336382734e-01 5.137858943778548237e-01
-2.029116890559563152e-02 -1.163136036165446363e-01 4.789066622895749581e-01
-5.229558649245762830e-02 -9.149524026985109137e-02 4.503264823306370457e-01
-5.690014632825431823e-02 -1.184401756364316660e-01 5.271394832054316915e-01
-1.034037339299384156e-01 -9.742463560940078926e-02 4.507516489968187989e-01
-1.920858635136892673e-02 -1.176753242634292207e-01 4.808175417964815068e-01
-1.014545738913866096e-01 -1.223086260146392656e-01 4.726402972033049710e-01
-5.171039907908310529e-02 -1.113167494176253991e-01 5.358289458046591180e-01
-6.415715890277298716e-02 -1.215611117312179468e-01 5.141926067761638519e-01
-5.494792611067036980e-02 -1.113809881931094314e-01 4.727514330222737371e-01
-8.229732934065205063e-02 -1.102777293938730641e-01 5.235696526658106809e-01
-3.734146633656974107e-02 -1.137284867959826029e-01 4.792066064970094130e-01
-6.663414112561724667e-02 -1.154239660617642493e-01 5.261752632818776920e-01
-1.151742815946555365e-01 -1.002263619085707463e-01 4.617159818033279572e-01
-5.888553985410933944e-02 -1.205048952423222047e-01 5.208449712458295133e-01
-1.075717061156859500e-01 -1.234316114859659030e-01 4.864657994968865640e-01
-3.531810059062261836e-02 -1.210051549133502047e-01 4.983837857591916776e-01
-1.033393333369006239e-01 -1.165692969985469007e-01 4.645520986537470254e-01
-2.945780048834576240e-02 -1.164047974419235992e-01 4.843333523734052459e-01
-2.406403528640600059e-02 -1.196745989280023903e-01 5.476645702993373499e-01
-8.339059489210666476e-02 -1.228904793153035441e-01 4.963792294109213854e-01
-9.591352552536965004e-02 -1.223609685829611798e-01 4.782783067065978777e-01
-9.113797660551618829e-02 -1.231480350576685534e-01 4.984548197196533859e-01
-6.158679013613967135e-02 -1.133665402876429390e-01 4.747457936821555258e-01
-4.734737891754124683e-02 -9.238615190615927231e-02 4.521845956182021786e-01
-4.669646201689739429e-02 -1.183822455309345850e-01 5.339366915998478014e-01
-8.313265929911500818e-02 -7.531888695895797015e-02 4.383780477430760381e-01
-7.034333275466646274e-02 -1.193461456638496981e-01 5.188341307217134712e-01
-8.774229475685418889e-02 -1.161347982277712992e-01 5.157816090054652136e-01
-2.687444417302664243e-02 -1.240673658855906691e-01 5.112019313133524534e-01
-7.242274633736893452e-02 -9.995119058793407174e-02 4.534687315222467596e-01
-9.831226854473454346e-02 -1.225418840565938999e-01 4.753218627196020840e-01
-5.946944162361905706e-02 -1.026105511975083373e-01 4.584198016289287581e-01
-1.182180929497453487e-01 -1.168702211854084627e-01 4.772596942608247073e-01
-8.843542698646537914e-02 -9.723051093776301224e-02 4.489782897232454384e-01
-5.856550296483916708e-03 -1.240802926633223224e-01 5.359457638920405165e-01
-3.561598982381519729e-02 -1.205089789132110789e-01 5.372571880836076730e-01
-4.070775090065267138e-02 -1.196892153303963646e-01 4.941902407367982364e-01
-5.859548741836048680e-02 -9.780400083373223807e-02 4.539498928601634620e-01
-2.091354527868086177e-02 -1.108546806351320829e-01 4.706568485111123357e-01
-7.297227203361314474e-02 -1.222644634610854236e-01 5.078997650972301159e-01
-7.928543074852609229e-02 -1.168824145598785780e-01 4.721859173565727819e-01
-4.187695965773101381e-02 -9.646452390889118100e-02 4.568587376742184736e-01
-5.423966106958295202e-02 -1.212605330313048374e-01 5.041929031635130620e-01
-4.558972324332132703e-02 -1.204522448773810150e-01 5.315448192244569547e-01
-9.741022410761776551e-02 -1.223122044126961072e-01 4.758147028313215454e-01
-6.564531423964097001e-02 -1.136299926047476677e-01 5.280026388366102497e-01
-4.093184482749923081e-02 -1.168998918199948833e-01 5.382991223094459876e-01
-6.257079973147343377e-02 -1.184548346423950904e-01 5.243607729429546893e-01
-2.662042379336252568e-02 -1.157434246387036708e-01 4.816927880959478436e-01
-4.770588341755662570e-02 -1.215034523651058601e-01 5.068682261668213673e-01
-3.651196224671015428e-02 -1.113148712770487408e-01 5.433134730842162918e-01
-8.295734489866567196e-02 -8.290395389043254959e-02 4.414352951930336499e-01
-4.704200611435500889e-02 -7.284413748380173803e-02 4.426743134024757054e-01
-8.061932443905597823e-02 -9.021216842894864973e-02 4.454428354260317469e-01
-5.657489722763914264e-02 -6.147858491960693506e-02 4.383417606422300161e-01
-4.196483117558983539e-02 -7.793238476180078256e-02 4.450632344900989357e-01
-5.892810408705873026e-02 -8.210235191233335172e-02 4.438836106328991615e-01
-7.950399465387301967e-02 -1.146104534316980256e-01 5.229956656693962591e-01
-1.089441995303556815e-01 -1.202089645125850315e-01 4.726576636238749574e-01
-7.236925175617878181e-02 -1.205505799817388202e-01 4.884068085431161887e-01
-8.190093817376058183e-02 -1.143283150102455126e-01 5.210777375567072767e-01
-6.882533241520032152e-02 -1.165796663995402466e-01 4.785702175986871199e-01
-5.605068667076362060e-02 -1.213746898833985288e-01 5.056080770128570379e-01
-1.041948777893084849e-01 -1.237073785171307339e-01 4.920484186121540926e-01
-8.587116095122504511e-02 -1.073680261583007806e-01 4.566700961987182894e-01
-2.778805975890178206e-02 -9.652749574450239511e-02 4.565443885553756576e-01
-2.622391377880491439e-02 -1.217162498916335156e-01 4.959020233486868823e-01
-4.905879718094834085e-02 -1.201426039202170559e-01 5.277970786722847585e-01
-6.773274319301192392e-02 -7.991327318899578425e-02 4.405585553755172468e-01
-3.806164615379065835e-02 -1.175922786262316583e-01 4.874432280081011370e-01
-7.468057579822266756e-02 -1.223226678116064448e-01 4.965848206272313603e-01
-8.293188085832464695e-02 -7.170502577612485051e-02 4.381702983615671787e-01
-5.456727430262776901e-02 -1.196981892728417318e-01 5.245425455919950908e-01
-4.563360329159452805e-02 -1.210163013113759733e-01 5.025713324593530373e-01
-1.058486398013111229e-01 -9.431735696309521966e-02 4.527458685696393870e-01
-3.862015647179271177e-02 -1.224562598220045734e-01 5.127991558726961996e-01
-7.177844980892121932e-03 -9.632571871597421509e-02 5.700548618997479666e-01
-3.447980492652224366e-02 -1.167499486155858524e-01 5.434036622443982889e-01
-6.814831323894225690e-02 -1.093528521385882107e-01 4.651327903792623064e-01
-1.040891633052413306e-01 -1.228151891845427890e-01 4.771597612820466239e-01
-7.864469180501634793e-02 -1.222071465814009439e-01 4.929260815267194618e-01
-8.408923192048672890e-02 -6.854951318053086051e-02 4.390284738840934953e-01
-4.139870532297520306e-02 -1.191783949645180279e-01 5.362172132361083809e-01
-4.524505179404822441e-02 -8.526701478482073826e-02 4.480757753080825689e-01
-1.164860833448900894e-02 -1.239617611995173785e-01 5.388146786398545496e-01
-2.063143023743468224e-02 -1.118608436529352906e-01 4.720978566590227077e-01
-6.468580242860531848e-02 -1.140684995533193385e-01 5.282309894091499203e-01
-3.685999463339071497e-02 -1.226471249585326107e-01 5.245347907949018396e-01
-2.266439031254338307e-02 -1.142434997052291373e-01 5.562479108694783347e-01
-3.473329025918701213e-02 -8.547767158126526321e-02 4.492189158557989836e-01
-9.064449032895668945e-02 -1.196051069963243868e-01 4.647711790561392387e-01
-5.932251503901663642e-02 -1.212420528255231944e-01 5.014847916283039497e-01
-8.741840909806641857e-02 -7.774331831896462430e-02 4.416275632043464849e-01
-6.713598153320733675e-02 -9.083817381677961045e-02 4.471098676019975571e-01
-6.611548958127982933e-02 -1.014253031997062182e-01 4.559304255834830122e-01
-9.882419108519062412e-02 -8.568614536814181393e-02 4.485645768923123833e-01
-4.464294071294198224e-02 -1.191321151798275246e-01 5.345372804256141031e-01
-6.160370334873571663e-02 -1.095546821429998624e-01 4.675934533266875581e-01
-3.894367877193741917e-02 -9.789830360660467523e-02 4.584920477190045363e-01
-1.026715231350714963e-01 -9.861981060706698221e-02 4.510311515162774287e-01
-7.616325939921420041e-02 -5.953359886684982116e-02 4.368685948823003429e-01
-4.300222242365761560e-02 -9.747139320276865249e-02 4.575077183765878241e-01
-6.062619393431595283e-02 -1.182387149768480000e-01 4.873694385906265358e-01
-9.782831733052978207e-03 -1.204986002360296377e-01 5.488466110108812801e-01
-2.465017608019950957e-02 -1.129610784671530171e-01 4.758199162359613710e-01
-2.538979761297977672e-02 -1.185028730883657261e-01 5.491957318135392008e-01
-2.273177928903117456e-02 -1.245490699465703205e-01 5.323821676618917254e-01
-3.738527159778168990e-02 -1.117367559011455541e-01 5.425152265422784614e-01
-2.761801136556893410e-02 -1.242182401898343086e-01 5.194218982975508103e-01
-9.190766445304886234e-02 -1.234876465938302414e-01 4.949036657331948308e-01
-1.071490329211500780e-01 -1.231737093463279864e-01 4.819491335635405216e-01
-3.176690131961552171e-02 -1.171271520169182567e-01 4.861224435396110377e-01
-1.108992100238996165e-01 -1.115986833134124528e-01 4.623106106065058007e-01
-7.473294712487180136e-02 -8.669084651314566681e-02 4.436227088643476257e-01
-2.397329675418800529e-02 -9.904536463611540720e-02 4.574827806322171453e-01
-1.085493900882460033e-01 -1.147489292915173792e-01 5.023925859709178487e-01
-4.593005250524298533e-02 -1.171554983737448236e-01 4.864706138105144295e-01
-7.616058803646537367e-02 -7.449513158813654556e-02 4.377184839831654850e-01
-3.986115561763891452e-02 -1.126695355873615911e-01 4.771911054854289791e-01
-3.643047424049383753e-02 -7.713992810781622467e-02 4.445929628701834058e-01
-8.529396101001922303e-02 -1.205890857209395983e-01 4.768807097162215958e-01
-2.729686132775540827e-02 -1.030150018624743924e-01 5.533593271312466921e-01
-2.908130783940994848e-02 -1.221721248887571026e-01 5.371670936843374600e-01
-2.254055964745552837e-02 -9.788371287554850642e-02 4.560017925444882492e-01
-2.093731180332404629e-02 -1.251316932674277072e-01 5.307942243232421919e-01
-5.992047723260691960e-02 -9.464438643621858605e-02 4.511127160996490915e-01
-7.079982574114505878e-02 -1.180297014820218399e-01 5.216978950454197461e-01
-6.971856863502234880e-02 -1.203114914922034373e-01 5.169344596638489886e-01
-3.129809336246831136e-02 -1.214470324785474481e-01 4.982318053927211610e-01
-4.754192984718561693e-02 -1.155981629847238346e-01 4.824693742060150448e-01
-1.813607821559373029e-02 -1.252571136577556865e-01 5.327723476408463554e-01
-2.857698021020210061e-02 -1.055818030674641750e-01 5.525515657672389613e-01
-2.512701952944011025e-02 -1.185469733496910816e-01 5.492969622279727515e-01
-6.261290919997375415e-02 -1.217875298220366526e-01 5.044642467363341654e-01
-3.276552889181077316e-02 -1.155463925407339970e-01 5.455206181517081587e-01
-6.032574654712592917e-03 -1.210997161009002704e-01 5.428265897387087868e-01
-8.828687296026137277e-02 -7.192808542788588222e-02 4.433176177113501981e-01
-1.042262129313127617e-01 -1.212144140078154214e-01 4.722454601484507575e-01
-1.167165920508642513e-01 -1.023387089018188284e-01 4.642739945995845163e-01
-5.697275294821791541e-02 -1.193152940060085432e-01 4.927766768745813764e-01
-7.920438648287707328e-02 -8.162308342452917476e-02 4.405219222667686174e-01
-1.000323918381174348e-01 -1.208564899483558081e-01 5.036877381118533004e-01
-4.708318001622645993e-02 -1.215661120695368941e-01 5.216658218740269914e-01
-1.728081936477866148e-02 -1.231951456977539022e-01 5.427595675975424028e-01
-1.196395546588629732e-01 -1.158239018900907580e-01 4.893042844504377764e-01
-3.301841935654497434e-02 -9.371870639287525895e-02 4.553853628644676244e-01
-4.735661831142262690e-02 -1.155322623869708409e-01 4.823476150645864546e-01
-4.798359696304451555e-02 -1.009433383913861948e-01 4.595112047081519879e-01
-8.625668153610012434e-02 -1.209489645781304384e-01 4.820292267263951436e-01
-7.372928611715219571e-02 -6.009609623156102892e-02 4.363175060094708346e-01
-1.209057169729280817e-01 -1.138010011504651947e-01 4.861516096625961292e-01
-9.426199165987428352e-02 -1.026082636830648182e-01 4.522316554571104708e-01
-5.345446537415771832e-02 -1.148104882713866237e-01 4.799487884376799629e-01
-6.851261165093537608e-02 -9.474096075915069970e-02 4.498640808179376060e-01
-5.139590304922702496e-02 -6.740258404327362229e-02 4.404901979661904887e-01
-4.348541898614040335e-02 -8.559715529561878755e-02 4.485580426695716105e-01
-1.023579053305519876e-01 -8.579519298986640341e-02 4.532929650753674822e-01
-1.186884830743514113e-01 -1.177556134000897758e-01 4.801094441232069965e-01
-1.068981440434064040e-01 -9.412270610928176462e-02 4.539947482453348671e-01
-8.548433477611093456e-02 -1.021745402208175807e-01 4.526840551575311844e-01
-2.750028710732070267e-02 -1.239680194452226492e-01 5.115980355996876394e-01
-3.526646958800565973e-02 -1.199768502979030871e-01 5.390790915338427025e-01
-3.003724109334449111e-02 -1.004319263010666902e-01 4.605690373088264233e-01
-8.982805538245097754e-02 -1.129593274353561938e-01 5.167571061135807220e-01
-6.843894908269572419e-02 -7.120653435606932868e-02 4.378709204720573345e-01
-8.880299160578458695e-02 -1.229514620940723030e-01 4.911541709473379869e-01
-6.277457806725939005e-02 -1.158709947663340567e-01 5.275995214782909226e-01
-4.078530344387968493e-02 -1.083100499727490951e-01 5.414960861279698445e-01
-6.799031705615747601e-02 -1.203929603479764188e-01 4.908047392748101090e-01
-5.054809489061632549e-02 -1.197004342617979389e-01 5.282589367447171336e-01
-4.692644951062198422e-02 -1.175124822781704464e-01 4.873317378856538706e-01
-4.116712081553026287e-02 -1.167275236365749730e-01 4.853475673471879248e-01
-9.830443937627401929e-02 -1.235293911870170291e-01 4.815832659160497187e-01
-2.148461063812937347e-02 -1.252026390670136213e-01 5.100490399043796641e-01
-7.553907599898860084e-03 -1.194968142198789829e-01 5.499894182670307385e-01
-7.537088892029365772e-02 -1.221817670213186796e-01 4.947634942779332023e-01
-4.247644067519394662e-02 -1.220185325504877377e-01 5.100992338163471418e-01
-1.040701766270502454e-01 -1.177703681475854997e-01 5.032528916172278599e-01
-7.676654571629965007e-02 -7.754726190340055503e-02 4.385233289531439982e-01
-3.191325427106391638e-02 -1.199126621558993244e-01 4.928269130043983481e-01
-1.121431897701350711e-01 -1.119033201555177659e-01 4.632570612795422482e-01
-1.185175436422489237e-02 -1.237869770098057182e-01 5.395520688443035118e-01
-6.941701553856964579e-02 -1.003314900694691897e-01 4.542962189953886898e-01
-5.702447533046178102e-02 -1.093048102057403576e-01 5.335495184267959878e-01
-7.730632061511849562e-02 -9.009290547205603406e-02 4.455984167424920650e-01
-1.053885888609279176e-01 -1.187290769681638436e-01 5.016615347227860733e-01
-4.742219966946033954e-02 -1.212485571276924329e-01 5.046547896473381201e-01
-6.494654102488831016e-02 -1.204433557465639931e-01 5.194741645758421678e-01
-1.013850436472643751e-01 -1.081878781926249450e-01 4.565001694898114248e-01
-1.068369296607194902e-01 -1.045362900242745724e-01 4.548571439956521911e-01
-1.153372143743055800e-01 -1.218059066497841902e-01 4.858890119226148552e-01
-9.612440885647688740e-03 -1.148420796610088307e-01 5.585396038466667878e-01
-1.877093864201625356e-02 -1.223566597597999100e-01 4.928572951287979453e-01
-5.050536234930372292e-02 -9.559772869884769486e-02 4.539833831115873131e-01
-4.212435789322564045e-02 -1.067995332900589095e-01 4.676803271867319145e-01
-8.624084873607378021e-02 -9.199154223360506144e-02 4.462508681352481132e-01
-1.739349847751948605e-02 -1.245989237247216996e-01 5.001128738591887890e-01
-9.091128645854915091e-02 -1.200411897858821575e-01 4.651761407970397832e-01
-2.545602249492739250e-02 -1.178237515803823021e-01 5.502392215587594837e-01
-6.844452114877451476e-02 -9.659395515914220853e-02 4.512969621589404401e-01
-5.009703416420686201e-02 -8.936126233127177076e-02 4.495246319863869799e-01
-5.875948338048194233e-03 -1.288394955108713713e-01 5.191661212626923483e-01
-9.719383316284442575e-02 -8.450962544170628754e-02 4.474359681770275210e-01
-5.361383166978099524e-02 -1.152876953189133358e-01 4.808742024965224071e-01
-3.980647798082662114e-02 -9.822871961931284313e-02 4.586458510473376271e-01
-1.005292434170178828e-01 -1.215094930414375302e-01 4.666933688787578416e-01
-7.667338292033086533e-02 -1.227495121384664101e-01 5.000081658536013052e-01
-2.326679466808273880e-02 -1.114096641254494896e-01 4.728259320593170001e-01
-4.972345589722478726e-02 -6.058226165413195530e-02 4.389505910397601407e-01
-5.897017224545988284e-02 -6.100513096467548302e-02 4.379381779262445651e-01
-7.959046264519081815e-02 -9.397408051749114866e-02 4.478794137087117044e-01
-2.967954736952597289e-02 -1.130807178978752020e-01 5.498070992499752840e-01
-4.893034075608275468e-02 -1.213213479351405860e-01 5.217427599315184183e-01
-9.407913723721099408e-02 -9.763146068682269918e-02 4.490812252246504377e-01
-9.220023128181660532e-03 -1.210804146765405015e-01 5.466763250837195498e-01
-7.080484608916788603e-02 -8.970793179531262596e-02 4.458882443467179213e-01
-5.722433219608084876e-02 -1.213930315416202055e-01 5.057733646012139150e-01
-1.094920731851703119e-02 -1.202827189376222961e-01 4.841328268396198897e-01
-8.646952427944587516e-02 -9.275803208088678753e-02 4.466501549836436880e-01
-1.185204802985419248e-01 -1.094218052503160704e-01 4.679392267809285300e-01
-2.061711640378162749e-02 -1.083380259084706088e-01 4.668392550143273256e-01
-3.764886688179863022e-02 -1.223726988779202662e-01 5.257825636416737503e-01
-6.097607556636466808e-02 -1.211412441242849664e-01 4.998074891326442781e-01
-6.186451273732289369e-02 -6.305854324069817829e-02 4.376826272263484308e-01
-8.516242292368457478e-02 -1.203848256364256769e-01 4.810928942754542637e-01
-4.659174367709738307e-02 -7.963949401121914184e-02 4.452448480377594331e-01
-6.027972266265736040e-02 -1.188995405786617832e-01 4.900014468492203679e-01
-6.560736104451153627e-02 -1.203436637294898470e-01 4.925219733875021433e-01
-5.486677091024778907e-02 -1.167301170824426859e-01 5.307641705209029670e-01
-1.086088232344472604e-01 -1.184969156027718407e-01 4.998260830489511530e-01
-7.587357100065228455e-02 -7.379371048823292478e-02 4.375766037169707690e-01
-6.855609103602956778e-02 -7.584949530498567849e-02 4.391282914537766313e-01
-4.718844899389201819e-02 -8.483111141752713857e-02 4.474836005345578238e-01
-7.057903377019367208e-02 -9.404302908704607888e-02 4.490736339716766001e-01
-5.157168080686030248e-02 -7.261804236588835504e-02 4.420764398041207577e-01
-5.547781631035682975e-02 -1.186810996275838165e-01 5.273151322437914512e-01
-1.094595130763049012e-01 -1.229748803477360708e-01 4.898608037542645510e-01
-7.759358414129753634e-02 -1.227855167595864744e-01 4.993112320584041086e-01
-3.800932675247960767e-03 -1.250042256049670175e-01 5.348562632545645901e-01
-1.423506267386848850e-02 -1.114550175261051768e-01 5.616281865166025122e-01
-4.068432354020979497e-02 -9.517919844095729109e-02 4.559665962743546519e-01
-3.379546456117275832e-02 -8.939319648083297876e-02 4.520191427809825968e-01
-8.922096297799794740e-02 -7.654794288328320429e-02 4.430573179076689461e-01
-5.897207717590870896e-02 -1.166807458992688007e-01 4.832380152303154541e-01
-3.876216977611451897e-02 -1.164687223823520912e-01 4.848798810469922560e-01
-3.290356107726102181e-02 -1.226898388468381784e-01 5.072578190313851154e-01
-3.995193139555627826e-02 -1.218599040491545188e-01 5.060282267594553574e-01
-2.390781180850322374e-02 -1.016332104658391328e-01 5.598753546608941090e-01
-1.200607135590410351e-01 -1.138696038045124564e-01 4.814325770479720989e-01
-7.649199260407006651e-02 -6.489703019607973022e-02 4.354245722158462950e-01
-2.655283885834697211e-02 -1.239549038299592454e-01 5.091736457337707744e-01
-1.512232615167384553e-02 -1.255232474946353372e-01 5.321584119195270635e-01
-1.876931914632570114e-02 -1.137130683200820863e-01 5.587789099057852704e-01
-3.678729036460316737e-02 -1.055070541652173149e-01 4.664493083348884017e-01
-7.436489957135621054e-02 -1.214371706458885203e-01 5.132514971785095970e-01
-9.968012573048204428e-02 -1.118518356803502728e-01 4.583499818570260231e-01
-7.543592582853633766e-02 -1.037322766084180642e-01 4.563078947458357737e-01
-4.647675010089777348e-02 -9.934386251497377696e-02 4.582464901967434057e-01
-9.228816031738984460e-02 -9.448836413532137046e-02 4.476441490826835734e-01
-3.054767090171944463e-02 -9.664294156759609122e-02 4.573847268051071113e-01
-3.942740467474255273e-02 -1.209318579989603210e-01 4.993921967371783288e-01
-4.074008071315293050e-02 -7.640295532338750584e-02 4.443678964070653103e-01
-1.167377995952106062e-01 -1.094334640381166984e-01 4.658808102706920029e-01
-6.275244011926402188e-02 -1.171347180652976966e-01 5.261528435811395621e-01
-6.414579198192554496e-03 -1.248156785079378717e-01 4.948067687002209447e-01
-3.645843954067853887e-02 -8.422299791410531311e-02 4.483469774117424533e-01
-9.789559917634996222e-02 -9.783210130353441059e-02 4.495683820749451498e-01
-7.771445665192151797e-02 -1.222600053099327511e-01 5.088117115329410245e-01
-7.923044000519131880e-02 -9.307462664217529269e-02 4.473366894797441429e-01
-5.794917854734882301e-02 -1.087299896205465299e-01 4.672927861501264268e-01
-5.227772069021702217e-02 -1.217740525946827829e-01 5.137435688981725201e-01
-6.630810374074437574e-02 -1.168325439321271642e-01 5.248818757420555814e-01
-8.159815155191123270e-02 -1.230232502738578537e-01 4.986132068486727187e-01
-5.004500812556024469e-02 -1.019140008561577743e-01 4.600121874305650449e-01
-2.463534372805061684e-02 -1.033491090620279884e-01 5.586372947249489407e-01
-8.625954927787378435e-02 -1.140835378875540568e-01 5.183235206054706001e-01
-2.361926776577609466e-02 -1.211695180872417316e-01 5.446618353182606231e-01
-7.865444389942620462e-02 -9.431111647546769339e-02 4.482547742584053752e-01
-2.636531060910333318e-02 -1.238676915113944982e-01 5.077495076871245683e-01
-1.167601606011929027e-01 -1.197679138339159816e-01 4.897939811982442437e-01
-7.361183165452499233e-02 -1.090136406276345921e-01 4.624238168030128104e-01
-1.969639227580072260e-02 -1.211324083816962410e-01 4.898370387050112740e-01
-8.824173050355639536e-02 -9.149523623510731618e-02 4.459563444651257758e-01
-1.122632747778506829e-01 -9.892731035829484265e-02 4.567948270330660643e-01
-2.524859824374155876e-02 -1.235633744788869059e-01 5.032698054294968415e-01
-2.120449898544050221e-02 -9.888982146212407787e-02 5.630929415889928125e-01
-8.845607851242115460e-02 -1.017193998843308050e-01 4.519163642930768554e-01
-1.961184585608025110e-02 -1.259960973954990238e-01 5.194015404645373479e-01
-9.039202536734271265e-02 -8.121337198373229649e-02 4.435976028987862474e-01
-8.623840719664922078e-03 -1.181433828299032901e-01 5.534866750607059238e-01
-7.645286088157311755e-02 -1.170892487250169700e-01 4.751106145053707319e-01
-6.422702004586583469e-03 -1.270957481281591306e-01 5.301353397772093912e-01
-3.026324987094156094e-02 -9.880749690455954692e-02 4.592364596052154191e-01
-2.819346735166108203e-02 -1.015789745986623999e-01 4.611921140554964826e-01
-6.332027585367067113e-02 -1.116589348702977658e-01 4.705289824026599454e-01
-8.463785681422371365e-02 -1.229549632605675125e-01 5.014230438579556637e-01
-7.174729164133918091e-02 -6.622470788358404692e-02 4.359600865671884318e-01
-7.331868879470428146e-02 -5.575687033451273700e-02 4.381260584952194614e-01
-8.655397955658598874e-02 -7.527012115947170900e-02 4.408926254192832572e-01
-2.809706990619100300e-02 -1.120580514937753319e-01 5.529460743575695947e-01
-6.988638060861104839e-02 -1.209056334089438356e-01 5.157220532044495265e-01
-1.647593355626451872e-02 -1.261310018345286332e-01 5.067772495100832941e-01
-8.168244272198903200e-02 -1.152054860058618485e-01 5.208022417273938665e-01
-6.497633186281430440e-03 -1.286971925362573044e-01 5.212993266066189291e-01
-3.790139375576258990e-02 -1.226180347271287330e-01 5.190576633451802202e-01
-3.152797577953930092e-02 -1.162899535331377854e-01 5.463958374383305339e-01
-3.210350970749593393e-03 -1.289445902577361636e-01 5.118656993394054000e-01
-9.757602136001855553e-02 -1.187277675000486393e-01 5.092084106997147863e-01
-1.002413716029765395e-01 -1.213925811124738907e-01 4.662344001901041479e-01
-1.281486060331924089e-02 -1.063838929715203163e-01 5.649362240338844376e-01
-3.594083989309462129e-02 -1.064707729590103485e-01 4.676034296745098517e-01
-4.978072493661572090e-02 -9.991620555890072530e-02 4.577890543679728474e-01
-2.954224235980820734e-02 -1.082990745908610358e-01 4.697252614439138552e-01
-2.017314108968263839e-02 -1.063665132359325194e-01 5.630422105338421801e-01
-5.723687433774377747e-02 -1.145328598990928148e-01 4.784576145431731486e-01
-2.366551054646106461e-02 -1.244283034882350120e-01 5.062244089276045633e-01
-6.708363005518785255e-03 -1.247594980196838343e-01 4.947018563653906020e-01
-7.961118419642426725e-02 -7.280214068908974490e-02 4.374803593493694076e-01
-5.399692947697817824e-02 -1.016826057003031303e-01 4.584652595966307032e-01
-6.493508745004902827e-02 -7.001992165118797740e-02 4.383096377341173522e-01
-2.185229016595293533e-02 -1.244621235040521134e-01 5.339196974198728851e-01
-3.893740013601761779e-02 -7.822185421546125339e-02 4.451147878027795213e-01
-9.870353556168615095e-02 -1.224657042783429961e-01 5.010476245939065043e-01
-9.055522633025879509e-02 -8.306583785070972836e-02 4.433253416432238470e-01
-8.473039687458895630e-02 -1.174834081529224361e-01 4.675220306395510006e-01
-1.389224163450885133e-02 -1.226030839889025725e-01 4.904186535760803323e-01
-5.170835813371674194e-02 -1.138751194717961684e-01 5.342423008715118105e-01
-4.454241172954271494e-02 -9.360277839631644947e-02 4.539082760322221688e-01
-9.629143348662000390e-02 -1.237215436689988596e-01 4.898719931109092318e-01
-4.363267889513883918e-02 -1.219039689938760107e-01 5.096641133704498117e-01
-4.051294528560929475e-02 -1.151077464506718578e-01 5.397339204977001925e-01
-4.545004162181038448e-02 -9.685623572199120179e-02 4.563543852764786468e-01
-5.662570393825473031e-02 -1.170560616909554347e-01 4.847519489164348050e-01
-8.014494569374994160e-02 -8.186949323926392963e-02 4.406926839080845260e-01
-6.316837042069382846e-02 -1.216800541816190351e-01 5.126648964173997625e-01
-7.896274122740318258e-02 -1.185835390021189040e-01 4.761555449869013801e-01
-6.864509832287923885e-02 -9.750794045816611744e-02 4.519718524102648849e-01
-3.140375973605000898e-02 -1.235138829533758975e-01 5.173377332602181466e-01
-5.726683342202197602e-02 -6.288670901911129485e-02 4.384877041046252311e-01
-6.379318952400424292e-02 -1.009845968162692703e-01 4.559342805588412206e-01
-5.677931389131884998e-02 -9.690277072434140548e-02 4.535525895634844318e-01
-1.200205058586942125e-01 -1.133870954356645810e-01 4.769976103065923789e-01
-5.144042920794877904e-02 -7.012513503476681953e-02 4.413141022286551363e-01
-7.066065069845733904e-02 -1.116399412771077876e-01 4.677424392508575113e-01
-3.592128202535154607e-02 -1.189810960659071770e-01 4.911268831811281821e-01
-9.442063223469913946e-02 -1.209234247603968443e-01 5.081857211494396065e-01
-6.328015052355913383e-02 -1.093004219148239059e-01 4.666661959056235820e-01
-1.322868604553576605e-02 -1.251268167082838778e-01 5.338864672847966064e-01
-3.409256508239255634e-02 -1.154920078084442220e-01 4.827655818132037813e-01
-3.022386429107375844e-02 -1.197617181956277949e-01 5.429099374258973265e-01
-2.342154760312113032e-02 -1.234585051866846916e-01 5.370711174045152969e-01
-2.092892718214018136e-02 -1.139743667745840433e-01 4.756265796261867074e-01
-1.047903182089659907e-01 -1.224065562365952153e-01 4.758152099102943566e-01
-1.368312441322638504e-02 -1.176333811849025190e-01 4.790537441022586496e-01
-1.180792286182923700e-01 -1.035154287982800042e-01 4.673299009331395859e-01
-8.182696460311983389e-02 -7.339849194320191561e-02 4.378296022658379472e-01
-1.152230557150207418e-01 -1.149282214364286542e-01 4.968025663335755016e-01
-8.558884046484349639e-02 -1.203423393655560503e-01 5.124309128120804191e-01
-3.223134821725553295e-02 -1.113992069059071693e-01 5.471483904276291943e-01
-6.741105575258497795e-02 -1.220968537361237227e-01 5.082864974554307524e-01
-3.226391847820547776e-02 -1.232795766702843854e-01 5.150388617576936445e-01
-6.541361398241581082e-02 -1.219351429881931070e-01 5.041560321879551276e-01
-1.585608145013706061e-02 -1.231634037513595209e-01 5.427114701744543135e-01
-3.092130754021676226e-02 -1.236404575473760842e-01 5.186164101228580847e-01
-2.310059494778248998e-02 -1.209331933325469843e-01 4.916115741423277563e-01
-3.248017030666857513e-02 -1.231267314957902453e-01 5.116602013715840780e-01
-4.005327951142158283e-02 -1.224252038389906372e-01 5.174600414874624965e-01
-3.547356787163907094e-02 -1.175366419325735989e-01 5.411505882396892009e-01
-9.357035426919697169e-03 -1.219523576973587514e-01 4.875362799565434169e-01
-9.529182042406594833e-02 -7.986728154402909785e-02 4.471308740517319080e-01
-2.578151495442271984e-02 -1.044672488737278804e-01 5.565463954461049578e-01
-9.456062601169691606e-02 -1.227491171015305249e-01 4.729370719747560958e-01
-7.103433511305472237e-02 -1.111019119846860109e-01 4.667241250785913453e-01
-4.014564056716819068e-02 -1.190144497755927511e-01 4.919121028492663972e-01
-1.129635562112633468e-01 -1.102701817993390343e-01 4.619818927932886066e-01
-8.250190776791188618e-02 -1.227017834457305168e-01 4.950920567457317567e-01
-1.179258189050106514e-01 -1.143701005753192390e-01 4.721286489609627379e-01
-6.694096863488427362e-02 -1.220780007891230368e-01 5.086860861159161473e-01
-6.053280043178003306e-02 -9.168715597530598116e-02 4.488822692178183194e-01
-5.123170296033608892e-03 -1.285312222399368765e-01 5.257983274705329002e-01
-4.937319572376960841e-02 -1.215556002213415143e-01 5.195896835103287481e-01
-5.494813431887748262e-02 -1.113506100692216588e-01 5.340391699890163490e-01
-1.156267913313126644e-01 -1.157708231531193038e-01 4.958710974018390449e-01
-8.697877365233044888e-02 -1.177915344992838953e-01 5.150449660666404084e-01
-2.000713306882674625e-02 -1.203166333157092982e-01 4.877571231406323538e-01
-2.991249403398909407e-02 -1.077366555807033471e-01 5.505166349852873564e-01
-5.643705226981383244e-02 -1.208943545690116389e-01 5.012858345785845549e-01
-5.642478051365360653e-02 -1.173955295451382663e-01 4.858896135221280055e-01
-5.320628741576616250e-02 -6.553450946523738108e-02 4.397118253062458071e-01
-7.855065425887446454e-03 -1.240784530909397193e-01 4.929437233658218176e-01
-3.156341088571286424e-02 -9.850361675047919485e-02 4.591979636990536351e-01
-1.013837737732673494e-01 -1.223602085097732217e-01 4.991925059101498530e-01
-1.067632174286545638e-01 -1.234892113556387422e-01 4.910347619024819088e-01
-9.572503480795742370e-02 -1.221521105971354049e-01 4.754576507128022156e-01
-4.835370736185804624e-02 -1.191912325245301080e-01 4.933843133577523465e-01
-2.795642614373444745e-02 -1.059435822214216116e-01 5.536438199213729039e-01
-2.358338057892168937e-02 -1.240149211878156660e-01 5.035618837238250434e-01
-4.830103769045252654e-02 -7.155690904727800283e-02 4.421271079303684681e-01
-6.979665134723243847e-02 -1.199916247624012028e-01 4.880960246129961710e-01
-4.883129071520864867e-02 -7.984073715562370332e-02 4.450398566250688415e-01
-2.939551505286352312e-02 -1.055639601337636097e-01 4.660263436912167601e-01
-3.279740456983267632e-02 -1.077795432830131045e-01 4.692307090204372311e-01
-7.744302140757365616e-02 -8.156946592609448654e-02 4.403434936718395032e-01
-4.720619404157531257e-02 -1.202482093001265018e-01 4.981572450485159398e-01
-9.554759250519671843e-02 -1.089538414252896048e-01 4.559181594733824339e-01
-7.851277650757615412e-02 -8.868547625804906742e-02 4.445853608188090056e-01
-1.034894198918833857e-01 -1.220758448057177037e-01 4.741857546681446101e-01
-1.338445922032512406e-02 -1.272865159448521577e-01 5.143015750807687914e-01
-3.426497879472777119e-02 -1.230847505251263657e-01 5.166931213346065421e-01
-6.825583774539771553e-02 -1.081040875164999693e-01 4.630169143334063042e-01
-5.900453772652240747e-02 -1.198815646308573762e-01 4.945988293489806953e-01
-2.090260722333071169e-02 -1.250264847054016193e-01 5.316230286834722207e-01
-5.311316847074318975e-02 -7.861102604661279747e-02 4.437988265479758665e-01
-1.090394096856929923e-01 -1.170613853220613398e-01 4.673342831441326117e-01
-2.097364314955485476e-02 -1.165848112904226963e-01 4.797537273008586345e-01
-9.582442187196486827e-02 -1.159244827904364339e-01 5.119577795909887596e-01
-4.626198013272330573e-02 -1.079417768518722703e-01 4.692012290711551903e-01
-3.783531759760459540e-03 -1.291071727482166753e-01 5.164138070367317868e-01
-6.945719048154910813e-02 -1.216804951579441296e-01 4.966084820654594334e-01
-2.168026758376207300e-02 -1.233333215041343411e-01 5.394782796820215554e-01
-2.785953080798477324e-02 -1.167837215241650517e-01 5.494355162759098077e-01
-1.115432259649131314e-01 -1.210295379258654880e-01 4.962810540625526845e-01
-9.172534513681319945e-02 -1.026030811324618874e-01 4.522137178567851579e-01
-2.246258183429135358e-02 -1.169918070315833086e-01 4.814939024402510870e-01
-3.636230005455416692e-02 -1.216883722945189539e-01 5.022257618975907167e-01
-8.333982728706132437e-02 -1.033751410889537092e-01 4.538879925630120993e-01
-6.279429181322566944e-02 -8.294480015152065622e-02 4.433143874201670442e-01
-6.341922133585436994e-02 -1.197045201448991847e-01 4.913822114249681294e-01
-2.069516331346264032e-02 -1.071481172173992524e-01 4.652446035169300886e-01
-9.965681652578281535e-02 -1.237201690362327439e-01 4.926199508079542877e-01
-8.475601763000240041e-02 -1.230326745638093688e-01 4.966847309705847979e-01
-3.498295371206971288e-02 -1.214808520551650395e-01 5.006511005057019403e-01
-6.527084830910172275e-02 -1.065969479101207540e-01 4.618265248641146292e-01
-2.111470942288764044e-02 -1.073909959865921027e-01 4.658003915485844915e-01
-1.148045119951873472e-01 -1.035305718817517706e-01 4.604454586845409536e-01
-9.269058796998755345e-02 -1.234919608793060147e-01 4.891463337028069125e-01
-4.319487093620222318e-02 -1.219023628110392360e-01 5.085216027159635832e-01
-3.318176113555711820e-02 -1.227225277292011418e-01 5.079608519541037870e-01
-7.156126947699277541e-02 -1.224086112534974180e-01 5.060794929384511143e-01
-3.198340766309317601e-02 -1.170096890763584890e-01 5.455098924336263533e-01
-1.827154317836300959e-02 -1.263341996303116166e-01 5.224578102219724629e-01
-2.826803018791800362e-02 -1.142769878926093580e-01 4.795096508205618502e-01
-6.598572233779709251e-02 -1.184848309456014437e-01 5.227014186751250957e-01
-6.191379355014456354e-02 -7.826484966549890343e-02 4.415839695296078782e-01
-6.105724305504796334e-02 -9.527006033865836887e-02 4.513714296966953587e-01
-4.415999005125399030e-02 -1.090403280162902666e-01 4.711259388622622835e-01
-9.190711888053704204e-02 -1.230616988964237379e-01 4.988050256585369602e-01
-1.749839633269863540e-02 -1.126981837736736047e-01 4.718233168524478827e-01
-6.563180595357302749e-02 -7.267475810490847676e-02 4.389053114547279977e-01
-5.014287926028589137e-02 -6.888109217619479974e-02 4.410594191515148088e-01
-4.346197453676976102e-02 -1.206179006945023308e-01 4.990939242617445926e-01
-4.447119019518110117e-02 -1.087690304782006345e-01 5.402551879681153357e-01
-1.066376907729378876e-01 -1.236417101539512425e-01 4.854788990629217982e-01
-1.071945250115950155e-01 -1.234699291373255736e-01 4.880978074723958393e-01
-6.801070264464682130e-03 -1.277296218280004336e-01 5.067215119168445581e-01
-8.659497549683170536e-02 -1.216195746440282832e-01 4.840160957444126222e-01
-1.093650070447805267e-01 -1.170740376376077363e-01 5.003700922450142752e-01
-3.074610785556187303e-02 -1.213937409383243349e-01 4.975074651911088885e-01
-8.402662100693990277e-02 -1.129401373336436226e-01 5.198032086343777891e-01
-1.183295160823038261e-01 -1.029122813957470683e-01 4.683387762865518500e-01
-8.923325512229944578e-02 -1.006271290396030665e-01 4.510817125182053355e-01
-5.363143584417622706e-02 -1.104716286273817599e-01 4.714199631975946603e-01
-4.345212792564956406e-02 -5.902443601601310014e-02 4.391298198919066920e-01
-3.706987009635415858e-02 -1.224290016228993944e-01 5.092635267615748251e-01
-9.205137647542788182e-02 -1.139142334973440307e-01 5.149107893036509731e-01
-5.492866556768302017e-02 -9.275718047014143430e-02 4.506254092177266468e-01
-3.829554267564060782e-02 -8.719421155013844238e-02 4.500077675975637237e-01
-7.398549615260290035e-02 -1.018962502450596191e-01 4.547899927202437298e-01
-3.080172170679828375e-02 -1.035143236258883742e-01 4.638645512764069667e-01
-4.429010392700972326e-02 -8.105026787419196410e-02 4.461594047321141288e-01
-4.475756368676964136e-02 -1.219767633741707796e-01 5.165380396723446843e-01
-1.081659739603053200e-01 -1.218544643383859399e-01 4.763873249315244696e-01
-3.618075213518650440e-02 -1.227079215034787146e-01 5.250253065691915522e-01
-1.016229532499517141e-01 -8.495013189129503595e-02 4.530196008050250689e-01
-3.013020944937437259e-02 -1.232018025673705941e-01 5.073227618167379660e-01
-5.856950245512058950e-02 -1.196040847007917157e-01 4.934987702664547782e-01
-1.078597434319070597e-01 -1.208208786485373554e-01 4.986288725078445450e-01
-4.279308762246336606e-02 -1.120208885392443565e-01 4.761527478552572967e-01
-8.103824237305869149e-02 -1.213550992193364458e-01 5.129104541492051084e-01
-8.338442267645400363e-02 -1.101577086824064855e-01 5.217436594254761806e-01
-5.525548947781223214e-02 -9.503575497778982140e-02 4.523491839493640754e-01
-1.250175634904226660e-02 -1.272451255591128538e-01 5.099171164866598271e-01
-5.361321092720063020e-02 -1.215134795998292355e-01 5.076549591425466579e-01
-7.816851175513374328e-02 -1.206598172868391938e-01 4.859626115594781748e-01
-6.241941383706876151e-02 -1.083320149671682664e-01 4.653035145375603032e-01
-5.088890480944725792e-02 -1.102574894563313201e-01 5.369012117147194951e-01
-3.099412311700582012e-02 -1.228663996447143386e-01 5.316457812912587233e-01
-7.486738589293016888e-02 -1.184314260220396958e-01 4.791876570424624115e-01
