-9.506717237076758864e-02 -1.191011101385769377e-01 4.615022254585716133e-01
-1.188715627012136428e-01 -1.170787574523316776e-01 4.801278335846037026e-01
-5.432610279406305254e-02 -1.156860355457694639e-01 4.818929891913483199e-01
-3.189488516120556061e-02 -1.195841133609967244e-01 5.420982301269563486e-01
-1.837265868469593194e-02 -1.031317515909529747e-01 5.645751573172952398e-01
-1.204231251905777678e-01 -1.152833153937446731e-01 4.865073345335239052e-01
-3.985901684402672063e-02 -1.140210599293977750e-01 5.408087095086895335e-01
-2.325963923153714918e-02 -1.023036629055089491e-01 4.603643666699497317e-01
-9.421953006806843556e-02 -8.388124755349145312e-02 4.453126220719050843e-01
-2.543572695523915045e-02 -1.017140659028732685e-01 5.562663832187577651e-01
-6.723375593310987330e-02 -1.210283830879267108e-01 4.958080584023025761e-01
-2.522479542752296966e-02 -1.048320066379792720e-01 4.641372861541623873e-01
-3.384015684387263467e-02 -1.228960471921931308e-01 5.126529774713454168e-01
-1.087530246904676728e-01 -1.119650166588613549e-01 4.620101366962233724e-01
-8.565748567080759546e-02 -1.185448946612288196e-01 5.152331316469593858e-01
-3.979910673628665047e-02 -1.019199054863914738e-01 4.623410412634909594e-01
-4.584348293307437261e-02 -1.030664093508521784e-01 4.627053274198757449e-01
-8.708703017954746994e-02 -9.587370113505402913e-02 4.485531729085828201e-01
-1.482674516114915533e-02 -1.206143992628775502e-01 4.859348223937152711e-01
-9.154949345126064952e-02 -1.215438359838185017e-01 4.797642726864306262e-01
-5.164226110170590245e-02 -1.212594859631913463e-01 5.053375318764311563e-01
-5.384644471783184283e-02 -8.040372021681257975e-02 4.444449062355419477e-01
-1.058057835682871400e-01 -1.039592237181169027e-01 4.544830285972071837e-01
-7.060256934829245434e-02 -1.165124313470600054e-01 4.779372451577861280e-01
-8.935856026377231309e-02 -8.548827921667598306e-02 4.440378566280542838e-01
-6.317183759237063323e-02 -5.743735560107464388e-02 4.367976738876255260e-01
-1.855049315313673716e-02 -1.196759304465966484e-01 5.502146088843204996e-01
-8.020742726217910956e-02 -1.226867062120518409e-01 5.036840054837073977e-01
-8.425016896011382206e-02 -1.064293049694942789e-01 4.565466579999605257e-01
-9.108125054636745377e-02 -9.073709803083669645e-02 4.458877002538763068e-01
-6.735976241724454805e-02 -1.157977737062782370e-01 5.256694117759145302e-01
-1.328894022306336548e-02 -9.820228124556433513e-02 5.679849516127046805e-01
-8.416893224341548407e-02 -1.216976508881388447e-01 4.880134619896714931e-01
-7.901889568822319243e-02 -1.213773444947095492e-01 5.127169934942300555e-01
-1.131554383061581098e-01 -1.219908307734696024e-01 4.905683025124748520e-01
-3.877800041937594366e-02 -1.052652220052614079e-01 4.661931428938510535e-01
-6.377132707513985532e-02 -5.815708352599712611e-02 4.368156338104247083e-01
-1.617209412708733168e-02 -1.065663244270546040e-01 5.641619837006536242e-01
-5.682309639934543521e-02 -9.829912446338180676e-02 4.550002942857254151e-01
-4.411950065996021741e-02 -6.266094109819950186e-02 4.399648179400992287e-01
-6.530935756524186564e-02 -6.524309374494499658e-02 4.372483745811088784e-01
-3.130059457531952916e-02 -8.697481866344387857e-02 4.500463619537661275e-01
-5.832503869905333871e-02 -1.107076284188488885e-01 4.706571790353257789e-01
-1.160545244629266302e-02 -1.211952812390270917e-01 4.864107756809277205e-01
-8.125010622567116481e-02 -8.846312996106457660e-02 4.446140189175260549e-01
-8.114526553941515952e-02 -1.183428901295145025e-01 4.736027467143695269e-01
-6.061529414483635136e-02 -1.121517892404521738e-01 5.307424712853704429e-01
-1.082691014418139253e-01 -1.133022409727050678e-01 5.035884195010742470e-01
-1.333295195762228616e-02 -1.232394734948840387e-01 5.419577826233284989e-01
-1.044489602056808131e-01 -1.237228006163087896e-01 4.875563020995596353e-01
-9.436548187943923083e-02 -1.159164018818207714e-01 4.599994464619667767e-01
-8.472578525170703506e-03 -1.268317003439276003e-01 5.031200736152303676e-01
-9.104045744966803022e-02 -1.191712555402398566e-01 4.609138913272667337e-01
-1.025893964474778458e-01 -1.020719982262003889e-01 4.525788914951181519e-01
-5.580132236862504758e-02 -1.192293054537268276e-01 5.256390054769175535e-01
-7.466777151473262715e-03 -1.248197127863757555e-01 4.952712617047919097e-01
-9.374923880995469916e-02 -9.040204162400568288e-02 4.458273417849004661e-01
-9.146506174329778471e-02 -1.200457868069112199e-01 4.647965976801864407e-01
-1.208014990479695516e-01 -1.122134522229455561e-01 4.761962095488049274e-01
-7.285600553549705094e-02 -8.649710037617053260e-02 4.438672093633798665e-01
-8.533019760602095216e-02 -7.793832031411333794e-02 4.405934093998074563e-01
-6.752905161326133721e-02 -1.171717964385341898e-01 5.240830530568731938e-01
-2.219951999671292142e-02 -1.226692899658031050e-01 5.416622899586245321e-01
-1.026243308108962249e-01 -1.205640888385036413e-01 5.019991244080154180e-01
-6.770883802171809296e-02 -9.146234481902884572e-02 4.476998554957501986e-01
-6.035916143567664899e-02 -7.074709766965465996e-02 4.400024188192871444e-01
-5.286643788384919052e-02 -1.216365967427363998e-01 5.146458021045942077e-01
-8.573655306954174049e-02 -1.228982493957213179e-01 5.004853667182128651e-01
-3.192460064191531000e-02 -1.212001064192748112e-01 4.978736012449899717e-01
-1.350444721686555258e-02 -1.086694424025699546e-01 5.637809007343238532e-01
-2.737649007941130030e-02 -1.042844917559507256e-01 4.641953244774018050e-01
-7.463083996436163658e-02 -1.167457040198946888e-01 4.760066714944304889e-01
-2.860873675135141084e-02 -1.146416608474224996e-01 5.503497819872167351e-01
-2.239233788192013241e-02 -1.180726061456138509e-01 4.836225987666524229e-01
-3.903372207914437841e-02 -1.224064234634235360e-01 5.214939644077278835e-01
-9.269804832846698095e-02 -7.881424655931798529e-02 4.461756594861244207e-01
-2.808281099060777608e-02 -1.237813778024939720e-01 5.286516896545830901e-01
-3.204765710269158636e-03 -1.289844940386516148e-01 5.233767382956578951e-01
-8.511000497749124372e-02 -1.054845555931145790e-01 4.555321706338228971e-01
-2.673185804903232057e-02 -1.088212947815707932e-01 5.548380267696602086e-01
-3.917723536590326378e-02 -1.223416163951715901e-01 5.124112186898160948e-01
-9.499145251281036761e-02 -1.228417042773822243e-01 4.985244036492577080e-01
-4.756927626371523776e-02 -1.185628252801492338e-01 4.908484669453028193e-01
-2.749651905100166174e-02 -1.215651341829611098e-01 5.411002110373356322e-01
-1.153457551092092609e-01 -1.095778187765167611e-01 4.641331896971302995e-01
-8.300217098076934086e-02 -1.161282082308060792e-01 5.191605934962466584e-01
-6.431025802924097978e-02 -6.228024840248162775e-02 4.371904780118479605e-01
-1.204091959472880780e-01 -1.131586049244668601e-01 4.826362330511757004e-01
-8.983918403492346938e-02 -1.067387179658335905e-01 4.555648103414365324e-01
-1.023862085435496422e-01 -1.209708193747334737e-01 4.693130177083955634e-01
-9.399624991987873268e-02 -1.156867117411383289e-01 5.129946293382062761e-01
-1.174434219090664255e-01 -1.146825502671567631e-01 4.720625790295366331e-01
-8.204076075929615797e-02 -1.027681673726778960e-01 4.539711939220701931e-01
-4.753833429621458911e-02 -1.050374293243312301e-01 4.649667771015178475e-01
-6.858640454673774201e-02 -6.720174324973232638e-02 4.369942161006106773e-01
-1.184466197488472372e-01 -1.174075629701336471e-01 4.793781343332282341e-01
-1.190395660425326296e-01 -1.183792774854039442e-01 4.832384578260821018e-01
-7.458855649919247932e-02 -1.190880674918669418e-01 4.817563281506975215e-01
-1.176020437697609944e-01 -1.194648187167016151e-01 4.814477243747252166e-01
-8.806313439522094055e-02 -1.221100827289446356e-01 4.862585464838584115e-01
-4.881982725655355237e-03 -1.244214430143646549e-01 4.934006511976258835e-01
-1.179766755183518645e-01 -1.160652105979576992e-01 4.761892974703301751e-01
-2.897766863453933237e-02 -1.233364953438412237e-01 5.072451324551870977e-01
-2.791181144337883183e-02 -1.061375961269584028e-01 4.666184522202802554e-01
-8.992828346014346275e-02 -1.116615077512672777e-01 4.590559321695729111e-01
-1.406952169953475974e-02 -1.241236615195920046e-01 4.958114608973182569e-01
-1.097395721211956998e-01 -1.123567615130570130e-01 4.629194310785940125e-01
-3.009140340181205159e-02 -1.232922045294010671e-01 5.292440787562788795e-01
-1.008146445974238831e-01 -1.232978850185183495e-01 4.952184488351774605e-01
-1.042911087199280273e-01 -1.204776604177119903e-01 4.705604159563894218e-01
-2.489377413067722991e-02 -1.159073689961717946e-01 4.814592176925855393e-01
-1.063417220494319582e-01 -1.035536723353112087e-01 4.543386335153198341e-01
-3.335202678658661518e-02 -7.990118861254269511e-02 4.457187354070224483e-01
-8.726478523586152225e-02 -1.149122082410861667e-01 5.171035214063366414e-01
-8.801764002414295962e-02 -7.014305533140526017e-02 4.437473461683990039e-01
-1.089626770812887335e-01 -9.527024177244079739e-02 4.548035653719507687e-01
-4.068149780981253349e-02 -1.086901738081532537e-01 4.707905011098395542e-01
-5.289263489650884026e-02 -1.104599647912772875e-01 4.719205991062633831e-01
-9.490236198333665274e-02 -1.218003417360247059e-01 5.055665716505759466e-01
-1.007590167815066717e-01 -1.235368526555734453e-01 4.832099522494314736e-01
-6.822739884668956034e-02 -8.735936792790326144e-02 4.449010990317035508e-01
-2.485749081666969312e-02 -1.229637746575560631e-01 5.000131136877429272e-01
-7.181427557453849697e-02 -1.221349389283854642e-01 5.081106899783933706e-01
-6.507947070720884741e-02 -1.212163433400401946e-01 4.986641261950057746e-01
-1.590864290107922227e-02 -1.029109924665796150e-01 5.652708709283846833e-01
-4.391140628948757979e-02 -1.218399930759888061e-01 5.098909263436924855e-01
-3.732313900361442643e-02 -1.117345382438804241e-01 4.756686616154636171e-01
-3.919872856336768796e-02 -8.699939293229688730e-02 4.499352162754668427e-01
-2.572943679151490706e-02 -1.164220864504970782e-01 5.522906670628587866e-01
-1.108798487427676144e-01 -1.208431490196307523e-01 4.968528191538773564e-01
-5.692713432407353613e-02 -1.171894409637023737e-01 4.854434232435047014e-01
-6.823373863644195680e-02 -7.605195706618350648e-02 4.394283963529897474e-01
-3.698280839571919248e-02 -1.193398987323721072e-01 4.926716630099405858e-01
-5.690927890576684585e-03 -1.282728759445969646e-01 5.263849606440252904e-01
-2.453378179295712114e-02 -9.408192013179290936e-02 4.538574601916331996e-01
-1.192473374224241461e-01 -1.105504270922834792e-01 4.698743845964049592e-01
-5.566006194390799716e-02 -7.367752543256186892e-02 4.418744200460230087e-01
-7.972271605902675473e-02 -7.438779991204610975e-02 4.380086604452358978e-01
-8.151018473262376662e-02 -1.228554308122401795e-01 4.983765753755420302e-01
-1.201556692825182446e-02 -1.271778102193043547e-01 5.078340439767670134e-01
-5.817290225954835359e-02 -1.184639026671041040e-01 5.265493612004565893e-01
-4.549225527759325621e-02 -1.114639567605959364e-01 5.384211025256974148e-01
-5.011869943133423488e-02 -1.063962455928440520e-01 4.662074160556546332e-01
-1.517224309059821662e-02 -1.119312715086312471e-01 5.612572540211866468e-01
-1.911208095493594633e-02 -1.081572184650922142e-01 5.628487830579944617e-01
-7.630865923185652100e-02 -1.212080277522817884e-01 5.133788016031509693e-01
-1.884335127721160560e-02 -1.201353155192012578e-01 5.492216534286502583e-01
-2.468359218571302555e-02 -1.246797160721959397e-01 5.142440786794377772e-01
-8.314288835621454210e-02 -7.349171486009607734e-02 4.384641695596330768e-01
-6.185805746261609228e-02 -1.182770592163695372e-01 4.874119589713163392e-01
-9.213241719319656409e-02 -1.233884759352331800e-01 4.919099418506298060e-01
-4.354151652652957227e-02 -1.219929830153497485e-01 5.177495494761021888e-01
-6.672119714692457959e-02 -7.487515038661686495e-02 4.394349900690399657e-01
-1.085535275456264853e-01 -1.218657948422908199e-01 4.779398827992364374e-01
-4.034683016494682722e-02 -9.503898985018441326e-02 4.560366441124907855e-01
-8.724285516562878262e-02 -7.087970822650639657e-02 4.425207554461076942e-01
-3.100121036371245378e-02 -1.125386005006381585e-01 4.769598576250182465e-01
-2.238342055974831130e-02 -1.220853481151783076e-01 4.950475813422000049e-01
-3.754123490696285176e-02 -9.135222936919677739e-02 4.533777918127747109e-01
-8.172055442179360085e-02 -1.159542663764924070e-01 4.686390493012008718e-01
-1.949458172812692028e-02 -1.181194085700815466e-01 4.820449972181816145e-01
-9.767195963963094807e-02 -9.844125256414154590e-02 4.500818562050327709e-01
-1.159586655167883507e-01 -1.093768622629747445e-01 4.649750708485024808e-01
-6.786842567379312852e-02 -9.971692522928853053e-02 4.542797350865256933e-01
-5.103769802784837578e-02 -1.075188073321700494e-01 4.675110014974189765e-01
-4.878730171239641783e-02 -8.208511306189818224e-02 4.460625173169703861e-01
-1.086309635693239600e-01 -1.229736365843771689e-01 4.894733776754340293e-01
-2.264690286334985342e-02 -1.230728359673167044e-01 5.395469311472630425e-01
-6.572288768388351299e-02 -1.165681813536571798e-01 4.807829647779224280e-01
-8.901521609016924130e-02 -1.061477807518594885e-01 4.552816121406483285e-01
-1.002975384424319022e-01 -1.131966001885898049e-01 4.603597508829701535e-01
-9.717982064257742192e-02 -1.193616021813266870e-01 5.090604340719668830e-01
-1.563931835543354992e-02 -1.245706327398672514e-01 5.360011943388026667e-01
-9.694152031178077111e-02 -1.172468603368043427e-01 4.610352834313903858e-01
-1.846919949247378956e-02 -1.207875944488364245e-01 4.882443521463504799e-01
-5.487376131079699237e-02 -1.187316323235341614e-01 5.273260283640628376e-01
-4.203106900509014782e-02 -1.186897252943272252e-01 5.363001902082009664e-01
-8.591290222950094535e-02 -7.343772590407918188e-02 4.402305463056878643e-01
-8.350640621102441152e-02 -1.138148411742414823e-01 5.199351751247887066e-01
-2.438661593458087834e-02 -1.239404827771247858e-01 5.043647310934847861e-01
-1.751824672907556849e-02 -1.264845849422640556e-01 5.226839942663887850e-01
-8.702268435148960424e-02 -1.183123954360411206e-01 4.671706686810694342e-01
-6.100037827647476762e-02 -1.217268161546611605e-01 5.073191375305561301e-01
-6.488826281928984641e-02 -1.216506450297341058e-01 5.128579573941605130e-01
-4.466007410772063202e-02 -1.210711911367498561e-01 5.029635758550229374e-01
-6.152265219522853185e-02 -8.933902285907212304e-02 4.473088838180934168e-01
-4.537193325113382525e-02 -1.056154687090082867e-01 4.662125617647119302e-01
-3.226845662212553950e-02 -1.233676385159485911e-01 5.200720879570510657e-01
-9.889339132782805353e-02 -1.209475791973035202e-01 5.065680396701246480e-01
-5.703400752255351723e-03 -1.287130121902639590e-01 5.233777775956257594e-01
-3.137957422855375961e-02 -1.209408057683520055e-01 4.962901595927401988e-01
-1.008516673404795394e-01 -8.431646880090341856e-02 4.526292279415775055e-01
-6.354039082487811241e-02 -1.203387513984136709e-01 5.200502795638626274e-01
-3.274703476658954310e-02 -8.436570581477105535e-02 4.483344852459227314e-01
-3.966618246516490781e-02 -1.219059913749803437e-01 5.067372968501046016e-01
-2.760073951114266552e-02 -1.006566060006291730e-01 4.601732005862620989e-01
-8.394583877392206017e-02 -1.187127933076441988e-01 4.711760598119674182e-01
-4.322754119264412415e-02 -1.220495795435663500e-01 5.167791523561128253e-01
-4.159279895870873767e-02 -1.082363232229010819e-01 4.701113240036692287e-01
-3.042911753426243149e-02 -1.200795775257066378e-01 4.930407258306393481e-01
-9.065134689725331402e-03 -1.282191793998494755e-01 5.205797054085843367e-01
-3.050014258190804003e-02 -9.590358417944279401e-02 4.568473274920257232e-01
-1.100400559936388772e-01 -1.207537979897207042e-01 4.748174315507465715e-01
-2.713716859542124327e-02 -1.151586892953444380e-01 5.518506241908623933e-01
-6.555348100740968076e-02 -1.201861584016378354e-01 4.923167842729680443e-01
-5.745829539768741723e-02 -1.204961015844875916e-01 4.988652786902761371e-01
-1.212267986573190431e-01 -1.105513823451699795e-01 4.743857524500632028e-01
-5.717104083129022352e-02 -1.115223592216058462e-01 4.725335412237178789e-01
-9.977316948906727462e-03 -9.889757031275005217e-02 5.686629114693788623e-01
-3.514506740104818283e-02 -1.202394789792523844e-01 5.382852717538398890e-01
-7.848233629110294707e-02 -1.201824985567589155e-01 4.847536116988534483e-01
-9.540228766134498106e-02 -1.220649222345592672e-01 4.755057415606437909e-01
-7.349826297101354211e-02 -5.602844267172374382e-02 4.381399800055698623e-01
-6.096847974295847156e-02 -1.196086930811528642e-01 4.928067616396161754e-01
-5.320938748294049697e-02 -6.017396732407368637e-02 4.386473791812503520e-01
-9.155682593389362356e-02 -1.185979919145014605e-01 5.122537264107404065e-01
-4.546270779899937858e-02 -1.192195737491283380e-01 4.933911259374143543e-01
-1.152455975907338837e-01 -1.067627214035750532e-01 4.623678347617580231e-01
-2.385305902174760309e-02 -1.219374615233781572e-01 5.428804728174393412e-01
-1.119065797257304262e-01 -1.094518588492050803e-01 4.610252671043920114e-01
-2.485542152006591995e-02 -1.018026872505076036e-01 5.573971968349830108e-01
-8.909405178796606095e-02 -1.213681084357533524e-01 4.714004847870946202e-01
-1.160662806859357465e-01 -1.046332930522032995e-01 4.625214614869425644e-01
-4.746459115505399090e-02 -1.003942186549086346e-01 4.591845795566816268e-01
-7.883700833772737393e-02 -1.088472783723111875e-01 4.607620499150207882e-01
-3.484540327900196438e-02 -1.228074448251654793e-01 5.136878817750719639e-01
-4.414900952989287558e-03 -1.290216791039575928e-01 5.175794273598605111e-01
-1.037397394419976998e-01 -1.237572248681207548e-01 4.885298211236985821e-01
-1.665804314827154867e-02 -1.205501739262302419e-01 4.865092548932296590e-01
-2.163891073861627309e-02 -1.098712422565216312e-01 4.696589432889478610e-01
-4.952753518963768503e-02 -9.029589377915053783e-02 4.504269313088686277e-01
-4.043126003678992192e-02 -8.188375604256099838e-02 4.468864737143083965e-01
-7.285268568551679647e-02 -1.222690153406615909e-01 4.994635595701520381e-01
-2.919138644571640448e-02 -1.223041864453868061e-01 5.363946731206833407e-01
-7.854704664919918977e-02 -1.221054494108506916e-01 5.095810538210889806e-01
-4.547775293698402138e-02 -1.149231922298030451e-01 4.814768997311447141e-01
-4.208001504192378922e-02 -1.076996461842314179e-01 4.692987187882609601e-01
-3.286436550793568612e-02 -1.202715507370598486e-01 5.397886989612501463e-01
-7.405574758447035222e-02 -8.191073903579543236e-02 4.406006833974328019e-01
-7.418486918174259370e-02 -1.021113111162641057e-01 4.552374899082579640e-01
-9.519960482404657420e-02 -1.188512867673306578e-01 5.104149439338159233e-01
-1.022661968251254438e-01 -1.200444322163065902e-01 4.681038699598459307e-01
-5.700102430328192471e-02 -1.201655379201917867e-01 4.969902076401142010e-01
-5.228253233272976697e-02 -1.118204269894279707e-01 4.746765664033900101e-01
-5.564648902980381950e-02 -1.171389018157000667e-01 4.856997477841242250e-01
-1.078077080412829236e-01 -1.223168406391984819e-01 4.943925746599464599e-01
-3.280240803973789865e-02 -1.189851556979216879e-01 4.908029998549964246e-01
-6.170991421066208960e-02 -1.089330568664152871e-01 4.668246366551490611e-01
-3.113543121658894630e-02 -1.216234584686681358e-01 5.370567561991683725e-01
-9.023885456553901174e-02 -7.959678696708695489e-02 4.438162768632034627e-01
-8.833973990169818880e-02 -9.732239988268046038e-02 4.492903332784498049e-01
-3.697945606996539542e-02 -1.176977654286908009e-01 4.878112026122374267e-01
-1.175348262182386305e-01 -1.046806860556078883e-01 4.653200982982120260e-01
-9.834221517182485661e-02 -1.215350858781578669e-01 5.050497414233672266e-01
-8.368725083074624038e-02 -1.200273195237638729e-01 4.817513892221679250e-01
-5.493160343070938728e-02 -8.684149431744156433e-02 4.472627273488591348e-01
-2.668303935381809502e-02 -1.228464265995471705e-01 5.013284007553251431e-01
-3.879236253284917141e-02 -7.810341557412556202e-02 4.451562849152176926e-01
-8.028863288192690517e-02 -1.221683507503485561e-01 5.090856915055385068e-01
-4.925258573886907854e-02 -1.155039971149001837e-01 4.822840687219709932e-01
-8.013221672755026226e-02 -9.466946360739757205e-02 4.485414857820885226e-01
-5.378526620748831644e-02 -1.045287147279334999e-01 4.626076487971528817e-01
-3.341047198214506381e-02 -1.142151667068899562e-01 4.802910148592049455e-01
-2.372547012327892724e-02 -1.193710249687389008e-01 5.485419777913236317e-01
-6.434824554514119097e-03 -1.273016353361012265e-01 5.042693297837959054e-01
-8.133930049730229983e-02 -1.201956567450089552e-01 4.850273205809552124e-01
-5.293998197344350343e-02 -6.669063245233937398e-02 4.402026298299190343e-01
-1.131536825779338729e-01 -1.011380803313303850e-01 4.584545459791817268e-01
-7.704151807437356614e-02 -9.195734821030031314e-02 4.470366559871795653e-01
-6.313219694398632120e-02 -6.047697699384309289e-02 4.372931081673921416e-01
-5.836746562885268552e-02 -7.743119132661227533e-02 4.424495907319175303e-01
-8.248254689574782694e-02 -1.198071182377949545e-01 4.816728556862465149e-01
-1.127392458824732629e-01 -1.221464570805980004e-01 4.891851899358512501e-01
-3.188193149473447091e-02 -1.118935099713961878e-01 5.475050611217713303e-01
-2.601134010334973587e-02 -1.042970629235683150e-01 5.560402009730489592e-01
-4.101944010143090957e-02 -1.172033693529909160e-01 4.867292702035103669e-01
-5.112743353901827437e-02 -1.138405378651200089e-01 4.787907552601711747e-01
-4.732687543653860823e-02 -9.668359926607783539e-02 4.558862538173963364e-01
-4.336296807864921388e-02 -1.186378864936779715e-01 4.910939935895861086e-01
-1.014159258775106792e-01 -1.237917145008121944e-01 4.886882147336020221e-01
-2.833082258162785555e-02 -1.235170983477671264e-01 5.082104782256671172e-01
-3.359470705967636944e-02 -1.161814072252384672e-01 4.843733035779936302e-01
-2.782162310898526197e-02 -1.238911087670753336e-01 5.118921945274765850e-01
-6.325918187640393493e-03 -9.600891838934288991e-02 5.703397713949450720e-01
-5.074552176596820036e-02 -1.000430364954998930e-01 4.577853448887866383e-01
-5.446605833846709238e-02 -1.165373476674133185e-01 4.841851310092147864e-01
-4.360710343581723075e-02 -1.219709230483776857e-01 5.187208951574217020e-01
-8.421554963459507159e-02 -1.154307434389913456e-01 4.657217224789859666e-01
-8.419401147009715480e-02 -8.021117883111776592e-02 4.408341884317922288e-01
-1.438250727992282027e-02 -1.270852627927037959e-01 5.157117367392194396e-01
-6.842958251174410811e-02 -1.080651004859477238e-01 4.632099970426314384e-01
-7.105717807084502291e-02 -8.917821002254047724e-02 4.457208016458202859e-01
-9.905512448513105472e-02 -8.358659200344802087e-02 4.505315753165834436e-01
-6.268015523283060331e-02 -1.166799365760579632e-01 4.824743289469376473e-01
-5.353144751436196558e-02 -7.731172658000591558e-02 4.433951199840198698e-01
-7.485536011833250625e-02 -1.119164790827038847e-01 4.666452088502869855e-01
-6.537525045385572664e-02 -9.879884134082371483e-02 4.538251252280280923e-01
-4.103104442563837440e-02 -9.274662716507471594e-02 4.541327769002771464e-01
-8.123798005082090434e-02 -9.986270872460906167e-02 4.520027681156987831e-01
-1.011104396680880396e-01 -1.184887235370997299e-01 5.070479422288896032e-01
-6.205329481330240649e-02 -7.189511457520109117e-02 4.398329302125558726e-01
-5.524348842268697601e-02 -1.073574580175536697e-01 5.353501231901470758e-01
-3.439051210887757171e-02 -1.014375415857332319e-01 4.624034516466258293e-01
-5.998154201178939465e-02 -8.771366134626445987e-02 4.466736111284934085e-01
-7.809848028058012648e-02 -7.413855546533816565e-02 4.378525705310710170e-01
-4.764940050988802911e-02 -9.831456725682388709e-02 4.572218487283864485e-01
-1.111433864893086876e-01 -1.032027280774106548e-01 4.565276525708824584e-01
-5.276033388692365905e-02 -1.118750285051378357e-01 5.350039991545052498e-01
-1.044407501758828904e-01 -1.165573395222827546e-01 4.652515048170162704e-01
-8.364067301976843560e-02 -1.200594715988231587e-01 4.809688630467010007e-01
-6.654598782035174576e-02 -1.151666016230164930e-01 5.264986004589500279e-01
-3.808401814971422439e-02 -9.403507196901857157e-02 4.555147206984728747e-01
-4.628802574691739252e-02 -8.104440941385161745e-02 4.459846626170626549e-01
-2.988818281700049428e-02 -1.134092340490093220e-01 4.785872668842351407e-01
-6.100263417696734358e-02 -1.215583062685079985e-01 5.048789819759973430e-01
-5.590117117198578622e-02 -1.179316770441320855e-01 4.881182022968005851e-01
-7.576033955067890124e-02 -7.008890161323891310e-02 4.369778882312128632e-01
-4.450320180182876922e-02 -7.846727290781871367e-02 4.451511407273558985e-01
-7.285027385763784280e-02 -6.257913455864407004e-02 4.361048114193964986e-01
-6.440528170903203620e-02 -8.080354367523681636e-02 4.420136282296366348e-01
-1.040635298970724876e-01 -1.197532415002080658e-01 5.018790755810307314e-01
-2.181012829759680985e-02 -1.254062932772558869e-01 5.250890944020953910e-01
-1.177684392817338332e-01 -1.029399733620946222e-01 4.669787526355055340e-01
-3.477935740507118179e-02 -1.154381784061397909e-01 4.828494426031789688e-01
-5.883192000502653063e-02 -1.188775112849722038e-01 4.909498174663909920e-01
-1.008209760120210852e-01 -1.023228446133590819e-01 4.525930559878531545e-01
-9.915929815141640014e-02 -1.214986518468972876e-01 4.657733279103767332e-01
-2.092882577713414335e-02 -1.249024013103456066e-01 5.053424826484848031e-01
-6.486658971967639020e-02 -1.086235914772001737e-01 5.300350479389909220e-01
-2.446422922589792590e-02 -1.242369514403319358e-01 5.311008241408509134e-01
-7.791491043617528034e-02 -1.191180270722300844e-01 5.183561551649755739e-01
-5.070333245474602929e-02 -1.107028497136471473e-01 4.731181063429130140e-01
-1.685231674307112806e-02 -1.177699361765025959e-01 4.803552087920550662e-01
-9.410250092610226991e-03 -1.277199222801032319e-01 5.092152555429066974e-01
-9.487489380750492585e-02 -1.236091120627298423e-01 4.889948128855493570e-01
-3.127424826777528560e-02 -1.234833686388445151e-01 5.172314492350947868e-01
-3.650426757574147529e-02 -1.151038977162400084e-01 4.822007337726969545e-01
-1.097553141768590340e-01 -1.215612388896115670e-01 4.776176507635392920e-01
-2.562318884027849422e-02 -1.013567600963087567e-01 4.601380722800337830e-01
-9.985876994682967023e-02 -1.232035059218646728e-01 4.692209107566653881e-01
-1.559718588192887494e-02 -1.116848009178284390e-01 4.696057774190988132e-01
-1.826458933082656874e-02 -1.263126944486085979e-01 5.222444103193119025e-01
-5.258203861424531889e-02 -6.111116697058768810e-02 4.388837297066661147e-01
-2.693748565213220647e-02 -1.088635792626008875e-01 4.704690520340055193e-01
-2.617103230779948067e-02 -1.239625400470658750e-01 5.299507116695789666e-01
-2.407046504840940765e-02 -1.159180613712672975e-01 4.809359800792104012e-01
-4.081922356379464115e-03 -1.289752818789696442e-01 5.148510625624341808e-01
-9.403804782758497238e-02 -7.860395897628776052e-02 4.470088754696601163e-01
-9.794289650364812472e-02 -1.215694694244410096e-01 4.649128472701943848e-01
-1.141177619864703341e-01 -1.053460227055314224e-01 4.604058182530202381e-01
-6.328218624687698135e-02 -7.687864383779619004e-02 4.409223869166451482e-01
-2.905097244545680468e-02 -1.085039985251683298e-01 4.701425021787816183e-01
-5.595854707467838585e-02 -1.144459603667322828e-01 5.318069933757717527e-01
-6.332486439472856388e-02 -7.632094682480249082e-02 4.407274179426164951e-01
-7.955780451596899949e-02 -1.202323727313126811e-01 5.160700305704937207e-01
-4.852247557649835147e-02 -1.205468131634278711e-01 5.006681327573035967e-01
-5.172806137535566201e-02 -9.642332073674124426e-02 4.545542905677546486e-01
-6.232031096896720884e-02 -1.216388914280476380e-01 5.120733686471716783e-01
-7.999273749359747665e-02 -1.184261314379786295e-01 4.750991603412744735e-01
-8.351042862338044215e-02 -7.579464702202645676e-02 4.387613245944377849e-01
-5.553286415386558122e-02 -1.154772041362239210e-01 4.811462475140965700e-01
-1.704277072438854096e-02 -1.262243961912082046e-01 5.106388061898819997e-01
-3.201115726892686530e-02 -1.220903507401076143e-01 5.021065323054021423e-01
-4.116966189857751424e-02 -1.140935114047434973e-01 5.398527611309412721e-01
-5.830124325705331179e-02 -1.213265347428638119e-01 5.046198394860241798e-01
-1.804704664584545065e-02 -9.789835232014910960e-02 5.651256073935396751e-01
-1.208513309883989528e-01 -1.126220102578984056e-01 4.837804454261512843e-01
-9.938521266319530478e-02 -9.078783365295560459e-02 4.490426785315682068e-01
-1.092615296218112375e-01 -1.083609685378578019e-01 4.589550907405096636e-01
-8.797861766079527468e-02 -1.220352866033194983e-01 4.859404278827079149e-01
-7.412795200047760102e-02 -8.740186187345116986e-02 4.443437097235577449e-01
-2.502467574752773732e-02 -1.133757100238318299e-01 5.552510877152151414e-01
-3.222711300568157494e-02 -1.043971783269930509e-01 4.652135777615299395e-01
-5.386176673613500554e-02 -1.133468360182381257e-01 4.772046720970264388e-01
-4.700669462923171699e-02 -1.217254565211774719e-01 5.173852133082540439e-01
-4.156746052132813396e-02 -1.212021012913873236e-01 5.313787454762791684e-01
-8.573208508122537319e-02 -1.224836598055447645e-01 5.054323976783048344e-01
-6.242816245809208742e-02 -1.073044811016077849e-01 5.315178596545981904e-01
-1.505166414123377573e-02 -1.178911844351507449e-01 4.800709030320027271e-01
-1.762418374928871601e-02 -1.037683826831889006e-01 5.647652387157889864e-01
-2.050323961398711065e-02 -1.235750862423397184e-01 4.985068777281581598e-01
-2.147133425275446830e-02 -1.225796082036928469e-01 5.427415772934821581e-01
-1.995879438344554113e-02 -1.200147824598327417e-01 4.870186713030937864e-01
-1.559331619542993555e-02 -1.233112792860428103e-01 4.939399419887855469e-01
-1.010272901870950674e-01 -1.228682268207785949e-01 4.762482759849948621e-01
-4.031115877057196706e-02 -1.212365488835978888e-01 5.319626622398359039e-01
-9.610968612348814999e-02 -1.232977036532035969e-01 4.953251708136586773e-01
-1.088359248556931003e-01 -1.203904282598591696e-01 4.984159436171086144e-01
-5.466263017584529343e-02 -1.119028592414657575e-01 4.741214887530043609e-01
-1.121841543492283905e-01 -1.222579944726452233e-01 4.872363140445573060e-01
-8.933149824242730963e-02 -1.166171302443599345e-01 4.607483368495110532e-01
-3.113127532141015535e-02 -1.219172039944135810e-01 5.005332714837924524e-01
-4.638513717821385329e-02 -9.859917025955416969e-02 4.577929774112948214e-01
-4.183997741139539733e-02 -1.174999661939293560e-01 4.876363208390359083e-01
-4.042587200233507122e-02 -1.213719717669894116e-01 5.029634400435593067e-01
-1.383182274395894536e-02 -1.176917523376692504e-01 5.546557605794839585e-01
-4.182495336657906376e-02 -8.218496409333092556e-02 4.470466667425469498e-01
-2.782182704985394772e-02 -1.038392468172633365e-01 4.637254381564368533e-01
-3.318956896168329118e-02 -1.226704342011233351e-01 5.079560298514824712e-01
-9.406783194956079563e-02 -1.159838944422802581e-01 5.127703725352286135e-01
-2.393521158844422875e-02 -1.248813426225414969e-01 5.162183787553075165e-01
-1.004020941333151756e-01 -1.202786664837544317e-01 4.659184615276938946e-01
-1.061863707846494032e-01 -1.153820708251279276e-01 5.034693381038584103e-01
-7.444533457819826894e-02 -1.082258687719258455e-01 4.615145926317723024e-01
-4.924564268474826423e-02 -5.838857667275895030e-02 4.386847093608144399e-01
-1.095263710668658991e-01 -1.000248756866469330e-01 4.544479716743799469e-01
-9.728553262831896031e-02 -1.233309211696568264e-01 4.666439447822884334e-01
-7.614524068542841140e-02 -1.169807380824647719e-01 4.755091309660776644e-01
-4.101671620983313865e-02 -1.153690619356536606e-01 4.826305318186634996e-01
-1.297993000689883630e-02 -1.146715995964296270e-01 5.587515441442790776e-01
-5.368254267982733308e-02 -1.156382032305471597e-01 4.818890197830070776e-01
-3.646656713722826876e-02 -8.550896537816610188e-02 4.492244342739926122e-01
-1.200192341382457645e-01 -1.163575550440312245e-01 4.875816706639675702e-01
-7.797929775303749644e-02 -7.325067464256088123e-02 4.376758385266379947e-01
-5.699077882346625934e-02 -1.104680448410118171e-01 4.706461208172090238e-01
-2.924820647782687411e-02 -1.156310117969794604e-01 4.825964307319355884e-01
-8.434409242819340680e-02 -1.107846074509316187e-01 4.604469725568405836e-01
-2.318305142678128705e-02 -1.210661996509819482e-01 4.922821716962164085e-01
-4.763770426499737420e-02 -1.037212128452707077e-01 4.631310091588105027e-01
-2.277034557966411271e-02 -1.248541143925340213e-01 5.298493678416803521e-01
-7.829737628705400743e-02 -9.049999658203387864e-02 4.459997639898824473e-01
-4.164857729047923701e-02 -1.221447988589901973e-01 5.213700190569776627e-01
-8.499973250334677544e-03 -1.282940628496719582e-01 5.225451218797984021e-01
-4.366412938972382557e-03 -1.261601034501901863e-01 5.326540116112794543e-01
-6.259119212110242358e-02 -1.143535861662378500e-01 4.769273522600022686e-01
-8.588882403166261947e-02 -1.225030825052469963e-01 4.902372801590015317e-01
-4.410613607731443155e-03 -1.276944122237121948e-01 5.290912844473419918e-01
-1.198162941911474488e-01 -1.169585520592161809e-01 4.870845994921848554e-01
-3.956347609498966911e-02 -1.114092384723022744e-01 5.417258396231061646e-01
-1.610944987568512649e-02 -1.180848621511754598e-01 5.538472448076963150e-01
-6.916688448188506103e-03 -9.691341509609867344e-02 5.698903083382159673e-01
-6.093687057450374728e-02 -1.215689585534358574e-01 5.121965948833148152e-01
-7.266994312201706385e-02 -1.212965315187854581e-01 4.926637284815971185e-01
-8.522020874441896265e-02 -1.136295390496563362e-01 5.191019357674778734e-01
-9.366041704519677269e-02 -1.229960585359619746e-01 4.711744850918397898e-01
-6.626245335609981524e-02 -9.891622222812963827e-02 4.538161002750912276e-01
-5.713145853783617445e-02 -1.121533578385140867e-01 4.738541387465636245e-01
-5.630026372682340324e-02 -1.062951535769133121e-01 4.643351219062369362e-01
-3.463715211234517921e-02 -1.174439229604735402e-01 4.870496691144258206e-01
-4.409003524640009442e-02 -5.750005057485942095e-02 4.388917102345577526e-01
-3.397161200305522794e-02 -1.191777944952807783e-01 4.916344705682731964e-01
-3.235383089431239506e-02 -1.068576915126287635e-01 5.475491677044957983e-01
-1.117765791005067844e-01 -9.915435413984281798e-02 4.561501820543442665e-01
-8.574199653122785425e-02 -1.226801705115518615e-01 4.927288544481477350e-01
-9.253351076784425977e-02 -1.163626748859429016e-01 5.132084643243942645e-01
-6.426131781593333314e-02 -9.442103249982511382e-02 4.503744030960031841e-01
-1.044819917879605264e-01 -1.147408945805386687e-01 4.633700069115992415e-01
-1.041918034668604109e-01 -1.053858953956557098e-01 4.551855620017364878e-01
-6.963791195962552860e-02 -1.219596671377110586e-01 4.999279764810182214e-01
-7.044261613590059416e-03 -1.281575041437194862e-01 5.099644311529121232e-01
-9.283766372992736243e-03 -1.262062737850305760e-01 5.315901439902608328e-01
-7.555681630863210485e-02 -1.076917913934048870e-01 4.605666604668384179e-01
-1.867933310965378887e-02 -1.233719994197744890e-01 5.414793462554535752e-01
-5.168062991835911668e-02 -7.817967321483150489e-02 4.440748761088614271e-01
-2.933323513082154027e-02 -1.162506996684376792e-01 4.841450949370766366e-01
-9.342422978072799367e-02 -9.902479089462706829e-02 4.499951747345530828e-01
-1.475777441024485499e-02 -1.236361385156603404e-01 5.405801153367871814e-01
-5.994932404213636906e-02 -9.134276011873378176e-02 4.489260348212590346e-01
-1.088816350882794021e-01 -1.183348725697293963e-01 4.998556175240501664e-01
-5.808806921445645172e-02 -1.189243425960080508e-01 4.913689843115326972e-01
-7.832793618770139688e-02 -1.077290828410358142e-01 4.597693491208749705e-01
-6.593015104274814464e-02 -1.130416844539751248e-01 5.281606532916546248e-01
-9.938571157023209923e-02 -1.047681015403524180e-01 4.541603360470101158e-01
-3.103263199965916250e-02 -1.110933854222772021e-01 4.741579495037578362e-01
-6.313980846119934820e-02 -1.165506278355398079e-01 5.265765040216691117e-01
-6.941779672018620617e-02 -1.141958229729278934e-01 4.737730394299359826e-01
-6.251025427507992012e-03 -1.279936206261124976e-01 5.078997557756202985e-01
-4.750862172028323671e-02 -1.208497916074599138e-01 5.254561610289362195e-01
-2.994406036703802648e-02 -1.232706532728156390e-01 5.083605562379166498e-01
-2.642536721132205182e-02 -1.227301435441042476e-01 5.004766766920005772e-01
-5.826281632452746939e-02 -7.536394261777469572e-02 4.418469239753344824e-01
-9.911714256478083851e-02 -1.232909843561593027e-01 4.670630855079673793e-01
-9.788761882154881078e-02 -1.136804946745965661e-01 4.590697124569939058e-01
-7.803511426871845291e-02 -1.175026378148786299e-01 4.753663910586548025e-01
-1.179215911137223155e-01 -1.135116146255465280e-01 4.714290873301111851e-01
-8.198866461965451102e-02 -1.216983608175496862e-01 4.897829476374437330e-01
-1.087996123286911337e-01 -1.215504100231628026e-01 4.959764649093540423e-01
-7.918492231852614083e-02 -8.439146809753664269e-02 4.420784933581133891e-01
-7.557818361075248348e-02 -9.918117169303750091e-02 4.524703540419622860e-01
-9.716265344328950393e-02 -8.447911664574010715e-02 4.475688341875693199e-01
-3.120080039149031315e-02 -1.213159080887205865e-01 5.380249385405373452e-01
-6.196678440094263718e-02 -1.160673564826351645e-01 5.279491280597142788e-01
-9.081750590062354078e-02 -1.128719858842523460e-01 5.162196556520826096e-01
-9.179059504708173001e-02 -1.224184440427890097e-01 4.839554141236423468e-01
-8.055926035882278458e-02 -1.134448580441501653e-01 4.659363624548693572e-01
-2.673024712516414853e-02 -1.230238748471803312e-01 5.023163704774690208e-01
-1.999683124336881432e-02 -1.257896159419296944e-01 5.264155781667632095e-01
-3.375790497701827708e-02 -1.203735938605986627e-01 4.953812110862984563e-01
-6.112958613724850387e-02 -1.033047153578872945e-01 4.590922616607225337e-01
-6.867927548759644729e-02 -1.222237689238780262e-01 5.051810134121028639e-01
-6.339058103550219980e-02 -8.970410865697275860e-02 4.471765464271326151e-01
-5.901887635896667372e-02 -1.004328408430179842e-01 4.564709351372468471e-01
-7.908199575031640838e-02 -7.322691488099333790e-02 4.376943973345145400e-01
-2.870136552543824104e-02 -1.185037745333614168e-01 4.886791174729410714e-01
-8.188980371104344347e-02 -1.159347348767707508e-01 5.200880165058890947e-01
-9.879206845977626938e-02 -1.078194119736061579e-01 4.561843650058246546e-01
-1.195468795101664039e-01 -1.034223950490139876e-01 4.711265137458206520e-01
-5.830094060373473136e-02 -1.087431202329064983e-01 5.330306044102861573e-01
-2.195069118254668744e-02 -1.039288307627831420e-01 4.617734934277756831e-01
-8.362674377178984375e-02 -1.125564187851611497e-01 4.624681946679459754e-01
