-9.684134378117442710e-02 -8.848471902119095511e-02 4.475893598481401892e-01
-5.760766854098881701e-02 -8.788809000714709052e-02 4.472338462133726433e-01
-5.290443987360647637e-02 -1.121307946290770324e-01 5.347822537280815247e-01
-9.373451235292612482e-02 -1.136991374857391768e-01 4.588791432322305019e-01
-1.154845296875915972e-01 -1.197329978248670018e-01 4.919200014092874329e-01
-2.448275870239932997e-02 -1.223452254766193986e-01 4.970919746916280801e-01
-2.487228294797737965e-02 -1.242931148629285720e-01 5.092113337735066914e-01
-1.149960345327037670e-01 -1.119516847001378185e-01 4.654473343938592689e-01
-4.312114423860562151e-02 -9.233522273939599734e-02 4.533875506526268695e-01
-3.825510487894141082e-02 -1.219008573624081188e-01 5.291813597670467217e-01
-8.387792329186499751e-02 -1.009699245955367614e-01 4.522916335653515141e-01
-2.273389617422708064e-02 -1.101858062714549807e-01 4.707259146850328868e-01
-9.887826872268357103e-02 -1.155734990960423508e-01 5.104604465536378699e-01
-4.096007975534590728e-02 -8.359007213324846919e-02 4.478040583293527166e-01
-2.403151952117079868e-02 -1.083319049090686742e-01 5.579313471559326221e-01
-6.332506207096123829e-02 -1.136793761890626947e-01 4.750239864659985822e-01
-7.274959960615167386e-03 -1.255232077419203007e-01 5.329925367515662149e-01
-1.282957016792341844e-02 -1.238415783446203677e-01 4.941376970339546593e-01
-4.134183647198837880e-02 -1.220492184533724656e-01 5.084650835245242417e-01
-8.066537744647779562e-02 -1.187685655252197076e-01 4.746058625649771656e-01
-3.361741027120651593e-02 -1.209710108507572046e-01 5.369246141925907434e-01
-8.205826692319717619e-02 -1.140633477696308268e-01 5.208677551833589270e-01
-4.778867365754116414e-02 -1.120474461850789194e-01 4.757286381483119553e-01
-6.822008256777957469e-02 -1.171690524769402331e-01 4.809143167902199534e-01
-1.891422451837579399e-02 -1.207826566160409704e-01 4.884994684709788038e-01
-5.195034044276497509e-02 -1.079957545427995130e-01 4.677959860653184143e-01
-4.699823522538484379e-03 -1.289382574965296790e-01 5.223447715764651944e-01
-4.488865220281346852e-02 -7.913676006599787427e-02 4.453631966356598193e-01
-2.117643862832260804e-02 -1.029976628183537218e-01 4.603612672518820337e-01
-3.275734126195009588e-02 -1.204199633927033330e-01 5.394032099583467854e-01
-8.635537559299799604e-02 -7.711455246765334948e-02 4.412966943375540851e-01
-7.741658045499077989e-02 -7.879773845930684861e-02 4.392586328945976559e-01
-8.467124772774563268e-02 -1.161690579442392207e-01 5.179870171709397564e-01
-1.957734147652703122e-02 -1.213099295823215490e-01 4.903920752988989440e-01
-5.406024092775822687e-02 -1.212675782392934193e-01 5.044092512386181282e-01
-7.856988897069017153e-02 -1.072712040146697327e-01 4.590482058520757858e-01
-5.811451547448821808e-02 -1.198222537369608154e-01 5.236600805128099889e-01
-7.059045122090076840e-02 -9.746981639951737830e-02 4.518500733911524625e-01
-6.371489879912862336e-03 -1.276226393943279691e-01 5.286421312922109372e-01
-6.054540438171582967e-02 -1.209244185759025814e-01 4.990153226761667726e-01
-1.961755320140097167e-02 -1.009189522265619560e-01 5.639809736063093881e-01
-1.001962935148844880e-01 -1.213451236799839295e-01 4.666958154160084082e-01
-7.688973188929563995e-02 -7.098289249093277242e-02 4.372199099156837132e-01
-3.306381429677725942e-02 -1.069544156912959065e-01 5.466191846709888003e-01
-6.607292846748244464e-02 -1.215843083253654727e-01 4.994284461589804658e-01
-3.992288927047792091e-02 -8.913256404183737824e-02 4.513422381722514420e-01
-5.597558341841308432e-02 -1.163544905578046684e-01 4.830909005323582028e-01
-5.796259640288282944e-02 -1.076083342985730967e-01 4.656088558706314440e-01
-4.225252669047983856e-02 -1.175892689733339241e-01 4.877784009555757305e-01
-1.625850262800293891e-02 -1.267347010991354272e-01 5.235964487997909478e-01
-1.070026665131241922e-01 -1.139902039968561515e-01 5.039515689486652184e-01
-2.318972326662481834e-02 -1.250449151596627062e-01 5.268289441345870294e-01
-1.002675915036371594e-02 -1.239519273281268347e-01 5.381302279173233449e-01
-4.489291708469800302e-02 -6.673637110521439542e-02 4.410001983174332008e-01
-6.493247471856360142e-02 -1.083142018258687750e-01 4.646134881929937510e-01
-8.748315442459858593e-02 -1.168143916289430123e-01 4.620858980374861202e-01
-3.108904844939803722e-02 -9.519167050238229455e-02 4.564462179974225764e-01
-7.320974859410181446e-02 -1.101223682406727855e-01 4.642861593241820461e-01
-7.512176436021564263e-02 -1.215857600511733860e-01 4.922501362053575136e-01
-2.730964476161381813e-02 -1.023756085330286003e-01 5.528854194303041147e-01
-7.023936428614706295e-02 -1.114486115469515148e-01 4.677538744049942188e-01
-1.256973091285441824e-02 -1.214339469980137837e-01 4.871988330378807519e-01
-3.881225169425771282e-02 -1.141055810152937638e-01 5.414607595661689032e-01
-2.432261669913738864e-02 -1.248068183821455235e-01 5.255480357264593616e-01
-5.243647034424078063e-02 -1.032486499472572428e-01 4.611475146099683897e-01
-5.746915586276198779e-02 -1.154056345022524688e-01 5.306561044903924662e-01
-9.485626358226349752e-02 -8.912536934008820355e-02 4.463302942993027655e-01
-9.631678823094771968e-02 -9.512036292659983849e-02 4.484176065115922927e-01
-2.568371949620385647e-02 -1.245516675701319187e-01 5.218274880904004709e-01
-9.199515070252224647e-02 -1.161940450474202580e-01 5.136201252140042417e-01
-1.478399463403435969e-02 -1.181224055121896238e-01 4.804837374264518401e-01
-8.611192577896213673e-02 -1.208057482069374855e-01 4.769440456694955532e-01
-3.438894359977857917e-02 -1.196110462831084104e-01 4.927974086216129757e-01
-2.782485920038141672e-02 -1.241446618755504827e-01 5.200758359654626961e-01
-6.841862979866625283e-02 -1.197239473137933635e-01 5.190335070340084123e-01
-1.195304508669879223e-01 -1.166105876072089237e-01 4.823936305877475350e-01
-1.111893230999734944e-01 -1.187613848067242683e-01 4.712061816932863745e-01
-1.131472596253632334e-01 -1.222002720379188334e-01 4.844648631654837612e-01
-3.550358123423695555e-02 -1.194570897109872298e-01 5.395957079343678409e-01
-3.320541305865982312e-02 -1.158340160331879781e-01 4.835548353450617176e-01
-1.251018146459197296e-02 -1.127420172024059114e-01 5.608306690098847636e-01
-4.760532623166777860e-02 -1.132634801008401554e-01 4.779638030322045372e-01
-6.502368494525895271e-02 -8.979897152875333799e-02 4.469001529832464237e-01
-3.493997660045716075e-02 -8.515078615823919173e-02 4.490908427627797739e-01
-5.680089893579513827e-02 -1.148356701734853241e-01 5.312385313908513096e-01
-9.798576149391430290e-02 -1.235905665430532124e-01 4.696890405896509413e-01
-4.405172420585414667e-02 -1.207227582339698291e-01 4.998387781648594430e-01
-6.882952217833221420e-02 -8.287893337613888578e-02 4.420671065150070800e-01
-2.407871201127348079e-02 -1.231863695332384573e-01 5.374730760010252295e-01
-9.841366261031564422e-02 -1.226986458457499929e-01 4.996369197838670395e-01
-7.957589407617099431e-02 -1.194072594973076135e-01 4.797565973073308343e-01
-8.586597586804226023e-02 -7.297432137296777643e-02 4.401756817330894078e-01
-5.624697176137515714e-02 -1.187476600967134061e-01 5.269592445296414907e-01
-7.439098870694312027e-02 -1.220531148649506153e-01 4.948891277212260631e-01
-1.036637513014851686e-01 -9.733527040811347508e-02 4.510590978249352512e-01
-8.256287896342670574e-02 -1.181767939636499121e-01 4.711734166179756822e-01
-4.763615648756715920e-02 -1.116197555575315081e-01 4.750493908564712986e-01
-1.001592993053753433e-01 -1.221124016294346248e-01 5.010695073147314327e-01
-5.164538455711174814e-02 -1.153924049669613899e-01 4.816654115422724924e-01
-5.192070546557625565e-02 -9.244742684818835210e-02 4.511347989375319445e-01
-7.803092836877467686e-02 -1.069438373602285830e-01 4.588553787264735839e-01
-1.037855263085164792e-01 -9.214422933014845829e-02 4.510565032305230426e-01
-1.758397195584961159e-02 -1.174410838584846045e-01 5.546181477687173178e-01
-3.697232878232854097e-02 -1.215732332810219307e-01 5.020064632971976692e-01
-5.805351309534723808e-02 -6.395855946281715776e-02 4.386868403931420968e-01
-4.602386829477942559e-02 -1.038790003028449982e-01 4.635919351135336375e-01
-1.060243507274281627e-01 -1.015204790072444241e-01 4.533827837709401565e-01
-3.951711238990912589e-02 -1.221773874485821282e-01 5.257855250225833554e-01
-1.062956013593358839e-01 -1.096956447207619867e-01 4.591319484962781416e-01
-6.021151387624403689e-02 -1.215527411295529159e-01 5.127438411721845224e-01
-1.094353730921189122e-01 -1.217831410069833281e-01 4.776704627421568539e-01
-2.595094591714005097e-02 -1.244588304878774115e-01 5.155770143955558105e-01
-8.071973135812417210e-02 -1.125212691000277293e-01 4.640222370854837908e-01
-4.759502096394915838e-02 -1.123469286915902143e-01 4.762566733468766578e-01
-3.552059804321585496e-02 -8.939067878486588181e-02 4.519762687695075276e-01
-3.005092677300792714e-02 -1.229336734702619061e-01 5.051567931909269893e-01
-1.252337247280832511e-02 -1.202958536452650717e-01 5.502536741816091981e-01
-8.867812642686122293e-02 -8.978647480281530535e-02 4.453474545273948815e-01
-4.877412705149986039e-02 -1.191497373296486612e-01 4.933738177399711877e-01
-1.010625946760265459e-01 -1.229284008085046453e-01 4.755960583985191503e-01
-7.593393537207093758e-02 -1.227783933460925292e-01 5.016165952877378320e-01
-5.784873046771066979e-02 -8.863611109705081537e-02 4.476130814045406470e-01
-9.815767418093204744e-02 -1.213215984686165094e-01 5.065261675002790120e-01
-2.229915080737189179e-02 -1.096910223979422339e-01 5.600804632864111454e-01
-7.296666121728191678e-02 -6.672426985163479318e-02 4.360433349986472806e-01
-7.979363528192841282e-02 -6.721788992021919540e-02 4.374686607793354942e-01
-1.061339743392912538e-02 -1.276948212627882495e-01 5.117843771831959154e-01
-4.776008996192626643e-03 -1.230209768341107568e-01 5.385339288445092354e-01
-5.657626239232102505e-02 -1.201224459257639460e-01 4.964169429653048637e-01
-7.605281191434513921e-02 -1.223324538448187782e-01 4.958999160428944619e-01
-2.437410653648394362e-02 -1.145730871809532564e-01 5.549120263594549129e-01
-1.046857589532511762e-01 -9.656726549317094788e-02 4.512893432267236493e-01
-6.370084421660637646e-03 -1.233729759444969626e-01 5.381875206420968505e-01
-6.884130493777942950e-02 -9.011173536629669967e-02 4.464870385006897702e-01
-7.690685673728099581e-02 -1.219552131220558583e-01 4.929304781792444579e-01
-6.914849213011436957e-02 -1.146522074567753041e-01 5.264043423206629102e-01
-1.104764512902886020e-01 -1.065099054973236842e-01 4.576642394996653929e-01
-8.316757084814346834e-02 -1.212929045542424644e-01 4.872114252435616466e-01
-4.218865552445624778e-02 -1.214773971276360831e-01 5.295225138586545643e-01
-3.764554535402678953e-02 -1.224578408634319493e-01 5.109732700659795901e-01
-6.747619335560546550e-02 -7.848079557612418211e-02 4.403187063986657712e-01
-4.434172778692285072e-02 -7.848139356932343214e-02 4.451634073593851992e-01
-6.034217103382904374e-02 -7.614874946580889314e-02 4.414760618571772488e-01
-6.417196770500720182e-02 -7.500154241650880405e-02 4.400462875127572060e-01
-6.832632213622027995e-02 -1.179067272060130844e-01 5.229868559262685901e-01
-1.384010782232971380e-02 -1.212951578180990753e-01 5.484808947243696720e-01
-6.860797893157799532e-02 -1.116665324225249445e-01 4.688495469280368755e-01
-8.293537982698791222e-02 -1.126085064218999010e-01 4.627129800082580569e-01
-5.645003071126710598e-02 -1.191672113398093008e-01 5.259086465362436957e-01
-3.869101082372619627e-02 -1.216173305389865733e-01 5.311698474482470234e-01
-8.724253908538619207e-02 -1.210573866864560061e-01 4.811878910165420242e-01
-6.422471593948123059e-02 -1.108277656771824160e-01 4.690417121484790619e-01
-1.883609681896257840e-02 -1.250922985005276378e-01 5.041584067812442393e-01
-2.844518022921502590e-02 -1.239992300504058620e-01 5.180819777880005805e-01
-4.227407887990203977e-02 -1.211427358045897018e-01 5.314507015352095687e-01
-6.185598808840291063e-02 -8.128513946984058935e-02 4.429163616308955387e-01
-2.317988038898674552e-02 -1.096619927221460372e-01 5.587410323899326681e-01
-3.409872808506025921e-02 -1.152545887669929603e-01 5.443992118326610452e-01
-8.024572033790698666e-02 -1.123119187366136140e-01 4.639757924847139892e-01
-1.104837014495835129e-01 -1.198646445286495749e-01 4.728795995824435772e-01
-1.154302108083210959e-01 -1.049890451636914662e-01 4.619782401413124462e-01
-6.179758189827019854e-02 -1.189390810585902736e-01 4.896149827172386337e-01
-4.836679996257316205e-02 -1.189273957398830489e-01 4.922713763719954727e-01
-7.114708047002747671e-02 -7.369903989106842135e-02 4.381107697855284866e-01
-5.271951549889633548e-02 -1.217446517108599496e-01 5.107887717363450708e-01
-3.587110766995810912e-02 -1.125491904994782300e-01 5.436279170202019673e-01
-4.733442865192059174e-02 -1.205917102449267919e-01 5.275507518866946466e-01
-1.338043366002654964e-02 -1.268316395537477381e-01 5.259083401809226954e-01
-5.724800407751858000e-02 -1.008169053556014494e-01 4.570977028271346332e-01
-4.498822082184304738e-02 -1.112843317250524905e-01 4.749040710078106797e-01
-1.048472136089443757e-01 -9.378263793862240405e-02 4.520811182074632728e-01
-5.896312236914991178e-02 -1.216220488765202834e-01 5.074864985247234950e-01
-8.454152826721905711e-03 -1.242045035996773295e-01 4.935161939084491967e-01
-3.655305036511871664e-02 -1.223025061900954447e-01 5.080971523243525967e-01
-2.937680531820590496e-02 -1.079322706791215475e-01 4.692892206885985740e-01
-6.120817227952448508e-02 -1.214372098143672724e-01 5.013142286290932503e-01
-9.186483360772974838e-02 -1.041791215804323961e-01 4.535426139821144842e-01
-6.352671162274216299e-02 -1.047583264131581315e-01 4.600741369846738649e-01
-4.257940802879626313e-02 -1.210645329664945397e-01 5.316714518691129099e-01
-1.170238813681556411e-01 -1.018168322061441672e-01 4.659591502859324330e-01
-8.497326898100458076e-03 -1.257972074165728815e-01 4.990016484175572309e-01
-3.717369059753736910e-02 -9.707992107704518925e-02 4.581444560586265813e-01
-1.958981868028525711e-02 -1.259133391364821442e-01 5.171915243179779909e-01
-1.188043010926260190e-01 -1.017830190921515804e-01 4.708736084476544126e-01
-6.409779421890528239e-02 -1.157132322012516118e-01 4.790208663715687099e-01
-8.575889325128156770e-02 -1.207114022698893147e-01 4.777288066317553206e-01
-5.708997997414964193e-02 -1.178703062939405605e-01 4.872697843554500974e-01
-9.981047664346075210e-02 -1.238517145051993007e-01 4.855748442656469543e-01
-3.969150882108156420e-02 -9.116756637499716376e-02 4.529595217156677234e-01
-6.067805161523575491e-02 -6.783213196241030807e-02 4.391553012486062446e-01
-3.420653891017438886e-02 -1.191101420758179097e-01 4.913722933205114107e-01
-1.129110993079022324e-01 -1.182397359472900783e-01 4.975245345371931416e-01
-2.739339482543129076e-02 -1.214337676821062445e-01 4.957326917265371669e-01
-2.427515170814614417e-02 -1.188128444365014191e-01 5.493905213744413318e-01
-6.661411642426061375e-02 -6.839830118676774873e-02 4.376872350125534661e-01
-5.959408685781509424e-02 -1.188888257587964459e-01 4.903478972892748589e-01
-4.355297349579929922e-02 -9.490981069450359076e-02 4.553089072144809735e-01
-2.446315403052857357e-02 -1.212729219430524058e-01 5.438932143816405107e-01
-7.752258469076270253e-02 -8.289193412295556285e-02 4.411728062835670872e-01
-4.337034800546740038e-02 -1.170568447963156317e-01 5.368027899408586157e-01
-7.901455437953325278e-02 -1.218747386297141660e-01 4.912968779608723469e-01
-9.525981776643409338e-02 -1.225430670298863350e-01 5.017432202759849469e-01
-4.117300563256633822e-02 -1.202874665661460563e-01 5.353607583400907810e-01
-3.027925545750652370e-02 -1.193282794790660739e-01 4.906866829331995583e-01
-5.239393983123112608e-02 -9.494513378630570211e-02 4.530751930604201005e-01
-7.993297726546248760e-02 -1.140832098556367608e-01 4.671777624261045925e-01
-1.722155863523616021e-02 -1.159946742134390640e-01 4.770540503180654701e-01
-2.401133823708547985e-02 -1.005195038226870535e-01 5.586376878222603093e-01
-5.695818719264983399e-02 -5.986680438067928239e-02 4.381535712315144937e-01
-4.569957177182781827e-02 -1.133226304871742390e-01 5.373937868326400524e-01
-5.397609270072193516e-02 -7.532066707306692144e-02 4.426469720268486063e-01
-3.177206591947597664e-02 -1.234208413792931419e-01 5.226175184572241506e-01
-9.219424833044717604e-02 -1.229739946844872478e-01 4.994530541840599969e-01
-8.968795415779715063e-02 -1.226357183682591362e-01 5.036469922047731584e-01
-4.481062890676352356e-02 -1.207517244948961288e-01 5.003551064967364237e-01
-7.024585651582467005e-02 -8.617033998600162614e-02 4.438337481336955270e-01
-4.266199334226521839e-02 -1.004603962877695517e-01 4.604483362103366506e-01
-1.162184371586487547e-01 -1.201869443359304401e-01 4.791012080459368661e-01
-8.831898318271985682e-02 -9.175209162974518051e-02 4.462888160913560665e-01
-1.858783850281944469e-02 -1.256103256332434526e-01 5.305463258609188770e-01
-1.174572685039119990e-01 -1.035933890797137852e-01 4.662217673258879369e-01
-9.731670079925947014e-02 -9.741662373493413518e-02 4.495579863197843862e-01
-6.184826548871230623e-02 -5.982118359735636576e-02 4.374050577052858158e-01
-6.592910060390301530e-02 -1.215402070099678711e-01 5.143272111107191069e-01
-7.013665718972357521e-02 -1.190744634017578962e-01 5.195652247036327553e-01
-7.588815168233907504e-02 -1.089753256361681022e-01 4.617231172150750296e-01
-3.616035757968875247e-02 -1.165685733908704974e-01 5.414885062233657509e-01
-5.565586616824205052e-02 -1.206978765428566858e-01 5.003409630256261398e-01
-2.934567069994964417e-02 -1.207903857348437693e-01 4.946928100568031006e-01
-2.794094711916548374e-02 -1.238937875329668009e-01 5.121717590691137190e-01
-4.190124701064429358e-02 -9.732866344535630321e-02 4.576852117978333356e-01
-1.126692241543118533e-01 -1.217697283411730558e-01 4.807532893125129880e-01
-8.673890217839332062e-02 -6.945079770595083413e-02 4.423775922985683784e-01
-5.403130852266888745e-02 -1.003274445180310226e-01 4.571897300556070354e-01
-5.636291058703493673e-02 -8.168480953527730570e-02 4.443850712741509446e-01
-9.693225730205538848e-02 -1.235593044641643407e-01 4.938768702754077755e-01
-5.764258116441361296e-02 -1.189034292794417108e-01 4.910878959522680387e-01
-9.084991726915134236e-02 -1.196911920837056414e-01 4.645103609500274566e-01
-7.566128645782820017e-02 -9.788264093568321833e-02 4.514221626551540578e-01
-1.020826738421451441e-02 -1.201367212185314309e-01 5.502849388353409088e-01
-6.015997663332731116e-02 -1.107089319735885952e-01 5.314124437896073916e-01
-5.047927195826995908e-03 -1.244993496334037414e-01 4.936446274044126725e-01
-3.181302524617472816e-02 -1.156582592874416671e-01 4.831442833771396050e-01
-7.722547603607572697e-02 -7.354401515262216915e-02 4.377281144907395616e-01
-7.479079908569207305e-03 -1.263458397287053891e-01 5.004405394495473614e-01
-2.857694074241366733e-02 -1.047333708674262481e-01 5.520236497127409825e-01
-4.312127472781839693e-02 -1.116800538031292173e-01 4.757079330088137548e-01
-3.074790074064503304e-02 -8.502047680139540597e-02 4.485878016016769942e-01
-1.067285595398742432e-01 -9.885562492944731383e-02 4.527980388820799229e-01
-8.487682771338879439e-02 -1.228738276989375100e-01 4.946425407674048813e-01
-5.760899483068537136e-02 -7.294422938600435280e-02 4.412759807168172843e-01
-1.044387282674378165e-01 -1.195870331473497666e-01 5.018163541349185408e-01
-4.115462274462877018e-02 -1.147963724488234444e-01 4.812975138272239106e-01
-1.077179528266643121e-01 -1.224905639910269795e-01 4.795320601735777455e-01
-1.012839523146424059e-01 -1.204928219644363363e-01 4.673754690823340718e-01
-8.280985722749294176e-02 -8.578424970304213137e-02 4.428950190150141020e-01
-5.550779856338665386e-02 -1.102434051827924366e-01 4.705597859122053195e-01
-8.472286786151039806e-02 -1.218848161969155325e-01 4.873950673271371659e-01
-9.032896557623629197e-02 -1.191366025758123504e-01 4.636467166112475113e-01
-3.148551713622844972e-02 -1.135421421914811352e-01 5.476984806075555490e-01
-2.019534348784730524e-02 -9.825101276207080792e-02 5.638269452624298239e-01
-3.511964573746060442e-02 -1.035807880658544261e-01 4.644131421487192601e-01
-4.703943512889296324e-02 -1.042659763430719144e-01 4.639128468277671224e-01
-5.357885747920085318e-02 -8.339253128997010933e-02 4.456002111717983216e-01
-8.260608987284671911e-02 -7.087667094148200619e-02 4.382277098029573326e-01
-5.561346618077794846e-02 -1.211522626661420132e-01 5.195914729371909901e-01
-3.195834026271708594e-02 -1.232956109998131211e-01 5.149483962168949214e-01
-2.871789403378201266e-02 -1.239167633299320948e-01 5.250668441480242921e-01
-9.005942409346763544e-02 -7.942593597500456626e-02 4.437711394766443163e-01
-1.167899528256774871e-01 -1.179553503663921116e-01 4.926101028376939084e-01
-9.741816697049303364e-02 -1.212726662953795831e-01 5.069151576804182824e-01
-6.963851376382131086e-02 -6.459751186204112927e-02 4.363198938081570000e-01
-8.009621490994793536e-02 -1.072775427878169402e-01 4.585515496896028220e-01
-7.233914433236393604e-02 -1.202981112867396729e-01 5.169273863589175511e-01
-5.279091371304558966e-02 -1.041953290460377879e-01 4.623348624628171866e-01
-2.160278618215349250e-02 -1.253944431908995683e-01 5.149841883913917062e-01
-1.173275546683314879e-01 -1.080658544963554318e-01 4.661114051303648642e-01
-2.171318817357974565e-02 -1.092509121698702901e-01 5.611429197712448635e-01
-4.412106017250091300e-02 -8.223138656388744028e-02 4.468032534127257538e-01
-8.729869951763827296e-02 -1.115548994739226640e-01 5.186206465258461629e-01
-9.546357281282244478e-02 -1.228146768941213302e-01 4.649821790405187505e-01
-7.830036230093943839e-02 -9.899896750999254147e-02 4.517852293816196907e-01
-1.071149200325741402e-01 -1.215401078438182875e-01 4.751278995496974744e-01
-6.031975969276344440e-02 -7.190040423359843336e-02 4.402794734665281817e-01
-2.006930307262936794e-02 -1.221161206041692648e-01 4.932631303341985518e-01
-6.726559103938058171e-02 -1.173604215163892434e-01 4.818579168381987854e-01
-1.028772493060587656e-01 -1.230923107413411793e-01 4.781732706805917887e-01
-1.157073988364848427e-01 -1.143515405802227325e-01 4.687053225006088675e-01
-9.859511981822788318e-02 -1.007175543842287191e-01 4.514539315519123241e-01
-9.465837243716540561e-02 -1.138849862082865205e-01 4.590089276289802678e-01
-3.092059825630011707e-02 -1.106681102887014934e-01 4.733429676738938330e-01
-7.925642040135712219e-02 -1.197429527495617596e-01 5.168997874894312172e-01
-4.495788391705211190e-02 -1.178744255776416477e-01 5.353201202347366294e-01
-5.428135483304090403e-02 -1.188684737001755587e-01 5.275120842754272843e-01
-9.348730473125824170e-02 -1.232807379051980567e-01 4.856972230551221958e-01
-1.059658218844534844e-01 -1.094240135917836781e-01 4.587918622442523908e-01
-2.877566934974861573e-02 -1.091185179069145278e-01 4.709675100679774351e-01
-5.549795318947476491e-02 -1.212988506069473393e-01 5.047401726871221239e-01
-2.218572260979689501e-02 -1.250506144735196723e-01 5.105928873640228627e-01
-4.568446344930476855e-02 -1.167478169706543112e-01 4.853621411849280420e-01
-3.899173339728199961e-02 -9.450741684332160386e-02 4.557566392058033378e-01
-5.393549085734712645e-02 -1.078270088264630250e-01 5.359712323307675996e-01
-1.441894570474852935e-02 -1.259920064551758312e-01 5.042666704705823788e-01
-4.026701212571687227e-02 -1.223443360178248923e-01 5.142306546063877271e-01
-3.249606925732233947e-02 -1.114760753449383079e-01 4.748788776474323070e-01
-3.862042044870235558e-02 -1.144724450886253631e-01 5.413979390434262573e-01
-8.547667319454248236e-02 -1.207349393112157471e-01 4.745743031621655339e-01
-1.418759862533192605e-02 -1.267234211060557780e-01 5.079406719008546789e-01
-6.239934216949589302e-02 -7.397446649342147296e-02 4.402293013287501555e-01
-5.207762710663463995e-02 -1.079596171825109169e-01 4.677103187158954678e-01
-5.784148636735397114e-02 -7.795073222030908522e-02 4.427373443666871577e-01
-3.909463694098500031e-02 -8.202644883306063617e-02 4.470312303874839355e-01
-7.110440229227212028e-02 -1.127524699958976778e-01 4.695464642343620265e-01
-7.978903349234892084e-02 -1.019786730853917550e-01 4.537756790814624908e-01
-2.778085349558070960e-02 -1.150931946510127535e-01 5.509268951257211278e-01
-2.790132239667989997e-02 -1.095293152497925221e-01 4.715410654706789773e-01
-8.296556614945564678e-02 -6.803914071968925059e-02 4.389099858383900266e-01
-1.388967486877194877e-03 -1.290885688483963678e-01 5.194876281777849325e-01
-1.127564868616179328e-01 -1.222891592847839271e-01 4.887208112621619360e-01
-8.330998980380994318e-03 -1.227423372439449129e-01 4.893982129730434782e-01
-1.049585445214544915e-01 -1.174301273544971908e-01 5.029170598135331849e-01
-6.833803414170534773e-02 -9.652034202574757971e-02 4.514090467748392843e-01
-2.448754897701391903e-02 -1.144542041182690512e-01 4.784882650302366147e-01
-3.647107767910759413e-02 -1.012710594626059640e-01 4.620978788880081845e-01
-5.478081244158813229e-02 -1.209535463387504534e-01 5.208551302661517113e-01
-7.452626810903446863e-02 -1.198411230305106018e-01 4.837163803125114070e-01
-9.657854026005197046e-02 -1.232862082515403662e-01 4.961775030071951531e-01
-1.065557159366066070e-01 -1.210183970974320344e-01 4.738284548885131620e-01
-8.521358428963463072e-02 -1.042072218227508423e-01 4.543613504347486232e-01
-5.783372178840317374e-02 -1.202253754999054874e-01 4.965326774115194075e-01
-9.239745513159412782e-02 -7.951789495203995251e-02 4.458746559828528078e-01
-9.955952135684474624e-03 -1.014747863863802446e-01 5.677035053722548907e-01
-1.186684395410494280e-01 -1.187908449956130985e-01 4.830074703423171689e-01
-8.148744976137874130e-02 -8.696535244009565013e-02 4.436282147735822190e-01
-1.707657175430268154e-02 -1.242869744788400593e-01 5.373858372428932384e-01
-4.020737349763591623e-02 -9.291827804368311960e-02 4.543278927959638613e-01
-9.395096200076183401e-02 -1.187284805697032819e-01 4.611110665017447707e-01
-3.137753011466684616e-02 -8.431628009605311724e-02 4.481340830936299535e-01
-3.016869275089589450e-02 -8.264475462972349640e-02 4.468684227920856067e-01
-3.816920888862099237e-02 -1.225814674912553415e-01 5.155778410922070565e-01
-4.271017498354547776e-02 -1.053291569883722939e-01 4.660226984129676731e-01
-8.136622902026593995e-02 -1.209548887340616136e-01 4.873819099436512148e-01
-1.344732665977201383e-02 -1.156391652029527123e-01 4.748313255026474500e-01
-8.718661491731904967e-02 -9.877609083942076595e-02 4.502708337951809581e-01
-6.976213129182479156e-02 -1.132269923113823629e-01 4.711806065118868125e-01
-1.067045825396507608e-01 -9.519190436876401318e-02 4.538803269952735864e-01
-1.549839651258805816e-02 -1.268042687758481613e-01 5.150694619599157642e-01
-5.012075348129885893e-02 -1.202712296376416967e-01 4.982431900380843715e-01
-2.929466739354431165e-02 -1.187318930079936941e-01 5.459029990473629468e-01
-1.066938171298772997e-01 -1.228657768304406706e-01 4.938441163254727040e-01
-9.224146835058598393e-02 -8.197933540999231827e-02 4.449273410713547316e-01
-1.071971832606090358e-01 -1.234934946570444003e-01 4.847151014939667379e-01
-1.052835039286525165e-01 -1.146018092765174884e-01 5.045720169322387427e-01
-9.098484815452315133e-02 -1.205052343408123255e-01 4.658736542652506807e-01
-1.257060668694501282e-02 -1.273847146883023695e-01 5.135944822628097928e-01
-1.032046083661794789e-01 -8.624785929504605320e-02 4.544221486824338574e-01
-7.370923056758305059e-02 -1.224644915099560166e-01 4.997306134490652196e-01
-1.029789987521416844e-01 -1.197303599825421810e-01 5.031110412632116002e-01
-5.640035125409557232e-02 -6.002612924729829047e-02 4.382454802834090946e-01
-2.186513192740044756e-02 -1.145908739475601651e-01 5.563743025735689018e-01
-4.228401691858413997e-02 -1.047856334791993776e-01 4.653767680194071388e-01
-6.393335510713413217e-02 -1.145490914688424428e-01 4.766056871530083838e-01
-2.704738252200017748e-02 -1.183744514053423347e-01 4.879460376576169600e-01
-7.766527494823897981e-02 -1.203407584052011148e-01 4.849318387715486067e-01
-6.837421231438851887e-02 -1.219640769513514605e-01 5.006878071044074119e-01
-5.414623724194086996e-02 -1.021295831713991548e-01 4.590891742360027061e-01
-2.265807023370113027e-02 -1.252029210380322943e-01 5.173475344552499466e-01
-9.077451221037313722e-02 -1.195806009330344089e-01 4.644200403981850744e-01
-3.376392489149667581e-02 -1.225794366732198271e-01 5.295521668000622295e-01
-2.296759866720791965e-02 -1.035507308595712550e-01 5.610125466094971758e-01
-1.132652121297616499e-01 -1.165240521042531646e-01 4.981818593140874274e-01
-2.665678872929543031e-02 -1.055167531199580483e-01 5.553471162184381305e-01
-6.492681945207517437e-03 -1.286633032559542367e-01 5.215503683887028341e-01
-5.728128374786813082e-02 -1.155316494924002874e-01 5.306681615197880175e-01
-2.761976049639048789e-02 -1.106159169758603178e-01 5.538479506403476416e-01
-5.918537294690172368e-02 -1.186000812985485153e-01 4.893831563900878923e-01
-1.918831594701997725e-02 -1.215596959714469738e-01 5.462140862285160825e-01
-4.921620231127096096e-02 -6.803441405762591931e-02 4.410052697473793581e-01
-2.157203832608610428e-02 -1.022433271148118078e-01 5.625171922298666249e-01
-4.282319232457237890e-02 -1.069816575789414859e-01 4.680487796076944762e-01
-2.832086266150385737e-02 -1.096582020507990141e-01 4.717289707914212871e-01
-5.223862657169200951e-02 -1.174244881717438488e-01 4.865754787374457213e-01
-3.951429241104645329e-02 -1.200435734901878493e-01 4.956975890373007676e-01
-9.380527467459280622e-02 -1.161502412041792165e-01 5.128369152287909349e-01
-3.581152496511987027e-02 -9.427331064516508707e-02 4.559012636554836684e-01
-3.121081710597452610e-02 -1.157023419120359747e-01 4.832172401803076500e-01
-6.917121730928819934e-02 -1.065793426762006585e-01 4.609284708049479762e-01
-7.859316351811376777e-02 -7.177681612951880563e-02 4.374108580927096313e-01
-2.480246272732381657e-02 -1.245157982997414370e-01 5.116120073548353631e-01
-4.233176743350397508e-02 -1.221874501521285072e-01 5.168972470244785899e-01
-3.869206291029363143e-02 -1.219446526127729996e-01 5.062139833634938801e-01
-9.911476686869873098e-02 -1.239025352400093816e-01 4.891253971569460290e-01
-2.183854254133028860e-02 -1.171116406542760946e-01 5.538294089623216898e-01
-4.463372913578362439e-02 -1.219866304080499120e-01 5.133451851284949186e-01
-1.175050970060174949e-02 -1.222897994489120371e-01 4.889380473386208958e-01
-2.186134435386645480e-02 -1.062168091556702776e-01 4.646825436067946180e-01
-1.724380639561786874e-02 -1.247179814231332978e-01 5.007404848049730184e-01
-2.457461801482558467e-02 -1.245971614276284722e-01 5.119741297368888278e-01
-6.051084884053952589e-02 -9.897964787383707608e-02 4.547068583622426718e-01
-7.591236213881240313e-02 -1.190041206338169760e-01 4.799531165223720475e-01
-8.944974513616786582e-02 -1.233755600156333371e-01 4.969646913885032991e-01
-9.745369757609116668e-02 -1.203764053349341001e-01 4.638062660019148797e-01
-7.525378569458154865e-02 -8.954334026957741499e-02 4.455852616376557718e-01
-8.389758056826694677e-02 -1.202023209416509808e-01 4.823148237642641001e-01
-6.893305831322130151e-02 -1.219567585227213508e-01 4.996480012386801395e-01
-7.199213553458060078e-02 -9.552932343020806294e-02 4.501872578503799405e-01
-8.118270905466135057e-02 -1.133880072447754628e-01 4.652016968573323141e-01
-2.218735211469756441e-02 -9.827429465246105555e-02 4.563101709806408612e-01
-5.735307876854686682e-02 -1.005515561115824380e-01 4.568349289302533478e-01
-3.901415977551680320e-02 -8.946006539687693937e-02 4.516706878033155403e-01
-3.517346869414152838e-02 -1.138609804202365544e-01 5.440124872372064102e-01
-1.129716328490791045e-02 -1.148991493000185715e-01 5.585311830096142405e-01
-1.530407745159167651e-02 -1.036411677946790094e-01 5.654098469700625795e-01
-1.196065442823640856e-01 -1.057800585320609610e-01 4.697305206722054427e-01
-5.142197978535736208e-02 -1.207843584256797081e-01 5.013320831786155507e-01
-1.011954571596111185e-01 -8.510165789978388351e-02 4.526993970056888972e-01
-3.450212593101878444e-02 -1.212675275836112149e-01 4.995408291940064971e-01
-3.184521189984786810e-02 -1.203078069388076182e-01 5.407401115533969627e-01
-5.411148252131069147e-02 -1.182700126186222028e-01 4.893699581056501491e-01
-1.033701096138810449e-01 -1.155524250475965797e-01 4.637977332389619511e-01
-5.850655199330578871e-02 -1.050415882306940524e-01 4.618020938926395980e-01
-1.641586237822283828e-02 -1.227468786899254261e-01 4.925046936639163597e-01
-1.186574375596126385e-02 -1.260319809734542496e-01 5.013652030148793015e-01
-5.340454706400626222e-02 -1.217735509482066880e-01 5.111363913559354710e-01
-3.323077054067342939e-02 -1.035532614340538282e-01 4.643021894675827821e-01
-1.041631831296987998e-02 -1.181772344570811289e-01 4.794721880067320807e-01
-1.320707420059080359e-02 -1.199882299126708712e-01 5.508678304511926971e-01
-6.246999842306401318e-02 -1.164271202471199446e-01 4.816446794465544246e-01
-7.786302385219409650e-02 -1.168961885571793008e-01 4.738687743530152208e-01
-7.847501159019093508e-02 -9.617924729476226564e-02 4.497786665543173079e-01
-6.883506014519936989e-02 -1.205934690737293091e-01 4.913299453564343722e-01
-2.521419536862445909e-02 -1.136752024956250023e-01 5.547925677842296954e-01
-4.012516096914660324e-02 -1.214727481142122423e-01 5.306261623470919231e-01
-1.644038707699354424e-02 -1.121940333943194923e-01 5.610207443289871865e-01
-3.246566601561450688e-02 -9.841900479508980393e-02 4.593299856542629733e-01
-9.158776605925748882e-02 -8.807886962577753109e-02 4.448781746266957104e-01
-1.210053326924986558e-02 -1.166902187030144367e-01 4.765792776221744464e-01
-3.243216039902735437e-02 -8.986053341135982753e-02 4.523386484896270709e-01
-9.094871055301226304e-02 -1.200767661646459789e-01 5.110600765234982745e-01
-5.758093074689153018e-02 -6.465244868049610516e-02 4.388633289387749992e-01
-5.850338406384152090e-02 -1.167836901273529432e-01 4.837149156405007311e-01
-1.941562769033024910e-02 -1.260213904843119348e-01 5.226288750480100331e-01
-9.889939231116709473e-02 -8.557391631664826304e-02 4.489728956656484637e-01
-6.215468807149128472e-02 -7.327960095316173039e-02 4.401273207299843948e-01
-9.580422792081189076e-02 -1.220802257835620630e-01 4.761222454245816471e-01
-2.308156707291075804e-02 -1.001594817182347164e-01 5.608777775687104894e-01
-6.544016349341663652e-02 -1.163992377630997804e-01 4.801867693643708246e-01
-2.669081659662640368e-02 -1.026259897096607615e-01 4.619800583844592690e-01
-8.507937777930454915e-02 -1.231546384735320437e-01 4.989787280185142837e-01
-7.672848355782435625e-02 -9.404733399442347097e-02 4.484651732508962985e-01
-9.101209966830550724e-02 -1.222963161340521465e-01 4.833548144216377462e-01
-1.161117909783877383e-01 -1.141461764465658557e-01 4.687947639093567043e-01
-1.162066932282585091e-01 -1.121752862231838732e-01 4.673388938104849344e-01
-7.319088432138334821e-02 -6.013571741609629456e-02 4.364289699138341749e-01
-9.393961541398568316e-02 -1.211062482955499731e-01 5.079340786436112865e-01
-6.544895937687308929e-02 -1.094109397320225940e-01 5.295399597515370038e-01
-4.031511511159618921e-02 -1.177623817429050423e-01 5.379737420643311285e-01
-7.315539356246354707e-02 -1.204353814711105197e-01 5.165872170725374080e-01
-5.815292251023310155e-02 -1.115430367541860451e-01 4.719894803146826301e-01
-1.044816577859270651e-01 -9.197498063577533300e-02 4.519190420070849368e-01
-8.557978758794028418e-02 -8.869066727385233051e-02 4.446088770614438634e-01
-1.154801513728919843e-01 -1.209635789672869055e-01 4.799238696671183080e-01
-7.698592975127498128e-02 -1.221302217231076126e-01 4.937088244373715740e-01
-4.942598880788097448e-02 -1.042860592765034455e-01 4.634162861212650086e-01
-5.646842804102254060e-02 -8.654579983217046413e-02 4.467030373703413937e-01
-3.610674716547004892e-02 -1.061721210300994866e-01 4.673437685528576968e-01
-2.389273964769491818e-02 -1.207452008052065096e-01 5.453630623280552037e-01
-4.787217809410228980e-02 -1.216445372723957558e-01 5.192687553200217021e-01
-3.011957965262603010e-02 -9.091476182168584108e-02 4.528266673527655550e-01
-3.051108401138765899e-02 -1.087435186815918775e-01 5.493065451741439009e-01
-2.269370100808084517e-02 -1.001818898344432190e-01 5.617508302998277525e-01
-6.570462861780181074e-02 -7.914211720347588686e-02 4.409976981696499543e-01
-8.594511785647042379e-02 -1.207964575272401087e-01 5.109865289010090406e-01
-2.602961965118887749e-02 -1.244909104127457367e-01 5.185829097563646739e-01
-8.733475333358461934e-02 -9.146414499635117934e-02 4.461246832019890030e-01
-3.204392122591506048e-02 -1.191789116896275758e-01 5.427568550365045041e-01
-5.229540722441423234e-02 -1.196272963686640933e-01 5.258151733102682801e-01
-3.153907089228833588e-02 -1.002616652182716506e-01 4.607331664022730755e-01
-7.621888383827279956e-02 -1.088149788638595739e-01 4.614475496119782583e-01
-1.282664026992882088e-02 -1.266284970946787158e-01 5.281555088582291502e-01
-6.717372365179585803e-02 -1.211916476419326177e-01 4.961987814435955269e-01
-9.506803172739245952e-03 -1.275492547956200429e-01 5.257033293575700261e-01
-9.551373661849776875e-02 -1.043354966604269907e-01 4.534864591722654326e-01
-3.844684028154229938e-02 -1.201957392965623123e-01 5.367467337578840647e-01
-8.300381776079822360e-02 -9.895961302844989704e-02 4.510332442044900914e-01
-7.971601455131507169e-03 -1.275559801903482782e-01 5.068390793969105301e-01
-2.320110097393486212e-02 -1.025047067668422435e-01 4.605881609943554000e-01
-8.749010096061374253e-02 -1.202438218941953574e-01 5.113309018754876867e-01
-5.923358935730228814e-02 -7.188512896509791084e-02 4.405612350776098030e-01
-3.987138461316462601e-02 -7.877950526619373339e-02 4.454810112207273631e-01
-7.334235727315860376e-02 -1.224938337212501532e-01 5.006903040120765924e-01
-5.335615036320257715e-02 -1.129222580308623936e-01 4.763559952786764473e-01
-3.331236027548545309e-02 -9.018360857199186897e-02 4.526775289247918499e-01
-7.689263173850537092e-02 -1.228776752738268557e-01 5.018654964814076580e-01
-2.718276398536646765e-02 -1.133932096563441405e-01 4.775038767441890930e-01
-5.484553568024933684e-02 -1.168067668330627501e-01 5.307370009478593609e-01
-1.093729113610627524e-01 -1.165389008773368568e-01 4.671841025885294929e-01
-5.036190625576650315e-02 -9.307405591191215966e-02 4.520443275401983541e-01
-1.437136921497614642e-02 -1.264562482296637813e-01 5.286802420183492890e-01
-9.018482251158119190e-02 -1.000187176927037347e-01 4.508174916657236020e-01
