-6.434209185497513639e-02 -1.116211776382772247e-01 5.294760277713226326e-01
-6.093471136645246117e-02 -1.186705862642830206e-01 4.905521994131421537e-01
-7.764852416934110713e-02 -1.170260215400407977e-01 4.757582640404424135e-01
-8.671198797967653860e-02 -1.175524867102761273e-01 4.672527100120538734e-01
-1.752214831972804046e-02 -1.108741053065376292e-01 4.693340832138029328e-01
-6.390111645913110205e-02 -1.174699033140499116e-01 4.850113135360140104e-01
-9.632935695233036527e-03 -1.251033023950212653e-01 5.346398323882554093e-01
-1.099364393232979548e-01 -1.215743863298513333e-01 4.942363327254606364e-01
-7.454253198850572387e-03 -1.284338689182834836e-01 5.222232659278938094e-01
-7.228093720063173688e-02 -1.216371913900307355e-01 4.964544549256854067e-01
-1.106639798779603112e-02 -1.148595348849260067e-01 5.585824633510720894e-01
-2.390810451327399569e-02 -1.200370133246054932e-01 4.900034088502525642e-01
-5.743676811132656518e-02 -1.174794129277207944e-01 4.872246804410858001e-01
-4.094612237677833222e-02 -1.220265364534085240e-01 5.237539387227723164e-01
-4.624006370154740142e-02 -1.099039196712720545e-01 5.388935277835363857e-01
-8.255844431435578612e-02 -1.172142297682090273e-01 4.709121465975958931e-01
-2.382587219583684121e-02 -1.217674102130835989e-01 4.953588372072553203e-01
-3.826936368515033993e-02 -1.087019227804717075e-01 5.424897434395056228e-01
-6.797885219324859007e-02 -1.215270917888301855e-01 5.106570518418637183e-01
-2.073441096571629685e-02 -1.254719281295558209e-01 5.135043548990121387e-01
-5.974674319017941188e-02 -1.209098754397088804e-01 5.164809765532751840e-01
-4.941978125980024672e-02 -1.105343359252127233e-01 4.736478867974646123e-01
-5.204838284580789315e-02 -1.203736234735098692e-01 5.005432599910873970e-01
-4.695997259399559837e-02 -1.143935335616993176e-01 4.809788609333764398e-01
-3.720890877659863150e-02 -1.223591102334766756e-01 5.252708136918954329e-01
-1.155344691607347041e-01 -1.168586452750064036e-01 4.954437556965397560e-01
-9.879434596061871521e-02 -1.150877829840162014e-01 5.109015873764003457e-01
-1.149933935279831565e-02 -1.273526712586436349e-01 5.098450695511232977e-01
-1.067910468856879125e-01 -9.382992437529570628e-02 4.545486773157150218e-01
-5.157327455411792744e-02 -1.123016460534015382e-01 5.354229575883900916e-01
-8.594749025697076550e-02 -1.201765386945448516e-01 4.790645531282420322e-01
-5.168195668405586168e-02 -1.033164964342100506e-01 4.621348561672509736e-01
-1.039628528992142531e-02 -9.564121310668825815e-02 5.699879838774681851e-01
-8.254426749722250378e-02 -1.123347225754477569e-01 4.638800706325437173e-01
-3.534770431766091903e-02 -1.227628518691314535e-01 5.206352766909869700e-01
-8.777709199709840537e-02 -1.126956627530841804e-01 5.182766288571694080e-01
-1.706796841486143274e-02 -1.244888806978957790e-01 4.999167039678210633e-01
-8.354982283959196121e-02 -1.186765364349583046e-01 5.159794677751887715e-01
-6.379663106070875001e-02 -7.201706794038821580e-02 4.396904440512469092e-01
-5.139708420635680924e-02 -7.992349164433580622e-02 4.450716468325821573e-01
-7.572350108621045406e-02 -9.739811980489260224e-02 4.517399858978872196e-01
-2.444286031280092780e-02 -1.212788828572138738e-01 5.438313393287717012e-01
-5.485939739699371293e-02 -1.214175001233258055e-01 5.102198264581380149e-01
-8.573699490871744544e-02 -1.158748070646211797e-01 4.658745887616628223e-01
-6.375166318281572098e-02 -7.649002277742786293e-02 4.410418887763453699e-01
-4.240770911548263217e-02 -1.174126873541330440e-01 5.371384659174726073e-01
-4.361672395500701405e-02 -1.216550403600814706e-01 5.087492020978620078e-01
-2.303235913948883939e-02 -1.103069127380857245e-01 4.712844739188948862e-01
-8.885852914721339979e-02 -8.106563231120966773e-02 4.430388531946991559e-01
-6.298707549498026859e-02 -1.196090452553443956e-01 4.931284326247280525e-01
-9.008703724002882496e-02 -1.212008120288507046e-01 4.706659404995869878e-01
-1.825830374014394269e-02 -1.260739625776826356e-01 5.142039338446527941e-01
-5.217412363038539946e-02 -1.103285133550245406e-01 4.726012956588099279e-01
-8.538297885683129862e-02 -1.046288245604934525e-01 4.555042141970055414e-01
-7.172268826358843552e-02 -7.188903192471965409e-02 4.378731602505765430e-01
-1.089427893568000877e-01 -1.132638710740846988e-01 4.645632120799164655e-01
-4.196798808481844861e-02 -1.217423241113328308e-01 5.080538902507761856e-01
-1.509532902452074069e-02 -1.064916862081599636e-01 5.644199803447641495e-01
-8.305738325510894637e-02 -1.095781868954018579e-01 4.604671952513312849e-01
-4.666617874386246034e-02 -1.185018710958381377e-01 4.915460355930397762e-01
-3.054153590021237499e-02 -1.135007932172982931e-01 4.792659512059165294e-01
-4.233223229760338380e-02 -9.914506564704479719e-02 4.595645783891021963e-01
-7.987832503246856952e-02 -1.175842325264707250e-01 4.746428396280215067e-01
-3.471312239270741423e-02 -1.178880038219209114e-01 4.886055296104769852e-01
-5.539430311059453937e-02 -1.202890821272546429e-01 4.998778668201016573e-01
-1.319139647278212008e-02 -1.242045723324786410e-01 5.374992684936250598e-01
-8.211199460163789987e-02 -1.219492447447012434e-01 4.924570315391788022e-01
-9.440431994983393416e-02 -8.609787537394453238e-02 4.457804790264277561e-01
-7.879131482376156015e-02 -9.132223822112583989e-02 4.470512194308347009e-01
-1.031252888226167203e-01 -1.030216727331245558e-01 4.539684358373767825e-01
-1.034020567620159980e-01 -8.630355122765918929e-02 4.545196907943331865e-01
-1.016598114613271979e-02 -1.268935772124336614e-01 5.280545468562934941e-01
-7.895223731703369940e-02 -1.221794746357312000e-01 5.057779177483613386e-01
-9.006943088006137688e-02 -1.180778443460951954e-01 5.134267312413021145e-01
-1.116442658297804869e-01 -1.218356977886069364e-01 4.872564122029197087e-01
-2.909982199797343100e-02 -1.237430725975443013e-01 5.244457198882136462e-01
-5.437793742187162910e-02 -1.167533008747553280e-01 5.308481247119057889e-01
-2.375552584323375321e-02 -1.187908590705617495e-01 4.866617629932990519e-01
-4.255320048385578813e-02 -1.160780432803962120e-01 4.847013201764971968e-01
-9.802931045762797169e-02 -1.159755795758172642e-01 5.110388974482593660e-01
-4.504237253501875565e-02 -9.227649554014495659e-02 4.532493634311424158e-01
-1.013184064357050551e-01 -1.169739958720595191e-01 4.653854791567024751e-01
-5.326377757488562348e-02 -8.230534195590250013e-02 4.456225316751821208e-01
-1.025976810077948859e-01 -1.095790073765027101e-01 4.591016724192561460e-01
-9.444727429526686424e-02 -1.207958762692497023e-01 5.076737199771556019e-01
-5.442660122108405885e-02 -9.019916137886457852e-02 4.496892256982103486e-01
-1.582101853521685267e-02 -9.988511774911650043e-02 5.656214209228835887e-01
-6.311803683974143153e-02 -8.992042243680667402e-02 4.478472768764447109e-01
-8.997452396802951835e-02 -8.688719515568166241e-02 4.449995399251810979e-01
-9.468381621724439312e-02 -8.669647479008071866e-02 4.460935322005670778e-01
-1.053886528308528719e-01 -1.230673573921657882e-01 4.905243322674980311e-01
-2.337951325540629094e-02 -1.066614525611963155e-01 5.596375990690765079e-01
-6.441760219778003456e-03 -1.272961485196408560e-01 5.046607435941525832e-01
-3.353297904208041302e-02 -1.221400187524321473e-01 5.327580579473143452e-01
-1.107676292679120184e-01 -1.153776503647903351e-01 4.677437252118251121e-01
-3.037559937196349091e-02 -1.174997559606962005e-01 5.464920193804326809e-01
-7.934840029792467053e-02 -8.879282908364569127e-02 4.453665217023464185e-01
-5.866643346575987905e-02 -1.211223326287522439e-01 5.047788200884083532e-01
-9.979991347699899984e-02 -1.222942574173520314e-01 4.734391949511548847e-01
-6.831682647645120898e-02 -1.096148814116680997e-01 5.285818718332272459e-01
-7.217544823507693330e-02 -5.855369589760027471e-02 4.371403853036520681e-01
-9.163912187799630460e-02 -1.141192109386444942e-01 5.151725000700325685e-01
-9.624475990162066619e-02 -1.231146823631907861e-01 4.909107605392727947e-01
-8.890919252877324541e-02 -1.208825703276919378e-01 4.735362583685692739e-01
-6.285717018362187158e-02 -1.165330735938800710e-01 5.267821774489230835e-01
-8.700821196581266792e-02 -1.134192318543899014e-01 4.615296938636339052e-01
-7.844460909909609092e-02 -1.225389303794856832e-01 5.017729806388239178e-01
-9.621864402412590167e-02 -1.232451834050185963e-01 4.876525758395856558e-01
-7.661703114527169955e-02 -6.000014915663391679e-02 4.371344577782096952e-01
-3.554058147977150195e-02 -1.107871328137959716e-01 4.743713067224488156e-01
-4.022882173847610460e-02 -7.856019209263509495e-02 4.456273122923242735e-01
-3.504865755775461028e-02 -1.226342693046332116e-01 5.262032430550063200e-01
-7.501134404822621185e-03 -1.234519232752545048e-01 4.914961895436279482e-01
-4.144740930186747302e-02 -1.104315441195337782e-01 4.741545430096427705e-01
-8.796164920789600883e-02 -1.211748777176680086e-01 5.085490358052270343e-01
-6.595829377162937268e-02 -1.112323319153154522e-01 5.289016941298886332e-01
-1.665890309028610072e-02 -1.218186347502573375e-01 4.903073143621066166e-01
-7.660172070197944494e-02 -6.485303081425418392e-02 4.358352542000495933e-01
-5.107232591458631121e-02 -1.079726264213688308e-01 5.377010353347233540e-01
-6.720463540421421633e-02 -7.838496523514515424e-02 4.407731606139756453e-01
-3.576370214862644586e-02 -1.201765243477845718e-01 5.379626494234964751e-01
-7.816615726654593810e-02 -1.222354401641569527e-01 5.051468081304970603e-01
-8.888442297529444702e-02 -1.185597730566372576e-01 5.136801560598032168e-01
-2.132921683571645591e-02 -9.892295482314170108e-02 5.630079291655224472e-01
-1.020696249224836982e-01 -8.500403191130617708e-02 4.538475309715681583e-01
-2.356766365870997110e-02 -1.083337255306872776e-01 5.587149923630702064e-01
-6.247014414265632948e-02 -9.231673515505449401e-02 4.496637632671576790e-01
-6.438171898563956226e-03 -1.277832487137150197e-01 5.277942289886750071e-01
-8.590222412043951872e-02 -1.181463999766825812e-01 4.692408154968031875e-01
-1.057397985425394399e-01 -1.151815354388681378e-01 4.652264827152584603e-01
-4.236047161133268263e-02 -8.712927255550145800e-02 4.500350241914779503e-01
-1.685262130281219017e-02 -1.173643926512319691e-01 4.797702325827541969e-01
-9.563586720887543025e-02 -1.026837525653108707e-01 4.533424099069091051e-01
-5.093223904507883371e-02 -1.196129592086403737e-01 4.966698911956430873e-01
-1.074984851188281881e-01 -1.214346027298080777e-01 4.778364448843614443e-01
-1.028856672582523640e-01 -1.071657995251894813e-01 4.571968485645585556e-01
-3.775432677184088759e-02 -1.092507475573824410e-01 4.720214232590350667e-01
-7.386668559581779925e-02 -9.523325039988086993e-02 4.503803734936723258e-01
-1.094394232112144011e-01 -1.223190739387645387e-01 4.884038532849129810e-01
-3.733234443976923139e-02 -1.218852216631638591e-01 5.294635640453189129e-01
-4.143042057087412827e-02 -1.136019755227843236e-01 5.400038146018170115e-01
-7.006330839060651017e-02 -9.726103509224928723e-02 4.523902490526681142e-01
-1.460646194774785703e-02 -1.000057333247344749e-01 5.663286676698681132e-01
-9.721860763014037940e-03 -1.243265460018729840e-01 4.945952102552629293e-01
-1.007475980716486669e-01 -1.220242147227733748e-01 4.687953177544407213e-01
-2.085167400324007200e-02 -1.085150777638339559e-01 4.675010670091201415e-01
-7.752227964065168397e-02 -1.006965098126315628e-01 4.539770257751334359e-01
-1.907927652968870180e-02 -1.202969484046590154e-01 5.487718065438272896e-01
-4.179239801562757706e-02 -9.444666280440314199e-02 4.557146238981153452e-01
-2.340630988458933942e-02 -1.225705344059375701e-01 5.406572957765582998e-01
-2.769574896090452182e-02 -1.084534313338559597e-01 5.540732013384289667e-01
-1.675008313569257071e-02 -1.226858097026829603e-01 5.442775029338698944e-01
-1.448597274716091274e-02 -9.952660458287894418e-02 5.666178466472475694e-01
-9.792778355497983034e-02 -1.215541918029940938e-01 5.037738028458303985e-01
-7.521965914156587829e-02 -7.023044223950115905e-02 4.373776327767650574e-01
-7.582612079120962245e-02 -1.010062655508870838e-01 4.545315424746619870e-01
-3.463989808098125178e-02 -1.106320775897989134e-01 5.448079500780529383e-01
-2.997575952571967031e-02 -1.235659666873753365e-01 5.240540942435203409e-01
-1.085106928542039356e-01 -1.225182020427636742e-01 4.881733526521643829e-01
-4.863051095773365806e-02 -1.037745711333346726e-01 4.635147185606814380e-01
-2.044456934065838616e-02 -1.158909651211060821e-01 4.786703492170422680e-01
-4.384387808933051800e-02 -1.208483024217637258e-01 5.022920400459447432e-01
-8.622230368315628168e-02 -1.203668191269738064e-01 4.737835114787893875e-01
-5.111684039157082804e-02 -6.732525641154270268e-02 4.408718887579785584e-01
-2.091542085932053541e-02 -1.074936720078805696e-01 5.623447895136332031e-01
-6.832208221318031294e-02 -1.218448759904485063e-01 5.077656556709687630e-01
-6.279028369634082063e-02 -1.207208826898298892e-01 5.176501233351001874e-01
-5.420313046912347138e-02 -8.800895278713667669e-02 4.484170896487778557e-01
-1.099045198248103095e-01 -1.219744624879457312e-01 4.829625251047797718e-01
-3.053897534208478703e-02 -1.161173969004745399e-01 4.844932124968706622e-01
-5.293058293044131807e-02 -1.214743646943404476e-01 5.143959707994512076e-01
-5.233009826749997900e-02 -1.168782996881284203e-01 5.318276491542127671e-01
-1.721052737513890929e-02 -1.259890784252650497e-01 5.293440821989662259e-01
-9.121171545802206349e-02 -1.042586529629823677e-01 4.543552044749951668e-01
-1.060422994357968773e-01 -9.703463431630693359e-02 4.529786087825680152e-01
-5.443660993942577714e-02 -8.986744754636928623e-02 4.494861335548840375e-01
-2.893402819181455088e-02 -1.172817317408613585e-01 5.477055172057617716e-01
-4.394887085932921988e-02 -1.209573044195040026e-01 5.031489697575854958e-01
-5.909978507414179009e-03 -1.238497599923868153e-01 4.922754084799427221e-01
-7.075686898683924975e-02 -1.187862436813342804e-01 4.857217860424893896e-01
-2.431917903410969056e-02 -1.099584086744241213e-01 5.569980403199694674e-01
-2.132793255828932880e-02 -1.167390806984354712e-01 5.547914084040350691e-01
-8.070525797486287345e-02 -9.284706223928836100e-02 4.478509745235998429e-01
-7.028085189955801670e-02 -1.074292914137996158e-01 4.626561746396765651e-01
-7.469305413393655113e-02 -1.141649809380631125e-01 4.714990741525368345e-01
-6.845927893730201219e-02 -5.651363629510964409e-02 4.376186807653333344e-01
-8.823566982274289039e-02 -1.220736872833065451e-01 5.053446173877563785e-01
-1.154433280425771619e-01 -1.171562782519732504e-01 4.741931427780409769e-01
-3.444514117373306816e-02 -1.222286582989740300e-01 5.305723874961577602e-01
-8.291134243229612844e-02 -1.196498166759046716e-01 4.765091697171334184e-01
-8.820230293030263680e-02 -8.078021115195686830e-02 4.427883423822827624e-01
-1.021080038004954782e-01 -1.225193763660956947e-01 4.787600944371313005e-01
-3.762950284562240760e-02 -1.149614883455239156e-01 4.824351855989582050e-01
-8.746212551325420470e-02 -1.165883655655139267e-01 4.631410840835909482e-01
-8.549391319645381626e-02 -1.059274364631257043e-01 4.565770351523392723e-01
-4.979760134542310368e-02 -1.030636357718444779e-01 4.623007377013850783e-01
-1.019342605053100703e-01 -1.207920737629115671e-01 4.705992814637455779e-01
-2.760453283862105214e-02 -1.233899371798369560e-01 5.316029885470374694e-01
-9.046241334772144038e-02 -1.186238328920446033e-01 4.648768855013510892e-01
-1.134518581430396661e-01 -1.097692613944049045e-01 4.631867276327494842e-01
-6.705676573923727291e-02 -1.136408488954879226e-01 4.747107237801670987e-01
-4.710017575358314140e-02 -7.708709861115778383e-02 4.445948569416379170e-01
-7.810323115500432400e-02 -1.122403856184958776e-01 4.663226368352045292e-01
-5.160332162622563446e-02 -1.201036900008753822e-01 4.989499182820262280e-01
-6.363598874328184329e-02 -7.656894712195891350e-02 4.410984985668972569e-01
-6.718488493074797896e-02 -1.193909558376515662e-01 4.894117261860507773e-01
-6.894344296633764246e-02 -8.692015615830903097e-02 4.450021261748591250e-01
-9.359748855052399397e-02 -1.230786481092434603e-01 4.918872183168769840e-01
-2.517794210090045989e-02 -1.122403453654296501e-01 4.753575982047972825e-01
-8.105077052818487893e-02 -6.881056207012167802e-02 4.382484090276654864e-01
-1.015339719474220442e-01 -1.211178531538532194e-01 4.708090433792518348e-01
-4.745075639042073412e-02 -7.247847627416451055e-02 4.428808206411005144e-01
-1.052181133203305974e-01 -1.179171556704454865e-01 4.681868770222919474e-01
-5.413705146211409552e-02 -1.085513268715518481e-01 4.689170897864507470e-01
-8.844476394348814441e-02 -1.197698425696986507e-01 4.697368109005948811e-01
-2.760157532711171591e-02 -1.036934841085732917e-01 5.531478332649969465e-01
-7.088884509559510716e-02 -1.197119267794263670e-01 4.884737554677352489e-01
-8.719268349738591717e-02 -1.198005964542885327e-01 5.117321311096594272e-01
-4.099247617923134496e-02 -8.252164969902242575e-02 4.474779952161920260e-01
-7.902437617684576754e-02 -1.219488234682601507e-01 5.082195177322627044e-01
-6.578302466234368928e-02 -9.124136706024162102e-02 4.483425086739020737e-01
-6.855618793294639135e-02 -1.204439411654555370e-01 4.933165062993093986e-01
-1.172774720846617574e-01 -1.159460883523767555e-01 4.750451791656974398e-01
-7.397336881841769241e-02 -6.035373064662070269e-02 4.366048059147050187e-01
-1.096900318390677323e-02 -1.026714921365406707e-01 5.671415235435683933e-01
-2.270031844647585687e-02 -1.019794007468688701e-01 4.599582020273458305e-01
-3.798150372619363280e-02 -9.600961901767024465e-02 4.574537156129165338e-01
-6.981838820963200132e-02 -1.191017275423132404e-01 4.871457358102917468e-01
-9.028442704911408823e-02 -1.101128469731674359e-01 4.585289773810963809e-01
-3.982029413605335522e-02 -1.189233196714303553e-01 4.925535205692759821e-01
-1.872449880103720446e-02 -1.244829495011730569e-01 5.015425423579870090e-01
-9.936577615631260463e-02 -9.258548728069890266e-02 4.492105116205472592e-01
-6.231586211515859064e-02 -1.083289243003901503e-01 4.663797403736043012e-01
-6.577814635424286682e-02 -1.049875536093783507e-01 4.605839597381259365e-01
-8.807734683029341816e-02 -9.419245388504147998e-02 4.482112506371411231e-01
-8.189824570365709933e-02 -1.207514961930782754e-01 5.139586318844210355e-01
-2.413885484568734432e-02 -9.683543928420013103e-02 4.559567854526693775e-01
-8.136226894913824170e-02 -1.112849087761958872e-01 5.244106003889614787e-01
-1.874433375822941172e-02 -1.255574423903431380e-01 5.071996835991835484e-01
-5.350764585736082074e-03 -1.285910111331685368e-01 5.127795764527058875e-01
-1.265491883216858515e-02 -1.231431836686107534e-01 4.918884758432680582e-01
-5.247336313814980613e-02 -1.213336013138124198e-01 5.171090381480165643e-01
-9.061395075156278289e-02 -1.190812600053925002e-01 4.655984692637778477e-01
-1.055906762019687140e-01 -1.193166901483542486e-01 4.706881697542523724e-01
-7.664047039071331113e-02 -1.221807214384351692e-01 5.056202208451340274e-01
-4.980098565692474277e-02 -1.191432159123674839e-01 4.948921799459102266e-01
-1.157921140567520941e-02 -1.276955197156353916e-01 5.189535806871383716e-01
-4.241296931985411717e-02 -1.158023430236963108e-01 4.841065071055105085e-01
-2.795222095727240702e-02 -1.034997995080686323e-01 4.636481213409208713e-01
-4.830921113919234983e-02 -1.182601929663381068e-01 4.906941259131163413e-01
-1.065547313536937268e-01 -1.212140546467499330e-01 4.975810211073010136e-01
-6.542031320371735625e-02 -9.031965613261251635e-02 4.477455934687628591e-01
-9.074148404680384972e-02 -1.187890320357915530e-01 4.643392974225734604e-01
-1.046267036882625734e-01 -1.218237784364464282e-01 4.768434122625127558e-01
-8.365518898670314119e-02 -7.384031802999227456e-02 4.390067818715860937e-01
-1.672621994878911028e-02 -1.263952095248701002e-01 5.137388274600694915e-01
-6.698567594396415137e-02 -5.641496779858943406e-02 4.375022882094811716e-01
-6.593829527537860280e-02 -1.127997144545114655e-01 4.734177893390971725e-01
-1.084389315182052310e-01 -1.065033994125603040e-01 4.579970074821588799e-01
-8.989735821644447011e-02 -9.982827242816694202e-02 4.514773180056879665e-01
-8.378097903445198835e-02 -1.225674216194983096e-01 5.011295055771252116e-01
-6.270840509011307851e-02 -1.212210291168512033e-01 5.142699256882042880e-01
-2.696489114127090941e-02 -1.241399072530918052e-01 5.252133094405457836e-01
-5.329271740917814609e-02 -7.086234084036310832e-02 4.416901719377969715e-01
-6.011003734721145908e-02 -6.182177972539169147e-02 4.382670409137348067e-01
-8.271485234087780358e-02 -1.176123040380079726e-01 4.715187126039013243e-01
-1.476318227039549562e-02 -1.026796665062064406e-01 5.656583383345571425e-01
-8.303829514130622869e-02 -8.858645826519136179e-02 4.452127005165923412e-01
-6.409626493314565798e-02 -1.100649083550323398e-01 4.687827332334684183e-01
-9.728180714998840850e-02 -1.160968575178086132e-01 4.613402649243650289e-01
-4.994590088782212972e-02 -1.210275967176666911e-01 5.053970722409206751e-01
-4.605165167359832196e-02 -1.216415069692868001e-01 5.125900233402145290e-01
-1.013812859661858690e-01 -9.140246753825018167e-02 4.497226495631257981e-01
-5.470921330947976780e-02 -6.126659858202915948e-02 4.388813824999989177e-01
-1.101129091637536445e-01 -1.213476609869705153e-01 4.949730635900465026e-01
-8.570160611136258544e-02 -1.179942382206914248e-01 4.691551925787628696e-01
-7.634205642379207624e-02 -1.147438829475014715e-01 4.717542619277487193e-01
-6.722267641186491227e-02 -1.175014319182182548e-01 4.836290835389532305e-01
-1.074352515036796768e-01 -1.222399025172636322e-01 4.939333161873369349e-01
-3.270645643315914231e-02 -1.081382980335156702e-01 4.702287722763756617e-01
-1.008045347865470787e-01 -1.172477930803686175e-01 5.085233668155533238e-01
-4.299710862722377208e-02 -1.151002342858029881e-01 5.381151421788429312e-01
-5.885386816623800615e-02 -1.189887120567263423e-01 5.252327383649597614e-01
-8.924118555848202516e-02 -1.141614456706379760e-01 4.607589577271272163e-01
-1.999632779885599648e-02 -1.257265972557690958e-01 5.166722614005774261e-01
-3.811595962648963581e-02 -1.078095354210665546e-01 4.699265674732269749e-01
-9.875960445931629417e-02 -1.223552201115021137e-01 4.789988428985799684e-01
-7.206341984369388221e-02 -1.051102247960242625e-01 4.594782889529446246e-01
-4.926911246487653689e-02 -1.161173043583986347e-01 4.843484504409287239e-01
-1.040335071812158313e-01 -8.756562371688533797e-02 4.542456303182514921e-01
-8.024321480095613496e-03 -1.197379593227481248e-01 5.496755643098637512e-01
-2.346119524628509714e-02 -1.124368685718319799e-01 5.573263046982246394e-01
-3.481815668858758567e-02 -1.071988268973065317e-01 4.690708878952769001e-01
-7.020652405953996256e-02 -8.972587029569510653e-02 4.466645397924917660e-01
-8.934104027684820759e-02 -1.177683612147424619e-01 4.624662417098353573e-01
-3.502696797415705970e-02 -1.099848172601417817e-01 4.730370504491031025e-01
-2.420747276628013381e-02 -1.000294026066466391e-01 4.586997556714898505e-01
-1.133417094538439751e-01 -1.062615837459039009e-01 4.605280008447020235e-01
-1.020772689121902943e-01 -1.131343837267246577e-01 4.620919543271154728e-01
-2.663983465720058327e-02 -1.174486638757476081e-01 5.500128608726961854e-01
-1.145070440952729585e-01 -1.145778940094944742e-01 4.979570283743600667e-01
-2.076606863113570484e-02 -9.786891025311714176e-02 5.633211704170304479e-01
-4.478674438135019781e-02 -1.047265120287062395e-01 4.655864781414105202e-01
-6.638401639915714192e-02 -6.730504563645860194e-02 4.378174483957236740e-01
-4.157704350592841824e-02 -1.143728061589961570e-01 4.810865995538653461e-01
-8.017554243294838789e-02 -1.216952445107640363e-01 5.102125028841205667e-01
-3.209490222745306487e-02 -1.196841921305710904e-01 4.928802147719146820e-01
-9.258667792663881346e-02 -1.221157996501829601e-01 5.031644695973036541e-01
-1.333882858739296635e-02 -1.095492648994650375e-01 5.633237464453391130e-01
-3.262266941261365155e-02 -1.093539188419380415e-01 5.469553343864709261e-01
-8.994340290900666723e-02 -1.181372908935184596e-01 4.626292837980356953e-01
-1.034789372841035532e-01 -1.136284281757613535e-01 5.076366520343277289e-01
-1.051623918001963753e-01 -9.227830034013490001e-02 4.529989359820535966e-01
-3.590510078447958775e-02 -9.872655212455391793e-02 4.601544528456062433e-01
-2.189986269426266122e-03 -1.290042507090038704e-01 5.225962396176118130e-01
-8.579701436628031641e-02 -1.213548340692733596e-01 4.865172037580589026e-01
-7.842388165449171167e-02 -8.404616167450815190e-02 4.423182979002264203e-01
-6.634148841197995417e-02 -1.209996074046233161e-01 5.157375828490198266e-01
-6.620570670081735165e-02 -1.168865592578060969e-01 4.824693350740226205e-01
-4.431741203854860922e-02 -6.939561609812988641e-02 4.419919321563817727e-01
-7.613076751014863364e-02 -1.223408631564161381e-01 5.015584066419661591e-01
-7.443790079288671591e-02 -1.160468720552807198e-01 4.757163433417441190e-01
-5.539671111179254176e-02 -1.122436564728520464e-01 5.335567253509110319e-01
-4.837937917954688444e-02 -1.208719891772697952e-01 5.043044029390336691e-01
-6.697387266402138328e-02 -1.215264430733610929e-01 5.111127949954473726e-01
-8.406619728689362914e-02 -1.175784685805229546e-01 5.170757086412404169e-01
-7.222074868818291471e-02 -9.561430304493293009e-02 4.508644247200212507e-01
-1.033596262777584235e-01 -1.183736914166943627e-01 4.679318597682345926e-01
-5.807198911576145345e-02 -6.700397117970935401e-02 4.397320308305544545e-01
-1.629456611362198326e-02 -1.237238655040891894e-01 4.963496393845497345e-01
-8.535157278924723756e-02 -1.066017682645740011e-01 4.572156725867872473e-01
-4.679586848259816717e-02 -1.183830923881605823e-01 4.911525787614505756e-01
-3.739093848161878508e-02 -1.215605937911719558e-01 5.323983941359030636e-01
-4.778643899930114236e-02 -1.206850982160723174e-01 5.252293114349977365e-01
-8.322691997335010528e-02 -8.867591817904681151e-02 4.452643632346884317e-01
-6.760073846643899209e-02 -1.101970620221408709e-01 4.679364971795493267e-01
-8.163845047635032159e-02 -1.134726167955760340e-01 5.220809556100526327e-01
-1.103982134143074445e-01 -1.006880558489404720e-01 4.557328194566597213e-01
-5.495652700450926603e-03 -1.238987421334701994e-01 5.363464144945382372e-01
-6.561360871710730791e-02 -1.201145522315751335e-01 5.195203731802905400e-01
-6.493846105296373350e-02 -1.217369289804932225e-01 5.065520891918567914e-01
-5.475409828347158753e-02 -7.010821411309686724e-02 4.412386907815949999e-01
-4.035928576501521259e-02 -1.080703086168957189e-01 4.702815922275883631e-01
-1.189361011927088652e-01 -1.167641318042321463e-01 4.814205626856501441e-01
-6.310551149571738683e-02 -1.162557138866817802e-01 4.821900027656689791e-01
-2.216031381521928190e-02 -9.873296191354290208e-02 5.621387651622384851e-01
-6.119066261838446152e-02 -1.213145613954702967e-01 5.128591518754438416e-01
-8.700964664078017496e-02 -1.207615420846762100e-01 4.828703865375872928e-01
-6.907150453372284948e-02 -9.314715400469639195e-02 4.493261771710204133e-01
-8.309195386534622141e-02 -1.196915528305650678e-01 4.754811769832371082e-01
-1.133538889997148524e-01 -1.009476482187452034e-01 4.593039278650840607e-01
-1.055736059978599900e-01 -1.183635142934278822e-01 5.020251121479210044e-01
-3.456310881144793613e-04 -1.288567288942071287e-01 5.134229793524635044e-01
-9.057154164304323518e-02 -1.210465959137410896e-01 4.807881293721095739e-01
-8.893835984060038946e-02 -1.225731948658370513e-01 4.938367920371634634e-01
-8.817213251095105953e-02 -1.054260644178857259e-01 4.556266188237983461e-01
-2.970170483600637068e-02 -1.159410262741684267e-01 5.481798172373105738e-01
-1.037758739155773824e-01 -8.677374873974488811e-02 4.545913804871243857e-01
-1.500280012962085935e-02 -1.168391877977330712e-01 4.780181148331092422e-01
-5.116775190671260520e-02 -8.845324842143272026e-02 4.492525100779020675e-01
-6.744387238352247960e-02 -1.200842475625356620e-01 4.921187307637800989e-01
-5.581480385432505825e-02 -1.183553025148885995e-01 5.276527897707515846e-01
-8.543876477768851119e-03 -1.277226938934064582e-01 5.086097675490653947e-01
-9.917205185325496386e-02 -1.223143992131188323e-01 4.989207884246621427e-01
-6.297063781767867074e-02 -1.205989862344565705e-01 4.981839322732076747e-01
-3.682388449139620268e-02 -1.211761450704082616e-01 5.341864939345778440e-01
-1.511462103401321581e-02 -1.262514003339230695e-01 5.294041894356316114e-01
-9.479928687386032782e-02 -1.228292724113710516e-01 4.711917516340328738e-01
-9.991674015655369057e-02 -1.232890207168464564e-01 4.879236202700894531e-01
-6.894550322834636091e-02 -8.548738153147872332e-02 4.441659764818639000e-01
-2.553117913412738388e-02 -1.062477878627275801e-01 4.665792919259328930e-01
-4.142911055282577637e-02 -1.212790446738477301e-01 5.302829085044392654e-01
-5.313294204137945786e-02 -6.650303443704388973e-02 4.403828625726690649e-01
-9.152332023860099142e-02 -1.189516586779193891e-01 4.613676853863872274e-01
-2.711504814301825272e-02 -1.236292255053740852e-01 5.085805559928214814e-01
-1.191067248754205110e-01 -1.135963505216462943e-01 4.795561537416250797e-01
-8.184290001675442738e-02 -1.050190725585449375e-01 4.566442257582201125e-01
-7.035631215065957234e-02 -1.217897927728953528e-01 5.087453148326620544e-01
-5.753567311288244196e-02 -7.985051122370395715e-02 4.438321427956127829e-01
-4.115720929714260234e-02 -8.045983074180335093e-02 4.465045483414241123e-01
-8.543595791834019543e-03 -1.282455503243183914e-01 5.153592030580405048e-01
-1.200644729695117402e-01 -1.142209412958840042e-01 4.897572845066863190e-01
-6.801305549338039491e-02 -1.174925096303172517e-01 5.235413006590338147e-01
-7.473041598195978574e-02 -7.622333682019843959e-02 4.388746874348922744e-01
-5.859901153912661087e-02 -5.955574031633853460e-02 4.381336400331909964e-01
-9.704084143953918551e-02 -1.219968359699541705e-01 5.012235450643236501e-01
-5.472920221089374454e-02 -8.039772885961433968e-02 4.446010771195805233e-01
-1.149945300103837227e-02 -1.238990077186604144e-01 5.388712610864442309e-01
-7.465778426455836614e-02 -1.219159943201669899e-01 4.972527416530714284e-01
-6.955375832552761727e-03 -1.257136502607242856e-01 4.985081535432538957e-01
-8.808808611855735438e-02 -8.619696030667794995e-02 4.446543015960246481e-01
-9.423673926192729922e-02 -1.096422998252847281e-01 4.574121683828940021e-01
-3.513064300558171871e-02 -1.220954916982062710e-01 5.307897429973709169e-01
-9.062755076382257580e-02 -1.006033031852520548e-01 4.519465864164471935e-01
-2.203222615127869294e-02 -1.231192369593934743e-01 4.984468657968892380e-01
-7.179571911907432769e-02 -8.724064282669936887e-02 4.449242273094284883e-01
-1.161850650172401994e-01 -1.130844776949786190e-01 4.689495558112484197e-01
-4.121340534909498886e-03 -1.286966030100062663e-01 5.253174895992120952e-01
-4.921817059874061817e-02 -1.183888676308446491e-01 4.912560264918831021e-01
-1.699738865513510458e-02 -1.232260737866246736e-01 4.950361286755595724e-01
-3.868253861485183159e-02 -1.166870493078347448e-01 4.860805966179258530e-01
-9.759600168694033961e-02 -1.232936006921315358e-01 4.874531841549648581e-01
-4.352270185389649215e-02 -1.098836406815539429e-01 4.733071382204153132e-01
-6.227408086763361328e-02 -1.214630534957637925e-01 5.117683785710908095e-01
-1.379218536945559306e-02 -1.257739626282610435e-01 5.027735742752507120e-01
-1.078629066967654593e-01 -1.214187367492573222e-01 4.781312561000956030e-01
-7.854317420177564513e-02 -1.144920975368603766e-01 4.701518564534908351e-01
-4.094521141658256230e-02 -1.218998646303963845e-01 5.253631826965408091e-01
-8.506701350090049851e-02 -1.203584021386779612e-01 5.122680594025904588e-01
-4.792711685460189497e-02 -1.169645575661304449e-01 4.865430235580351925e-01
-3.444736012393456032e-02 -7.931595740819062657e-02 4.457409803227770917e-01
-5.258172668969628150e-02 -1.037369052944703829e-01 4.624515436884124586e-01
-6.824818639256492736e-02 -9.260034368033916163e-02 4.490097966769079907e-01
-1.090820510723905373e-01 -1.177844702823611228e-01 4.699318737665834633e-01
-7.011619682681706489e-02 -8.834612684484820233e-02 4.457447189517076969e-01
-7.099478510727401381e-02 -1.043609361915510264e-01 4.589217485967416188e-01
-4.645301775477838485e-02 -8.363600356871363217e-02 4.474143288598687040e-01
-4.474731226266362438e-02 -1.114914525589925653e-01 4.759282879389548082e-01
-1.201257575205943312e-01 -1.149586301294241303e-01 4.845533818262034442e-01
-7.168954313032568915e-02 -1.053869115769757031e-01 4.598358906093544252e-01
-1.081118791829092513e-01 -1.225429337239243160e-01 4.905083068080398623e-01
-6.008653965776340061e-02 -6.736439056399015635e-02 4.394554895823692964e-01
-4.107900344345608024e-02 -9.382708578376146302e-02 4.553108113502744025e-01
-2.764108452203508856e-02 -1.227061933087051915e-01 5.021439760632179228e-01
-3.057607389278377621e-02 -1.132952216018747460e-01 5.488496501008164330e-01
-5.721811027903692809e-02 -1.078522546591343390e-01 4.670025443203242310e-01
-3.823272550169228706e-02 -7.852325616236510708e-02 4.455459638975383663e-01
-3.758801954870400613e-02 -1.134842599096016758e-01 4.793974737466157876e-01
-3.065362442078643779e-02 -1.075197614685215186e-01 5.494253831361708418e-01
-4.138230691060901939e-02 -1.114006643270842173e-01 4.757708445037915901e-01
-5.702957280424440778e-02 -1.147348772402229378e-01 4.800282112022270509e-01
-9.802983603164554249e-02 -1.153000749168803657e-01 4.613160181171528929e-01
-3.643779122639911883e-02 -8.071266144067898440e-02 4.467001013307873025e-01
-7.623502901239161134e-02 -9.604737844772644195e-02 4.507066262788809730e-01
-2.510136023513641693e-02 -1.235752021065871925e-01 5.039988583918614262e-01
-1.032725492993209759e-01 -1.155866386839021070e-01 5.062474276921778982e-01
-6.128808116314722609e-02 -1.213205030244082078e-01 5.128472950455005286e-01
-4.498884776414154019e-02 -6.415759331305787017e-02 4.405069564336143162e-01
-7.666681478784979908e-02 -7.141097745199950775e-02 4.376502818971916287e-01
-2.052459539131497313e-02 -1.081174785361541796e-01 4.667771834867054936e-01
-3.150145674119242400e-02 -1.226423132691998596e-01 5.062036381437006183e-01
-9.127032200008988738e-02 -9.622215834420277947e-02 4.491968084298439412e-01
-1.385149852135628135e-02 -1.203363203032116607e-01 4.853556015485034347e-01
-2.193215301693867553e-02 -1.081947854804296283e-01 5.612841471209052413e-01
-6.797755662761749418e-02 -1.218954218806332229e-01 5.057568123457135689e-01
-9.186693520119847134e-02 -1.224776859718047090e-01 4.998146705009076096e-01
-2.070561388292117833e-02 -1.166173531336208991e-01 5.552336839072842256e-01
-2.597454917058474033e-02 -1.236273280454076862e-01 5.055673062960938102e-01
-9.458626971204137091e-02 -1.220225406152705278e-01 5.024643698607468290e-01
-9.868851624347584062e-02 -1.095587016946882736e-01 4.578727808920562414e-01
-9.138229377952372667e-02 -7.442260057587792021e-02 4.463227155666792956e-01
-5.897920671453031616e-02 -1.205714837763822850e-01 5.196576649496622569e-01
-9.109904559343308394e-02 -1.085672760408479126e-01 4.571634260831767271e-01
-7.730154277463208157e-02 -1.206685988871956661e-01 5.143086112553115763e-01
-3.478186225696557748e-02 -1.190846544383988292e-01 4.920426372429224093e-01
-5.030467833433619265e-03 -1.246380249723319511e-01 5.351648590048324605e-01
-7.851110060242896815e-02 -6.747371844305670441e-02 4.367074677246696179e-01
-2.571621338389067785e-02 -1.143343193857981749e-01 4.790795281552369667e-01
-8.586333647322855200e-02 -1.045975649402866720e-01 4.553678703733244348e-01
-8.308767517281366588e-02 -1.184101381950696252e-01 4.727687728089163821e-01
-1.194141445854554340e-01 -1.086436804370754655e-01 4.698162968081622815e-01
-5.878101642828556517e-02 -1.151874869390168976e-01 5.303306168321281211e-01
-3.284629148215634231e-02 -1.161537059886919854e-01 4.847381478605642946e-01
-3.326319600872841564e-02 -1.100708409692624096e-01 5.461994926477874435e-01
-3.125429710780017190e-02 -1.138699315554098784e-01 5.480665784913633098e-01
-3.789817188820360921e-02 -1.101100000760914799e-01 4.733631508312103331e-01
-3.131114451978061347e-02 -9.851474403068277708e-02 4.595334640938563697e-01
-1.200047320829767394e-01 -1.124231440714162228e-01 4.759584403312499545e-01
-4.784281636274413663e-02 -6.051744233612936508e-02 4.393645144521505785e-01
-1.350325816751267449e-02 -1.002487895609742857e-01 5.669115351877264120e-01
-4.099567296566852814e-02 -1.202802188191519628e-01 5.349933387842737975e-01
-1.784116719364266246e-02 -1.258944144980993496e-01 5.094818066224625630e-01
-2.798673752382416224e-02 -1.037632932433341926e-01 5.526170951792169772e-01
-9.859055568445641848e-02 -1.227845687046333067e-01 4.813728207872416953e-01
-6.704446406847092144e-02 -5.924555213549462240e-02 4.366393236004040834e-01
-1.090042640562344511e-01 -1.065763757379581123e-01 4.582392262919987025e-01
-1.176045742031016084e-01 -1.173476002997265177e-01 4.914947204818155280e-01
-1.027108431603606653e-01 -1.220761157398926738e-01 4.977218437934178286e-01
-6.208209126648791404e-02 -7.691684378023858071e-02 4.416219624996781112e-01
-7.028914682074847986e-02 -1.149562473017732150e-01 4.758906808887528039e-01
-9.721498142760406913e-02 -1.216589981027734607e-01 4.760805520452082717e-01
-7.512979511704899471e-02 -1.040311586020816331e-01 4.576893475897624852e-01
-1.888163040238666213e-02 -1.249012118494923773e-01 5.037828853668150364e-01
-5.309491368549158763e-02 -5.740959933673795562e-02 4.384126269111716656e-01
-8.023578845923477754e-02 -1.213874588716605113e-01 5.115971735299005285e-01
-1.761565664114685473e-02 -1.154557217038089945e-01 5.574490459371131967e-01
-1.001249755197669150e-01 -8.612602722826856461e-02 4.502268563126175516e-01
-4.076837560823888540e-02 -9.244515194421595861e-02 4.542388098975436717e-01
-8.177176663426330427e-02 -8.177387211633860287e-02 4.414144539140370527e-01
-5.410170959515121780e-02 -7.920944450478820120e-02 4.442768732509175256e-01
-1.068391612988243838e-01 -1.217391846813355299e-01 4.786923301784948293e-01
-6.086923146226476400e-02 -1.206612769870929608e-01 5.183441021496000278e-01
-7.248525797029448103e-02 -9.899876355861907118e-02 4.535186501232306711e-01
-1.015341913841535521e-01 -1.188016141527038633e-01 4.671560430281865295e-01
-1.152844000322616608e-01 -1.209433382966846188e-01 4.843788420983701215e-01
-9.846765845565479125e-02 -1.232476681832560400e-01 4.897342842123784123e-01
-5.267854055404579822e-02 -1.103858911446809199e-01 4.725393451943759038e-01
-4.128010456717288307e-02 -1.210676853355799332e-01 5.317560331853636857e-01
-4.214672448468061161e-02 -1.215866716275288972e-01 5.069525710121055573e-01
-9.998072499333790497e-02 -1.223005929272586306e-01 4.723397713314451685e-01
