-6.227161708090146741e-02 -6.346817238182299314e-02 4.385669058740158666e-01
-1.068837502207258122e-01 -1.091036852094864756e-01 4.617362874784777804e-01
-7.914264953669185310e-02 -6.799043162186453604e-02 4.374825097852471090e-01
-7.102694708451236238e-02 -1.184095873710087066e-01 4.873452280737096687e-01
-1.405485431885091646e-02 -1.263574636084118796e-01 5.280617714487152448e-01
-6.164169222510901269e-02 -1.147580306652710158e-01 4.811230123429875438e-01
-8.842289473122018351e-02 -9.829912029797083228e-02 4.519498720956579008e-01
-1.851309836268913434e-02 -1.256855943754912608e-01 5.111324649550063048e-01
-1.327825241136259757e-02 -1.220270555767849346e-01 5.465831726172821758e-01
-1.029518205290815558e-01 -1.081945078141015870e-01 4.598290661499026544e-01
-6.657157352393851257e-02 -6.124494797586207961e-02 4.374411091924498285e-01
-2.030120801730317392e-02 -1.171019614952266280e-01 5.543987500831617510e-01
-2.798028037424512421e-02 -1.065858762890905670e-01 5.540925410264945228e-01
-2.742583824689125149e-02 -1.074312015620682570e-01 4.690742999700348026e-01
-8.216847022741025075e-02 -8.654420289096823038e-02 4.450798968095098229e-01
-5.382034223633712366e-02 -1.112746481665859294e-01 4.754031843606113528e-01
-5.308218920222895765e-02 -5.872533561772166899e-02 4.390561659757341029e-01
-4.703048914672244840e-02 -1.185308742270280574e-01 4.938737068334537739e-01
-8.266295030941520072e-02 -1.144081446115353257e-01 4.689463429918057091e-01
-8.561163718944141132e-02 -1.145828461323780550e-01 4.664475143173800187e-01
-4.322562786457423423e-02 -1.075097164952547313e-01 4.704637230123155378e-01
-8.362825298700267418e-02 -1.188536283107630709e-01 4.841913459511600348e-01
-1.089232026564215805e-01 -1.212656658862102804e-01 4.853194278623756963e-01
-8.219813782946798486e-02 -1.162552324506867379e-01 5.193386609112390362e-01
-3.507567637536407323e-02 -1.172490671807360219e-01 5.419751604405824708e-01
-3.072720842366319371e-02 -1.075742965388438582e-01 5.495182839323919932e-01
-1.762106012115469827e-02 -1.243614527897740074e-01 5.007599052355351521e-01
-5.721107641441663949e-02 -7.417104684709702189e-02 4.427079941561180565e-01
-6.848290369756993012e-02 -6.735460522942118833e-02 4.380444390533009269e-01
-2.261415070256201157e-02 -1.193136690487941187e-01 4.878258239159684040e-01
-7.730955427078707587e-02 -1.150370854104185298e-01 4.743596901264993670e-01
-4.817939499395192809e-02 -1.152230800726108395e-01 5.354595974259893643e-01
-9.133053521640684125e-02 -1.183713414826933902e-01 4.663387858907999117e-01
-1.771640518452093430e-02 -1.262312609260739238e-01 5.211153074301659860e-01
-3.487639495971896209e-02 -1.210689459905474330e-01 5.352668379683598321e-01
-5.688173074054510281e-02 -1.193946257030668034e-01 5.237741639921376091e-01
-2.249436559560638940e-02 -1.140937803155557262e-01 5.565511664981767082e-01
-6.002994975542133571e-02 -1.207335085731173069e-01 5.062597118044724898e-01
-5.096694835048137806e-02 -1.156980822115305230e-01 5.338346910541273971e-01
-9.807522542428831480e-02 -1.209548134130020713e-01 4.790695323047245990e-01
-2.755220416040873865e-02 -1.207545432458376478e-01 4.951405288047888709e-01
-3.334921714926274150e-02 -9.590299941193107525e-02 4.581768484832520194e-01
-7.758512074170625938e-02 -1.089883090575482633e-01 4.638772942765941321e-01
-4.321507625663327523e-02 -9.779765662728627518e-02 4.590499434617146268e-01
-4.126760568400478918e-02 -1.215797281563768678e-01 5.101809682850005911e-01
-7.994287905321714738e-02 -1.142022208350894907e-01 4.710396713010485126e-01
-1.069743582153941108e-01 -1.054124826236945561e-01 4.584539594182431288e-01
-6.934457819242255405e-02 -1.200841696613356296e-01 4.950919011497930122e-01
-2.302785820345360293e-02 -1.247024115905323166e-01 5.124329722554714639e-01
-1.193560437144688124e-01 -1.120294207425096833e-01 4.803702817085116483e-01
-5.541990069686157649e-02 -1.123823363597673125e-01 5.336369173270061328e-01
-8.202412953009277641e-02 -1.109830530247878505e-01 4.643101679231143031e-01
-2.821534384584997029e-02 -1.061361008211014340e-01 5.535443756279124772e-01
-1.162181510090453535e-01 -1.184952809018009201e-01 4.809565608005959558e-01
-4.637741300564052899e-02 -1.158001654799725028e-01 4.853135717348284750e-01
-3.299026049076843325e-02 -1.228134010855745917e-01 5.163941694165814500e-01
-1.121953352036835633e-01 -1.180847439310619140e-01 4.756400968792830475e-01
-1.004822825011207760e-01 -1.155592418916166902e-01 4.650785847190708755e-01
-6.218154826231377108e-02 -1.146495146405285270e-01 4.806234995244091368e-01
-4.183634284235432377e-02 -8.332158899767834470e-02 4.484383876779435840e-01
-1.014766213550590546e-01 -1.121618717487670586e-01 4.627942302916551176e-01
-5.078632045385602506e-02 -1.212383469072659675e-01 5.135951395810258724e-01
-3.130245949138997508e-02 -1.225179738331082097e-01 5.070648546634491938e-01
-1.393735813582919550e-02 -1.231503787598687977e-01 5.418915656589088359e-01
-1.550744884402065378e-02 -1.205720239180122916e-01 5.492859915894791056e-01
-5.096674707213326438e-02 -1.037012262585329664e-01 4.640489333056946331e-01
-9.204685619168370692e-02 -1.207315866145400457e-01 4.767424773928298221e-01
-1.043209099968917947e-01 -1.057699887488894597e-01 4.581407251916861378e-01
-3.504838710972182914e-02 -1.081847033366386268e-01 4.712472461401907564e-01
-8.736315262705457441e-02 -1.197365231035574795e-01 4.829957281039437555e-01
-1.010818802805065267e-02 -1.022911784440197480e-01 5.675039644937057703e-01
-1.231766714339189300e-02 -1.147591499031673512e-01 5.587329903408452259e-01
-2.093239602629338308e-02 -1.072476220530017982e-01 4.661591052989615958e-01
-7.176081982494157685e-02 -1.095920680216866533e-01 4.671663454696403650e-01
-3.140942429324126289e-02 -1.230135093650896877e-01 5.268837714238040482e-01
-8.726292858826216470e-02 -1.194461799160110443e-01 4.810414619472066500e-01
-5.616672846603767977e-02 -1.151603981675958510e-01 4.829685529627845142e-01
-3.310259989417269066e-02 -8.748097171426647001e-02 4.513560021374458109e-01
-1.093096686875686258e-01 -9.292081105882434022e-02 4.566942600295111343e-01
-1.051089625078484163e-01 -9.077321264683535507e-02 4.537167751752770872e-01
-5.161696675469221868e-02 -1.209180501778581440e-01 5.182527362600544141e-01
-1.189990330560685011e-01 -1.072505771017128046e-01 4.702215196703860567e-01
-3.815184348875702569e-02 -8.502120864590788363e-02 4.496121818858178631e-01
-4.645700449550716621e-02 -1.169929222227141796e-01 4.887113720309839704e-01
-5.044781373303967864e-02 -1.067971213244471862e-01 4.683819462998738969e-01
-1.019800152844639596e-01 -1.177614487977689112e-01 5.061971262271807159e-01
-7.348877616098438426e-02 -1.213269600754453698e-01 5.079116321314913751e-01
-8.131855551726038800e-02 -8.137859433742374027e-02 4.421255249092058137e-01
-9.605327770259691755e-02 -9.335750137060418175e-02 4.494783229523855450e-01
-8.336045072098800801e-02 -9.022120988060970681e-02 4.472930694777089156e-01
-8.217871522295908115e-02 -1.193611630762946435e-01 4.872445462552361106e-01
-8.248936875051737783e-02 -1.201001685479135966e-01 5.142457594509064478e-01
-7.930159599025761452e-02 -1.138818064648362688e-01 4.709929034800885428e-01
-2.535637852488014515e-02 -1.233567224922984679e-01 5.339471668679477423e-01
-5.825633368806075463e-02 -1.191871132939126554e-01 4.964430883118446380e-01
-4.522051715459077942e-02 -1.180441907851524641e-01 4.917276715910726126e-01
-4.018274361380227977e-02 -1.027869925684449931e-01 4.644721538328394073e-01
-6.893220545906071639e-02 -1.141093124188321956e-01 4.770889825777970827e-01
-8.157766045266470756e-02 -1.113422733388396701e-01 4.652053780032279207e-01
-5.659022346750419707e-02 -1.112172767840551579e-01 5.335102623353522588e-01
-3.701159903516283017e-02 -1.163734624376658172e-01 4.864305004520190212e-01
-8.093274600563396537e-02 -8.855871411043722552e-02 4.463373772486393665e-01
-4.204526880926097443e-02 -1.100737997954942399e-01 5.414662759708547268e-01
-2.246711229987201006e-02 -1.249626256425512144e-01 5.160783696894519768e-01
-1.142978435014082861e-01 -1.043876461259468091e-01 4.622813668037206170e-01
-4.585356132623489428e-02 -1.212908273495667405e-01 5.178950010759815203e-01
-2.813350750770873127e-02 -1.143579442040206784e-01 4.807617287562650499e-01
-3.226793089432280354e-02 -1.226246056817174301e-01 5.098571027607934347e-01
-2.348677649893803066e-02 -1.227740617147515950e-01 4.992351997287960974e-01
-1.632909812130437996e-02 -1.226955732128812843e-01 5.441380214695261675e-01
-4.982386886989775832e-02 -8.996731689598580495e-02 4.513076105017758688e-01
-4.825271000089517703e-02 -9.998956985868168168e-02 4.599858200400773200e-01
-3.238607432492741911e-02 -1.177074401249788155e-01 4.888988984112246916e-01
-3.909545736203409033e-02 -1.220525898176359758e-01 5.176831229016249925e-01
-7.903712452389495546e-02 -9.910465571732907097e-02 4.538340649157059925e-01
-8.618949808531151113e-02 -1.215325588235955379e-01 4.947941456788277348e-01
-2.460243417744681013e-02 -1.242825599869105818e-01 5.119533053173246362e-01
-5.536349029666572108e-02 -1.194473906205508473e-01 4.982891829837416409e-01
-1.102322356831193784e-01 -1.046634151408527280e-01 4.589353290408362818e-01
-3.141086720507939994e-02 -1.094700712430625861e-01 4.727152609689464491e-01
-6.244437589634638935e-02 -8.072258810333098056e-02 4.437469358305638489e-01
-6.535231684746152514e-02 -6.511455504784115222e-02 4.381322855503653191e-01
-3.679553620199462610e-02 -9.749645318609091726e-02 4.595884798474847432e-01
-9.084010199547336295e-02 -9.662258718979167826e-02 4.507309563715946599e-01
-6.498923576135468005e-02 -1.125815037421969422e-01 4.752656954596434780e-01
-2.355395314396108164e-02 -9.838724977356755330e-02 5.588166805369766399e-01
-9.922233330964688736e-02 -1.116984793579149093e-01 4.610303507852155369e-01
-6.111383083287155044e-02 -1.190522326836359057e-01 4.947908586987492807e-01
-8.078477346016046945e-02 -8.336777637677357522e-02 4.430990835536921524e-01
-7.072288161353015856e-02 -9.186329480428764849e-02 4.492745806413075971e-01
-4.176792918257014875e-02 -1.134395401370990181e-01 4.804166570406505077e-01
-9.648610728275436657e-03 -9.269732111606486524e-02 5.713465977841277743e-01
-1.782306422991771291e-02 -1.211438685217599842e-01 4.897526715913423923e-01
-5.335631000034082166e-02 -1.191065982614025048e-01 4.967308932486080852e-01
-8.976658394406075714e-02 -1.217039601185209430e-01 4.939352296862319913e-01
-4.747908103079376968e-02 -1.190447116753169665e-01 5.315729633126109466e-01
-5.337421367819223522e-02 -1.195432351683280575e-01 4.988167809387070162e-01
-1.107069669481078877e-01 -1.144825318857931457e-01 4.690190964158643117e-01
-9.584269661324082423e-02 -1.210385417342287190e-01 5.024154244794243329e-01
-4.238938593808082300e-02 -8.693879665874676421e-02 4.505104608489565177e-01
-2.522062331618093317e-02 -1.140229101972076581e-01 5.547431272637353139e-01
-6.649134231452402677e-02 -1.133919887174589386e-01 4.764203333422981634e-01
-2.083530045194282795e-02 -1.003547893233287941e-01 5.633199907554422570e-01
-8.982122071638083682e-02 -1.200918190299775784e-01 4.781231510430623000e-01
-7.247741703342125419e-02 -1.171104682227491894e-01 5.223156570973702673e-01
-1.448194441812583437e-02 -1.264787595909561413e-01 5.266140741407072667e-01
-5.952332101352551114e-02 -9.584601281647343873e-02 4.538172315243658717e-01
-8.903209048547559845e-02 -1.216574209552115926e-01 5.009587517757626562e-01
-4.813766532627292843e-02 -1.210646183867325754e-01 5.192981599404392634e-01
-1.098689422411981975e-01 -1.189227682377409223e-01 4.761036674615561348e-01
-7.292031766079423716e-02 -9.655380983875612444e-02 4.527098073335285022e-01
-6.696497435661204201e-02 -9.476044425068627652e-02 4.519008573080890989e-01
-3.109794188190169451e-02 -8.155415808481054907e-02 4.469068838116587727e-01
-7.387590451829062488e-02 -8.247789008671072009e-02 4.425375861719209047e-01
-2.538305760560326599e-02 -1.188514069183896071e-01 5.483354915574841781e-01
-5.090380040904080722e-02 -8.812146073959505055e-02 4.498586924511545071e-01
-7.734076661604896707e-02 -9.035071148438608701e-02 4.476525568298113100e-01
-1.016519266789339682e-02 -1.278683249881306661e-01 5.196176509884378181e-01
-1.030646946708536627e-01 -1.171005531249381948e-01 5.051121342683204674e-01
-4.280109541166919607e-02 -1.012511273809713896e-01 4.626071803474999244e-01
-1.779450119340521275e-02 -1.120600957594514169e-01 4.716720200159693066e-01
-4.651704013937941334e-02 -1.070312935409085259e-01 4.696035450649865828e-01
-1.301583696199784534e-02 -1.269810146600439948e-01 5.111928257537492470e-01
-6.296399764147699030e-02 -1.205115316407828763e-01 5.012728443084001340e-01
-9.620916685995517525e-02 -1.220907143861329064e-01 4.922458549664774363e-01
-8.053007166816295026e-02 -1.122434512568488557e-01 4.672996212447283471e-01
-9.203632950611894542e-03 -1.280133392610059151e-01 5.221593841540729253e-01
-2.872569549760705526e-02 -1.061510004575936805e-01 5.528229998644815790e-01
-3.325059472408180283e-02 -1.176321817298777023e-01 4.888027978650775762e-01
-1.132734117297764659e-01 -1.159683771553161602e-01 4.988779774874028128e-01
-2.644839463545684694e-02 -1.240121691864004005e-01 5.273490331993966329e-01
-8.173722702979513421e-02 -1.114416443943290064e-01 5.233774181484239785e-01
-6.539825802111134956e-02 -1.197855724871586119e-01 5.196349097121231164e-01
-1.636950824639436114e-02 -1.254606499317827417e-01 5.049250054381234643e-01
-2.793606390528876465e-02 -9.806205594110871393e-02 4.585916410352249839e-01
-7.940477109415856188e-03 -1.244154675454380993e-01 4.949597446910446452e-01
-6.582635822129200009e-02 -1.208937584070615967e-01 5.129756052880076744e-01
-8.871353782213579897e-02 -1.213954365749355807e-01 4.908890535719742099e-01
-5.764499060499474192e-02 -7.023622335201544498e-02 4.413879784056222721e-01
-4.861132558334436971e-02 -6.312339090142990439e-02 4.403377476830743209e-01
-1.460270890143945677e-02 -1.205138463003733312e-01 4.864984257547781410e-01
-1.978992465424728869e-02 -1.175074235119873550e-01 4.816732230611334153e-01
-4.936416662669437794e-02 -6.303981579391151890e-02 4.402500421685213161e-01
-1.567169118941175165e-02 -9.710923969803247902e-02 5.669807949329987995e-01
-9.610143516021700527e-02 -1.050431152056604256e-01 4.561527473041543379e-01
-8.887542028869718780e-02 -9.420646298303572697e-02 4.494394540025969387e-01
-8.814215188359023068e-02 -1.198058222493712799e-01 4.754548917720220480e-01
-6.953978385488704395e-02 -7.614055495154498088e-02 4.403278896252065255e-01
-4.480028042583080600e-02 -1.188944468869233689e-01 4.949156375974037569e-01
-1.121898340598424942e-01 -1.140872913240397468e-01 4.693272661195115325e-01
-6.827746149134215903e-02 -1.176083616243194241e-01 4.860877279817449326e-01
-2.738855331754211711e-02 -1.129530434462811816e-01 4.777372102023526579e-01
-2.425387440526059757e-02 -1.047208201517589587e-01 5.590521278428980390e-01
-5.736824789870521163e-02 -1.137635342729518689e-01 4.796040730881493408e-01
-4.879361644973295720e-02 -1.198802102202941589e-01 5.008971691661493475e-01
-8.620597205364892435e-02 -1.055042743448081355e-01 4.576897251166733294e-01
-4.057706603487978847e-02 -1.218881694089323231e-01 5.171844372473288765e-01
-4.296261709309011356e-02 -1.203794161637336685e-01 5.330749784345898412e-01
-1.081098084416230454e-01 -1.120634434986447631e-01 4.650266950808126243e-01
-1.984693456903100992e-02 -9.745525057613294018e-02 5.642491497599030348e-01
-6.952203290392888757e-02 -5.338890077897694153e-02 4.392395019498103181e-01
-8.553163637690094911e-02 -1.212919069871268712e-01 5.067469078601677390e-01
-3.300782868800349046e-02 -1.192201551112436614e-01 4.928174617758247500e-01
-1.781357299996458657e-02 -1.251764576398802786e-01 5.325646882704925256e-01
-7.334313127142329247e-02 -5.427635128210972493e-02 4.393065991983884366e-01
-3.929901508597130610e-02 -1.218017343071114006e-01 5.108203717990782433e-01
-1.802766696215779216e-02 -1.239443575504982770e-01 5.381763765858794679e-01
-9.776744521816566058e-02 -1.077069670241956184e-01 4.581722226196772163e-01
-6.211449062885900096e-02 -8.853068465295609035e-02 4.480455834397170101e-01
-3.584858586521959961e-02 -8.430858737689431170e-02 4.492639530977008966e-01
-3.792318923787861562e-02 -1.219668447928373423e-01 5.115832661785926216e-01
-1.014400739369066412e-01 -8.401651317652145123e-02 4.538112964368453128e-01
-2.156952585456567775e-02 -1.123706016283679554e-01 5.584632449604333138e-01
-1.075157658179105857e-01 -1.171472604548148139e-01 5.018090743604919357e-01
-1.001526305763094649e-01 -1.173410059556178608e-01 5.090489592798427276e-01
-3.136007878871323318e-02 -1.194290014435521741e-01 4.929368221210356227e-01
-2.565313773805261502e-02 -1.190656563319088951e-01 4.895534403947515711e-01
-9.952515575917281199e-02 -1.196723795012601538e-01 5.048243764014657131e-01
-2.581117424735428212e-02 -1.224350384383979390e-01 5.002694803223638464e-01
-3.759382236271600897e-02 -1.219459363933500656e-01 5.102386021181175568e-01
-1.060671807306682035e-01 -8.927901282997031951e-02 4.554960250877722050e-01
-2.093641258442560313e-02 -1.145792951410706390e-01 4.773226055435541570e-01
-7.852862866970086730e-02 -1.025156966447607343e-01 4.567879086782027920e-01
-2.499316943033668553e-02 -1.036221293038035590e-01 5.578930625101036211e-01
-7.849151767484614795e-02 -1.002425047078436132e-01 4.548273286955265005e-01
-1.031781247087580067e-01 -1.220695215184462029e-01 4.858821608446682316e-01
-1.075864070296626840e-01 -1.111408691676539773e-01 4.638470559084157951e-01
-5.564395246266415351e-02 -8.749862791504048332e-02 4.486585117662060251e-01
-2.985222899472510238e-02 -1.234010914062202285e-01 5.215765776631269279e-01
-5.995207446630376052e-02 -1.137562713444286999e-01 5.308260084972329373e-01
-5.023359364220080642e-02 -1.160510959541228293e-01 5.339669203531109964e-01
-2.953511882464897320e-02 -1.228773201045773866e-01 5.071864218666282120e-01
-3.218022450244111682e-02 -1.073984839751166154e-01 4.698373956765988235e-01
-5.190313661595030020e-02 -1.044506969903407911e-01 5.382002690599320127e-01
-7.134419317490461876e-02 -6.938017351175032599e-02 4.379673252128604699e-01
-9.541470205509465508e-02 -1.216766308897397758e-01 4.853227486081427844e-01
-1.050003700378373817e-01 -9.210198526521365392e-02 4.533797140594142960e-01
-7.051096053192665303e-02 -1.152261875209070474e-01 5.252105246470759603e-01
-7.699770348021328648e-02 -1.205900879346143567e-01 4.932575941133738873e-01
-2.847874924090250393e-02 -1.230097935549925858e-01 5.319982195256657276e-01
-3.477417598770771862e-02 -1.060439639491260327e-01 4.681790592966518783e-01
-8.517274937465736662e-02 -1.198249475249798662e-01 4.858891571486010363e-01
-1.188559097848416041e-01 -1.055888109191791963e-01 4.689573815757268616e-01
-8.968261300108898437e-02 -1.219486952134496011e-01 4.982645028018257150e-01
-2.404781834376074762e-02 -1.177115932774530360e-01 5.512471310969193627e-01
-7.773434277420107619e-02 -9.591053517484678104e-02 4.516312574746554898e-01
-6.184523600761608619e-02 -9.135746000705682879e-02 4.500444554010022968e-01
-7.608634415083186109e-02 -7.401360200628076536e-02 4.389064758988177051e-01
-8.436067218776641119e-02 -1.011359034533661772e-01 4.544874078374183113e-01
-6.508361391429196008e-02 -1.137326223518794893e-01 4.776054567269384377e-01
-4.815698511386988512e-02 -1.118509241790149045e-01 5.373100166175158732e-01
-1.004034496713742397e-01 -1.211718011048820293e-01 5.006880231998439568e-01
-1.019719517068551629e-01 -1.199043114464662385e-01 4.716266717939595066e-01
-5.741196728098123953e-02 -6.881524679315677295e-02 4.409816910373062226e-01
-7.759737719201824369e-02 -9.425033305489249891e-02 4.504419191059421679e-01
-8.138446416970793185e-02 -1.109874355444441518e-01 4.647116871613265476e-01
-1.207579172306761928e-01 -1.112933847453162622e-01 4.878994096696496197e-01
-7.095982491413478643e-02 -1.107449236035503715e-01 4.693378011865160238e-01
-8.201862094769078737e-02 -9.579163069350067616e-02 4.510178906096748430e-01
-1.230059566699489085e-02 -1.240615792489252883e-01 5.377311137730979018e-01
-4.523966905125254012e-02 -1.212338320290351351e-01 5.227936940240329733e-01
-6.315010147184958733e-02 -1.191964309184040394e-01 4.945057646687730513e-01
-7.133790572621191706e-02 -1.201510273887244074e-01 4.938416377530401302e-01
-9.824195086806755337e-03 -1.262319942448767163e-01 5.020317216938959826e-01
-4.402710002570217607e-02 -1.205096769196841167e-01 5.316735479459738789e-01
-7.060109438107344849e-03 -1.227191579575663133e-01 5.402036924096471626e-01
-6.777331808820642733e-02 -9.409609370271236617e-02 4.513012616708310665e-01
-7.411007304538037854e-02 -1.050034143801309022e-01 4.604416500880373353e-01
-6.592633610613854445e-02 -6.408936521363492456e-02 4.378580764793916780e-01
-6.515466457298674241e-02 -9.262902565831528101e-02 4.504765649994484367e-01
-6.741688225337647000e-02 -1.084912952304979694e-01 4.669189675749821911e-01
-4.267834765688637011e-02 -1.051968238607346451e-01 4.671706068431871750e-01
-3.518285770277386482e-02 -1.215995244044996287e-01 5.050475009127944892e-01
-2.956512555215775120e-02 -1.007544095863089767e-01 4.615548343639127582e-01
-7.982381442727957965e-02 -1.124801221333465717e-01 5.249980105579326040e-01
-3.549532119621481158e-02 -9.562046252228446896e-02 4.578874565043710709e-01
-9.471325939203822930e-02 -9.809011580452908774e-02 4.515253038662613849e-01
-3.260680370485784241e-02 -1.155878376118487094e-01 4.844678803063110495e-01
-4.880305702052212952e-03 -1.284096335927389920e-01 5.108215383244494312e-01
-6.425479493755070770e-02 -7.254738312966399483e-02 4.404095001893600370e-01
-9.926354840443105121e-02 -1.221538903478237709e-01 4.921314730258857795e-01
-5.501425191708824575e-02 -1.115766625464136852e-01 4.756856919872449185e-01
-1.069438604250151775e-01 -1.217557956405057873e-01 4.873467155358052194e-01
-6.080341647142278871e-02 -7.477373500035554288e-02 4.419872396429549988e-01
-8.353500601314050450e-03 -1.205445259234492333e-01 5.473435589743947949e-01
-4.171042741747178068e-02 -1.118493958029409818e-01 4.775304598153665148e-01
-1.161795998098931332e-01 -1.169247193314514877e-01 4.934871080936693577e-01
-1.300609808202985579e-02 -1.235985204058550335e-01 4.943863380663974794e-01
-1.600739659754321989e-02 -1.138659480497502818e-01 5.596291665612378452e-01
-1.607845945769653326e-02 -1.188734665288204567e-01 4.833057466611963005e-01
-1.026512147242759354e-01 -1.222412125106586700e-01 4.910515854257651025e-01
-3.945021099410489507e-02 -8.373185575681817150e-02 4.487771628151040471e-01
-6.987610756283230140e-02 -9.214336192420737037e-02 4.495750110367119912e-01
-1.189203307209447946e-01 -1.099836195190685567e-01 4.726201356089517747e-01
-5.777332946079337395e-02 -8.473608313627502275e-02 4.466330705498153808e-01
-1.970173604318609800e-02 -1.257025037692399150e-01 5.246850560035767330e-01
-1.063540223634448501e-01 -1.202235281954159435e-01 4.983338720492636043e-01
-4.713526880917521394e-02 -1.147358841246429867e-01 4.829149896986893453e-01
-3.259750579887551319e-02 -1.229855317435958884e-01 5.190470842159973230e-01
-7.744554245617232130e-03 -1.251800442669710189e-01 5.334697049499789179e-01
-8.392092370794104750e-02 -1.079653724726172270e-01 5.221303721201009385e-01
-4.425323756734031444e-02 -1.127343602036704195e-01 4.791901014160990790e-01
-5.602339261333027370e-02 -1.003843425409269435e-01 4.585092873471630637e-01
-8.827017348183953394e-03 -1.281509144112399634e-01 5.173269286704825776e-01
-4.623511314569169611e-02 -9.585439654944817589e-02 4.566811369680041088e-01
-4.611036234965640301e-02 -8.259913230043859633e-02 4.475584616672964033e-01
-4.008353416168580763e-02 -1.093571155060797523e-01 4.731864505319792746e-01
-2.995221630380613675e-02 -1.196831462481735830e-01 5.430693251204150584e-01
-8.922615038763720419e-02 -1.191872753488471826e-01 5.116215750689734332e-01
-7.353097186030714549e-02 -1.161772018640703646e-01 4.790219324799259715e-01
-5.289887153812883325e-02 -1.103838915323842873e-01 5.361062682360120402e-01
-2.842807788838864688e-02 -1.237053797530762445e-01 5.207507990332005399e-01
-6.952245593242423194e-02 -5.603708702777864675e-02 4.382166957995664025e-01
-2.427397939022193918e-02 -1.062342896236970202e-01 4.664715997028856531e-01
-6.570833988482266408e-02 -1.207122030703889209e-01 5.148429670405906267e-01
-3.817923028906441280e-02 -1.210346742612906645e-01 5.029392505359729926e-01
-2.245009246891432886e-02 -1.214880130725300017e-01 4.942811632259799248e-01
-5.578671552859351679e-02 -1.147142860817368659e-01 5.320628151678588047e-01
-9.044439965154055239e-02 -1.126738323837707945e-01 5.168322457179848062e-01
-2.483927565031852913e-02 -1.025302821724588809e-01 5.577114366655697708e-01
-9.878288543931976196e-02 -1.193980074971991989e-01 4.666079013892615590e-01
-8.204259794498146297e-02 -1.061421417534305911e-01 4.592706578221064095e-01
-4.624346790360409770e-02 -8.969191190836187100e-02 4.517459390257506646e-01
-9.331842394419621878e-02 -7.589548572769727608e-02 4.482253013266851993e-01
-9.135584075939857246e-03 -1.277400181951080238e-01 5.247449548563503097e-01
-6.651694816508875452e-02 -6.735645533693083997e-02 4.384422219196967285e-01
-5.564361130557787111e-02 -6.652911129894205355e-02 4.405442340426696246e-01
-8.078098340366104968e-02 -1.214513888914967865e-01 5.062568623314903649e-01
-2.646036022300784010e-02 -1.209029895203162647e-01 4.950410051028091285e-01
-4.823006258744232805e-02 -1.090195711178422039e-01 4.725068320298521085e-01
-1.140349299128173705e-01 -1.196695820043865016e-01 4.831125325526696157e-01
-5.464049648033148660e-02 -6.384567001736556058e-02 4.398362482674951224e-01
-9.965170902837040823e-02 -1.216347369330320477e-01 4.976025591741088383e-01
-1.003233176877922905e-01 -8.843383338722179965e-02 4.506865918524081693e-01
-2.624888632983458231e-02 -1.140803098048871755e-01 5.537129393333158900e-01
-2.956806616684354294e-02 -1.060061826703168203e-01 5.515196431220923401e-01
-4.765406720965086745e-02 -1.102308658137656217e-01 5.384110574261768978e-01
-4.897404188838618000e-02 -8.554308242864823442e-02 4.487151521042401225e-01
-1.883887708365914251e-02 -1.171795295746465154e-01 5.546665203757664697e-01
-7.376914469730518065e-02 -8.072636995767751289e-02 4.413145840323648428e-01
-8.609415944105303087e-02 -9.624949447045236250e-02 4.508040953439029774e-01
-1.250610318131295876e-02 -1.260184115541411465e-01 5.032662596614939643e-01
-8.249683037133914709e-02 -1.186708135996329405e-01 4.793579885876342872e-01
-5.148574426858022052e-02 -6.360295927593306864e-02 4.402297504207952628e-01
-1.089209705461329225e-01 -1.180605326606435218e-01 4.738746695487610072e-01
-9.641213135601611750e-02 -1.087968684531103458e-01 4.585221683159305117e-01
-5.653701979025230889e-02 -8.939197905748391682e-02 4.496548776429349359e-01
-1.471815088712468376e-02 -1.115739326271484033e-01 5.616763859642680545e-01
-8.362974909547969682e-02 -1.112984998399241532e-01 5.212203083773249146e-01
-7.539259618701634608e-03 -1.212937580419864297e-01 5.443533017427001353e-01
-9.457535003989758771e-02 -1.217249764009164653e-01 4.863599745840739841e-01
-7.997025646098887552e-02 -1.082936060223846086e-01 4.622289934388509325e-01
-9.790774129044317597e-02 -9.807941217009917556e-02 4.519523869314132081e-01
-8.521896512938133272e-02 -1.210712442467877653e-01 4.906849369506426362e-01
-3.134049549789210548e-02 -1.043461463067281159e-01 4.659574388342256901e-01
-3.664829576426806984e-02 -9.407289851560080018e-02 4.566047538784794302e-01
-2.333886753426437158e-02 -1.198368810465398893e-01 4.897804871341432942e-01
-1.073372945321524885e-01 -1.101298925876768031e-01 4.628144605543623169e-01
-7.432274429579019404e-02 -6.791177117362232063e-02 4.372507368872309286e-01
-7.768962218248029461e-02 -1.121261092999175923e-01 4.687307552142508937e-01
-3.326889275696517934e-02 -1.227897822368572145e-01 5.249634322748170101e-01
-3.727693406215103894e-02 -1.212972555487931842e-01 5.329225089797006154e-01
-3.768553509770903448e-02 -8.377592372448783298e-02 4.488694185749086962e-01
-1.870974474822943018e-02 -1.238847716714341213e-01 5.382472973209047051e-01
-7.316628685722724457e-02 -1.129554123757298828e-01 4.722603604225198981e-01
-1.556857649093735564e-02 -1.166529090014147840e-01 4.783428273293102162e-01
-3.213464264699238127e-02 -9.369748555265897116e-02 4.560709681953815653e-01
-4.223563882463072724e-03 -1.288887003579975155e-01 5.221542638359968347e-01
-7.123946016031267037e-02 -1.061192682875208571e-01 4.623400774191687712e-01
-6.425481031894099415e-02 -1.177084560079154907e-01 4.879898471202781529e-01
-8.607004676395409171e-02 -7.917038880040165594e-02 4.424039835895330897e-01
-1.038733962944990152e-01 -1.213458556741806443e-01 4.801670915798301742e-01
-7.203495561440628747e-02 -5.724212776319922980e-02 4.379858490703475993e-01
-2.002017013582584742e-02 -1.217622649223336490e-01 4.931163820964106215e-01
-1.181416862760524128e-01 -1.182415632233902864e-01 4.866176472146577225e-01
-6.876810044082623530e-02 -1.212074548949179237e-01 5.046074329621739185e-01
-8.155996956730983405e-02 -1.192796076282626877e-01 4.871067976572848179e-01
-7.186685897439228088e-02 -9.431759932337645258e-02 4.510707965093535554e-01
-7.969643985836141753e-02 -1.038124269330010785e-01 4.576949610130550128e-01
-1.106960144584209424e-02 -1.183631682293910109e-01 5.533350305949412684e-01
-7.891552979575283677e-02 -6.616789895815899936e-02 4.374925102475402672e-01
-7.218874971847112458e-03 -1.192910368366895679e-01 5.501576309890983119e-01
-9.304478409279008655e-02 -1.211397420568338379e-01 5.041470739344021679e-01
-1.116601515449186510e-01 -1.184962440135013256e-01 4.760921737198779424e-01
-2.837090968566530549e-02 -1.099494533862080403e-01 4.731861058395104846e-01
-1.839847161647067617e-02 -1.162809055705796707e-01 4.787546419279126164e-01
-5.637895886009548774e-02 -1.093325409013537752e-01 5.343586004116008814e-01
-5.636845795165388445e-02 -1.205686371363730303e-01 5.059398095177688459e-01
-1.278457181403351399e-02 -1.259755566160794538e-01 5.033906417805035227e-01
-7.354095851484970803e-02 -1.214687186128006607e-01 5.027472523581265618e-01
-6.422733241762222656e-02 -1.192170461273450721e-01 4.938574461710368846e-01
-1.172990177995074795e-01 -1.009641814363526624e-01 4.674480641739505171e-01
-4.795451741704728765e-02 -1.119872154577327417e-01 5.372972886740998710e-01
-5.878370981817829244e-02 -6.926424083719365243e-02 4.408939137539533148e-01
-6.618701428717513324e-02 -1.210785082605885243e-01 5.107330172032004123e-01
-1.491098832928652515e-02 -1.262397344066385485e-01 5.285077665378942191e-01
-2.343022317495897788e-02 -1.044477059129976099e-01 4.635588636946617602e-01
-9.130868683245463302e-02 -7.394032207122631928e-02 4.466880805187831149e-01
-7.529737811075917775e-02 -1.116763882911868122e-01 4.691465709851060928e-01
-1.800595316848929012e-02 -1.158639642246430262e-01 5.569053632634312079e-01
-5.730702168249798487e-03 -1.242254730719406369e-01 5.356927452152649982e-01
-1.028960730773865878e-01 -1.036336103501508260e-01 4.560737720206765600e-01
-6.027064902305309668e-02 -8.467780235816657619e-02 4.461137816753412144e-01
-2.838344291284177617e-02 -1.001587725412439733e-01 4.606131106878863513e-01
-1.036922024495162964e-01 -8.500187191492181160e-02 4.560022540019636472e-01
-6.992846707352243230e-02 -1.140775910870604898e-01 4.765325266851226371e-01
-9.185141836881353938e-02 -1.205423352120904151e-01 4.828095458929076988e-01
-5.464858850726834333e-02 -6.321040794412849384e-02 4.396909694005310953e-01
-2.257359641804710174e-02 -1.019774568441456225e-01 5.618569822660463009e-01
-5.183117838442876518e-02 -1.191811357934827453e-01 5.263442235310126227e-01
-8.575046817930395693e-02 -1.034460479165529856e-01 4.560080383372781543e-01
-8.251345887240874033e-02 -6.870323373921710663e-02 4.392588800610493505e-01
-3.724514821878818077e-02 -1.025726055975855477e-01 4.643430466552361247e-01
-1.199751931000730409e-01 -1.109814268606641730e-01 4.817807610235950166e-01
-3.968953132084338670e-02 -1.210197947089102916e-01 5.039406633572077743e-01
-2.530595133442521683e-02 -1.103605239502045560e-01 5.560595035960622656e-01
-4.579842937223718713e-02 -1.113705420325841605e-01 5.385930905197904295e-01
-8.177001444062238084e-03 -1.216225276172449299e-01 5.441055727543046006e-01
-3.957354619995832878e-02 -8.556585384075836298e-02 4.498919382328895322e-01
-8.311733143983102146e-02 -1.199740964323410264e-01 5.141313949127902516e-01
-2.212996788407026183e-02 -1.054572297182969909e-01 5.620886984801560793e-01
-7.038776576362930359e-02 -9.942165885157777661e-02 4.554395955500361581e-01
-1.098278677372483692e-01 -1.193762333127230263e-01 4.770550077443358461e-01
-9.933832412602951190e-02 -1.220680897877434584e-01 4.937748276376922596e-01
-8.180191698618895224e-02 -1.211878044895259021e-01 4.942419687605186240e-01
-3.896368704813341077e-02 -1.153501396863473166e-01 4.843448954293429476e-01
-3.015938466162792347e-02 -1.231677681571877320e-01 5.126374813101836070e-01
-5.338349233434426522e-02 -1.012842687868231312e-01 4.600541987321902782e-01
-1.091430463656189488e-02 -1.242366350623980847e-01 4.953543632511454575e-01
-1.961925758008884607e-02 -1.257667217016411321e-01 5.223571113876374072e-01
-1.725385311900582558e-02 -1.218813270445451985e-01 5.460625052042761274e-01
-1.114122604982021869e-01 -1.016295913251298727e-01 4.581696150312880023e-01
-9.766362428273089868e-02 -1.222045263769808709e-01 4.703485853194727673e-01
-7.392203124060957309e-02 -1.211438382756316601e-01 5.098820600765329170e-01
-1.701787724063454077e-02 -1.161791230130996971e-01 5.568210763503880223e-01
-1.151034098148857182e-01 -1.000592470707877962e-01 4.627231466122144199e-01
-6.188060034003271988e-03 -9.610311511170892274e-02 5.704083335832463852e-01
-8.171050383616730584e-02 -9.821545931106512306e-02 4.527585144461090949e-01
-7.824647922172527081e-02 -8.143658021467242714e-02 4.419100747859626699e-01
-9.313322717030859954e-02 -1.201867825408447360e-01 4.790212294300805751e-01
-2.156708110754475965e-02 -1.113963024719172579e-01 5.594171546513621029e-01
-8.985326317260954043e-02 -1.132043564350968951e-01 5.167817248727551993e-01
-1.730262344156852788e-02 -1.221689477067773588e-01 4.922401727817814487e-01
-1.808648315219267902e-02 -1.115251554900716646e-01 5.611508702034785356e-01
-8.564210997199334097e-02 -1.173981638890695539e-01 5.163606776536285858e-01
-2.659052016325744866e-02 -1.204523602391010251e-01 5.441017689687358549e-01
-3.678366961929937368e-02 -1.222148220451504119e-01 5.150259833584347469e-01
-5.410202470193811036e-02 -1.099251835316366888e-01 4.727292127379959519e-01
-6.106632532606777464e-02 -8.813607168666195979e-02 4.480027641911716874e-01
-2.788281649885663432e-02 -1.094988208182321870e-01 5.539971203585639659e-01
-4.880025592164767556e-02 -1.029045911158700949e-01 4.633727592952513463e-01
-7.019523160121714234e-02 -1.049189422900066032e-01 4.610673811594465099e-01
-1.082911486579337668e-01 -9.475360697198866033e-02 4.556137913764919389e-01
-2.179028625372493588e-02 -1.252086526535242939e-01 5.233100337637195398e-01
-9.317625991331328350e-02 -1.127162676599915703e-01 5.155806797030697552e-01
-5.533745817866125849e-02 -1.100257199198847596e-01 4.725875007068127687e-01
-6.144548299341652531e-02 -9.398445993283827127e-02 4.520325148370088475e-01
-1.055785955830791517e-01 -1.189494730575685055e-01 4.741133748152718264e-01
-8.463814670760225201e-02 -1.190891708365103691e-01 4.793910717336125615e-01
-5.610110566260052833e-02 -1.147666318634514571e-01 4.819768779923110369e-01
-5.942305470807670437e-02 -8.142525017880349048e-02 4.447871170250204953e-01
-4.648252534165397964e-02 -6.673496374748009996e-02 4.415265927580064864e-01
-2.410746677960903459e-02 -1.246214602136200139e-01 5.245800323636853335e-01
-4.550601490061136067e-02 -1.166507767083517083e-01 4.876916777957024940e-01
-8.526862878291208148e-02 -9.910940034320167569e-02 4.529306942071470443e-01
-4.365930104053789701e-02 -1.135758732839276947e-01 4.807419095037971379e-01
-1.065914745314988504e-01 -1.204578522482082775e-01 4.786699640768323771e-01
-1.062356848433857470e-01 -1.208620351830641260e-01 4.964838514265249581e-01
-2.993719250707553570e-02 -1.193923652751487791e-01 4.921195344225618995e-01
-7.296372791454368290e-02 -9.333741490276105390e-02 4.501948164105116224e-01
-3.147983838611678048e-02 -1.115875364282668258e-01 5.482325460744092993e-01
-9.705456621699827535e-02 -1.214926088906986140e-01 4.737359469990932159e-01
-3.272626671785277414e-02 -1.219088946135830354e-01 5.042992683840203938e-01
-6.680445035432532042e-02 -1.148644742363281041e-01 4.794153175977111658e-01
-9.056949463197354333e-02 -1.214172213857171029e-01 5.028150262008265203e-01
-7.002655148582753730e-02 -1.110659981747283975e-01 4.702648704692217740e-01
-5.801512856307512039e-02 -1.066541656938703453e-01 4.663854952563898371e-01
-7.891350635502296373e-02 -7.219143098967012451e-02 4.385714920592340138e-01
-7.732350285414647806e-02 -8.661807820461682461e-02 4.451769095216604466e-01
-9.734427063876799346e-02 -1.212503677618650549e-01 4.812933323436596189e-01
-7.265963528698785034e-02 -7.773391814098437602e-02 4.402617272004483717e-01
-9.439053019203129391e-02 -1.209993265724719491e-01 4.673535395292459094e-01
-8.852638813563570852e-02 -1.196565808216195209e-01 4.803037399491001946e-01
-1.175564353232331355e-01 -9.889172207156850247e-02 4.693709972843246314e-01
-8.413124000397587121e-02 -9.267934439161945592e-02 4.486694944783877759e-01
-6.336903784951294916e-02 -7.624569924516294561e-02 4.417995234088230583e-01
-4.480170796822145751e-02 -1.176593936096455156e-01 5.357915060148402686e-01
-3.448135492347903508e-02 -8.514942028958087661e-02 4.497841315043940580e-01
-1.053236991269817791e-01 -1.205628749350149131e-01 4.777908379290424778e-01
-8.861047862935199360e-02 -1.212267487356117057e-01 5.057914823426317152e-01
-8.636145034062804246e-03 -9.456865451205508089e-02 5.708918507096057970e-01
-4.868378331604463621e-02 -1.196414139002389271e-01 5.286758204848903686e-01
-8.715929779389226806e-02 -1.197127428177413577e-01 4.831492559299028211e-01
-7.179466145686722034e-02 -1.206136470856533222e-01 4.958792321721266494e-01
-9.936639690042775586e-02 -1.210655428160547220e-01 4.758708163468251540e-01
-9.317078860614845526e-02 -1.176477184638589912e-01 4.626005651667007834e-01
-2.341906293497626745e-02 -1.147585390542623235e-01 4.791992445217985175e-01
-2.260813140426322712e-02 -1.184264818303293193e-01 5.510518737062831685e-01
-1.907209340979075518e-02 -1.167870566895291562e-01 4.799289647927624247e-01
-4.443602686143195701e-02 -8.619118000300456106e-02 4.498062935591126688e-01
