-5.963266411691686003e-02 -5.771006211235848310e-02 4.378682199872989123e-01
-8.894969258207129081e-02 -9.811091560910403797e-02 4.508983559850771039e-01
-7.985040503864693218e-02 -8.881168992697317799e-02 4.457854693108868060e-01
-1.457629352127218572e-02 -1.155463890556711892e-01 5.578726365247093089e-01
-7.424008799598551256e-02 -1.181322499199035647e-01 5.206101551520833093e-01
-6.349699099805784785e-02 -7.891133773081704383e-02 4.422155241470046572e-01
-1.211924572976923742e-01 -1.104797570154800318e-01 4.785236716513838195e-01
-1.192474725691945459e-01 -1.133814126119240540e-01 4.767138880713541749e-01
-1.193960226624957988e-01 -1.149336901125880550e-01 4.825246290263919824e-01
-4.997408901394990305e-02 -1.064488758342712893e-01 4.672510081083278699e-01
-7.744164303589186338e-02 -1.032404814171174606e-01 4.568130936296872502e-01
-3.575012954236214680e-02 -1.225397713618118500e-01 5.153609384802605442e-01
-2.778389042382498411e-02 -1.165372468767785635e-01 5.496836210492407337e-01
-1.187146111029817666e-02 -1.271892253606228262e-01 5.246443548230477205e-01
-5.603980385907998685e-02 -9.758446004787886541e-02 4.553251451985897424e-01
-2.712998739816210175e-02 -1.102834402107097378e-01 5.544421581765591744e-01
-1.031247866514521661e-02 -1.204748163622495483e-01 5.493407297199121020e-01
-1.092324968595580065e-01 -1.106603465162411815e-01 4.626890810802265497e-01
-1.222877142155481996e-02 -1.006040307105038611e-01 5.675459035858690937e-01
-3.836223675100081804e-02 -1.155106936906459408e-01 4.839584979429250589e-01
-5.758035217307803239e-02 -1.187070605391788436e-01 4.927238460425415467e-01
-3.809141775936745328e-02 -1.215721228904361045e-01 5.305988889892109261e-01
-7.864248117516398073e-02 -9.710253731272656952e-02 4.515554696243872512e-01
-1.033048883529885144e-02 -1.189355905837733152e-01 5.523807673579395061e-01
-6.032776593853078628e-02 -1.162136152764030456e-01 4.837418262396968038e-01
-1.076905383829006579e-01 -9.918958369190285229e-02 4.543426271939117189e-01
-7.030204048704045972e-02 -9.367426285056550117e-02 4.500058816770621251e-01
-4.138744753992085190e-02 -1.207689162150862028e-01 5.328919560951370649e-01
-8.735401825972965995e-02 -1.131296518719916711e-01 5.185148532992184256e-01
-1.171257075773318446e-01 -1.058074152850663890e-01 4.659567897751387133e-01
-8.678575142080802163e-02 -8.718029179459919897e-02 4.451355609980224282e-01
-5.395538917980446242e-02 -1.184002750851271685e-01 4.920235361644660910e-01
-1.360938812205891857e-02 -1.083427301649321217e-01 5.639933607567224616e-01
-3.779991237898746442e-02 -1.222792851061236669e-01 5.234261801127426672e-01
-8.551922710241248449e-02 -1.133318749045272994e-01 4.627627339330027123e-01
-8.183663270299618153e-02 -1.220012657669647255e-01 5.057101491301372320e-01
-6.184858567384673295e-02 -1.063234015249279740e-01 4.639062349983102962e-01
-9.108558739096515866e-02 -1.132066813634927255e-01 4.602342169306724018e-01
-7.354985231201183193e-02 -1.020181518073661753e-01 4.565068998006415746e-01
-9.028796236020154853e-02 -9.998756791709975666e-02 4.520787455367880070e-01
-1.459065024558310782e-02 -1.221464884956304925e-01 5.463556974714641745e-01
-4.706233506954193846e-02 -1.214103812143878941e-01 5.118465960369295020e-01
-5.510662457590644742e-02 -1.198159573284519192e-01 4.981349834834869483e-01
-5.604520622246256245e-02 -7.497620820428914368e-02 4.427747062624154961e-01
-1.087209867837936675e-02 -1.265269321911341727e-01 5.295705914656766433e-01
-4.668258318622353631e-02 -1.107078907565066800e-01 4.747529734607778273e-01
-4.348736659187159986e-02 -9.157819115997992143e-02 4.533754505445880545e-01
-6.716559389379778144e-02 -1.123747876297229303e-01 4.728092278329708575e-01
-4.832220347846698932e-02 -1.214908457196435254e-01 5.128444262769826789e-01
-8.854486003614520095e-02 -1.204253526465463298e-01 4.771209507187179621e-01
-5.607336692608765744e-02 -1.047310208327292963e-01 4.632589372046282961e-01
-4.540498308106390157e-02 -1.094028057644157864e-01 4.726996753260394035e-01
-2.081488426982963658e-02 -1.096354411088929781e-01 4.692398525983841329e-01
-3.246696832632256502e-02 -1.132454763691141952e-01 4.790857708397693315e-01
-8.475760591122621923e-02 -1.196239216075281470e-01 4.823794889198410041e-01
-7.820003029286368146e-02 -6.610502573426414730e-02 4.367997718727076872e-01
-1.065092015412965054e-01 -1.214217014833809949e-01 4.963222339230212166e-01
-7.331164730709535671e-02 -1.214550364595864823e-01 5.109994866071143615e-01
-6.705678930574156260e-02 -6.588608128626875782e-02 4.376068415912671150e-01
-1.664392441127457781e-02 -1.262439907082557322e-01 5.273121553065599487e-01
-1.014306178224398808e-01 -1.096478301675757466e-01 4.595201947693784983e-01
-7.299315197138178668e-02 -1.147904243654639528e-01 5.254907022016084284e-01
-4.988389361453669790e-02 -1.179254764539864608e-01 4.902230587799032979e-01
-1.079636700659769022e-01 -1.170151530998461420e-01 4.692431519973543907e-01
-1.104572688787623103e-01 -1.213299626777899209e-01 4.935179590482270950e-01
-3.516736376138074327e-02 -1.184409099627608680e-01 4.906570546040837089e-01
-3.444324360284196224e-02 -9.696510740082023294e-02 4.588085846694175962e-01
-8.875226516344333905e-02 -1.023355337087827610e-01 4.538384801930331891e-01
-7.479196560451840947e-02 -1.195809298549418143e-01 4.862792279447565313e-01
-4.396318916801381788e-02 -1.210690298689824362e-01 5.049292447004687379e-01
-2.368044815867281772e-02 -1.105099642388972792e-01 4.721282185699136602e-01
-9.854467768936597816e-02 -1.228154472317799922e-01 4.923095657453757656e-01
-6.196552832565054708e-02 -1.033046859120869132e-01 4.599735925333230946e-01
-6.206510265597697806e-02 -7.223243360409631331e-02 4.405140840872228125e-01
-5.471368607481883611e-02 -9.434122164628382101e-02 4.528746360435222384e-01
-5.423192759638127691e-02 -7.177580578496711716e-02 4.420407480823944635e-01
-5.817267252773256764e-02 -6.911840929392523702e-02 4.406024528850771005e-01
-2.506898494409579015e-02 -1.043632247686601539e-01 5.577321527803928980e-01
-4.603041872954952846e-02 -1.103313219634541598e-01 4.741954039377320740e-01
-1.012945872434400235e-01 -1.210021778868219655e-01 4.723516413104766332e-01
-4.543905638815438908e-02 -1.178381222325196875e-01 4.900809539984292695e-01
-4.099682462342201655e-02 -1.120711280805364862e-01 5.411867809741479629e-01
-2.363552943010328172e-02 -1.195246666452854239e-01 4.886469241612536041e-01
-3.769194108798690213e-02 -1.098748795786578664e-01 4.732826783520771019e-01
-7.222165964668733618e-02 -8.521352655242910024e-02 4.439489563017759433e-01
-8.135323509686909205e-02 -1.037785086678262580e-01 4.562382278814415271e-01
-4.086284533449878464e-02 -1.219087631742405142e-01 5.243375764917631576e-01
-7.524129700164421120e-02 -9.929180882282380438e-02 4.537088202573844598e-01
-1.188334032525671657e-01 -1.101500002028930336e-01 4.707987559964081359e-01
-2.536326545135923066e-02 -1.244544229273936153e-01 5.186217847565325334e-01
-9.821861368348486221e-02 -9.936418851121027462e-02 4.518847451607169163e-01
-2.721993218013630395e-02 -9.502574857674796205e-02 4.556785232919541850e-01
-2.507167757565444133e-02 -1.229197346782401057e-01 5.010531742921598974e-01
-5.148516624151381477e-02 -1.168591211816921993e-01 4.865372072719893470e-01
-4.755820813039459555e-02 -1.134709565842244722e-01 4.795553230169675718e-01
-5.094790510212381107e-02 -7.685539961117060503e-02 4.442929563761232048e-01
-5.426143369628576296e-02 -7.875145314408923958e-02 4.443387628254191757e-01
-4.438729662264036258e-02 -1.170651915459478970e-01 4.877484109938645118e-01
-8.527993157151723957e-02 -1.215709336713808458e-01 4.895569889899578642e-01
-4.857601819157925799e-02 -1.210645234154834882e-01 5.068126033528365104e-01
-3.358289224567477527e-02 -1.188500544870530612e-01 4.915524298793203517e-01
-1.156295305925888750e-01 -1.144661248538479253e-01 4.710480486237521025e-01
-1.106144149341362591e-02 -1.264503814796865966e-01 5.036957029032634869e-01
-1.211512802955925922e-01 -1.100546546105422435e-01 4.761154188469235438e-01
-3.821135760768275269e-02 -1.223211529619408489e-01 5.194647905071781979e-01
-1.141836012048884075e-01 -1.206169395553425838e-01 4.832313680111273158e-01
-5.600836904698255209e-02 -9.263446766647284725e-02 4.512791043742668817e-01
-3.758497972851314317e-02 -9.141941514092627452e-02 4.539509686279243339e-01
-8.385816739201981673e-02 -6.673718781876576689e-02 4.399070031051551255e-01
-5.316443883728021874e-02 -7.346514042846127857e-02 4.427283173400494154e-01
-6.193220510873122947e-02 -1.055171864359522316e-01 4.627332723305857543e-01
-7.998148336538594971e-02 -7.148256711972297839e-02 4.380445367473297380e-01
-1.306728079818679847e-02 -1.237081890579249249e-01 4.943963648973937475e-01
-3.761577080431720288e-02 -1.206178066290785333e-01 4.990672353987000154e-01
-6.734213291406775104e-02 -1.198462437510268846e-01 4.921903851296503540e-01
-5.829758256124459304e-02 -8.228981928096863740e-02 4.448847851360290817e-01
-4.596430116660875365e-02 -1.099234524753278375e-01 4.735127041343014098e-01
-8.111629287414026668e-02 -1.210764815524417032e-01 5.120974882143933815e-01
-9.395342602243071661e-02 -9.592769362516123666e-02 4.496817955760574748e-01
-7.662040165398038838e-02 -1.118358154008585320e-01 4.672742193341835604e-01
-4.315989286722257678e-02 -1.036587805885085117e-01 4.648126269592930959e-01
-8.399777447833460531e-02 -7.465439323871714272e-02 4.395241501096120440e-01
-2.793134444223700080e-02 -1.212273242355325353e-01 5.414503245137379794e-01
-8.099006039326200890e-02 -1.194467207722469948e-01 4.850379217502804319e-01
-6.636615090017643215e-02 -1.099194002786506308e-01 4.684806685581554553e-01
-4.611251555838778021e-02 -1.081738363577738199e-01 4.706549959278465423e-01
-4.992717941578965479e-02 -1.199803528685032955e-01 5.257061361674935096e-01
-4.699720061132185711e-02 -1.124344721148351212e-01 4.775954683698726000e-01
-6.772723367487235024e-02 -1.189708502861720613e-01 4.885326846695094982e-01
-1.085440277898704897e-01 -9.988886356552303947e-02 4.549364675338539721e-01
-3.078282926379599313e-02 -1.212726912907774041e-01 4.983542107293090218e-01
-1.190777618403397325e-01 -1.149423745758764853e-01 4.909973317920620639e-01
-8.940600478375410054e-02 -1.132528089089355483e-01 5.169842191467771686e-01
-3.778466178342974185e-02 -1.224045424140776661e-01 5.171569518316178060e-01
-2.448413048385169460e-02 -1.096001758125630388e-01 4.711996855102661974e-01
-5.934460952789568505e-02 -1.071592716967652431e-01 5.332154704916743926e-01
-6.312985276986840533e-02 -6.263808951605258357e-02 4.379975880798819277e-01
-1.881063655959907058e-02 -1.035221796961287438e-01 5.643882727562725687e-01
-3.507027556422269432e-02 -8.624692379899642769e-02 4.502053112459540318e-01
-5.235761306221856093e-02 -1.213795373376493208e-01 5.145177826980920077e-01
-4.979221389525029934e-02 -1.132427328929066224e-01 5.358350963391461663e-01
-1.441206778923651011e-02 -1.035688509916612154e-01 5.657761807594104964e-01
-1.280229224897701940e-02 -1.267935469815292537e-01 5.073230565711338569e-01
-9.249424402136025014e-03 -1.258450798117371483e-01 4.999631483275799870e-01
-8.732608685409437577e-02 -1.015847259459459889e-01 4.535059214572159658e-01
-4.464935950720008706e-02 -1.213289484817887259e-01 5.256365232947410870e-01
-9.058673853556904743e-02 -1.208028019730340713e-01 4.813038269938251235e-01
-1.319094597087065029e-02 -1.268906239381214496e-01 5.088161240544487596e-01
-7.731656154228541689e-02 -1.202687472350373044e-01 4.886003260765910405e-01
-1.274776574679049521e-02 -1.269438322416247822e-01 5.080348873964068979e-01
-1.116054918338200107e-02 -1.187085643165644161e-01 4.812597083131386899e-01
-8.407028018119279411e-02 -1.200356206304412782e-01 4.851440028796656367e-01
-6.365721856284346780e-02 -1.205538508831833500e-01 5.177655886537860797e-01
-2.116688083975660009e-02 -1.215275205065988462e-01 5.453856861618400220e-01
-1.160879131669435571e-01 -1.109490509816239978e-01 4.678402068135716352e-01
-6.415824364455088857e-02 -9.994239877949380457e-02 4.560919389779697353e-01
-6.074201435258913540e-02 -1.213571092883806712e-01 5.109409978834256183e-01
-9.970332643354676283e-02 -8.540529572289455584e-02 4.501846398620448220e-01
-8.697145192191636787e-02 -1.218928426036438861e-01 5.053025766727861079e-01
-7.831844687181394038e-02 -9.830967413196352311e-02 4.524626000245308699e-01
-7.387734602720197330e-02 -6.260550530361599919e-02 4.365120893920695910e-01
-6.337932574508271799e-02 -9.491150928837502332e-02 4.517782005253016542e-01
-2.479666746531643262e-02 -1.224845481666430175e-01 4.985590613270499127e-01
-8.857031933213448116e-02 -1.209042409354953301e-01 5.088014608317645848e-01
-6.088392856925525093e-02 -1.152349852684725756e-01 4.811717630265223145e-01
-4.655379165277065412e-02 -1.204915670007655204e-01 5.022184331913739364e-01
-2.729392204853738069e-02 -1.240489699493267789e-01 5.232971765413899634e-01
-1.370136579678572081e-02 -1.270273750201697527e-01 5.135154772950798474e-01
-2.325985851445411604e-02 -9.822928351305376671e-02 4.569294946204867647e-01
-6.712275751021569425e-02 -1.174799222036407437e-01 4.844012298058424371e-01
-1.041640526243747672e-01 -1.194017525869910668e-01 4.703739593644845063e-01
-6.586267712611104663e-02 -1.194066411739837519e-01 5.207931667589587033e-01
-4.597350691441292464e-02 -1.167211967545976892e-01 4.867801936196244905e-01
-4.374645454819793555e-02 -1.126922514798595482e-01 4.783492084782389742e-01
-1.032774357701214951e-01 -1.229284057928837076e-01 4.910163487161299800e-01
-3.421872508191252382e-02 -1.181515223861568376e-01 4.896756507049384588e-01
-2.152002958360270043e-02 -1.232557772702020382e-01 4.988320253788331438e-01
-3.902500839429032947e-02 -1.168276077020321130e-01 4.867563952905480384e-01
-6.899538083776866892e-02 -1.012047011877082320e-01 4.565043496808317003e-01
-4.381343175801141049e-02 -1.215865731672461370e-01 5.238205600178914567e-01
-2.877381029194034379e-02 -9.399576672662687815e-02 4.553345528211815152e-01
-1.864080017896400238e-02 -1.259744677713261485e-01 5.159255530407186319e-01
-5.023089621486506035e-02 -1.040186332392300655e-01 4.638937763662815961e-01
-1.107221341009355930e-01 -1.215592699292397938e-01 4.839771442498539411e-01
-7.100597946952935668e-02 -1.181011059231520804e-01 4.842705470784690047e-01
-1.205992065590007212e-01 -1.056312321404223598e-01 4.721779948535312910e-01
-7.409642073292928288e-03 -1.194791790626057310e-01 5.499290535420225945e-01
-9.231334013046782472e-02 -1.041413298551460698e-01 4.547794489116022132e-01
-9.274518306786067035e-02 -1.199813747681535980e-01 5.099853128715623463e-01
-4.995682471095908017e-02 -1.193950124902179583e-01 4.966373609951770796e-01
-8.050644890625165140e-02 -7.269336862767708518e-02 4.383731647148542132e-01
-6.751916147350836561e-03 -1.285960780528703773e-01 5.164469278609244984e-01
-9.832308698881717102e-02 -1.141346853479817680e-01 4.612352223361708692e-01
-3.100395343813092119e-02 -1.028699366619217209e-01 4.638095987749571436e-01
-7.998727401101025924e-02 -1.078625507058812161e-01 4.606987968085289875e-01
-7.568662664606681800e-02 -1.156485038850261493e-01 4.749190591920120497e-01
-5.203152218465643269e-02 -8.762021056750993186e-02 4.488920464428145518e-01
-1.656716771334769411e-02 -1.265833096328082275e-01 5.233652270623624370e-01
-3.926762953146600149e-02 -1.043226516839836360e-01 4.657604811103039921e-01
-9.927441854547491840e-02 -1.228148375218086757e-01 4.929648355017561268e-01
-4.558879094837137158e-02 -9.502009834400053367e-02 4.556161565549883274e-01
-7.475350786625768740e-02 -8.575206892387865487e-02 4.441143869659527343e-01
-1.295897029909449244e-02 -1.273910136002859295e-01 5.204586310428791496e-01
-4.539188844779416115e-02 -6.874960720205107456e-02 4.419088133961563969e-01
-2.685474439860221010e-02 -1.197350046676358831e-01 5.455373289347136279e-01
-5.077658810169809189e-02 -5.849024953016682821e-02 4.389896047373599286e-01
-8.676865711191415753e-02 -9.697726629377800833e-02 4.503450862359874018e-01
-2.071581424672245403e-02 -1.198288868384930067e-01 4.875669142331939820e-01
-2.711432190887725149e-02 -1.050976816198112146e-01 5.545920332406537590e-01
-1.705015767491235151e-02 -1.132540825953385760e-01 4.729062882418418323e-01
-8.985731554996750914e-02 -1.178612411495750384e-01 4.653291020828416169e-01
-3.801527341175020558e-02 -9.621427033242135884e-02 4.578751016930667217e-01
-6.325708768072360599e-02 -8.728953814936864231e-02 4.465147407285471326e-01
-7.408515471856023937e-02 -1.125092960725362495e-01 4.696653129072285715e-01
-7.133116949610332491e-02 -1.217867755599042895e-01 5.073250529479987891e-01
-1.097295489995677442e-01 -1.010259848847714220e-01 4.557910135145243902e-01
-1.094654425795778124e-01 -1.212125316507871031e-01 4.809475722392217434e-01
-9.254244639528678984e-02 -1.170575608854405314e-01 4.613268398750953736e-01
-4.162037011894122868e-02 -8.806004013926412022e-02 4.509793272637450112e-01
-4.342455824292698607e-02 -1.109372453585791563e-01 5.401004324570135573e-01
-6.066224705657211752e-02 -8.897077852567515655e-02 4.480407492209093623e-01
-8.173434879351310078e-02 -1.171670653532310563e-01 4.726243385221130522e-01
-1.931349500092587740e-02 -1.148215716191830216e-01 5.576170817883678854e-01
-6.531700053167577291e-02 -8.676064104656172615e-02 4.458375979985714221e-01
-5.355915391157319710e-02 -9.454741319913426145e-02 4.533140103683630517e-01
-5.889680323861332112e-02 -1.208377374667155141e-01 5.027536542567226929e-01
-1.172110127521428652e-02 -1.125694183159804962e-01 5.610698127571568383e-01
-3.265075146971523762e-02 -8.191299908625775117e-02 4.471364115329099498e-01
-8.071261026062701016e-02 -7.171252074300918378e-02 4.381657767272545967e-01
-9.161910812473193430e-03 -1.280783425913000206e-01 5.224494153173222522e-01
-7.233044121538809157e-02 -1.123858121012751010e-01 4.702109308667647425e-01
-5.779647014801985588e-02 -1.155348582228634263e-01 4.824074926084070403e-01
-6.000860960695235391e-02 -1.135335568573788839e-01 4.774075444702631787e-01
-6.199796371610523382e-02 -1.116430691473339620e-01 4.727032274953011926e-01
-2.162814995849561203e-02 -1.228734118586320007e-01 5.409890296325633452e-01
-1.874843395014121061e-02 -1.260807970780120357e-01 5.217066803778015460e-01
-6.331971674864377009e-02 -9.460658218352054061e-02 4.515595043878242731e-01
-8.444667251676810094e-02 -1.222562390324777593e-01 4.975596070752822953e-01
-7.623403697433007997e-02 -1.165718393547104798e-01 4.765400580848246359e-01
-4.193317120024595002e-02 -1.187939362779275587e-01 5.364139483274047437e-01
-3.843038387593553096e-02 -1.221316311308379005e-01 5.114891913119223865e-01
-9.695306519252976096e-02 -1.223436968091382582e-01 4.671611809964754669e-01
-6.519334143394357739e-02 -1.165257798963268143e-01 5.256573637621175799e-01
-6.223505421494723855e-02 -1.158691093315356857e-01 5.280006357892926827e-01
-8.584330430007469648e-02 -7.992850990055315463e-02 4.420099395025032241e-01
-8.452965748999025780e-03 -1.217057958547714258e-01 5.442883116943844080e-01
-1.472506760979330753e-02 -1.257371792629119744e-01 5.040456233653728413e-01
-1.108795335707180862e-01 -1.175364101255417099e-01 4.994997487983733886e-01
-3.715379056480031666e-02 -9.437223427324276104e-02 4.564299233020672197e-01
-5.182961682235995293e-02 -1.097537833271653024e-01 4.721331401202824574e-01
-3.603292714168247063e-02 -9.577993828657660469e-02 4.576472450226170552e-01
-1.147841055175418019e-02 -1.177250276388209366e-01 4.791996089018699667e-01
-1.049350977794469425e-01 -1.015674120573745176e-01 4.542421998758166546e-01
-8.346417414223224196e-02 -1.222051757240288777e-01 5.030327458121891526e-01
-2.325201094431359611e-02 -1.222682890587769994e-01 4.968428228400705859e-01
-2.176251651918194308e-02 -1.082233937921700528e-01 5.614910531710592956e-01
-7.201180376272181549e-02 -9.755512999137336272e-02 4.528209797994148245e-01
-7.112725353752258339e-02 -1.088811172790742354e-01 4.650314802491364308e-01
-9.037650551892033313e-02 -8.013941104880044353e-02 4.443939193351718053e-01
-8.133362695694769384e-02 -7.986147300708724972e-02 4.409386606661658270e-01
-8.867202799110858458e-03 -1.245216322783896518e-01 5.358671812309399041e-01
-3.918061831684448854e-02 -1.056969419383024245e-01 4.673245871747910285e-01
-3.960081847126366988e-02 -1.198738046406022661e-01 5.367102900633569096e-01
-2.547019227757677667e-02 -1.110491519728251802e-01 4.739919813078193878e-01
-1.105093064425308191e-01 -1.201172223279004803e-01 4.975334859750423777e-01
-1.010526248300665092e-01 -1.226138100743059400e-01 4.824145665081963075e-01
-1.016100349879818510e-02 -9.696688462416945542e-02 5.694331661900348118e-01
-1.903978913636791490e-02 -1.224929817195668513e-01 5.442142738621452702e-01
-9.041989905268436878e-02 -7.201020719413367410e-02 4.462351603917774634e-01
-5.927464751953527566e-02 -1.150057259993095687e-01 4.808369737678055422e-01
-8.158522598255217584e-02 -1.153892704578746847e-01 5.208571623103235293e-01
-1.056951105247036782e-01 -1.226875636064139602e-01 4.911053376371481427e-01
-2.543889794359040224e-02 -1.035358965993171676e-01 4.629832662923160647e-01
-8.564601732443680171e-02 -1.199773186881516601e-01 4.754187944529229548e-01
-3.632370931753066412e-02 -1.225005128803056814e-01 5.233876603966046703e-01
-1.209507773613478221e-01 -1.113515842593319621e-01 4.865616711767095093e-01
-9.941776756640187396e-02 -1.227981753757657474e-01 4.690458190729746568e-01
-3.164323784669632877e-02 -1.098957593758776441e-01 5.480498673363556339e-01
-4.578323064279408300e-02 -1.204642319652187432e-01 5.299794415197964792e-01
-5.887880651834132700e-02 -1.160982787957470647e-01 4.836716376934453998e-01
-4.845105318609347483e-02 -8.343876823892748540e-02 4.472198888993321741e-01
-2.737133788580295088e-02 -1.021711308519048650e-01 4.620990406244126492e-01
-6.898378705304455960e-02 -1.088017191529571381e-01 4.657128382750314599e-01
-3.241961672017636131e-02 -1.039269640679112705e-01 4.652453219840411713e-01
-7.766297034932735655e-02 -1.182774080301640385e-01 4.792398397522270037e-01
-6.504180311850377150e-02 -1.151319556966695634e-01 4.792106627943964470e-01
-3.079588173946031654e-02 -1.082832318696031609e-01 4.705171914135568567e-01
-5.355388527969644208e-02 -9.207196425419596209e-02 4.513076652734703820e-01
-3.881851621124112611e-02 -9.757324064275658959e-02 4.589553920622203576e-01
-1.316830445471611245e-02 -1.259219369642866071e-01 5.311597206677791672e-01
-7.229730968446039518e-02 -7.837580104220211175e-02 4.400459659266094392e-01
-3.689023208613874394e-02 -1.151292251161946667e-01 4.831143807747802499e-01
-1.414861697402373941e-02 -1.270268961640400596e-01 5.157635874512127572e-01
-1.088515189230280927e-01 -1.220322749425251929e-01 4.907374503904472496e-01
-3.524449148860376441e-02 -1.226939688555579305e-01 5.210373684224394175e-01
-6.173690054886443734e-02 -1.103198121887231514e-01 4.703700094348128857e-01
-6.190430983149852739e-02 -1.097608831554651720e-01 5.312553635550575359e-01
-2.858364800962947053e-02 -1.114256991284799242e-01 4.754275329575024522e-01
-1.126710113553227449e-02 -1.212169263116040230e-01 4.868278493238533677e-01
-8.443839760613963685e-02 -1.107304828715653111e-01 5.207238893478259856e-01
-3.401798627697994598e-02 -9.002577616809817607e-02 4.530691368311409173e-01
-6.777351673147392896e-02 -7.792504144840162184e-02 4.408023614259526934e-01
-4.914545647215616542e-02 -7.255060786134838458e-02 4.429601184680892478e-01
-8.197053304553184039e-02 -7.309230336731747935e-02 4.386017293488974067e-01
-6.903430797131833441e-02 -1.107123476522380301e-01 4.688315359362408841e-01
-1.265464725285802422e-02 -1.210445472069523881e-01 5.489121775810783532e-01
-7.079597365284748256e-02 -1.170903767283777708e-01 4.814220517046774450e-01
-1.112542719755332671e-01 -1.100629926330730785e-01 4.631167557346351216e-01
-3.600289754763262573e-02 -1.198062279693691001e-01 5.388598572832248301e-01
-3.314759078114539598e-02 -1.155037506175221607e-01 5.452144816734191268e-01
-1.040165579979158428e-01 -1.219415923078460834e-01 4.788762080083306394e-01
-8.401966174916612740e-02 -1.217857644889137753e-01 5.075122878229105794e-01
-1.131287880560582909e-01 -1.036474865637849740e-01 4.598816597193891575e-01
-5.779627242673136822e-02 -1.128553330629158830e-01 4.764216860827039102e-01
-3.977167730403258911e-03 -1.288772709902439029e-01 5.231620045752476411e-01
-9.357297455941751552e-02 -1.174331624694077703e-01 5.123428679940236208e-01
-7.621977922378837811e-02 -8.576292099380249112e-02 4.440127549724285361e-01
-6.447853624917744553e-02 -8.330069713375651275e-02 4.439552593090639321e-01
-7.543300808238871669e-02 -1.156942890334219098e-01 4.751715509359598077e-01
-4.316095948498385043e-02 -9.389651177523215819e-02 4.553055873620326377e-01
-6.276797462158127672e-02 -1.011124488937541199e-01 4.574730619734788672e-01
-9.215639501506484033e-02 -1.216582454521151213e-01 5.054531739091269182e-01
-1.779043725852836808e-02 -1.118576263031147849e-01 4.711232628274534262e-01
-6.104322354369551978e-02 -1.198750645242471630e-01 4.964836433333180143e-01
-7.858982642663089879e-02 -1.186335451512057215e-01 4.805246750619841523e-01
-9.032859556149597235e-02 -1.209313825760334193e-01 4.707759854043582215e-01
-4.152799450568677581e-02 -1.219559957031278730e-01 5.194886789665484894e-01
-4.982945838693106366e-02 -5.701123688841131659e-02 4.387642276165603650e-01
-3.383356665484850423e-02 -1.205979544355643418e-01 4.974939051354288488e-01
-2.256220652785247485e-02 -1.096829017169942966e-01 4.702660284953432135e-01
-4.127531175418765880e-02 -1.219970676924095887e-01 5.186946112823610511e-01
-3.270403326567392771e-02 -1.225552785213549489e-01 5.298883152665614382e-01
-5.017540930423820822e-02 -6.713586220869272037e-02 4.411109220204818548e-01
-3.596766693978858259e-02 -8.375407219082714461e-02 4.486382773144851344e-01
-6.219400971527113547e-02 -5.726619726358066903e-02 4.373940277480182215e-01
-4.710862472401790291e-02 -1.214632844723648186e-01 5.173995413039501612e-01
-5.449772849492866972e-02 -1.004882305055207620e-01 4.581630548036335071e-01
-2.141252657296598139e-02 -1.077526086170804975e-01 5.620027688324904513e-01
-1.096211138981470629e-01 -1.133031070861587886e-01 4.657106409718304585e-01
-3.717794167357418855e-02 -9.209520240123876544e-02 4.545467630243759105e-01
-8.944468469034462521e-02 -1.116887181698149878e-01 5.179014288943087907e-01
-1.115236157303636927e-01 -1.207027481576485733e-01 4.950389175444226408e-01
-3.707740107159246401e-02 -1.063007188078458204e-01 4.681346127180539551e-01
-3.948889667954349342e-02 -1.205751898794743399e-01 4.995312730434788295e-01
-8.073467098510318796e-03 -1.261796121982695362e-01 5.006289184774800338e-01
-5.984409666246807979e-02 -1.017571511166463494e-01 4.586464849150614920e-01
-7.514166404485218831e-03 -1.220654539087259044e-01 5.424872272394148931e-01
-2.771141120195131508e-02 -1.067824858859168086e-01 5.543549321866713120e-01
-4.270379927533015513e-02 -1.202256439104805869e-01 5.345366919896722413e-01
-9.607149899664577108e-02 -1.217393316712867823e-01 4.750749584677100845e-01
-8.727900846574523919e-02 -9.205065112507666847e-02 4.475204825315739487e-01
-9.731150688882427013e-02 -1.009840795948852149e-01 4.527602193949734621e-01
-5.729558941384955972e-02 -1.185811991143866373e-01 5.265787725737204328e-01
-1.052219153140777907e-02 -1.199467941454376019e-01 5.506200935346944325e-01
-1.084610918180013150e-01 -1.216096419383162069e-01 4.819075335124997084e-01
-1.064443055779392550e-01 -9.374550857481672717e-02 4.544520212075094379e-01
-1.141004291420497918e-01 -1.155455761426063682e-01 4.982750252199317775e-01
-2.147465051762030910e-02 -1.002482934698552819e-01 4.580595846432353735e-01
-2.278605944656785648e-02 -1.174306822006299100e-01 5.525930411599733194e-01
-3.832056543426454881e-02 -1.022873060714223625e-01 4.634901718335910359e-01
-5.148222942097904764e-02 -1.209240110462328766e-01 5.212476587545675777e-01
-8.136799934596861128e-02 -8.389713597769721254e-02 4.427767784467808165e-01
-6.224789079807788172e-02 -8.190093253687356911e-02 4.438675233544085441e-01
-3.290461237990261606e-02 -1.221252962335877268e-01 5.048521156954512978e-01
-5.497306305123500492e-02 -1.213808741205234104e-01 5.117015841002293675e-01
-6.413965802452410714e-02 -1.210759759846656847e-01 5.017670019672219039e-01
-9.235948464448340278e-02 -1.204520306018733444e-01 5.088778770164373855e-01
-5.040700506390084074e-02 -1.186455387457110849e-01 4.934529917481338956e-01
-8.875152195705765523e-02 -1.188879899898583892e-01 5.132096759138751185e-01
-6.939693000526571398e-02 -6.940894145724947617e-02 4.379548907200102592e-01
-2.389921477456649450e-03 -1.290094065733114748e-01 5.166192666413902401e-01
-1.189683726259080504e-01 -1.036853085116906104e-01 4.699907694443311579e-01
-2.869863809654498929e-02 -1.221047433792025044e-01 5.003936583804287075e-01
-6.286885098185486520e-02 -1.123028979772235647e-01 4.739252517735950687e-01
-6.044473866889919778e-02 -1.073281486480969632e-01 4.657736845896499611e-01
-1.144332193472117759e-01 -1.182843230330510309e-01 4.752764106808854971e-01
-2.718301098938986568e-02 -1.064146166165785973e-01 5.549663384312707448e-01
-3.488815448901969041e-02 -1.215366390550744746e-01 5.340808738204805284e-01
-8.387029705190238160e-02 -1.221535696022406775e-01 5.034869661275934716e-01
-9.009628616176676430e-02 -7.503935134374477289e-02 4.448465092178139346e-01
5.435424349525662001e-04 -1.287215181962838018e-01 5.130977943280738973e-01
-7.575060449485902792e-02 -7.515753277497425056e-02 4.388017109787723524e-01
-1.965616861860252154e-02 -1.164123051037136009e-01 4.791898356601221320e-01
-2.452011126142168013e-02 -1.068773496190977973e-01 4.672297923352937143e-01
-7.424707939396910095e-02 -1.153511195645363779e-01 5.247166091475529148e-01
-8.489498381143535666e-02 -1.220910763670916832e-01 5.038168873080114407e-01
-9.401687562987148805e-02 -1.216501625108397378e-01 4.822311734782999681e-01
-7.829360680426428187e-02 -7.777596437615455494e-02 4.396624915247091536e-01
-7.821332676984316112e-02 -1.065213867534764991e-01 4.598549677663389401e-01
-9.106998324106747866e-02 -1.180597179505280953e-01 4.616244026792395982e-01
-5.918332456446046691e-02 -5.749567847197747938e-02 4.379023876254848346e-01
-1.925180758654817734e-02 -1.257347985237497467e-01 5.273787185304608105e-01
-1.054216052008810772e-01 -1.228376379265721102e-01 4.871323786597184791e-01
-6.550640543521428494e-02 -9.790869613276896588e-02 4.539506962310962401e-01
-5.883165216456530400e-02 -1.208459688898824713e-01 5.028375958119096767e-01
-3.653440619205475942e-02 -1.200993362457973834e-01 4.964641011048673835e-01
-1.015128306456199170e-01 -1.208740566561102986e-01 4.715302638513966804e-01
-1.107588144903036281e-01 -1.028243343765303242e-01 4.572021660294022793e-01
-1.876490130362069506e-02 -1.088427323965658056e-01 5.627696070133858530e-01
-7.531266519752596866e-02 -9.149314701822246210e-02 4.478828288846372074e-01
-1.969046544443982596e-02 -1.237756621694439813e-01 5.383669066703059558e-01
-7.801619130002779290e-02 -1.047932166630720224e-01 4.581227502261163154e-01
-6.249221699550332187e-02 -1.170975854609080102e-01 5.264151890968545855e-01
-1.186059561284065339e-01 -1.021668701935535550e-01 4.704527975924249206e-01
-8.816214767334293323e-02 -1.204780174828593287e-01 4.747787064060188800e-01
-6.961063206881312748e-02 -8.445925504827223040e-02 4.438111694158618503e-01
-5.501127436391597958e-02 -8.014679987497394520e-02 4.447148507954400420e-01
-3.296625001123244109e-02 -1.147314751173989789e-01 5.458355102553731353e-01
-8.067543347673959697e-02 -1.166509028440808338e-01 5.198019630730054130e-01
-2.446615714040683773e-02 -1.229295784298453792e-01 5.377546696809047955e-01
-8.671444898385552436e-02 -1.221736656792749842e-01 5.020147472017687518e-01
-1.123892527687726378e-01 -1.198322073330375659e-01 4.771040080240894210e-01
-2.987881599148158387e-02 -1.231232471901583803e-01 5.089106088395108918e-01
-9.161387985471872164e-02 -1.220527760471590978e-01 4.867197692275432863e-01
-3.241269336770746801e-02 -1.227323554770167607e-01 5.092684351387214425e-01
-5.910321425715831661e-02 -1.203671847685898466e-01 5.001248108188049990e-01
-5.795450160115132865e-02 -7.649848465302680478e-02 4.428913686265701921e-01
-9.836202219309535255e-02 -1.207138398136492208e-01 5.061620399346803412e-01
-7.729321655644118272e-02 -9.007231818977391724e-02 4.467668193339863203e-01
-3.046521338854559988e-02 -1.230801655627536129e-01 5.291089550254771678e-01
-6.162571880322217227e-02 -1.092333187351632734e-01 5.315417768492751716e-01
-2.989915024721053957e-02 -9.746973863857318066e-02 4.584438067072264533e-01
-8.520167865415892439e-02 -1.218494814693046185e-01 4.914082345940300467e-01
-4.949959892862287880e-02 -1.104921481161898894e-01 4.739925485265624183e-01
-2.008411272346511886e-02 -1.206898603897854361e-01 4.895596828120928889e-01
-4.140111283618625598e-02 -1.045005936232299149e-01 4.658565131431131046e-01
-8.532856059043211761e-02 -9.643520049819893913e-02 4.501769626774508870e-01
-1.603225040267304211e-02 -1.267016991797701997e-01 5.204993185866317873e-01
-8.932903463605247618e-02 -9.309584913418526841e-02 4.480523142896830624e-01
-7.799031056910986359e-02 -9.098516053531863212e-02 4.473114217733849540e-01
-8.529955388037990804e-02 -1.220624245353140458e-01 5.039950932137884365e-01
-7.143321300273125507e-02 -1.197677123196344978e-01 4.892229326909346421e-01
-7.255843405533336787e-02 -8.244708155301128105e-02 4.420150889179521037e-01
-9.910491599001480800e-02 -1.227006608481253369e-01 4.835387241190685637e-01
-5.878940800443543946e-02 -1.110027297139204033e-01 4.722433769997519959e-01
-9.565729066543905701e-02 -1.224733177264498152e-01 4.720703873470055711e-01
-9.108390081684449024e-02 -1.074151016153540861e-01 4.570782454389725191e-01
-1.105920099816638802e-02 -1.276770470645250122e-01 5.231400245313854169e-01
-7.628283905471147652e-02 -1.028720347466283991e-01 4.567619582519308885e-01
-2.996335308708382786e-02 -1.228770685698607756e-01 5.064512683006295868e-01
-9.933411921713325432e-02 -1.184022356945857030e-01 4.652616851677170984e-01
-2.451206525510095380e-02 -1.143370292121067139e-01 4.788162541993810084e-01
-1.329127996060680550e-02 -1.273045073223241508e-01 5.197407912785634299e-01
-9.445487774465055608e-02 -9.330626188922949704e-02 4.485342113810750764e-01
-7.897716519408587432e-02 -9.905421413414255971e-02 4.529332212451477879e-01
-9.330880030592805796e-02 -8.685351299465186858e-02 4.457875682487903446e-01
-3.855387354089380436e-02 -1.090578868112238170e-01 4.720582215064323961e-01
-2.023027461643451055e-02 -1.135629606610447789e-01 4.750544418941766156e-01
-1.551223273864725527e-02 -1.162346036238890157e-01 4.772227396192338933e-01
-6.448857862644517824e-02 -1.185231706381203731e-01 5.229783703340008527e-01
-9.471059300589536323e-02 -1.213662061297780398e-01 5.053866671797881960e-01
-5.691520914759124611e-02 -1.137705932677406523e-01 4.785528837829836069e-01
-8.933978882659923682e-02 -1.149314982940330965e-01 4.614837724837779209e-01
-3.579267144422018654e-02 -9.846561600804613901e-02 4.601709425002377118e-01
-1.164522687181763355e-01 -1.185526311467908628e-01 4.913705343447740681e-01
-5.735241511090588551e-02 -6.745929397202080069e-02 4.402307060347021572e-01
-6.773355685703666418e-02 -1.214967454119227491e-01 5.035737044071101343e-01
-3.789463359152545063e-02 -1.086965557763863166e-01 4.715163693934220079e-01
-9.164988326867446085e-04 -1.289838070923427227e-01 5.209614895005731938e-01
-4.819295034927296301e-02 -5.756904282048548593e-02 4.389475703548776919e-01
-2.693813703076910343e-02 -1.034491134668100859e-01 4.634305920132900658e-01
-2.271095332467089334e-02 -1.118566050203024104e-01 5.583164956566781800e-01
-4.993549495652197662e-02 -9.813780775172661897e-02 4.572113948132558447e-01
-9.764414460482458147e-02 -8.510313485737547312e-02 4.483857197404518824e-01
-1.098674567640675614e-01 -1.156539598108127648e-01 5.013543461170069104e-01
-9.124609227025932967e-02 -8.797052342070599273e-02 4.457734030810983628e-01
-1.198226580569774491e-01 -1.045370800619365992e-01 4.712828004603978327e-01
-1.769226741468493333e-02 -1.243582623928521785e-01 5.365069860698443716e-01
-6.677011986896136397e-02 -1.216996622746424339e-01 5.078498582850511367e-01
-6.329831082700926315e-02 -1.204245881143072155e-01 5.184570102313834639e-01
-3.645100440714420242e-02 -1.078125851660377832e-01 5.437998079524793971e-01
-8.125733958431148596e-02 -1.194469499961046122e-01 4.850745612368684290e-01
-9.103310306822059994e-02 -1.087549685137150501e-01 4.578395566021974394e-01
-5.730498587861208165e-02 -1.119098016533529028e-01 5.326465084755878099e-01
-8.637320884648701930e-03 -1.229084771607376753e-01 5.405767347289903713e-01
-1.411505175630162201e-02 -1.163749795012043869e-01 4.769095834117590971e-01
-9.842063305342113599e-02 -1.218199112729466682e-01 4.747677761034307942e-01
-5.847432378682411447e-02 -1.003358416371421258e-01 4.573960319851225198e-01
-7.199311963862149721e-02 -1.145646997898626396e-01 4.747853350566199060e-01
-1.350263512606782353e-02 -1.238715049203959057e-01 5.391346801346069695e-01
-5.834916088232845743e-02 -1.209512725653775489e-01 5.155188675198055792e-01
-7.027306480633065122e-02 -1.174193719587975082e-01 5.227541797569578153e-01
-1.199345314330454021e-01 -1.121355287759875502e-01 4.824237556886877276e-01
-3.023972504142587864e-02 -1.199270278444292681e-01 5.424937677358138144e-01
-8.396601165079640994e-02 -1.130978046082881106e-01 5.203221036014517020e-01
-5.363983892686077087e-02 -1.186199731409103286e-01 5.283509485590544008e-01
-5.035300800613880245e-02 -1.196546539998725456e-01 4.976561028785462248e-01
-1.461025111156989773e-04 -1.289436141226988353e-01 5.158588408280179172e-01
-2.646947703950667738e-02 -1.151280146581998842e-01 5.526572191185614713e-01
-1.408584798010927355e-02 -1.250513026161950425e-01 4.998681613961005188e-01
-6.339206900772488551e-02 -8.865990252827274376e-02 4.472937104605411718e-01
-3.027419872272474680e-02 -9.943251748196058060e-02 4.603035323562112979e-01
-5.088319260197006477e-02 -1.175746295249868317e-01 4.890091190612165795e-01
-1.192174149824420659e-01 -1.165600626006013940e-01 4.832168881252421055e-01
-8.961016825023299104e-02 -1.207222413887299867e-01 4.771574529559268751e-01
-3.748358541050540033e-02 -1.082712897364555837e-01 4.709316351119107180e-01
-7.880920725257990408e-03 -1.277866323353132050e-01 5.260679902986619139e-01
-3.132633006663957526e-02 -1.048268847715888574e-01 4.661454562052916306e-01
-7.438507080523670822e-02 -5.786921821926137993e-02 4.378241729572475149e-01
-2.029423675019459763e-02 -1.129063237211315740e-01 4.740441364078156194e-01
