-1.128494031515251128e-01 -1.162745784983363756e-01 4.988785861865555615e-01
-7.980114667743910817e-02 -1.043733052461261884e-01 4.567047404013196976e-01
-7.684216914904251627e-02 -1.114142156844168952e-01 4.656757929763103987e-01
-8.548932051011134958e-02 -7.905393143930028454e-02 4.415630686632613378e-01
-4.954675898128255845e-02 -1.019511134014799009e-01 4.610146291395407214e-01
-1.038684951470844470e-01 -1.149370713349349288e-01 4.646955646276996754e-01
-7.589920144065491481e-02 -1.150680717148762078e-01 4.725803858154734027e-01
-1.868856142553815269e-02 -1.014336129741248982e-01 5.645541225233345894e-01
-9.705551204906369411e-02 -1.231425357535545495e-01 4.918192177586171443e-01
-1.175925956109312859e-01 -1.096099800752754760e-01 4.688098037452364530e-01
-6.440881474317387313e-03 -1.286146869435217666e-01 5.197205874195442998e-01
-9.256295451924799467e-02 -9.803417266143274467e-02 4.503206710143953240e-01
-5.628921300503054309e-02 -1.005011255216861354e-01 4.576524715813901079e-01
-6.466265316402168561e-02 -8.336707794948192141e-02 4.437206444367728375e-01
-4.236129315234189729e-02 -1.035181376054876007e-01 4.644725087401194719e-01
-5.654726246878254148e-02 -5.914633692880873206e-02 4.384279178527686338e-01
-2.331324386992259315e-02 -1.066474448255796542e-01 4.663105667829706702e-01
-6.550734350494391567e-02 -7.777349788040840983e-02 4.411404500685054964e-01
-9.612530679394701294e-02 -1.232020395970814114e-01 4.904040485949008876e-01
-6.800335776533565635e-02 -1.212251146194089496e-01 5.140492385929513741e-01
-1.731521526416188866e-02 -1.097975633008591995e-01 4.678298905938201857e-01
-2.997417462020326995e-02 -8.966239774600355539e-02 4.520977706724427225e-01
-3.071296286049100821e-02 -1.235064467136970240e-01 5.191164195690379790e-01
-1.089852457050957540e-01 -1.211355221019215223e-01 4.964490179936331682e-01
-3.470962356965701101e-02 -7.875736896358923045e-02 4.455413980804338037e-01
-3.850449174647858908e-02 -1.147376187711336842e-01 4.819784858658180959e-01
-6.911671835722321688e-02 -1.199667934939156883e-01 4.902059857870087467e-01
-4.518135989303661421e-02 -6.230807675273177665e-02 4.400798938904153523e-01
-3.433399657370253544e-02 -1.226857445799258706e-01 5.267911196704667676e-01
-7.770136270637868769e-02 -1.163554114182400456e-01 5.220841844371244544e-01
-1.336527043219610904e-02 -1.241250118077897452e-01 5.380149178426377743e-01
-1.026709554246445361e-01 -1.216091110032886946e-01 4.990218577979729231e-01
-9.685628799971385261e-02 -1.233174100689541364e-01 4.865850269554971019e-01
-1.151686431026395230e-01 -1.211421301502601938e-01 4.877503244336162669e-01
-8.404067904545452217e-02 -9.040525766462552404e-02 4.464306597064832682e-01
-3.749514541402373946e-02 -1.114260360151404505e-01 4.756614499986844269e-01
-4.478032999353297010e-03 -1.248304569758013349e-01 4.948374477556171103e-01
-7.288986255892625221e-02 -1.190834967197615807e-01 4.844978800361567361e-01
-8.212523980449694394e-02 -1.123255314947287226e-01 4.640709260644442224e-01
-3.659975094161956738e-02 -1.218063595964769819e-01 5.312540563561373164e-01
-1.051497520901055610e-01 -9.859365146608077557e-02 4.530311709465504322e-01
-7.365332210029315596e-02 -1.047390641636269798e-01 4.588617135256215507e-01
-1.916215331774457839e-02 -1.244083785722358282e-01 5.018263552435930919e-01
-3.265197496938107569e-02 -1.054790353459753999e-01 4.668263334582075652e-01
-5.564122219516349360e-02 -6.961344600694961693e-02 4.410673351724414548e-01
-8.528018203516808671e-02 -1.153420637453947961e-01 5.182911430492848082e-01
-2.843227690462941590e-02 -1.155036471755730570e-01 5.495013224972874477e-01
-1.114391512968677944e-01 -9.846173986331864525e-02 4.567420005195272914e-01
-4.869734035820305618e-02 -8.975049116511898961e-02 4.507039039971437178e-01
-7.809469342444182172e-02 -1.190255052548100240e-01 4.811235413124451687e-01
-1.011731198269511800e-01 -8.937161549739121302e-02 4.503338851837407897e-01
-1.624126518017617038e-02 -1.096340270505222897e-01 5.630076218219877138e-01
-1.109869179016027413e-01 -1.136141808083346860e-01 4.662422462130136891e-01
-2.161853332047411480e-02 -1.236778531431246136e-01 5.007666681345042115e-01
-2.399178796849738698e-02 -1.216040559606346994e-01 4.951100775961057021e-01
-1.242672051260142706e-02 -1.101192001608777976e-01 5.629742096106474802e-01
-9.625901392875722828e-02 -1.218967614448425302e-01 5.028164762363678264e-01
-8.707719787564099923e-02 -9.210097110384204977e-02 4.472881466986527443e-01
-1.308220794323401714e-02 -1.258005527679273150e-01 5.023130116644164422e-01
-6.085469914872191494e-02 -9.910360256830687276e-02 4.554829125702833936e-01
-8.432414093484665030e-02 -9.062249864199262150e-02 4.465461021687042731e-01
-8.330876002963205629e-02 -7.444053390488100663e-02 4.391372439827637697e-01
-1.786871819755483232e-02 -1.259533702995846716e-01 5.113283825446591768e-01
-3.791929993254927744e-02 -1.221637432516089056e-01 5.259972718760209665e-01
-7.904751747009364227e-02 -7.098240493671227613e-02 4.378048737802353596e-01
-7.263797072867961280e-02 -1.155060744426708308e-01 4.755493724951317946e-01
-2.034316555904092452e-02 -1.251339877319140037e-01 5.071234990088342443e-01
-9.043412030375910793e-03 -9.714989537135690356e-02 5.695275920088875843e-01
-6.113868175455139387e-02 -9.533770178315055521e-02 4.521975918275241701e-01
-7.305874073864324081e-02 -1.167417997751456216e-01 4.780024619441918809e-01
-3.404523562702745088e-02 -1.069133708558452495e-01 5.454699932872466572e-01
-1.006969081856521758e-01 -1.192242401001402247e-01 4.671525901054263685e-01
-1.226076044723188770e-02 -1.139179355575818120e-01 5.596733987125978027e-01
-4.594137676276197763e-02 -1.152205729389241123e-01 5.364817128482276543e-01
-2.729806302830125458e-02 -1.240190159066672376e-01 5.158214906682960788e-01
-7.713234343025714146e-02 -1.206544440577562993e-01 4.890125264211627187e-01
-5.521250080041560648e-02 -8.644306018010400328e-02 4.474594952654518121e-01
-1.009880510186795255e-01 -1.233113165768433689e-01 4.869439821802633017e-01
-5.955340493494781090e-02 -1.026372316663219236e-01 4.593097648305571878e-01
-1.774398942696598855e-02 -1.256398096689630706e-01 5.307746556955255102e-01
-1.086023869734674824e-01 -1.225502772632618836e-01 4.874164823541058400e-01
-9.500970296853776531e-02 -1.226391691292771646e-01 4.840141102334952206e-01
-8.607414402964128075e-02 -1.202693352709660879e-01 4.804487669991244214e-01
-2.190182784612323963e-02 -1.126417821982048234e-01 5.579257108828510336e-01
-5.840251230009150391e-02 -8.581565465892405931e-02 4.464243836000986176e-01
-7.847742134224910959e-02 -7.502425983624644301e-02 4.386142537402429320e-01
-1.057872817347895421e-02 -1.091800833304718693e-01 5.639562094399519498e-01
-7.675082970749250166e-02 -8.468894170582325076e-02 4.429993220906056628e-01
-9.488110458200153807e-02 -1.225832763413438053e-01 4.984179422114398683e-01
-6.439134916380342966e-02 -8.057380520949251890e-02 4.424370323283116080e-01
-6.598676665559939647e-02 -1.211040301016570730e-01 5.156189075437305203e-01
-6.413359127604029153e-02 -8.525234981858471894e-02 4.449192900065883638e-01
-7.912827652438679527e-02 -9.856424506752739512e-02 4.521912839767713854e-01
-2.934712452684911169e-02 -1.235243546708004320e-01 5.127449985475702743e-01
-1.060595449096373849e-01 -1.230420093824839689e-01 4.885356876311117147e-01
-4.496411595331811090e-02 -8.282622821218096898e-02 4.473299424215462228e-01
-1.636501847322914191e-02 -1.266396123435136190e-01 5.212519001819598818e-01
-3.012412351310448516e-02 -1.213039789891261211e-01 5.388765383778864049e-01
-6.528499844371231896e-03 -1.247960604432793580e-01 4.953190635649111773e-01
-6.908766381380669619e-02 -8.371582637925663317e-02 4.431868169359589604e-01
-1.402828817633543744e-02 -1.206495209073381036e-01 4.861900179814454548e-01
-1.948761195820828546e-02 -1.257018934861867665e-01 5.273997155206376908e-01
-1.173758806202117172e-01 -1.091395561238423795e-01 4.682500750900822073e-01
-8.345341125531750837e-02 -1.196329090989012023e-01 5.150273176967937738e-01
-5.249328299253483432e-02 -1.199798244395464814e-01 5.241992371285325580e-01
-7.452154759285987973e-02 -1.188566800446282101e-01 5.195152417069641704e-01
-4.592365821774559154e-02 -1.071222789837067008e-01 4.687785310115831772e-01
-9.638687593798314288e-03 -1.006128727384830585e-01 5.681435255979582211e-01
-6.597791570967405372e-02 -7.443214694937280718e-02 4.399791223390961958e-01
-6.127013432468693399e-02 -1.175486713162351288e-01 4.863517645474371154e-01
-6.391011731658788331e-02 -1.217652333579350293e-01 5.097711062668492943e-01
-9.592089783807655756e-02 -1.233532529399501421e-01 4.696792631830251086e-01
-1.183326940608313282e-01 -1.146053064285943446e-01 4.782409141280991594e-01
-8.254307609881926522e-02 -1.168717627621475574e-01 5.187796159949628061e-01
-8.925045403969406044e-02 -1.207115460432041237e-01 4.800534596097558171e-01
-3.174578065925576231e-02 -8.250634613834086084e-02 4.472878294115181785e-01
-9.481403192215807907e-02 -1.039721532582668501e-01 4.542880793551636320e-01
-7.950310999687251745e-02 -1.160894081628815466e-01 4.716704487863481732e-01
-6.434124413702127510e-02 -6.929405270444667642e-02 4.388881729114065267e-01
-7.519511527677198715e-02 -6.635489385894279002e-02 4.362085746087610572e-01
-3.729708944330029086e-02 -1.216541457443217622e-01 5.047266906466523206e-01
-6.209867641350094031e-02 -1.182149208929291206e-01 4.881767205311792202e-01
-4.701351631502363737e-02 -6.139691761658046254e-02 4.396863810821349805e-01
-6.098774735114379647e-02 -6.425580755725443516e-02 4.385252050882089137e-01
-1.025329600282698234e-01 -1.233083312751827171e-01 4.862784143126408498e-01
-8.042877954410952712e-02 -1.120163936550873374e-01 4.646249129379693699e-01
-8.425346967166572054e-02 -1.125071634421334482e-01 4.625887052481489348e-01
-5.370677853484256969e-02 -7.506895095530456696e-02 4.430320724357029172e-01
-1.206904590156845369e-01 -1.107524727889318689e-01 4.840847236510782969e-01
-2.648220552349527315e-02 -1.204957291934406205e-01 5.441737396562963403e-01
-1.575311196127436586e-02 -1.169260233821512035e-01 4.786239534537951035e-01
-7.190585998179184479e-02 -1.123851039818914571e-01 5.269625839278573309e-01
-7.199905639518001943e-02 -7.208942841130536183e-02 4.380395768617849073e-01
-7.265373035085957026e-03 -1.271999875309466066e-01 5.049850418107298955e-01
-1.000702457256595346e-01 -1.124648414814486963e-01 4.607776730785468899e-01
-5.704844436266741370e-02 -1.128833857936322044e-01 4.760984255356787154e-01
-4.863060240713926868e-02 -8.521323533522104365e-02 4.479974073118012101e-01
-1.080202151199734506e-01 -1.224424118560574343e-01 4.835310003979869098e-01
-1.017505923617855780e-02 -1.240144778600179298e-01 4.937582990898604640e-01
-4.169169852917570945e-02 -1.218078229881956742e-01 5.084403408772206756e-01
-4.439759598393974716e-02 -8.896556185878422285e-02 4.509547569908193831e-01
-1.173591361513240949e-01 -1.160579577878921159e-01 4.760285342218734117e-01
-4.683539396096592783e-02 -1.192684535970358339e-01 5.320137422153434770e-01
-6.353526808518208946e-02 -1.155759755285832024e-01 4.801855242704533566e-01
-2.266573069771694524e-02 -1.066653910585395049e-01 5.604112557153000385e-01
-3.403476345071539122e-02 -1.223329680670440928e-01 5.078631904041952527e-01
-4.645944570327819462e-02 -1.099362385220178512e-01 4.731243600426432994e-01
-9.646081299977499190e-02 -1.229890660199175895e-01 4.711863504313764661e-01
-1.154487130835318703e-01 -1.148411181568012029e-01 4.965941742471094433e-01
-6.851061563920475550e-02 -1.152643667457784321e-01 4.774097619002456994e-01
-4.539497586351844832e-02 -1.073917397214045194e-01 4.692434629221096110e-01
-9.588089999273816111e-02 -9.122121362507899789e-02 4.480425567574563561e-01
-5.348961456335075276e-02 -1.088240494144257636e-01 4.695691952432289873e-01
-4.681759623511617951e-02 -6.497399156299651923e-02 4.406889672474200714e-01
-6.025792372879616027e-02 -1.142141584173195640e-01 4.782597573193896889e-01
-2.587062757202819585e-02 -1.233336573456736140e-01 5.039747291994056688e-01
-7.799551726504748428e-02 -1.218500361424259826e-01 4.942306176717821131e-01
-3.911572165773868903e-02 -1.223182168007187071e-01 5.193181953819030472e-01
-7.969780044522475210e-03 -1.263480349930817537e-01 5.313488933178762696e-01
-6.585349700394181605e-02 -9.620384180085374271e-02 4.521736176756330772e-01
-3.702561636453553101e-02 -1.225537772382234020e-01 5.186474907781055688e-01
-7.387339469361375865e-02 -1.222026598338669390e-01 5.015626162581132697e-01
-8.823523205132142999e-02 -1.106172836699975959e-01 4.598076683473090176e-01
-4.443383390877941180e-02 -7.535162533755428160e-02 4.443194816404826830e-01
-5.858115184304660966e-02 -6.753628652127720289e-02 4.399226248172531939e-01
-8.183142325776222858e-02 -8.393861718307864261e-02 4.426124482412940320e-01
-7.272266837057020372e-02 -7.229055931046771133e-02 4.380456487147936784e-01
-1.343961399779835392e-02 -1.246309936259786949e-01 5.357773296445498268e-01
-8.342752353304955237e-02 -1.199214024846798343e-01 4.754306653056769028e-01
-7.611040699642040996e-02 -8.080979212189823291e-02 4.406510259584721090e-01
-9.403301252763515694e-02 -1.227101824608536895e-01 4.684766958536465409e-01
-5.722558182367269014e-02 -1.183352468166780497e-01 4.904148648119526777e-01
-1.570611095250539282e-02 -1.133783736763014638e-01 5.601858352626312154e-01
-2.770660769852782354e-02 -1.209643475197547530e-01 4.950639517851264659e-01
-6.376432151163402562e-02 -6.894399639698264859e-02 4.389767441007216275e-01
-8.072675051980658656e-02 -9.664745869459170913e-02 4.506202465121628142e-01
-6.704382997838088942e-02 -6.073338506505362999e-02 4.369066996646225887e-01
-1.081665909825825778e-01 -1.215384236215905633e-01 4.791363966436099076e-01
-6.932864988035147835e-02 -1.136731452527119796e-01 5.269956886343812874e-01
-3.924803538215985294e-02 -1.222480845504828606e-01 5.139925558059967869e-01
-1.134302903602179419e-02 -1.275640229710932605e-01 5.142525610974585382e-01
-1.020356035088001469e-02 -1.278317076822240994e-01 5.148981361230079434e-01
-1.029693404825469082e-02 -1.269805498684358769e-01 5.060775002332361661e-01
-4.237428656844836883e-02 -1.219977863996997286e-01 5.173571822196058045e-01
-1.430871105207717243e-02 -1.147089888238119193e-01 5.588057757461026842e-01
-6.137792208685449724e-02 -1.213771846730371529e-01 5.130037872425240453e-01
-2.301029443381536269e-02 -1.095333599435463490e-01 4.702678915217529676e-01
-1.153738880684808954e-01 -1.020050743432538987e-01 4.628174262180723697e-01
-6.109758280659036145e-02 -8.472544805305709525e-02 4.452269371677353704e-01
-1.973804831279471830e-02 -1.172826429334575954e-01 4.806790556118190616e-01
-2.273644980511447741e-02 -1.224325922274577538e-01 5.417583960648778563e-01
-5.113557700811287993e-02 -1.186075979920914042e-01 5.300860950180368292e-01
-1.512375105656716019e-02 -1.100856851570905792e-01 4.675268255074074286e-01
-8.963816225273213423e-02 -1.122870812122629680e-01 4.601834078588706300e-01
-6.539151521999408967e-02 -7.412658721501672043e-02 4.400196573544544187e-01
-7.629811848875870002e-03 -1.284128717289038379e-01 5.187652741834798409e-01
-5.232562194347457896e-02 -1.183771258541971572e-01 5.296862014188596923e-01
-5.148631723993333381e-02 -1.158412540798359064e-01 5.333491104120858806e-01
-2.605782518091437350e-02 -1.050613642797663672e-01 4.651910860826004579e-01
-5.509714278775822149e-02 -1.182579055147601615e-01 5.282520595680546549e-01
-5.521400828270591962e-03 -1.287781564920556787e-01 5.172668595867476737e-01
-1.142816279785750788e-02 -1.267169318999972205e-01 5.276602062342754529e-01
-1.711548406679664139e-02 -1.174821034202439274e-01 4.802126819813297143e-01
-8.714568091396424077e-02 -9.589543484965094844e-02 4.493632948219465906e-01
-1.677425517823606660e-02 -1.235332129935514667e-01 4.961643793491758991e-01
-9.719980824128959807e-02 -1.221786415834192202e-01 5.004786413280830626e-01
-4.968912807607279297e-02 -1.203958938650338678e-01 5.008164731566659977e-01
-4.637505369268228594e-02 -1.112355054329035309e-01 5.381697674419171351e-01
-7.232407518878926356e-02 -8.816099707745843339e-02 4.456215120175203159e-01
-9.525138932308854778e-02 -1.220759867104326823e-01 5.017380833397432349e-01
-4.994285405704029790e-02 -1.009731544652737179e-01 4.596036615026350414e-01
-6.095861608419658045e-02 -1.151866863257232365e-01 4.803134021172977830e-01
-6.716912673589124638e-02 -1.219650810027597121e-01 5.070790505090186917e-01
-7.218401992626136132e-02 -1.221107219631480945e-01 5.023286183025662543e-01
-8.332959791716450237e-02 -1.171828928111284668e-01 4.698075880021019279e-01
-2.582035008824663802e-02 -1.148987267320812355e-01 5.533654105240420895e-01
-4.324256040735627998e-02 -1.208865879183443487e-01 5.315939853120055236e-01
-8.667440896749049883e-02 -1.227901104019553519e-01 4.987589444726261978e-01
-8.749935034729194872e-02 -1.192137665422825926e-01 4.694054153801760498e-01
-1.038240288904743458e-01 -1.214150852524267521e-01 4.757996570629314248e-01
-7.008544752303273728e-02 -7.289469524020708580e-02 4.386578187430678621e-01
-8.236262078575433410e-02 -8.440829769082504319e-02 4.428613000650983844e-01
-3.838341589451325225e-02 -1.116256782332875619e-01 4.760651846188252989e-01
-2.803167274590886646e-02 -1.238086863564390738e-01 5.146996195098472171e-01
-7.202584702813755180e-02 -6.471777073209790399e-02 4.364086456195802599e-01
-5.072017167732867371e-02 -1.176556485741427072e-01 4.886376466740641189e-01
-4.341799103091598111e-02 -1.080724244513974197e-01 5.409435219309765008e-01
-7.189965724015656701e-02 -9.418658564289623947e-02 4.499270745520315695e-01
-7.341703503209374981e-03 -1.212991075369689031e-01 5.448533596988128780e-01
-7.858442172979229756e-02 -1.224824105160582238e-01 5.001051388650495921e-01
-3.914872841299985029e-02 -1.222468968222039931e-01 5.224867618420917514e-01
-4.816786563773632623e-02 -8.396696421403258837e-02 4.473941139299904557e-01
-1.195530423106674067e-01 -1.126094147493596348e-01 4.812811766026620641e-01
-8.107950882779706159e-02 -1.217267674630470864e-01 4.919714451151090961e-01
-7.035581772389937205e-02 -1.165343973485482992e-01 4.790551537739507482e-01
-6.332322539648341242e-02 -1.200079165488523031e-01 5.211651777499900495e-01
-9.109431050032988642e-02 -1.212487885450920372e-01 4.685665365731243592e-01
-4.477902497615079969e-02 -1.186010943537725015e-01 4.918304564454901717e-01
-7.419017909033190708e-03 -1.231939531453788983e-01 5.392928892706017052e-01
-5.376097411509272311e-02 -7.385581297804649781e-02 4.426389775236212465e-01
-2.418883255713709726e-02 -1.246371987739632176e-01 5.133735983134630754e-01
-9.752706687698971255e-02 -8.096440658615026986e-02 4.507889176597077996e-01
-3.535158757003285801e-02 -1.146176486443057502e-01 4.816772323153904467e-01
-7.639102102897460389e-02 -7.509636884997325512e-02 4.385928672749740409e-01
-7.280073692299057764e-02 -1.221616681261041143e-01 5.022557003035231782e-01
-3.974036583953984014e-02 -8.084872252935823567e-02 4.467264028106562312e-01
-1.104669386429548567e-02 -1.273134229450527122e-01 5.248898098877842200e-01
-8.713937380756969775e-02 -1.083363704288830970e-01 4.584498563033675977e-01
-1.102218510782254912e-01 -1.220986506458483778e-01 4.918132184695885312e-01
-1.304661990805042540e-02 -9.864685605860949724e-02 5.678088898580793131e-01
-7.187749993152915684e-02 -5.674873362704678514e-02 4.380807151343762418e-01
-3.420153592747323529e-02 -9.231517921040081898e-02 4.547651756529458855e-01
-7.946230386666308654e-02 -1.212270939349656268e-01 4.907333562847958075e-01
-9.455894323442152680e-03 -1.271760006888225103e-01 5.272657602078690831e-01
-1.009515108634562175e-01 -1.229089760614280880e-01 4.958485477511297423e-01
-1.921765773862613852e-02 -1.251232214751348271e-01 5.054586792245978621e-01
-4.665490615520940382e-02 -9.446381913501684935e-02 4.546738427575874875e-01
-6.199546759538006324e-02 -8.256736010708654039e-02 4.440520040370090626e-01
-3.413738514347903347e-02 -1.153083827861934446e-01 4.830792657018659342e-01
-7.592349368043661839e-02 -8.623196812589323246e-02 4.440923378167678792e-01
-3.289708005238708294e-02 -1.210754900029565456e-01 4.990143296855242272e-01
-4.504562335475174872e-02 -1.205575074284140902e-01 5.309212955856071892e-01
-6.077994435293654352e-02 -5.842516846631269634e-02 4.377254349984898707e-01
-6.984435105531780485e-02 -1.203649651458253977e-01 4.916079537393470700e-01
-7.179016110635402792e-02 -7.705713165291390443e-02 4.394925304306341873e-01
-5.889394630376584838e-02 -7.156137350825320098e-02 4.410172878953179110e-01
-3.568045852616680280e-02 -1.225673127604967605e-01 5.138207046719528437e-01
-3.423058752484180872e-02 -1.161601002846390923e-01 4.848790953807901039e-01
-7.370661206682034561e-02 -6.471972584754386026e-02 4.362850896618649665e-01
-3.949258281596242093e-02 -8.955919818553598200e-02 4.521076080352790516e-01
-8.029312421968302915e-02 -1.179221690784333781e-01 4.746206353402770972e-01
-1.073836560954423563e-01 -1.227906492443109621e-01 4.877952319140230197e-01
-2.936436380063480595e-02 -1.235587809804653409e-01 5.140667298560983589e-01
-1.879691837911796545e-02 -9.773689909710669976e-02 5.647064841401160384e-01
-2.111133464332163451e-02 -1.156649666927629938e-01 4.788483664425651209e-01
-5.831183448562114735e-02 -1.161710966397217909e-01 4.833353622204145661e-01
-9.961290029961390735e-02 -1.167195134636059700e-01 4.641498102599445064e-01
-4.371776777916561163e-02 -1.205689242426511432e-01 5.329461121725767025e-01
-4.927164895367124736e-02 -1.019648427723885142e-01 4.611216662001550448e-01
-9.197785736805542955e-02 -1.195499233709183678e-01 5.116128093845203617e-01
-8.866772422498862827e-02 -1.059555903906815172e-01 4.560967997918184413e-01
-7.723631728650753869e-02 -8.438854894401895401e-02 4.427458375511842403e-01
-1.163807316546276900e-02 -1.234312540799853142e-01 5.409054800141046560e-01
-5.002650144680581556e-02 -1.108138548497524661e-01 4.740667520943382396e-01
-4.068729814758859087e-02 -9.576500380946699476e-02 4.569814101658147831e-01
-5.781120795236838888e-02 -1.185800511505815252e-01 4.912313066209674783e-01
-1.894661507544582665e-02 -1.248506301874986596e-01 5.038236084178687735e-01
-1.175803098658511625e-01 -1.144888343838367240e-01 4.742271927161975653e-01
-2.360817087111774688e-03 -1.290087862071647995e-01 5.139153065900817774e-01
-6.183466741489188068e-02 -7.077875840478679847e-02 4.400643893007731289e-01
-8.724243758868137355e-02 -8.373050595612684111e-02 4.435686753015619654e-01
-3.905758771671075102e-02 -9.042701854936187333e-02 4.528483285857112794e-01
-9.699983216684675280e-02 -1.209880145561252202e-01 5.068957185058493575e-01
-1.194040478427442903e-01 -1.128385959855485454e-01 4.810417093701493396e-01
-1.673959237027130773e-02 -1.110559983478236618e-01 5.619287976022411257e-01
-9.549784212854874749e-03 -1.188561438441458062e-01 4.810762179716113196e-01
-7.010962842682809393e-02 -1.220929824131492814e-01 5.050378816721985409e-01
-1.038869187628910923e-01 -1.183821596326188053e-01 4.684453430948028463e-01
-8.511827853956042966e-02 -1.200647283402259541e-01 4.817886365440808838e-01
-3.202428430066515258e-02 -1.211302075517282084e-01 5.374593039956837570e-01
-6.599075737362940230e-02 -8.027776089804411486e-02 4.418600741805825960e-01
-1.068472415977902990e-01 -1.196578443832747862e-01 4.731521814747179366e-01
-7.257580557037350555e-02 -1.041245018605155837e-01 4.584666550092814652e-01
-1.982287099418726661e-02 -9.766815714292401140e-02 5.640683972692636106e-01
-9.078182939714975197e-02 -1.217120599882145771e-01 4.720661846249919469e-01
-9.285477567958339007e-02 -1.211481491010793776e-01 4.784870105656407469e-01
-4.012804119594826774e-02 -1.212656488037040237e-01 5.033140664342424797e-01
-2.749261803236743851e-02 -1.057796300932578037e-01 4.664748974795601133e-01
-1.877039217579288405e-02 -1.257965773794791631e-01 5.278939448696100545e-01
-5.011294760867526787e-02 -1.192679707189388955e-01 4.953379205045408962e-01
-8.432312819041699881e-02 -6.713365854086537909e-02 4.400396241380569728e-01
-3.122225278579864732e-02 -9.714462794152940728e-02 4.584433578269835885e-01
-5.107688459994172425e-02 -1.158562456677424135e-01 4.835939326888829548e-01
-4.769521044603210191e-02 -1.197643813008705538e-01 4.974868486594690720e-01
-3.822981742732600718e-02 -1.224049784638559929e-01 5.197042286384175869e-01
-2.378182576542894888e-02 -1.218655306782104458e-01 4.957929841165966134e-01
-1.119130670383861742e-01 -1.218004602725149960e-01 4.850032343153376502e-01
-3.718786207071059918e-02 -1.216304094118222379e-01 5.044301800472018593e-01
-7.994500850621399923e-02 -1.219937310081867371e-01 5.083508614048333207e-01
-3.151771051836622234e-02 -1.180299445310201006e-01 4.886737371563521504e-01
-6.924337449772552389e-02 -1.134015029345329939e-01 4.730974691122405984e-01
-7.675888171890145328e-02 -7.956285957892145211e-02 4.401438082596744739e-01
-5.275075555724354631e-02 -1.175793593534347342e-01 4.881726610883926343e-01
-1.279766001740238052e-02 -1.256990306021352755e-01 5.320826723919480639e-01
-4.163626628274254976e-02 -7.751439455756775621e-02 4.453009414489143003e-01
-7.626573695086656668e-02 -1.212984490531471421e-01 4.925531548563860662e-01
-7.520380951736985176e-02 -1.209972298109401184e-01 4.917161520038121347e-01
-7.462065685479657429e-02 -8.813029713690337386e-02 4.454330037544030896e-01
-7.611795080451516649e-02 -7.882360409625567554e-02 4.397772066132172863e-01
-3.035227233067667313e-02 -1.234923384728204843e-01 5.232302063122846736e-01
-6.947644266631580745e-02 -5.759211562912715243e-02 4.374869010812157955e-01
-1.274026134979726159e-02 -1.271902925306092613e-01 5.236737942812419444e-01
-1.054820621215349710e-02 -1.111982206022504999e-01 5.622435718549080308e-01
-2.986290744543121725e-02 -1.102994834765628901e-01 4.731418647032601399e-01
-6.918298986925913718e-02 -1.218495601843541248e-01 5.085377377059703274e-01
-5.852769373821192778e-02 -9.940490802558735184e-02 4.562177651712204240e-01
-8.893748146726888903e-02 -1.196468793085116999e-01 5.119957280220506224e-01
-6.950780529772955518e-02 -9.464616729915932558e-02 4.505577350480015619e-01
-8.420082375027522492e-02 -1.057630577577318570e-01 4.568559175024990981e-01
-3.512475054242664846e-02 -1.045333897146156210e-01 4.659398400280641561e-01
-4.829176820028197731e-02 -9.882194789725529116e-02 4.579939542143673381e-01
-1.606225657612762175e-02 -1.240310876156685421e-01 5.385028874604401716e-01
-3.240926645911860332e-02 -8.910249858513241694e-02 4.521035253251493580e-01
-7.737925741038045868e-02 -1.179521896961177457e-01 4.777786345148607450e-01
-6.588420810301124156e-03 -1.273603898707730830e-01 5.053404272399214525e-01
-6.041690145599371009e-02 -1.215410627205061322e-01 5.109633560816633224e-01
-4.947012735668374767e-02 -1.119336805317386468e-01 5.367493332946059459e-01
-9.216897479408658889e-02 -1.220084637671045025e-01 4.692175928582356104e-01
-7.949403661806790644e-02 -1.219322271252793050e-01 5.089839783849458010e-01
-5.634330563338078857e-02 -1.197995633343279520e-01 4.966129062874822253e-01
-7.149031805721625665e-02 -9.347983039383278570e-02 4.494295351192466037e-01
-6.674831359406634655e-03 -1.282976513552202824e-01 5.122885261012009028e-01
-8.998425837586161713e-02 -1.206798415077964398e-01 4.692658864513516437e-01
-8.503861145531510513e-02 -1.007618851881601774e-01 4.528842602580482324e-01
-5.567869779956632903e-02 -1.111705411563467111e-01 4.731520131314830846e-01
-6.030104768572148305e-02 -1.212071373224193616e-01 5.140284155251070297e-01
-7.754015749287851422e-02 -1.210309713950426802e-01 4.905721274484891037e-01
-4.693575992672783560e-03 -1.288911752291515000e-01 5.169749221630927094e-01
-8.531782347292522772e-02 -9.108998391527807492e-02 4.467889096945716343e-01
-1.014948208738438579e-01 -1.014174158062267211e-01 4.530803813190595886e-01
-4.986184369770073344e-02 -7.425667259329117587e-02 4.434049052444753447e-01
-8.439646834057568103e-02 -1.226798063451038645e-01 4.988991134409976325e-01
-1.811023257217676125e-02 -1.260447459349615662e-01 5.264601649436779773e-01
-9.841921692506647168e-02 -1.221313973192686003e-01 4.747374065430992052e-01
-2.829444180878824128e-02 -9.076190758067156916e-02 4.525924092112324493e-01
-4.860373957926921590e-02 -1.168603511705319092e-01 5.338818216067934275e-01
-8.286227027978525228e-02 -1.089296335706405328e-01 4.600437956949418039e-01
-7.689324906543412719e-02 -5.737898569550411998e-02 4.383388079704602092e-01
-4.391225651853075673e-02 -1.181614674785222835e-01 4.904498977546279948e-01
-9.400864740424835775e-02 -1.151728543394005544e-01 4.607086385905925230e-01
-6.392619284420070214e-02 -1.101832835741720501e-01 4.690559365257095381e-01
-1.154725846009579532e-01 -1.204037178870697583e-01 4.902801872283497620e-01
-9.520272966944848259e-02 -1.156241537261233771e-01 5.128122670383488124e-01
-4.456244464462748300e-02 -1.196795074300177897e-01 4.963669867901785437e-01
-9.206065297090336441e-02 -1.134909964442576830e-01 5.155425089474487965e-01
-9.797702591517742921e-02 -8.320931650011922920e-02 4.494791187003632227e-01
-4.679420028456745401e-02 -1.210134276293210742e-01 5.246826331055108872e-01
-3.217928710610244020e-02 -1.066002000299445668e-01 5.476258431849801989e-01
-3.618870994408376895e-02 -1.198557647408897420e-01 5.387786969958723304e-01
-6.283340743082649338e-02 -1.106911152310760815e-01 4.701709827484719106e-01
-8.035464197374986295e-02 -1.168213330016739243e-01 4.722041259015344883e-01
-4.145640332592991084e-02 -1.141420903951624877e-01 4.807213040414821115e-01
-8.027088383765500212e-02 -8.390627643335039909e-02 4.425433182144542510e-01
-3.461049448437290843e-02 -1.161647744498818802e-01 5.436514141399326761e-01
-4.079377070310319375e-02 -9.101987807278091869e-02 4.531484666746931622e-01
-1.067684860637508892e-01 -1.224835488556578061e-01 4.825067751111395409e-01
-3.360156598710792308e-02 -1.134346262750711570e-01 4.792310657250880568e-01
-5.263479191855086753e-02 -7.905624564131372156e-02 4.446162210489363331e-01
-4.450643338775205071e-02 -1.217381758783958184e-01 5.185252590493603098e-01
-7.575356215612213950e-02 -1.157942839626353998e-01 4.742512246236883500e-01
-7.553796504357516983e-02 -5.864022523019991884e-02 4.376654796455630714e-01
-1.045803513077759178e-01 -1.231703580801854353e-01 4.912346312014084226e-01
-5.103772841385120079e-02 -1.172228187291591006e-01 5.321263883088199753e-01
-8.934872811967313477e-02 -1.092231805245206383e-01 4.582904412196506794e-01
-5.929851446596151598e-02 -1.197601878911537798e-01 4.956567818189088204e-01
-9.370450967048936375e-02 -1.101244154350107390e-01 4.579445235372441303e-01
-5.221992135352073600e-02 -1.201511911366832802e-01 4.991292349271294615e-01
-8.065228192507598037e-02 -8.429094383970817117e-02 4.427452968687217161e-01
-4.484107254765006684e-02 -1.212423028786270424e-01 5.272053451380243061e-01
-9.703075984182968350e-02 -1.090180437867640378e-01 4.575632542140528614e-01
-9.364964128463378057e-02 -1.168671184213841696e-01 5.126862886671186281e-01
-4.487383870028323340e-02 -1.137807893387269287e-01 5.377552137994580095e-01
-1.695541246170072236e-02 -1.117901015780888158e-01 4.705886429287025052e-01
-2.749035310541128249e-02 -1.155853037157448526e-01 5.506874769737802877e-01
-4.931621322479971120e-02 -1.209609654295628750e-01 5.224966181695457346e-01
-4.004505385651924154e-02 -7.531702448385461934e-02 4.442908681498741741e-01
-6.766146925826443947e-02 -9.754405269529031752e-02 4.530114551733357420e-01
-2.546815230439328920e-02 -1.244342558234443202e-01 5.165700614835793125e-01
-9.254239980593557957e-02 -1.216863759312706850e-01 4.672447033612666112e-01
-2.295369932780452413e-02 -1.017462217007006481e-01 4.598862679069258830e-01
-1.190335823679420785e-01 -1.176030580048354202e-01 4.861689452490189356e-01
-4.135288689395662243e-02 -1.215022442284633547e-01 5.059453040205020846e-01
-6.307873854623496923e-02 -8.294666755528383451e-02 4.439443475216059976e-01
-1.081384249786029594e-01 -1.207774647569879456e-01 4.978370612071038592e-01
-8.925602881391163368e-02 -1.228643521169420494e-01 4.972098606092335005e-01
-8.662731615003954611e-02 -1.204735687608307487e-01 5.106339384523446157e-01
-6.355950302148746789e-02 -1.190990294712652026e-01 5.226237649628292514e-01
-1.197896426206030290e-01 -1.140506866253268997e-01 4.903073289437193116e-01
-5.865486093696201803e-02 -7.034340101494544750e-02 4.407707304460359854e-01
-4.617401132942055425e-02 -1.215828980638846979e-01 5.113194972274661687e-01
-1.189193281318810455e-02 -9.598052754465216663e-02 5.696103139119560455e-01
-2.535278369438306867e-02 -1.244783123009516046e-01 5.179593792348914372e-01
-1.749049927593561773e-02 -1.008027218253146895e-01 5.649757496989770145e-01
-6.779277122188825944e-02 -9.418658358639916961e-02 4.503908989552261599e-01
-9.952642204753403554e-02 -8.353628330835449756e-02 4.522060772530328010e-01
-2.333954187424323867e-02 -1.148568566227718135e-01 4.790639905580768021e-01
-7.846037461988926431e-02 -1.208685421041310326e-01 4.892874510680381706e-01
-5.258809591086072155e-02 -6.536312542872571574e-02 4.402323279148753765e-01
-5.524461095015190115e-02 -1.083788602454652944e-01 4.684014532642730155e-01
-4.650836698806780356e-02 -7.597225103963205217e-02 4.443390147038469573e-01
-4.912521851149175001e-02 -1.188406393261209892e-01 4.933731602712996267e-01
-4.642487652827815420e-02 -1.209513858987004281e-01 5.258363217609237639e-01
-4.053249506085351145e-02 -1.073752569031831833e-01 4.692960972475160863e-01
-9.235862096378591457e-02 -1.162190567654235313e-01 5.136738247059673412e-01
-7.339357110263922124e-02 -1.146415689295181700e-01 4.732054463073317452e-01
-4.114099162150984534e-02 -1.204711992616576272e-01 5.344201601480732533e-01
-7.782733422993406980e-02 -8.660784017984568539e-02 4.441911380520743857e-01
-3.497628111958406283e-02 -1.222276772584159066e-01 5.079444566693734897e-01
-4.958123178438850198e-02 -1.184603174898735400e-01 5.312626008858986060e-01
-9.876124997664835481e-02 -1.108272015667313010e-01 4.588505367568074811e-01
-4.063728643386495254e-02 -1.171504883741222025e-01 4.872636219624866261e-01
-6.221396509089306692e-02 -9.773623466413897121e-02 4.539140140443994054e-01
-2.739511249431494239e-02 -1.239837535539088653e-01 5.154969798484635435e-01
-8.370684139305770155e-02 -1.199604532222024039e-01 4.767269352774941016e-01
-4.527157716647801922e-02 -1.211397709113696680e-01 5.052264736252494171e-01
-7.623702168880256563e-03 -1.212065955010210028e-01 5.453372470987909448e-01
-1.026738913966011510e-02 -1.278697742193027898e-01 5.223845136771096964e-01
-9.087109611651396357e-02 -8.490072836359778552e-02 4.446038502672850501e-01
-6.904372821850586484e-02 -1.134674913345285752e-01 4.733614619324096329e-01
-6.303606318001502007e-02 -1.037290439428835559e-01 4.598847349323036959e-01
-1.008059246540264908e-01 -1.219951056955306118e-01 4.999000107626148104e-01
-7.502317365973842911e-02 -6.623024436063340570e-02 4.361981466306001920e-01
-6.147985754709982958e-02 -7.398636436887723322e-02 4.409802040385853994e-01
-4.222799474405078413e-02 -1.063538727093285563e-01 4.677939438058878463e-01
-6.660997453172685934e-02 -7.518953358556872135e-02 4.400561642474061230e-01
-1.150722569765897929e-01 -1.204218053984832948e-01 4.808534337424957283e-01
-7.585324629540439456e-02 -1.202767217216140772e-01 4.878085619615928348e-01
-9.719454393845469720e-02 -1.219062521350705725e-01 4.778205804352734787e-01
-1.017851669341757470e-01 -1.006177912753150050e-01 4.527030860102378429e-01
-7.583948395849883506e-02 -1.209199108913076720e-01 4.909943020070139941e-01
-1.913735260373423952e-02 -1.239653625063077552e-01 5.379626363522054255e-01
-6.614992024457913566e-02 -1.196277707228566717e-01 4.909094801932685215e-01
-9.660082900104005610e-02 -8.645674533814297347e-02 4.477185383992136614e-01
-2.005899431824342480e-02 -1.100177655721408521e-01 4.693746548936015839e-01
-7.059886356683202357e-02 -1.114413311041186905e-01 4.686561317574639562e-01
-5.166568029749461083e-02 -8.254302793002547822e-02 4.461321458636705595e-01
-2.587900839994541555e-02 -1.212733517787673992e-01 4.951238888999539567e-01
-2.599197856176818991e-02 -1.163680326616634841e-01 5.519857525264141307e-01
-6.346567086784085654e-02 -1.181151442100248083e-01 5.243985966460532611e-01
-8.406188813845488772e-02 -1.159918035880089793e-01 4.673732901813758001e-01
-2.707693622229062971e-02 -1.061121878005912705e-01 5.547717925947098783e-01
-8.450829432188437795e-02 -8.624154262779687441e-02 4.439693840011883497e-01
-1.199127983467524333e-01 -1.151804251217945774e-01 4.875438561822131867e-01
-8.353508860317244988e-02 -1.037078896929505278e-01 4.552723360000088815e-01
-2.288000988756336632e-02 -1.207955767044032042e-01 5.458098253661197719e-01
-3.241064652527022444e-02 -1.161265770054919072e-01 4.847223247603142937e-01
-8.128868244717893377e-02 -1.193905963599780212e-01 4.818047894931524189e-01
-3.950476679428114452e-02 -1.024267839650543910e-01 4.633838206059710529e-01
-8.743229809809618946e-02 -1.196129281932708649e-01 4.702493897429925185e-01
-9.387152260588252362e-02 -1.215553115736783124e-01 4.795895907445396067e-01
-9.334825196459622942e-02 -1.220693495609435492e-01 5.034037011093449587e-01
-9.520291370802611008e-02 -1.214697669694269483e-01 4.773914420819189708e-01
-8.040517613814715525e-02 -1.226456656291413372e-01 5.016916823281668547e-01
-2.479369704116202514e-02 -1.124977773201866205e-01 4.757146443474123965e-01
-4.581135896622767767e-02 -1.214292460017250969e-01 5.234358261570142279e-01
-5.382496091067858618e-02 -9.054709918595112150e-02 4.501136118416451670e-01
-8.130802785932217391e-02 -8.243462098609943833e-02 4.418557599317138873e-01
-7.918878048186404894e-02 -1.205944017552427194e-01 4.881944881032148076e-01
-2.344271620151476901e-02 -1.021991120662740782e-01 5.601396017905680980e-01
-6.120468091200173544e-02 -1.205980877430105486e-01 5.188291678800880380e-01
-2.857563145820204292e-02 -1.210644095003718113e-01 5.413103003465313812e-01
-6.318630886820841841e-02 -1.102343450755468302e-01 4.693354088781732103e-01
-4.387777779459685334e-02 -1.216714342852028563e-01 5.238079925635202860e-01
-1.014834133326769500e-01 -8.482476011200941468e-02 4.537631721004992125e-01
-5.042512853601006928e-02 -1.203933773806226126e-01 5.006840564887674594e-01
-1.117269789705522230e-02 -1.082651267165987558e-01 5.643876449603842937e-01
-7.264304781869722338e-02 -1.011817172663502379e-01 4.554563328950838041e-01
-2.295697897546724806e-02 -9.852284416647034970e-02 5.598255840822392582e-01
-1.088762057996811444e-01 -1.210283769601616377e-01 4.772725047873797033e-01
-9.250116921122943092e-02 -1.220334020891850890e-01 4.686907572418954060e-01
