-1.018896838137372252e-01 -1.214389816458519428e-01 4.753646899318103580e-01
-1.073475381620730279e-01 -1.166394558656357744e-01 5.026855210218703629e-01
-4.631595483190439205e-02 -8.606287207297382003e-02 4.492839376417826491e-01
-6.528072796975406544e-02 -7.702763392447205260e-02 4.414767417861925614e-01
-3.565632324690286292e-02 -1.178824883390283684e-01 4.893324496804363766e-01
-2.515100718660094603e-02 -1.244537573422868082e-01 5.213366455658080545e-01
-6.500164578479629418e-02 -8.307525139396675085e-02 4.440415020307023064e-01
-7.230557186356195709e-02 -9.626317558482436199e-02 4.521528446337799156e-01
-7.334451415930039186e-02 -9.359371604556268598e-02 4.499656289389683539e-01
-4.535131041710165761e-02 -1.176120454986660374e-01 4.896313354633616832e-01
-9.741124104318354959e-02 -8.674701598462650209e-02 4.490156564742131540e-01
-9.904662745977434180e-02 -1.165600366465997656e-01 4.646575560127765847e-01
-8.810451283934331301e-02 -1.173972287554449351e-01 4.666494236536174456e-01
-8.977678471309286090e-02 -9.302279866462681568e-02 4.485134962638022693e-01
-7.330522941064114562e-02 -1.165000941997893086e-01 5.237720733353208313e-01
-6.099405625842563988e-02 -7.614160907557886160e-02 4.422787342024798174e-01
-2.260336828539390858e-02 -9.868761432023778757e-02 4.573191744729456776e-01
-1.253554956396995754e-02 -9.851500430915949291e-02 5.681274256445275617e-01
-1.027473607326886973e-01 -8.603655884274372112e-02 4.550296661427385425e-01
-2.778907816093230398e-02 -9.324068064993230875e-02 4.546826829138836956e-01
-4.604560112682051093e-02 -1.093152308588467847e-01 5.395745349982966621e-01
-2.731053198594892914e-02 -1.180307263824149910e-01 4.882578179112497252e-01
-1.186204024353615522e-01 -1.026088066066461885e-01 4.716621480478456752e-01
-6.531996249942759181e-02 -1.048700278774040151e-01 4.613328141095309753e-01
-1.700447801654228833e-02 -1.261069768250370204e-01 5.274829664852029865e-01
-6.225766969867240971e-03 -1.259548455013225765e-01 5.325548131267447971e-01
-6.778533670626980812e-02 -1.217029424594409243e-01 5.055659604304630905e-01
-3.728063810127105193e-02 -8.315585978125272781e-02 4.484495113422402035e-01
-1.032800286917594790e-01 -1.177935242491526258e-01 5.043591100283664197e-01
-1.122895517602045395e-01 -9.920749371678058703e-02 4.590723711887447211e-01
-1.068347131964377805e-01 -1.199202024811513723e-01 5.005228646125950975e-01
-1.083271603739437428e-01 -1.209237753711405183e-01 4.788056827151312977e-01
-2.812714638253136640e-02 -1.058504217103453104e-01 5.529498568250309498e-01
-2.606592594408107741e-02 -1.219770272015068824e-01 5.400941891161101793e-01
-2.283890630756315807e-02 -1.175411357610749163e-01 5.522547385346932014e-01
-8.600842835840305511e-02 -9.889136830606251594e-02 4.522249395237669112e-01
-8.649398779699749018e-02 -8.399283179194888538e-02 4.441130784063438419e-01
-1.005136505419637061e-01 -9.857510542252488628e-02 4.523409134918199292e-01
-6.275822837803786414e-02 -1.214417129564763498e-01 5.063678099340027661e-01
-7.645378347431315905e-03 -1.216786530381918918e-01 5.441464688239781022e-01
-6.276660795332159037e-02 -8.791698413891899100e-02 4.473106453952138128e-01
-2.456268798421657601e-02 -1.229168956360855991e-01 5.375012643767904663e-01
-7.255876670385415228e-02 -9.110938186035336117e-02 4.482552028878039607e-01
-8.676702007332415256e-02 -1.111258504209560044e-01 4.617286736149078252e-01
-7.816544755380291920e-02 -7.223716929184977042e-02 4.385687767642753587e-01
-1.431286187344425059e-02 -1.004740180881258937e-01 5.661584920046338620e-01
-3.215400554202323125e-02 -1.230215773956160469e-01 5.266695577805893258e-01
-5.568756507281061308e-02 -1.113631891557460563e-01 4.742258514964065585e-01
-2.595876124669163273e-02 -1.241661519049041124e-01 5.141266256770830045e-01
-3.468018456734497934e-02 -1.180667180747460576e-01 4.897003347842743826e-01
-6.430617242141047074e-02 -7.508095100527663324e-02 4.410652932674019588e-01
-4.391984805004413989e-02 -9.175803837296613030e-02 4.536307826279146194e-01
-7.685389286225866035e-02 -1.205347159174200850e-01 4.901040108529253758e-01
-4.295820460249458878e-02 -1.204257531302605488e-01 5.339079912357480584e-01
-5.288440198061165193e-02 -1.205216859119808276e-01 5.025192699371300309e-01
-7.628408776078860615e-03 -1.234149789653564977e-01 5.387463424553087243e-01
-4.545043191563564317e-02 -1.010952586048038532e-01 4.615113686257372172e-01
-8.516545962452760216e-03 -1.268475137386503027e-01 5.296847375678720438e-01
-5.502911130714992216e-02 -1.058432127263684019e-01 4.653227949072941128e-01
-8.355656727782966031e-02 -1.197522313548436829e-01 4.772380589986521260e-01
-4.441378110797973566e-02 -6.371484077551302361e-02 4.408367321601581734e-01
-5.309901917484431688e-02 -5.647378810654148790e-02 4.387076896541742821e-01
-2.073661230279396153e-02 -1.223277953050382616e-01 4.955267577662729739e-01
-4.575118756829173183e-02 -1.115418833829921741e-01 4.764915916640378724e-01
-7.080033244751920973e-02 -1.199522784545531129e-01 5.177629885103925966e-01
-5.668439568714595672e-02 -1.107801326523313867e-01 4.727056283736900677e-01
-5.224138040678155681e-02 -8.864753104911510251e-02 4.497381720478377809e-01
-7.985781438935964094e-02 -9.405550724208960878e-02 4.496006578645404539e-01
-8.260278398861646554e-02 -9.517720714087031519e-02 4.500970975593627799e-01
-1.146272896452371209e-01 -1.066842295905455901e-01 4.638932882587792905e-01
-5.838498264954843781e-02 -9.997910033634145599e-02 4.573621526329787468e-01
-3.070175125197227226e-02 -9.619108119047135863e-02 4.577382556208910991e-01
-4.886789067314920021e-02 -1.070591731820352277e-01 4.685385018280884828e-01
-1.919192509144917666e-02 -1.258183923091000800e-01 5.255402215929146914e-01
-6.876812063930909553e-03 -1.243095148883329309e-01 5.359403170644591041e-01
-1.554340755609214149e-02 -1.263211426965193396e-01 5.280350730773448742e-01
-7.910882594811491364e-02 -1.147469378433063902e-01 4.712167595398398801e-01
-1.131732622929676885e-01 -1.167999748441930774e-01 4.726346199263762871e-01
-6.551932760627518504e-02 -7.545426381602922394e-02 4.408961146285214072e-01
-6.146445825423242637e-02 -1.114980014119187901e-01 4.727086196863877210e-01
-1.008045552484926194e-01 -1.163956548534413188e-01 5.094136773272351926e-01
-5.678212660664774813e-02 -1.155363926386257373e-01 4.827586690202952391e-01
-8.302292074382275344e-02 -1.196253022647427167e-01 4.763530182836953619e-01
-8.053646492784423405e-02 -1.117135308205612909e-01 5.252095320428311620e-01
-1.210524174436304057e-01 -1.097048329550017048e-01 4.846527605128928551e-01
-2.938817671971227785e-02 -1.225100926720823769e-01 5.035731121047729575e-01
-3.080744887764115536e-02 -1.080200375621055142e-01 4.703466684279320464e-01
-6.441818157813648804e-02 -1.130247886169738064e-01 5.293983888007597338e-01
-9.727853955856181900e-02 -1.229486886963744308e-01 4.865924717765305885e-01
-7.400891331909542625e-02 -6.594928303697909777e-02 4.367499425587105244e-01
-2.986122743731410220e-02 -1.189912916965886469e-01 4.908589708549352948e-01
-1.055774911175376141e-01 -1.112493855074056237e-01 5.071323959873115239e-01
-7.725248021962327627e-02 -1.211856363426938032e-01 4.930097727389989304e-01
-2.554974640799886204e-02 -1.086937004127610795e-01 4.704375100461770653e-01
-7.078228519076106007e-02 -5.792225066321635141e-02 4.379034215919508921e-01
-7.659735103396281275e-02 -1.061960643822167927e-01 4.602878604570437848e-01
-5.060343724531959908e-02 -1.215601219437782293e-01 5.137155690710483169e-01
-1.214081458030486921e-01 -1.093281969655641589e-01 4.767314689530485206e-01
-1.147270038511080809e-01 -1.202078523324804638e-01 4.823280654934248290e-01
-5.883047472629006347e-02 -8.578327732114934823e-02 4.468337004619820085e-01
-6.903699182333269957e-02 -9.570736527025965057e-02 4.520746901286865072e-01
-3.142320836001234741e-02 -1.230020659892284984e-01 5.111744479872919467e-01
-3.399069982564872916e-02 -1.137857995948206857e-01 4.803949076624960957e-01
-6.145712253215059734e-02 -1.150365705442455838e-01 5.296303946570882770e-01
-6.928301090664495433e-03 -1.233087084987576493e-01 5.387406635862422855e-01
-7.103727877063614748e-02 -5.522352985095504291e-02 4.390093694472466668e-01
-8.695512880769334929e-03 -1.144864464251671432e-01 5.591289954009592833e-01
-9.079259229152611063e-03 -1.273749401331456810e-01 5.265216450314424979e-01
-8.168696733008508348e-02 -6.606226307738842507e-02 4.397107360261764408e-01
-9.110542188287372445e-02 -1.216274205098145933e-01 4.732226083546516859e-01
-7.314761560940839791e-02 -1.108332551385054626e-01 4.674812485236754522e-01
-3.942134878152544347e-02 -1.145263181671008351e-01 4.820168806701694564e-01
-6.900922115923023570e-02 -1.107704389363941000e-01 4.691486156461885382e-01
-4.322040703064341377e-02 -1.104230973075555622e-01 5.405295966882026626e-01
-7.186456570530694310e-02 -1.202544572866174610e-01 4.910603261917019235e-01
-1.978280353185138049e-02 -1.254847743964067897e-01 5.121853080330035501e-01
-1.136146533717518614e-01 -1.082084652897920274e-01 4.633535510266444946e-01
-7.999674916103924338e-02 -8.484149210740854485e-02 4.436111054061400161e-01
-3.300068475558754627e-02 -1.220602782290187011e-01 5.335638404244215094e-01
-4.091256817374139265e-02 -1.216183938906367362e-01 5.278311143718543708e-01
-6.696237030486265618e-02 -1.142892441410981591e-01 4.769320253411332700e-01
-8.612229616688658884e-02 -7.928805160218072023e-02 4.426260740002433414e-01
-6.381996360640131150e-02 -1.157051325602881237e-01 4.813042157925127573e-01
-6.209102452990810511e-02 -1.178583683765345169e-01 4.878611601410738907e-01
-8.972479415896399135e-02 -1.204197391747330037e-01 4.704851922110863116e-01
-7.534381637712700419e-02 -1.025776655183811142e-01 4.570124698980239097e-01
-9.425417011182710136e-02 -1.227015291515920342e-01 4.698380012631444558e-01
-1.044664645251055096e-01 -9.528795629838750225e-02 4.527600550791406886e-01
-9.785357997366983529e-02 -1.206724568978095324e-01 5.070344238937986026e-01
-4.313672431655950212e-02 -8.842679957387172829e-02 4.512769086772756011e-01
-3.564230300877735402e-02 -1.188857465386651407e-01 5.401095555804498183e-01
-4.084058535831308623e-02 -1.195123295815974651e-01 4.954485353346940735e-01
-7.769680814870527641e-02 -6.263990200625617344e-02 4.372819230061966156e-01
-6.704888639880046686e-02 -1.214738445810495532e-01 5.107836663115216114e-01
-5.607909271781397198e-02 -7.941619886683988494e-02 4.445398564955145293e-01
-9.772877967305042268e-02 -1.165571781993826606e-01 4.636459802606214264e-01
-1.288733781331492974e-02 -1.064566019345979109e-01 5.650011896419447899e-01
-7.161016232750189864e-03 -1.197596051313128546e-01 5.493237646588399192e-01
-3.915384707852327673e-02 -1.182104696349113304e-01 4.909752885245614595e-01
-1.163362818616090477e-01 -1.054438907696031852e-01 4.655133516087003875e-01
-9.597866868758835046e-02 -1.188575007150014518e-01 5.107173692877339244e-01
-8.100765510951901671e-02 -1.219864044430328393e-01 4.966204485978866212e-01
-1.204830237773541896e-01 -1.124214427133434363e-01 4.898181347730785062e-01
-2.153726382342984608e-02 -1.252993842740394992e-01 5.230633767869445894e-01
-1.008465954006881465e-01 -9.651164527976628660e-02 4.515330598286186881e-01
-8.808070959990335624e-02 -1.216012359168399809e-01 4.878277906280820697e-01
-9.619785775052994148e-02 -1.211099776256074900e-01 5.061056174188506285e-01
-6.943394307167972956e-02 -1.138019598064708704e-01 4.747848044002504486e-01
-6.984275936443025412e-02 -1.117759967441597918e-01 4.704493954978876680e-01
-2.635936334159013836e-02 -1.053781255018139268e-01 4.660807256327684223e-01
-5.199183370378239466e-02 -1.078559533844571511e-01 5.374357174339374765e-01
-3.044979165374566907e-02 -1.228772146606409432e-01 5.306291693619894501e-01
-7.818774656063541550e-02 -1.212855139539806976e-01 4.929887729609955804e-01
-7.479978600105385844e-02 -1.112189300368960354e-01 4.673867371586059583e-01
-1.141662266803660508e-01 -1.196635740471500287e-01 4.786349947016052542e-01
-6.152678946921685127e-02 -9.888695920222637104e-02 4.557741653367385348e-01
-2.536502523041957516e-02 -1.239999209510967704e-01 5.100016798760854675e-01
-5.458739461328908360e-02 -8.868194865415704453e-02 4.493313092660080055e-01
-1.268423595911274265e-02 -1.160173731572757133e-01 4.758709749643452724e-01
-9.088801526788486962e-02 -8.485637171548832125e-02 4.452613139301708767e-01
-4.642690383958872347e-02 -9.348405567099016267e-02 4.543856354098197436e-01
-3.393661577479590435e-02 -1.084378054984674600e-01 5.454548656652350447e-01
-5.656773183999916355e-02 -1.095031743782099998e-01 5.341419688007262856e-01
-8.146497481610011360e-02 -1.208321410694892933e-01 5.136456394170650919e-01
-1.295533563081384398e-02 -1.242195707213592237e-01 4.963702903279648138e-01
-8.225098672322644910e-02 -1.004067974351611353e-01 4.538088698231957929e-01
-2.160600520935353208e-02 -1.063856603721332478e-01 4.653498540926785942e-01
-6.376062223334844070e-02 -5.782011659492558575e-02 4.375791981887131032e-01
-1.926364961509745635e-02 -1.248465817845514914e-01 5.333649418326654734e-01
-1.050522191448717418e-01 -1.228911465212562532e-01 4.883353869222692434e-01
-6.066287796087188600e-02 -1.085646474300931696e-01 5.323824917092903064e-01
-2.129221285016212606e-02 -1.230072132653003275e-01 5.405661985612227882e-01
-1.665150299381203819e-02 -1.075993008044853760e-01 5.639117790387104812e-01
-1.143597728781075989e-01 -1.195172212630540437e-01 4.783751568427401235e-01
-1.545280232518461694e-02 -1.061428152257063579e-01 5.646372723151147355e-01
-3.371799966707335339e-02 -1.226528095689469605e-01 5.123248715330617209e-01
-1.051019315656056136e-01 -1.217756949346543993e-01 4.797970179403312496e-01
-9.930447346179904766e-02 -1.214675047325105978e-01 5.025026305307007668e-01
-4.038767607771602541e-02 -1.171390865883463750e-01 4.878129876609749727e-01
-7.553492097140108649e-03 -1.269173397903417266e-01 5.040409767052949075e-01
-5.431790795220256540e-02 -6.666445802220329064e-02 4.407704435429965484e-01
-5.809706301838417353e-02 -7.013760499491411560e-02 4.412420691332513134e-01
-8.175096337799590829e-02 -9.412277232922904024e-02 4.494389968513002875e-01
-6.125641193377778099e-02 -9.918440009208369379e-02 4.561101738641528125e-01
-8.379431960456661110e-02 -8.985719427119365221e-02 4.468129524341621361e-01
-1.028213898181016828e-01 -1.227023062095678324e-01 4.831507439865440623e-01
-1.672316066728085290e-02 -1.093755839392838713e-01 4.673008818906357331e-01
-5.301993660700962327e-03 -1.283221492129739960e-01 5.260208440418359110e-01
-6.264127833618204910e-02 -1.205384431853615546e-01 4.991692057546172623e-01
-8.237091477492027025e-02 -1.199863417888318712e-01 4.867676951440468858e-01
-1.659973860994308839e-02 -1.263782786471781272e-01 5.158210422614959434e-01
-1.557318648622424070e-02 -1.193592212637901995e-01 4.840691336385940513e-01
-4.782258806347138014e-02 -6.432388073009588647e-02 4.407628117491204645e-01
-7.066621178839831152e-02 -1.001789294251495682e-01 4.555957581622513963e-01
-7.293605088881784104e-02 -1.043456484701182213e-01 4.593837257405244956e-01
-2.887103607853366491e-02 -1.121068094323871694e-01 4.766989247926824991e-01
-6.296948178416084119e-02 -8.702429751715444473e-02 4.467402431485235081e-01
-4.872061188112841029e-02 -1.001019402395237345e-01 4.594708991481749050e-01
-3.104585348911008402e-02 -8.360434908906302920e-02 4.481259108270068681e-01
-6.002783563096718289e-02 -1.181576306284461281e-01 5.263545496336243801e-01
-8.819106923082375982e-02 -8.201082963100986278e-02 4.437705602521833104e-01
-5.191315865807961255e-02 -1.207658978197707900e-01 5.043806277889645306e-01
-7.596247151670518227e-02 -8.923551021074249689e-02 4.466928971192624664e-01
-2.752270437193998082e-02 -1.154377590537330328e-01 4.824014328180715738e-01
-9.842173310314349111e-02 -1.202008569251976078e-01 5.071777157550765303e-01
-9.080301766094449334e-02 -1.214676272662510298e-01 4.762815200411676386e-01
-8.605190679258113706e-02 -7.423632025623921882e-02 4.415544633702760957e-01
-1.391682994422152424e-02 -1.266256829016451368e-01 5.083764748331872640e-01
-3.937725792036273625e-02 -9.220497064538656085e-02 4.546387304980118449e-01
-3.776784801298441185e-02 -9.647637635300304604e-02 4.583490370140145820e-01
-4.935320207710428703e-02 -1.200572173467042564e-01 4.997860165153306666e-01
-3.852919086762696815e-02 -1.208950747742703891e-01 5.010453514252923846e-01
-5.649555928964403867e-02 -1.118827883165066372e-01 4.750155515017476238e-01
-7.421498515862730294e-02 -8.447552643037829767e-02 4.436464130085807089e-01
-4.964272262507516548e-02 -1.212069079949155137e-01 5.204612458430475375e-01
-7.604914379899804788e-02 -7.208432159122071803e-02 4.384695064155317845e-01
-6.706707548852573753e-02 -1.199395859423215693e-01 4.927916626117018750e-01
-1.978170051837223331e-02 -1.250216807204312386e-01 5.320199990484589803e-01
-3.726564054544867499e-02 -7.840651002755982812e-02 4.458529835389258289e-01
-5.253953050216492865e-02 -1.111916109507851552e-01 5.358692709645774821e-01
-7.449342526261909514e-02 -1.217837308262645496e-01 5.087732061773521108e-01
-4.147060633012154135e-02 -1.189174967188252607e-01 5.366727746928735554e-01
-2.315760744617314723e-02 -9.832104759252427439e-02 5.587806844634064518e-01
-2.844540649915120248e-02 -1.237377148493732787e-01 5.252913340431453193e-01
-7.569553331892894810e-02 -5.752109820702996229e-02 4.385961877363749317e-01
-6.720155267324302850e-02 -1.172942161490320712e-01 4.840345904190446746e-01
-1.157462972264719780e-01 -1.182337036870128311e-01 4.781174168535647917e-01
-1.203218773002951054e-02 -1.067538294476947786e-01 5.650384879960572704e-01
-3.421197431433503633e-02 -9.697642601385590699e-02 4.590280144824634423e-01
-7.934264709873323218e-02 -9.767055168422673905e-02 4.522613659044503742e-01
-2.388563915781487246e-02 -1.165247857491012867e-01 4.825861920776455261e-01
-1.133635247341720775e-01 -1.196361943628605068e-01 4.961957756921392959e-01
-1.131204474892580775e-01 -1.137444543294690857e-01 5.000905949609318890e-01
-9.994326634615061100e-02 -1.074235666931036420e-01 4.580227758570810104e-01
-7.565161561962886749e-02 -9.929718081642531502e-02 4.540282290331392190e-01
-5.787530451580700369e-02 -8.648055222885212001e-02 4.474267686160688928e-01
-7.111595724940250607e-02 -8.969059343478213986e-02 4.473157071277495955e-01
-6.860605875016466404e-02 -1.143446557373567901e-01 5.272553528580217197e-01
-8.198502942218113820e-02 -9.465937821976412592e-02 4.497959929750549590e-01
-1.708585719195314032e-02 -1.230748598574105124e-01 5.430624779427623006e-01
-5.538948024676294130e-02 -7.697545806908444310e-02 4.438224937065053943e-01
-5.851862165508416730e-02 -1.151234241380589135e-01 4.814478813187338946e-01
-5.148717320390833879e-02 -7.242588722755975705e-02 4.429415953406742879e-01
-9.652198659636151978e-02 -1.228533061447558278e-01 4.920991346043289694e-01
-2.223346093320823641e-02 -1.217580357738956842e-01 4.948628750916606589e-01
-6.810239143495040726e-02 -1.112334221605518897e-01 5.285155107100991678e-01
-1.152558602177792407e-01 -1.097426703689591276e-01 4.667509464581734990e-01
-9.775729531535028161e-02 -1.221891416089176674e-01 4.745274947582717728e-01
-5.714798064289989404e-02 -1.207489850645392937e-01 5.197274974451563390e-01
-6.414052426827332107e-03 -1.202827772685368252e-01 5.471624200304376906e-01
-2.530475261750306584e-02 -9.608155673484254644e-02 4.560959961581909083e-01
-8.648938485734170012e-02 -1.206459073330943682e-01 4.842382578104997282e-01
-4.085958289266945070e-02 -1.043704628978984889e-01 4.659620850895960231e-01
-4.733697537282586382e-02 -1.139650008915210622e-01 4.807503399675787659e-01
-3.855360072112685998e-02 -1.218149466139167303e-01 5.078698680110891317e-01
-9.979703974897902174e-02 -1.230247502966662354e-01 4.890237299212046307e-01
-9.237323095482814772e-02 -9.817254127733324176e-02 4.512061826737388537e-01
-4.119628678854331261e-02 -1.028371130433033825e-01 4.641969613978234599e-01
-8.051891854041048208e-03 -1.279729697205285177e-01 5.247178672409307243e-01
-1.174233475957881245e-01 -1.045051566673935450e-01 4.672017059928575966e-01
-1.023414916105756453e-02 -1.183452382893405708e-01 4.804160978963772366e-01
-1.130642070710519316e-02 -1.272946202856941322e-01 5.100740325256094554e-01
-3.003663412035278979e-02 -1.234195077244041872e-01 5.166436666591280868e-01
-8.275541520926030237e-02 -1.126442640949293500e-01 4.652935290163139337e-01
-4.501689854982867181e-03 -1.249569650380720209e-01 4.955477516067048893e-01
-2.903781780479744792e-02 -1.059657278715601947e-01 5.516995096844262703e-01
-1.091502175515968870e-01 -1.115167393399802975e-01 4.642046274556102525e-01
-7.629204802895393767e-02 -1.186447777323112740e-01 5.197760011209053843e-01
-7.378149980449702494e-02 -1.154223492496075781e-01 4.756829004545857775e-01
-9.939724671595009942e-02 -1.225620137660659581e-01 4.813296445841280247e-01
-5.078109313138987058e-02 -1.207670113699057801e-01 5.045321532909073925e-01
-1.122610217731603299e-01 -1.205142119290430885e-01 4.808873331450901900e-01
-9.698871400444099289e-02 -1.172889723401721179e-01 4.636528151234044492e-01
-7.559804726587757151e-02 -1.026817244362962372e-01 4.570629334651772346e-01
-9.061678675493577834e-03 -9.933074399130557841e-02 5.687733497287348339e-01
-7.937035363436423241e-02 -1.163544139887543183e-01 5.212167754284632304e-01
-4.152244653830560600e-02 -1.068127886757229000e-01 4.689199285765566216e-01
-1.157088933946301759e-02 -1.266761422737374687e-01 5.275615034749769894e-01
-4.996529351415056330e-02 -7.037381436113177013e-02 4.424260917790781011e-01
-7.961219737066944913e-02 -1.211318529535665295e-01 4.918557367855895812e-01
-3.573456800580186027e-02 -1.225573305296259879e-01 5.163682694208645563e-01
-1.089227995806438427e-02 -1.232951258239791265e-01 4.921508309445191132e-01
-4.290371165207401000e-02 -1.083807308034828026e-01 5.413069503872914856e-01
-1.400858406744891205e-02 -1.222552345866864398e-01 5.462132417345901825e-01
-8.440502380680560413e-02 -1.199228937787545912e-01 4.775152010793849988e-01
-5.282699562317037800e-02 -1.200673179440900212e-01 5.236904251948418798e-01
-7.911891210521830586e-02 -1.041441940017919093e-01 4.575200181578890635e-01
-6.968421875467117887e-02 -1.144520165268963774e-01 4.760274414850447777e-01
-2.268988663326693134e-02 -1.132290418940017362e-01 5.570447378529860272e-01
-7.554675686636264098e-02 -1.208178857278605217e-01 4.921588587509995172e-01
-5.569381616411914551e-03 -1.234656449952229035e-01 5.376784411895303428e-01
-6.451795775378393882e-02 -1.165306337311547424e-01 5.261890326405408436e-01
-8.214690945297389857e-02 -9.806720444138596060e-02 4.521744994385182848e-01
-8.282164883170534120e-02 -8.139051077959064129e-02 4.422811193310299260e-01
-6.974745617439605250e-02 -1.166299025320724492e-01 5.243084907776369707e-01
-2.060670907163777640e-02 -1.113450452400346208e-01 4.719880698780998807e-01
-9.565037780006058199e-02 -9.344818060632965884e-02 4.492031767026058442e-01
-6.551611200421567083e-02 -1.198808124978818362e-01 4.936427746376062520e-01
-2.960150780073451601e-02 -1.037844041210329582e-01 4.647386150427675888e-01
-9.634050451964383532e-02 -1.215067438051906229e-01 5.040371180866982659e-01
-3.115639608068773367e-02 -1.179612361981882962e-01 5.455564843912861228e-01
-6.850258341561273057e-02 -1.205268464126033195e-01 4.950767130214594469e-01
-7.487216952804971737e-02 -1.132258225900525800e-01 4.707631216568590737e-01
-2.931760009411134293e-02 -1.142210285874618314e-01 5.496920392898995145e-01
-9.591859019555348809e-02 -1.215260106654917904e-01 5.042061936044478498e-01
-8.790889632293806544e-02 -7.961610186615120099e-02 4.433869930093298772e-01
-4.012044962761963929e-02 -1.056071345154455943e-01 4.674025359928176138e-01
-1.660247071595209387e-02 -1.150090205614152788e-01 4.756813584135990425e-01
-5.764304003935204201e-02 -1.064576110870554954e-01 4.655404459679699514e-01
-5.695344036713721053e-02 -1.140168894299436048e-01 5.320490945224954915e-01
-6.879406770905178992e-02 -1.217385475610552881e-01 5.045312364882558187e-01
-1.061234320253342661e-01 -9.730531011276263853e-02 4.542905197174796350e-01
-5.494477412222181952e-03 -1.287325371058906376e-01 5.195446923066124878e-01
-3.459649039724962266e-02 -1.208670906975783110e-01 5.364772242503754729e-01
-4.695253288536978958e-02 -1.148849974634667120e-01 4.825854381969942319e-01
-3.544872158463582834e-02 -7.684901890640202793e-02 4.450599192772400903e-01
-1.098047276827818913e-01 -1.124670006307672276e-01 4.655721151007283787e-01
-2.239583979360947052e-02 -1.191826065165404042e-01 5.496346057837591115e-01
-4.305493220307359675e-02 -1.047083363293971198e-01 4.662920885855529884e-01
-5.163275927400570731e-02 -9.477413696730188630e-02 4.542025379226278803e-01
-1.228623634586271593e-02 -1.166106467326757518e-01 5.564987085110952858e-01
-3.771143621201501761e-02 -8.057234923669083504e-02 4.469558631829173012e-01
-1.174505081009947216e-01 -1.178964429193260083e-01 4.911107354329812269e-01
-9.263971736440443361e-02 -1.209648888966148306e-01 4.797885685472453310e-01
-8.273229417179590872e-02 -8.533943938078236702e-02 4.440000960254495976e-01
-4.509827265165174820e-02 -1.187080882942609245e-01 4.928662764251630635e-01
-4.409927095049828022e-02 -1.201785107515293133e-01 4.994137861242490262e-01
-5.262831598020908247e-02 -1.192017615203276454e-01 5.265737385828278549e-01
-1.036022634860150338e-01 -1.181441318052533912e-01 5.039435191342980236e-01
-1.345403098583238151e-02 -1.145772438324679232e-01 5.590545807580975524e-01
-1.192228954342430119e-01 -1.151024514981609237e-01 4.839956816388296112e-01
-2.047967761077273963e-02 -1.247449969325563485e-01 5.054584224871129239e-01
-4.223046387748001507e-02 -9.138756236398946908e-02 4.536982875382817859e-01
-1.075790320186888888e-01 -1.203324300362011018e-01 4.764603692257141088e-01
-2.005609934639793202e-02 -9.923433189384631148e-02 5.637670870316945360e-01
-6.598401536813527923e-02 -1.149060413637851275e-01 5.273853338253221557e-01
-8.635667575473472690e-02 -1.207220373794068713e-01 4.846837354120702712e-01
-5.020613237975447146e-02 -8.169799950301287472e-02 4.465065670118440466e-01
-1.922579934336257623e-02 -1.158651570046670687e-01 4.783742866328853371e-01
-8.036974822643137839e-02 -9.594700877754161472e-02 4.508937251415700009e-01
-8.020164322056025363e-02 -1.223493499648682648e-01 5.030326647399436801e-01
-3.364597112701616516e-02 -8.030794625255377461e-02 4.465490734010720275e-01
-3.710695305801400140e-02 -1.113085104753970128e-01 4.758941347940706112e-01
-1.164625776994943074e-01 -1.116662932481881643e-01 4.699845436720716529e-01
-5.122735462312871108e-02 -6.426307350409683761e-02 4.404523849277771630e-01
-9.142206441137132322e-02 -1.162744496804807293e-01 5.144655046012142074e-01
-9.017307420976660229e-03 -1.280911049531786583e-01 5.191483004224028974e-01
-9.576867792595336604e-02 -8.975686962787939038e-02 4.484307620003988304e-01
-6.435162427087182113e-02 -1.214163051279702338e-01 5.123042244291275971e-01
-5.897645734857663580e-02 -6.351199644803526279e-02 4.392660309944642072e-01
-3.079627243986233359e-02 -1.001174150881820046e-01 4.611719392308238907e-01
-1.195625298962443850e-01 -1.104618798322041934e-01 4.741813277952208749e-01
-7.103309089066096871e-02 -5.506405707103777247e-02 4.390705594561532532e-01
-8.214099794600526749e-02 -8.386338118661874896e-02 4.432100031798511530e-01
-7.139984884929490017e-02 -7.865524302625652442e-02 4.406701982615882640e-01
-3.977810662137265529e-02 -1.085138096534067342e-01 5.422836867485976153e-01
-1.005026679032430398e-01 -1.040313287601899034e-01 4.556255051245551857e-01
-4.936127228301194492e-02 -1.171092613878268879e-01 4.874156095940184175e-01
-4.617588735253651960e-02 -6.695394159840829806e-02 4.416145424980656431e-01
-4.080373442908077214e-02 -1.198525146103781719e-01 4.970269873706200103e-01
-1.146798311543086729e-01 -1.119171859670555769e-01 4.679684486765011697e-01
-1.188587975303445898e-01 -1.162662840522898505e-01 4.835543858076384316e-01
-9.481571672620311975e-02 -1.224680769835431032e-01 4.855838883561626740e-01
-5.269448186084545183e-02 -1.144688889644276536e-01 4.811786645761306769e-01
-9.438987056288533628e-02 -1.224627703743514373e-01 4.686370639767887813e-01
-2.103353465558209859e-02 -1.093080538784432371e-01 5.616513280137109820e-01
-2.880771493837993441e-02 -1.118682974950365311e-01 5.509409485387748440e-01
-5.498293345220253009e-02 -1.214105253342572244e-01 5.125038354129367590e-01
-9.309237933061258186e-02 -1.132273165701515594e-01 5.156342425977183952e-01
-9.096638954035469321e-03 -9.994605758836389020e-02 5.685391836426627599e-01
-1.087686521186050914e-01 -1.191333751244260664e-01 4.743220082722319764e-01
-5.146783488406830864e-02 -8.149733746261293710e-02 4.462096091452507074e-01
-1.904148622290988829e-02 -1.140133809463126924e-01 4.753467172151228937e-01
-1.671553656980542119e-02 -1.063073700578792830e-01 5.643887559241401730e-01
-1.150264026402960521e-01 -1.055447344284201200e-01 4.638355286530398969e-01
-4.761605046207032649e-02 -7.106584111303583529e-02 4.428507716602722577e-01
-7.794438085376452496e-02 -1.219396832698602384e-01 4.977919609137383405e-01
-7.015774177251118959e-02 -1.206859058143468777e-01 4.945080172313846001e-01
-8.942586418408594862e-02 -1.223522037753866781e-01 4.927026515917430904e-01
-1.057655073518312117e-01 -1.172196549395364829e-01 4.691581519771017006e-01
-6.623964788631592215e-02 -1.127635843039473534e-01 4.740937282262106534e-01
-9.288889220285440063e-02 -1.150713080400093680e-01 5.145558051164961233e-01
-1.065165217967693478e-01 -1.205122023741784232e-01 4.764404329910044700e-01
-6.923372726271229127e-02 -1.105897726398744896e-01 4.687666057922555973e-01
-1.831534814248106033e-02 -1.247971767446027225e-01 5.343239839485022236e-01
-1.286412533060181732e-02 -1.220328131906702473e-01 4.893456070666452051e-01
-9.111011475138514060e-02 -1.220330654857427893e-01 4.870456562318827842e-01
-7.968630002941932966e-02 -9.979831830921739866e-02 4.538072352975859869e-01
-4.385428642962056756e-02 -9.017436358796930562e-02 4.524354175068976414e-01
-4.839819079471940899e-02 -6.140017092958521827e-02 4.399285800649693212e-01
-1.060585214592453945e-01 -1.171626517346662233e-01 5.031151231071779861e-01
-5.150767105375774618e-02 -1.099180432521878609e-01 4.727153378248549753e-01
-2.161994259861605566e-02 -1.249993226501278781e-01 5.113243927674085976e-01
-6.737025098901763820e-02 -1.012054523298857728e-01 4.571076422348370749e-01
-7.483310252123719086e-02 -1.154317212405414766e-01 4.750699327500399471e-01
-5.863582127089946028e-02 -1.071896334784973454e-01 5.337561819434915034e-01
-3.578621564843073935e-03 -1.289653000831722796e-01 5.218285649758758193e-01
-4.005988682324668204e-02 -1.144046558492197857e-01 5.406058870073487954e-01
-8.103294036448432935e-02 -1.158593975956846572e-01 4.709246606529014501e-01
-7.510401254177700991e-02 -1.162063173294976132e-01 4.765979639220965236e-01
-7.154726976810588113e-02 -9.919453373401870833e-02 4.546162560277181020e-01
-7.414216022417015328e-02 -1.054106298592503155e-01 4.602217577637638390e-01
-2.546528373490963837e-02 -1.180449209769313390e-01 4.869124601185528811e-01
-1.026484558727563529e-01 -9.178964173580794750e-02 4.512057660274474968e-01
-5.046896990026688429e-02 -9.846440150520391343e-02 4.575826317605923288e-01
-1.179326260849345165e-01 -1.012662049025909450e-01 4.706379856828810659e-01
-1.165128610045753077e-01 -1.201307429531789928e-01 4.896153111850631290e-01
-8.402794267535583506e-02 -7.203270952014084738e-02 4.398111897129953762e-01
-3.833266046534325455e-02 -1.078940008895070413e-01 4.705448176782683345e-01
-8.548726474910194051e-02 -1.137843083193433996e-01 4.634164521589712038e-01
-5.551846949162629608e-02 -1.199511187453287109e-01 5.234565625376208509e-01
-7.506980616911693160e-02 -1.092470312965265061e-01 4.641830701888958188e-01
-1.010789656963846234e-01 -1.121987157343437985e-01 4.619909653829320506e-01
-1.620109396265638144e-02 -1.182185437029050490e-01 5.535994275712998736e-01
-9.708124390671026005e-02 -8.196983497750791325e-02 4.495115555482299130e-01
-1.504802038744559173e-02 -1.268611999360767795e-01 5.209791008729350859e-01
-1.023397816033036339e-01 -1.074054169090609273e-01 4.584848710493755752e-01
-1.185001375401396884e-01 -1.045058740607122949e-01 4.697608285050616783e-01
-9.985237564862252391e-02 -9.803185153807020269e-02 4.519052269105277020e-01
-7.474680037619771400e-02 -1.166856526310986464e-01 5.231478011599522970e-01
-4.174154124255943094e-02 -8.989120837515802986e-02 4.525880321212437107e-01
-9.074215061092255619e-02 -7.869491010958669375e-02 4.456451488303411201e-01
-3.592421799464122489e-02 -1.094357149029682591e-01 4.728343983202961121e-01
-7.285543665653468337e-02 -1.159305544123845066e-01 4.773554837903835613e-01
-1.166587050694032207e-01 -1.183991582927633318e-01 4.916667506113617803e-01
-1.928326078643932684e-02 -1.105265177154825390e-01 5.614068852186069325e-01
-1.018535290574770491e-01 -1.199650249982111283e-01 5.033552667856229235e-01
-2.557939601595574444e-02 -1.243394513266645740e-01 5.175464386918654514e-01
-6.976818124546900479e-02 -5.219615700288168791e-02 4.400358412024562571e-01
-7.404524657177134761e-02 -1.168437951685209614e-01 5.230701464659287536e-01
-3.238611492743806441e-02 -9.843653231834180450e-02 4.600184627609532617e-01
-5.841653269778222107e-02 -1.122325760477813905e-01 4.751065207584995176e-01
-1.059307069957854119e-01 -1.077761068006445194e-01 4.595976995186147884e-01
-9.413631011492687439e-02 -1.056099164598432172e-01 4.561058099620394213e-01
-6.678214252721044464e-02 -1.177807906683472627e-01 4.855577006830925080e-01
-9.714523643836653344e-02 -1.229126562697111791e-01 4.714610406237341733e-01
-1.097592314291670756e-01 -1.206385563214890239e-01 4.971161957116430052e-01
-3.982384805912323605e-02 -1.109319753817602366e-01 4.754573157616802104e-01
-3.749029121992442093e-02 -1.220742670987100681e-01 5.094155877777595265e-01
-2.129007426480425749e-02 -1.061706380534052779e-01 4.648792781115426154e-01
-4.753005195679056716e-02 -1.198838693001903349e-01 4.989219393549739201e-01
-5.471933941075753788e-02 -9.262479380220657588e-02 4.517720156186391667e-01
-7.723865585130229583e-02 -8.773676356665560672e-02 4.456130868868341532e-01
-3.616131873467875318e-02 -1.137988029559316022e-01 5.433458189537452299e-01
-8.980338126774251029e-02 -8.822420247945700345e-02 4.463168251404059927e-01
-6.748547608796867658e-02 -6.859313080464246593e-02 4.385232142458213578e-01
-7.697751583489703675e-02 -9.614598077328098680e-02 4.515031286091898965e-01
-1.152778430691843436e-02 -1.272770233151769292e-01 5.106518494847522849e-01
-5.562917805526309406e-02 -1.134903472163504984e-01 4.784246543257368867e-01
-4.149612590979551152e-02 -1.218760274675578237e-01 5.236853064785284007e-01
-3.761419595318177961e-02 -9.436224461039659228e-02 4.565895778728566445e-01
-9.574297708101578430e-02 -1.217537342794598326e-01 4.763012903598476400e-01
-8.961198423347432884e-02 -1.224746563863055998e-01 4.996061803779869304e-01
-2.327397920448275037e-02 -1.162770820737155791e-01 4.817191308018071716e-01
-4.456053389706807200e-02 -1.214479288164180409e-01 5.242560136296897655e-01
-1.061418396194109132e-01 -1.172640885295599261e-01 4.693892664694955252e-01
-3.942962221843200610e-02 -1.125074260463335696e-01 5.420423295558847165e-01
-5.285564314274070197e-02 -1.065092507052168430e-01 4.668243993484373910e-01
-7.660043246923876892e-02 -1.038939177052727453e-01 4.580403976094527541e-01
-5.947504086012430496e-02 -6.989388150697126156e-02 4.409186678402339243e-01
-1.006658000054625329e-01 -1.214367374806053224e-01 5.011800467292594208e-01
-6.432325142982689425e-02 -1.215809675128105560e-01 5.104457938502495740e-01
-4.765947788347305730e-02 -1.149258417184230580e-01 4.825998873557748037e-01
-5.412888928815240419e-02 -7.254026435556318320e-02 4.425833067979880187e-01
-8.974992986461763356e-02 -7.923651539264284227e-02 4.444849589804103496e-01
-2.475950550861631336e-02 -1.161221591235128414e-01 4.825440143593399678e-01
-8.574528428477509734e-02 -8.675437392287072003e-02 4.451510057972472012e-01
-5.317338630052625970e-02 -1.206276269777615678e-01 5.218917295898379827e-01
-5.793534297004476058e-02 -1.209905740798830620e-01 5.053705353459458927e-01
-6.047387163390915976e-02 -1.007447971195387371e-01 4.577729065955181142e-01
-5.110147379869725559e-02 -1.211935784332462684e-01 5.089074018212090822e-01
-5.272642321648862013e-02 -9.925756973233634817e-02 4.576726956717651618e-01
-3.262445771071197792e-02 -1.172265483924221502e-01 4.874897205476688700e-01
-5.947911200530064946e-02 -6.862470207847659598e-02 4.405429946586265078e-01
-5.484399425454494076e-02 -9.643887602359658973e-02 4.549052370412655089e-01
-1.114630594058728247e-01 -1.161769349135825247e-01 5.005614897781531791e-01
-6.784201626118389894e-02 -1.115788872226895351e-01 4.709746566666695999e-01
-8.552897381547204525e-02 -9.222426153120544257e-02 4.481105507416325850e-01
-6.043734358501366699e-02 -1.206321395995433032e-01 5.183123891509044956e-01
-4.106848092435120418e-02 -1.220351640138503252e-01 5.161044179575337010e-01
-6.140665425256999765e-02 -1.210846584677691407e-01 5.030407963527514514e-01
-1.087159421504188400e-01 -1.170571196023866972e-01 4.703406887799841396e-01
-6.644671074475622108e-02 -1.160809405274460387e-01 5.261184802079638123e-01
-1.387589838874471980e-02 -1.211763595575173352e-01 5.486727118746513865e-01
-7.632285129799132317e-02 -6.425229940379244276e-02 4.366394339994363327e-01
-8.714366256195590910e-02 -9.872621540035306231e-02 4.519546111624114793e-01
-6.998327204443939575e-02 -5.832359121017676590e-02 4.376528395608610400e-01
-8.225952703665559418e-02 -1.055430133886529898e-01 4.579621289232571058e-01
-4.340890811979395553e-02 -1.217189645026425932e-01 5.202184324923447845e-01
-1.060646042892763596e-01 -1.192632088867219275e-01 4.735124741119735581e-01
-6.620216249435216527e-02 -1.110549196874008465e-01 5.292776928517972657e-01
-3.215918399372630354e-02 -1.048342275089265418e-01 4.664388411690975067e-01
-6.737436346666325626e-02 -1.197519411022272551e-01 4.917231216845258657e-01
-1.041259514316511675e-01 -1.121861334865969506e-01 5.080363455712650911e-01
-2.875222664938219957e-02 -9.841015529203017698e-02 4.591738398824937728e-01
-9.927964300951339083e-02 -1.220211617565274687e-01 4.753109596256593905e-01
-8.527923297378154840e-03 -1.281631887171650330e-01 5.202596956411918994e-01
-1.687304568520371639e-02 -1.241966613627540489e-01 5.374942744377367854e-01
-2.283785623117408348e-02 -1.134353936875348162e-01 4.766398779076261860e-01
-1.158407048452308186e-01 -1.039309940153206185e-01 4.642457754337047104e-01
