-5.118595269399668635e-02 -1.174677054570755358e-01 4.898604488263576529e-01
-5.774208653786231521e-02 -1.047225330493973122e-01 4.637345235121519971e-01
-3.349711935766121196e-02 -1.203979029817248136e-01 4.973762655041171765e-01
-5.965690131822123932e-02 -1.107092067194796609e-01 5.323013200160913172e-01
-5.868303210278191101e-02 -1.205284209168494824e-01 5.185951481384609707e-01
-5.051996948019283479e-02 -1.193146856008663603e-01 5.279601620382435856e-01
-5.009245571054035673e-02 -1.179173164743358287e-01 5.318081996164495395e-01
-7.713439189636933646e-02 -8.598001290434113819e-02 4.450052099505283354e-01
-3.211475964053882998e-02 -1.031874871300242080e-01 4.648952601404123253e-01
-6.407896467111681704e-02 -1.058414280269602964e-01 4.635951676108373554e-01
-3.207891714550466233e-02 -1.174607710172299313e-01 5.451956085566608268e-01
-9.499460295386466524e-02 -1.209491594078028615e-01 5.059557502252983729e-01
-1.170011041625940162e-01 -1.133725823878780486e-01 4.741492322961488037e-01
-1.041180416926227453e-02 -1.077272481952595146e-01 5.649323233994399951e-01
-3.707396618583657516e-02 -1.220037592308541585e-01 5.099815133952483315e-01
-9.945689929752256353e-02 -9.850768292414080474e-02 4.527793635997209853e-01
-3.102037668919956429e-02 -1.228783126816722221e-01 5.287972892420169657e-01
-7.146583169735770680e-02 -1.011272863539242478e-01 4.570287820762485853e-01
-7.156643095066837941e-03 -1.223204431368452305e-01 5.419396229968351797e-01
-2.645056564066195284e-02 -1.074583179096292168e-01 5.552931999630351667e-01
-6.835417494147313922e-02 -1.213145462481692444e-01 5.097855039823043777e-01
-7.161090479462368930e-02 -1.176489632124326362e-01 4.838159329987291590e-01
-3.556870503176522841e-02 -1.060023014026037630e-01 4.683526667342097771e-01
-5.988776830179975974e-02 -9.499602190152837966e-02 4.532364210263546966e-01
-6.282183097839383334e-02 -1.211990950552613994e-01 5.117374713993784185e-01
-4.700618928220853809e-02 -9.514146379982842128e-02 4.560399826981691995e-01
-3.076106067468771521e-02 -1.194240446292103297e-01 4.926822920485939838e-01
-2.205054553948117627e-02 -1.250946637003390871e-01 5.234000383662755773e-01
-6.338746673644111984e-02 -1.212930458954523255e-01 5.108719958581541265e-01
-3.232052512617188816e-02 -1.011980709904252290e-01 4.628573702670003009e-01
-2.293747792810237399e-02 -1.135214728588646582e-01 4.770584293330564774e-01
-2.912171921600608532e-02 -1.235547664574022514e-01 5.201056047769643254e-01
-9.695517532321856757e-02 -9.988120789168403180e-02 4.533000168640490268e-01
-3.596381257795130265e-02 -1.177807728567288603e-01 4.896996762671345649e-01
-4.842567522009849634e-02 -7.328820467446482689e-02 4.438252430219687406e-01
-4.731986727194979064e-02 -1.202657275385737995e-01 5.271881427270395104e-01
-6.993918039920146712e-02 -6.302393140531918625e-02 4.373608754644577323e-01
-5.224158403825356761e-02 -1.117199311120000982e-01 4.765852304782785542e-01
-4.064084979265587122e-02 -9.397997100132494952e-02 4.563026458911683680e-01
-4.900584521110193381e-02 -1.195691422659431180e-01 5.288389615598251270e-01
-2.675183657866232051e-02 -1.240058475778339081e-01 5.176173477687086022e-01
-9.810938656175664796e-02 -8.841267562165992799e-02 4.502742102708895411e-01
-8.244641635994118256e-02 -1.100787893851936372e-01 5.228533038225564589e-01
-3.048181415856031709e-02 -1.232038171986500896e-01 5.158297110182471501e-01
-6.302352554531037709e-02 -9.399671855195788905e-02 4.519938929288317420e-01
-9.187528154606909581e-02 -8.066448470873456567e-02 4.464872090877699540e-01
-7.077004452188251360e-02 -1.198059068533643690e-01 4.914790037181477889e-01
-1.108761531568774050e-01 -1.034806449702539433e-01 4.589928306725457596e-01
-4.553594550138002905e-02 -1.150468618938709359e-01 4.836353412995190171e-01
-9.726546146455222752e-02 -1.224485065484208074e-01 4.871698427900763573e-01
-3.705175435840270953e-02 -9.500974241651803653e-02 4.574922700264933417e-01
-2.543808433096692717e-02 -1.032654229933873125e-01 5.561352247261238668e-01
-6.818522316950351159e-02 -6.613317072288645015e-02 4.381387073577171498e-01
-8.110944256079503922e-02 -1.120903156274417334e-01 4.665804168506911820e-01
-8.711614964901839842e-02 -1.084880657220237132e-01 4.603750171338314989e-01
-3.280593734438010806e-02 -1.105312021270014600e-01 5.466216982053699880e-01
-5.717394899434725952e-02 -5.825160379979358455e-02 4.388212630604277908e-01
-7.580924873647795770e-02 -1.135622215284816938e-01 5.259346045220301136e-01
-8.927724372273744546e-02 -1.201033961957324592e-01 4.815037181244118947e-01
-2.790430151841630582e-02 -1.221190736604116367e-01 5.007714998631779268e-01
-5.018991727997981767e-02 -1.078747020340224821e-01 4.701452444603959613e-01
-5.996143313790107399e-03 -1.224925849543320178e-01 5.408026902387493839e-01
-7.980152994094953656e-02 -6.657000320910279323e-02 4.385732587201774391e-01
-7.090460701914821917e-02 -5.308442224996424291e-02 4.399848240648461251e-01
-1.092480398763290804e-02 -1.070707373398636642e-01 5.651623087512616106e-01
-6.079112732079487540e-03 -1.273396792176961501e-01 5.056412286076209517e-01
-2.140576733335266407e-02 -1.073755876220664901e-01 5.618438343224798626e-01
-1.085496186370183726e-02 -1.191360311018440643e-01 4.825659207188304212e-01
-3.073339052320344864e-02 -1.223773203153157851e-01 5.335580700053489389e-01
-6.022428297694883137e-02 -1.098706641782726673e-01 4.710446489358711686e-01
-6.150343381436360751e-02 -7.688175073721296993e-02 4.427591890469424474e-01
-1.006782943491547760e-01 -1.224551311377664042e-01 4.881109757223944801e-01
-3.274865924581652626e-02 -7.961736929199414448e-02 4.461876187861870680e-01
-5.539335164567420200e-02 -1.112664852178006092e-01 4.749104981938653824e-01
-9.761877283339945310e-02 -1.217060486444298401e-01 4.994338155430543824e-01
-4.801792995789979507e-02 -1.127794125279340115e-01 4.790287875673067131e-01
-5.483018465680530862e-02 -1.178546569881306350e-01 5.290465028174595741e-01
-1.089316015525091108e-01 -1.021909538403494994e-01 4.570125251940612143e-01
-7.037292928409057124e-02 -1.209924908266739180e-01 4.980684369259594235e-01
-9.029547111453269104e-02 -1.207086615925478390e-01 4.718930058461056620e-01
-1.315962331005399513e-02 -1.252657358643967100e-01 5.006115382928209012e-01
-1.163943349602891281e-01 -1.174002982012848223e-01 4.800021928885822020e-01
-7.759216988108538771e-02 -1.172854293730625913e-01 4.786167364892234266e-01
-9.178277513114539710e-02 -1.221060233384280574e-01 4.905550454159693929e-01
-2.057601374594858132e-02 -1.252764926106571530e-01 5.132564980278226940e-01
-8.350980054971993138e-03 -1.273601859939677838e-01 5.075730666695438265e-01
-1.152792515251099825e-01 -1.187830578852062946e-01 4.925890532417334655e-01
-7.416259422737403462e-02 -1.114143264092364166e-01 4.690476593716745857e-01
-2.931795378073936628e-02 -1.057640097984069855e-01 5.513316009978899146e-01
-6.086528064064133242e-03 -1.228813503678702901e-01 5.395839942012916612e-01
-6.203195282559995083e-02 -1.026706346665757913e-01 4.601999583721738674e-01
-8.714707805298056026e-03 -1.279482165989467846e-01 5.239993372954028228e-01
-1.473887113398872524e-02 -1.252862274394680731e-01 5.327944042780996536e-01
-5.245085085950972059e-02 -9.825258065159624132e-02 4.573922696006639255e-01
-6.541081421658853645e-02 -7.394227435580086327e-02 4.408401169169955947e-01
-6.555447680720719039e-02 -1.092761460874961954e-01 4.687293548089256912e-01
-2.764315511771414310e-02 -1.232104344380345051e-01 5.317447227133959009e-01
-3.058800719559192499e-02 -9.740416254904364635e-02 4.590228887327181817e-01
-6.229808427927036735e-02 -9.666959957669864212e-02 4.541397963551590533e-01
-2.338009660826973618e-02 -1.246751346426200058e-01 5.281057682027689992e-01
-2.710107601651022546e-02 -1.144518524881811550e-01 4.806722791978149112e-01
-3.517953942045343174e-02 -1.170134396893161705e-01 4.876899611625049036e-01
-8.384489951642891403e-02 -1.096519339358386497e-01 4.622469987103520195e-01
-5.508574199788898035e-02 -8.642075904546914211e-02 4.483725123836459492e-01
-8.787218897908084109e-03 -1.208827695627968102e-01 5.472421507393246953e-01
-4.685533046509343658e-02 -1.128849009141179860e-01 5.373978157714364157e-01
-1.092151803389499604e-01 -1.131853101762017172e-01 5.038890460368681268e-01
-2.627057492776909212e-02 -1.239766871633706941e-01 5.136048222123758000e-01
-9.005424309851754738e-02 -1.173611319255237623e-01 5.145825440763683867e-01
-1.847875154088335012e-02 -1.208408632661649718e-01 4.895389205877065941e-01
-1.128289308571198829e-01 -1.028112321298077642e-01 4.607936284144699135e-01
-5.331635315966988531e-02 -5.844463800569917045e-02 4.392491216156823586e-01
-2.535687966666668250e-02 -1.191597974394531245e-01 4.898090898552662220e-01
-1.074167793642915592e-01 -1.143175214978376930e-01 5.042438836411380354e-01
-3.991676335371965867e-02 -1.219545119239179992e-01 5.212948454017691802e-01
-9.093333498685050864e-02 -8.764731539083167600e-02 4.466949332877547807e-01
-6.062939259859254082e-02 -1.081053133536976490e-01 5.327023342231658187e-01
-6.866815801901947347e-02 -1.213046430193595593e-01 5.034397079279577802e-01
-9.802264375516878125e-02 -1.072426483907399503e-01 4.584385449969826665e-01
-1.077696758141708649e-02 -1.159758378660566414e-01 5.574260987819514845e-01
-3.583335627914453758e-02 -1.198626712294451474e-01 4.962792362328334317e-01
-5.596608074257034687e-02 -1.190152922480925413e-01 5.257777921273441013e-01
-6.624608375263316140e-02 -1.047939939482484262e-01 4.617629369172140397e-01
-3.633635272359212517e-03 -1.289160049017943621e-01 5.211060122606776535e-01
-2.289270295798596228e-02 -1.248537764371901310e-01 5.178632763255299754e-01
-3.505226563412934537e-02 -1.103670069006969373e-01 5.447585818094882182e-01
-1.092062254959096090e-01 -1.185778530196293368e-01 5.003715583196211014e-01
-1.337060788489285654e-02 -1.202456175968014546e-01 4.857001120670088601e-01
-5.980118086490519846e-02 -1.203269479192174696e-01 5.195425511611391212e-01
-8.199471229204895184e-02 -1.158021721379405428e-01 5.204583766218754404e-01
-2.935625058514814215e-02 -1.151392190833437912e-01 4.828806697018899197e-01
-7.423182053407648140e-02 -1.014171752294193429e-01 4.568074497312473170e-01
-2.735406650316475619e-02 -1.203021170372494952e-01 4.937471771351565342e-01
-1.090626215876115412e-01 -9.763924070633885066e-02 4.561210859208250645e-01
-4.478529237471016999e-02 -1.213783931659035975e-01 5.206586731380210553e-01
-9.374255170772584356e-02 -1.219273158342325386e-01 4.869420141767116794e-01
-2.402136052205750688e-02 -1.213143694594014804e-01 5.439025601784804875e-01
-5.044709506153716161e-02 -1.016291519947299105e-01 4.614159559566079483e-01
-1.805110066661955864e-02 -1.163002736347697880e-01 4.788261015722594105e-01
-5.625076778044780373e-02 -1.178152945740298385e-01 5.285264084274040597e-01
-7.937378815074534744e-02 -1.172210522367625740e-01 4.767331547036572914e-01
-1.573283562869026014e-02 -1.266486883212822045e-01 5.215047344496136494e-01
-2.904096490924970575e-02 -1.090134755675285783e-01 4.719779200105271855e-01
-9.064288909954736073e-02 -1.002443107706813830e-01 4.534370320046416936e-01
-1.069270705572728519e-01 -1.149294075252417363e-01 4.681233543842207578e-01
-1.174867776412033687e-01 -1.174008775651806807e-01 4.914493259866566932e-01
-3.957666936328315538e-02 -1.141565803084574338e-01 5.411671996107377813e-01
-8.510623623324821418e-02 -1.106671673607951822e-01 4.628572331699972731e-01
-2.828918039259561285e-02 -1.056609646144549691e-01 5.527474702786525640e-01
-3.620005751865723598e-02 -1.184801495989482728e-01 4.917468485666138811e-01
-2.835486501868539344e-02 -1.173221195730830002e-01 5.481113963292599811e-01
-4.110302219045452315e-02 -1.000539934557374416e-01 4.614912569231341966e-01
-1.066914282262287905e-02 -1.214274267541753938e-01 5.471831503481199288e-01
-5.183440462964562095e-02 -1.197923157749453821e-01 4.997127292561389655e-01
-3.652516230536483055e-02 -1.217593079893051489e-01 5.301201785815481404e-01
-7.108516216508654895e-02 -1.023278743465134005e-01 4.583595861771244673e-01
-7.199132807634851805e-02 -7.821975780262796496e-02 4.408499741668325811e-01
-3.373279447288309030e-02 -1.113197634320204493e-01 4.760806263511225822e-01
-7.316953176512318302e-02 -1.008218819413537887e-01 4.564510272828556925e-01
-4.263854798400953244e-02 -1.184766257740860890e-01 4.927745026584838817e-01
-1.436193590096702076e-02 -1.209415768272319447e-01 5.489596660960602836e-01
-9.166618784694337274e-02 -1.213242916810265137e-01 4.746593344640476775e-01
-4.038299294407348555e-02 -1.194569206533779709e-01 4.960377527841027256e-01
-3.959706124065229954e-02 -8.873893594269968710e-02 4.521475436062793452e-01
-7.829741203401222038e-02 -1.170293978974502047e-01 4.775014290479057122e-01
-5.208673202798303620e-02 -1.176313717424389421e-01 5.309872059071726325e-01
-4.178705319143287411e-02 -1.204161603576797551e-01 5.340350177912386309e-01
-8.053880565902139799e-02 -1.176632621376175192e-01 4.764000971601512480e-01
-3.011735074024062681e-02 -8.847640307626300493e-02 4.516333097817021858e-01
-5.955290226930288339e-02 -1.063719899113426681e-01 4.655983423910435848e-01
-4.848347819842255962e-03 -1.274441099068944760e-01 5.052293180880456092e-01
-3.673934852260295203e-02 -1.086598477110644057e-01 4.721597954144756693e-01
-1.029887259106672531e-01 -1.175357203790113880e-01 5.049693165572907150e-01
-3.999790931517670928e-02 -9.567049179663218716e-02 4.577360497480468249e-01
-4.139689461132841503e-02 -1.069637004218834120e-01 4.696316000742822294e-01
-1.140539886148095733e-01 -1.203323696176765711e-01 4.891761601173206242e-01
-4.290474119540350212e-02 -1.216064377419399517e-01 5.217028911145318304e-01
-2.474772862443723465e-02 -1.072011415001156848e-01 4.682682278016576660e-01
-7.250962364937017790e-02 -5.999350452896403535e-02 4.374604585325644335e-01
-9.872121416387236170e-02 -1.072234732494070641e-01 4.585551161430820866e-01
-2.260701119399720349e-02 -1.170710759883154817e-01 4.828477300557051377e-01
-2.759105382783714686e-02 -1.098009938892192672e-01 5.537703213004951941e-01
-2.508212713990998211e-02 -1.188432170427321244e-01 5.485120488497257085e-01
-9.026307079816688062e-02 -1.180819654759059367e-01 4.662290359665601236e-01
-8.518398948290947792e-02 -1.204712023036232371e-01 4.872683869422130276e-01
-8.005799492675133577e-02 -6.296735358405282368e-02 4.391148866797378036e-01
-3.499602796513774650e-02 -7.625435447103313946e-02 4.449280152182477077e-01
-1.273184906575838479e-02 -1.174587278579982685e-01 4.794161160564371360e-01
-1.114563108595575947e-01 -1.160488765571744268e-01 4.717130021541586227e-01
-2.961421706874514670e-02 -1.095089188801839364e-01 4.727084700765006309e-01
-1.191906067098156691e-01 -1.151620659395984764e-01 4.849815949064796294e-01
-7.813052236755069213e-02 -1.213379334805485404e-01 5.101450674640707339e-01
-1.046897825230495988e-01 -1.104972754086315234e-01 4.626326339217867734e-01
-3.314162244376844813e-02 -8.578129998342112761e-02 4.502471529959483076e-01
-9.328810253765298932e-02 -1.068980851762368761e-01 4.577677103124493940e-01
-5.860977585135986739e-02 -6.073122223407899367e-02 4.391088708192549817e-01
-4.981019572048369509e-02 -1.092913140543578521e-01 4.727983411349759302e-01
-8.039032284778446780e-02 -1.192054477155356229e-01 4.861271381684170168e-01
-3.755806881146991211e-02 -1.121684009526506404e-01 4.778780234445410557e-01
-8.723376105908800526e-02 -1.190088703971622364e-01 5.133144674562256649e-01
-3.951007579007332488e-02 -8.919816055918024233e-02 4.525109396408457108e-01
-1.863529729890360531e-02 -1.218633839974337663e-01 4.925108359461747298e-01
-5.636995154455085033e-02 -1.148202346815536679e-01 5.319976328846013347e-01
-8.746696868876652209e-02 -1.210068501193967971e-01 5.088620937731335170e-01
-7.392603174738501814e-02 -1.202778182995609263e-01 5.158250901557289714e-01
-6.702682164970948098e-02 -8.204372636489823400e-02 4.434776194637812807e-01
-6.259126584737542687e-02 -9.242543788045747000e-02 4.509077361561553143e-01
-9.448939753398435948e-02 -1.036024700614210370e-01 4.556890021105411970e-01
-9.217648958970657558e-02 -1.211676759204513981e-01 5.065704576950118554e-01
-9.180829477626535617e-02 -1.177808542035132383e-01 4.630106955516382072e-01
-5.989656873493577616e-02 -1.073711141890802551e-01 4.670001356313936425e-01
-7.691083061231045181e-02 -1.028416271151744721e-01 4.577086428524925754e-01
-1.004707085231523606e-01 -1.175197131061526956e-01 4.673272111655293326e-01
-6.677290223579421258e-02 -9.496701648076233404e-02 4.522841275327847410e-01
-8.418429942254464227e-02 -1.131580938889201610e-01 4.653278845649481132e-01
-8.080126781943711145e-02 -1.200542459177631055e-01 4.895988303883645476e-01
-4.323087130965420216e-02 -1.202666502523585257e-01 5.006336822761200400e-01
-8.791486636311103553e-02 -1.208893547064242013e-01 5.090236305124402616e-01
-6.508635215451666345e-02 -1.183844738472327324e-01 4.894735030394635200e-01
-5.709320220820413017e-02 -1.039145250714592211e-01 4.627457669334080759e-01
-3.620073409926966024e-02 -1.221261093226925221e-01 5.272188856144841562e-01
-6.294363835481410485e-02 -1.142101237626946264e-01 4.791711675155792549e-01
-1.047763542926836433e-01 -1.221917799731267323e-01 4.937631659721364308e-01
-6.023996733163203970e-02 -1.130826450573862996e-01 4.774603302062586652e-01
-7.808402403231494426e-02 -7.211423119652379810e-02 4.389082031213578095e-01
-7.631392720259354279e-02 -1.134058851201064783e-01 5.258853439027956211e-01
-7.465237069704319661e-02 -1.185438179935805469e-01 5.199769650685385214e-01
-5.063772780075227742e-02 -1.211056460158894815e-01 5.180373065091352647e-01
-1.726890907025055086e-02 -1.167687927554820621e-01 5.558617705555725097e-01
-1.082557282475816868e-01 -1.127235067627114784e-01 5.047425942172131252e-01
-7.224904208496971125e-02 -6.691635069639578770e-02 4.375389824679989936e-01
-9.163183285778940534e-02 -1.161915290627997116e-01 5.145671430057201512e-01
-2.070575369089622600e-02 -1.250376058961840120e-01 5.300967582624307450e-01
-6.701432933562678773e-02 -7.095678308148903324e-02 4.396302007276239321e-01
-1.145229644846329359e-01 -1.202473824955467702e-01 4.883011741779850756e-01
-4.657929816179666449e-02 -1.164809984130714543e-01 5.357810981276174278e-01
-3.976171565436670274e-02 -1.010012134033401732e-01 4.625857760377095063e-01
-1.012917704973398947e-01 -1.194919941759912813e-01 4.700751139705204307e-01
-3.352553024546083699e-02 -1.159085801515451070e-01 5.447632544309100044e-01
-6.351346987209868789e-02 -7.924416213179423518e-02 4.430684676933405175e-01
-3.470458660817984237e-02 -7.908779001631291439e-02 4.462014384404165979e-01
-1.124140073805166840e-01 -9.867136044722069066e-02 4.596933714164317397e-01
-6.307778938353846010e-02 -6.643029058267162223e-02 4.393920968284168449e-01
-1.179482096060813501e-01 -1.178103791272489542e-01 4.901471233436492381e-01
-4.593325726241363760e-02 -6.719271513673527596e-02 4.419234134708336925e-01
-3.955988701293531445e-02 -1.082119543267176520e-01 5.425212464500474008e-01
-8.376542149276007543e-02 -1.211538969729125531e-01 5.101548061909840781e-01
-9.524271464059679004e-02 -1.151883631353580600e-01 5.136072755919721677e-01
-1.095063137849753288e-01 -1.171616381665426532e-01 4.723159724106982260e-01
-4.362031475909376038e-02 -8.371888085269994784e-02 4.486906190053160381e-01
-6.392019851825615773e-02 -1.127324140865757773e-01 4.757765460512762834e-01
-5.295833905528032209e-02 -1.197695274158579043e-01 4.995865506732319328e-01
-7.281294917955978552e-02 -1.145654811093111264e-01 4.756124780866303747e-01
-1.187369491044698577e-02 -1.250272460569590294e-01 4.988135817686581985e-01
-3.959401728477580928e-02 -8.854475509152530399e-02 4.519999106726345084e-01
-6.444757995249866811e-02 -8.927697223726144271e-02 4.483483809650644081e-01
-3.006608028039526800e-02 -1.218450413953536954e-01 5.367551156540464330e-01
-9.563409209690233725e-02 -1.218148814459126678e-01 4.993365127527713554e-01
-6.695403321417600639e-02 -1.206561516907813103e-01 5.162797670201926259e-01
-8.328887819711500162e-02 -9.554029118960330469e-02 4.509306357702818624e-01
-3.424264632285510535e-02 -1.223184794367463690e-01 5.285859543523115933e-01
-8.596880772502939541e-03 -1.230307809783644513e-01 5.403472723936315614e-01
-2.266295623554879374e-02 -1.165520381430034252e-01 4.819495185353107058e-01
-2.637660070813935276e-02 -1.044472988629663313e-01 4.649716019301932124e-01
-6.658485477014056131e-02 -9.727333005455428283e-02 4.541334242725280634e-01
-2.336841280881160957e-02 -1.234647675762194502e-01 5.027677457776911218e-01
-9.671642537696545361e-02 -1.223400337877220689e-01 4.725617346244916361e-01
-9.481830572127385170e-02 -1.212693069442001559e-01 4.768847538615142434e-01
-4.826472700459011334e-02 -1.209410087434797526e-01 5.079150145379559556e-01
-4.691284897498389922e-02 -1.213248595650310430e-01 5.132562693240416696e-01
-1.124926221743371285e-01 -1.201251627510693393e-01 4.948588647513992300e-01
-5.415045455302906763e-02 -1.206473215474079402e-01 5.051432779045037513e-01
-3.184888729421221643e-02 -1.015425470979001293e-01 4.631049789422925778e-01
-4.110232580176933354e-02 -9.238445206622859784e-02 4.549669110893763135e-01
-9.489116937857142164e-02 -1.084212165894690716e-01 4.586094763037396604e-01
-1.055488207080505086e-02 -1.252248289455800134e-01 4.988344595847052920e-01
-3.714926861911424516e-02 -1.200160901014983988e-01 4.972763135282228797e-01
-4.728308131031893485e-02 -1.067677247996369899e-01 4.690254144728787100e-01
-1.757464299543002456e-02 -1.048119020645699173e-01 5.648860565203395190e-01
-1.566878729928499261e-02 -1.055119794193636329e-01 5.649133206289309594e-01
-5.073875816837128405e-02 -1.134093589694689375e-01 4.800434194680310296e-01
-4.047787289565922542e-02 -1.215460772007763979e-01 5.277064002705097456e-01
-3.602356854629241295e-02 -9.234733233561794041e-02 4.553776688212064494e-01
-8.583543055662430643e-02 -1.197524103953278019e-01 4.794055383970528550e-01
-6.187036404143036322e-02 -9.648445278137297854e-02 4.540696318849485880e-01
-5.172023033721133943e-03 -1.287410347360846974e-01 5.198119010048268818e-01
-9.494441716539721299e-02 -1.101307547671760839e-01 4.597635549315111647e-01
-6.534138437147794798e-02 -6.623705328124861180e-02 4.387221292127496675e-01
-5.054578405678936820e-02 -1.199938553449823864e-01 5.009073207673857553e-01
-8.861181250365036954e-02 -1.202074542233111248e-01 4.780231596928851689e-01
-1.707085350318145872e-02 -1.262233893315732602e-01 5.168549035755758414e-01
-5.033565412491812670e-03 -1.277515600308416766e-01 5.070664142485377113e-01
-8.076276756699386772e-02 -1.167518139692151347e-01 4.742203203485437224e-01
-9.239296651597640742e-02 -1.200521326609940986e-01 5.096696587478286578e-01
-1.105840746893173021e-01 -1.194616524045874761e-01 4.988131241764043322e-01
-8.224164863467940678e-02 -9.520087891167654248e-02 4.508138696323317762e-01
-4.925551141194471627e-02 -1.199199616685625303e-01 5.261949400565534285e-01
-1.199019490641421888e-02 -1.009594695801361436e-01 5.673937699993941708e-01
-3.313456646123500576e-02 -1.183785853467612253e-01 4.909043153589554564e-01
-6.302248172792573530e-03 -1.247677063952555981e-01 4.957804237044238227e-01
-1.259926328467265294e-02 -1.159871942223511254e-01 5.575507963234570541e-01
-5.271768483282857076e-02 -8.601242988440904735e-02 4.485517966429078962e-01
-1.453156952642620930e-02 -1.236734900204846943e-01 4.957588021194302419e-01
-5.401559919232659657e-02 -1.115390122091251129e-01 4.757957443047440838e-01
-7.274929962424118990e-02 -1.108764678507559442e-01 4.687202510030021307e-01
-4.637866822492645036e-02 -6.737714413171458361e-02 4.419470224395271041e-01
-1.196887259863176935e-02 -1.163887719765380607e-01 5.568350990093698938e-01
-4.621933536088902034e-02 -1.195408577843635328e-01 5.322480717801796324e-01
-2.865858838429768962e-02 -1.236477585347384306e-01 5.198135445492091389e-01
-9.409394864331535602e-02 -9.091334058487685055e-02 4.483107234259025020e-01
-1.802495118004950395e-02 -1.245690241988837987e-01 5.024878268731353126e-01
-8.018470096382715462e-02 -9.256782584943749892e-02 4.491823274415057132e-01
-1.615243807682204338e-02 -1.212285133151833200e-01 4.891556168606789323e-01
-1.007301951567688841e-01 -1.181135068776904551e-01 5.072196302112755850e-01
-9.788144111598598429e-02 -1.186472174758434195e-01 5.099831529661922325e-01
-2.602992647505610047e-02 -1.236069093229211491e-01 5.083672325157518879e-01
-3.074609562168275495e-02 -9.300177907148766965e-02 4.553906959510530816e-01
-7.522663229911985550e-02 -1.035016464974188588e-01 4.587646775653596576e-01
-7.252403733248312390e-02 -8.438344447813331262e-02 4.442210097880588404e-01
-2.804272315308683344e-02 -1.235670252724786616e-01 5.283115783845224733e-01
-7.515419319418359390e-02 -1.208762409137621313e-01 5.135528303394605310e-01
-9.290565961657759608e-02 -1.068170948247997992e-01 4.577732234754752771e-01
-1.138104382119358854e-01 -1.041103042487578345e-01 4.624484870280116122e-01
-4.990602058795847590e-02 -1.019207752245186449e-01 4.619827522215873006e-01
-1.158517255338911561e-01 -1.195189273265234997e-01 4.840723034053300844e-01
-1.066898905989703134e-01 -9.071116312583227259e-02 4.565642677803894989e-01
-3.767700005936679836e-02 -1.065953664745986212e-01 4.691533252179239111e-01
-1.162626349093159733e-01 -1.032118386748154260e-01 4.653477427551482304e-01
-3.118419838533257812e-02 -9.373483530865886482e-02 4.561109620342491677e-01
-6.088074320185953708e-02 -1.205780699338719897e-01 5.170322187318359131e-01
-8.427333519243088156e-02 -1.219975819179904136e-01 5.017127583047025219e-01
-3.245860587085881710e-02 -8.574669324274100668e-02 4.501318556454424469e-01
-1.176640494312972129e-01 -1.164245300044905174e-01 4.922694496231690975e-01
-1.131564213885007802e-01 -1.189344158181452615e-01 4.781402402949940789e-01
-7.003481937144377667e-02 -1.037444828301446464e-01 4.600147179966103672e-01
-1.200013676138700497e-01 -1.132673278442611342e-01 4.886408858119229981e-01
-3.773388766323708399e-02 -1.137649916283770823e-01 5.426395162925615745e-01
-1.129533283205038652e-01 -1.140165004592661319e-01 5.004538337268326087e-01
-4.466057488180277812e-02 -7.162110928532046394e-02 4.434510469414156275e-01
-7.087339928611083306e-02 -9.915415639009793336e-02 4.552906750164727456e-01
-8.140949072271105869e-02 -7.043946103308000584e-02 4.390538399366026856e-01
-4.097790702850619138e-02 -1.148888405854530254e-01 4.833457865625089833e-01
-1.085786287505731279e-01 -9.322240049044125398e-02 4.571317549414397052e-01
-9.959790146720039206e-02 -9.420982490423165934e-02 4.509491697382749797e-01
-9.269262472887870863e-02 -8.281871987270619795e-02 4.462685200175859346e-01
-1.154776082454256197e-01 -1.187713166259439096e-01 4.803936589391676337e-01
-3.066720992566565260e-02 -1.222951785998350055e-01 5.342294727109759833e-01
-2.790420058631245398e-02 -8.961267125441547965e-02 4.519689400273334545e-01
-5.931249707994912940e-02 -9.164499831924298456e-02 4.508187787796055779e-01
-4.645377797476757387e-02 -8.498419110322963377e-02 4.490037153109340817e-01
-1.094827315662827705e-01 -1.143004962997746093e-01 5.030362890273938348e-01
-7.652286246127294744e-02 -1.211830246354340113e-01 5.118927078246519047e-01
-1.196013476527765934e-01 -1.145470026491259008e-01 4.887032931783366618e-01
-8.027016852905151378e-02 -1.145248264575207814e-01 4.709995446771847449e-01
-1.933322118680659563e-02 -1.106517846496734431e-01 4.704621198070900734e-01
-1.103485960238217295e-01 -1.182936252317747516e-01 4.750368617355811285e-01
-1.167717519526221825e-01 -1.197636438267732500e-01 4.892767186615514241e-01
-2.267307581043611839e-02 -1.247490810497739883e-01 5.125319527011250598e-01
-4.972976286797701519e-03 -1.267962589159649933e-01 5.313183826153683453e-01
-6.787459066585936618e-02 -6.556348614590377932e-02 4.380643789306366553e-01
-9.354605446668148860e-02 -1.083061386733964460e-01 4.585497612239469722e-01
-1.078282768917334100e-01 -1.030259250388357722e-01 4.572523889832196264e-01
-1.163289752996718857e-01 -1.108657241146417255e-01 4.701593838482573950e-01
-5.167125221916496480e-02 -1.170501508681232733e-01 4.882085203993340450e-01
-4.848054213706409765e-02 -6.943084165279132802e-02 4.424457744966143746e-01
-1.031681356963809332e-01 -9.349846386685939370e-02 4.518881672355480883e-01
-2.935105635908914420e-02 -1.225314179908486151e-01 5.043914635190056561e-01
-5.634623602743689397e-02 -9.469529976413132433e-02 4.536358862556936211e-01
-9.338394050488432740e-02 -1.222785407445314415e-01 4.954531578979198825e-01
-9.558590495090757422e-02 -1.221863065409849458e-01 4.969737607885387209e-01
-6.507893422512103787e-02 -1.145050706593707390e-01 4.790778571987104884e-01
-1.010709131669536437e-01 -1.158631609286437658e-01 5.096533334268730231e-01
-6.074608562919388277e-02 -6.241471518291620557e-02 4.390868886764195400e-01
-5.311559550088365556e-02 -7.221656999314987613e-02 4.429274628976926920e-01
-8.963675748396833509e-02 -1.175151889208618516e-01 4.640600185050020587e-01
-8.045010864558188590e-02 -1.158809136709715859e-01 4.727666270422143380e-01
-9.600569967462374565e-02 -1.224338636084332105e-01 4.721956293012952166e-01
-7.874997340151054792e-02 -8.370867185343601469e-02 4.434279921649796896e-01
-6.778080387720666899e-02 -1.135410373284993502e-01 4.761582251764711060e-01
-5.325601237929234594e-02 -7.681032285225158907e-02 4.444512352115209119e-01
-9.350931119934076385e-02 -1.215996994181574170e-01 4.754743910566102127e-01
-8.845021799692764919e-02 -1.060215700730006844e-01 4.578775503826393867e-01
-1.873192376180321528e-02 -1.045271858021421529e-01 5.643160931498519828e-01
-5.273357074239110043e-02 -6.275766728062376343e-02 4.400964781952941829e-01
-8.114256347438908445e-02 -1.205425919036168664e-01 4.911309737614091286e-01
-6.720288687993357379e-02 -1.143116789922175025e-01 4.779438055220220916e-01
-3.818859790990815350e-02 -7.748921720005623459e-02 4.456999126689499269e-01
-7.265982427697346979e-02 -8.573620904841852686e-02 4.451283313134907216e-01
-3.843797395542611350e-02 -1.061329746146699171e-01 4.684749507888464892e-01
-1.193059880861545990e-01 -1.140247067695233513e-01 4.845467254465863904e-01
-2.511295336785918098e-02 -1.218754297622035854e-01 5.413169655189545848e-01
-2.302065902462409330e-02 -1.055429845830879038e-01 4.650692655136240972e-01
-4.591832851255418096e-02 -7.691547089867867282e-02 4.453997932292089179e-01
-6.059888509976926393e-03 -1.279513558880162882e-01 5.089856945944248867e-01
-3.404054330994492339e-02 -1.227335843093881468e-01 5.209601240881193140e-01
-9.075118376178799295e-02 -7.246828223915190159e-02 4.472587616724158499e-01
-3.804766493692214591e-02 -1.114230782923850277e-01 5.427685889299911359e-01
-6.528370857079170142e-02 -8.801986112155713027e-02 4.473995195337343023e-01
-6.188987685567748365e-03 -1.285267418218375424e-01 5.217471299312264055e-01
-1.019991657774932114e-01 -1.224553118382646077e-01 4.885304321368801883e-01
-6.926025922462507312e-02 -1.033644023640301890e-01 4.597519856310885444e-01
-8.997802089971082551e-02 -7.182499737132229389e-02 4.465787795102146851e-01
-5.518927941088334205e-02 -1.191512689176830869e-01 4.964049318632821062e-01
-2.397299743878644404e-02 -1.022611629157934854e-01 5.587285962565504693e-01
-1.198084879206403330e-01 -1.117099377035636054e-01 4.846593972453269727e-01
-7.191239235325014301e-02 -7.845880409417133050e-02 4.409486244137472144e-01
-8.501336561239437872e-02 -1.182023412050018929e-01 5.162101521497683976e-01
-9.991310219240509549e-02 -1.194658647431469933e-01 5.054990028377510658e-01
-1.146072022600805873e-01 -1.127506667773570254e-01 4.992917312424077214e-01
-4.113411553177919594e-02 -1.114863677492619887e-01 4.769737798942255691e-01
-4.204276529471352025e-02 -1.216283213625345694e-01 5.118673536600745200e-01
-1.847083194513392604e-02 -1.259861540947815051e-01 5.227452682086790592e-01
-9.433522266287505675e-02 -8.335140721266103003e-02 4.470724778698325630e-01
-3.264279393713132721e-02 -8.476980914343962281e-02 4.494198395312684058e-01
-3.811013894088246395e-02 -1.208890629101473102e-01 5.018567272132862245e-01
-3.625738609666779438e-02 -1.223100006808583995e-01 5.149488049990308403e-01
-7.079319908005363149e-02 -1.102711049495845030e-01 5.285720519468578571e-01
-3.104551014103008183e-02 -1.198709170055003714e-01 4.943905146113148352e-01
-1.610715355212268690e-02 -1.240973784381276396e-01 5.377283012273690321e-01
-4.294295098655500492e-02 -9.097377590370191169e-02 4.536422100137270097e-01
-9.366174628313797546e-02 -8.195181112151722624e-02 4.471184526416361882e-01
-7.551778442924367285e-02 -8.176130506446688262e-02 4.421215506378593507e-01
-5.106213618252460756e-02 -1.037988661053780015e-01 4.641900923729530559e-01
-1.557362709345544091e-02 -1.091690035218897403e-01 5.635406736048026444e-01
-1.102465328778769460e-01 -1.188949553144061505e-01 4.761824359578209487e-01
-3.660786597438397266e-02 -1.218932933282922404e-01 5.287521453468497779e-01
-5.718588476970380696e-02 -1.190550077770324428e-01 5.254111551842025607e-01
-1.201399848960906513e-01 -1.127815263476312363e-01 4.891320614249298759e-01
-8.127963525379854060e-02 -1.216731189122024770e-01 4.976437467881150711e-01
-3.862401453131084073e-02 -7.868516863622815327e-02 4.462571745748577512e-01
-9.634836689207693095e-02 -1.164668526852223052e-01 4.633136847477102860e-01
-4.402100704990102170e-02 -1.139603226766112559e-01 5.384016713389196962e-01
-9.927924698333188969e-02 -1.055260245916761069e-01 4.574394414937987818e-01
-8.516837053505887933e-02 -1.031658015646378795e-01 4.561257613918390796e-01
-9.703275204423018885e-02 -1.006541475030296451e-01 4.537934411092029441e-01
-7.809056810181674857e-02 -1.172257476380603042e-01 5.208087747638309173e-01
-4.629864068824816881e-02 -1.212570387460411431e-01 5.198935315047717998e-01
-9.848489039801622269e-02 -1.213891997387576277e-01 4.763986798811400414e-01
-3.314729602052364499e-02 -1.229170523107261798e-01 5.188617041881095071e-01
-5.919681457372783645e-02 -1.202336181302827434e-01 5.202558565193169393e-01
-7.031308381350254155e-02 -1.125902214766800469e-01 5.277444521844198988e-01
-1.091491709873728538e-01 -1.109377415351627261e-01 4.646575426466900138e-01
-2.439383047174842334e-02 -1.199013976062776182e-01 5.466480978172111316e-01
-1.051751179584482082e-01 -1.187958921279803626e-01 4.728450336658811537e-01
-2.141499134433126617e-02 -1.124949623956402606e-01 4.745122016511765239e-01
-9.359564340258484660e-02 -9.769274147495411731e-02 4.515973927993581216e-01
-9.242997345670078690e-02 -1.071955495226522281e-01 4.580582885922630521e-01
-6.363286479470474377e-02 -1.201583644952810975e-01 4.985667993296228340e-01
-4.380316018784090326e-02 -1.213924097476034025e-01 5.099056481284218734e-01
-2.246925351410208535e-02 -1.010427956148807760e-01 4.594916609844460487e-01
-8.890536559401579497e-02 -1.203324217503880939e-01 4.762103584102777565e-01
-5.971680889242696189e-02 -1.203220971971070141e-01 5.011861204226233379e-01
-4.414936957731097067e-02 -1.206922907365091668e-01 5.306336468492190983e-01
-1.665593198611461240e-02 -1.146339568564876260e-01 5.587127658296662247e-01
-2.781978706898403583e-02 -1.185057564890239640e-01 5.473988253496966383e-01
-6.375128392255474674e-02 -1.205607615130744187e-01 5.005745014887712507e-01
-1.630676588381537589e-02 -1.194875300165336163e-01 5.512071630275715561e-01
-1.397543138782674291e-02 -1.146403662470401874e-01 5.590080792522443831e-01
-1.841118804074100626e-02 -1.121866703361560219e-01 4.723718599304125854e-01
-1.163843884760400876e-01 -1.138222813681624979e-01 4.735876021933794755e-01
-1.081717925993544577e-01 -1.186307567318758555e-01 4.747682844236872368e-01
-7.479129348517328871e-03 -1.235675501333043658e-01 4.924950651945480540e-01
-3.983850567794310071e-02 -1.154116161861325346e-01 4.844755380443793169e-01
-1.035896193135072280e-01 -1.165959958781554728e-01 5.050806341440111646e-01
-5.320268207294542168e-02 -1.030846162674230737e-01 4.626354473695671876e-01
-1.961730574027066576e-02 -1.240246089828590526e-01 5.013953776005014573e-01
-6.766356998134843981e-02 -8.562845998493269495e-02 4.456258156709943519e-01
-5.741694673115345371e-02 -1.210976086590441481e-01 5.120651264714261020e-01
-1.882572668678088659e-02 -1.249188517820958022e-01 5.050810260051783462e-01
-8.697288613510939168e-03 -1.233694097879470125e-01 5.392965301836329939e-01
-3.542108382259979288e-02 -1.225377855173629543e-01 5.192604910961066134e-01
-5.327059546076678281e-02 -1.174529603710329911e-01 4.897152942692758470e-01
-7.169682519155369527e-02 -1.145526453620802215e-01 5.264211601178716560e-01
-6.936918931903349184e-02 -1.162149551016775223e-01 4.811666295987646613e-01
-7.897521553226104218e-02 -9.469652124717242714e-02 4.508198499657882219e-01
-6.033670084015652080e-02 -6.894168547878169739e-02 4.407899327173983584e-01
-3.031510551720683483e-02 -1.209940335613947510e-01 5.393577910874134407e-01
-9.069624044101046167e-02 -1.201179638900824326e-01 4.700002257970123387e-01
-3.608300556495838002e-02 -1.162510489074270736e-01 4.861497111657444026e-01
-6.764115393674119403e-02 -1.213684809448234425e-01 5.091765503842105023e-01
-7.346486406960343885e-02 -8.496538879281467782e-02 4.445648109131093983e-01
-4.149864969245951191e-02 -1.213487120419992626e-01 5.074085529886153134e-01
-5.646050547154507493e-02 -1.193820641677565825e-01 4.971730153241268879e-01
-1.164387052929515137e-01 -1.167696422075748530e-01 4.785982488429651460e-01
-8.507276298734589570e-02 -1.187704531579223260e-01 4.738007004743978179e-01
-5.056359873195114679e-02 -1.169144393837159013e-01 5.328837797931553766e-01
-1.358666947572224372e-02 -1.271026716297560533e-01 5.195966987604536680e-01
-2.632880755406618450e-02 -1.062003875074360726e-01 4.674349940552077198e-01
-2.553882911600846919e-02 -1.222990823263803428e-01 4.994602719401167734e-01
-3.124411840297809662e-02 -1.123030554892821137e-01 5.481523987219062422e-01
-3.898602243250908622e-02 -1.199659699545341102e-01 4.977970785993114933e-01
-9.583291648568331711e-02 -1.110686691984385382e-01 4.604128868377089789e-01
-4.166538207764294149e-02 -8.883230942811747022e-02 4.521113184426723275e-01
-4.528204640864526981e-02 -5.952028155816936617e-02 4.399334711931663922e-01
-4.817946056878927297e-02 -8.667040075262734400e-02 4.496652115692271190e-01
-2.705682869575874033e-02 -1.164921648882303040e-01 4.848146263588818949e-01
-7.548047337808874192e-03 -1.235503365784961505e-01 4.924621509074036951e-01
-6.173363060180626222e-02 -1.185467529487950200e-01 5.246206661210984779e-01
-2.413211029409458724e-02 -9.905116303305674941e-02 5.571241442149488243e-01
-1.104918882246850725e-01 -1.043174864364048160e-01 4.591038129087769426e-01
