-1.175152711936473943e-01 -1.191138660484761663e-01 4.881771133747158653e-01
-5.581468538981779193e-02 -1.105157032733418698e-01 4.735751423988955877e-01
-7.373300917574479585e-02 -1.215219531011118570e-01 5.022051179296947998e-01
-4.151216606817541288e-02 -1.214613573007110453e-01 5.269220862540096029e-01
-8.215346774883108827e-02 -6.942586374505950453e-02 4.395179251480963445e-01
-7.406471078901763483e-02 -1.209570559034790077e-01 5.130351959951827689e-01
-2.043394931673332346e-02 -1.192243687738560320e-01 4.863444109321302666e-01
-8.530883195344876602e-02 -9.459894211084093896e-02 4.501810966302959849e-01
-6.106880905644714724e-02 -1.207706665019382813e-01 5.146651381081328580e-01
-6.554800225688041382e-02 -1.207798610034490766e-01 5.152083583389264199e-01
-6.878560216318546638e-02 -1.137677715014006607e-01 5.277530109521262336e-01
-6.395802541046187450e-02 -7.794093101649415822e-02 4.426061360554316981e-01
-3.842621879442187360e-02 -1.044540851302334095e-01 4.666587681180681679e-01
-8.927839699233457160e-02 -7.299470554791910593e-02 4.452750219997212988e-01
-4.116820260383882019e-02 -1.151254594189684149e-01 4.840057873142512013e-01
-8.992160528273059061e-02 -1.043409113729334148e-01 4.565869231914052029e-01
-4.917036122717696051e-02 -1.212587139369713241e-01 5.133815159287196117e-01
-1.992179523741921532e-02 -9.952439534510010288e-02 5.639402847536512109e-01
-2.445519707445599142e-02 -1.240825069929522712e-01 5.305198682259467668e-01
-4.303793307082733749e-02 -8.735651769841926151e-02 4.509562037315051342e-01
-9.937057872141746850e-02 -1.212710009466730354e-01 4.692839207982043015e-01
-5.869576839509210026e-02 -7.193983373903364842e-02 4.420214869815663472e-01
-7.157016255089299062e-02 -5.593887463056385068e-02 4.389667706449025264e-01
-8.309590915342943140e-02 -7.034371237232812935e-02 4.397127088609422696e-01
-1.110503257654963660e-01 -1.181073053949255880e-01 4.997357545684121272e-01
-8.104131170661300898e-02 -1.172399869287952395e-01 4.755571924526358352e-01
-9.587702779869641811e-02 -1.171151484766545237e-01 4.637809706416562983e-01
-4.634558638322110180e-02 -8.350393468688446785e-02 4.482655082872967212e-01
-6.346090175579251202e-02 -8.618152930659628286e-02 4.467190988489700421e-01
-3.815918808080748931e-02 -8.834625022474884570e-02 4.520191875628404854e-01
-3.859173736008487260e-02 -1.154350194827421933e-01 5.411567963104576551e-01
-3.265039930249426237e-02 -8.513909405061190205e-02 4.497424890059324443e-01
-9.306756537509872085e-02 -1.135616198244368269e-01 4.615052894378672277e-01
-9.484137008356581522e-02 -9.835893552176142030e-02 4.522039869815313584e-01
-1.192795085503012831e-01 -1.138670219602368333e-01 4.840867455593853563e-01
-4.680144407728061007e-02 -1.210272264617587995e-01 5.230497952037563847e-01
-7.534013180875410998e-02 -9.673100500140478786e-02 4.529340305160415303e-01
-1.300025860649330414e-02 -1.245965933362753741e-01 5.356114009184683722e-01
-8.007262376232927858e-03 -1.177150717681838543e-01 5.542913960259597816e-01
-2.948988075641333778e-02 -1.087903413134991976e-01 4.717612193234134721e-01
-7.442585845810512080e-02 -6.814053620706916892e-02 4.377171637415558370e-01
-6.853298150512019370e-03 -1.197796604438081808e-01 5.487842693600978317e-01
-1.063004950622912087e-01 -1.199018301213277404e-01 4.772228902917544646e-01
-9.965222073594887098e-02 -9.199651257395545512e-02 4.508126450854171852e-01
-7.637218559852398947e-02 -9.449043331170341176e-02 4.511201732907601514e-01
-3.379010461156593814e-02 -7.975204580869475757e-02 4.464728996940645067e-01
-2.868842346225305984e-02 -8.890457586753393315e-02 4.516549758310398621e-01
-1.135153937871992286e-01 -9.929704048256485227e-02 4.613367487156824764e-01
-3.382623248399225374e-02 -1.088409748535097976e-01 4.722570625798575006e-01
-1.178439972623186310e-01 -1.083364547648307530e-01 4.703581414924424275e-01
-9.054412397991486172e-02 -1.191212570961103639e-01 5.121554661648844986e-01
-6.980361029375475868e-02 -6.671557490997767625e-02 4.380349100814687757e-01
-8.709140792733309488e-02 -1.190238292265542452e-01 5.131163163395053850e-01
-9.411232760891126425e-02 -1.205487263233446515e-01 4.792841118526519062e-01
-1.128296873462885930e-01 -1.144693110720373386e-01 5.005595366055761719e-01
-2.387350491298675242e-02 -1.038550939539649165e-01 4.632289472011089648e-01
-7.125080053610413633e-02 -8.807483504929351781e-02 4.468557029394585878e-01
-3.079972190778824948e-02 -8.566215594828359425e-02 4.498174734653260232e-01
-8.201200340602055050e-02 -1.188326411586383413e-01 4.784324266606129750e-01
-7.618904098673033587e-02 -6.120446483139598687e-02 4.375949760594188831e-01
-8.297277958581014690e-02 -1.138213965425614593e-01 5.212488051368050490e-01
-5.400704297929621867e-02 -5.671015147643750781e-02 4.389129650166471164e-01
-7.103975845252862020e-02 -1.206056143589196300e-01 4.961931525752438232e-01
-3.399590402589206667e-02 -1.206052715837410000e-01 4.988596086026259036e-01
-6.737289435166471385e-02 -9.095613861299209346e-02 4.492507905083598652e-01
-6.913437342597434504e-03 -1.270324727426544731e-01 5.046336364610124470e-01
-1.296664852153008030e-02 -1.272572500656633243e-01 5.203467428539677586e-01
-8.035773004158189292e-02 -1.213038135934246947e-01 4.956037911363952442e-01
-4.660186591786434629e-02 -6.606722353407387671e-02 4.416131037865208553e-01
-1.053411437672327616e-01 -1.163901114306518797e-01 5.042135371409719458e-01
-4.560346516195815103e-02 -9.251117075736690898e-02 4.543249487518987162e-01
-1.199750142450151658e-01 -1.135683664423014633e-01 4.881641708442043814e-01
-1.690918695232754981e-02 -1.112112258586400448e-01 4.701583454051592725e-01
-6.472476597339896220e-02 -1.202540685908682766e-01 5.182014597203525863e-01
-1.296963568307291439e-02 -1.268977773416309074e-01 5.103741348521687593e-01
-4.942449960893120775e-02 -1.132444948582811139e-01 4.799977501262790436e-01
-7.205375081022119543e-02 -1.077394196186512582e-01 4.645238668747175281e-01
-2.512976935406741399e-02 -1.068407775390013276e-01 5.568319614100292192e-01
-6.109260341760922725e-02 -6.803347638837026201e-02 4.404286058359626610e-01
-6.160854176119340275e-02 -1.119004881537388890e-01 5.311434309128079123e-01
-5.180420696277696774e-02 -5.847585380743903355e-02 4.394577695477407397e-01
-4.174565437868726914e-02 -1.139097963008182529e-01 4.814877355675820092e-01
-1.141139549796288261e-01 -1.150067821800134643e-01 4.726715525681576824e-01
-9.582523340321885685e-02 -1.162650087334311660e-01 4.633263482353869311e-01
-9.280132281845603071e-02 -9.681190504379488804e-02 4.512640068297393836e-01
-5.694978286280472785e-02 -1.152093677210656447e-01 5.315736820378242911e-01
-1.127664214083659924e-02 -1.151221126087332430e-01 5.584654418051766545e-01
-4.741939554968709059e-02 -1.157416914246911371e-01 5.357717236131173122e-01
-1.034694767136495469e-01 -8.975146581759359254e-02 4.524911089027910394e-01
-5.908204993300486541e-02 -1.114765096725127969e-01 4.744720888300405504e-01
-7.927190463222265338e-02 -1.213434849677653554e-01 5.088833300245225733e-01
-9.114814522291124488e-02 -1.090691668562873695e-01 4.596244886571899113e-01
-1.030356110383223167e-01 -1.222936125606661761e-01 4.896229401383819790e-01
-2.700979420919460972e-02 -1.196433151842720283e-01 4.915852395257165885e-01
-1.475875628635896913e-02 -1.244603030199860072e-01 5.360893721924854249e-01
-1.155056971258530685e-01 -1.180318622978577120e-01 4.790377396096978657e-01
-4.214194152144102451e-02 -8.394605577944809494e-02 4.490480474703881231e-01
-3.727241531679268555e-02 -1.114427424650005632e-01 4.767117090796273438e-01
-7.704082295924211121e-02 -8.615726629666475844e-02 4.452538400305894872e-01
-3.199794603779568952e-02 -1.186376463812248150e-01 5.436567159089316092e-01
-8.939481955895074716e-02 -1.202341341176942635e-01 4.794010199849446652e-01
-5.160754129042439964e-02 -1.096206553606271367e-01 5.373151621769227670e-01
-4.826018088751427015e-02 -8.465773994568040473e-02 4.486232957546049116e-01
-8.307753282802267381e-02 -1.214045448599702093e-01 5.076597372796755048e-01
-9.886472115643228642e-02 -1.154429288494499134e-01 4.644965514234548620e-01
-2.495049904757121878e-02 -1.243247389520415469e-01 5.268027349491694045e-01
-9.802696624715125095e-02 -8.040255157152238763e-02 4.524628249195525309e-01
-9.574443323120732097e-02 -1.064173014290235725e-01 4.575876098864723462e-01
-8.406846791356054061e-02 -1.209082830546395898e-01 5.107146492093445067e-01
-6.698928890049106466e-02 -1.097889054248262358e-01 4.694897879140794150e-01
-9.547036667380208452e-02 -1.207587016144003461e-01 4.784884317961127786e-01
-1.933228515765929995e-02 -1.199347697804363511e-01 5.493940904446847906e-01
-7.147719452317304045e-02 -8.899435154061809128e-02 4.474501740206818790e-01
-1.183180430321101734e-01 -1.149358096321795447e-01 4.812655092268292578e-01
-8.792754628655624627e-02 -7.395938826668713162e-02 4.433748180327771182e-01
-8.927440246196768903e-02 -1.147321991852124495e-01 4.629534122275754671e-01
-9.578315844057296025e-02 -1.168893596069900398e-01 4.636556572956758160e-01
-4.750497750314244816e-02 -8.388263436236102766e-02 4.483115669874079834e-01
-1.544474515326577958e-02 -1.253466185251822795e-01 5.037157970156740383e-01
-2.777884313009881118e-02 -1.237841630169743828e-01 5.239149741800805948e-01
-2.496520626351740949e-02 -1.081811262084786535e-01 4.697921194711534021e-01
-1.019342635969584382e-01 -1.146552449206820201e-01 5.092888465742390069e-01
-3.557620935799433309e-02 -1.068696270433454609e-01 4.696261920778922461e-01
-5.677721006901336603e-02 -1.207309845690831412e-01 5.169324483840926909e-01
-1.248920701747737588e-02 -1.182534859226695989e-01 5.537969348087070642e-01
-1.067681569026686372e-01 -1.195574552891681963e-01 4.766689953522936785e-01
-9.680853220277427229e-02 -1.216074773538935588e-01 4.681125101209683281e-01
-3.303131382206344474e-02 -1.126866851696516902e-01 5.463470334099190806e-01
-2.694255100629019267e-02 -1.221668724482905949e-01 5.002211734445689562e-01
-9.490016219963232080e-02 -1.095087640297410930e-01 4.595143526552156743e-01
-6.232669360084480692e-02 -1.149590032638823367e-01 5.291202620599000372e-01
-5.571985546547281176e-02 -6.015042532322889546e-02 4.393508209510672557e-01
-1.332496257067916981e-02 -1.160949370812548870e-01 5.573901728572770997e-01
-6.471517608381581639e-03 -1.275205223983116587e-01 5.286094203656238610e-01
-1.452487179461987681e-02 -1.041353886720472188e-01 5.658579444329534525e-01
-3.327895425655095357e-02 -1.134092975947856574e-01 5.460339293577756159e-01
-3.326617609620869526e-02 -8.307625084636455215e-02 4.483567178072067061e-01
-4.668619627054684112e-02 -1.196773457505943827e-01 4.991535192586049607e-01
-7.231826484992620596e-02 -1.202815155376856932e-01 4.937092502338873423e-01
-6.204386981747191110e-02 -9.374027521403145713e-02 4.520797288016318860e-01
-5.216057156309342191e-02 -1.177668966458888522e-01 4.913600041308016642e-01
-5.569263341330332046e-02 -1.201566518115065318e-01 5.024338865212838456e-01
-3.043831081453197279e-02 -1.100912957496649469e-01 5.493533539693429280e-01
-3.095710672550692349e-02 -1.228755681018728757e-01 5.287662552902626656e-01
-4.281912776676876503e-02 -9.661391802327842782e-02 4.583265420531356105e-01
-8.255999892065565837e-02 -1.211734954540600040e-01 5.100671355322337064e-01
-3.522221365834684453e-02 -9.597176355644829182e-02 4.584358295460148058e-01
-4.364434783987951316e-03 -1.206500381855329512e-01 5.418489284758648550e-01
-1.974113216013555216e-02 -1.136174404483648315e-01 4.753156050062387616e-01
-9.968632168771152102e-02 -1.039974568201046667e-01 4.565442762837599866e-01
-6.806917157478342695e-02 -1.208621767184420437e-01 5.131218936271317865e-01
-2.137611243307197678e-02 -1.221644946783442404e-01 5.437745108460086962e-01
-1.453268666389062949e-02 -1.179260250117797615e-01 4.809916088823066871e-01
-1.049950987199301383e-01 -1.221828704442578239e-01 4.888255599333986012e-01
-9.950003709127605567e-02 -1.145697851345637147e-01 4.643019368402027669e-01
-1.211373038830256682e-02 -1.213635813904230393e-01 5.483911992298814431e-01
-5.856150979941832785e-02 -6.704494603053372248e-02 4.405717747565383036e-01
-1.781032717841130042e-02 -1.241556198276266426e-01 5.002172455969752241e-01
-7.837023149004951339e-02 -1.050275600361044032e-01 4.596184649927462784e-01
-7.811518592911087522e-02 -8.131637787164108788e-02 4.422229801782131542e-01
-7.908992348818170981e-02 -1.215371322130223142e-01 4.985278126958346268e-01
-1.813999807770147812e-02 -1.009622691001812178e-01 5.649749121437314114e-01
-6.604170740599948908e-03 -1.254005133051503962e-01 4.981259773218353337e-01
-1.160900591095128387e-01 -1.116615549753661452e-01 4.702980729705769636e-01
-6.250612078534736882e-02 -6.943802532093092117e-02 4.403980274666103867e-01
-7.847986333643434953e-02 -1.215803459013772569e-01 4.992646082313463851e-01
-1.090203024996831555e-01 -1.145034257477226675e-01 4.688334397344095517e-01
-7.046960704401983473e-03 -1.255860139727725533e-01 4.988951874826235144e-01
-9.485341788801360252e-02 -1.214123232235426869e-01 4.758420011392210380e-01
-8.857355011576409365e-02 -1.124637003676142166e-01 4.625717102906659606e-01
-1.208554637976324980e-01 -1.094887165355623443e-01 4.774280858045438780e-01
-6.859958800525035871e-02 -5.290220788310162625e-02 4.397880312324117802e-01
-7.648732350537074121e-02 -9.513086555191224702e-02 4.516116130529175265e-01
-7.395929640078565542e-03 -1.247597707549536056e-01 5.347379370209958127e-01
-1.200937746200781142e-01 -1.130065096239637745e-01 4.878553962166701785e-01
-5.240503230018703912e-02 -1.031137721016122666e-01 4.630685136665507184e-01
-1.551552646150411094e-02 -1.152694337450512613e-01 4.758708226413613795e-01
-1.137436415393677236e-01 -1.113637763499049499e-01 4.679263120442110901e-01
-6.942580515518460837e-02 -1.214762034258959622e-01 5.066352513789670331e-01
-9.995842155729989242e-02 -1.215888063476377595e-01 4.783422384352683521e-01
-5.816387781452455469e-02 -1.137566813479939654e-01 5.318297323785520225e-01
-6.462003454077698550e-02 -1.121238087779865833e-01 4.745988032971653059e-01
-2.423513984765966398e-02 -1.015432230921794465e-01 5.579618837700922596e-01
-9.328226438481927729e-02 -1.131348286467486197e-01 5.157455010462483891e-01
-4.575525852718502484e-02 -1.172894632663892961e-01 5.356764969562899381e-01
-7.782573970912641526e-02 -1.212945985111858332e-01 4.967316099201223856e-01
-8.246433130724620253e-02 -6.418483438645730677e-02 4.405721692889833507e-01
-7.769455910431082024e-02 -1.218187262833421158e-01 5.040261832675707598e-01
-1.372966305928246741e-02 -1.190449650258031955e-01 4.831912877528223293e-01
-1.089175302741960949e-01 -1.143902755129627830e-01 5.033439187438125684e-01
-5.447708197828159821e-02 -1.209941581481911860e-01 5.153689663600997672e-01
-1.192340026021811716e-01 -1.122127929791155859e-01 4.826598390361688251e-01
-1.067152734657156321e-02 -1.215555107831467752e-01 4.879333852439475261e-01
-3.033087485364786146e-02 -1.107674156545921385e-01 5.493936214827339626e-01
-9.691853823152070391e-02 -1.183563048382037242e-01 5.107156253827752623e-01
-5.706490283105974948e-02 -8.093301053372005394e-02 4.453754473682859927e-01
-4.608153404903822525e-02 -7.666848229280762150e-02 4.453518628646166433e-01
-4.271529989621616202e-02 -1.184255008164320222e-01 4.928302862338297397e-01
-4.357888153518129498e-02 -1.089833019293372229e-01 4.730454841723337189e-01
-1.019170679670037133e-01 -1.160554684547916438e-01 4.677790636825164272e-01
-1.045859769719260229e-02 -1.210684839593493406e-01 5.479103161900135133e-01
-8.734093557088501436e-02 -1.063653206657938499e-01 4.586661814380276758e-01
-7.098331159798403067e-02 -7.827346235378281059e-02 4.411097413120435018e-01
-7.729972331212990599e-02 -1.213770611423828916e-01 5.086677760785994762e-01
-6.015467864797986036e-02 -1.143385158950577102e-01 4.805266513704213316e-01
-4.427423984743279750e-02 -6.808635098811684216e-02 4.423239142580803751e-01
-6.969128297877054401e-02 -1.079752143347385424e-01 4.655281638156947288e-01
-7.740656674964729866e-02 -8.072466117512168415e-02 4.418422277327040959e-01
-5.606887177048706927e-02 -9.344934684814026893e-02 4.528000869357048930e-01
-3.707888608526212909e-02 -7.506962051198599883e-02 4.446548166284441939e-01
-2.345518603672646502e-02 -1.062318156802543045e-01 4.662933062500118631e-01
-3.525717297715955101e-02 -1.021564106992378235e-01 4.642423689678862875e-01
-1.134876660588604036e-01 -9.883888425239661935e-02 4.613245724373674084e-01
-5.638183683674222874e-02 -7.839762419862086884e-02 4.445421982673438688e-01
-2.461710077974458427e-02 -1.082799179383342192e-01 4.698085017979563571e-01
-1.086609701768410374e-01 -1.152206170666708329e-01 4.695450315210613623e-01
-1.961368192036588159e-02 -1.109611727894090349e-01 4.710903508312739851e-01
-4.881254804515219176e-02 -1.181341717850549339e-01 4.924475377685787469e-01
-1.132574644095644401e-01 -1.198017850983877225e-01 4.830482813462477210e-01
-7.892558745393851716e-02 -1.123206217149847336e-01 4.685778860805851487e-01
-2.254380614988478124e-02 -1.166229575518638456e-01 4.819595758822471376e-01
-6.951023766004657545e-02 -1.122622240088470280e-01 4.729883911299588850e-01
-1.010620913808740404e-02 -1.120201536107456458e-01 5.617134454349432815e-01
-2.442335826248394001e-02 -1.112760546392203009e-01 4.742848297036590943e-01
-9.002523730154650405e-02 -7.263038443324255911e-02 4.462705249824533982e-01
-6.483328161496400288e-02 -1.212014825612776209e-01 5.108858707118925091e-01
-2.429537873622636401e-02 -1.241420633188692058e-01 5.304112120384480988e-01
-1.067974725873453989e-01 -1.218758284632505406e-01 4.867385214197121335e-01
-1.199965451088334106e-02 -1.165863855398686783e-01 5.564723451637170193e-01
-9.090250710579994564e-02 -8.279625376888732902e-02 4.452539510252660482e-01
-1.097273857135167147e-01 -1.168495308448521536e-01 5.012262708971809699e-01
-1.150384594258588022e-01 -1.198969850352066824e-01 4.913998881818731901e-01
-9.900233457359454425e-02 -1.188648060027104603e-01 5.084593804120879357e-01
-6.643431848895008096e-02 -1.061803818462661170e-01 4.637721392148863586e-01
-2.938710159043059558e-02 -9.854015752909595083e-02 4.597365595532821314e-01
-1.234138543455098533e-02 -1.235572361764400717e-01 5.402106221233818895e-01
-9.281607569961616844e-02 -1.199485844798196532e-01 5.095128060953703075e-01
-1.070606079612827499e-01 -1.193563234021789848e-01 5.007106245805569289e-01
-2.571777714211449795e-02 -1.234233798493775819e-01 5.055106289398737518e-01
-4.850775804340163450e-02 -1.076262176242739482e-01 4.703673937326287580e-01
-3.142911027854811135e-02 -1.221036261358729030e-01 5.343256931138908872e-01
-1.151007213549970903e-01 -1.162614701276020734e-01 4.759317148755670135e-01
-1.007639219557822374e-01 -1.216946522927854768e-01 4.803681921980679226e-01
-1.095589179553369541e-01 -1.101107195417227597e-01 4.642054153414846840e-01
-1.038122977868864011e-01 -1.221763975996317947e-01 4.862051362889257544e-01
-7.123911189220118179e-02 -1.211981924941358674e-01 4.999928708177621695e-01
-6.615590703636836656e-02 -1.187368409284789428e-01 4.906791710714442090e-01
-6.598989226895017601e-02 -1.190495301995471711e-01 5.214823451333345794e-01
-3.295726239242190853e-02 -9.711084894850235960e-02 4.593223441430017706e-01
-7.548293366636879553e-02 -9.865137896943894369e-02 4.543694070434460275e-01
-3.870621067754601019e-02 -1.211469499026063268e-01 5.042837558883100924e-01
-7.850471487928339931e-02 -9.462595551726862841e-02 4.509904373006522471e-01
-6.908848360680028278e-02 -1.211688184402928831e-01 5.026017123739112691e-01
-1.977777423706647206e-02 -1.101421780291847313e-01 4.699063392813957463e-01
-7.152269219171643322e-02 -1.196790189447547309e-01 4.909985397713747535e-01
-1.118598698693199639e-01 -1.195082451029970544e-01 4.798549929520075641e-01
-9.639935198468632671e-02 -1.208349549916732796e-01 5.051105194327393244e-01
-4.601686242996881615e-02 -1.194999530932995269e-01 4.981422486738880107e-01
-3.561910624454465990e-02 -1.205867020859824751e-01 4.994441168680122667e-01
-7.659125881126002677e-02 -1.154241024316121772e-01 5.239785550662910962e-01
-8.045347614376750778e-02 -1.137138130078017562e-01 5.235776741200116602e-01
-3.713065123872058559e-02 -1.086981633088117682e-01 4.723092750350849633e-01
-6.109357956764893682e-02 -1.159545618912558168e-01 5.288450432559046455e-01
-7.645935667946845982e-02 -1.135752260758161741e-01 4.721466806489423296e-01
-5.429858854000462615e-02 -6.902265843145360957e-02 4.418327194746684006e-01
-1.411588857935918567e-02 -1.009538738382241285e-01 5.661378222201178811e-01
-4.122782413045444211e-02 -1.212894483879365382e-01 5.288475631705102931e-01
-8.164007393740836671e-02 -7.894976576298666504e-02 4.415206855110335171e-01
-9.124622619755380637e-02 -1.220564033842621715e-01 4.980180095698908960e-01
-2.465912739351604210e-02 -1.130875693698838308e-01 5.556741190912313222e-01
-6.279383882344166667e-02 -1.205137701204516965e-01 5.173831184959540863e-01
-7.270274256676330371e-02 -1.184405961261264101e-01 4.859033977152781292e-01
-8.333285638296203390e-02 -9.043421907232615520e-02 4.478387895503131988e-01
-3.524417713222581516e-02 -8.963837046029304867e-02 4.532696299773926185e-01
-6.752366736337440944e-02 -1.188498154077688301e-01 4.902545260420685946e-01
-4.882482206273570935e-02 -8.568090151482865569e-02 4.491026837689339191e-01
-4.125923726712206474e-02 -1.013637581344799393e-01 4.630144455997848851e-01
-3.146046048128432054e-02 -1.183168499497642134e-01 5.446151869523311317e-01
-1.159734628045815674e-01 -1.165163834271185223e-01 4.776017035849287051e-01
-9.037991747171719714e-02 -1.206450851236808425e-01 4.736491942840138636e-01
-1.125055251740918749e-01 -1.204452124563833576e-01 4.922219707774611042e-01
-1.125961671229306627e-01 -1.204511186307306858e-01 4.901100924106394086e-01
-3.583793563052792286e-02 -1.123553405953264250e-01 4.782276612497079471e-01
-2.208803366758957734e-02 -1.067732929676962206e-01 5.611869349099092297e-01
-4.942764435371280185e-02 -9.833340700018072811e-02 4.583643692629454924e-01
-9.890882359494014564e-02 -8.331422416559818023e-02 4.513448812494725293e-01
-8.738179073426609322e-02 -1.215382225621877005e-01 4.926796885931814529e-01
-1.175298321695965459e-01 -9.927637824921839438e-02 4.703620156603267599e-01
-3.427688163256073506e-02 -1.088494826880423705e-01 5.453691523612237413e-01
-6.416905861131337596e-02 -1.163406926741015202e-01 4.843276885307282731e-01
-2.786964054136838956e-03 -1.202508761669447701e-01 5.405780764177523512e-01
-5.599389776699500304e-02 -1.013829078846620046e-01 4.599155251982433024e-01
-9.479882031415848287e-02 -1.136466920068738284e-01 4.618767202724201604e-01
-2.281811494254852232e-02 -1.145748770417657075e-01 4.786924083219238346e-01
-3.581398095956875305e-02 -1.210532404566351944e-01 5.019010397092705800e-01
-9.233592173923407809e-02 -7.667530180655726668e-02 4.478401356092422403e-01
-3.078255165619469408e-02 -8.815288859681334743e-02 4.515583534354850603e-01
-2.967756999163941034e-02 -9.348589803212931093e-02 4.556143542332188323e-01
-7.146903479639894752e-02 -9.194171436776837902e-02 4.496068213177055184e-01
-1.147653246033505103e-01 -1.186263128931633604e-01 4.935545023370531137e-01
-1.155955377053180695e-02 -1.275292117234342049e-01 5.216063820440479670e-01
-8.356575410291246231e-02 -1.190364950930855731e-01 5.158306194513651022e-01
-1.995759183888354271e-02 -1.252667500971368642e-01 5.105318702979647627e-01
-1.092495124138010421e-01 -1.206277038689694270e-01 4.958447982845861080e-01
-4.323891120804666810e-02 -1.025350512183120649e-01 4.642860285458798031e-01
-3.773243254871387620e-02 -8.525456016671811854e-02 4.500031907847295010e-01
-8.463351676823138714e-02 -1.190878918918730350e-01 4.755801690239307433e-01
-8.294496906418497018e-02 -1.092759071680834831e-01 5.227106301085746587e-01
-1.088808231244544761e-01 -1.066825638359625433e-01 4.607383265470594846e-01
-4.470294689562838431e-02 -9.281822421827405634e-02 4.547866864541516008e-01
-2.337231175227099875e-02 -1.103178163535816075e-01 4.721352634619262467e-01
-4.103304156602963215e-02 -1.153160026271545235e-01 4.844171767143425900e-01
-5.976807958188708192e-02 -6.009209809791306311e-02 4.388794845481598372e-01
-6.586841440193480501e-02 -1.210914133233329526e-01 5.119365177093768704e-01
-1.210907242165775860e-01 -1.092041407888917071e-01 4.830394621022893187e-01
-3.611793229691671880e-02 -1.178625502515723844e-01 4.901160046220622291e-01
-3.508511170756083153e-02 -1.212304275657811181e-01 5.347704830274558896e-01
-3.102634965122909316e-02 -1.086088018842329694e-01 5.488698327563387158e-01
-6.607633154157166455e-02 -1.110837901657000665e-01 5.295348612842392111e-01
-2.286663044062076794e-02 -1.085873333684113651e-01 4.692862471763268317e-01
-1.027738470867526205e-01 -1.175498314936732486e-01 5.053832988631739020e-01
-5.070243581114294851e-02 -1.212491275023107190e-01 5.146383666336257212e-01
-7.599041918530820283e-02 -9.480807179242060900e-02 4.514069687946475340e-01
-3.852871665269545082e-02 -1.214288557926102297e-01 5.298832712027933267e-01
-3.318893176561085734e-02 -1.226181182687879900e-01 5.131073778602744939e-01
-1.214461061469343170e-02 -1.229655083262321258e-01 5.425790070886453709e-01
-5.706939552671196070e-02 -1.120155661347096987e-01 5.330715995595367573e-01
-8.317482981491459981e-02 -1.217755136923806131e-01 5.035242337206630170e-01
-6.783817090977264930e-02 -1.177648388296731602e-01 4.867859901984515902e-01
-8.223690718185770743e-02 -9.301652455702312527e-02 4.494243860290942916e-01
-9.555175706475017849e-02 -1.223122031806108817e-01 4.903635821176585141e-01
-3.829723405256551562e-03 -1.249966237027607535e-01 4.957769382070729147e-01
-8.789510101537552356e-02 -1.162160585708970073e-01 4.651527847534461246e-01
-8.638237721114762346e-02 -8.053588106507619804e-02 4.433814915949645941e-01
-5.372134563681642966e-02 -6.103364014645507735e-02 4.397228940911323547e-01
-3.035131673982683145e-02 -8.990008354460422846e-02 4.528828700316104294e-01
-3.419874677845024386e-02 -1.226250156083499993e-01 5.254655998120312255e-01
-3.100829292458646275e-02 -8.348214084135753554e-02 4.482768485363918809e-01
-8.215750936424910666e-02 -1.190482669265273963e-01 5.164614367418143281e-01
-6.169796213612949859e-02 -1.167480065672337058e-01 5.275305956388711692e-01
-7.821830596303884497e-02 -1.117949884999891175e-01 4.680299091805081857e-01
-1.000246318112913702e-01 -1.220252361685611742e-01 4.839754541457706449e-01
-8.087975234689026571e-02 -1.165772181066365570e-01 5.200184114980057615e-01
-1.180857273871157437e-01 -1.135425476348438656e-01 4.770390547476776599e-01
-3.623641554188263003e-02 -1.223637439857998138e-01 5.205791809797728487e-01
-1.095337991069542521e-01 -1.087952740489640246e-01 4.628915819216328775e-01
-9.688462138689082903e-03 -1.271773234187081048e-01 5.076594016776001528e-01
-2.675720629863009847e-02 -1.240006413727340467e-01 5.231411163242577489e-01
-7.261791529548400348e-02 -1.213733571460149513e-01 5.010381438718378710e-01
-1.769187574805972801e-02 -1.258819214267023756e-01 5.278487810705729810e-01
-5.994800649141209664e-02 -1.146918614549592430e-01 4.814129388549325816e-01
-3.881030777213203414e-02 -8.240121663287648668e-02 4.482686479170114313e-01
-6.875198485496841760e-02 -1.176597563047211276e-01 4.861115376352404538e-01
-9.306890494573856476e-02 -1.200610630400804485e-01 4.669763333802313121e-01
-4.419374703567170021e-02 -1.208542928140779321e-01 5.055944553476491299e-01
-3.304411406253465744e-02 -1.196338505308674749e-01 4.944846255610332308e-01
-3.052620222936519231e-02 -1.182437719600326897e-01 5.455258981408025454e-01
-8.294578505220166417e-03 -1.267130591877541623e-01 5.304230394546565197e-01
-1.070943633519761268e-01 -1.217332218394092114e-01 4.897952040492271619e-01
-1.134105699734412886e-01 -1.057780375868356271e-01 4.625679398762134742e-01
-8.780954937809284933e-02 -1.206667340775802871e-01 4.867343085581673501e-01
-1.542894458522245382e-02 -1.237543543714039046e-01 5.394695077219606727e-01
-6.005046036095425949e-02 -6.581876993856859703e-02 4.398870072982196122e-01
-1.197154337546129238e-01 -1.103493533558716488e-01 4.760427643003792841e-01
-6.480290201170391118e-02 -1.098790559561137609e-01 4.702137365230859012e-01
-5.956283912735051145e-02 -6.979312511016934339e-02 4.412665465347595517e-01
-7.751376978253832206e-02 -7.915367988086635664e-02 4.411047518429847547e-01
-1.313965337723476540e-02 -1.220512037617680345e-01 4.897730975514474894e-01
-5.317545896089691942e-02 -7.959044457255813609e-02 4.455658051473595505e-01
-1.000712664943576580e-01 -1.222178260640257308e-01 4.867938492413155793e-01
-8.811118461952710534e-02 -8.554488370898553906e-02 4.458104057855837299e-01
-1.435162006334983129e-02 -1.262130970814620556e-01 5.069136864805549036e-01
-1.154388876302026024e-01 -1.121832290331809395e-01 4.703324403534582254e-01
-1.200002628869398236e-01 -1.078035939590966802e-01 4.725941912925520350e-01
-6.176385642099458534e-02 -1.207682841340153995e-01 5.149180515601440300e-01
-4.150470141245307665e-02 -1.215739228226335178e-01 5.101805602553121100e-01
-5.797275342489089517e-02 -1.171346057751448538e-01 5.289136320126349711e-01
-1.163117367770813010e-01 -1.176244008515574396e-01 4.928149149480743341e-01
-3.860300938582262448e-02 -1.203897804843476055e-01 4.996941197218950914e-01
-5.943128082798730671e-02 -1.153297669287832450e-01 4.831063069072365490e-01
-6.719306646141162687e-02 -1.200062020053561662e-01 5.182278013827612551e-01
-6.833062561528774337e-02 -1.047298239503713230e-01 4.615285018683941143e-01
-1.178080218418290775e-01 -1.078307172914010625e-01 4.699739976767741134e-01
-8.261246968717300687e-02 -1.090949050252920383e-01 5.234193981057334577e-01
-3.423079893344396080e-02 -1.209749940093014925e-01 5.008184002679987312e-01
-6.593307660855569907e-02 -8.582812409880738458e-02 4.461081404171031717e-01
-1.558482984642169285e-02 -1.159692910911841873e-01 4.772129012664194647e-01
-1.771065659160540873e-02 -1.193759960065881587e-01 5.510007940500601942e-01
-9.644054809860258537e-02 -1.202244260762363043e-01 5.076735465946100589e-01
-6.273823876696486661e-03 -1.279006868414031273e-01 5.269727835525362947e-01
-5.204634689359355360e-02 -9.824775676290714577e-02 4.576028048588172137e-01
-8.676795671786137476e-02 -1.190028253855161672e-01 4.730917918806803457e-01
-6.419532609578404436e-02 -1.080898473996983883e-01 4.673351769598133032e-01
-2.880926318154770210e-02 -1.234152270684621827e-01 5.280933351247845131e-01
-5.091417551972198668e-02 -6.711254947669534343e-02 4.416200104063641163e-01
-1.000556836765097851e-02 -1.124129465136066708e-01 5.613872468164965435e-01
-8.538405526178423355e-02 -1.195181268173472061e-01 5.131799087864141740e-01
-6.713991086353722493e-02 -9.331187952334522862e-02 4.510868528396222987e-01
-2.351518341724876185e-02 -9.927232700566182566e-02 5.586135288834858104e-01
-2.333795830817943923e-02 -1.007922665016200148e-01 4.595996480639490400e-01
-8.162929722541992228e-02 -8.109369407347923053e-02 4.424063709126117572e-01
-5.047025471836491528e-02 -1.133631628276683401e-01 4.801601191563497073e-01
-1.901845009369779876e-02 -1.258681116002338118e-01 5.221028267434033587e-01
-6.567784077294423761e-02 -7.026612271140947330e-02 4.397712565843824861e-01
-9.057976778820456265e-02 -1.196662093094393864e-01 4.700940172684745511e-01
-1.528494724822944233e-02 -1.265234631951021316e-01 5.135729727076303597e-01
-3.279638128854676926e-02 -1.214424419227307511e-01 5.354219949357108543e-01
-1.179052388902652460e-01 -1.098993858306048649e-01 4.714851980331481451e-01
-8.340489348225223198e-02 -1.073104427049765275e-01 4.604011082554621548e-01
-1.038668387522757447e-01 -1.220223823739774727e-01 4.947108048856719842e-01
-5.369811972910269043e-02 -5.670724701317505362e-02 4.389436175209668334e-01
-9.742332060086712764e-02 -1.187191445494349962e-01 4.658862430445031011e-01
-2.478375042096178649e-02 -1.172827268446540588e-01 5.514106382593808586e-01
-1.045466189562344744e-01 -8.936599841529574428e-02 4.543249026180389283e-01
-1.147669251143599300e-01 -1.039030039694190943e-01 4.635323320433392680e-01
-5.765073373682767788e-02 -1.119890650853182651e-01 4.759842135305423216e-01
-6.956563329991953537e-02 -1.214562494406748183e-01 5.061443095889746058e-01
-7.995408548075189081e-02 -1.045698887065527743e-01 4.587174834255576816e-01
-6.402410505266528662e-02 -1.209663778771859488e-01 5.049710170701371403e-01
-2.346092919298442547e-02 -1.233464872340133550e-01 5.365386111930936508e-01
-1.050263914738850946e-01 -1.201068981527669971e-01 5.001757713007508599e-01
-2.969768802811923597e-02 -1.234121571314771432e-01 5.189139008431770117e-01
-1.539610183159613802e-02 -1.016488072606593490e-01 5.656927014677407550e-01
-2.756583402406887276e-02 -1.138222963021725820e-01 5.520864384783021883e-01
-6.365735418499285370e-02 -1.211124560418906371e-01 5.119284130972692193e-01
-1.160046456176551388e-01 -1.169881783031066075e-01 4.939886035033266842e-01
-8.047595727520123754e-02 -1.186113185841321110e-01 4.840097924599230383e-01
-9.364289160399165424e-02 -1.117704185205809081e-01 4.608139417064905929e-01
-4.419190359538730656e-02 -6.384996677567508772e-02 4.411405966029703363e-01
-7.232758192494895266e-02 -1.052662192742850056e-01 4.613869705543504618e-01
-3.978435500468258806e-02 -1.219935392469601310e-01 5.170733923237968988e-01
-2.335166137361405561e-02 -1.013790312979907099e-01 4.601168186258068893e-01
-1.122759813996275641e-01 -1.128806992612472054e-01 4.686934092616780179e-01
-1.348553111904195363e-02 -1.169104189248231229e-01 4.784414964260418346e-01
-4.190589681006417350e-02 -1.214334528897194204e-01 5.266563330617131111e-01
-8.574507804784943510e-02 -1.129945066561349326e-01 5.200567505366248122e-01
-3.954408337939372547e-02 -1.188778118074245854e-01 4.939637631037839260e-01
-8.348926033195608332e-02 -1.214901783294040222e-01 4.955504262430870943e-01
-8.966889503707201059e-02 -1.199982327823009426e-01 4.813392358977318652e-01
-7.775408552158233344e-02 -1.190945477286071003e-01 4.859217058179356452e-01
-5.382610293638601801e-02 -1.067812193845390223e-01 4.677838206618255001e-01
-2.534684463763259635e-02 -1.117901400769010789e-01 5.557988331129496418e-01
-8.176801560241979405e-02 -7.276194469634189588e-02 4.393859263321732711e-01
-7.897058845854651454e-02 -1.206577333208914971e-01 5.134218732303020838e-01
-1.080911548746956857e-01 -1.165893971634201220e-01 4.709486658346049293e-01
-1.074333544863251555e-01 -1.215718114208279715e-01 4.923416938116427777e-01
-5.088750257285472312e-02 -1.058800089189754767e-01 4.672630799612753072e-01
-7.433171452597392426e-02 -1.123859591476169262e-01 4.709867948473660526e-01
-1.092857248594764630e-01 -1.077096022141971754e-01 4.618141425496233854e-01
-1.503823283377161459e-02 -1.248070084784444617e-01 5.004424976574567419e-01
-4.001704638591519619e-02 -1.201162542874021771e-01 5.354986568670337954e-01
-7.646602730518436974e-02 -1.166400671012326334e-01 4.783820002247813896e-01
-6.193602492821018157e-02 -1.197632535599202491e-01 4.978160996336929434e-01
-1.005127426029296389e-01 -1.210503800035305083e-01 4.743572355998640910e-01
-6.135981509333654493e-02 -6.071490061904259022e-02 4.387549557498081065e-01
-5.676011972401268785e-03 -9.585175692703232220e-02 5.706272158613728829e-01
-8.000870283417553519e-02 -1.082988012853099841e-01 4.626110063164818875e-01
-2.641227474518547530e-02 -1.177319038575753152e-01 5.496484227200354455e-01
-6.217140016476170594e-02 -9.458916179261211976e-02 4.527041783542111175e-01
-9.474329492291325150e-02 -1.216102074724983023e-01 5.000537839727918765e-01
-4.774844894270976331e-02 -9.385527111394756372e-02 4.549248023235916150e-01
-6.509986859004020243e-02 -1.206694680144955317e-01 5.011736864745390818e-01
-7.349780170809688817e-02 -5.610558199293830262e-02 4.391141044429848761e-01
-1.087437943760852926e-01 -1.051825230685052293e-01 4.593858404571692922e-01
-8.403543556118783786e-02 -1.218109519299962473e-01 4.994052317220095127e-01
-6.999703595960203584e-02 -1.040054980242171717e-01 4.604857770774918868e-01
-3.926022963257526366e-02 -1.216624692120429757e-01 5.272475611604997559e-01
-1.106827358640837256e-01 -1.146176525775267629e-01 5.021355382686120139e-01
-7.464132966685385617e-02 -1.181665368413693518e-01 4.834275420737539908e-01
-6.819650152309639224e-02 -1.194123311996493492e-01 4.920114912483757319e-01
-9.812629513445214613e-02 -8.227044749393240541e-02 4.508090979317431191e-01
-4.597659921333756977e-02 -9.975767746972551142e-02 4.604639571274499188e-01
-7.266939695113174003e-02 -1.215050532872431338e-01 5.030693154348380158e-01
-4.864213555255313126e-02 -7.592696652311677064e-02 4.448510583996764800e-01
-6.518550075434516311e-02 -1.103757169590277171e-01 4.709396733621133424e-01
-6.425919634297280747e-02 -1.141014066833995477e-01 5.287568739601385959e-01
-2.466683758485337108e-02 -1.236852928720248018e-01 5.327671808048675128e-01
-8.080713060076366583e-02 -1.185884106424189427e-01 4.787987271801215083e-01
-1.150139846575796015e-01 -1.193871105472752298e-01 4.832987804949334665e-01
-7.861525941458848143e-02 -1.158085856059228591e-01 5.222540409466409628e-01
-3.130683191394150605e-02 -1.184129675308026042e-01 5.445401355367240903e-01
-3.715693670676089438e-02 -1.133559510936897469e-01 5.429386736612719089e-01
-6.410634864472862515e-02 -1.102419727833734431e-01 4.709742404734739707e-01
-9.232213135006137050e-02 -1.209858786276781922e-01 4.774659095760755978e-01
-3.029173113363925474e-02 -1.191645462668325106e-01 5.438277740964375662e-01
-2.873868006172339978e-02 -1.162478726934988299e-01 4.852396106371717477e-01
-1.039195474072068526e-01 -1.094372858855774955e-01 4.616457927728496169e-01
-5.984609910638095942e-02 -7.264694768206711450e-02 4.419228979998611195e-01
-1.825302618387854639e-02 -1.197019439064016116e-01 4.862771880829032112e-01
-2.524484403979844471e-02 -1.129537660664367421e-01 5.551929268439510512e-01
-1.127137654471622313e-01 -1.103791650004504327e-01 4.662108663502393946e-01
-4.740439877786386397e-02 -1.179145357951165568e-01 5.335244337904839762e-01
-4.477709831399780127e-02 -6.371326137925953370e-02 4.410659458331528393e-01
-3.834182914092651440e-02 -1.108388725277847792e-01 5.427445912306355646e-01
-1.991778868319719897e-02 -1.236461294697977636e-01 4.998516636189094808e-01
-6.927128430553187999e-02 -1.137785637023280838e-01 5.275699014350817562e-01
-1.167362022173188407e-01 -1.119062853157949677e-01 4.714307679198617707e-01
-8.334905671801585980e-02 -7.657227390437648662e-02 4.407199691747581416e-01
-1.827798329982106146e-02 -1.258714314222540431e-01 5.142850049187870365e-01
-1.052044889676174710e-01 -9.294698647702705208e-02 4.542812479855020125e-01
