-2.913938637815262356e-02 -8.983037928707754416e-02 4.527173744803980049e-01
-8.423537743065492855e-03 -1.217467750490516115e-01 5.442485927590225980e-01
-5.200726383895848404e-02 -1.079534573484904336e-01 5.377860644982199734e-01
-8.090513788120733130e-02 -1.213679606884033868e-01 4.992565369253857410e-01
-1.734413835499762011e-02 -1.128240667721000789e-01 5.603071951372049497e-01
-8.280250886253173737e-02 -1.203367895025180823e-01 5.129019575440186829e-01
-2.273828591202597255e-02 -1.221376753250489472e-01 5.424364529020601067e-01
-5.080694064156214551e-02 -6.504811186487771679e-02 4.412741493833485240e-01
-6.392054347518037749e-02 -9.594228144399409575e-02 4.539742320001959874e-01
-1.866710559125500310e-02 -1.239990451362191770e-01 5.006725829986260479e-01
-1.346454466786139656e-02 -1.270010520875653748e-01 5.152821881569666917e-01
-7.941517406741049889e-02 -8.349495794943878613e-02 4.439262268038932091e-01
-9.838174631314297591e-03 -1.234751638735953755e-01 4.930680143431666607e-01
-8.400192040349897804e-02 -1.162821246656013108e-01 5.189683869472554445e-01
-2.893875300164396383e-02 -1.051259713624949493e-01 5.518954826082537179e-01
-3.429281951810428386e-02 -1.206512042324714845e-01 5.369155494057407108e-01
-7.005181789602882292e-03 -1.269586441366697960e-01 5.045814665500900631e-01
-9.921340775362639391e-03 -1.228790099208232345e-01 5.413682816649280083e-01
-2.459468044788519839e-02 -9.570968055103622196e-02 4.559293832176445904e-01
-1.165025753553439042e-01 -1.171192822606189482e-01 4.812362284659167377e-01
-1.389243755239087663e-02 -1.187186221384311235e-01 4.827495753673950452e-01
-2.194918020651582397e-02 -1.231837084429021623e-01 5.001757611561765682e-01
-6.518425717509701567e-02 -1.203210677127717898e-01 5.171284906884435761e-01
-8.716048733902719003e-02 -8.348569997831026268e-02 4.450601760422168707e-01
-5.674263047773504820e-02 -1.197912274667198712e-01 5.014775212876316779e-01
-7.238242276382138296e-02 -9.389751318646302747e-02 4.515897219818607033e-01
-6.279966531181192801e-02 -5.682528301063297788e-02 4.381476155185152210e-01
-4.336103820544243842e-02 -1.117302041331177526e-01 4.780585046515279934e-01
-4.876124984717297717e-02 -1.181942203601204500e-01 4.936554793584213008e-01
-8.802489162704514591e-02 -8.967866204151149490e-02 4.479733492260690175e-01
-7.028938887438111738e-02 -1.114711876696657111e-01 4.719512141316978826e-01
-1.193715824859104130e-01 -1.150965754097481031e-01 4.889202869009675045e-01
-4.451307803747230757e-02 -9.782664414528394192e-02 4.594206462931829105e-01
-6.030282858710334093e-02 -5.780002642244686656e-02 4.386771410452093289e-01
-5.509169845900956791e-02 -8.449060134998502558e-02 4.477334161595868944e-01
-6.771324065144693205e-02 -1.205253340918875649e-01 5.000669110018508556e-01
-4.604129302500793025e-02 -7.651658789182601283e-02 4.455731852846443464e-01
-2.777979337549350142e-02 -1.221668825568843625e-01 5.015626645324886557e-01
-2.711932928708219240e-02 -1.237349869499885097e-01 5.280280911264697563e-01
-4.834188907809200408e-02 -5.855302720253057619e-02 4.398307929172588504e-01
-9.300705697109551418e-02 -1.207574953202628504e-01 4.778337579536176549e-01
-1.121134511222371399e-01 -1.174073866385123427e-01 4.999167626332828851e-01
-2.783818431707365745e-02 -1.067973305600638106e-01 4.687597224049916966e-01
-9.199355274470345789e-02 -1.184174953815819165e-01 4.661155669978452321e-01
-6.520280987672875950e-02 -1.165278390054567265e-01 4.853775260797392188e-01
-6.144116787015214270e-02 -1.193079185373222273e-01 5.226914458407417863e-01
-2.331076218657273172e-02 -1.062710768755164015e-01 4.664706017852373598e-01
-1.021064783517092317e-01 -1.210873325308694931e-01 4.802341737583472048e-01
-7.923329847880845184e-03 -1.243493101933162842e-01 4.951538647452070618e-01
-1.032066390957624008e-01 -1.015035613776110734e-01 4.557950080223933664e-01
-5.441016959996616831e-02 -9.127767977419158629e-02 4.518899286767346091e-01
-1.159131481496773197e-01 -9.948025662952010573e-02 4.659425360012597328e-01
-4.297362181219965827e-02 -1.043524843394406931e-01 4.667632368923673725e-01
-2.657534948771127226e-02 -1.234408645331648430e-01 5.310807860822651660e-01
-7.784893792864525097e-02 -1.186807200817761726e-01 4.857525201386966307e-01
-5.967239264806746546e-02 -1.181918982669090956e-01 4.930337354156161256e-01
-6.671797540870379184e-02 -1.191237292160383376e-01 4.931141016281532230e-01
-5.981597955815996098e-02 -7.456118390596314094e-02 4.429037619249244773e-01
-7.796438229747250370e-02 -1.104719753066539939e-01 4.670703031922556758e-01
-6.099814606817554469e-02 -6.128147676308774022e-02 4.391966919544899595e-01
-6.538618030834343620e-02 -9.803868162015749732e-02 4.557128946555125126e-01
-7.754735017975522560e-02 -1.214991525342275780e-01 5.026354219556524727e-01
-4.449803261481578842e-02 -1.139321748850403021e-01 4.820775469860792972e-01
-5.291638269207464551e-02 -7.933465658038006685e-02 4.458513090590709993e-01
-1.208150899620678564e-01 -1.091175206313974022e-01 4.839291671502911618e-01
-2.599032250855280723e-02 -1.224493051722785608e-01 5.013067544457534552e-01
-8.161445748776793851e-02 -8.186057977353437820e-02 4.432424151570747983e-01
-1.207713535324271281e-01 -1.055572753936257352e-01 4.737146404522716292e-01
-9.755198520649892291e-02 -1.003359072554193682e-01 4.544684532864351478e-01
-4.893260516257917636e-02 -6.086503945496665041e-02 4.402718222455325736e-01
-6.122453618463470637e-02 -8.255596983412873124e-02 4.456393290581175948e-01
-9.078389290985938720e-02 -9.722814176195600233e-02 4.521770100451504848e-01
-2.146492025963462474e-02 -1.203256998775279196e-01 4.903659936678127496e-01
-1.096552459299210414e-02 -1.242494955137445761e-01 4.958710247587622133e-01
-1.102264136433890040e-01 -1.087019020406487513e-01 4.639634847840226062e-01
-9.934450078720307234e-03 -1.277118029296203106e-01 5.144386709530925916e-01
-7.603904938865947705e-02 -1.160166722820135388e-01 5.235967348526279208e-01
-8.149650495873143885e-02 -1.211033000348880895e-01 5.087441980356265381e-01
-4.381830037356280322e-02 -9.833860209091251081e-02 4.600062146951883202e-01
-1.180682774866112089e-01 -1.080931849759668439e-01 4.712077727816137429e-01
-2.000842773372304984e-02 -1.096810944310262492e-01 4.694722581384819793e-01
-2.884605165629157766e-02 -1.216742828052756187e-01 5.383874152537573288e-01
-1.111798541144161517e-01 -1.145445209573259238e-01 4.709658288671886295e-01
-8.177573918220733262e-02 -1.103413487420220745e-01 4.648102058569206219e-01
-6.303303328472735501e-02 -7.418071082605356970e-02 4.419504809567960657e-01
-8.352684950736827263e-02 -8.381779593313930243e-02 4.443379429928572266e-01
-2.652241364248181590e-02 -1.205090407484058490e-01 4.944076772839259282e-01
-4.988439079073177934e-02 -9.401401093280752075e-02 4.549985822182492368e-01
-4.975229022073439367e-02 -1.210246157055035465e-01 5.168610614000685999e-01
-5.297199572693855191e-02 -8.387531900744236990e-02 4.477806480983857473e-01
-4.856722574637380163e-02 -1.081970693328169475e-01 4.719057916686235088e-01
-7.278555431571041845e-02 -7.368759968466118138e-02 4.398104346453978186e-01
-2.317088387781870290e-02 -1.106808604284226782e-01 5.581853721934160184e-01
-1.069130924215185852e-01 -1.204128730604330649e-01 4.816263714539523177e-01
-1.840489070618949591e-02 -1.258807301303032089e-01 5.176866025448407793e-01
-5.110770049733395770e-02 -1.193161494986428039e-01 4.987470608702455066e-01
-8.885681768681766290e-02 -9.439907211323987635e-02 4.505977960012201855e-01
-7.329423197860809869e-02 -9.071524417569924725e-02 4.491213692449084194e-01
-3.014168617515593229e-02 -1.227576159393282684e-01 5.084024997315967909e-01
-6.016818762369996292e-03 -1.208686546701817077e-01 5.438534761881137491e-01
-1.110614298502506925e-01 -1.195238010563952347e-01 4.970398048534272473e-01
-8.615029998607358352e-02 -1.210770040782545298e-01 4.922545532982990912e-01
-1.996727931805003867e-02 -1.090209519068617849e-01 4.684421258575064972e-01
-3.879732555027681079e-02 -1.086976297994230733e-01 4.726749288099982294e-01
-5.779789819591159283e-02 -9.107959890559351457e-02 4.512603737319805242e-01
-2.128666257432241735e-02 -1.142423714176351718e-01 5.571025262429579739e-01
-2.212554099091502621e-02 -1.172339063985641944e-01 4.829493435079300623e-01
-3.380629708321233884e-02 -8.012104673997762216e-02 4.468809140507373212e-01
-8.473596763199831017e-02 -9.593568919488842939e-02 4.518093607597069572e-01
-7.583851026866889056e-02 -1.210142727314473116e-01 4.979176683817191917e-01
-3.439879990578800090e-02 -1.203997121883289417e-01 5.376276414607650267e-01
-8.980718464136572265e-02 -1.200825262188947029e-01 4.842127618438966663e-01
-1.724229870980589774e-02 -1.034690249717850064e-01 5.652186341339114906e-01
-6.762434118304004593e-02 -8.894862386335979088e-02 4.482317583405414085e-01
-3.564219302003136108e-02 -1.217027122757484842e-01 5.310493175582556846e-01
-8.616729670997935742e-02 -1.037348027741119422e-01 4.573392475580455585e-01
-6.843776690404557161e-02 -7.041530534349198234e-02 4.396354572909494940e-01
-4.219269006003402434e-02 -1.167222845251179586e-01 4.882679616209171236e-01
-5.206239371378908187e-02 -1.090626268416336753e-01 4.725561358159682257e-01
-7.264554767872992425e-02 -1.197329523488975672e-01 5.172704911855157128e-01
-4.770692592383764252e-02 -1.085447657749519929e-01 5.396938939043790517e-01
-2.764897991912404832e-02 -1.235111907138121690e-01 5.289985282149550772e-01
-1.202909250272655162e-01 -1.085141574962773109e-01 4.755349533447548738e-01
-6.923856911628897826e-02 -9.253037218770739092e-02 4.507913275418083954e-01
-3.861608529445770960e-02 -1.156865224496140265e-01 4.856952786281136247e-01
-1.203658576914370254e-01 -1.054519868958206513e-01 4.728237820609603181e-01
-1.131527213999044580e-02 -1.267195481958789949e-01 5.067322528137673254e-01
-9.105733726296563746e-02 -8.207121711877060632e-02 4.457616809672522717e-01
-7.704800671258610345e-02 -1.046260618249663238e-01 4.603313110323363211e-01
-7.890231798292224319e-02 -1.210048881052202818e-01 5.100652077099944171e-01
-8.306274053451828676e-02 -1.210526515678872483e-01 4.944788264929088628e-01
-1.056980330606935026e-01 -1.210236011733491768e-01 4.965494853245603357e-01
-3.987366557108926873e-02 -1.018216967785215005e-01 4.639463227637299902e-01
-3.911877875556246664e-02 -1.195725829010269858e-01 5.375849224395518045e-01
-1.981869563156593225e-02 -1.074805460702709659e-01 5.631079137021206549e-01
-2.931192683944834274e-02 -1.144407779233383993e-01 4.818672532095890082e-01
-4.675494917389309141e-02 -1.208241508177825552e-01 5.076707218684208822e-01
-1.091098159512260274e-01 -1.208559037168717432e-01 4.900108918146316994e-01
-1.825928328186517124e-02 -1.259220410190325656e-01 5.179768636973829388e-01
-8.619463325375878449e-02 -1.106927585971168304e-01 4.635991811199290935e-01
-7.938247501779330251e-02 -1.135851063729185623e-01 4.717215150470203122e-01
-2.188121332541009476e-02 -1.193064979959510830e-01 5.496592333385306173e-01
-6.263094820944216379e-02 -1.185879206321151513e-01 5.239321298824956008e-01
-2.999094922486017500e-02 -1.110648189054898455e-01 5.498614241107034895e-01
-1.000372796270084241e-01 -1.210789831906774749e-01 4.765140797094446490e-01
-8.435238661586073883e-02 -1.212232363440309546e-01 4.957675920377512258e-01
-4.256311766017716741e-02 -1.214901416742329432e-01 5.144276447098768967e-01
-7.954321195101457520e-02 -7.261969369915362293e-02 4.394994449290655081e-01
-6.883167178590331170e-02 -6.593836678498243842e-02 4.383891251341597850e-01
-7.755202557051898982e-02 -1.187316569239277447e-01 5.190044064736397678e-01
-9.461062828401492486e-02 -1.020155015828037998e-01 4.555677482401155887e-01
-3.643459473926339426e-02 -8.324604193903922811e-02 4.490892810475697328e-01
-5.000845983084353102e-02 -1.119512530498212449e-01 4.780013980261100803e-01
-2.892714751911547658e-02 -1.212377795184484824e-01 4.980801668582120478e-01
-9.665241827577178424e-02 -8.806443385119908096e-02 4.495889467593427447e-01
-1.106619772742874624e-01 -1.143777659023110516e-01 4.705049850018029334e-01
-8.335494535988459408e-02 -1.051026176389376204e-01 4.591045147037528529e-01
-3.868309940846298423e-02 -1.219916539544150941e-01 5.171325856469352056e-01
-6.793932762262551439e-02 -1.173291365456830687e-01 4.865410446281865919e-01
-5.941758378568548493e-02 -6.998577175743719847e-02 4.416852947044456745e-01
-3.427245336699807909e-02 -1.150428291395496211e-01 4.840063306002050925e-01
-8.849626694696045848e-02 -9.369431258018025288e-02 4.501954260800028473e-01
-2.528290572188897703e-02 -1.024100967886606706e-01 4.622525825124284560e-01
-6.529187093784907803e-02 -1.075759636332192098e-01 4.669321191577514574e-01
-7.325003578133351678e-02 -1.124425278680831197e-01 4.724532320524572615e-01
-1.099101632420776964e-01 -1.131038306636839852e-01 4.686456091528385937e-01
-3.902866644077882669e-02 -1.175855095877937351e-01 4.905228002878280757e-01
-3.521429049911147663e-02 -1.220597320410464898e-01 5.106836466248056983e-01
-3.547036082456851008e-02 -9.986764927489887034e-02 4.623968265941202360e-01
-1.328539985137976859e-02 -1.245306211945984703e-01 4.982191902636629588e-01
-7.028272071910662833e-02 -1.178919834052866572e-01 5.214189271802798231e-01
-4.027478802109107914e-02 -1.214842304534304446e-01 5.092352526369013921e-01
-5.464402366962987229e-02 -1.006297267581602595e-01 4.597094035931971745e-01
-2.096563600558790791e-02 -1.065066623627034248e-01 5.626365040264605932e-01
-5.400545117778442900e-02 -1.173164726866011975e-01 5.302564079421850929e-01
-5.323251771760934697e-02 -1.205592178310087859e-01 5.072786905954155268e-01
-1.946017720730336062e-02 -1.226097376063838978e-01 5.434657060123889716e-01
-8.341648313702501594e-02 -1.074673941311593550e-01 4.613235979598697134e-01
-1.835688747287831865e-02 -1.111717086640667262e-01 4.709372842366422174e-01
-3.757519405649956817e-02 -1.080256463122223620e-01 5.433630031169367491e-01
-5.170974359067725262e-02 -1.032946225767596010e-01 4.640393625398684385e-01
-5.701365593715943675e-02 -1.155342571377724198e-01 4.847226925667623143e-01
-4.732132887955640965e-02 -1.122261740688988846e-01 4.787353904017221939e-01
-5.184110594402389915e-02 -1.145803897529717175e-01 4.831010427808055119e-01
-1.138117534269935949e-01 -9.946236638582965639e-02 4.620750316313370076e-01
-4.992985621917834377e-02 -1.204627949984132113e-01 5.060976330443699434e-01
-4.049411470725962359e-02 -1.088048762089616067e-01 4.729383466570603600e-01
-8.922713651526770207e-02 -7.763477831550824604e-02 4.444795249140813254e-01
-1.538908655870213291e-02 -1.051409768016196150e-01 5.652288263054516815e-01
-3.746128907869036156e-02 -9.832212035310439191e-02 4.607735655746993952e-01
-2.905559780889453714e-02 -1.180672418564120418e-01 5.471839912382373550e-01
-9.422579993796929843e-02 -1.213748719158532358e-01 4.709078989224250722e-01
-6.453194690230019959e-02 -1.205914419496641743e-01 5.032643033746105887e-01
-3.747996549341565953e-02 -7.694264857448966655e-02 4.456841337491871946e-01
-8.769737932007894143e-02 -9.702795851375636826e-02 4.522148317004358598e-01
-1.906165720822252177e-02 -1.195756601776615802e-01 5.502021723541359322e-01
-5.059429090966346965e-02 -1.154156289156831189e-01 5.345139094476587527e-01
-7.587037342819037689e-02 -1.086205733826506870e-01 4.651526576631945797e-01
-8.186127940661032387e-02 -1.032884514977103763e-01 4.577913379707052588e-01
-3.607471463887848562e-02 -1.125084484168855370e-01 4.789598723966518312e-01
-1.136684537082460617e-01 -1.134942714617710458e-01 4.713500344608178017e-01
-7.653656777410121348e-02 -1.163197484293398976e-01 4.787885259548240180e-01
-8.960783376695188873e-02 -7.111801607871036379e-02 4.464523485289300098e-01
-9.919841441462934339e-02 -1.208789639631667745e-01 4.695008593864313240e-01
-5.697683873034654900e-02 -1.154714260925854830e-01 5.315814982882841599e-01
-8.372467844209609267e-02 -1.200935017552566542e-01 4.901047909737976105e-01
-7.825529378638186595e-02 -9.931888679369425821e-02 4.551437924601597351e-01
-1.143538925645197213e-01 -1.149356779781403326e-01 4.738828895108548322e-01
-8.949398473683327360e-02 -1.182174570121780344e-01 5.140954359696904286e-01
-2.959177515022756721e-02 -1.123505351986666678e-01 5.501581846750176474e-01
-5.464103136998826188e-02 -9.685858796226536060e-02 4.563702392520855300e-01
-4.751434331102463021e-02 -1.177876797278269438e-01 5.336205081895711855e-01
-5.152790497480042725e-02 -1.209661631101338758e-01 5.162743658226240928e-01
-4.120616904992208118e-02 -1.027270213443874092e-01 4.649475071153536532e-01
-1.181042760373988559e-01 -1.035480287976618952e-01 4.690417665752078524e-01
-1.974008082329848507e-02 -1.256182866943937049e-01 5.203433034094777643e-01
-3.050585584370801850e-02 -1.143210342593281997e-01 5.486797217571394158e-01
-1.468893707993027160e-02 -1.223722824174827556e-01 4.916430471607400876e-01
-5.715873478242916583e-02 -1.130105900332040586e-01 4.789063138577265288e-01
-5.230885184272297123e-02 -6.747343526864479912e-02 4.418507949876485652e-01
-2.631971679746213794e-02 -1.150385686437206262e-01 5.528090375484004948e-01
-1.433788140431981745e-02 -1.147581685368550541e-01 5.588873156851462687e-01
-9.918293595413088526e-02 -1.209598378114971895e-01 4.785273188051982207e-01
-1.095454393022394779e-01 -1.186650446321913660e-01 4.774067673486397934e-01
-5.150406417240764589e-02 -1.026863013776402600e-01 4.632494986991443908e-01
-1.033135335629924711e-01 -1.175707389900792765e-01 5.049645639123172547e-01
-2.164019811691496320e-02 -1.197926726789648039e-01 4.889873833369569600e-01
-6.728420807569358841e-02 -1.205095570067134941e-01 5.150328707313872600e-01
-1.505530365780534049e-02 -1.100863756357416401e-01 5.628968532682625536e-01
-9.165924857053181496e-02 -1.206584128514484877e-01 4.726549376585082451e-01
-6.632869081425180058e-02 -1.067180396570403395e-01 4.652022845158917397e-01
-9.912400928280316881e-02 -8.616011428068139077e-02 4.509742650113814366e-01
-6.928574387533764645e-02 -6.778231153262626041e-02 4.387513865685324088e-01
-4.987899194588026747e-02 -1.150025056855678435e-01 5.351199191874818073e-01
-1.090947293168221394e-02 -1.223981148274487230e-01 5.437841283592163011e-01
-1.050213861973190860e-01 -1.176275733972772797e-01 4.716538026083311741e-01
-9.582669038672537651e-03 -1.224621613785075308e-01 5.425967182635270669e-01
-5.289838731762765839e-02 -1.158662518136450575e-01 4.861167908642096691e-01
-8.236887845115488382e-02 -1.213272811516172972e-01 4.984977111201810973e-01
-9.068103995649164084e-02 -1.142266922186323808e-01 5.164362065059749929e-01
-9.121852342117650614e-02 -7.757653633195234211e-02 4.466880842638483173e-01
-2.618531670918633134e-02 -1.039560951138284312e-01 5.554381400286623194e-01
-1.018407915470827402e-01 -1.081585452103890621e-01 4.608743785860005548e-01
-7.094371472158275682e-02 -1.203992537329627438e-01 4.968877884301776682e-01
-9.918314530409097496e-02 -1.155351794497223999e-01 4.654647734498808531e-01
-1.085015963766595148e-01 -1.187092184494691338e-01 5.009245075534246583e-01
-9.016011906691701050e-02 -9.234860981040435290e-02 4.494754540422138955e-01
-3.759839474417391025e-02 -1.219491293294778789e-01 5.129875919426508668e-01
-5.752733461042146279e-02 -1.198222815454380585e-01 5.014071937726880535e-01
-7.936870120301872666e-02 -1.192488619183147552e-01 4.880946856629567732e-01
-9.190852496537624261e-02 -8.473716296208998189e-02 4.463537615162286865e-01
-9.687636887697460841e-02 -1.197472083370208495e-01 4.670706053416187054e-01
-1.663800780840632779e-02 -1.229794546579721648e-01 4.950838326225135422e-01
-6.634814422771265208e-02 -1.133636329565535644e-01 4.774363617117362568e-01
-4.318101228517964157e-02 -1.023479276529539878e-01 4.644513742297943781e-01
-2.859004845747686180e-02 -1.231681619531694721e-01 5.102333341270968159e-01
-1.020026289059057789e-01 -1.056275615724867611e-01 4.587807586300649554e-01
-2.180291587561238378e-02 -1.074044941178223106e-01 5.614204408001945978e-01
-6.418317057616086674e-02 -1.164672851710487761e-01 4.856102142422694667e-01
-4.292712245148121858e-02 -1.213454746250902661e-01 5.248583102600302697e-01
-3.572832833963219407e-02 -1.209786636222490996e-01 5.350529764006758393e-01
-8.161749068504883797e-02 -1.207541164273427531e-01 5.114251081637775087e-01
-7.443254879046718071e-03 -1.257206710694396823e-01 4.997053486968903169e-01
-1.073300485833766360e-01 -1.194476864813771716e-01 4.781392988811498101e-01
-6.551581052401013461e-02 -9.782387889207834475e-02 4.554896786717341772e-01
-6.089574292324484439e-02 -1.131131795009788638e-01 4.784482670673679272e-01
-8.854565027603435168e-02 -1.181245815924855114e-01 4.709844147168937845e-01
-4.294500067002693031e-03 -1.288292054841135570e-01 5.178934364786740296e-01
-6.985906453604769084e-02 -1.070627268095956236e-01 4.649098335473517141e-01
-6.198237818046016534e-02 -9.069769066033885052e-02 4.503195576715145476e-01
-1.160227110187671690e-01 -1.027114728937435911e-01 4.652194990423033083e-01
-9.137641428794217313e-02 -8.711793382470546521e-02 4.471327763230047991e-01
-2.408929483441177299e-02 -1.157719332101848075e-01 4.818227481659881906e-01
-9.441104042472105162e-02 -1.086351424133147198e-01 4.596357489445599964e-01
-2.081927009948816854e-02 -1.224907983308734377e-01 4.968047085825440523e-01
-8.366023917234771679e-02 -8.240241631124435584e-02 4.437872729375305081e-01
-5.192695372019075217e-02 -1.075197320607021306e-01 4.698570259098741042e-01
-9.558300429149578503e-02 -1.081791621202664727e-01 4.593834646041933256e-01
-1.043844813249981546e-01 -1.197956945492755498e-01 5.008466585927686676e-01
-8.422727728986908677e-03 -1.277836712133194330e-01 5.251198526719559334e-01
-6.306158101336908905e-02 -1.190000121557842766e-01 5.229633743219596065e-01
-5.082413048059372662e-02 -1.191121427175956538e-01 4.979267807767890353e-01
-5.983111268747396544e-02 -8.092482156929368953e-02 4.452506093020578426e-01
-4.830575658446983195e-02 -1.206059014380360811e-01 5.067787953128181089e-01
-1.921537381947496792e-02 -1.256715196708338700e-01 5.170229951759713893e-01
-5.294727104494660608e-02 -1.158297249374949517e-01 4.860297691973243794e-01
-6.108830985574056210e-02 -6.795052525680170263e-02 4.407417843401253976e-01
-7.346528264558599419e-02 -1.208887465172320819e-01 5.116365194157096452e-01
-5.234090398432302699e-02 -9.958110514531892665e-02 4.590986258830145883e-01
-3.626527499136335264e-02 -9.194019261352494310e-02 4.553878299827808229e-01
-9.650295592021418400e-02 -1.212901770379820054e-01 4.685690683260386180e-01
-6.263286327429708200e-02 -1.146078976601524607e-01 4.813343245586790276e-01
-1.112005610522174698e-01 -1.073175816090065626e-01 4.630137438261011096e-01
-6.418328577241468047e-02 -5.756252303632021505e-02 4.380812140315966663e-01
-6.190764758997521072e-02 -1.187968367077675974e-01 5.240025238171809319e-01
-2.724005377747946988e-02 -1.213399149688324796e-01 5.413281216933630846e-01
-9.844692483665949678e-02 -1.171769760227669710e-01 4.661313744436069717e-01
-4.197359004719516951e-02 -1.216126429475936077e-01 5.184210748258093471e-01
-7.302994639646633035e-02 -1.006959061836136260e-01 4.571731306063308020e-01
-2.634424557264742131e-02 -1.208948221189954791e-01 5.433402430383289516e-01
-9.924968659561231310e-02 -1.170187641595869243e-01 5.105274810810247477e-01
-9.511371485906039425e-02 -1.210391044862468568e-01 4.767420537801412284e-01
-9.136255697692360900e-02 -8.744033637324852282e-02 4.472407408092914372e-01
-8.991615655480263147e-02 -7.520590445016273051e-02 4.455796419458026292e-01
-9.259665659895516265e-02 -1.029360503629240808e-01 4.561701552775339064e-01
-6.137269006938499832e-02 -6.261519426410054601e-02 4.393576648514434524e-01
-9.354493946721723074e-02 -1.193280357305759598e-01 5.104766774929603290e-01
-5.151794182942249362e-02 -1.021460784945692896e-01 4.624946330829808883e-01
-6.730046678496002382e-03 -1.249113532909644081e-01 4.967113292633593691e-01
-1.353098518861096944e-02 -1.263791200189094965e-01 5.278796832140172368e-01
-4.313215179935532551e-02 -9.817281107183797872e-02 4.599746194920644182e-01
-6.164212858028919606e-02 -1.208290295107583012e-01 5.079864431614780074e-01
-2.788676800359448510e-02 -9.948433545129872768e-02 4.602237729982801007e-01
-7.236700016780682476e-02 -1.199957034669987821e-01 4.938709697449409908e-01
-5.688123540947458839e-02 -9.011146517716292492e-02 4.507883001323692018e-01
-6.169245293684385428e-02 -8.006501379266738050e-02 4.443682317675621829e-01
-6.873012173916999423e-02 -1.160017846728995522e-01 5.253959787970633455e-01
-5.172277548645616563e-02 -9.724606744919678247e-02 4.572881104109833839e-01
-1.060322345536211380e-01 -1.159490291394804778e-01 4.701230131128065759e-01
-5.936793824257228375e-02 -1.036518550697021479e-01 4.625894856232604102e-01
-3.692043919493473436e-02 -1.214480158732366005e-01 5.314413468804950469e-01
-6.854575695362688514e-02 -7.094077941085785710e-02 4.397730794228589257e-01
-4.599959282320676551e-02 -9.168096527893719594e-02 4.539483588841243256e-01
-8.923142554881630106e-02 -1.027622620670442799e-01 4.561913182959245749e-01
-7.889976231868188472e-02 -1.066753028001594800e-01 4.620819062958940737e-01
-9.250636649985992388e-02 -1.157317199163264976e-01 5.146940742557581938e-01
-6.072064310254756542e-02 -1.127282664162796849e-01 4.776259219214027407e-01
-7.600472830312737793e-02 -1.207141032324874907e-01 4.958780522084794695e-01
-8.475086418584623638e-02 -1.168606039691790083e-01 5.179374924953826786e-01
-8.586367030008468237e-02 -7.215636319318673164e-02 4.415965706830288218e-01
-1.197394736491962791e-01 -1.110823612215529471e-01 4.810351759805885363e-01
-9.498156807710711469e-02 -1.181846435737132078e-01 5.120811971329184420e-01
-1.325080929949546196e-02 -1.026742544705764731e-01 5.663024874369338990e-01
-6.913136069489723978e-02 -9.758213924021628960e-02 4.548497703494108757e-01
-9.269614533605995133e-02 -1.217257441071412233e-01 4.920071329622593415e-01
-8.659066515709913647e-02 -9.652613872368470682e-02 4.519950845589245647e-01
-4.771721060311311102e-02 -6.532772157296674875e-02 4.415764360151746004e-01
-3.752553505752030671e-02 -1.037115728599032616e-01 4.661881304586293906e-01
-1.111079810487642927e-01 -1.031879003783062049e-01 4.596249531983298553e-01
-1.587167935598656626e-02 -1.184729966001460827e-01 4.827845272032595947e-01
-9.145334356836258560e-02 -1.198960437318678379e-01 5.097067835991098139e-01
-3.622674860377188971e-03 -1.288825075011194310e-01 5.184553770655573324e-01
-8.702769864660110655e-02 -7.619174317015495190e-02 4.433214541498783356e-01
-5.196287404719276276e-02 -7.176895313777144347e-02 4.433148494336816015e-01
-6.100833764960177097e-02 -1.208603314516089738e-01 5.121299663268922275e-01
-1.350153519155452772e-02 -1.164679784975296561e-01 5.567840488858671888e-01
-9.948621082535953619e-02 -1.129337738164147148e-01 4.635943063777694939e-01
-9.725131378911749946e-02 -1.153476176945875675e-01 5.127559376961008386e-01
-3.356631609051421300e-02 -1.173982294464563092e-01 4.889042690009326453e-01
-5.703641237042443579e-03 -1.238491754426210706e-01 5.364429462756313827e-01
-7.454300367500499291e-02 -1.193259741944671520e-01 5.180586264944979646e-01
-3.297237880270686983e-02 -8.156059813420690752e-02 4.475983396657427504e-01
-6.354666473017017703e-02 -1.211106842885190382e-01 5.099427360456424418e-01
-7.285668240654621930e-02 -6.203532486482311870e-02 4.376533244424651303e-01
-2.100522643732375197e-02 -1.252707462875675415e-01 5.249329140494516377e-01
-1.107295955207873855e-01 -1.068194623567224472e-01 4.623505689218017078e-01
-7.562362092283594905e-02 -1.191799185760056556e-01 4.884891712500805672e-01
-2.310278097015300638e-02 -1.021153339734666154e-01 4.610162597246113547e-01
-8.325164203652703210e-02 -1.167482686511444462e-01 4.735548749930575951e-01
-3.091837940210379401e-02 -1.223569113553457655e-01 5.061877337641297325e-01
-3.265908771028180890e-02 -1.148041992164344910e-01 4.833718755430346237e-01
-8.273978474746813971e-02 -1.106466531983316265e-01 5.224587702793360711e-01
-1.090273190744114329e-01 -1.066163567060573886e-01 4.615798838244907221e-01
-5.809214337376678722e-02 -1.195787837397327413e-01 5.229447286374216963e-01
-4.606745418516180329e-02 -8.732086864629449996e-02 4.507805495722186917e-01
-4.209256983114696704e-02 -9.911740556644592359e-02 4.609240434486729932e-01
-5.556137122775287734e-02 -1.115311734984083536e-01 5.343416534014038266e-01
-2.136613457574451300e-02 -1.174755870444363359e-01 4.828346393777546153e-01
-8.129561340764385191e-02 -1.183507961746653181e-01 4.810034447048496808e-01
-3.341637602643000166e-02 -8.155454291648689402e-02 4.476675190228073808e-01
-6.758755181207860840e-02 -1.130932962764128469e-01 4.765211550127804174e-01
-3.849100750093605722e-02 -9.818256238698298832e-02 4.605248965163955543e-01
-8.149983501707773470e-02 -1.146890982565669792e-01 4.716878342513257660e-01
-9.058573017746639200e-02 -7.505795604691832545e-02 4.463401402089812176e-01
-2.845476188005135326e-02 -1.225498884728556115e-01 5.348851712152276061e-01
-4.461354146873641041e-02 -1.201155744155611022e-01 5.016153519031658625e-01
-7.281910989959686220e-03 -1.247107530626829774e-01 4.961996794795042742e-01
-8.642890597635241590e-02 -1.003237536328360907e-01 4.547522210824871958e-01
-6.327667094661733327e-02 -9.162581103697464702e-02 4.508248969852471921e-01
-5.365734070213624973e-02 -8.471460399099381422e-02 4.481367970796430455e-01
-4.844761255624902008e-02 -1.033196579876133475e-01 4.647043119759696750e-01
-9.813864360162866118e-02 -1.220473613089391451e-01 4.722649974852779486e-01
-8.329314756402893261e-02 -1.145969176491552222e-01 4.700534571660426875e-01
-1.056814295667348885e-01 -1.215262998577386899e-01 4.933806188056722997e-01
-8.623600339653156310e-02 -7.257664779621947337e-02 4.419704736095978470e-01
-6.138921982156197998e-02 -1.179514468430312019e-01 4.915765085231305065e-01
-3.760076815941347517e-02 -7.619988402830707441e-02 4.453686368631344927e-01
-8.755484095170885939e-02 -7.518119280006052563e-02 4.434650583643646171e-01
-8.034092221904505504e-02 -1.019122137845090981e-01 4.568859827258841544e-01
-1.115490247836791182e-01 -1.108665003478674221e-01 4.670528299773490932e-01
-2.581528405726846165e-02 -1.018009948924546021e-01 5.552918637683060821e-01
-3.825343355878812329e-02 -1.075562128239233445e-01 4.710120795094963064e-01
-2.413792620627963625e-02 -1.228290924714597332e-01 5.379757453496145647e-01
-4.235816289685794683e-02 -1.159699487240996446e-01 4.863686587590198007e-01
-3.585364097227147079e-02 -8.134394643158525395e-02 4.479544290250415117e-01
-8.902026251828010217e-03 -1.173143876610669434e-01 5.550257234568797271e-01
-1.356530831289229182e-02 -1.009244529822334313e-01 5.665220411530774713e-01
-2.033581568651909172e-02 -1.114569283882616280e-01 5.600170520734619739e-01
-3.889533741268034334e-02 -9.621459840465748647e-02 4.587339629677999464e-01
-1.052174834074622312e-01 -1.214271921821722389e-01 4.850427285986809722e-01
-9.792006069812474178e-02 -1.030823564982882301e-01 4.563724052854052360e-01
-3.492686292842842738e-02 -9.662298086763300431e-02 4.593493792192843705e-01
-2.800617081758540600e-02 -1.210871067075489915e-01 4.970489189498031868e-01
-1.033120357833601094e-01 -1.150895486539332963e-01 5.068370006383544624e-01
-6.337962519713301324e-02 -1.071351833388275998e-01 5.320574518417641174e-01
-1.629398414494762776e-02 -1.249281863536935433e-01 5.028274418289577774e-01
-1.722604565964523660e-02 -1.171723082002133765e-01 4.804390936741880780e-01
-2.437875894449405625e-02 -1.157271368572215381e-01 5.540790519458194119e-01
-3.103257846697711486e-02 -1.224936437123022581e-01 5.314948820354844505e-01
-5.505991775934575977e-02 -9.266217140505376981e-02 4.527576835110697084e-01
-9.104010465802576946e-02 -1.142932521113905336e-01 4.628809822013251196e-01
-1.086670795625298558e-01 -1.174951198088094312e-01 5.017063139051045617e-01
-1.051400869730151205e-01 -1.216043406261084758e-01 4.930483531056440438e-01
-9.853632311917087661e-02 -1.208655900187222132e-01 4.798845067546732013e-01
-3.961835970019045305e-02 -1.026306682388243158e-01 4.648848536668253595e-01
-2.501556166760025152e-02 -1.112574103526013519e-01 4.747784662365212016e-01
-5.106703166889509787e-02 -1.145581587317535954e-01 4.830966357131123434e-01
-2.796375333153414133e-02 -1.236934809989502781e-01 5.221293894271260561e-01
-7.118327070052542227e-02 -1.211152585633540751e-01 5.029524833094651814e-01
-5.456514559486628363e-02 -1.207727128252893828e-01 5.165106468691740282e-01
-5.053992815427265500e-02 -1.136790983325587368e-01 4.813753624007182652e-01
-1.075324885982473083e-01 -1.116177404539817342e-01 5.061117738762594964e-01
-7.502665132670553738e-02 -1.120966310995820392e-01 4.711825202012135394e-01
-9.121277284265885688e-02 -1.215733829135855343e-01 4.927936139632981827e-01
-8.882119890355880121e-02 -9.817964451816930949e-02 4.529278915602873989e-01
-7.484207940198799036e-02 -1.127483775083675116e-01 5.268075350684348068e-01
-8.159274991921795783e-03 -1.162502222636810217e-01 5.567370804240397986e-01
-3.261591884904167099e-02 -1.228434400986501696e-01 5.218419677030059489e-01
-2.849563852178551952e-03 -1.286307740962642776e-01 5.257934414056413264e-01
-1.062349340357768013e-01 -1.030865166835147201e-01 4.577431212040897757e-01
-2.654991416852193337e-02 -9.553021325160576671e-02 4.564198171478519028e-01
-1.951358202418225496e-02 -1.159524302492092596e-01 4.790147867428714568e-01
-3.284095102927165472e-02 -1.062746950911350602e-01 5.472335822346084955e-01
-8.886484190397631044e-02 -1.216285526247201376e-01 5.002245750516582934e-01
-7.834194720440540438e-02 -1.211312599162859827e-01 5.087651850997053637e-01
-7.957534632062676638e-02 -1.193488210289089524e-01 4.885381924537505194e-01
-2.662255609199005654e-02 -1.236290740195500337e-01 5.296753199890263941e-01
-5.664278752524799093e-02 -1.195576951442706704e-01 5.000614026199100559e-01
-3.384969214274037574e-02 -1.224730376248741454e-01 5.144065637953494363e-01
-7.875375464307472761e-02 -1.214753852843427212e-01 5.012655377333142814e-01
-3.257063973623287867e-02 -1.220679836878594271e-01 5.325197118965002696e-01
-5.551556206927669296e-02 -1.135156552581270684e-01 4.802555819937217585e-01
-7.916180367797694128e-02 -1.213805488271497424e-01 5.001244571730192323e-01
-1.077769638842006605e-01 -1.197423081765208314e-01 4.790458284445608395e-01
-1.191150820099381308e-01 -1.152138895267985907e-01 4.851974320496210691e-01
-8.941025024544434208e-02 -8.963383483924379502e-02 4.480173877730100895e-01
-3.721579910649695788e-02 -1.065527265915523075e-01 4.696061382161184627e-01
-5.943376590010207572e-02 -1.192391985970724377e-01 4.976047614282126941e-01
-6.451387332179570056e-02 -1.206942163577720412e-01 5.147602753333024861e-01
-7.652504079476978027e-02 -1.209782239407705129e-01 5.106381903930389266e-01
-5.760278674367882296e-02 -9.260212743519251333e-02 4.523179694480467528e-01
-3.868210281322123113e-03 -1.288629182897805536e-01 5.204326612592728996e-01
-7.914877017338078913e-02 -1.210642809995089858e-01 5.093931975169954107e-01
-1.166598894911042711e-01 -1.002675619034908289e-01 4.673590478632321799e-01
-5.720854851370632543e-02 -6.467466804903083955e-02 4.403262617623117103e-01
-1.085311382658654678e-01 -1.168774938464926388e-01 4.730393455625152010e-01
-5.897051412962939221e-02 -1.079619177782778633e-01 4.690968214853781793e-01
-8.410927143734070466e-02 -8.751219828112762056e-02 4.466059459109108509e-01
-6.247544510452635036e-02 -5.994983535515131107e-02 4.387492150392232060e-01
-1.983115278199239218e-02 -1.248262131115387003e-01 5.060798052486085163e-01
-2.444018293167548109e-02 -1.013103646335081903e-01 4.606182160979438445e-01
-8.024873899969818536e-02 -1.129336922884108807e-01 5.246068477048170253e-01
-3.896025907421302170e-02 -1.218992843000691051e-01 5.220214933552289605e-01
-9.782105235003686616e-02 -1.087440748625860265e-01 4.600185840824650985e-01
-4.908883698016604236e-02 -5.949606949338888395e-02 4.399854913854953642e-01
-4.661771654424568673e-02 -9.763175272722079967e-02 4.588105301821178150e-01
-1.137159740697995663e-01 -1.190554089286113143e-01 4.827466552910093522e-01
-8.583925998794987577e-02 -1.205312254812891809e-01 5.101360412794507804e-01
-7.465566399438183787e-02 -1.129051857988074559e-01 5.267728976104789629e-01
-5.367142316601642565e-02 -1.154927596618972180e-01 4.851425653011225969e-01
-1.082601862532909243e-01 -9.672819934016123333e-02 4.561997954670052313e-01
-9.901002067465186629e-02 -1.211858112008555727e-01 4.817485477443462782e-01
-1.572634531372250205e-02 -1.115749753165211355e-01 4.704357460430447779e-01
-9.611083837945966213e-02 -1.205009534370809071e-01 4.806844667933754534e-01
-4.549799463554922430e-02 -9.700519010652726426e-02 4.585021775608810746e-01
-5.781656242741295415e-02 -1.207363662327142206e-01 5.104993436919561534e-01
-9.125140844286946940e-02 -1.217220887172349303e-01 4.982062939010060143e-01
-4.711537374721172511e-02 -6.432699642788031191e-02 4.413279290410986322e-01
-5.836942708390026324e-02 -9.269261784751657574e-02 4.522786879663380222e-01
-7.999735724488048205e-02 -1.180922194188110258e-01 4.813307572061152340e-01
-5.762836118503314453e-02 -1.075614071595036303e-01 4.687300212565506663e-01
-5.990978849182244936e-02 -1.201452958989663172e-01 5.194592643187962988e-01
-1.910121164823179798e-02 -1.255028271597184719e-01 5.285660401173412071e-01
-1.074351696722731231e-01 -1.198649195760419228e-01 4.984836906458264827e-01
-9.724831372078904246e-02 -8.030362557221647213e-02 4.509362355537930855e-01
-9.056760048514277128e-02 -1.203628513266231798e-01 4.850472950849084031e-01
-5.435310883591367576e-02 -1.082418880964134272e-01 4.705547485739054459e-01
-3.923420980713784173e-02 -9.811197512612716831e-02 4.603720942093847412e-01
-9.072131514092761362e-02 -9.592839562928621999e-02 4.514340993266262592e-01
-4.373013000888169993e-02 -1.005780575201500049e-01 4.623620506854869694e-01
-1.862091743887502038e-02 -1.205948342076336027e-01 4.892036760790088312e-01
-6.628317950879554499e-02 -6.213875945693350666e-02 4.383110695046102401e-01
-5.419141080159274593e-02 -1.190910275811083996e-01 4.976356673902316841e-01
-6.323351783925011682e-02 -1.210696248478444065e-01 5.103248905839447014e-01
-1.242933796343542383e-02 -1.265326499596400867e-01 5.272889958010889000e-01
-5.179234836564643868e-02 -1.086536602678903202e-01 5.377120718378263220e-01
-1.120238878591514053e-01 -1.201583242880932267e-01 4.872436528845490167e-01
-1.206188581964644096e-01 -1.109153585820527171e-01 4.915970968323748469e-01
-3.376927223922462917e-02 -9.796709001008298279e-02 4.603684524203823236e-01
-7.780065477926814688e-02 -1.105087249945444494e-01 4.672078468531815076e-01
