-5.409566493408737853e-02 -1.221905299417163776e-01 5.121944189399745273e-01
-7.716018010071834521e-02 -1.216634992959652051e-01 5.148427227082903457e-01
-1.114160299044294478e-01 -1.031386645447423117e-01 4.582481473449676046e-01
-2.291217135506024016e-02 -1.247867066910922917e-01 5.298569008673149616e-01
-3.058728875669985275e-02 -8.277550927954366311e-02 4.473726626785615168e-01
-6.306473960159516071e-03 -1.287053886583463813e-01 5.167195826462096520e-01
-8.067165873263174025e-02 -1.216015903903985007e-01 4.881599958674503470e-01
-2.240324898581003837e-02 -1.103380638617897092e-01 5.585234486388049868e-01
-6.753069543283421461e-02 -1.223764274953932085e-01 4.995612609230690726e-01
-5.742637333798140259e-02 -6.611620349127046714e-02 4.399073234047496950e-01
-6.423697959665386481e-02 -5.841168338638111357e-02 4.375600350487003909e-01
-3.398631850825529349e-02 -1.012575769923641511e-01 4.624957447796132493e-01
-1.013072401557021246e-01 -1.243730385290729018e-01 4.815144952061763961e-01
-3.193536351156320979e-02 -8.490248168235367543e-02 4.489676599824564129e-01
-9.533743320722057324e-02 -1.194981604582236456e-01 5.112566500571962269e-01
-2.912818516407456038e-02 -1.234727999643213114e-01 5.299641635099859860e-01
-5.622362781818350530e-02 -1.023725188143247838e-01 4.591114984982299085e-01
-7.176841750735231396e-02 -1.145029968398436349e-01 4.718183524726193290e-01
-1.193883452229924508e-01 -1.131166900508872170e-01 4.750822496828915331e-01
-1.181066815809438814e-02 -1.050380185311208664e-01 5.659574019194090200e-01
-2.648604196092639237e-02 -1.088945136013738796e-01 5.545602366590529630e-01
-4.192843325802925181e-02 -1.091101143545451374e-01 5.414440114442649055e-01
-7.043494287504158125e-02 -1.203418994855474933e-01 5.188721335744421737e-01
-1.981341957240637455e-02 -1.206757451179895912e-01 4.890407341354454096e-01
-1.037151417413428728e-01 -1.243869162947169038e-01 4.944186618049741799e-01
-2.475738818849272313e-02 -1.173852850485075927e-01 5.512976953266640612e-01
-1.130116429746797768e-01 -1.085086602174984011e-01 4.619455163208811554e-01
-8.750215301165471804e-02 -9.229250943941223750e-02 4.472179146059450661e-01
-8.282940179864578534e-02 -1.164143249114092671e-01 5.198929074816981410e-01
-4.088110157811832013e-02 -1.162581848181551136e-01 5.389134643901970501e-01
-5.920287566505455512e-02 -1.098832862610676919e-01 4.687338025462481905e-01
-2.546261727767310662e-02 -1.245796416524713734e-01 5.160704448997989191e-01
-1.184261457786981581e-02 -1.274697110591277160e-01 5.137163514214455606e-01
-6.323216745001562777e-02 -1.221391449406022539e-01 5.025787602254286890e-01
-8.100087930115737467e-02 -1.207512909694457431e-01 4.814858019359382069e-01
-8.610527595655705080e-02 -1.199273128926055809e-01 4.697273249424781527e-01
-7.070206281009991378e-02 -9.596450403032416587e-02 4.510833375471274831e-01
-2.948867178921106558e-02 -1.152184083620684668e-01 5.485612552204497394e-01
-4.790731861066536285e-02 -1.175521919835292722e-01 5.338836028583471283e-01
-5.617748674980627133e-02 -1.200290971176621313e-01 5.251353479763332111e-01
-7.270994418739304410e-02 -1.151473348673703601e-01 4.725709636953249748e-01
-1.212977071760747670e-02 -1.186144699980645617e-01 4.810559835598348655e-01
-6.585232400905983996e-02 -1.170348515673172163e-01 4.806639932461777565e-01
-6.442136771717445198e-02 -1.127316412384760519e-01 5.294915434368738794e-01
-4.926552203566817584e-02 -1.080247253804817592e-01 4.685300997085743435e-01
-9.452799177098718253e-02 -1.241636451350825038e-01 4.738932916304843257e-01
-5.046017584547196101e-03 -1.207725114074337663e-01 5.448774024513571845e-01
-3.311566160108963403e-02 -8.181520035117935408e-02 4.471782029629772226e-01
-7.046407235592416773e-02 -1.051876259142912051e-01 4.592937916275237620e-01
-8.820558187568385000e-02 -1.224949625071196230e-01 4.835429643548585510e-01
-3.698782486675429582e-02 -1.153289442256508618e-01 4.824968541325097005e-01
-2.212626361812054104e-02 -9.799562497872744971e-02 4.564189813467022239e-01
-8.547754199466671421e-02 -1.218767156985682415e-01 4.758520634299872043e-01
-6.981632311159577386e-02 -5.393438275390680797e-02 4.397840033905418555e-01
-4.917373547889164476e-02 -1.220174506060331121e-01 5.176941610943996963e-01
-8.890512764281037483e-03 -1.281190725624115345e-01 5.234024268269985569e-01
-9.203758438346093529e-02 -1.236916560825919026e-01 5.000325400536558274e-01
-3.821637567665303603e-02 -1.131606309684564798e-01 5.423213011575211961e-01
-5.545633812795619511e-02 -1.015752662304900966e-01 4.583742111456199919e-01
-4.998617305715381126e-02 -1.188322221977740067e-01 4.908678338693266419e-01
-6.296181125895249607e-03 -1.260113137542829553e-01 5.325808899073388725e-01
-1.024308594117490923e-01 -1.129292822055794898e-01 4.614737626502657952e-01
-7.152505019392509100e-02 -6.566842703291274341e-02 4.369277725787233391e-01
-7.777303403362700873e-02 -1.063165061969030961e-01 4.584496318625299605e-01
-2.005195326285800009e-02 -1.242794311078263408e-01 5.363903186295380099e-01
-7.702585039661244415e-02 -1.223599953855511041e-01 4.921946072204211320e-01
-3.715202298681705845e-02 -1.227778447429269393e-01 5.228097983227513179e-01
-7.135607317291717266e-02 -1.226138667653988990e-01 4.970571805539161780e-01
-1.134150248443062531e-01 -1.218006776061282131e-01 4.786651368835032061e-01
-3.562810120204160103e-02 -1.153087900681934591e-01 5.430628282821011732e-01
-5.459180490466868096e-02 -1.161784279565604566e-01 4.823110280229266911e-01
-7.758830108401273962e-02 -1.040774851381387200e-01 4.563865299705452960e-01
-6.806473253121848865e-02 -5.278325677527560128e-02 4.400187984298746247e-01
-4.802403120778241802e-02 -1.137369673269764819e-01 4.786284156058764894e-01
-1.183782183438838488e-02 -1.185584271921791694e-01 4.808604311819452692e-01
-6.611800382881877214e-02 -7.644733105951605212e-02 4.407053377412872841e-01
-5.818155748542624267e-02 -1.183503868815164173e-01 5.279039127894309402e-01
-1.596484525223346856e-02 -1.267641521176044450e-01 5.213958719269931041e-01
-1.158768407570757442e-01 -1.148900307859463121e-01 4.702560087338611972e-01
-5.114455099926322468e-02 -1.201951005822765040e-01 5.258644201424850229e-01
-8.926246627196160466e-02 -9.117124407192747637e-02 4.466963457211087229e-01
-5.374421663136759453e-02 -5.845350895005442526e-02 4.389571868163857360e-01
-1.605171120301757473e-02 -1.267067034270364378e-01 5.195917330518370347e-01
-1.182831820732541256e-01 -1.104013357457205857e-01 4.699584542228195105e-01
-8.563947340906792605e-02 -1.219352919799255863e-01 4.748591363189247905e-01
-2.292093582526734050e-02 -1.251432189068751311e-01 5.226649708839734565e-01
-4.844054185784976013e-02 -1.168740301532363857e-01 5.344980860784925847e-01
-4.093335646055813043e-03 -1.289720536455806754e-01 5.162101892512072077e-01
-4.782199139874559329e-02 -1.221707016146152958e-01 5.127480900068390746e-01
-1.142484255612004687e-02 -1.266615283188130547e-01 5.048327208919872744e-01
-7.143283041740147721e-02 -8.481833748016115448e-02 4.432881926749534518e-01
-9.414653892837712701e-02 -8.330349931969067978e-02 4.472548959165927318e-01
-4.030754393251317902e-02 -1.219616745617119746e-01 5.290147057865430824e-01
-1.063386971756368621e-01 -9.892853789852833202e-02 4.545288615454876058e-01
-8.993996297400408402e-02 -1.238318283231009259e-01 4.998242865407515056e-01
-5.920257146986528801e-02 -1.008551712403006062e-01 4.570053880604508789e-01
-8.529392316201583890e-02 -1.216058001920249376e-01 4.810601177445998911e-01
-8.878430566099118626e-02 -1.225483101901788663e-01 4.777618062583346981e-01
-8.627342261654813438e-02 -1.235079354541854801e-01 5.029147933975679496e-01
-1.755789957950153191e-02 -1.183283860384967828e-01 4.819773867728595618e-01
-2.271493592849707296e-02 -1.043794251112585558e-01 5.601766267590949644e-01
-9.268034165096919463e-02 -8.715198751841596314e-02 4.459663720680454024e-01
-9.150156370751194590e-02 -1.243250746194604905e-01 4.939418582124076584e-01
-5.196323097208376679e-02 -1.013687535123957290e-01 4.587218264589004169e-01
-6.971805800996157265e-02 -1.072204764067668653e-01 4.615816848073523437e-01
-4.547633746037489655e-02 -8.218805464490942791e-02 4.470443723480259091e-01
-5.040273781734865705e-02 -1.143554768832296259e-01 4.795360078753295729e-01
-6.793516314774414311e-02 -1.203402756644106897e-01 5.192213409828039250e-01
-4.211663104511332439e-02 -1.220746686911683837e-01 5.262574161561794917e-01
-3.827022487599809203e-02 -1.177843437216914979e-01 5.393568417378423741e-01
-5.396309551480810845e-02 -6.205336863223907123e-02 4.395329203592122647e-01
-2.353842598228731223e-02 -1.043855418444292332e-01 5.589149626139550131e-01
-9.406644269825480131e-02 -8.616970527734478524e-02 4.463773664248166795e-01
-3.204426095635595079e-02 -1.103322173233654557e-01 5.468120323440364139e-01
-2.766133501162759342e-02 -1.241259403903732100e-01 5.168593162110544093e-01
-5.448323534932491413e-02 -1.093447629300645652e-01 4.691810670107676162e-01
-8.543887185889917357e-02 -1.222491250933272072e-01 4.851625196296250331e-01
-1.063458976530498173e-01 -1.214443030376534810e-01 4.741761744908858933e-01
-7.634099429144917959e-02 -6.354520141695906010e-02 4.371069985157027271e-01
-7.991436636010806893e-02 -8.210718951904831531e-02 4.415968609031319381e-01
-4.797560646419493646e-02 -6.304243675149888426e-02 4.402780988249134220e-01
-1.310461398050191337e-02 -1.154017726192687471e-01 5.583556100123000521e-01
-5.311791067760681523e-02 -1.215875517309791543e-01 5.043736692475885297e-01
-8.543788562921833529e-02 -7.520516074559718822e-02 4.411339396171727878e-01
-2.705075463904916405e-02 -9.569084635799107730e-02 4.561786479022187368e-01
-6.327686489268461584e-03 -1.245043863249972876e-01 5.359152263604145539e-01
-8.791324432387337406e-03 -1.238159518767670692e-01 5.389293113413669012e-01
1.023620087426033469e-03 -1.289421099930231907e-01 5.139698287894340911e-01
-2.601568075590677750e-02 -1.241715077449212501e-01 5.292548251265414283e-01
-5.744616832457238170e-02 -1.179231220205510244e-01 4.862997258693436686e-01
-1.019689612863637976e-02 -1.221362280884574630e-01 4.884003720841960106e-01
-7.975666399691316855e-02 -1.232035221905311284e-01 5.067310776898493740e-01
-7.152325147872998223e-02 -7.455048952917112115e-02 4.390080047078576131e-01
-9.816913675036728626e-02 -1.246858822507037334e-01 4.869578675193393380e-01
-4.737209986964465575e-02 -8.659834718299616596e-02 4.489525294686728674e-01
-1.116743073951914078e-01 -1.134920598727586633e-01 4.654597520460018734e-01
-1.603902812894201363e-02 -9.765853270667045061e-02 5.661540881403827052e-01
-2.965959672708868428e-02 -1.169625112706558223e-01 5.472353308053868881e-01
-3.196767281142946782e-02 -1.109959736896850985e-01 5.468386376665317350e-01
-3.075775688524012147e-02 -1.015357820626034274e-01 4.621975667490575979e-01
-5.447773533575161337e-02 -1.217996997723909264e-01 5.177761369245906797e-01
-1.132358504205451949e-01 -1.229257463788527988e-01 4.891877271436569918e-01
-7.484585709765220751e-02 -1.049642541580816518e-01 4.580559237904712755e-01
-4.423552768803479945e-02 -1.222737138210158170e-01 5.136016435895498500e-01
-7.308786403631943596e-02 -6.069701448378959224e-02 4.374247834394927592e-01
-1.025704628278941710e-01 -1.153635023669329768e-01 4.639031994763923028e-01
-4.036388447653605632e-02 -9.736035355112131195e-02 4.582005772847086988e-01
-8.908888642196149954e-02 -1.237750399416955860e-01 4.901017431957875869e-01
-6.176041202188333606e-02 -1.050554633111632635e-01 4.609325285538427575e-01
-6.858916618982180413e-02 -1.054764588841236583e-01 4.599811584546767418e-01
-4.802091381199408149e-02 -6.100906170848315740e-02 4.398334922614559606e-01
-6.453023996263820838e-02 -1.211243606994033967e-01 4.950576405259267121e-01
-1.010425062166786514e-01 -1.226343858425299471e-01 4.720901850046547721e-01
-2.123544245798969152e-02 -1.243562998139831344e-01 5.032207781835807969e-01
-9.328363125721617077e-02 -9.024579972440163744e-02 4.466514146032451449e-01
-6.831373127874977580e-02 -1.149419587466490172e-01 4.749414577555690631e-01
-5.764992695971671299e-02 -9.409129278115166417e-02 4.516102833042532350e-01
-3.498316878398306101e-02 -1.186491088281678569e-01 4.899276047738664874e-01
-1.401785957336400268e-02 -1.269505003493827389e-01 5.251541995093472748e-01
-3.746701465962157251e-02 -1.151928360754384123e-01 5.418141356165020461e-01
-7.258539288692644753e-02 -1.140241796631441540e-01 4.706286596323825400e-01
-2.098820345505476512e-02 -1.134219476899395312e-01 5.576891258920628758e-01
-2.818616187482759008e-02 -1.053035644982703856e-01 4.658295984359218656e-01
-2.272830283101109211e-02 -1.128312830086735941e-01 5.571863270250270173e-01
-4.301915074836440422e-02 -1.120177665976198889e-01 5.397042823568801717e-01
-1.180422239590444011e-01 -1.193555030272789863e-01 4.899398762227940574e-01
-2.562658437523408425e-02 -1.083305613665690170e-01 5.554232875720728213e-01
-5.169814286251365326e-02 -6.356178717160576586e-02 4.400491073150887833e-01
-1.249242100123750324e-02 -1.222448451510808887e-01 4.892420603468733420e-01
-3.855426770509810114e-02 -1.136971083034865881e-01 4.791671396221291457e-01
-7.019311566848775163e-02 -1.227570287645836367e-01 5.000934058246879754e-01
-1.125940855882209823e-01 -1.074167033693734924e-01 4.609781094343091690e-01
-3.039682377911561567e-02 -1.195141648725851630e-01 4.912865277849735035e-01
-9.710760313052536896e-02 -1.236108285338219093e-01 4.997510437104834558e-01
-9.954463890672519966e-02 -1.240940620557331453e-01 4.774389175653128148e-01
-1.048304000725628210e-01 -1.063677778707173560e-01 4.565290903899456576e-01
-8.712854453784560360e-02 -6.998428703287860875e-02 4.440762526018611211e-01
-1.121468126976518098e-01 -1.224675286872381613e-01 4.809329892365852288e-01
-9.893442064234533873e-02 -8.224710214447349121e-02 4.544085511100929287e-01
-5.012819812327177355e-02 -1.156862227184111691e-01 4.822028162215873381e-01
-5.268784641017063702e-02 -1.190999944841677066e-01 4.916249153006458372e-01
-4.451014602604929510e-02 -1.109222461121118636e-01 4.742851683382892647e-01
-7.126961357963296217e-02 -1.193652062823717941e-01 5.207528434231968317e-01
-3.445254809810446156e-02 -8.643964729561413873e-02 4.502727658649841591e-01
-4.788703598422967833e-02 -1.193006509576987340e-01 4.928268978936181655e-01
-2.636067171855972779e-02 -1.244389235728138171e-01 5.220852708092296179e-01
-4.676660812215202578e-02 -1.132017324589145307e-01 5.372324761594656772e-01
-4.715496375373679633e-02 -1.174341680708287372e-01 4.863939664559476794e-01
-6.700739927748550206e-02 -1.210753895203505737e-01 4.925198077589298395e-01
-9.773412364385053452e-02 -1.244409436673270530e-01 4.939058017816273516e-01
-8.145178676723695277e-02 -1.199437856717083806e-01 4.749070248277627582e-01
-3.167561326659109472e-02 -1.111496110560848821e-01 4.743085062765418081e-01
-5.099845556599397894e-02 -1.221618720283491472e-01 5.121182500050498465e-01
-2.225799640037148461e-02 -1.135749256962158282e-01 5.568862408032428934e-01
-3.966758645018522711e-02 -1.128256293130189963e-01 4.775981535761517072e-01
-5.652559546149558967e-02 -1.216013048787087519e-01 5.187592447872094725e-01
-6.726365156578757720e-02 -6.636233705379560033e-02 4.378477610898717232e-01
-9.159493816791100529e-02 -1.241539053797428988e-01 4.889838569460001061e-01
-8.483841483440160425e-02 -1.068964334206837646e-01 4.570473380483565662e-01
-7.849729706742050728e-02 -1.194123700745966937e-01 4.771977405564065688e-01
-7.952009285428834895e-02 -1.204617562696123495e-01 4.796952479432170513e-01
-2.411265307366761840e-02 -1.236364231971658068e-01 5.353641372947745003e-01
-8.334232162306132174e-02 -8.106727735064553353e-02 4.417227108555448201e-01
-1.215333971631011797e-02 -1.240772886123714114e-01 4.948373581787731679e-01
-6.648521156680010924e-02 -6.881671297312860758e-02 4.385563878573391361e-01
-3.961045375742014429e-02 -1.015409672204725944e-01 4.620682114737693635e-01
-3.619416570213868783e-02 -1.172970044985789245e-01 5.409845704039012437e-01
-3.414069165306216763e-02 -1.154294557634759355e-01 5.441416048788749737e-01
-4.412072728876070826e-02 -1.095106635274198659e-01 4.719544610597348755e-01
-1.076586063652791303e-01 -1.240729365770856241e-01 4.890727990298156524e-01
-1.118519723698808283e-01 -1.231370886728999220e-01 4.843188689358142729e-01
-5.483299405919063452e-02 -1.218727388373989917e-01 5.165786485476593359e-01
-9.807974935892627144e-02 -1.234516920316354044e-01 4.679004879957726626e-01
-8.819308618155512203e-02 -8.368948968568258595e-02 4.438512412564658560e-01
-2.559655648245172388e-02 -1.224441050469358416e-01 5.392735922566365137e-01
-5.850495628968579997e-02 -9.980218317100887637e-02 4.561662536055705597e-01
-6.985448021518522732e-02 -6.434202510410744202e-02 4.371252716882179645e-01
-2.074224268805355265e-02 -1.251610451997939577e-01 5.075129398313273921e-01
-1.027740161466359908e-01 -1.140500497476615166e-01 5.089743633308823068e-01
-1.012843562328441388e-01 -1.242813611206074753e-01 4.808475739686469130e-01
-8.016069411211833307e-02 -9.603839005111777793e-02 4.498795698660417175e-01
-5.049313984171390629e-02 -1.217981142418909091e-01 5.204563885723023642e-01
-6.977052772516365020e-02 -8.719519540540943137e-02 4.450090851850905249e-01
-6.428562006577193122e-02 -9.020664674191966603e-02 4.477195487318725298e-01
-1.538949454444979263e-02 -1.161105047665185325e-01 4.768000068594416274e-01
-4.358503743511428496e-02 -8.900909072115047171e-02 4.510484363874179281e-01
-2.270057476360207507e-02 -1.104193484302088829e-01 5.580450008039259391e-01
-5.555989567055463069e-02 -7.553378974833227510e-02 4.430666255061699865e-01
-8.148384362695290650e-02 -1.133399865415661706e-01 5.220780010126383486e-01
-7.476992225418055416e-02 -1.167340791633262459e-01 4.746526021864234113e-01
-3.519879205912508635e-02 -1.108545788157780099e-01 5.441978021734770188e-01
-4.593533280035568683e-02 -1.150928086456034782e-01 4.815616242440689532e-01
-5.212702873762088684e-02 -1.211083727732603921e-01 5.012834580477465440e-01
-4.210594416177622368e-02 -1.098046454861401205e-01 4.725870973533851660e-01
-8.691017071044325470e-02 -1.173078351838635347e-01 5.164626011419329865e-01
-9.611393528401655784e-02 -1.243534944893914668e-01 4.943074275195619705e-01
-1.083840113751112083e-01 -1.210556422514169617e-01 4.740395832893278816e-01
-9.247234188796243926e-02 -8.444310672767277315e-02 4.459033982871505875e-01
-4.867793037056597841e-03 -1.230902982344469487e-01 5.392014046503670333e-01
-2.711447945609906512e-02 -1.081042969246451824e-01 4.693837946953048346e-01
-2.493041394942873551e-02 -1.233524871524353250e-01 5.023231605600309013e-01
-1.083417974713797166e-01 -1.158795841463429177e-01 5.033252010232460716e-01
-5.694105394487797289e-02 -7.851989583162898023e-02 4.437828866715050058e-01
-3.364723646500987486e-02 -1.080172088235669819e-01 4.698848850977712099e-01
-9.870226020350408858e-02 -1.247423231327910720e-01 4.905503069413174599e-01
-7.246586262129281475e-02 -1.140182300383970199e-01 4.706737971753455763e-01
-6.073904076165369259e-02 -8.604747500826848139e-02 4.459719504681766145e-01
-2.623012093606342035e-02 -1.120722723710413232e-01 5.543033328965795148e-01
-6.808038353746012628e-02 -1.221331137942863604e-01 5.136864494461883535e-01
-9.975425580934171865e-02 -1.195475424581194934e-01 5.082038608032369842e-01
-3.776092156062932359e-02 -7.932861723459544434e-02 4.461081901387068949e-01
-9.350390107994564770e-02 -1.082384669489486612e-01 4.565209175867315228e-01
-7.636868712386582492e-02 -8.720618836337704072e-02 4.444434970960197684e-01
-8.160439226000129609e-02 -1.235571911013919610e-01 5.034609803627374536e-01
-5.647090170812596455e-02 -1.196334495111218005e-01 4.930281236488792129e-01
-8.624576593908168942e-02 -1.232416997880970144e-01 5.057178787199221315e-01
-9.984167810788405206e-02 -1.107361813039899195e-01 4.591327551280616759e-01
-8.135623155346523305e-02 -9.438470371071133735e-02 4.486060231157404377e-01
-9.496904421178858913e-02 -1.229730104502565202e-01 5.047156425096056553e-01
-6.189016814787385440e-03 -1.282382193478065202e-01 5.101094231323041184e-01
-6.322379708751628413e-02 -6.012460586066749324e-02 4.379882300517277671e-01
-4.402948604916165354e-02 -1.137182962542964554e-01 5.383439666140149571e-01
-3.140850218586658388e-02 -1.039319543861284001e-01 4.648493130138471874e-01
-1.100808059754740248e-01 -9.966555897171303080e-02 4.562214890255012478e-01
-7.782848357220689683e-02 -1.105145248239021438e-01 4.628871168030546102e-01
-5.742815991644997092e-02 -1.190194233253538264e-01 5.270440271246621400e-01
-1.286873827369079334e-02 -1.153472648495837000e-01 5.584127375259121395e-01
-3.189200889561172314e-02 -1.209260044967571807e-01 4.964490855926888546e-01
-9.776931924064580226e-02 -1.203252175480995362e-01 5.094266626285705035e-01
-4.130445246676655441e-02 -1.224198198347260652e-01 5.128564365086686339e-01
-6.757369223659273616e-02 -9.108375994002843035e-02 4.477562267812492114e-01
-8.566382514407337723e-02 -1.238651687878857405e-01 4.986092847154533492e-01
-3.318761168926617072e-02 -1.233068897297711908e-01 5.226744363644223457e-01
-3.098450363040320538e-02 -1.201302656175644440e-01 5.418599424062257031e-01
-6.856578895491204084e-02 -1.228017384642495630e-01 5.039785318655257695e-01
-3.549134878497132994e-02 -1.230250482779707832e-01 5.198406320695788674e-01
-2.736413400585830866e-02 -1.170468323915009323e-01 5.489124982586263135e-01
-7.508991267636333511e-02 -1.233391429570177833e-01 5.046950998167988311e-01
-4.507292908521288999e-02 -7.771299850587652658e-02 4.452747275939871741e-01
-8.328578260741759109e-02 -1.212990268535137084e-01 4.797889144647539683e-01
-7.267661616977870442e-02 -1.203835013087431183e-01 4.853832343271199390e-01
-9.628472295560569494e-02 -9.299314597038244035e-02 4.491037369796216372e-01
-1.121938410179952467e-01 -1.150316472079998265e-01 4.673849996610112689e-01
-1.215509220407235552e-01 -1.116492159899911130e-01 4.776717126002064107e-01
-9.841933803963029415e-02 -1.181831367334222060e-01 5.104796414764242174e-01
-1.140981273901439663e-01 -1.121860186636671614e-01 4.655138430397548488e-01
-6.331379832385074236e-02 -8.172809567847569290e-02 4.432650431328677976e-01
-8.278250276549538322e-02 -7.750126475753094102e-02 4.399538689092151178e-01
-4.915484890449040023e-02 -9.041235766810390428e-02 4.509321845464895340e-01
-8.656195516157830228e-02 -9.892359033757029685e-02 4.509428572865435969e-01
-4.980567370795663251e-02 -1.201489247702607205e-01 4.966179105841825869e-01
-1.106004295378157191e-02 -1.204070666430950287e-01 4.847261762868225743e-01
-2.206619418409377920e-02 -1.062735344591258374e-01 5.606147623339092778e-01
-7.962743474216114892e-02 -1.191141633065700978e-01 4.752751398846876141e-01
-6.785806676247134461e-02 -1.218720902408719220e-01 5.157883502350179006e-01
-7.254060142095852814e-02 -7.390721971011883495e-02 4.387303731649255800e-01
-3.265217306731493796e-02 -1.137867977930541452e-01 5.458773685243326623e-01
-6.622329935880234830e-02 -1.194708607226025177e-01 4.872218735529879052e-01
-5.110103546077409548e-02 -1.196892293830208731e-01 4.944588387834205623e-01
-7.634658614705859547e-02 -1.199001993597913207e-01 4.804373429356101344e-01
-1.030382749825120708e-01 -1.245550356560354566e-01 4.933412697183752194e-01
-2.994387886253124798e-02 -1.082962018547034833e-01 4.700118653533071900e-01
-6.033015888984936265e-02 -1.089499211793087674e-01 5.323988182144826498e-01
-4.559896748753195644e-02 -1.088702201534561542e-01 5.400926759292669077e-01
-5.027005401377329652e-02 -6.848511278806952707e-02 4.416238594199984879e-01
-2.084421582865980671e-02 -1.055943883369052788e-01 5.625024554546210753e-01
-3.707352463598667658e-02 -8.297575399078657710e-02 4.480809433261722097e-01
-2.136725472729710321e-02 -1.135214018651196505e-01 5.574120809843022828e-01
-4.554872711407771668e-02 -7.063581900608643938e-02 4.426372302174730322e-01
-4.780893524364016045e-02 -1.152265483748162733e-01 4.815707473886939871e-01
-7.159739743802917555e-02 -8.415313438559622605e-02 4.428319176785056044e-01
-3.014883244379998328e-02 -1.225639039439107708e-01 5.027168948160712914e-01
-1.195748324636771581e-01 -1.151003014808794495e-01 4.844281461195043548e-01
-8.412732261756677987e-02 -8.900896219086744388e-02 4.453665317421406922e-01
-9.624272489091813265e-02 -1.179333682934324695e-01 4.623897356708464024e-01
-9.851963688179909973e-02 -1.165431617876418607e-01 5.112180183568135750e-01
-4.588946832290805022e-02 -9.751957254249450646e-02 4.571672945558980516e-01
-4.775165291169439913e-02 -1.166589628457477823e-01 5.349534078369955203e-01
-2.482475688634800531e-02 -1.151151150797455613e-01 4.801265759355089480e-01
-3.682592634707263640e-02 -9.089365378607838775e-02 4.533574899273378200e-01
-8.717856664693308943e-02 -1.239486500437392835e-01 4.982615359231269969e-01
-5.226942511645366746e-02 -9.385316811693825145e-02 4.524639773560840128e-01
-7.042842349200031937e-02 -1.030632679263060736e-01 4.571179703421052176e-01
-9.037653977421697404e-02 -1.141309831864336238e-01 5.167665055340933122e-01
-9.141772474746905075e-02 -1.241865892730898702e-01 4.965314649764884791e-01
-2.076870932877053835e-02 -1.110061813568018751e-01 4.712667382155069085e-01
-7.968447141165678482e-02 -1.215051466608361580e-01 5.153320447524385450e-01
-3.383367608191031883e-02 -8.823078736873161965e-02 4.514380258514413269e-01
-6.491094661416188516e-02 -1.205255195476583330e-01 4.917751555584568002e-01
-5.576441742216561859e-02 -1.199081108189790218e-01 4.943133636415615872e-01
-3.172413100384014611e-02 -9.724750321934180763e-02 4.586462584254830666e-01
-5.673775215219094975e-02 -1.185278934568161219e-01 4.884691678802875470e-01
-7.382556996679792705e-02 -1.179006470252505351e-01 5.228247789905445808e-01
-9.923687398540476101e-02 -9.177424283419184647e-02 4.504888922081272673e-01
-1.167017112779509952e-01 -1.170594280359562034e-01 4.751012202587231448e-01
-7.184722292532771948e-02 -1.191482745179020114e-01 4.823806243238886737e-01
-6.247502287973346474e-02 -7.629343992097527283e-02 4.415676303589299856e-01
-1.182688734788149842e-01 -1.197849157276179577e-01 4.877392551990699654e-01
-4.228196575048839140e-02 -1.073795828400319480e-01 4.687219643131413926e-01
-8.081232934764917553e-02 -1.228077380176959138e-01 4.921573306079171095e-01
-1.226474271340699355e-02 -1.269341747976105161e-01 5.263568870280518341e-01
-5.188899920687857492e-02 -1.206836702020913227e-01 4.986759239044801229e-01
-5.978502454122066462e-02 -5.831789874687370867e-02 4.382267917080949760e-01
-7.659251130789323549e-03 -1.262844698621637951e-01 5.005576626539761653e-01
-9.004903821816585829e-02 -1.086680416849757774e-01 4.573709208886251321e-01
-9.635714163509173646e-02 -1.250473288439429842e-01 4.704087435746289736e-01
-2.219703751256496896e-02 -1.142288142364023401e-01 5.563696089747781626e-01
-1.554813621473359088e-02 -1.248637179107014855e-01 5.356577176948806862e-01
-1.494152622842210773e-02 -1.262385285573758287e-01 5.064570138860708948e-01
-1.071421818547493680e-02 -1.244921059639857580e-01 5.371647464708687592e-01
-5.037985014186070060e-02 -6.914514221798677418e-02 4.417985372205228134e-01
-1.153821138447313766e-01 -1.194339480534288012e-01 4.767524533225505068e-01
-2.684777169933531826e-02 -1.214787315653814564e-01 4.956810950864447007e-01
-1.207114649701633707e-01 -1.120666256492529739e-01 4.836161573658389057e-01
-9.098067391478921809e-03 -1.258658101321544209e-01 4.996085912046905331e-01
-1.110034042887647343e-01 -9.947096996446233574e-02 4.569870127589229503e-01
-7.699553160635651261e-02 -1.160915960056473767e-01 4.720587763624753963e-01
-6.091201708936823389e-02 -7.796067814984801447e-02 4.425213950784512851e-01
-6.464068960766447547e-02 -1.085950310295843296e-01 4.648800516567493379e-01
-2.878094561239788116e-02 -1.135364155236363165e-01 4.785960993224596671e-01
-3.518846620695532945e-02 -1.230313852318265788e-01 5.221280345893603014e-01
-2.999043393824047180e-02 -1.026060591154927537e-01 4.631461339650004838e-01
-6.412694976369481825e-02 -6.144415464974879726e-02 4.379859290825765528e-01
-2.734883998086091658e-02 -1.107972065389103283e-01 4.735384345103360593e-01
-1.170488313616308146e-01 -1.056330645990594119e-01 4.674173516866257372e-01
-6.172825587312955053e-02 -7.046344122005455957e-02 4.402178648063941879e-01
-5.178246667892201505e-02 -1.186337272224549100e-01 4.899836676830617854e-01
-9.507080505956799765e-02 -9.007385773837246756e-02 4.478296915146642299e-01
-1.070038600972019333e-01 -1.035341468533317738e-01 4.554607198828796721e-01
-2.473524017080883791e-02 -1.117979294231736254e-01 5.557432746288663017e-01
-5.182031750534601966e-02 -6.085650155586046217e-02 4.395780908105315632e-01
-5.268376344194869443e-02 -1.065501134118691934e-01 4.655586751653785771e-01
-1.608771728648964588e-02 -1.229224348042926573e-01 5.442319682998261188e-01
-7.810287962673316542e-02 -1.221576395878580662e-01 4.905137163450619120e-01
-6.508485978277969708e-02 -7.427584186905500374e-02 4.403127328412274055e-01
1.910237809355880235e-05 -1.291036366453339468e-01 5.212930489653223587e-01
-7.404796240166856836e-02 -1.063045207705690387e-01 4.596300249602878196e-01
-4.861279572464932003e-02 -7.486661977369006571e-02 4.438925216111075933e-01
-7.565217614336706975e-02 -9.126124904927636339e-02 4.471431653378351023e-01
-1.021329030898621149e-02 -9.906154683989167042e-02 5.686819557886313437e-01
-3.338511841033076077e-02 -8.720733123339247106e-02 4.508140321590592414e-01
-1.184410166529800690e-02 -1.185656014017670429e-01 4.808775885127929972e-01
-2.174378144414885333e-02 -1.252361566274776405e-01 5.287027338661118847e-01
-8.108063252070203675e-02 -1.107311683315183870e-01 5.247603053633473902e-01
-3.070931937955356794e-02 -1.157259639025899484e-01 5.470225899634847400e-01
-2.122708438461107933e-02 -9.569895420513435669e-02 5.610052155751721337e-01
-1.198488851933313393e-01 -1.134282183737169020e-01 4.840516185396693816e-01
-6.507727173795312126e-02 -1.036239709167509904e-01 4.587432524348549201e-01
-5.780222993334029752e-02 -1.198752026757919364e-01 4.934720901388656156e-01
-4.556440892144152099e-02 -7.944648130565505617e-02 4.458989383255491656e-01
-8.882621752401964610e-02 -8.433503773952258364e-02 4.442420820268873083e-01
-5.731439457126744075e-02 -1.157752378978154917e-01 5.311066280374628912e-01
-9.977657914790738491e-02 -1.247094678114637617e-01 4.920484825945835028e-01
-1.284724143683834557e-02 -1.187638958018022856e-01 4.815619432094565000e-01
-1.122212501889527231e-01 -1.228946636306894602e-01 4.833712003989780737e-01
-1.212533876531460102e-02 -1.272123035138097991e-01 5.096167671885808437e-01
-3.118093765065803324e-02 -1.235594492411137557e-01 5.163175148938358161e-01
-4.274620565797813271e-02 -7.143042072187778813e-02 4.430183651137090117e-01
-1.047950436345260472e-01 -9.530257537726968819e-02 4.536856026530791119e-01
-6.681392404194710921e-02 -6.883795349178603584e-02 4.384931666040350340e-01
-8.611419271955451926e-02 -9.616239532988711536e-02 4.493400651116847277e-01
-8.459419121805927810e-02 -8.137780027546841211e-02 4.420968510404237328e-01
-1.330116950823288964e-02 -1.247065993880657891e-01 4.977543203637871949e-01
-5.608842946861303941e-02 -1.020993809942373765e-01 4.588116757213839270e-01
-9.270009197682346769e-02 -1.012256631006149821e-01 4.519711122620583277e-01
-1.310680271208216480e-02 -1.095304155563452397e-01 5.635555477294766913e-01
-4.788682844787765791e-02 -1.148372610406655919e-01 4.807912159463189061e-01
-1.632241546893362788e-02 -1.262431801596253234e-01 5.289087495197201116e-01
-1.398306282743864981e-02 -1.019667768339294067e-01 5.658895574410039986e-01
-9.023452725798744578e-02 -8.691874301951793558e-02 4.453479509388695301e-01
-2.000667785720742359e-02 -1.257551157176425016e-01 5.165105062657981971e-01
-7.331007305329227675e-02 -1.124981597156644031e-01 4.677097954377814060e-01
-1.446825104341499177e-02 -9.876986091674604118e-02 5.666230476717550868e-01
-4.464957989025019475e-02 -1.153726729259753753e-01 4.821663094782723813e-01
-6.841698504996016061e-02 -1.054851773024166328e-01 4.600260941613117938e-01
-3.114905463210520392e-02 -9.871648348440616172e-02 4.597612356504989228e-01
-3.909629838786909256e-02 -1.225652742320866156e-01 5.116864843525863460e-01
-1.834444396184176443e-02 -1.257421240331302870e-01 5.298931686977864652e-01
-9.152630461234358139e-02 -1.237166940875700366e-01 4.745069312162128461e-01
-5.025086736089501988e-02 -1.149443612401783721e-01 4.807197677683876513e-01
-6.108720473592150341e-02 -6.520603181491210765e-02 4.389639762180323479e-01
-7.101730963529818974e-02 -1.228683110665984152e-01 5.005808599549156357e-01
-1.333074835477674261e-02 -1.250465505355059792e-01 5.349208557209775838e-01
-5.925986722365919612e-02 -1.066318852637792303e-01 4.637278262265948081e-01
-8.571638771266155976e-02 -9.025961377128083329e-02 4.460922054845385953e-01
-3.249080034085818219e-02 -8.302421089740208426e-02 4.477964777026600118e-01
-4.572691601229399161e-02 -1.135067268510594196e-01 4.785006589965685175e-01
-8.952386124265747369e-02 -1.225817627865884579e-01 4.707842346006184120e-01
-5.769668625482492208e-02 -8.422980069720661933e-02 4.456371823228549300e-01
-7.401236631915016073e-02 -1.219933435514568981e-01 4.922839258152319486e-01
-2.915951672302619785e-02 -1.114011253462055540e-01 4.746744325220014771e-01
-2.930294074816475192e-02 -1.140118759751331395e-01 4.796890452218782186e-01
-3.825426984460262442e-02 -9.976625741833294869e-02 4.606153725966198320e-01
-5.948296020811665724e-02 -8.648730936679636938e-02 4.464979221802433118e-01
-1.109673524934268185e-01 -1.198688345077672246e-01 4.729552099846008328e-01
-6.093305976470044655e-02 -1.220475686596530634e-01 5.139011241892733617e-01
-6.186580762622821000e-02 -8.116293190911041955e-02 4.433913141471411135e-01
-5.876169065426943908e-03 -1.274797462892500455e-01 5.052386252588363380e-01
-8.229684474894237434e-02 -1.002793480710546803e-01 4.525425628328996197e-01
-1.484491439709101010e-02 -1.233106471592974596e-01 5.428403492332933844e-01
-6.277938242206429487e-02 -1.041691764316045182e-01 4.597914837626879692e-01
-7.337793109432425021e-02 -1.015586811814125634e-01 4.551158826743934571e-01
-4.198907884066631346e-02 -1.221815534388836361e-01 5.251426337916219600e-01
-5.368387194590479999e-02 -1.156408996863484973e-01 5.326808719462171604e-01
-1.133782659537340143e-01 -1.194417049514441970e-01 4.738440697985642491e-01
-2.405992790535585110e-02 -1.122057868145131532e-01 5.562593968502632658e-01
-3.642844310199280095e-02 -1.169356470011949367e-01 5.411256413135165921e-01
-1.067983372583041629e-01 -1.242687123944213878e-01 4.884147043344160277e-01
-4.595151217455660519e-02 -1.142804261729237630e-01 5.370527411549393948e-01
-1.013526448073922698e-01 -1.224772375956925119e-01 4.708170833419384471e-01
-9.989737979672765056e-02 -1.220599091580795020e-01 4.684988302992923459e-01
-3.164323719195959173e-02 -1.172911727364844697e-01 5.452225866422152345e-01
-8.386456631141921136e-02 -1.210104736595460639e-01 4.743564936027732659e-01
-5.049925102759234702e-02 -1.219757984969041115e-01 5.096745132540583256e-01
-7.509123523589877891e-02 -1.211216610502465207e-01 4.870712536188085973e-01
-4.444543343491565157e-02 -1.178245617976046988e-01 4.881662811071700858e-01
-4.046109006661691848e-02 -1.132839969631661003e-01 4.783714418142285263e-01
-7.846436866592785414e-03 -1.271784586294150698e-01 5.289741844137501037e-01
-1.522853049220175732e-02 -1.141629504770735742e-01 5.596415086197892297e-01
-7.535745448327195450e-02 -1.194868935920982561e-01 4.801587689133807180e-01
-9.036798660189604426e-02 -1.172979061016477947e-01 5.148324969091949699e-01
-8.944877851503472976e-02 -7.611795097483017858e-02 4.449374689241579195e-01
-6.434982695619938242e-02 -9.015471838134897498e-02 4.476709892286901971e-01
-8.865784301312965021e-02 -9.809448900075436184e-02 4.503094222231726618e-01
-2.231054223554443036e-02 -1.121664310731788072e-01 5.579742463683522447e-01
-5.279329442384964044e-02 -1.216985380110744974e-01 5.054203432834998289e-01
-5.184381292822894810e-02 -9.999582988908550796e-02 4.576440004139633588e-01
-8.639868819414139173e-03 -1.252647081986057453e-01 5.348677054084532978e-01
-6.171156444070315106e-02 -1.033233972996773220e-01 4.590847012475777755e-01
-7.429146772723871361e-02 -1.210138858928732769e-01 4.869512951348128893e-01
-1.053656195291064190e-01 -1.244891402017367088e-01 4.898020900360213203e-01
-4.615665867928386845e-02 -1.047915674898236144e-01 4.648498420639346485e-01
-7.245154252672822426e-02 -1.177801227510151538e-01 5.232980217684612967e-01
-8.553424352413829812e-02 -1.205460233750016708e-01 5.135007127321293829e-01
-4.335667961740560794e-02 -1.223934064032254215e-01 5.156119917497974381e-01
-1.167353109820410684e-01 -1.132727895406879792e-01 4.701390292967758677e-01
-2.874343228577008053e-02 -9.899368806847116953e-02 4.594573301086941064e-01
-7.752431876897100671e-02 -1.169826398394345213e-01 4.732475270866994821e-01
-4.658702065441686080e-02 -1.199154951654410051e-01 5.314706626720416827e-01
-7.413876722838147471e-02 -1.077315112296536453e-01 4.610074956167128368e-01
-1.820138977805736691e-02 -1.130743726152079048e-01 5.594174272609279130e-01
-3.032155090298642094e-02 -1.237067598907219818e-01 5.237124886411405056e-01
-5.086005129000120001e-02 -1.209335584115745765e-01 5.003557973959898986e-01
-2.510805612875102039e-02 -1.133984806917239102e-01 5.545599416244276769e-01
-9.411051536153983155e-02 -1.232434237137076949e-01 4.806678407039147727e-01
-8.381586411876211506e-02 -1.227304560557531815e-01 5.097635970414480244e-01
-4.263566558001605916e-02 -1.152207308901300881e-01 4.819719253275250859e-01
-6.236717762154166123e-02 -6.061145151318739210e-02 4.381970065178056317e-01
-5.284564326808980500e-02 -1.117932616759540754e-01 4.739619444469643783e-01
-3.291407958310796356e-02 -1.108843796519927843e-01 4.739229527475101733e-01
-1.118654747362652843e-02 -1.273997520842706510e-01 5.093857148811579139e-01
-9.256100913766547589e-02 -1.228598710537688599e-01 4.803614178915082689e-01
-2.670939034135084295e-02 -1.243921753858321239e-01 5.197482583137839063e-01
-5.303289985191877998e-02 -1.052775938753946899e-01 4.637144264837290142e-01
-5.155105131775709199e-02 -6.677042276670412668e-02 4.409944231792707892e-01
-8.109161337994305607e-02 -1.230889753843453782e-01 4.929177282824231954e-01
-1.141687380706689209e-01 -1.187450903906212551e-01 4.738696996390027172e-01
-9.032966559180057031e-02 -8.692600551958130917e-02 4.453525462553835079e-01
-6.536627286672090642e-02 -1.211208893074936094e-01 5.189676662915110317e-01
-8.831153721643203447e-02 -1.237979862585532886e-01 4.939384385280345957e-01
