-2.681269487506415111e-02 -1.216225331862711145e-01 5.415446362639613209e-01
-3.292065957376215032e-03 -1.227584126441376294e-01 5.389476060017192038e-01
-6.801192129718623691e-02 -6.181473171811087408e-02 4.373530854939482460e-01
-2.265481585214881161e-02 -1.235280816518736502e-01 5.005325557460683639e-01
-3.139266406904919066e-02 -1.118141680842416052e-01 5.472953720783301224e-01
-6.788276936803303019e-02 -1.034083156595167474e-01 4.579105475971801953e-01
-4.683821776408770426e-02 -1.207855364904841244e-01 5.285074561712431729e-01
-2.469169962616695607e-02 -1.247573137806524818e-01 5.163202958622302718e-01
-4.784286773184724673e-02 -1.216989841618681817e-01 5.058229097022884924e-01
-4.820332728322587051e-02 -1.191259249991833968e-01 4.916553811808719865e-01
-9.387837114231589730e-02 -1.238723635410154400e-01 4.659160269721473457e-01
-3.084744446087848979e-02 -1.101090041372818351e-01 5.480435734165279849e-01
-8.457379504768462730e-02 -1.234366791104523214e-01 5.059162317403136377e-01
-8.781999058369077682e-02 -8.215549418827232386e-02 4.436280611950083053e-01
-4.115910208552009397e-02 -9.761490845764611568e-02 4.583084800629715350e-01
-7.606914539183801116e-02 -1.100139733211310672e-01 4.628840706331451282e-01
-2.774947771638605273e-03 -1.249604854270551652e-01 5.353369195487684973e-01
-1.893740059803186715e-02 -1.139654433996157012e-01 5.583005701438995549e-01
-8.942363050971634253e-02 -1.215919865564014934e-01 4.686054165608850020e-01
-8.706462538033764298e-02 -1.237835373452886717e-01 4.923576458478861051e-01
-1.096217695228640099e-01 -1.236982821986742642e-01 4.839999787681933952e-01
-4.169566946521914563e-02 -1.204180143820224591e-01 4.967771757035527314e-01
-4.269096723680295552e-02 -9.363067596904016410e-02 4.548040167886014951e-01
-4.269741570653477758e-02 -1.066712278217631094e-01 4.677872354197200599e-01
-9.069958226614575902e-02 -9.115154682193339630e-02 4.467710421073564087e-01
-1.087379033154690922e-01 -1.234016692159665557e-01 4.951122151643378433e-01
-8.481208545520352304e-02 -1.085109632302776461e-01 4.584379554731627393e-01
-9.328956694093420987e-02 -9.652950239661323151e-02 4.496585101521720085e-01
-3.560605140145523678e-02 -1.196548388877524682e-01 4.928677265939846452e-01
-2.503839953077215824e-02 -1.216614792649041571e-01 4.953425578822441278e-01
-6.509704454882431213e-02 -1.158367651438997753e-01 5.275034570680332546e-01
-8.539098224404230442e-02 -8.426412014303215348e-02 4.434873384666233043e-01
-6.002271494220728920e-02 -6.281107568967134180e-02 4.389947038333039120e-01
-7.757709577573144999e-02 -1.005919874007871750e-01 4.535203601393354433e-01
-5.805319133776531276e-02 -1.219249687637068563e-01 5.148057612159050445e-01
-6.959600609314832431e-02 -1.160012305836079227e-01 4.760935657451228487e-01
-4.432791622719627067e-02 -1.202966829690107764e-01 4.966990612613386702e-01
-5.454716139937532821e-02 -1.214008699466807284e-01 5.214390950173574124e-01
-5.431769510970240605e-02 -1.109572768439868046e-01 4.717654625619757125e-01
-1.023931541439357107e-01 -1.230413064930983569e-01 4.746985215278143877e-01
-1.274869906620329681e-03 -1.291820773941857736e-01 5.173514160690935171e-01
-1.118163036168246804e-01 -1.026465564157031662e-01 4.588178273451666844e-01
-4.783203266301011558e-02 -1.109838104919251278e-01 4.737768206051879427e-01
-1.360957232732629141e-02 -1.206915813886723365e-01 4.859586394817976274e-01
-2.737229579002197280e-02 -1.239796087486936260e-01 5.288687703899099812e-01
-7.460227348969557248e-02 -8.536206980513490195e-02 4.433493795260352588e-01
-3.724923023074138556e-02 -1.177675414728728970e-01 4.875763934365757168e-01
-5.599226969224394695e-02 -1.222323275895481620e-01 5.122678478459939955e-01
-5.140355521092992985e-02 -1.203816750116737250e-01 5.254640637499247147e-01
-1.111065892565224061e-01 -1.223291188788410006e-01 4.779212055068387532e-01
-3.784501868586380435e-02 -1.206954823603712257e-01 5.364178577843191631e-01
-4.925037917107905755e-02 -1.221573491244774406e-01 5.110849072079762800e-01
-5.692758468124783228e-02 -1.088822291105064899e-01 4.676244470218985372e-01
-6.935201857791666036e-02 -6.529688645089114230e-02 4.374134292398892954e-01
-4.504913746915605727e-02 -1.139226253110180165e-01 4.792835039264287667e-01
-1.026414321721350470e-01 -1.199025875586154088e-01 4.686710943755811876e-01
-8.003685450831664328e-02 -1.232547314058975996e-01 4.941123220256016246e-01
-5.157238879454955488e-02 -1.195335696756035931e-01 5.291713774044634055e-01
-1.032698762860391195e-01 -9.990769707234210817e-02 4.530262918850150311e-01
-2.860498358791318391e-02 -9.231858446869169177e-02 4.540188775035588487e-01
-1.153165800637735577e-01 -1.028613648892184040e-01 4.647671853618745574e-01
-9.074281953531281031e-02 -1.214061093378917128e-01 5.110542651443988893e-01
-4.447159209214097964e-02 -9.595425038043062238e-02 4.561893939324808689e-01
-1.928120487187938437e-02 -1.119111145346995961e-01 4.719275555888833851e-01
-6.422566928314080159e-02 -1.226860222652568083e-01 5.100124664572561750e-01
-1.189812064455184615e-01 -1.077280490655882494e-01 4.708353223670402876e-01
-4.534380653417454526e-02 -6.385559205954859097e-02 4.407919429302156189e-01
-9.243792912061415956e-02 -1.215926720128255867e-01 4.637270297951158748e-01
-1.476340944191162179e-02 -1.205080232001378843e-01 4.858281627471418562e-01
-8.833266685522078721e-02 -1.239521167342456792e-01 4.926314007337050382e-01
-4.309561315466436254e-02 -1.214479663290652794e-01 5.308873922616677010e-01
-5.550086355614373274e-02 -1.088790966656893872e-01 4.680033486319984393e-01
-6.058549089867218407e-02 -8.881105425538250719e-02 4.476253524748379786e-01
-6.153382039373413159e-02 -1.225789934295536954e-01 5.086154434664448276e-01
-2.733234959908484654e-02 -1.242486978824508953e-01 5.178282534973954743e-01
-9.653707099529244828e-02 -1.246337847439642904e-01 4.680440922792820646e-01
-4.099951096051600297e-02 -9.547633588076837041e-02 4.565647492226819204e-01
-1.191797353312962632e-01 -1.149817573672421989e-01 4.781205124141961194e-01
-9.316381336485553277e-02 -1.079926471946660166e-01 4.564188076859739263e-01
-3.657681988079184571e-02 -1.085270328680963819e-01 5.433621082007495939e-01
-8.861351316080075258e-02 -1.156883443580507403e-01 4.618842575661483707e-01
-5.009481819128890762e-02 -1.171784796665516076e-01 5.333769679432261990e-01
-8.465881977992188723e-02 -9.784743281389843284e-02 4.504832046423464242e-01
-7.865886799693341813e-02 -1.207752544334567274e-01 4.841921635052130468e-01
-5.392848703478136246e-02 -1.141964987634784545e-01 4.781656469731109249e-01
-7.678954422944922475e-02 -5.930854653276641797e-02 4.386425872657502834e-01
-9.846352654563944595e-02 -1.039548965234687039e-01 4.540347051695154956e-01
-1.791939683947063253e-02 -1.234900743009205992e-01 5.416364460586411411e-01
-6.083940160817195159e-02 -8.836050638588016648e-02 4.473140563468435138e-01
-1.688395278947117661e-02 -1.195047068129909684e-01 5.512916126464668665e-01
-4.400037399906187724e-02 -1.178748656683362567e-01 4.881074688424067998e-01
-6.291656841648293752e-02 -1.094088956804116913e-01 4.666399782943338459e-01
-6.257884604148043761e-02 -5.806180293820740329e-02 4.378525619801391655e-01
-2.440178242010892715e-02 -1.015901103407619716e-01 4.603464449551469828e-01
-1.089391080141745988e-01 -1.108996167159927715e-01 4.614454479302695922e-01
-3.137860090985223477e-02 -8.177290562296496423e-02 4.469350431338843799e-01
-5.427268924277620782e-02 -1.217228483408822198e-01 5.043654099094004861e-01
-4.925450666654774406e-02 -7.684068657636644595e-02 4.446009461097883975e-01
-7.021051493982910507e-02 -9.645587612452964643e-02 4.515101453743231019e-01
-4.847309867267149408e-02 -1.120443418385138612e-01 4.754103374131580795e-01
-1.203931863349421982e-01 -1.105394536238814701e-01 4.727665611177870320e-01
-9.245952564547463282e-02 -1.229965277110483118e-01 5.065738247935586136e-01
-1.167286965317592268e-01 -1.220307030882614996e-01 4.892605501353649577e-01
-7.549095879225818650e-02 -1.225822845816373075e-01 5.126948247759982591e-01
-8.773441589985109257e-02 -1.221480636660645103e-01 4.719225104769875223e-01
-7.109374835918111368e-02 -6.758323636958769864e-02 4.374271300356917802e-01
-5.214490132404674128e-02 -1.218569282868995629e-01 5.064417792179376487e-01
-2.975936361110848721e-02 -9.012027970742175764e-02 4.524875549355960591e-01
-1.965231945957586143e-03 -1.291401318524444952e-01 5.213165297307001955e-01
-7.236893791734368142e-02 -8.661925193933232847e-02 4.444116775545128295e-01
-7.342966688026383859e-02 -6.085848699204687157e-02 4.375788493589504724e-01
-7.821869012067152183e-02 -1.219584558793044282e-01 4.890977237743041606e-01
-3.396289100618901657e-02 -1.151551992335512475e-01 4.819975351983122325e-01
-6.888267995556472678e-02 -1.218245454897870089e-01 5.162083013916434204e-01
-5.825813373222354236e-02 -6.304285760016554996e-02 4.392997199423178678e-01
-2.713978615937218120e-02 -1.202881707160771696e-01 4.919719317599113295e-01
-1.036020506482770165e-01 -8.891686365726418628e-02 4.557459238192538842e-01
-5.346036338172891617e-02 -1.145569603129426572e-01 4.790271894863096236e-01
-4.765936227258234237e-02 -1.201134867689228475e-01 5.306982360217959993e-01
-6.283864986509586636e-02 -1.217718970686249014e-01 4.994000403511045239e-01
-9.387719786802040112e-02 -1.011117091890382791e-01 4.518515216883481345e-01
-7.660734691751516778e-02 -1.229684503573040960e-01 5.099562655120098986e-01
-1.088410857961963525e-02 -1.258586262800950872e-01 5.002656979399734416e-01
-5.535111017098680308e-02 -1.208640435313269590e-01 5.231628512534641784e-01
-8.072267510228584367e-03 -1.268693353852786698e-01 5.032652348560823219e-01
-9.239431863521536947e-02 -1.036182759755305827e-01 4.536803695431791406e-01
-5.921741234545767688e-03 -1.272046664171128105e-01 5.302216088419893225e-01
-1.061758342199805305e-01 -1.209275428288643511e-01 4.724245499492304989e-01
-5.095605626463977494e-02 -1.184829386263114154e-01 4.891368502340858182e-01
-1.487363160163152585e-02 -1.268885593552750435e-01 5.153280305432517139e-01
-2.194677852434780141e-02 -1.252595094875598447e-01 5.278667480502968745e-01
-9.290231218768242594e-02 -1.181607753241272069e-01 5.133753108633942741e-01
-6.414484804465382661e-02 -1.108885525871238509e-01 4.687434091237243639e-01
-2.789430614775627315e-02 -1.087223890615533484e-01 5.522887978986233959e-01
-9.981183065956444889e-02 -8.446988679399712596e-02 4.542027937497530310e-01
-7.258197213061577668e-02 -1.224112397800490304e-01 5.136624856710343412e-01
-5.918083654853500269e-02 -1.111851225880278321e-01 4.707224223264272478e-01
-4.716000108633346122e-02 -1.201453084489910866e-01 4.964264286521184455e-01
-5.014347332556137737e-02 -1.220066007023383609e-01 5.187470118036264788e-01
-8.401714656022944705e-02 -1.216246678067266079e-01 5.128573307717378960e-01
-1.187802314805378595e-01 -1.189897419547537444e-01 4.856555630201864759e-01
-3.507374984848414534e-02 -1.221635947174608688e-01 5.329277461721079190e-01
-6.289075030811322464e-02 -1.224037612672290026e-01 5.045996165643675813e-01
-5.037681784290123227e-02 -1.208660867474254108e-01 4.994400552876752108e-01
-4.987789320334796994e-02 -7.387839072675091157e-02 4.434803687072697009e-01
-6.729693265995238816e-02 -9.623113720717840769e-02 4.516945140433895611e-01
-5.002153377430437753e-02 -8.620060024074541194e-02 4.482924222134532233e-01
-8.186464284017973270e-02 -1.224987639805781015e-01 5.120103527758490536e-01
-4.401673762498797826e-02 -1.193353088001897072e-01 5.351376555201863283e-01
-6.320767088914071297e-02 -7.795019066643057992e-02 4.419744180398067490e-01
-4.986018009265973105e-02 -1.176918269069797823e-01 5.328267561381113682e-01
-7.335216316379802870e-02 -1.233445560813244135e-01 5.023819770998054768e-01
-9.577084189322553065e-02 -1.245739492751490318e-01 4.940281465483528089e-01
-4.417530760173055820e-02 -1.223848023869248264e-01 5.162917116075834700e-01
-6.690453902559943822e-02 -1.218158534953460159e-01 4.961558001966003828e-01
-4.962620013511858524e-02 -1.125525973718497080e-01 5.366055462706580403e-01
-3.914703188621177637e-02 -1.220202394293900955e-01 5.295887974617121685e-01
-7.349127743915706557e-02 -1.079787067564077774e-01 4.613881273519557791e-01
-1.953302694913677459e-02 -1.077560189579650912e-01 4.659431265825758062e-01
-5.530673019070903723e-02 -6.307505790029964421e-02 4.396316789293281402e-01
-6.704845049424358605e-02 -1.224783829340465313e-01 4.997768602203413457e-01
-1.129730991040983762e-01 -1.153994037236488052e-01 5.000370234611866138e-01
-3.175066539954891909e-02 -1.228448321311794988e-01 5.063648273449212756e-01
-1.084180485250859916e-01 -1.146204829963243521e-01 4.649709499163289794e-01
-9.227270548309536580e-02 -1.244394110301186157e-01 4.957077180305556330e-01
-8.635951287859912340e-02 -8.944222256390579884e-02 4.459327640905430545e-01
-7.758330323165150977e-02 -1.181721524234199266e-01 4.753095133954703955e-01
-3.701812722676926098e-02 -1.229271219848994262e-01 5.159679434929208552e-01
-2.593991526487670479e-02 -1.065372163077903528e-01 4.670646154345766687e-01
-2.154579612093993762e-02 -1.239164443483390249e-01 5.012922414467994026e-01
-8.408124653946885685e-02 -1.218181881702182362e-01 4.757786340014479309e-01
-5.505695960819950718e-02 -1.056856415343511713e-01 4.635602386581517687e-01
-3.189778801309910844e-02 -1.235507370948686900e-01 5.216642177885834064e-01
-7.806319859315420662e-02 -1.169380858688948005e-01 5.224147609131316594e-01
-5.527218777761057356e-02 -9.273993006051030330e-02 4.511247666626170827e-01
-5.625580416135570611e-02 -1.139588523276275356e-01 4.769502245283748221e-01
-8.165387141930127712e-02 -1.187508599861971936e-01 4.719019510759757119e-01
-5.712141243822864423e-02 -1.115872136987430541e-01 4.719780778879897887e-01
-2.412585733772238533e-02 -1.058359938913576020e-01 4.654243540852114336e-01
-3.188194151181990288e-02 -9.512717636386626430e-02 4.568919375220674151e-01
-8.296041855525121758e-03 -1.180520280605641403e-01 5.541243414500049980e-01
-3.398748418886204936e-02 -9.704974928856074934e-02 4.586201687296954654e-01
-7.860962333612339648e-02 -1.208506287275734892e-01 5.173703401896224685e-01
-1.201715090262812091e-01 -1.130758480731348936e-01 4.828010624472627299e-01
-2.240600091623470499e-02 -1.000261986907475115e-01 4.582966482966217558e-01
-3.090002166368877728e-02 -1.195844562201523048e-01 4.915747280051314672e-01
-1.031427627996649339e-02 -1.221470077491131345e-01 5.460477230022651174e-01
-7.520198669287955773e-02 -1.202001995114133498e-01 4.818790149309903348e-01
-3.960156389144398048e-02 -1.036832043181568214e-01 4.644717561220892410e-01
-3.839350081672320697e-02 -8.284347153642551698e-02 4.479653984458349392e-01
-8.547171931084968088e-02 -7.821544848243909553e-02 4.418510011070402310e-01
-1.963451640860197286e-02 -1.205798532436444387e-01 5.483675332386284129e-01
-7.921939354316946680e-03 -1.272631453632450116e-01 5.284892878009076478e-01
-1.223660957017496005e-02 -1.270993148319495003e-01 5.081451415301205810e-01
-6.527624686850720670e-02 -1.050655809748432673e-01 4.601545547629244393e-01
-7.014998727991091088e-02 -1.210346765470700914e-01 5.178779978853946808e-01
-2.279231802750905644e-02 -9.886170704974205081e-02 5.585570148149785474e-01
-9.887405339506852298e-02 -1.098427206340432810e-01 4.582495269523553238e-01
-3.264189420338178133e-02 -1.146248674044051258e-01 4.809146605906154948e-01
-8.797753465077504109e-02 -1.189732570925590982e-01 4.634717975176175786e-01
-1.139939102089474188e-01 -1.140621305305976885e-01 4.674698256669226337e-01
-3.487629602224096015e-02 -1.228362879329899376e-01 5.272833091990086762e-01
-1.026865535536297808e-01 -1.249922978621077069e-01 4.877311204999028038e-01
-7.112584372863466065e-02 -1.221492637580037927e-01 4.940036624389891329e-01
-7.639347755769176906e-02 -1.226964713587515993e-01 4.934930609608316754e-01
-9.988074218930809156e-02 -8.744286928078597032e-02 4.519746351070204060e-01
-5.563380287673440339e-02 -9.160705854287951033e-02 4.503538051823737232e-01
-1.006664312439552039e-01 -9.241814419599192476e-02 4.508553227065472124e-01
-1.824675005481984566e-02 -1.243735879691815621e-01 5.001969068767624371e-01
-1.072630016788799906e-01 -1.239030652308398400e-01 4.945479789945440019e-01
-8.407095202700383407e-02 -9.206127438994367307e-02 4.471815332875361815e-01
-3.081317601051671365e-02 -8.765039180448357115e-02 4.508085843133627924e-01
-7.188278466223783914e-02 -6.728590251601880567e-02 4.372028779738816873e-01
-9.743638167391653615e-02 -1.207163382108083355e-01 5.095622456228345865e-01
-3.511624968983969447e-02 -9.749149632633767604e-02 4.590059590773287179e-01
-8.137083511244634637e-02 -1.189454318781340975e-01 4.725832707116620068e-01
-4.630263960233593767e-02 -1.147611871989093757e-01 5.366714209283068859e-01
-2.207910927235152282e-02 -1.247269933077978510e-01 5.318261628517690909e-01
-7.862104192949043169e-02 -1.216828651782138476e-01 4.879605361161584165e-01
-9.241701704558963337e-02 -1.232579754170571446e-01 5.053663321070732684e-01
-6.171633917933128100e-02 -1.214107107136201402e-01 4.981429123601889275e-01
-6.139852605191411378e-02 -9.887909034491189353e-02 4.546562212194084074e-01
-2.969847827447946037e-02 -1.230031013354525027e-01 5.330987289272410834e-01
-3.411008539190030914e-02 -1.224454288028792581e-01 5.316953869325090620e-01
-2.972469788167824215e-02 -1.197679000381572101e-01 5.433837104190208933e-01
-9.447985806125556996e-02 -1.219500685193378869e-01 5.089626654135521733e-01
-7.951924062024159218e-03 -1.281220780207793231e-01 5.243508918865369406e-01
-5.934005284712470796e-02 -1.085275993033702202e-01 5.330080936790888568e-01
-8.987347527749431353e-02 -1.241399910793179462e-01 4.989253371928596414e-01
-8.822647020037739651e-02 -1.240694531474676454e-01 4.997964937172840738e-01
-1.459279611959933033e-02 -1.233432043908141845e-01 5.428251352005056818e-01
-1.176208779840028085e-01 -1.124741505108022011e-01 4.706625199294963702e-01
-5.209122535093701351e-02 -8.839227290705194140e-02 4.490956222578996737e-01
-7.396792230464967199e-02 -1.216495817100570614e-01 4.896935598099634301e-01
-4.639045177665644670e-02 -1.148962859728415858e-01 4.809891630804736806e-01
-2.353154763904845986e-02 -1.016526852912662954e-01 4.601050895080935343e-01
-4.431829488115749532e-02 -1.222483601560854644e-01 5.189429650470184230e-01
-2.420589154460871945e-02 -1.245417696136854324e-01 5.104681591429549581e-01
-3.304814869499009267e-02 -1.140562573756807307e-01 4.797777380250348167e-01
-8.168318334721950957e-02 -1.236694893462524508e-01 5.040584262003069416e-01
-9.930833146955046764e-02 -1.249615769189849901e-01 4.903349710623109425e-01
-8.547382683316097352e-02 -7.183178507009475855e-02 4.412625112105459935e-01
-2.185329178870934475e-02 -1.185679835905472934e-01 4.847134602717779739e-01
-8.855602138392050515e-02 -1.157736180703121676e-01 5.167531268971892189e-01
-2.384597191726753329e-02 -1.139697303102304299e-01 5.553387257064769100e-01
-8.417211677767777456e-02 -1.156349698000166543e-01 5.197029239761454811e-01
-8.574054951652791690e-02 -7.286661098953177429e-02 4.413602193262793350e-01
-1.852745675569171524e-02 -1.261239007296210968e-01 5.179907366521957490e-01
-1.006567112311030354e-01 -1.044537031642918112e-01 4.544794347260253664e-01
-1.121065211718108301e-01 -1.166663637513284668e-01 5.004279578676925633e-01
-3.009049947899582536e-02 -1.167830948765051502e-01 4.853401012242305468e-01
-4.705069542978532193e-02 -1.096614749584221560e-01 4.717272007663902977e-01
-5.489724753863919199e-02 -1.089545241792514163e-01 4.682911745400908377e-01
-5.118473363826104433e-02 -1.087692569964379963e-01 4.689828570775430028e-01
-5.216981429044004193e-02 -1.195980837903013877e-01 5.278795617277827201e-01
-6.640853367086872738e-02 -1.220476884381641036e-01 5.153517066105073319e-01
-7.682808463214629846e-02 -1.234613000893733659e-01 5.054228550195698499e-01
-8.202850408835876683e-02 -1.223817463690212715e-01 5.124661020132543765e-01
-2.801168148174653857e-02 -1.241601539428390105e-01 5.203897344171357631e-01
-3.931367121825159183e-02 -1.222827502962914731e-01 5.073608263637511273e-01
-8.345613705447765818e-02 -8.060824362565828516e-02 4.415669523197020552e-01
-9.253351458280911768e-02 -8.976563364076617368e-02 4.464076898895900092e-01
-5.947127731914370746e-02 -1.185609718962851028e-01 4.872747299809400690e-01
-7.822427708439071148e-02 -1.213289910823453915e-01 4.864765087786740438e-01
-2.160966026428497860e-02 -1.237321039553075930e-01 5.004343444369069305e-01
-4.476872339105879978e-02 -5.885936731313973214e-02 4.397067934871286554e-01
-6.273167987975540594e-02 -1.211152358130930390e-01 5.202558073191621002e-01
-2.058304100038790135e-02 -1.116318652644677917e-01 5.595281635365804140e-01
-8.376450441395469348e-02 -1.010315097388231192e-01 4.528298076713725417e-01
-2.066075048267287245e-02 -1.153464933848820095e-01 4.781705919852625719e-01
-6.442399673870803645e-02 -7.757267711415212486e-02 4.415339064904542088e-01
-1.666731417616037006e-02 -1.156809396435670712e-01 4.765269271047729571e-01
-3.996177691481381938e-02 -1.086581258264232575e-01 4.706859536007071410e-01
-1.007946634109683492e-01 -8.950573826451782566e-02 4.515239677251866035e-01
-4.591784489163327349e-02 -6.548121525054903524e-02 4.411897919308221949e-01
-1.021010896898391085e-01 -1.202640130248710248e-01 5.047614002228122398e-01
-2.793783297083064429e-02 -1.112428229733573998e-01 4.743329033497069025e-01
-4.220158837316009132e-02 -9.910277629847812075e-02 4.594279389586266582e-01
-5.728353045427813511e-02 -6.033554888916774217e-02 4.389710718331916173e-01
-1.182036209350050548e-01 -1.030017442493451896e-01 4.722117621546334520e-01
-1.194726676740791582e-01 -1.153764375161350081e-01 4.845282815547411470e-01
-2.445280149724252464e-02 -1.065008610282600909e-01 4.665354838166197449e-01
-9.706213726348186799e-02 -8.665429395746870878e-02 4.489824397473460293e-01
-1.413951086713115517e-03 -1.291671768761745998e-01 5.187866278808878073e-01
-2.000418958318968266e-02 -1.109872019422615125e-01 5.604629262827591774e-01
-7.443618887140424079e-02 -8.645994293703136713e-02 4.441286655875005263e-01
-2.361662273414427346e-02 -1.060818250207533620e-01 4.655677177214033180e-01
-4.337175368137413667e-02 -8.898444036615155150e-02 4.510874649410753223e-01
-9.961038802835373018e-02 -1.244506137007394680e-01 4.793221920230559818e-01
-2.364586657535884540e-02 -1.183469903554778685e-01 4.857011548425763103e-01
-1.154701841591228018e-01 -1.211518771493967778e-01 4.801705254186647842e-01
-6.696198491123671326e-02 -9.340923443757431777e-02 4.495768868868424417e-01
-7.391711627547911667e-02 -1.216279704253282329e-01 4.896100377195893305e-01
-9.821507680514399152e-02 -1.246675077635543694e-01 4.827672921631678271e-01
-2.674258408501318726e-02 -1.239307892271816480e-01 5.302374177877637873e-01
-3.257387109969529793e-02 -1.083627299746626194e-01 4.702721337016727010e-01
-9.883856255679887570e-02 -1.247821303811751104e-01 4.847018898826598865e-01
-6.389660517732750900e-02 -1.003965731435835923e-01 4.556995888302575737e-01
-6.137319692052708997e-02 -1.099642152741087814e-01 4.680726376429421021e-01
-7.426661118564890918e-02 -5.995524151025172915e-02 4.380605490152099102e-01
-4.770144176588560214e-02 -6.759024467442067974e-02 4.416333138102923050e-01
-8.946321952727422089e-02 -7.705272379367418545e-02 4.449750943098695344e-01
-1.051079597602398719e-01 -1.248046146178434512e-01 4.885601972522326530e-01
-5.351023581948766844e-02 -1.177241413635576744e-01 4.867203022222967301e-01
-5.462144214532309999e-02 -1.218285946960351446e-01 5.185020287386288285e-01
-8.482037774252330908e-02 -1.150311788757654163e-01 5.197127747056331515e-01
-6.836880886950091885e-02 -8.581294369651139287e-02 4.444565126404421695e-01
-7.013645670235545138e-02 -1.162495076310603309e-01 4.762854020631223650e-01
-3.054215260399817389e-02 -1.217623871335410529e-01 4.990223553579161142e-01
-7.165365786957898775e-02 -1.136673253047858767e-01 4.702581022150428836e-01
-1.040595788247325321e-01 -1.248339203093902783e-01 4.907405637474330229e-01
-8.409447825655133602e-02 -1.191994842309225811e-01 4.701403217564987247e-01
-7.520318454009564113e-02 -1.218831068307557053e-01 4.901896294533843457e-01
-1.173033457351903425e-01 -1.063061359692561297e-01 4.680815732805563290e-01
-9.709278550020337961e-02 -1.251990179305157436e-01 4.694184104750519504e-01
-7.367929489301164314e-02 -1.202255057354185835e-01 4.833624123517692994e-01
-1.806325440137820579e-02 -1.261519246666765459e-01 5.142886577306904350e-01
-9.361628455491596834e-02 -8.245713674812607530e-02 4.474335699942891820e-01
-1.895371729721789800e-02 -1.185161752358268733e-01 4.829282526168330314e-01
-3.519682888161861090e-02 -1.076986433280146954e-01 4.695104446954926902e-01
-9.254622577561609498e-02 -1.231108209182085467e-01 4.805510992210667576e-01
-2.205771106361973169e-02 -1.190237035255404807e-01 4.859216781060518020e-01
-3.508249463109957417e-02 -1.223883475355705547e-01 5.309217211399859249e-01
-1.045590963281531477e-01 -9.461973052436142839e-02 4.537882185138532032e-01
-4.346927396254236103e-02 -1.189733667149911328e-01 5.356945230092042820e-01
-1.130633061199672884e-01 -1.023985098215202116e-01 4.607954639477479519e-01
-7.147972442926932291e-02 -1.138819994546049347e-01 4.707025257550889186e-01
-6.988053242546352073e-02 -1.203351628138705776e-01 4.875427371149049227e-01
-1.056953960870491704e-01 -1.142318492482900932e-01 5.061033001548247423e-01
-6.404804023250845746e-03 -1.285805761180198459e-01 5.150778979027237359e-01
-5.301349528049045801e-02 -1.153319283748731050e-01 5.332624217944685885e-01
-2.538418263201147607e-02 -1.212374238359787554e-01 5.435618084376934167e-01
-7.510162827142649600e-02 -9.359648708227054359e-02 4.487639483715022970e-01
-4.767540463088396074e-02 -1.209326619091196653e-01 5.263465408253965583e-01
-9.390564938548032203e-02 -8.733062618213670303e-02 4.465998830170268552e-01
-9.871278450933568260e-02 -1.248915859714368470e-01 4.916878144968382380e-01
-8.208507397850037246e-02 -1.107886671660724826e-01 5.229870434963699299e-01
-8.504587205490823920e-02 -8.430134779169760895e-02 4.434227609520955404e-01
-2.811847330222545099e-02 -1.217397693276854875e-01 5.398579298044678954e-01
-4.537878306147317964e-03 -1.287032107481448640e-01 5.129150852664134952e-01
-1.160617266008872883e-01 -1.179770320409248008e-01 4.948400593163772565e-01
-3.735602164330998481e-02 -1.102839412152449017e-01 5.428295579442899976e-01
-3.721128040359780731e-02 -1.056282076480424131e-01 4.668267438373607803e-01
-2.885858625167178268e-02 -9.253164910633659979e-02 4.542175719866465289e-01
-1.169657711209206585e-01 -1.160714725993618190e-01 4.740995414823853116e-01
-5.081998256104695508e-03 -1.275079530375022863e-01 5.296217733048148579e-01
-2.389317225411373077e-02 -1.240252338425286843e-01 5.332656386145445682e-01
-5.351008182987435774e-02 -1.219134782672744027e-01 5.182378651261091429e-01
-1.049704682939794909e-01 -1.224984467333653099e-01 4.756760463451872867e-01
-1.423345727580405118e-02 -1.241152784821538818e-01 5.392640805233465118e-01
-2.834491115206407355e-02 -1.138841595802038975e-01 4.790780780697849184e-01
-3.633069764517584538e-02 -1.058103412110936031e-01 4.670918327006274851e-01
-4.587757039973882484e-02 -1.137561649833519484e-01 4.788409424820224136e-01
-3.004853020542004940e-02 -1.011740814253500181e-01 4.616792581664301287e-01
-1.794871402395203930e-02 -1.258268429732844196e-01 5.077315299442669572e-01
-6.517654752603557755e-02 -1.203218641146156093e-01 4.902257532199991719e-01
-6.664813394223401133e-02 -6.893235946938455760e-02 4.386305161120340745e-01
-8.812304988589150789e-02 -1.238005587659322809e-01 5.018424265850702781e-01
-9.200364268250854627e-02 -9.302717105800414887e-02 4.477388260392300978e-01
-8.963875585390362888e-02 -1.223693685497219685e-01 4.697555760370746847e-01
-1.061686112198274856e-02 -1.181605179584959975e-01 5.541927799314959602e-01
-6.003941389980928245e-02 -5.956719714540731347e-02 4.384774521123429580e-01
-8.377892975117803842e-02 -1.216818140421117855e-01 4.786232971792672708e-01
-5.440983703016019635e-02 -1.218967918296066377e-01 5.177968044845168150e-01
-1.099638701056333268e-01 -1.227929680750307478e-01 4.963593386857600986e-01
-8.674148907199992486e-02 -1.203418448094716736e-01 5.139604858807224064e-01
-7.104473132869593144e-02 -1.176441329987737427e-01 4.787442018150248058e-01
-7.067829319062834958e-02 -1.227141714620243323e-01 5.107966884031384103e-01
-6.283217502376550745e-02 -8.843048451813399768e-02 4.469310432368213681e-01
-4.613976507325297932e-02 -7.694587879811065623e-02 4.449313899966837460e-01
-7.265092683617949132e-02 -1.224793308459846408e-01 4.948356129033804063e-01
-5.168054928601095721e-02 -9.421296569445483660e-02 4.529006371294611033e-01
-9.037413804103530679e-02 -1.083201864193114039e-01 4.570461979077283243e-01
-8.069951090762679524e-02 -9.885303091608182990e-02 4.517874302720898960e-01
-1.590073607267248820e-02 -1.205666711305956457e-01 4.863759498191717046e-01
-1.554506452162118628e-02 -1.254009128963713415e-01 5.336515993573617278e-01
-7.905510282596241167e-02 -8.508107959105672136e-02 4.430482759329746334e-01
-4.007934544651269027e-02 -9.911274610088520454e-02 4.597366454472197606e-01
-1.174819827841375175e-02 -1.148305018102971781e-01 5.590049862806941716e-01
-3.927452880984591554e-02 -1.225665606345900521e-01 5.102428466829437292e-01
-2.415623269507218701e-02 -1.037075554928979237e-01 5.574349102911898557e-01
-7.958955291380988284e-02 -1.234432121438440028e-01 5.060870216181055925e-01
-4.669539154798339753e-02 -1.197107764091505794e-01 4.942994821699681629e-01
-4.984558690253439173e-02 -1.191422144115095727e-01 4.918704756383506793e-01
-2.484650950156267954e-02 -1.147994084969299194e-01 4.795079084040232975e-01
-2.386808481128734408e-02 -1.174511739879917638e-01 5.517517068337886021e-01
-9.415810989892803295e-02 -1.146286877424112921e-01 4.605047523184543357e-01
-6.913667515182153611e-02 -1.092720395451457910e-01 4.643112353972850270e-01
-2.127900532849578540e-03 -1.287928272333894175e-01 5.264848267966940609e-01
-8.280659790041117185e-02 -1.078599716630273264e-01 4.583346061219655820e-01
-1.013412547932297098e-02 -1.216331295135130303e-01 5.474328003449062674e-01
-1.682268327446613532e-02 -1.182878026905683777e-01 5.535403012613194784e-01
-5.387045023413710582e-02 -1.108504054179464821e-01 4.717175140366572372e-01
-1.066906829891686899e-02 -1.239376755890631426e-01 4.934682581103594923e-01
-4.235568859779358791e-02 -1.223083989036483216e-01 5.238695118099152559e-01
-7.787048972385941792e-02 -1.226964788090319780e-01 4.925300413163817281e-01
-1.056230549403246455e-01 -1.247395819444372944e-01 4.877952839663157736e-01
-2.275781579058186455e-02 -1.137791934998495236e-01 4.768324387130844499e-01
-8.436918850213215304e-02 -7.128387706589861539e-02 4.402095638437591441e-01
-2.607613533204329592e-02 -9.766178947327899817e-02 4.574270053816941184e-01
-3.780623558773842097e-02 -1.204663323530827113e-01 5.371973313805985528e-01
-1.093209027517262899e-01 -1.233077561482573969e-01 4.949124832593914114e-01
-7.110021860159873586e-02 -1.228954573195464445e-01 4.980145660174823963e-01
-5.301130602063815200e-02 -1.221388527253167433e-01 5.103740578493687341e-01
-2.194743884226929911e-02 -1.253537968195007901e-01 5.240764395698250810e-01
-3.657314216218526121e-02 -1.225751573131455274e-01 5.273014225718599679e-01
-7.803841914157849668e-02 -6.411894442103059644e-02 4.377159681194717766e-01
-4.852829411053937586e-02 -6.094470188960473406e-02 4.398631956215230954e-01
-5.384176054176912501e-02 -5.825129617395050780e-02 4.389969728588707931e-01
-8.079963136790663247e-02 -1.119486544105139092e-01 5.242839791789258852e-01
-3.849650610364983155e-02 -1.226775957663420596e-01 5.117802774888389195e-01
-7.335569347470931312e-02 -1.229801542560952365e-01 5.092566746020027457e-01
-1.009909562016892554e-01 -1.229676980661332658e-01 4.707116201242456111e-01
-1.045479172552782332e-01 -1.008506895819685084e-01 4.538258729236748779e-01
-8.565002237997276779e-02 -1.237565284677349942e-01 5.023714788609183746e-01
-6.957467849033317775e-02 -1.069970921639125383e-01 4.612657633679910218e-01
-2.070218742943007867e-02 -1.237983450312563627e-01 4.997916252667197190e-01
-9.124353795538281409e-02 -1.238963255279071501e-01 4.745814021141484540e-01
-2.740965037112313291e-02 -1.208700818475812178e-01 5.428362428904421888e-01
-2.802014835944984655e-02 -1.191057426634369448e-01 5.460924313364675653e-01
-9.774326995318606548e-02 -1.045369799986345383e-01 4.543704172680998465e-01
-2.977325012595846698e-02 -1.118932761342551624e-01 4.755607204228621820e-01
-1.044175901997774492e-01 -1.240174555783780247e-01 4.803290224148155096e-01
-9.896796777954505742e-02 -1.242998865992186036e-01 4.692934720700873141e-01
-4.840130232937223803e-02 -1.222002590669187261e-01 5.118569947921974839e-01
-8.212399694597402600e-02 -1.197110424484123525e-01 4.732791984125004903e-01
-7.451512499544542256e-02 -1.199275080355962503e-01 4.817323832145278817e-01
-3.488187702200930967e-02 -1.075981490831630777e-01 4.693461610370542325e-01
-6.516078284422140154e-02 -1.008880356859321870e-01 4.559929581609344362e-01
-9.426579560614573028e-02 -8.157049061501407683e-02 4.481023214294439505e-01
-4.270615099317299351e-02 -7.431216629750357627e-02 4.440909038310039136e-01
-7.470886625776007595e-02 -1.173539342635801369e-01 5.237352571866067397e-01
-2.356310325682952483e-02 -1.250109867577500755e-01 5.191450896488724043e-01
-7.710214782113347654e-02 -8.032978660482614774e-02 4.405910475572307194e-01
-6.241466271942683330e-02 -1.214185331769986192e-01 4.977789444866470014e-01
-2.315172236743126555e-02 -1.245723234039749494e-01 5.310220965798395643e-01
-6.323640958449351646e-02 -7.525488166464261441e-02 4.411018208659079343e-01
-8.842380598610675296e-03 -1.275993534172318589e-01 5.259556940949194903e-01
-1.016906544143518776e-01 -1.196174742809478775e-01 4.681093693387076149e-01
-5.230756585275411069e-02 -6.598595028651448036e-02 4.407466372347540462e-01
-1.160857580383445053e-01 -1.044265559822438183e-01 4.658701945937369082e-01
-1.188420069929754658e-01 -1.150474817509546666e-01 4.820076173306170886e-01
-1.081125201146074799e-01 -1.240482568396812230e-01 4.923949586784103216e-01
-1.141665996723087162e-01 -1.104758697737140277e-01 4.645084716523206203e-01
-1.161817955312208772e-01 -1.222617182638676553e-01 4.895893252622878222e-01
-4.027789386535275684e-02 -1.072632173994439997e-01 4.685492306876487545e-01
-5.094504557312072579e-02 -1.198029769997894234e-01 5.284435012776068641e-01
-6.693773877491897284e-02 -8.185151023323519737e-02 4.423632383081319563e-01
-1.016599367863753184e-01 -1.242074025232925705e-01 4.976884315612433718e-01
-6.635416537721644525e-02 -1.064434447182038418e-01 4.613755359572897508e-01
-1.672135002173787480e-02 -1.265492455216779000e-01 5.191063682860318496e-01
-1.267832673929783840e-02 -1.224291580369031712e-01 4.897025994961688999e-01
-4.244286028666581501e-02 -1.094579052253458473e-01 5.412904318299944784e-01
-6.411687524131219618e-02 -8.211625159319972667e-02 4.432651483895271860e-01
-3.154356397886792784e-02 -1.072491059204750685e-01 5.476420562288272231e-01
-2.693402388352821031e-02 -1.236904206827015573e-01 5.316621574679757378e-01
-1.174775880850185417e-01 -1.024682833425956813e-01 4.704727148115989688e-01
-1.173116927678734128e-01 -1.217213396883668058e-01 4.883753665064765048e-01
-7.393990061615110521e-02 -1.024769962588641392e-01 4.557385084699535627e-01
-4.587927544584861905e-02 -8.108532143740512788e-02 4.465754266171473308e-01
-6.731513342106543174e-02 -7.422761074395810288e-02 4.398924641816091552e-01
-1.165260874995807661e-02 -1.182537811351510731e-01 5.541515037314048708e-01
-3.126211872398174108e-02 -1.028284557076772354e-01 4.636614156966321065e-01
-1.277912737020099436e-02 -1.162752088933579203e-01 4.760186150334518862e-01
-3.347343449370810547e-02 -8.972176926426281285e-02 4.527031423926368703e-01
-9.857246318965087739e-02 -1.246060347186285222e-01 4.818076807913971860e-01
-6.198712823119322674e-02 -6.955821442060705628e-02 4.399753907845415091e-01
-7.184981944269647723e-03 -1.200009785757553127e-01 5.496994121001211875e-01
-2.282698503101217649e-02 -1.086250643554435569e-01 4.689024178565439072e-01
-2.066500155391790342e-02 -1.243663810455914454e-01 5.026067966028476830e-01
-7.931618915429289318e-02 -1.230914865042920386e-01 5.092545410395891148e-01
-3.272540079431909832e-02 -7.946437870038659812e-02 4.457856353093469504e-01
-6.920854607369164579e-02 -5.914308875468126531e-02 4.378074797556364972e-01
-1.403518794160369190e-02 -1.174594081584063726e-01 4.790011514127653913e-01
-7.940601230120869491e-02 -8.074310453937739995e-02 4.409423599489032952e-01
-9.587620476840783001e-02 -1.242926662119715753e-01 4.972133918012698328e-01
-1.034092128758403867e-01 -1.134671797198273935e-01 5.088364247259276052e-01
-7.115502407980325850e-02 -1.188037128856485186e-01 5.222136060439238614e-01
-7.865526241460815693e-02 -1.228104620567203320e-01 5.112495755309813816e-01
-5.742507691019360649e-02 -1.220858602361954565e-01 5.075961673136070162e-01
-4.748101406148955844e-02 -1.158115086475830502e-01 5.355843800772840391e-01
-1.068446608554122872e-02 -1.274054550714362466e-01 5.083727684117272938e-01
-6.068945764153250294e-02 -1.223457469591086172e-01 5.121961998192900989e-01
-3.797155810807754245e-02 -1.228359570855940275e-01 5.196650004791188993e-01
-4.962192945623378898e-02 -1.126172887738442485e-01 5.365682801784636968e-01
-7.222105344013354800e-02 -9.194098900700688193e-02 4.479455258174136478e-01
-6.639595628287507656e-02 -1.150570274224817779e-01 4.758549376774158790e-01
-6.950373366288860322e-02 -1.223770608407329791e-01 4.966779486744291594e-01
-4.363349951557220219e-02 -1.127218400914423019e-01 5.390622901978551207e-01
-5.491994912765981590e-02 -1.220097479839636345e-01 5.082014063747848365e-01
-7.722772442144555660e-02 -1.229982544228652441e-01 4.944565956788249395e-01
-7.535734315660579108e-02 -6.132152800127071285e-02 4.377172774397948274e-01
-8.759670570533582834e-02 -7.526944542536456728e-02 4.432851444570081179e-01
-7.666393447666812466e-02 -1.023258554495420913e-01 4.550527327105480802e-01
-7.847518272667171335e-02 -1.231697026880595180e-01 4.946898215297383938e-01
-9.948631381316999645e-02 -1.244627799637905152e-01 4.792850879570972888e-01
-4.854275162526388437e-02 -1.058392103842059617e-01 4.656747226560271624e-01
-1.100557488135223694e-01 -1.074750022849744330e-01 4.588198576901162395e-01
-5.668946864681174980e-03 -1.241790368272040201e-01 4.930299180462263675e-01
-6.448223979689850227e-02 -1.227534464174434847e-01 5.093313954905823726e-01
