-4.062742493707462155e-02 -1.087111114898637737e-01 4.706064343481478063e-01
-4.922159863727286477e-02 -8.496626857661024323e-02 4.477808808461585244e-01
-5.848452876113056226e-02 -7.993814953810875201e-02 4.439314241842369779e-01
-5.309944684385377311e-02 -1.175909549589826547e-01 5.315977229389542424e-01
-2.493687040979605113e-02 -1.193529463713107058e-01 4.892303504111590873e-01
-8.639028853373612038e-02 -1.229499094215553978e-01 4.763536362765113386e-01
-7.070916398665948177e-02 -9.031630903218025586e-02 4.468819402097904403e-01
-2.164125685295891985e-02 -1.214783367760492727e-01 4.926113455098613536e-01
-5.207835458915634902e-02 -1.121566616330945398e-01 4.743098173685555974e-01
-1.450718221597084578e-02 -1.211460172907622562e-01 5.488538494430543757e-01
-8.529506705271505673e-02 -1.226767049007008586e-01 5.103111051844521073e-01
-2.599887708144678691e-02 -1.040668712865606416e-01 5.539116743243197583e-01
-7.044570583591504287e-02 -9.925816479515139901e-02 4.535421273563590150e-01
-3.336489925216669372e-02 -1.217341077346337230e-01 5.000592683036568786e-01
-5.368496073666900043e-02 -1.104932999592379145e-01 4.708096525176750369e-01
-9.072996791009740880e-02 -1.242939274115198445e-01 5.008533671487401806e-01
-2.405279528162243899e-02 -1.126080095739253051e-01 4.755781007009128869e-01
-6.595979523398087796e-02 -9.024342576859428755e-02 4.474061736900655228e-01
-5.330414574065172467e-02 -1.206403196360946450e-01 4.966519254549100482e-01
-8.554076770993097878e-02 -1.203958084246621041e-01 5.150250790773337473e-01
-6.913055505918104526e-02 -8.441666946470055555e-02 4.434252927221580820e-01
-9.630806254696279434e-02 -1.251729867971146104e-01 4.684727830610384003e-01
-8.205744559446215280e-02 -1.144063485318678464e-01 4.648227968285797984e-01
-1.149929921917273723e-01 -1.195732108043324471e-01 4.956712256970952080e-01
-6.099804379307131874e-02 -1.218825909822440906e-01 4.994679951196806522e-01
-4.448198225470903489e-02 -6.765302336912183689e-02 4.419804036115744239e-01
-8.344204782108728680e-02 -1.207674324074632932e-01 5.158408450425777669e-01
-1.114593715973402344e-01 -1.175064070758579937e-01 4.693611134238456217e-01
-6.749693099338836821e-02 -1.232176454399487725e-01 5.085349737031880091e-01
-7.177795379380343122e-02 -1.170594876596510597e-01 4.761147306255451017e-01
-1.162590536224147320e-01 -1.164961767119648828e-01 4.730750864670408284e-01
-9.597822501506209081e-02 -1.000466899739562848e-01 4.515289796040305448e-01
-1.261286481503412146e-02 -1.271960657831092134e-01 5.115746969067312966e-01
-6.186766580795389353e-02 -7.485138276660037449e-02 4.414494198881476761e-01
-1.027354903508190392e-01 -1.181858540755759274e-01 5.059352333313958949e-01
-6.734972961304228067e-02 -1.161282486109941614e-01 4.769704240004148943e-01
-1.150725193594510781e-01 -1.231706278009286337e-01 4.848429647487350058e-01
-4.967879010297024389e-02 -1.190653142179424751e-01 4.906688520798221376e-01
-6.004159128457291217e-02 -1.217613912635789053e-01 5.189942020775530906e-01
-5.898005071139821726e-02 -1.088696378990647584e-01 4.665641456168820866e-01
-7.158304124340342245e-02 -6.914284518621709175e-02 4.378138873472498527e-01
-9.900995617893675049e-02 -1.178219638888689663e-01 5.107289521475697480e-01
-5.838580064805370951e-02 -9.418571834753020067e-02 4.514941743097981020e-01
-8.854968488750941669e-02 -1.246159162088075339e-01 4.960570569050070100e-01
-5.322634463468613186e-02 -6.626883539045379246e-02 4.408096994695404058e-01
-1.059247855152845863e-01 -9.966549668185423205e-02 4.550173824079322693e-01
-7.195689778263739816e-04 -1.291755311034678277e-01 5.134717899189327195e-01
-4.323999991201370185e-02 -1.218621003727219099e-01 5.045507011526780827e-01
-5.873227182194490359e-02 -1.210169188077567931e-01 5.224641342653973952e-01
-8.096348533745721665e-02 -1.219266950332850152e-01 4.869670214533513009e-01
-7.389342442980839643e-02 -1.201607096334949415e-01 4.816864633358860504e-01
-3.070262009450709650e-02 -9.213037174793710371e-02 4.541925468437745805e-01
-3.089498822758093843e-03 -1.270796835390133606e-01 5.315017827082709756e-01
-3.485232362813159290e-02 -1.216856837575916589e-01 5.002556027567743868e-01
-1.064579037889937935e-01 -1.169141620259668279e-01 4.664188567861441426e-01
-9.343057951559341490e-02 -1.219237209980472553e-01 4.642501740288832446e-01
-3.827611259910713992e-02 -8.394135910070063544e-02 4.486267816825463273e-01
-2.722191454164344174e-02 -1.241698065017005498e-01 5.279310675885199311e-01
-2.517379335088438391e-02 -9.590367548732557645e-02 4.558872421822572907e-01
-1.086620822681044485e-01 -1.163368673693330607e-01 5.035397023947201234e-01
-1.209818126964309210e-02 -1.269890084545005071e-01 5.266335636709217338e-01
-9.370022737080072051e-02 -1.251221136236306264e-01 4.927932916063891278e-01
-1.756230061868178927e-02 -1.263665707350775658e-01 5.237079858502994290e-01
-1.905785350884463270e-02 -1.255899611239745528e-01 5.077149446119715304e-01
-7.433571268546904087e-02 -1.218847537259812180e-01 5.161334871985259198e-01
-5.658480355563141884e-02 -1.179524623112163523e-01 4.855953377107269375e-01
-9.759960473263412650e-02 -8.685974182214062367e-02 4.499874453232901583e-01
-6.892782085152412974e-02 -7.865656661879939782e-02 4.408986077026444406e-01
-7.688239978231267702e-02 -1.030349405552252878e-01 4.554378764965568704e-01
-5.065072566917633995e-02 -1.192215955055310750e-01 5.304719745119030883e-01
-1.237569610553520064e-03 -1.292096954539563580e-01 5.153091511698174587e-01
-2.459387599708771216e-02 -1.241888799209471955e-01 5.067111596010215324e-01
-6.079014176020209465e-02 -1.154568751103292462e-01 5.301335040366228490e-01
-2.327180678693055622e-03 -1.210032077866805139e-01 5.405721597977349857e-01
-5.765322987831767582e-02 -7.062400940169942520e-02 4.414020998665903472e-01
-3.237291351943678841e-02 -1.117444831738792776e-01 4.752032025151839978e-01
-5.183489884710683337e-02 -1.199502887274460500e-01 4.940621752056132965e-01
-6.028441769158102842e-02 -1.129180781138648532e-01 4.728845516797510751e-01
-9.843125189525707419e-02 -1.027012250680936073e-01 4.532524466182060729e-01
-8.414020027225481424e-02 -1.221381229344539604e-01 4.829204069494833496e-01
-5.516696245823072414e-02 -8.293800732839351486e-02 4.457758732427127835e-01
-5.863764775013930591e-02 -1.211513470323137970e-01 4.970858451529545086e-01
-1.083565081228203691e-01 -1.223838779227112844e-01 4.996805275434959559e-01
-8.123775855289191994e-02 -9.213666351975409452e-02 4.472788230731669090e-01
-8.591754401431551946e-02 -1.180814777244377362e-01 5.170073360151486996e-01
-8.358365716868221273e-02 -1.224702765301471513e-01 5.120922860162224755e-01
-7.957552365695884367e-02 -1.212422452903211406e-01 4.842421375567380060e-01
-7.382361999638385741e-02 -1.162463080013933919e-01 4.730297526617780468e-01
-6.522750664842801027e-02 -1.210865876646903538e-01 5.200947809612138650e-01
-3.669329221771833183e-02 -1.231288828421061438e-01 5.178683420047609509e-01
-2.356127587295658160e-02 -1.087420812088599892e-01 4.694640347388554513e-01
-7.926924505039248392e-02 -6.828782973117485111e-02 4.384880844892020679e-01
-5.826397563613683328e-02 -1.186077415293672888e-01 5.280250559743110417e-01
-9.634878854203968168e-02 -1.226053652999029853e-01 5.081915411676595218e-01
-5.634240092298208741e-02 -1.027052942781275374e-01 4.592036676659873029e-01
-5.709925910574292079e-02 -8.278189351360995540e-02 4.453329841951983448e-01
-3.318478089255850333e-02 -1.040332698123158373e-01 4.650182882400148987e-01
-1.153009912255950203e-01 -1.223427087938221275e-01 4.822167579059914444e-01
-2.256738133919026015e-02 -1.119757641163967310e-01 5.572338701401859939e-01
-1.889322121073136115e-02 -1.210320392641209136e-01 5.477978723823995200e-01
-6.772066824742459246e-02 -7.204745754252162016e-02 4.393104343070317608e-01
-2.397582683255151600e-02 -1.040002809193527750e-01 5.572687571984242805e-01
-1.234357724779912464e-03 -1.263176081291111363e-01 5.333843657879634437e-01
-8.896820175855146839e-02 -1.043630029694471578e-01 4.542795168218133339e-01
-3.220238199987881383e-02 -1.235820776695586570e-01 5.170309635347694055e-01
-3.982765599489873631e-02 -1.203698435994988575e-01 4.954631623290294273e-01
-3.075843962312101512e-02 -1.222917518046228724e-01 5.355385780555170783e-01
-7.275629418471289689e-02 -1.236924084135022500e-01 5.029486215574704433e-01
-4.787620946195505350e-02 -8.903854542678953099e-02 4.502585422948999216e-01
-7.170748204581919860e-02 -1.233877261843590173e-01 5.084542915265402030e-01
-1.940820616227732429e-02 -1.115709406633818013e-01 4.715114308529674281e-01
-2.268063899580239143e-02 -1.244447922508739868e-01 5.326948502810352482e-01
-6.786173149930990744e-02 -1.230028808477681840e-01 5.004601343881528441e-01
-9.112573541282964484e-02 -1.182377467129041293e-01 4.619092618722207000e-01
-4.344880539874956815e-02 -1.222470012401542933e-01 5.075303018803504207e-01
-8.342299393914789918e-02 -1.189138264095004477e-01 5.180133602201156817e-01
-8.201985463516209274e-02 -8.228386706428245101e-02 4.421356261049397274e-01
-9.750209090673454815e-02 -1.144952932073888818e-01 4.608027153739322479e-01
-6.163361808281515170e-02 -8.273016031924811109e-02 4.442588355919894205e-01
-5.770260531872525162e-02 -9.975425398095509599e-02 4.561440674870410050e-01
-5.189360466817481699e-02 -1.208012229210840838e-01 4.976301949180499951e-01
-6.527295816262559947e-02 -1.150931190365103718e-01 4.757303793557596805e-01
-3.621668718153068373e-02 -9.376941535688142204e-02 4.557406109009896622e-01
-8.293626599593380277e-03 -1.238264415383597411e-01 5.392571270305788200e-01
-1.865111898094681461e-02 -1.128026495597772849e-01 4.730606059742187841e-01
-4.514636407974251253e-02 -7.931767352498311774e-02 4.460057463231837382e-01
-9.999049153921785171e-02 -1.240821705890197968e-01 4.720186989429712154e-01
-1.148806837659549912e-01 -1.218730367248539725e-01 4.923039978564132668e-01
-7.703258138462115712e-02 -1.228700602910243050e-01 5.128846917250656778e-01
-9.041168885381917208e-02 -1.104594146670636878e-01 4.583345325348240906e-01
-8.157766531833082757e-02 -1.217620997402901750e-01 4.794205584803071241e-01
-4.036878025434066652e-02 -8.905159616134968037e-02 4.515875571710013525e-01
-3.928947928297212705e-02 -1.227491173492668147e-01 5.234444742611271684e-01
-6.881153216563828945e-02 -1.234217493059728554e-01 5.071984989730670135e-01
-6.138812106306827665e-02 -1.202077133606886394e-01 5.237210749292331435e-01
-7.828768944182745715e-02 -1.226908218786660343e-01 5.134621580520817297e-01
2.234003051566092572e-03 -1.289751552349650554e-01 5.150017566483169329e-01
-3.423152219139276309e-02 -1.226882807518246410e-01 5.302266369142671909e-01
-7.119525537001292204e-02 -1.235515184615915280e-01 5.032105922617244875e-01
-1.099565758728763276e-01 -1.219960310961097499e-01 4.755365144380746534e-01
-4.857902733377790494e-02 -1.032721200653227422e-01 4.620620286764769991e-01
-1.187130767258364056e-01 -1.155733534549335112e-01 4.810610045634441390e-01
-3.145517741785002624e-02 -1.234123677511144435e-01 5.104975539036965548e-01
-4.712226907357734695e-02 -1.219376017954653529e-01 5.229506511085361131e-01
-5.044348732073158925e-02 -1.220989320583710097e-01 5.069786992409680559e-01
-5.350562219515817008e-02 -1.210890115097838227e-01 4.989046501162681113e-01
-8.111999956675639695e-03 -1.155772719111256286e-01 5.582446970106279549e-01
-6.028757192252583857e-02 -1.161288853466428406e-01 5.299327047982546057e-01
-9.530100092745036333e-02 -1.235922517605682058e-01 5.045136710132478441e-01
-5.899303702594218407e-02 -1.162842619288680934e-01 4.808005890685561612e-01
-7.832688423906733477e-02 -7.167891523437454337e-02 4.384149163835424634e-01
-5.111863832379789224e-02 -1.220972377418665933e-01 5.201761115166128047e-01
-4.077858748939955369e-02 -1.125561737684079022e-01 4.769009748186984754e-01
-9.519063005532986399e-02 -1.227840787826043195e-01 5.079883163322722606e-01
-3.491127904740148197e-02 -7.813853551501441508e-02 4.455590378074846813e-01
-9.627395535737784393e-02 -1.243440617823671351e-01 4.676965390157477587e-01
-2.856370225562085072e-02 -1.240256399267289922e-01 5.147424407141433234e-01
-8.207900922815153377e-02 -1.234583948197981035e-01 5.096383646482443019e-01
-2.735814102978199186e-02 -1.079268427231342975e-01 4.690814244858245718e-01
-9.179864113473404363e-02 -8.017752262385570428e-02 4.475499541542267146e-01
-1.125665847290298616e-01 -1.237607912270767968e-01 4.850408628231929198e-01
-5.112304390362554934e-02 -6.268434379119720845e-02 4.401795991708815636e-01
-2.664877080460575920e-02 -1.110866210421039280e-01 5.534702309928196673e-01
-1.532624915990771566e-02 -1.114415526512679139e-01 4.695349270901695293e-01
-3.554266483924124753e-02 -1.231854212117867164e-01 5.197242399756970554e-01
-4.885624036360597389e-02 -1.213454356815960589e-01 5.013321991026595814e-01
-5.258095175356170686e-02 -1.099513638224803441e-01 4.702154012635237357e-01
-1.014767869216692264e-01 -1.164422103475948184e-01 5.092900369649980830e-01
-5.664319087043416870e-03 -1.287979812054654283e-01 5.171909243802379486e-01
-7.271304862478757125e-02 -1.166193333960010431e-01 4.745472222999445044e-01
-4.645046021641125594e-02 -1.221520912988831586e-01 5.076113496549682358e-01
-3.569063959020859350e-02 -1.231521796825953280e-01 5.204413969244185978e-01
-1.090907493803608061e-02 -1.278073468558452441e-01 5.213149289977694334e-01
-5.555387562233355531e-02 -1.148815832266644466e-01 5.325226606912344396e-01
-1.031275409959533929e-01 -1.142471133784767473e-01 5.087934338983948201e-01
-3.059008058123841370e-02 -9.035895232701764146e-02 4.528931996231621016e-01
-6.580019628910363516e-02 -7.557735628685395557e-02 4.406926391710415669e-01
-7.989715217005002867e-02 -9.466560688103896337e-02 4.488948273683895929e-01
-4.500270313323554566e-02 -1.079913494583894795e-01 4.692597433178984367e-01
-3.147746515331783634e-03 -1.290853363848203095e-01 5.161766175802935397e-01
-5.207966057545403149e-02 -1.185864691299770568e-01 5.305633016175591576e-01
-8.183647992843854496e-03 -1.268899832530466509e-01 5.299405375103185545e-01
-2.844856584500806557e-02 -1.074319518029503567e-01 4.685666892807008321e-01
-3.018180802106252766e-02 -1.237898745313111698e-01 5.156785293490319111e-01
-7.229991420273550184e-03 -1.284685980433252772e-01 5.159633707926272184e-01
-3.175962177319120033e-02 -1.128662916895726148e-01 4.772244232529114227e-01
-2.708261896090929932e-02 -1.243349204063154828e-01 5.243790176674834047e-01
-5.082697701499117732e-02 -1.171597697528779097e-01 4.847322082399041498e-01
-6.981867455771885445e-02 -1.233505210817819747e-01 5.021876951162520530e-01
-5.148760364007690798e-02 -8.126284810080587617e-02 4.458753493021366254e-01
-3.442364766422704309e-02 -1.233002207346481777e-01 5.208258481096740278e-01
-2.034997122643847356e-02 -1.030545130798010550e-01 4.604823268368514744e-01
-2.606175236086649000e-02 -1.225405306241115905e-01 5.387688029532620160e-01
-2.143380849940386759e-02 -9.690115658627396211e-02 5.600980336175811480e-01
-1.133105897625652850e-02 -9.921218455741116771e-02 5.681627735283352187e-01
-5.648017002449313984e-02 -1.215012012527616203e-01 5.002642991252774785e-01
-1.038030245595748108e-02 -1.046607962416259835e-01 5.664864701587515317e-01
-4.420805791121481393e-02 -1.221921438630440421e-01 5.241687865140680636e-01
-7.387144184050253859e-02 -1.037896940362641324e-01 4.567694322031796150e-01
-3.708015469876980996e-02 -1.230395146966183073e-01 5.200708875189488101e-01
-2.258919502582882807e-02 -1.137091430339293996e-01 5.564625324193233080e-01
-9.415469431724104998e-02 -9.344080830783005331e-02 4.481982603493404604e-01
-7.060737110502564307e-02 -1.185668009014701346e-01 4.801591301106283294e-01
-5.240226632072244456e-02 -1.127153238682759295e-01 5.352883132636517827e-01
-3.874184855343704159e-02 -1.075723480343852567e-01 4.689210369548032498e-01
-9.363309077833724403e-02 -1.134313852888825941e-01 4.598601769538125383e-01
-6.201341513536362537e-02 -1.214183989494395516e-01 4.963315532436403665e-01
-3.501422304098779359e-02 -1.182972166176583795e-01 4.884339766122851589e-01
-4.924909458033273346e-02 -1.188300598081211135e-01 4.897911438364240255e-01
-9.274646337572416133e-02 -1.160045403473968229e-01 5.151769426119184869e-01
-6.668067190319028337e-02 -7.215916074787165346e-02 4.395598159976251140e-01
-7.550317973345363476e-02 -1.199268016217728272e-01 4.796714344755342863e-01
-8.711755032210484473e-02 -1.235657623057637156e-01 4.869424015508437287e-01
-4.675445236572501467e-02 -1.173897166338039866e-01 4.857918643675832593e-01
-5.132695723422681100e-02 -1.099071284717592356e-01 4.705000195709976851e-01
-2.088750876311604859e-02 -1.074671510083921727e-01 5.612816453463870259e-01
-9.790656043428395960e-02 -1.162861351172071595e-01 4.625504961900032130e-01
-4.330289161610951371e-02 -1.200603245584554030e-01 4.945948242359367586e-01
-2.617956596225598856e-02 -1.075102899958909758e-01 4.683084226587092003e-01
-1.012603794411485597e-01 -8.905541317693273229e-02 4.535325671905170997e-01
-4.067918556660798934e-02 -1.141962987086253545e-01 5.401215950879771910e-01
-7.954748225289651198e-02 -7.967801534982642264e-02 4.406061824561510187e-01
-1.168751138191419098e-01 -1.202526980181499727e-01 4.819351007873462489e-01
-1.159670740836768604e-01 -1.024023195039796275e-01 4.675784955124197562e-01
-1.097097395255481195e-01 -9.952454976480379356e-02 4.568931857629196513e-01
-2.201550893499919920e-02 -1.253541798132127572e-01 5.239430088459071655e-01
-8.104736840883339233e-02 -1.238687838234248523e-01 5.060325646170669156e-01
-4.148234404051622665e-02 -1.121927559898673182e-01 5.406401093023787130e-01
-8.719077451139492507e-02 -1.231392064785100660e-01 5.089636232289754814e-01
-6.790040831281257683e-02 -9.556138309731199154e-02 4.510113043829407919e-01
-7.005967688746088384e-02 -8.797510663874019698e-02 4.454315820515603597e-01
-6.139065096105339459e-02 -1.224788472165775077e-01 5.028302007229166204e-01
-4.207350753194350618e-02 -1.161340700203570414e-01 5.382850309938281841e-01
-6.996757258887537079e-02 -1.195654800061428241e-01 4.836309362191466010e-01
-8.422137655215256036e-02 -1.224521875162126600e-01 4.765417639075439360e-01
-2.606069424243854377e-02 -1.245721695476739443e-01 5.187006493316957956e-01
-3.287653322233411585e-02 -1.159289300140618900e-01 5.447464966471496917e-01
-1.086584512028471450e-01 -1.103839210693666750e-01 4.606582755952428609e-01
-6.790994852715069585e-02 -7.265777306722562279e-02 4.394408196642266562e-01
-5.471587357179195921e-02 -1.158710515913911054e-01 4.809038698256978273e-01
-1.023072268953827413e-01 -8.822625582601337224e-02 4.555685012222778218e-01
-9.516761076125077046e-02 -1.250709675300436530e-01 4.855627616117109135e-01
-3.404274745734063579e-02 -1.154716637486571523e-01 4.824341887868068279e-01
-1.787680441839449574e-02 -1.240655449664458260e-01 4.985690049974570437e-01
-1.810333236798859421e-02 -1.170610629668330377e-01 5.555054514924701037e-01
-3.259275972576251151e-02 -1.164453095045682868e-01 5.447336333737912151e-01
-1.065762907738481216e-02 -1.088192633508405505e-01 5.643935910705948356e-01
-5.459640605330038504e-02 -1.131682678058903574e-01 5.339314469668001717e-01
-8.399997280956555956e-02 -1.089338189031541365e-01 4.587879433852898314e-01
-2.549900356480224242e-02 -1.013884670490813045e-01 4.606011090829791321e-01
-8.449230713462238529e-02 -1.166177131368924258e-01 5.190329991185343994e-01
-1.188709289136623409e-01 -1.179846865840233350e-01 4.853714777338398179e-01
-2.127077444964191322e-02 -1.255562046023243616e-01 5.223662576586461936e-01
-3.045099579024857298e-02 -1.231785733907127672e-01 5.066678787402016937e-01
-8.744983174945715476e-02 -1.231965786488028736e-01 4.843510574443886108e-01
-6.281173266341852357e-03 -1.275630076136858304e-01 5.286304081029750135e-01
-4.515175354625731996e-02 -9.059826477392549093e-02 4.518094747146487733e-01
-3.129902950178220511e-02 -9.218927489656239538e-02 4.543078973897628492e-01
-8.294113736486423416e-02 -1.098182174727546367e-01 5.223238051768499535e-01
-1.364420407271242815e-02 -1.064080638960515496e-01 5.648751149348322231e-01
-5.625130252997731506e-02 -1.169284976369692752e-01 4.830362472333045165e-01
-3.179166838330669403e-02 -1.180760789074928457e-01 5.442094073011042310e-01
-1.156369958774794426e-02 -1.215775677889575218e-01 4.874289307685804040e-01
-2.149799778939249020e-02 -1.242745838365620914e-01 5.354529733347902498e-01
-5.151975813699287421e-02 -1.223015749816714071e-01 5.097358447962766492e-01
-3.376994182134597511e-02 -1.233916785647995035e-01 5.172822271517711901e-01
-6.360628893374539738e-02 -1.219744351424770917e-01 4.981369529217114511e-01
-2.291266060503999516e-02 -1.231805447772570949e-01 5.388575903098599129e-01
-1.567056777922712363e-02 -1.241845547848739600e-01 5.394308719655024342e-01
-2.734006047192088715e-02 -1.229158992967539082e-01 5.016692158414650660e-01
-7.970738944467266329e-02 -1.217568845745739259e-01 4.867409169600283025e-01
-5.532150868960394874e-02 -1.018125869287438007e-01 4.584758391513309439e-01
-2.715448138788528407e-02 -1.241419733893464605e-01 5.282811363799154725e-01
-9.662106737614810370e-02 -1.221150386153998790e-01 5.094750663772377175e-01
-1.027146622707322127e-01 -1.255442685815433279e-01 4.893648895655142161e-01
-4.544591789507581442e-02 -6.234172576743746835e-02 4.404737983552177716e-01
-6.469788999807388197e-02 -7.458293905367774368e-02 4.406514651985537490e-01
-7.082807012833133853e-02 -8.534886637045889513e-02 4.437067288927284414e-01
-1.172589454897734335e-01 -1.178833405922729838e-01 4.795362945641121200e-01
-8.119296249493423989e-02 -1.241921067396098144e-01 4.996449313621175725e-01
-1.011431666160492043e-01 -1.162550524192215162e-01 5.098966953106517375e-01
-1.004689879945791856e-02 -1.213587019347857621e-01 4.865642945376851269e-01
-4.245686105352648732e-02 -1.225536827685433650e-01 5.122238063671408215e-01
-1.035161928771893836e-01 -1.122249026150589496e-01 4.609017232968560251e-01
-2.087932381310148716e-02 -9.587322950311175096e-02 5.608996206810537011e-01
-4.477795494156347478e-02 -1.225277071193512229e-01 5.145759545051806771e-01
-1.194622342583307739e-01 -1.091007359138297800e-01 4.723104241252898405e-01
-8.869012512457528918e-02 -9.492448768210204335e-02 4.486130218895907906e-01
-5.650582034359145911e-02 -8.196283040068466641e-02 4.451497333324446193e-01
-5.301783369107544719e-02 -8.922294759911532369e-02 4.493764375172873970e-01
-8.361596707378071702e-02 -1.205982271874059819e-01 4.722992362465338045e-01
-1.102763617449161321e-01 -1.200063793712876636e-01 5.003085698744447196e-01
-9.114931940331691407e-02 -8.013714143168611248e-02 4.468504537997128323e-01
-3.968418972764033159e-02 -1.197106269101912146e-01 4.931041113456864911e-01
-2.318256072557241254e-02 -1.069065410740349387e-01 4.666141087616065275e-01
-1.820290539556561685e-02 -1.168887039584443066e-01 5.557828455508870835e-01
-3.704693231256745573e-02 -1.221106189209202053e-01 5.035133435192443718e-01
-8.353880674802616202e-02 -8.430218462581864913e-02 4.432109722483462133e-01
-2.851051839046387856e-02 -1.230279778930968015e-01 5.033102424113772289e-01
-1.076159992799626958e-01 -1.191395751375304707e-01 4.695568580862157226e-01
-1.046196406174305094e-01 -1.232979318046005801e-01 4.994860179526720567e-01
-4.750798895429378388e-02 -1.212920185496286635e-01 5.251443164932479979e-01
-5.703478516500368189e-02 -1.222836192750677980e-01 5.141212396668313200e-01
-1.965542968522426479e-02 -1.216976105972088079e-01 4.918067811232287312e-01
-6.694866623601494759e-02 -1.197908645040387521e-01 4.864309008277228896e-01
-9.423439188023532975e-02 -1.240345631800938014e-01 5.017755780726559367e-01
-9.005078299392410557e-02 -1.248350953230510096e-01 4.965970197214815141e-01
-7.522876642281257908e-02 -9.279154925324473169e-02 4.481246406127137871e-01
-2.630324221246266997e-02 -1.040696992113670089e-01 5.534512001827830430e-01
-6.991169854741995093e-02 -1.220221597152932880e-01 4.922081179158907527e-01
-8.092572354962518366e-02 -1.225525803486437748e-01 5.136769851221069105e-01
-7.023263712419398896e-02 -1.201585964021839315e-01 5.204026623026709597e-01
-6.232395981896494963e-02 -1.195853011018255668e-01 5.242680540381778886e-01
-6.364668790804824117e-02 -1.185901463722940641e-01 4.846855594518159061e-01
-4.450820415144048081e-02 -9.513488684500441550e-02 4.554424466710954023e-01
-8.881893482435307408e-02 -1.235934497179632385e-01 4.764234790007336184e-01
-3.929480575686589497e-03 -1.247214454769070974e-01 4.942047788876532954e-01
-3.249673877078501638e-02 -1.234088311557171302e-01 5.139136588123940363e-01
-5.555480867598449474e-02 -9.522955652527013981e-02 4.528206008518118608e-01
-6.946528598077722494e-02 -6.979032564513674985e-02 4.383809180008132467e-01
-9.324539191926804749e-02 -1.192793922117337674e-01 4.629138391975806677e-01
-7.821758317160808216e-02 -1.208034830525501896e-01 4.789362835481877911e-01
-3.266398639774579366e-02 -1.192514175901990131e-01 5.416764375587013181e-01
-5.300705713053969342e-02 -1.217335103416056774e-01 5.216392159837799358e-01
-2.290477042030846649e-02 -1.248945378345677482e-01 5.293097554788996906e-01
-3.296957200273869376e-02 -1.176889671781495700e-01 4.870991973544669951e-01
-1.825154436714484033e-02 -1.241832238104803310e-01 5.383547808054669481e-01
-3.705580738801302065e-02 -1.163356858860844500e-01 5.413004236354368448e-01
-7.494569517427425442e-02 -1.205369356704673878e-01 4.817656948316823007e-01
-4.451445961412199559e-02 -1.089312829518982867e-01 4.707343636947730059e-01
-7.646693515504063461e-03 -1.280613465198421896e-01 5.106411447710886842e-01
-5.870497384825764525e-02 -1.094278584357270684e-01 4.675956400810543645e-01
-2.902994477000148815e-02 -9.335853751451213267e-02 4.549598750478289766e-01
-2.420582411978983856e-02 -1.138898515682687934e-01 5.548185531691806061e-01
-6.423210504428841783e-02 -5.951112015646683323e-02 4.380023156985816679e-01
-6.883486898585085279e-02 -9.643157609556124443e-02 4.515701502955121738e-01
-3.739623973536186641e-02 -1.209439188411357974e-01 5.362474179386303996e-01
-1.339155225231517324e-02 -1.199352282731112190e-01 4.841971220436625534e-01
-2.134535854463400287e-02 -1.219037042845729918e-01 4.938336949276122545e-01
-8.830113271694971233e-02 -9.272722110263158235e-02 4.474974647886884038e-01
-3.420362501097721358e-02 -1.188534005718970693e-01 4.899595724046378886e-01
-3.027601200503825946e-02 -1.233253142083738513e-01 5.301191369324534941e-01
-4.760433939487216520e-02 -9.840377030975856754e-02 4.573819585818612588e-01
-6.809772968852530195e-02 -9.419674463315944046e-02 4.499455692641566862e-01
-8.409361832055967101e-02 -1.188421979683363661e-01 4.687114490353734841e-01
-6.351413123074271805e-02 -9.205529354028885169e-02 4.491099352486950802e-01
-3.732920372948970306e-02 -1.057958088752531944e-01 4.669185192402949824e-01
-1.455881727461243863e-02 -1.198651679679140075e-01 5.513062167037119377e-01
-1.087912802312531457e-01 -1.104001480785483102e-01 4.607108345014667705e-01
-2.171821435915811255e-02 -1.249552247076908956e-01 5.072063076759919520e-01
-2.314039495462170276e-02 -1.146894405081393675e-01 4.786063628688149163e-01
-5.044537869858636836e-02 -1.148120296253981737e-01 4.799127151541625058e-01
-6.763628944514758767e-02 -9.399112463406886220e-02 4.498497264209864732e-01
-8.820692905915805682e-02 -1.217084465043042074e-01 5.118767633197317535e-01
-2.280032486659166330e-02 -1.039794626731097155e-01 5.594585264878773057e-01
-5.545638506603610407e-02 -1.189995305548908061e-01 5.284835921989573526e-01
-2.242482680946071560e-02 -1.235639769132926974e-01 5.376721427733968106e-01
-8.035520523284990502e-02 -1.021850316039993045e-01 4.540678039264444132e-01
-7.581348606276272495e-02 -6.648950716785806403e-02 4.369230198635030149e-01
-2.152903588103845245e-02 -1.117499483038471575e-01 4.729555650665543398e-01
-9.396657993413096155e-02 -8.942577893725639493e-02 4.472657055583888486e-01
-3.114212549715335288e-02 -1.207922496401730161e-01 5.400769749729652514e-01
-1.358493985824772363e-02 -1.217077642846451091e-01 5.479960462125368359e-01
-3.948395191560798156e-02 -1.217841768168779620e-01 5.021670000893493357e-01
-1.507982098405077041e-02 -1.211048980540471304e-01 5.487686671041049902e-01
-5.037937407469234713e-02 -7.003522596328320970e-02 4.422544638490110147e-01
-7.878682234357103908e-02 -1.071098374794116070e-01 4.585436193121755211e-01
-1.592129981431138902e-02 -1.267461123619309515e-01 5.235388127007962744e-01
-1.259567388494062246e-02 -1.182877318240836556e-01 4.804213476432176999e-01
-3.264256850949778799e-02 -1.219067413341790029e-01 5.357077066514556174e-01
-8.299691540904220732e-02 -1.227032752961329937e-01 5.121200905754356159e-01
-7.164891247332359769e-02 -1.099342778425985989e-01 4.639821575855253566e-01
-7.693575119368127602e-02 -1.210079947238936887e-01 5.184121000578950644e-01
-5.843535669431882545e-02 -1.048226772421034236e-01 4.611398564385085774e-01
-8.545567849516071124e-02 -7.683613889062776425e-02 4.417775842291041810e-01
-9.431124381556450775e-02 -9.625800457774985608e-02 4.496301777587232151e-01
-5.573335394121584074e-02 -1.001989146868159097e-01 4.569659920023952937e-01
-9.734689025276686836e-02 -1.196533678035628379e-01 4.648303240398224956e-01
-1.455180547082148002e-02 -1.190684103560806090e-01 5.527869678108233709e-01
-4.300687422367620305e-02 -1.221527450460781483e-01 5.264168647969583725e-01
-4.564014137789038777e-02 -8.380381383037986687e-02 4.478036416089215543e-01
-1.643344988384698793e-02 -1.004300348330451481e-01 5.652783269050806192e-01
-3.549323880980594093e-02 -1.230869548753120851e-01 5.244972936881657777e-01
-1.775764194020909223e-02 -1.263234855825240699e-01 5.236463454963711239e-01
-5.587045630044613215e-02 -7.609194675349932602e-02 4.433459390159478208e-01
-2.791710430708910229e-02 -1.095176481363501764e-01 5.514449116321885613e-01
-3.749555697233943052e-02 -1.173787579736269016e-01 4.864606129147197588e-01
-5.204650462856972443e-02 -9.680820404838114124e-02 4.549001962887887496e-01
-5.268280400584226392e-02 -8.796786205616977106e-02 4.487635395692567974e-01
-6.960102971184060905e-02 -8.813413029638836327e-02 4.455772552133021591e-01
-9.584449432508560310e-03 -1.200434246486420942e-01 4.835351106966259693e-01
-9.177542599630336695e-02 -9.543273179416777996e-02 4.490224239376469639e-01
-5.272736253855292432e-02 -1.221676454353182034e-01 5.183687238698480026e-01
-1.072435213827431094e-01 -1.249130878966644292e-01 4.883144905840998140e-01
-2.051610009621861880e-02 -1.222210351536303502e-01 4.942555197941160272e-01
-3.012833150459787862e-02 -1.058501968532870874e-01 4.668601917840805027e-01
-5.141115522145630473e-02 -1.203012841309333975e-01 4.956295823725649918e-01
-1.064940944981465770e-01 -1.236376028315045450e-01 4.973418975961310107e-01
-6.472070002376935360e-02 -6.332101479526175414e-02 4.383111200065179514e-01
-6.770978074514839851e-02 -6.717059774930400629e-02 4.381647020122703684e-01
-8.408889115719017648e-02 -1.231168624123174793e-01 5.101782729841244368e-01
-4.535705824026872029e-02 -1.145828313235652263e-01 4.801909278410317894e-01
-2.104042768655264156e-02 -9.672093007587287405e-02 5.609649011865344148e-01
-2.176354788979047855e-02 -1.082351244462913670e-01 4.678628580634662804e-01
-7.033949886147869424e-02 -1.176584622600151536e-01 4.783811465024826459e-01
-6.839108259822812563e-03 -1.258839360362829785e-01 5.330212650173107303e-01
-5.310045997453211042e-02 -6.548770449564572660e-02 4.405890503620612519e-01
-2.427478899169722287e-02 -1.086161864180605480e-01 4.694637355870956985e-01
-2.640473187006648834e-02 -1.244621727949138668e-01 5.171391290772979765e-01
-2.140428377940909593e-02 -1.237638159852593733e-01 5.002633528029722942e-01
-9.659617967445231768e-02 -1.244041174177629994e-01 4.770102174056918276e-01
-8.130187290781731857e-02 -1.241918998494287024e-01 5.030124727145033336e-01
-1.650916689397433079e-02 -1.244103697264715286e-01 4.989777352570084479e-01
-2.803938108299117854e-02 -1.241954534416391948e-01 5.215698188420306858e-01
-8.898690103112139038e-02 -1.231457428432920775e-01 4.804743450649560099e-01
-2.979497182841325462e-02 -9.287667952353836909e-02 4.546430869980060407e-01
-4.310832699613736940e-02 -1.059036671923644091e-01 4.667677362040638100e-01
-5.193836871263174393e-02 -1.201694174725060210e-01 5.266097512019891624e-01
-1.510063705965738329e-02 -1.107259717210584971e-01 5.626082977077861980e-01
-3.484245434446517353e-02 -1.213701159663297113e-01 5.362785628219021161e-01
-1.026246240796889336e-01 -9.845181402733887976e-02 4.522434212312033130e-01
-3.860260065669578883e-02 -8.462508872976755303e-02 4.490028218657154957e-01
-6.759463412581043218e-02 -1.131361922387912194e-01 4.706776398234329140e-01
-4.361356650260853063e-02 -1.211962017005453196e-01 5.318185152397040261e-01
-2.649844571575695265e-02 -1.018539272784884236e-01 4.613737232958926571e-01
-5.502423250995882448e-02 -9.708553030947085494e-02 4.544071083278228840e-01
-4.707359240132562295e-02 -1.197266835801193835e-01 5.318018141676477128e-01
-1.128360212399388135e-01 -1.231800511411059174e-01 4.816920757553869170e-01
-3.947168521825928506e-02 -1.147111201052077589e-01 4.807524385472635720e-01
-2.580017240708584389e-02 -1.245765162673566212e-01 5.166631741632775610e-01
-7.253045758591027126e-02 -8.522219915677627100e-02 4.433780902763472254e-01
-1.008429123661973709e-01 -1.218596771983479488e-01 5.044789984525973603e-01
-8.675412765310877572e-02 -7.328497173539622045e-02 4.432312191115784228e-01
-8.609523062509547020e-02 -1.210344326751007088e-01 5.136085528664245947e-01
-6.191744088693845044e-02 -9.577226698838908758e-02 4.520351228450812942e-01
-8.905405195929599893e-02 -1.240715607952153632e-01 4.874786808474336763e-01
-2.791682471584938652e-02 -1.209879496478573763e-01 4.943873887159064839e-01
-1.038672251232446442e-01 -1.091637584063736011e-01 4.584013845885028249e-01
-2.209732759570265381e-02 -1.155339490405952185e-01 5.552395544847920084e-01
-4.629319811046459648e-02 -1.074152766290545208e-01 4.681244187323843620e-01
-7.194883588643857797e-02 -1.226418532885335949e-01 5.142355286521832491e-01
-1.006698341852843570e-01 -1.012857850052235886e-01 4.529208471527663149e-01
-1.977330576331374698e-02 -1.012845184409769672e-01 5.632913088207435193e-01
-9.599270219192575226e-02 -1.246673945090798902e-01 4.760063057560997568e-01
-5.973571070086392681e-02 -1.016877817044681415e-01 4.575304258214127895e-01
-1.360637274729746549e-02 -1.088629123701604362e-01 5.639623513286140533e-01
-5.374128292597720596e-02 -1.210323691171381749e-01 5.237051194105408758e-01
-7.726401738750335313e-02 -1.146596960750837502e-01 5.256426758863989024e-01
-6.242195135926237315e-02 -1.225082572523492896e-01 5.145605988469460490e-01
-4.086993123712909931e-02 -1.205928254557856044e-01 4.967069876579148224e-01
-1.082253445995384200e-01 -1.142919149592427075e-01 4.642600802968180340e-01
-8.633730043032519785e-02 -1.243381041775787482e-01 4.952285583305912064e-01
-6.754072485289622230e-02 -9.702442820780815547e-02 4.521896984807372011e-01
-4.142564503088987798e-02 -1.140781900587881925e-01 4.795256587703634610e-01
-1.066233208483318290e-01 -1.250156357619534586e-01 4.887462092810785363e-01
-4.152907743745529179e-02 -1.008838803887957825e-01 4.610766126410651422e-01
-7.971330162069555081e-02 -1.061364401793359197e-01 4.573592648075050504e-01
-1.204285090947694245e-02 -1.246090552637402760e-01 5.371550619455152109e-01
-4.146951540002832837e-02 -1.104252934183118096e-01 4.733473505005355575e-01
-4.008088393951868972e-02 -7.956820309332827967e-02 4.464097613468696601e-01
-6.403753368343279018e-02 -1.217707652197682622e-01 4.964926775928171221e-01
-2.427047548919330361e-02 -1.232419322649422611e-01 5.372649436407822554e-01
-7.102049911237055813e-02 -7.310265362749852891e-02 4.389046075788659573e-01
-7.746060512150806932e-02 -1.023188617672094874e-01 4.547685476805838345e-01
-3.417882817656719280e-02 -1.160005348131523256e-01 5.437356601161535963e-01
-2.837126883787791445e-02 -1.144688977868970198e-01 5.498231953335572797e-01
-6.568740667283476387e-02 -1.170010657100703511e-01 5.266380344524791424e-01
-5.688658820419683487e-02 -1.216903565792894770e-01 5.203313071837937231e-01
-2.121264796800695698e-02 -1.213364500646688798e-01 4.917789461631770775e-01
-6.528012902939817064e-02 -7.249863711270408684e-02 4.399483447387858015e-01
-1.014682269284298416e-01 -1.144055808231011773e-01 5.104377905420973693e-01
-5.185925697969959863e-02 -9.413107418005231541e-02 4.526928789371535977e-01
-5.030106424151720851e-02 -1.129891743981633473e-01 5.361167951275572774e-01
-4.966769358795308092e-02 -1.011487365435782548e-01 4.590919544423165410e-01
-3.139306186489183165e-02 -1.157338428297290250e-01 4.829570729687039377e-01
-6.888563316535885328e-02 -1.063887264918032122e-01 4.605684536612770219e-01
-5.715462969064514370e-02 -9.317171443919813889e-02 4.510018592506404023e-01
-2.960103690682220484e-02 -1.026224384240574661e-01 4.631045009140102309e-01
-1.141273802076494398e-01 -1.180913940321660360e-01 4.980360623782833507e-01
-1.783336931406624692e-02 -1.206410712385637546e-01 4.876997904128353434e-01
-6.496398826907084922e-02 -9.787709774214778391e-02 4.531721423468579313e-01
-4.493901740719079274e-02 -7.224990944570530704e-02 4.434007963510099848e-01
-3.880793962639238204e-02 -8.204439400535269711e-02 4.475321771343060973e-01
-4.478104882679641296e-02 -9.688249710166349504e-02 4.567954628935502193e-01
-3.272347493743230085e-02 -1.136038460820125717e-01 4.786597881297873780e-01
-4.327303168057756999e-02 -1.222205310225976949e-01 5.252146854718287017e-01
-3.352533390949921643e-02 -9.797665165610942861e-02 4.594876742854717699e-01
-8.988218038036172031e-02 -1.234514763027081269e-01 4.795118326895246863e-01
-1.058276429185605882e-01 -9.935584224764093531e-02 4.550613798398915888e-01
-9.759400559307870870e-02 -9.347671676874302893e-02 4.505178272068469658e-01
-6.287347404494297853e-02 -1.210084724649601179e-01 4.933829553439972870e-01
-7.790691390999605892e-02 -9.151201025412519785e-02 4.470655823906786730e-01
-3.676822608620675809e-02 -7.957175313954918672e-02 4.462979164533941168e-01
-2.304928215675503336e-02 -1.079292116082044006e-01 4.680566922247205164e-01
-2.459002528706812768e-02 -1.192177955416366675e-01 5.483356373344625556e-01
-8.750724957228347978e-02 -1.172010507354223768e-01 5.166963256686372130e-01
-1.761643177753846601e-02 -1.143468838024896267e-01 4.749622765168097782e-01
-9.993433541690925626e-02 -1.194056469155469202e-01 5.092888825531944885e-01
-9.991548980190657903e-02 -1.172169244667593119e-01 5.103507411477701261e-01
-1.642685343372983844e-02 -1.047122677908880334e-01 5.651438555255436924e-01
