-4.304566603345586634e-02 -1.223345770788066833e-01 5.205810834021293854e-01
-4.614942383403425330e-02 -9.410602408744143943e-02 4.541512380055583997e-01
-4.940612094218365530e-02 -1.035000260407911016e-01 4.621796159232708923e-01
-1.981561683076117283e-02 -1.256764695197570003e-01 5.118398128790935253e-01
-5.375520885273216143e-02 -8.244050022769858210e-02 4.456919680602158262e-01
-2.389711342464900801e-02 -1.156040594399118104e-01 4.805619185365885282e-01
-6.645672744167359369e-02 -1.151063929597064966e-01 4.757751875064749614e-01
-2.686164479260814628e-02 -1.234241237818718279e-01 5.337470704586241288e-01
-7.102463433061391440e-02 -1.117579023278660322e-01 5.279513771157756663e-01
-5.171709494455843659e-02 -1.109807319794791497e-01 5.364500458843127761e-01
-9.937831139901733002e-02 -1.150042942938615392e-01 4.619271052488866380e-01
-3.909769591568944963e-02 -1.037196019849317696e-01 4.644316055093951068e-01
-5.951053969198002308e-02 -1.191596606145368942e-01 5.260299732777597992e-01
-1.195983317985723077e-01 -1.064105791892148295e-01 4.725667188156110199e-01
-1.020021369472395509e-02 -9.839505109518888182e-02 5.689176607904903316e-01
-2.380410871096177647e-02 -1.188821297722919557e-01 4.868607133913112062e-01
-3.342196340091406481e-02 -1.141351240642247827e-01 4.798200528869919212e-01
-9.394739180067751549e-02 -1.214479302804089972e-01 5.102290790706708323e-01
-1.097760598983890251e-01 -1.172567648590108064e-01 5.017442138733221313e-01
-7.667656262289514885e-03 -1.270840818063111999e-01 5.040246701390832529e-01
-6.246976774871677851e-02 -5.925269687563863852e-02 4.379320520627689728e-01
-7.723447067341118744e-02 -1.087764426057056949e-01 4.609489550503172994e-01
-9.859736634308738368e-02 -8.633074277050224732e-02 4.501451680654349752e-01
-2.970104503081738220e-02 -9.994324545435573359e-02 4.604702778280659325e-01
-9.510466029512013031e-02 -1.254018511814439518e-01 4.705198590276699067e-01
-9.058971791360485859e-02 -1.238075850724879579e-01 4.867312034619418748e-01
-7.845065004292410549e-02 -7.530825038157119844e-02 4.388567796187259895e-01
-1.024182285746892546e-01 -1.164696782056455493e-01 4.645627612395631933e-01
-4.902033876895960443e-03 -1.266957139516316222e-01 5.008422611964100657e-01
-3.511598731403387658e-02 -1.219482855483655370e-01 5.338511538281347502e-01
-6.789007399122329312e-02 -1.216602090099550698e-01 4.941131127117789901e-01
-5.742731921097225106e-02 -7.419975221978966640e-02 4.422679185479337916e-01
-8.152901617558494518e-02 -1.185745652120254318e-01 4.716796288886761501e-01
-8.088130331956185082e-02 -1.179405701256565214e-01 4.711559032789479629e-01
-6.961573634369400132e-02 -1.225928573868798471e-01 4.975417611387670802e-01
-1.087394072340049783e-01 -1.106952702368123181e-01 4.608738559227530951e-01
-2.651474438981412524e-02 -1.173342645720713423e-01 4.853041470445482730e-01
-1.207971589626190834e-01 -1.129591097284564361e-01 4.790444277964471809e-01
-8.880500230119299510e-02 -1.147667212866776976e-01 4.613564582252783208e-01
-4.597203649799723457e-02 -1.123411211388355979e-01 4.762191688806989842e-01
-6.134510280378955432e-02 -8.139255803866685124e-02 4.435410932574991860e-01
-1.166776831131374759e-01 -1.091156720169472460e-01 4.667885930507887915e-01
-2.254680508906618808e-02 -1.219241387973069302e-01 4.946276458680605725e-01
-2.579936567203865161e-02 -1.236328833057958737e-01 5.335776067343704909e-01
-1.653984945762947828e-02 -1.148932214977661931e-01 4.750972020158524822e-01
-4.397953540321236643e-02 -1.157954308727034004e-01 4.827902248153427833e-01
-6.554385677361848628e-02 -1.227733690272631017e-01 5.092535124321927453e-01
-4.718294891103461813e-02 -1.180059627749435319e-01 4.877545973782209665e-01
-4.779934323712287103e-02 -1.198314726701984606e-01 5.310065042447393857e-01
-5.163357082507914753e-02 -1.096206750285630555e-01 4.701582729425921037e-01
-5.949951636444040376e-02 -1.195909498270517068e-01 5.253216896969442606e-01
-1.001536889390570173e-01 -9.743195468609666676e-02 4.507390795727893029e-01
-7.494753539025039712e-02 -8.634614282144227604e-02 4.438298930376058382e-01
-6.295309406857220458e-03 -1.248109083296676802e-01 5.351160364896440091e-01
-6.067812844158092245e-02 -1.115291019391040639e-01 4.706902403410875291e-01
-5.550998285470529203e-02 -1.040441807212452024e-01 4.610373410984476283e-01
-3.259038198348586379e-02 -1.043489461134567697e-01 4.652882804008047768e-01
-3.562668049719314167e-02 -1.164225669036020316e-01 5.420525747304381081e-01
-2.158310725203801961e-02 -1.035042844402813966e-01 5.620800999030004519e-01
-7.030602583323371235e-02 -1.220866995144160999e-01 4.940897389636629278e-01
-5.952675304897010050e-02 -7.066208563286534294e-02 4.408146451289893797e-01
-8.746979265775636780e-02 -1.170794440480393689e-01 4.626109476471975679e-01
-8.973094504334981625e-02 -1.091053302454658425e-01 4.574657836956719792e-01
-7.565335415232565808e-02 -1.027875553383945789e-01 4.554374153028541428e-01
-4.971425161810143212e-02 -9.636566339847139895e-02 4.550872494223806575e-01
-2.857419560520505983e-02 -1.241120787362447880e-01 5.197863814645856673e-01
-6.612631039376170618e-03 -1.283119349145005750e-01 5.114211825481382867e-01
-6.755957436156258267e-02 -1.097106966067730172e-01 4.653732846421579361e-01
-4.400493363033792377e-02 -1.221423777021852092e-01 5.078275985226413658e-01
-7.580508078599355881e-02 -7.562055694365046876e-02 4.388739437661660081e-01
-4.375730747211741684e-02 -7.442243677158820458e-02 4.440523878207930375e-01
-1.115379681151214136e-01 -1.175361856643064862e-01 4.692940863547980790e-01
-5.701522872189898616e-02 -1.219964917585815017e-01 5.148438158386670072e-01
-2.450963402411078171e-02 -1.158458625582680090e-01 4.812655008587402028e-01
-1.164365061733240725e-01 -1.215305069309241259e-01 4.902426155872320335e-01
-8.851604788448430572e-02 -1.195292962959879635e-01 4.636131600044764989e-01
-5.182226138285231376e-02 -5.706276557355656476e-02 4.389191147480412947e-01
-1.074070021683582177e-01 -1.217463967678321518e-01 4.744484663494528132e-01
-7.479006719212899501e-02 -1.229573871175972249e-01 5.098914174939283006e-01
-9.475829378063221897e-02 -1.246082541666542892e-01 4.937960912825021809e-01
-5.427866036299047042e-02 -1.188339152072406535e-01 5.287194973240276763e-01
-5.990199846105899451e-02 -1.222429758090467222e-01 5.059591812676963452e-01
-2.866166540515679290e-02 -1.089501751149842546e-01 5.510645932771084388e-01
-2.351752063477367816e-02 -1.222577685880935211e-01 5.422485853376795006e-01
-2.570610856737594319e-02 -1.196778098821840164e-01 5.466428992195175862e-01
-6.640703128179480108e-02 -7.290034308221976511e-02 4.395669280134459345e-01
-5.903832477186812117e-02 -1.095368425258029799e-01 4.679268174193219054e-01
-8.620538971217150959e-02 -7.135345243776530788e-02 4.422247506430022068e-01
-4.319174862971050799e-02 -9.721976489077152617e-02 4.574785067457594057e-01
-7.970881820548711416e-02 -1.233547222355333983e-01 4.952459146490440500e-01
-1.000438271103867155e-01 -1.205127398686260676e-01 5.065892080247361706e-01
-1.178528482614313311e-01 -1.036907364423969996e-01 4.701789979189195945e-01
-6.268182776211576879e-02 -8.575120768552210726e-02 4.452543243508980120e-01
-9.618931895662893861e-02 -1.069379285098145393e-01 4.555514604410171309e-01
-8.179714451824590671e-02 -1.150485751498692699e-01 4.665956457796947010e-01
-2.894311610542682836e-02 -1.222513951769611390e-01 5.374560199157176754e-01
-6.693785615498280828e-02 -1.229437338900980087e-01 5.067621778097576302e-01
-6.202337636820010741e-02 -1.221232689716270081e-01 5.148246927961553920e-01
-3.268437307679505910e-02 -9.727921741008202505e-02 4.586996706348581143e-01
-3.659162741568001975e-02 -1.200253280575785952e-01 4.940430125762117486e-01
-5.204281391332871848e-02 -1.083270004276455645e-01 4.679792756755967176e-01
-8.968605507882689010e-02 -1.240999557597047553e-01 4.899874425018456714e-01
-5.806231230958961570e-02 -1.214338015527828413e-01 5.198447396195714498e-01
-1.089689275205137087e-01 -1.229380110247283026e-01 4.784021344571773859e-01
-2.674057537192790768e-02 -1.193988704912182092e-01 5.466117878255181139e-01
-1.625392892188690791e-02 -9.918474044670033685e-02 5.653624984818333976e-01
-1.013834083022655819e-01 -1.169843261150808611e-01 5.090461985808528711e-01
-8.633962215284261832e-02 -8.751497238900025899e-02 4.448312042826016999e-01
-3.116735078937863529e-02 -1.237029125122868500e-01 5.209738112651465247e-01
-4.248433597747350299e-02 -8.451894138784517285e-02 4.485488836103385113e-01
-6.107254561938150333e-02 -1.090230405690863075e-01 5.320442880671270025e-01
-1.850084797211612106e-02 -1.148217187552862395e-01 4.759946858642895573e-01
-7.713953892995038808e-02 -9.158353588209640350e-02 4.470368680137634665e-01
-8.732475378986537251e-02 -1.047862732856770784e-01 4.546954103689198612e-01
-3.438201917121511825e-02 -1.105777585718316358e-01 4.734165309418906786e-01
-6.439699312532311259e-02 -1.153485568044973070e-01 4.771015330314502534e-01
-8.265866582576149313e-02 -1.155594388105393444e-01 4.661222054103545953e-01
-1.067653756232898529e-02 -1.238349135513262533e-01 5.400298056044454675e-01
-4.240502263838630964e-02 -1.097522528803043518e-01 4.722960348503430494e-01
-3.285749229257785287e-02 -1.214800115784175072e-01 5.365476722337867432e-01
-9.420475659231051027e-03 -1.200864486592445463e-01 4.835029618551612285e-01
-6.335305004076911828e-02 -1.160447216674802551e-01 4.789989635872609064e-01
-9.282199902183979612e-02 -1.231861224021911644e-01 5.057458032020589744e-01
-2.625780348876275219e-02 -1.027822184538525474e-01 5.536766881503801807e-01
-5.639160994952316375e-02 -8.659267353635514974e-02 4.470906978360611461e-01
-3.434726129869604405e-02 -1.085253788733369779e-01 4.705052706694324294e-01
-5.318386332404745342e-02 -1.073918536103450616e-01 4.663400020753892816e-01
-1.983235456164159430e-02 -1.258756891578291792e-01 5.242880745535188902e-01
-4.230971560598231762e-02 -1.158442184932116648e-01 5.382336721789648948e-01
-7.453247627247730489e-02 -8.068810003340706749e-02 4.404351740539189097e-01
-8.957114428454667973e-03 -1.210673459980268069e-01 5.478878232220346645e-01
-2.421215365412583351e-02 -1.067207701492638161e-01 5.572400293671573301e-01
-7.868731022213729109e-02 -1.225315777134530493e-01 4.911070224929359740e-01
-2.428566086796607112e-02 -1.209625610087749770e-01 4.926246370799086671e-01
-2.347357468709038164e-02 -1.086596514229494492e-01 5.576203544160972525e-01
-8.247811300511152799e-02 -1.213709399340113376e-01 4.775832972763991990e-01
-7.451808719923888602e-02 -1.188858226094721138e-01 4.789351813359906673e-01
-6.971718576673721635e-02 -5.524299026575660299e-02 4.392727972023450778e-01
-7.387390225478739081e-02 -1.234177635345889701e-01 5.053678817258356881e-01
-1.341137790278295813e-02 -1.260567630398313765e-01 5.036632272113231723e-01
-8.566108835280912548e-02 -7.587256707325562566e-02 4.412896984829901559e-01
-7.739948954639012946e-02 -7.929720229551677491e-02 4.399898418035297354e-01
-1.201247309572824329e-01 -1.132004473838835040e-01 4.760264252648406802e-01
-8.419371968750624657e-02 -1.240432017386068897e-01 4.996991685863294563e-01
-7.508530342204218500e-02 -1.144741389755333655e-01 4.698907247858413183e-01
-6.373804295431111100e-02 -1.138797641464411731e-01 4.743736905280804828e-01
-3.511891113455140739e-02 -1.224642259864690275e-01 5.064276839576009603e-01
-8.607283125770565091e-02 -1.129555583941311420e-01 5.196339815414471319e-01
-1.009518726210111711e-01 -1.249157018746237802e-01 4.930975951657559087e-01
-3.010224180497025892e-02 -1.180744570823095974e-01 4.878526832893223530e-01
-8.417831079846718745e-02 -9.247742252435835197e-02 4.471931343393008018e-01
-6.478053132574157491e-02 -1.228315313904454475e-01 5.077977732685070578e-01
-3.624869287456228967e-02 -1.139761958877850562e-01 4.795146643247640839e-01
-1.208038095068659362e-02 -1.227343767885436393e-01 5.447313804655569136e-01
-5.692201176031756737e-02 -1.125939468924198050e-01 4.738364495098141838e-01
-8.067695587269639590e-02 -1.057494927498883880e-01 4.567895395316362017e-01
-4.567434815770446410e-02 -1.220107222128943292e-01 5.221691612420383821e-01
-1.101335014291470044e-01 -1.233527407399574727e-01 4.819423610511294198e-01
-1.010570732148738937e-01 -1.107797878739414238e-01 4.590540824461115665e-01
-4.760228793642654055e-02 -8.390243046497153356e-02 4.473755552254641277e-01
-8.025832179518396781e-03 -1.235166359404280545e-01 4.914910759866910062e-01
-2.191307329950638837e-03 -1.291145114770773095e-01 5.131256450427146287e-01
-8.901511767920380902e-02 -9.973492022835298010e-02 4.510082210109136458e-01
-2.207193116539827443e-02 -1.251980820612902112e-01 5.119901789455814090e-01
-3.259071440365404054e-02 -9.821476084616112545e-02 4.594408819948632150e-01
-1.112540348234430376e-01 -1.015787591875369905e-01 4.572615909951547319e-01
-8.819132829603333612e-02 -1.235857393868280002e-01 5.038338673653599553e-01
-2.748080527462822692e-02 -1.206490441370757366e-01 4.930932206125396844e-01
-6.111204022007227232e-02 -1.225956230301256805e-01 5.093980915154394662e-01
-1.953140867983475457e-02 -9.659510228000368903e-02 5.634815244909849863e-01
-6.568386637890306912e-02 -1.012819691697247199e-01 4.561112916707796838e-01
-3.663446396567593411e-02 -1.046530077841389544e-01 4.656531838491667630e-01
-6.402551987896136498e-02 -9.499969825882068064e-02 4.510201100277146380e-01
-4.072775544662455421e-02 -1.017517554017450254e-01 4.620921766386928420e-01
-1.159416476304924726e-01 -1.146538896984426736e-01 4.696650882860505249e-01
-1.154303899416732615e-01 -1.147153332196342995e-01 4.689418313839490149e-01
-9.366439782233126898e-02 -1.009838792611758018e-01 4.515091274632362928e-01
-5.605983256717712165e-02 -9.124885381272228313e-02 4.499191685458984180e-01
-3.240518284543002225e-02 -1.099724354669434079e-01 4.724281554789081516e-01
-1.195304549370038161e-02 -1.223935541955133016e-01 5.461625013765022407e-01
-2.381187465045436769e-02 -1.115399995201273170e-01 5.565299012420169555e-01
-2.953249189329524432e-02 -1.034315552333341798e-01 4.638258349911587586e-01
-2.062598730518503190e-02 -1.076148227049563560e-01 4.662044103369361592e-01
-3.498863137808706086e-02 -1.081824658473751477e-01 4.700615498812246162e-01
-4.164203566065220047e-02 -1.064730007967477909e-01 4.674188947530322213e-01
-2.659724573204434381e-02 -1.240993536122158569e-01 5.294073102378917817e-01
-8.633570594552461563e-02 -9.925714370788336904e-02 4.509719958809331186e-01
-2.873723235045618982e-02 -9.111240681366997163e-02 4.529745804936623488e-01
-1.053491187060078133e-01 -1.245458544210211183e-01 4.835670834097495763e-01
-4.550718167773909473e-02 -7.101722762599468886e-02 4.427311591098098686e-01
-1.054153390954065544e-01 -1.220526384407436549e-01 4.744121219321222327e-01
-4.930516933341129449e-02 -1.070978596699614649e-01 4.670637592978533204e-01
-8.800759435550420395e-02 -1.226393976370716010e-01 4.750083104815710500e-01
-5.217774496739698009e-02 -1.144293069106254446e-01 5.341610871374116165e-01
-5.202999134654832936e-02 -1.130906455503440239e-01 5.350573544875669718e-01
-8.566229695011957912e-02 -1.234096751161525285e-01 4.896692836545101235e-01
-9.262470866933146529e-02 -1.218629145880050502e-01 5.094640163840475910e-01
-2.499493456945856701e-02 -1.228926788455061980e-01 4.995569539037109652e-01
-6.299979755689928684e-02 -1.225498090953673763e-01 5.112743098652433593e-01
-1.042352466913226694e-01 -1.162268022900309616e-01 5.055769322867122995e-01
-5.411266551549348547e-02 -1.184691995440274453e-01 4.886202358181567229e-01
-4.268263451989077334e-02 -1.211906821418387709e-01 5.004071853852005702e-01
-1.671962394903950613e-02 -1.248169667678924039e-01 5.007375498051169771e-01
-1.999311379464734778e-02 -1.016754314379211960e-01 4.587773954701622192e-01
-1.676343457624281455e-02 -1.188105890243894569e-01 4.826205282338812963e-01
-3.670556666828339587e-02 -1.143126090223137020e-01 5.426777708641140618e-01
-5.131770045973657601e-02 -1.198393970150832266e-01 5.278803998566633515e-01
-6.491256572076471720e-02 -1.181170896581247159e-01 5.251210878182778208e-01
-7.873191734711158102e-03 -1.199061263057433074e-01 5.503613951892284417e-01
-7.731824340617714231e-02 -1.233245740287036152e-01 4.968988551705111334e-01
-3.994011597760396826e-02 -8.008844055710422072e-02 4.464603282194085643e-01
-4.043948146160441376e-02 -1.058916584815337569e-01 4.667891810388069551e-01
-8.778866019731315640e-02 -1.238242887205952131e-01 4.912298103065497745e-01
-4.588276773538304404e-02 -1.140547264916394188e-01 5.371967829646734360e-01
-8.476869057477916247e-02 -1.218063580154445796e-01 4.798068977735412410e-01
-9.983546541413272635e-02 -1.243093978952869577e-01 4.973917207225176940e-01
-5.562134956535218916e-02 -6.381515976256121880e-02 4.396021374818332439e-01
-2.794634384426263399e-02 -1.096869944425944848e-01 5.522582387412301452e-01
-3.789180010195002113e-02 -1.218929013069114803e-01 5.030594577790239441e-01
-4.193219844525073597e-02 -1.222780556775415889e-01 5.249889228149083875e-01
-1.121880073455146926e-02 -1.189853501786910933e-01 4.815120735735369251e-01
-5.064354193529973375e-02 -1.162800295958400509e-01 5.337825480902337327e-01
-2.780480678716412690e-02 -1.224066539967212514e-01 5.377600435224549891e-01
-7.959963347172538395e-02 -1.092604415508523219e-01 4.606401081864048286e-01
-5.832628575384762870e-02 -1.112693658606565272e-01 4.709608001739911121e-01
-1.117017862194313316e-01 -9.915331393601102550e-02 4.578558753549983318e-01
-6.059717258274862489e-02 -1.224501929403047223e-01 5.110660503568712487e-01
-1.119173040898498728e-01 -1.135434670770807813e-01 4.651624810505012864e-01
-8.292132211758319882e-02 -6.733151308888224440e-02 4.401709864932956684e-01
-4.870094014256482612e-02 -6.235920243589881951e-02 4.400189513891383242e-01
-5.566772717017354211e-02 -1.202581677129978960e-01 5.247874877726080856e-01
-8.045570417194237989e-02 -1.234042841261524387e-01 5.067516215957647008e-01
-6.597476050193397390e-02 -1.106748281640152071e-01 5.294699928526841459e-01
-2.239264714542541640e-02 -1.253041060957134079e-01 5.238151208026129435e-01
-7.497427263177040835e-02 -9.260182261907284884e-02 4.479085792855438397e-01
-8.337987643075153721e-03 -1.184367101809007256e-01 5.534470396021758942e-01
-6.774275866383944189e-02 -1.166196293349953256e-01 4.782893896162029312e-01
-8.170398875603293587e-02 -9.136956357767826720e-02 4.466434308263311226e-01
-6.083235654553945104e-02 -1.168473957647490902e-01 4.821691540826986144e-01
-7.247773991448755448e-02 -1.187891670959602269e-01 4.802462212032030386e-01
-5.816874432262765515e-02 -1.050742768826031098e-01 4.616249737395338171e-01
-2.758477194564351240e-02 -1.140634103061947818e-01 4.789988660933275910e-01
-2.707046777732183274e-02 -1.140957777881041607e-01 4.788636659104479887e-01
-3.087424267084636770e-02 -1.236973943751131927e-01 5.232861163013922123e-01
-6.529054622538577046e-02 -1.040343159979507243e-01 4.589007547381653285e-01
-1.681220478583000250e-02 -1.219029972596068212e-01 5.465504410746668817e-01
-7.585982510758138009e-02 -1.184125798811351132e-01 4.770536164143601154e-01
-7.525623961769001280e-02 -1.001434778165207345e-01 4.533773620431130191e-01
-5.719825161286833104e-02 -1.182727393697683149e-01 4.869936969888208345e-01
-8.360205226901892828e-02 -1.192517830643644444e-01 5.169305547927506295e-01
-7.216102204543850540e-02 -1.233951119681066660e-01 5.047726678082536944e-01
-5.180942071447693781e-02 -1.048144076981287753e-01 4.632445693474546711e-01
-7.625937476852839847e-02 -8.238471039211625602e-02 4.412647454366465660e-01
-7.708309146179891103e-02 -8.605288101847889670e-02 4.434330813131125426e-01
-8.659075958725324929e-02 -1.234713397907373778e-01 5.054195460213127822e-01
-6.637559959957144151e-02 -1.196658669858778473e-01 5.220135188368858481e-01
-5.232128368245454048e-02 -1.006461278266800874e-01 4.579067934282859409e-01
-1.137333416510932088e-02 -1.252489080303177404e-01 5.345108209567607238e-01
-2.088310371180515310e-02 -1.151635131006015639e-01 4.778592666577193282e-01
-9.781409859225795311e-02 -1.158218207975959257e-01 4.614544440168892869e-01
-3.668348649154604124e-02 -1.075943157346998663e-01 4.691688132585705717e-01
-1.116340757314930460e-01 -1.163462117479086427e-01 4.680542716663221858e-01
-4.774314071170922963e-02 -8.508849960674882973e-02 4.479823175631558185e-01
-2.564348848548985912e-02 -1.237063964740383187e-01 5.332570722242488959e-01
-6.144708698318916695e-02 -1.101117560456438826e-01 5.315445104855938130e-01
-2.622076299011431855e-02 -1.004989983477274917e-01 4.598750559831187301e-01
-4.449182372532558410e-02 -1.124018743364916806e-01 4.765623426548137309e-01
-7.157911018189284935e-02 -1.209962589921497883e-01 4.878487309936231919e-01
-1.040158791495609109e-01 -1.143067147734586897e-01 5.074250387283124608e-01
-1.858283462748882772e-02 -1.253394484731729097e-01 5.051839158138575758e-01
-1.161290011134464006e-01 -1.125213191978893801e-01 4.684464534073296549e-01
-9.985346003668628401e-02 -8.758815033789739413e-02 4.513610038331909990e-01
-2.104827994117524845e-02 -9.591471745059106102e-02 5.616182818866737314e-01
-6.461970997167275355e-02 -1.226519025404736035e-01 5.057812760595262747e-01
-1.072045564222601638e-01 -1.083492704017344072e-01 4.583268074700239114e-01
-2.848794890474708186e-02 -1.085637189149820936e-01 5.514922903868406667e-01
-7.753638257356211538e-02 -6.751461438375781776e-02 4.368028209233812964e-01
-2.855558757632800648e-02 -1.154076473920584017e-01 4.819120079052920391e-01
-5.730917170372907404e-02 -7.746041093466575489e-02 4.432888448504747614e-01
-6.902232698532236033e-02 -1.129454310219903251e-01 5.278448012952244861e-01
-5.793030690982375885e-02 -1.156487012317155977e-01 4.800125731912433524e-01
-1.121170953205378046e-01 -1.220725284798969967e-01 4.972300236004402740e-01
-5.156624713219552097e-02 -8.587066598529705108e-02 4.477075212585034381e-01
-1.201647356582511567e-01 -1.154813100471915460e-01 4.888719996320258776e-01
-4.147401326887319162e-02 -1.221437797563118821e-01 5.069448413745542004e-01
-7.713520385488749354e-02 -9.203223913883491758e-02 4.473265307912107636e-01
-6.865806547109491731e-02 -1.201929730046267103e-01 5.194720644607486726e-01
-7.724110849534035483e-02 -1.231740521393285825e-01 5.082775584822272208e-01
-8.596342308801141474e-02 -1.161953481081167555e-01 5.180287887732151209e-01
-1.150971719135256977e-01 -1.177840946695022650e-01 4.728476643294388659e-01
-5.252244364294516438e-02 -1.139712868104173771e-01 4.780365040982363922e-01
-1.091260776701608731e-02 -9.684349246483756057e-02 5.693886163200923001e-01
-9.510737986244159614e-02 -1.229598079921587622e-01 5.056296079888893402e-01
-1.178129212843899171e-03 -1.291642223138597390e-01 5.194903741976932832e-01
-9.736786002568477427e-02 -1.190153972563707530e-01 5.106202001155810688e-01
-5.574435245399605998e-03 -1.263829061795185282e-01 5.000357621251977358e-01
-1.131511380269146216e-01 -1.207233696381399130e-01 4.752269036645947464e-01
-3.548252456862033277e-02 -1.203313392994380393e-01 5.387302539254825717e-01
-2.958005882587470131e-02 -8.618036462768424721e-02 4.494633329604723615e-01
-2.476069441107440691e-02 -1.247710857824870928e-01 5.154106903767947667e-01
-4.692003061869427089e-02 -1.013487302565459769e-01 4.602990128954014271e-01
-3.395378774406022926e-02 -9.254526592913479843e-02 4.548133842022523132e-01
-9.010108889712217795e-02 -1.235650432418960859e-01 4.859467425506965865e-01
-4.961961517147497891e-02 -1.218322229213498614e-01 5.062429289213679073e-01
-1.318287953650597658e-02 -1.076568302981824737e-01 5.643818903152506561e-01
-6.500715007809751422e-02 -1.208126469674430520e-01 5.202719545002376655e-01
-1.334593639901926997e-02 -1.273437850060455401e-01 5.187144038364532861e-01
-1.138485321202446082e-01 -1.118251124192710805e-01 4.643418921986621761e-01
-6.165867963341225416e-02 -1.186884353404770720e-01 4.866061650774332059e-01
-6.059678001030651545e-02 -1.181767418632296840e-01 5.270859644213405915e-01
-7.986437260107381864e-02 -7.160421439882320993e-02 4.381140133908270062e-01
-6.991143164770867446e-02 -1.224035403307081327e-01 5.132151358800233210e-01
-6.491115790688904708e-02 -9.392233424094099947e-02 4.500945503473212095e-01
-7.253274093700912140e-02 -7.194350297396231997e-02 4.380816493409783741e-01
-1.871186219241497209e-02 -1.214446959327956516e-01 4.903286912742051418e-01
-8.637485333999424253e-02 -1.186112826799957942e-01 5.159572970641800316e-01
-1.445027632535525117e-02 -1.271669081410950475e-01 5.220707482435393842e-01
-7.600289319187483739e-02 -1.028314103145706870e-01 4.553967213179816453e-01
-8.060925418071533677e-02 -1.229933139433359024e-01 4.921601089203354595e-01
-9.860462060076166657e-02 -9.359809293460893964e-02 4.500473596624274264e-01
-5.079443315209758447e-02 -1.222140279922042799e-01 5.113185225057541583e-01
-6.212488280838151383e-02 -1.133975762503403872e-01 5.302235223403730657e-01
-5.577231601655228271e-02 -6.634013943267963453e-02 4.401969651972268971e-01
-2.435314275198733822e-02 -1.248045356744903744e-01 5.138556179577081773e-01
-1.001053921535860619e-01 -1.064026092690038144e-01 4.555569666933276807e-01
-1.056999059187721246e-01 -1.074028681435100774e-01 4.571961840796978094e-01
-6.755044191415784938e-02 -9.254896940221762902e-02 4.486862412619234686e-01
-1.045088967773237787e-01 -1.099255946757898145e-01 4.590214602103178665e-01
-2.957025195194016784e-02 -1.093286656130010026e-01 5.497090623676909038e-01
-5.921479728618126229e-03 -1.241358283481464320e-01 5.367485082321876710e-01
-6.382112571832505854e-02 -8.124554913626799713e-02 4.427852415456838830e-01
-1.966038741138666571e-02 -1.138203825197037639e-01 5.580768160342083339e-01
-8.546867710873494450e-02 -1.176173612130043955e-01 4.655322911692907351e-01
-9.909344019713574314e-02 -1.187888633620015066e-01 5.098030539522626636e-01
-6.841496269289171206e-02 -8.479599458333533790e-02 4.436535018810760511e-01
-7.523820091285640665e-02 -1.168988649996014623e-01 5.240540494992145248e-01
-1.132413579248069679e-01 -1.031011101576787131e-01 4.605150534337705825e-01
-3.939302042356555844e-02 -1.225696844465882090e-01 5.247070510766733697e-01
-8.062386619652470165e-02 -9.817768442597091250e-02 4.511135054889658380e-01
-5.604275562213126283e-02 -1.194678942428426954e-01 4.919015002285070381e-01
-1.349173096192348396e-02 -1.100300124249428968e-01 5.630905096979003099e-01
-8.376866781278856366e-02 -9.626776219581251182e-02 4.493283270599422452e-01
-5.528087552222155782e-02 -1.106258432728289692e-01 5.344200561221741363e-01
-1.088520538689202732e-01 -1.152693089397297255e-01 4.655062420155106628e-01
-7.831673363445233738e-02 -1.237681925027389329e-01 5.030016500781716582e-01
-7.378081492548239917e-02 -8.386598143633448854e-02 4.421882066489875585e-01
-1.069166119653025410e-01 -1.226156855517654548e-01 4.983268425693760384e-01
-3.379084850441141374e-02 -1.232910794604325094e-01 5.226074132687080764e-01
-8.353090027091727987e-02 -6.967607231285505298e-02 4.399735051225461824e-01
-5.169519153407906714e-02 -1.207490618256066989e-01 4.983118513583889575e-01
-8.761839676723229275e-02 -1.235051038923208611e-01 4.885634680296057630e-01
-1.076840221416944764e-02 -1.278769159925046972e-01 5.190127719478686563e-01
-5.547102027260191609e-02 -1.189121449825705085e-01 4.898297458443641728e-01
-5.182913124529249516e-02 -1.213162557396054858e-01 5.018237930293870663e-01
-2.383901229153748136e-02 -1.235456143686260305e-01 5.016615752151656338e-01
-3.579714868776288222e-02 -1.229325728576167315e-01 5.125589885903324427e-01
-8.215781873301665483e-02 -1.099859179229665945e-01 5.236870378432517681e-01
-9.569458511735986356e-03 -1.264206519176343524e-01 5.014794728720051165e-01
-6.320621310259318115e-02 -1.227624980985062147e-01 5.085139922040944338e-01
-7.866006951464502017e-02 -6.961247321659638776e-02 4.374154291234650382e-01
-6.873390318327501913e-02 -1.035446377542568602e-01 4.577101248030326919e-01
-4.800032688153442473e-02 -8.534730497442864772e-02 4.480760587703838671e-01
-9.253228592601253633e-02 -7.922891066648019009e-02 4.476108940640763922e-01
-7.165120963027479806e-02 -7.659496852828789892e-02 4.394643101906915428e-01
-6.377288995759049228e-02 -1.174641396514893021e-01 5.261445406683949999e-01
-5.019353358905399159e-02 -6.131732746198741840e-02 4.397417885087852030e-01
-6.845683084768579285e-02 -1.131256421775630461e-01 4.706850446072570748e-01
-8.271030136178045278e-02 -8.106690106363961812e-02 4.414401575561490154e-01
-5.047407562587433172e-02 -1.133619293512269643e-01 4.772650443038202184e-01
-2.468271448060864806e-02 -1.025433663225902708e-01 5.564278622594082124e-01
-4.646964901655271929e-02 -7.994606284933733487e-02 4.459302078786588908e-01
-5.350963626982982446e-02 -1.098663807723258695e-01 5.357902677500843147e-01
-9.345494845442479936e-02 -1.233100912508233588e-01 4.803671026600268013e-01
-4.938216998591281326e-02 -9.961218194474798227e-02 4.578883033791812385e-01
-5.638199495639202585e-02 -9.764386678242531481e-02 4.545281828172408334e-01
-2.963732343810214498e-02 -1.190458821862865335e-01 5.448821829272296746e-01
-4.782654587576970484e-02 -1.207389353197189791e-01 5.275239985414761357e-01
-6.017447999230574746e-02 -1.187513123263665982e-01 4.874767261945041619e-01
-5.087437985363831711e-02 -1.156075461494473905e-01 5.340785397437611826e-01
-9.942515133842583230e-02 -1.045654208668764379e-01 4.542054235906150539e-01
-6.698400955568960258e-02 -1.136105470163699116e-01 5.282331327999905124e-01
-8.191365581507445426e-02 -8.854200026900660436e-02 4.449344935582472682e-01
-4.176350677717380333e-02 -8.674877638326769502e-02 4.498880982606260348e-01
-8.081138260789108574e-02 -1.188580319132783863e-01 5.185944200917202984e-01
-1.114569538687144729e-01 -1.235741813973195991e-01 4.892536798081914551e-01
-9.241792229744193177e-02 -1.169612546844986667e-01 4.610609897993038220e-01
-9.900303531852620853e-02 -1.208402482525956778e-01 5.073615966957104595e-01
-5.026999555506729556e-02 -8.392203492340881421e-02 4.469082592876525428e-01
-2.780391501202567062e-02 -1.239237511592277963e-01 5.105455650139701929e-01
-5.033624103613996981e-02 -9.623117055768456996e-02 4.548068972006193977e-01
-9.351724216435265691e-02 -1.189592649304862526e-01 5.124880161219187436e-01
-6.802768039375263476e-02 -1.180609199560609113e-01 4.817263047121987940e-01
-3.462703498208485886e-02 -1.112627854514513792e-01 5.445399320422942280e-01
-1.040935738251711207e-01 -1.144468104445563739e-01 5.072072425195951473e-01
-2.864828318496991100e-02 -9.992146428792157697e-02 4.601708162901398391e-01
-6.297755435693064285e-02 -1.222805344284503271e-01 5.026041161904938326e-01
-2.449859596245398258e-02 -1.217258723399915060e-01 5.431008966287639295e-01
-4.584028593094639781e-02 -8.434778923819154228e-02 4.479088381137678598e-01
-1.907044204161689391e-02 -1.167528238281799746e-01 4.793329502389435670e-01
-1.015214378923530170e-01 -1.224354705874322602e-01 4.702429775523543354e-01
-4.749363402026174352e-02 -1.106869994206002850e-01 5.384451175042164195e-01
-6.125985203514807548e-02 -5.838218679737072758e-02 4.379815963286655123e-01
-1.020748154275001179e-01 -1.181584293883403136e-01 4.662672984976397039e-01
-8.098319702469297665e-02 -1.209458380088601209e-01 4.810254671233469281e-01
-8.638254551349719423e-02 -1.212176483461556570e-01 4.715433150999311929e-01
-1.010748981392965151e-01 -1.230747577927666925e-01 4.718505638888507714e-01
-4.265527413311515081e-02 -1.129091602652288612e-01 4.775509083435299784e-01
-1.065562060537481592e-01 -1.239805027954010153e-01 4.816798582874428081e-01
-6.694057922958142337e-02 -8.209655901693968527e-02 4.423274138121663923e-01
-9.929801505715771248e-02 -1.229364334922891239e-01 4.678952825354543710e-01
-6.303225443925596083e-02 -1.200352677330672191e-01 4.905844023319360092e-01
-7.928893544622717116e-02 -1.145053619533150518e-01 5.243763066838416087e-01
-1.047205327813675035e-01 -1.163428400429322163e-01 5.052262465323588136e-01
-7.256026292275609413e-02 -1.231812137519799344e-01 5.001867065762142239e-01
-5.078755211742139869e-02 -8.877779910614704006e-02 4.494238385738690833e-01
-1.192684352739815240e-01 -1.073794104920523657e-01 4.710386439745145593e-01
-2.006699958004081602e-02 -1.205219348091047527e-01 5.483429567436018948e-01
-8.593591600559785659e-02 -7.966625858610104638e-02 4.422745586099427473e-01
-2.051132089138636011e-02 -1.186959776062221639e-01 4.839191836292148774e-01
-1.641631764913756633e-02 -1.191457155195771445e-01 4.832298679573354683e-01
-5.435451379906318381e-02 -1.123173262541835998e-01 4.742025606758691891e-01
-6.363226892771152443e-02 -8.585939959379776387e-02 4.451138665704308384e-01
-4.127836478833783740e-02 -1.205598374412720358e-01 4.971741413214916250e-01
-3.223927465228728501e-02 -1.142390256098960444e-01 4.800259005267825119e-01
-6.557844127500415954e-02 -1.146565159338475276e-01 4.752150958085433197e-01
-4.882549277386898784e-02 -1.176946196578199516e-01 5.333004360445937619e-01
-1.153078507068569653e-01 -1.150093882587116395e-01 4.976214340461357910e-01
-7.242169324312726537e-03 -1.282334499924903948e-01 5.116547393475930905e-01
-6.695675901003604602e-02 -1.177955375397089499e-01 4.816399952444717636e-01
-7.154252218851528400e-02 -5.639064264961982792e-02 4.390479688757252252e-01
-1.174230751376284798e-01 -1.207339589347191933e-01 4.839999068765902801e-01
-4.505234165234114213e-02 -1.223253096090753389e-01 5.137517985482822347e-01
-5.112661330000935200e-02 -1.026660386423797755e-01 4.605102812098712528e-01
-2.022135152997782057e-02 -1.074369490420331585e-01 5.624848244108801021e-01
-1.106523715306337308e-01 -1.234017683388746039e-01 4.933182959515776678e-01
-2.971292012565348445e-02 -1.231042721140631624e-01 5.051047528398702191e-01
-2.172514144366427882e-02 -1.036267601376707204e-01 4.615645243153010391e-01
-8.473207688086312195e-02 -1.222308172814139948e-01 4.851858545358598840e-01
-2.368278185318579629e-02 -1.239828741083210673e-01 5.037327065411728588e-01
-8.130648571482775033e-02 -9.335816470426261393e-02 4.477459698646072961e-01
-7.243040797459926461e-02 -7.965885302920579225e-02 4.402937343076410714e-01
-8.176912541660991823e-03 -1.165265791479898477e-01 5.565555667318058397e-01
-2.997352975300000485e-02 -1.039294244308266030e-01 4.644392231176097119e-01
-4.640017696230992056e-02 -1.202152033939696135e-01 5.312365263005058846e-01
-6.012598418315980714e-02 -1.133964437416319498e-01 4.744217687427707553e-01
-5.199337728872579362e-02 -1.163579055624384267e-01 5.330677721033409977e-01
-2.082824715109386424e-02 -1.154885020324925987e-01 4.783345189132869879e-01
-8.629329553610785852e-02 -1.213542545355509178e-01 4.719026592750439897e-01
-6.169131112041524589e-02 -1.223024504340231161e-01 5.130530541774389608e-01
-3.187309568015998101e-02 -1.234500980913170454e-01 5.143902678035271459e-01
-1.267144835953768270e-02 -1.223770250792646508e-01 4.894583120563207324e-01
-7.271226159521090339e-03 -1.265346961666057590e-01 5.010934412507680458e-01
-1.024604740707699829e-01 -9.940572933164927572e-02 4.522418812996173432e-01
-5.432063222791204404e-02 -1.135542339296017611e-01 4.766329233381657593e-01
-4.877935526050428128e-02 -8.926750261348248561e-02 4.501433689753887024e-01
-2.589042351276495124e-02 -1.026589766952355071e-01 5.542983051481245038e-01
-5.463615970325406274e-02 -9.474955460179633471e-02 4.525491113436080903e-01
-6.332304158000887084e-02 -6.972645496243939922e-02 4.394813223178217210e-01
-4.806711757909071930e-02 -1.212910550970562606e-01 5.026009350910416451e-01
-8.753786988283877857e-02 -9.960283040115636144e-02 4.510391094206593343e-01
-6.548541657787253223e-02 -7.438619806064676598e-02 4.401789278781870762e-01
-8.704650947647951664e-02 -1.204635183504805529e-01 4.693750674706602122e-01
-1.185659526704923028e-01 -1.155470782846946265e-01 4.761303946926543351e-01
-3.346245700048126187e-02 -1.214334851834476814e-01 4.989851858525064521e-01
-6.762037267806607355e-02 -7.147576492093242473e-02 4.389098808519923955e-01
-3.040123391932465086e-02 -1.237716224979529822e-01 5.230887334132759969e-01
-1.357357013792906755e-02 -1.172378312135272937e-01 5.559008967303888937e-01
-7.011710132700349485e-02 -1.202834370999789487e-01 5.192173574407457082e-01
-9.911051473947074530e-02 -1.107800617005263860e-01 4.586153511614571299e-01
-1.009085805416680970e-01 -1.223778276135983195e-01 4.694109143127494499e-01
-3.772495152329727319e-02 -1.072953845205193574e-01 4.686549037359486469e-01
-3.382888506320478467e-02 -9.699119019453580903e-02 4.584719093736376871e-01
-2.626186057881629843e-02 -1.225460765135555907e-01 4.988721610389444949e-01
-6.764503814959840766e-02 -1.227704135999598961e-01 5.093279522497532463e-01
-6.111855067834399968e-02 -1.127691712023386333e-01 5.308433344288389089e-01
-4.034390481503383891e-02 -1.224787350469058872e-01 5.093940690080853706e-01
-8.131555624552357087e-02 -9.884885010311880715e-02 4.514895911472789347e-01
-9.776713418539356715e-02 -1.239336526789803494e-01 4.761072646484356685e-01
-7.111102144209285880e-02 -1.227572627012709361e-01 4.969452021978723599e-01
-5.259483439904236168e-02 -1.081399785351907367e-01 5.368664143622784435e-01
-5.122982743598486488e-02 -1.019753235367104605e-01 4.595405378795442419e-01
-1.015687897023921232e-01 -1.089621512194059727e-01 4.576546110279767210e-01
-8.138079162018828361e-02 -1.144577925707087607e-01 5.215770251150017023e-01
-1.133133648159447143e-01 -1.059976640085222854e-01 4.609825189529546119e-01
-1.013433075502505470e-01 -1.202421895579766503e-01 4.681997207592812904e-01
-4.259479938729382464e-02 -1.111203763240810327e-01 4.745768095570142564e-01
-2.469055484071899093e-02 -1.172976777343828630e-01 4.841333097368437088e-01
-9.089123600581379414e-02 -1.231621926909604314e-01 4.693269935771060553e-01
-4.063593300349581383e-02 -1.225408814950284808e-01 5.224056994830906797e-01
-1.060172156724311227e-01 -9.819779342927779930e-02 4.543932935221870473e-01
-9.455560207243139670e-02 -1.241375095246946836e-01 4.837811833531540096e-01
-1.307196251482851956e-02 -1.133778533868290972e-01 5.604655822012232225e-01
-5.801174656436949156e-03 -1.263577366221789178e-01 5.000277283292443586e-01
-1.861932259663790987e-02 -1.165516704885670718e-01 5.560921622639155570e-01
-2.150734674619134146e-02 -1.116147258315478147e-01 5.590943778558929989e-01
-7.934761018209046668e-02 -1.237231196554896551e-01 4.995203780911093294e-01
-9.417354127898112937e-02 -1.129106828966097709e-01 4.592521592572093025e-01
-2.802694531809412498e-02 -1.109721806033115710e-01 5.517902281692208533e-01
-1.819082499558026880e-02 -1.250559823810010462e-01 5.033675313087445646e-01
-6.992803318682651315e-02 -1.147326510242342446e-01 4.730671753805814617e-01
