-1.122268114430550190e-01 -1.003893197734384152e-01 4.585765689499677333e-01
-8.262066517258663534e-02 -7.424433140575086021e-02 4.393057270725516106e-01
-1.053830698291435275e-01 -1.018207989346850278e-01 4.545418036949571139e-01
-1.882357367469043863e-02 -1.150687379631708945e-01 5.576117432977519828e-01
-5.997437172195795724e-02 -1.179432397113183012e-01 4.867289054130095050e-01
-2.029354411204079001e-02 -1.214353866187795894e-01 4.915593591173955668e-01
-2.008956626653823907e-02 -1.222435384054889607e-01 4.940807042308111297e-01
-3.349982299954867848e-02 -1.114794839600394410e-01 5.455484868638370566e-01
-1.172054334418695110e-01 -1.023924425483978273e-01 4.679612877947452176e-01
-7.249617911839434381e-02 -1.118293556395905941e-01 4.680579162026623496e-01
-5.096151829879694284e-02 -9.890546490675423963e-02 4.573337525756463462e-01
-7.659317024253475825e-02 -6.620803744599410012e-02 4.364361478497889024e-01
-7.264483619156669736e-02 -8.255539963437870388e-02 4.419190707790977002e-01
-6.178148513820183596e-02 -1.221459697837475877e-01 5.099776216644171800e-01
-5.815154414405013239e-02 -1.215710193324103933e-01 5.145683902832272061e-01
-2.564337168507267381e-02 -1.064610878498301466e-01 4.670336173296860682e-01
-7.369846887276663983e-02 -1.222771615325381617e-01 5.108166190417381403e-01
-5.358630575911776939e-02 -1.186276039386463116e-01 4.908993149403138578e-01
-1.000309938561313727e-01 -1.237516804965620443e-01 4.955315768844608115e-01
-4.549070250492397161e-02 -1.092710460113183318e-01 4.718511343202523856e-01
-5.359565159716981469e-02 -9.954249998913314301e-02 4.572148125014839914e-01
-5.102612243630248040e-02 -1.218395917800993156e-01 5.112754549090380296e-01
-8.172102016042108452e-02 -6.665239195143161932e-02 4.397240451979803066e-01
-8.451953306348156114e-02 -7.251697179095945023e-02 4.399362518750690731e-01
-6.292629045373943075e-02 -5.892568546704404775e-02 4.378990024432882211e-01
-9.140871655640502025e-02 -8.182646769772233819e-02 4.458208533899845616e-01
-5.051387977285662356e-02 -1.080568563401536897e-01 4.687808093702218737e-01
-4.687727169563295215e-02 -1.022629549118393294e-01 4.619537650761155190e-01
-1.939601303537823174e-02 -1.015509928037027360e-01 5.639509272911964466e-01
-9.757419702083745816e-02 -1.157539881125065062e-01 5.122859866778559645e-01
-4.832885912928412686e-02 -1.216725791036357696e-01 5.204487974242086867e-01
-1.045002730191674917e-01 -1.029940180411654665e-01 4.547160867398439277e-01
-5.045343366521934207e-03 -1.241818171190128828e-01 5.360953820303863138e-01
-5.063586341833387072e-02 -6.676228802340967994e-02 4.411814529820041741e-01
-5.044153570538760512e-02 -6.918428635756453116e-02 4.418993434294436473e-01
-9.668265430762526536e-02 -1.233945487098003779e-01 4.979314567487821974e-01
-7.314015829037438798e-02 -1.227613983379790413e-01 5.026879558922824343e-01
-2.849479862557412549e-02 -1.232189908084796309e-01 5.324296114806034153e-01
-1.750437313235538375e-02 -1.152205591376386645e-01 5.578626306360309206e-01
-9.738831014085888582e-02 -1.160916311284952984e-01 4.617438153942257095e-01
-8.811917515733011519e-02 -1.166176857088268709e-01 4.628184338057071412e-01
-1.009084361009280895e-01 -1.240947391932707561e-01 4.882244206272930986e-01
-8.186144161118201479e-02 -1.214396114755704470e-01 5.142044417284048485e-01
-8.540441351255814717e-02 -8.844249616713784068e-02 4.453492372987553627e-01
-1.168334047641150231e-01 -1.171834335639633101e-01 4.760985068968956457e-01
-1.012977495487535351e-01 -1.020185629935087407e-01 4.534813541999713205e-01
-1.293406034494894684e-02 -1.185929323045210315e-01 4.813293564137617331e-01
-9.160446118548082328e-02 -1.183699704502093886e-01 4.618167585311228618e-01
-5.499518938279939623e-02 -1.075253628576405551e-01 4.668340206705977602e-01
-1.083717528508989017e-02 -1.260792423175470522e-01 5.010525238436255302e-01
-3.429618981099294417e-02 -1.218487206282896501e-01 5.026058247814803037e-01
-9.086608168585076639e-02 -7.467954749771192613e-02 4.466301689491776195e-01
-5.211862585156887273e-02 -1.185761432110465502e-01 4.909070135023823056e-01
-9.054976577523629611e-02 -1.235944437264452217e-01 4.946932565926438485e-01
-7.062448598438630931e-02 -7.383632203923934378e-02 4.391588576081760231e-01
-7.042292056758828883e-03 -1.284931971068040968e-01 5.222608728161457492e-01
-9.248910230259782539e-02 -1.170444911679305311e-01 5.139268194089405828e-01
-7.230610786140434509e-02 -1.176581160389386094e-01 4.796078662456434993e-01
-8.068009196217328094e-02 -1.055326471631051061e-01 4.574301845214278628e-01
-1.116889862652165749e-02 -1.266189308122118162e-01 5.043083335647238208e-01
-5.747094029079857780e-02 -1.189870947186734002e-01 5.267404523841134889e-01
-8.534314869856321484e-02 -7.830665713168472042e-02 4.415616009251567275e-01
-4.021591003008967435e-02 -7.823455113883785728e-02 4.457858199136365274e-01
-1.037557157366381377e-01 -1.150555006291758692e-01 5.069090110953924366e-01
-2.384099625556970400e-02 -1.225871733072712716e-01 5.403626573826695312e-01
-7.618405696099589397e-02 -9.554276190857000084e-02 4.504835590373190701e-01
-5.265171824591851485e-02 -8.774075291687946643e-02 4.488385966683754447e-01
-8.928506566537681988e-02 -7.830686466054412320e-02 4.441200785775225590e-01
-7.557332411892666614e-03 -1.284819935615032493e-01 5.166349162999599454e-01
-9.367128953011559511e-02 -1.210334411506624464e-01 5.096918989154728408e-01
-1.200645078840581331e-01 -1.129668716460223016e-01 4.837321092000643752e-01
-2.890736521685881646e-02 -1.237212043054609634e-01 5.121664250348043623e-01
-3.986913165481857646e-02 -1.003351499374245670e-01 4.611610652263334331e-01
-8.436297839238648955e-02 -1.231482087241496104e-01 4.969992180307279406e-01
-9.934863760047643599e-02 -1.240906116132008963e-01 4.877095475414048864e-01
-8.513047029370027219e-02 -9.745947766100840348e-02 4.506020678056187334e-01
-9.663465512841624971e-02 -1.240901722997920370e-01 4.723471817612622248e-01
-4.757254073454603160e-02 -1.160744166674842759e-01 4.839762996554860530e-01
-1.105852252383063283e-01 -9.854438058477954510e-02 4.563860290186999569e-01
-4.436382896963019656e-02 -6.543321528143378196e-02 4.412872499756402833e-01
-6.757810226187746516e-02 -1.183741284780519543e-01 5.232982926712118621e-01
-1.052076644843077530e-01 -9.909879923373746125e-02 4.534350213477074121e-01
-5.312774942560821029e-02 -5.717533351727205337e-02 4.388566191592204180e-01
-8.001963036130577134e-02 -1.203368350233520179e-01 4.850737908464437531e-01
-8.908727931427536106e-02 -1.228875164513727608e-01 4.882802933908705900e-01
-6.168268756273576070e-02 -1.139468883625475853e-01 5.302483552008044887e-01
-1.527677891834528998e-02 -1.003940980242637587e-01 5.656256110946629168e-01
-1.109467362212872427e-01 -1.017644490970660842e-01 4.572451241902078523e-01
-1.173630340775613651e-01 -1.209106309384101186e-01 4.892332230879894439e-01
-2.625222121369067199e-02 -1.243225024596559813e-01 5.265392809816249464e-01
-7.073551099324019986e-02 -6.193944044700488982e-02 4.371437720975166474e-01
-2.467302202508640449e-02 -9.829614520505181030e-02 4.575092011669861791e-01
-5.567436424774750009e-02 -5.662515949943005417e-02 4.384935649027814630e-01
-8.668430449102153268e-02 -1.214502548421080713e-01 4.758732879332311372e-01
-1.162355062153689125e-02 -1.005272130133588043e-01 5.677700963904308562e-01
-5.397413837901672735e-03 -1.213760792130623573e-01 5.419557446433771464e-01
-3.209694875226576372e-02 -1.067409630666066034e-01 4.681922684442058058e-01
-5.311949667546084219e-02 -1.187923147100705124e-01 5.291117102761394575e-01
-5.546310447703709651e-03 -1.287624235061642919e-01 5.220718840677539552e-01
-7.671984502455618526e-02 -5.880534138059416438e-02 4.384781277362836405e-01
-5.786051286808567562e-02 -1.169811655288019586e-01 4.846506862020978357e-01
-4.836514457466094263e-02 -1.139214390739763660e-01 4.795313674928367020e-01
-6.540615160638120484e-02 -8.946405548935931762e-02 4.473317283319758197e-01
-4.804604746741145821e-02 -6.045210409057923812e-02 4.397700889717464090e-01
-8.084602945493117587e-02 -1.205963379933760321e-01 4.861470703930224069e-01
-6.000765187338867601e-02 -1.218590927520887129e-01 5.076327743238195911e-01
-1.132562650758036638e-01 -1.194727084186039817e-01 4.748802874356898296e-01
-3.615040702498031194e-02 -1.061861645740649340e-01 4.678115275181639054e-01
-1.876383767679900075e-02 -1.141934273969629349e-01 4.752099967252846890e-01
-9.375636593914345174e-02 -1.226776200495860586e-01 5.038262157602102498e-01
-2.775826552959905977e-02 -9.373043937668042169e-02 4.548982959888565047e-01
-4.519642797899448700e-02 -7.197440463653743958e-02 4.432378281952531474e-01
-2.905432490121572647e-02 -1.194597907400680864e-01 5.444641997228072405e-01
-8.390750262183797881e-02 -1.188097397507998504e-01 5.168475941218495517e-01
-4.922548460289126460e-02 -1.187355663463936783e-01 4.915075463476736850e-01
-9.446355618205033722e-02 -9.655664203164146531e-02 4.499622157599801886e-01
-2.119367920179865764e-02 -1.179219473669316232e-01 4.828573759469261262e-01
-1.766988461722049722e-02 -1.252145448590883947e-01 5.333678573329772021e-01
-4.943233490912598421e-02 -1.201950689801718486e-01 4.980674530970892189e-01
-4.842021077388506539e-02 -1.006452273962434307e-01 4.596148250184343143e-01
-1.154977985574869200e-02 -1.250466609619070302e-01 4.978888777181465497e-01
-4.918612805792456355e-02 -8.307999913748832788e-02 4.470247247639281274e-01
-6.793958508148149888e-02 -1.128811455068267772e-01 4.720538443879795931e-01
-1.018813233669302321e-01 -1.220818038397941258e-01 4.707609314677383416e-01
-2.767046413300990743e-02 -1.055990128473731499e-01 5.532850898099324066e-01
-2.508289268272327621e-02 -1.226301472171818507e-01 4.989703435955003541e-01
-1.195043590933514421e-01 -1.055435154625262162e-01 4.717056562973386269e-01
-7.674286501572202823e-02 -1.196975379047579280e-01 4.814241742763063492e-01
-1.919368288790321633e-02 -1.193075079198599869e-01 5.509178421300162665e-01
-1.147705861948720013e-01 -1.150141458564541974e-01 4.699429231171990407e-01
-1.426524667541523295e-02 -1.260661287676706210e-01 5.307132268957256427e-01
-6.431358199711380286e-02 -7.204391750091890256e-02 4.400253071718608910e-01
-2.835580840920962076e-02 -1.125635119578770882e-01 4.768079954702568735e-01
-1.169738347078638357e-01 -1.009004690684594668e-01 4.680745477965606582e-01
-6.293562276663233757e-02 -6.917091708658859583e-02 4.396649440913684148e-01
-6.457870216521421902e-02 -1.201837374243431428e-01 5.210831028025327827e-01
-9.045878399955470384e-02 -1.235645801545432465e-01 4.943334671396193425e-01
-7.270341126446336344e-02 -1.210049880425394103e-01 4.902765849491753092e-01
-2.280319280297635892e-02 -1.146185473220756451e-01 4.782586877326799324e-01
-5.348353811287379772e-02 -8.422568236015393062e-02 4.467360461295449836e-01
-1.690177154091289380e-02 -1.112707096394532219e-01 4.697765827302272656e-01
-6.813844422030193582e-02 -9.577905359985219857e-02 4.516289554456445199e-01
-1.200341440675874345e-02 -1.239281387341691631e-01 4.943006395281249188e-01
-3.951287606477942027e-03 -1.208063937569610058e-01 5.415041570411197602e-01
-8.609939016098507036e-02 -1.189914570103046548e-01 5.156758626623250130e-01
-9.449876084307348711e-02 -1.238839714036785306e-01 4.922450275156761146e-01
-3.940069882457241518e-02 -9.514936279159871835e-02 4.567304169112832990e-01
-7.751678105076199865e-02 -7.848313016201056980e-02 4.399470588036573648e-01
-8.146787626969995144e-02 -1.008452620124624666e-01 4.535107449385056277e-01
-1.641558373754309352e-02 -1.111719410851939316e-01 4.694838428504805039e-01
-9.701519000079592003e-02 -9.353316055620454483e-02 4.495386465085535743e-01
-1.004897830963392413e-01 -1.214843187569717292e-01 4.683323752523134154e-01
-7.745537561403312288e-02 -9.701507949248457108e-02 4.513965196945401992e-01
-1.091784388840455616e-01 -1.180217023274398175e-01 4.700595044742010287e-01
-3.186184019445604393e-02 -1.090268256795788177e-01 4.714277761351828300e-01
-1.088665013720682556e-01 -9.776043016876323488e-02 4.557323274612309905e-01
-9.680269714023177763e-02 -8.185233521026798187e-02 4.496760187959542021e-01
-2.764790438070539175e-02 -1.171041383133447494e-01 5.489330554559659348e-01
-4.168987287870767888e-02 -1.143479218348222026e-01 5.395139181039844134e-01
-6.079610141807156865e-02 -8.319915985286675808e-02 4.448482026627747499e-01
-1.184516349291357962e-01 -1.184695167571641339e-01 4.902330805694675719e-01
-9.631202139476752189e-02 -1.162393078248014355e-01 4.616808419303804478e-01
-2.424415189081341113e-02 -1.051790032645144729e-01 4.645629088069562762e-01
-5.175129195773797708e-02 -1.167510268256434502e-01 4.851303308370633616e-01
-3.897424476115986247e-02 -1.224435804920401133e-01 5.234249488551641072e-01
-5.649703191933548585e-02 -8.953697991331061035e-02 4.491551491482842495e-01
-8.413073646709524900e-02 -1.227732046611330480e-01 4.918007421549071556e-01
-6.562492907618062976e-02 -7.363198167969134400e-02 4.401663428091191488e-01
-7.165282135147474363e-02 -1.223520356088141220e-01 4.979435118111074643e-01
-4.254987420795248304e-02 -1.196656037161710484e-01 4.947008938412700285e-01
-2.338146772783022964e-02 -1.083601213729070978e-01 5.583497349585695435e-01
-2.940619843481757228e-02 -1.127158474218405843e-01 4.774238880072435021e-01
-9.862819129597032164e-02 -1.110407765627501181e-01 4.591478149179198942e-01
-6.496631721452501840e-02 -1.149201693565183036e-01 4.773951080488228471e-01
-3.086955680268498731e-02 -1.164657206752284929e-01 4.851271016381636936e-01
-8.108246881342212609e-02 -6.991506595142116254e-02 4.388810822967230130e-01
-7.454195585389612744e-02 -8.107454139011616157e-02 4.408147494064861283e-01
-2.082351713336691446e-02 -1.235585614776673058e-01 5.390970777157869653e-01
-4.857213100030211006e-02 -1.198186453375646304e-01 4.965660187538167292e-01
-1.691965891185995274e-02 -1.176455816876549043e-01 4.804156485846177715e-01
-3.168629599553134807e-02 -1.158054185998356606e-01 4.837730343650319953e-01
-9.532120987601487572e-02 -1.197558748381480631e-01 5.109790023573864692e-01
-6.794673633908170085e-02 -1.127652392078254129e-01 4.718021235578761519e-01
-9.466790779121275756e-02 -1.114870626167678708e-01 4.590189188747346716e-01
-7.793864386083239337e-02 -1.228000240764259704e-01 4.979268530123435732e-01
-7.676719676561874484e-02 -1.200893410657464383e-01 5.182661399764308952e-01
-5.783369768196513355e-03 -1.206396703322730884e-01 5.457797108877089354e-01
-5.488450432886782249e-02 -1.083315470219329557e-01 4.680388436636056526e-01
-9.390561614140199853e-02 -1.222675409307113908e-01 4.794203940373804596e-01
-5.169447995536871621e-02 -1.024255023808706838e-01 4.607474224364062620e-01
-5.311344936839079711e-02 -6.962462674850629363e-02 4.417331383090627450e-01
-3.765223629211460893e-02 -1.114731082983156929e-01 5.426682078719535784e-01
-8.965441689953106141e-02 -1.218093187762841478e-01 5.088981747019288848e-01
-9.447802404135555165e-02 -1.234902983121032999e-01 4.678992065951623758e-01
-5.503553114752288145e-02 -1.145261429705290990e-01 4.794266867969322887e-01
-3.943660889993500646e-02 -1.208531724354069276e-01 4.993784941233657682e-01
-3.760406296750764404e-02 -1.139082744962447019e-01 4.800244833071350414e-01
-5.754098285507244087e-02 -1.156501272495485955e-01 5.310520427471167038e-01
-1.744586396088757332e-02 -1.120651916801793102e-01 4.712607123937168074e-01
-1.001626208226743392e-01 -1.090307718316514268e-01 4.582640866036850058e-01
-6.774276498886604159e-02 -1.157020551199077901e-01 4.779607108275066296e-01
-7.609362271476305395e-02 -9.305302986183013048e-02 4.486489377631404096e-01
-7.459578735631217095e-02 -1.208965220156471287e-01 5.164238063911575916e-01
-5.338916138237742581e-02 -1.010440832241432108e-01 4.585589847509230488e-01
-7.869958104879670735e-02 -1.214608931593781360e-01 4.894413313522647524e-01
-2.203947473255860393e-02 -1.072097931936219356e-01 5.608344443320710804e-01
-1.059879319659871727e-01 -1.188065355634518871e-01 4.695036296356343564e-01
-6.877340022646016848e-02 -1.050339466181589576e-01 4.600375790544747878e-01
-1.110566966554023677e-01 -1.226937164417347126e-01 4.912860827901170957e-01
-1.144143393105894954e-02 -1.039854614169743174e-01 5.665650294286131983e-01
-5.219481127509337237e-02 -1.214418646154577092e-01 5.058109426488636151e-01
-1.274214192315015551e-02 -1.273201352124277708e-01 5.142261781536652254e-01
-8.795021808515542105e-02 -1.129895181584853747e-01 5.187439610917874422e-01
-1.691822762320816312e-02 -1.160839627087369291e-01 5.570421681295413263e-01
-3.516814409749054876e-02 -1.192368275236025815e-01 5.401767994337248746e-01
-1.210602442751629731e-01 -1.118416247614493764e-01 4.793774703612108667e-01
-1.643463360640234905e-02 -1.056131516467261749e-01 5.646752140955931809e-01
-3.860184633787475117e-02 -1.220223477586784289e-01 5.281986024989492323e-01
-1.036979259277891474e-01 -1.240242505154503655e-01 4.850570144433869468e-01
-7.819343791656899190e-02 -1.158669194200809827e-01 4.722495691333570278e-01
-7.190955257589906613e-02 -5.595519882496353264e-02 4.390979771437058532e-01
-1.147472829885142903e-01 -1.175819152747676205e-01 4.734092487456311171e-01
-1.188045003069038014e-01 -1.179303614325283439e-01 4.902373678717503180e-01
-7.691818109232649581e-02 -1.155456066593090747e-01 4.723683896465731835e-01
-8.781337097703655059e-02 -1.147412053146223132e-01 4.624001551686957034e-01
-1.048157635548250532e-01 -9.970227081225162269e-02 4.535658883884744474e-01
-8.409504061460440494e-02 -8.683606363526971683e-02 4.443495746061613683e-01
-6.774136363040936248e-02 -9.831334866301451314e-02 4.536636444795931200e-01
-3.244020616015905883e-02 -1.224841643727965085e-01 5.053907373147584758e-01
-1.325961318223141047e-02 -1.272875742786092335e-01 5.163951402977582372e-01
-5.164616321676596816e-02 -1.158484593354175002e-01 4.829796624051352905e-01
-7.925331599084506351e-02 -1.197318615947623316e-01 4.810150412846165291e-01
-5.084339428890018164e-02 -9.487598970275933075e-02 4.540296951784171808e-01
-6.418087219603610394e-02 -6.351621007601901403e-02 4.382194826176080138e-01
-3.937083000645838493e-02 -1.104746727653295596e-01 4.739516281452754165e-01
-1.638688744478890638e-02 -1.265929111651421801e-01 5.173868145179764122e-01
-9.461885030423473897e-02 -1.123132736026392908e-01 4.595700079326784371e-01
-1.083493890846688179e-01 -1.102832671077310783e-01 4.613772265202883971e-01
-4.598079496824273443e-02 -1.187443337637353186e-01 5.342692133808299992e-01
-8.899004024454597317e-02 -7.359696917703480168e-02 4.448309129635893977e-01
-6.673460600611665072e-02 -7.818839105269491385e-02 4.412747196208375300e-01
-1.139417120788883825e-01 -1.221299115870974755e-01 4.887366467863402120e-01
-1.156788693757239139e-01 -1.179607189562632413e-01 4.755793616357469333e-01
-8.030156688385267291e-03 -1.206377422612342903e-01 5.477997491642679906e-01
-1.577611792932926554e-02 -1.244460066197028980e-01 5.369565093239168085e-01
-2.764632163619200680e-02 -1.109430171047131319e-01 5.531906556589220036e-01
-1.068986082535003240e-01 -1.195417847592698118e-01 4.708216929030635267e-01
-1.082849890658055120e-01 -1.233988271071298215e-01 4.877195733056498006e-01
-2.064898976948452078e-02 -1.221162419257510179e-01 4.941098681065543285e-01
-5.316692984281209955e-02 -1.133324963346424297e-01 4.776284201939687835e-01
-5.037421411649996988e-02 -5.817173049887437719e-02 4.392365343264720834e-01
-3.085698254373622426e-02 -1.218836310185532068e-01 5.004187011697488474e-01
-5.992691559636757065e-02 -1.217044229560938357e-01 5.053568903197692697e-01
-8.317351275736470373e-02 -9.686416400010826322e-02 4.504864951664327433e-01
-5.133656668586124988e-02 -1.123138889903053245e-01 5.358623803657883711e-01
-3.205969196776858876e-02 -1.129293226424399610e-01 5.469707723703979285e-01
-4.612511566927178508e-02 -1.085631858757717533e-01 4.707187924799632883e-01
-9.106451547851356076e-02 -7.889307531558033271e-02 4.459686170745574829e-01
-1.141514584931858506e-01 -1.165618972109838947e-01 4.713373740976029569e-01
-2.703436698836623325e-02 -1.145983881515813541e-01 4.801215679817941173e-01
-9.397413749131806882e-02 -8.411944641059428129e-02 4.465757659740998697e-01
-3.505769714666396447e-02 -1.202450101425890511e-01 4.954934010082804319e-01
-6.744612928800382268e-02 -1.219920242975647273e-01 5.003853330142632450e-01
-3.335209500849933839e-02 -1.168236606132418420e-01 5.443437873095086088e-01
-6.705346257243280372e-02 -6.780768642963638793e-02 4.383238675880406499e-01
-6.937891039484729572e-02 -1.225443068346146747e-01 5.052589066968878884e-01
-7.895028474779702821e-02 -1.043189530832739631e-01 4.568215303744502243e-01
-9.498435222783917567e-03 -1.280627661125104400e-01 5.215343731723307563e-01
-3.422321630430591455e-02 -1.171356649379797221e-01 4.866513438397700453e-01
-7.053379779341653610e-02 -1.056502607393317861e-01 4.603126602472791817e-01
-2.272204202409778065e-02 -1.126571671414984127e-01 4.750044464355284157e-01
-4.866865745233210638e-02 -1.204899336647639457e-01 5.265086859365005756e-01
-6.177166358927966422e-02 -1.218263332981426861e-01 5.042804876377008361e-01
-1.092345345022734254e-01 -1.231691497022442267e-01 4.888526953800818586e-01
-2.522301861006907495e-02 -1.038086584484495811e-01 5.564462832016048299e-01
-5.688319044216114118e-02 -7.793850902964058469e-02 4.437568418222551103e-01
-7.075651518788045324e-02 -1.105422047637961147e-01 4.667560514823821949e-01
-6.399286315700923600e-02 -1.195403356517836940e-01 4.903673247265717960e-01
-4.203836934711049911e-02 -1.201353519167207146e-01 4.967988229882751017e-01
-2.841995516999376234e-02 -1.235131206284468264e-01 5.304573101230511956e-01
-4.335232070945111565e-02 -1.139638598822091120e-01 4.800836570589420149e-01
-8.252750346301260254e-02 -8.602707284665916943e-02 4.438258839236381981e-01
-6.972875281809784442e-02 -7.445082346242874738e-02 4.395222632232694271e-01
-6.385581975437797098e-02 -7.042524033200053823e-02 4.397167924730683852e-01
-6.235028932910263028e-02 -9.624004105835474998e-02 4.527445574493591529e-01
-1.200492285375857199e-01 -1.079459047534210708e-01 4.709778412539317727e-01
-2.975975805106532285e-02 -1.233304475160098140e-01 5.087629644449664923e-01
-9.007955640557530064e-02 -1.159066456292789232e-01 5.157109290892527564e-01
-9.904578318114214130e-02 -9.838961296978360194e-02 4.512955464387634619e-01
-1.042981218488759770e-01 -1.200694692348764359e-01 5.028994768875107990e-01
-9.959541314156013236e-02 -1.237146946839972061e-01 4.958163845860278363e-01
-8.530215192012334524e-02 -1.141242002160155616e-01 5.197669464776004666e-01
-1.125148466562617688e-01 -1.224191189623105164e-01 4.891365519121491090e-01
-9.880184973787061592e-03 -1.257441868215306291e-01 4.995716044163903136e-01
-7.004599355249237214e-02 -1.128656654300005946e-01 5.276030190625751182e-01
-1.742968515249443406e-02 -1.193621621593979609e-01 5.513152482339546134e-01
-9.832287406990676548e-02 -1.212863351366138681e-01 5.069794908099932718e-01
-7.204295649399644619e-02 -1.165144519276119922e-01 4.773019955362758360e-01
-7.102708559993978210e-02 -1.227270016381490220e-01 5.058750853143220150e-01
-5.212730568528391867e-02 -9.598287703635074997e-02 4.546459143146195925e-01
-1.033846198246555770e-01 -1.048805322685423952e-01 4.555294250592745176e-01
-9.059079948314271991e-02 -7.870852131297095822e-02 4.454803766885074290e-01
-4.473546866384406177e-03 -1.289764487839048235e-01 5.207308185597799843e-01
-5.888794096503360831e-02 -8.898236034381065696e-02 4.483234236133684658e-01
-7.028908808382584861e-02 -1.222887501702593360e-01 5.097726030793390262e-01
-9.381033790943474338e-02 -1.238838613888694068e-01 4.893718574435076407e-01
-8.764521757591581252e-02 -1.112546785817302708e-01 4.607076609700414549e-01
-5.615906581047806767e-02 -1.125963705725888941e-01 5.332251902183370307e-01
-4.000990751806263873e-02 -9.319227523974638050e-02 4.550903512530276029e-01
-6.125980050575338676e-02 -1.197069446260744102e-01 4.928078295536117426e-01
-4.105774181536767098e-02 -1.096401464530519509e-01 4.726237619577275950e-01
-6.561260324968473667e-02 -1.207167893746705911e-01 5.192988104073321676e-01
-2.045998120063764747e-02 -9.892592803603530993e-02 5.634530991696765634e-01
-5.392575902047960779e-02 -8.857043165599168266e-02 4.490556394242216087e-01
-9.889555701505922669e-02 -1.156788396819596748e-01 5.113849692169115668e-01
-2.713411153117817332e-02 -1.071580704401385031e-01 4.681699338697244417e-01
-2.490189030857693775e-02 -1.246250986850675757e-01 5.148109094555323173e-01
-4.759584744189605809e-02 -1.155169409324195706e-01 4.827508239134145618e-01
-9.496401060331177701e-02 -8.565619457207318543e-02 4.466839720537503222e-01
-7.785304482835567197e-02 -9.298764347110695383e-02 4.484211203904635012e-01
-2.271433938288793669e-02 -1.003744291665263910e-01 4.586705035455437285e-01
-3.445918600915815009e-03 -1.290647679196968989e-01 5.163020315540138849e-01
-1.661322494320911780e-02 -1.239143166855326827e-01 4.972755909315479395e-01
-1.080610941932674124e-01 -1.232209039746524071e-01 4.842767636362958483e-01
-2.771138696647923103e-02 -1.238596741266792117e-01 5.287038306770834861e-01
-8.704481063471804225e-02 -1.099862897738066725e-01 4.599367119999283049e-01
-5.137148712070845058e-02 -1.104528888056640207e-01 4.726962429567234114e-01
-8.245580032017912897e-02 -1.094188160371213497e-01 4.606025673533507003e-01
-9.636411957973395337e-02 -1.244405760886906354e-01 4.690929378570812824e-01
-8.053297008413791425e-02 -1.208725572421037592e-01 5.159266570145117914e-01
-2.766897631419720088e-02 -9.387517428466357616e-02 4.549838823881582339e-01
-1.059973773457064811e-01 -1.071681451309535182e-01 4.579459222870772561e-01
-2.110320989658873506e-02 -1.170339905269003472e-01 4.811178420410817114e-01
-8.568396363877757438e-02 -1.075838000140475897e-01 4.581009155739741989e-01
-5.632751489315639126e-02 -1.213203496913599910e-01 5.193463792921647615e-01
-1.123029616474538334e-01 -1.099197497356421416e-01 4.626300046413037714e-01
-4.963067381877111356e-02 -1.217547232987743755e-01 5.102120771756272211e-01
-8.472777548136802006e-02 -1.210386908149586327e-01 4.754584509236426393e-01
-2.739916752650118151e-02 -1.054626168638380102e-01 5.536159941741252144e-01
-4.743263092456163205e-02 -8.205114845018818270e-02 4.468835976958272505e-01
-9.971524111530673251e-02 -1.007611892843730400e-01 4.526172529391552235e-01
-9.842866273871897498e-02 -1.192336633355356446e-01 4.649691437369070646e-01
-7.412187117852747642e-02 -6.419378247227887357e-02 4.368726754763087028e-01
-9.436447099502309754e-02 -1.234644777775366076e-01 4.680224145135113978e-01
-6.958886775593438323e-02 -7.113116933309089618e-02 4.386186665042175470e-01
-2.226144177659881637e-02 -1.252309958438433124e-01 5.254708454213543600e-01
-5.597697572480658107e-02 -1.209010798945051451e-01 5.013329783613890145e-01
-1.079523083473337419e-01 -1.176454179289718877e-01 4.690536444989385489e-01
-5.241124035285245342e-02 -5.833052380901595363e-02 4.391310288604579060e-01
-4.261584368274660972e-02 -1.165052970130528165e-01 4.852782153633150020e-01
-1.383559921042607638e-02 -1.163487331357535987e-01 5.571907795026931343e-01
-1.716382824285438841e-02 -1.158351497552741055e-01 5.572583049879715755e-01
-6.263473898824814534e-02 -1.140927038662798293e-01 4.765260503104045142e-01
-6.550950945068369224e-02 -1.168253959364962818e-01 4.815414181575810582e-01
-1.986272474089166226e-02 -1.104111844167892376e-01 5.612309268569573018e-01
-4.892615891675877043e-02 -1.190850159062591951e-01 4.931279908937533651e-01
-2.421150209947000448e-02 -1.196802526929141713e-01 5.475408401965763394e-01
-3.060560070941951288e-02 -1.167071622246666912e-01 5.469065841745934797e-01
-1.075184469497473538e-01 -1.232079263327939406e-01 4.836110895217196060e-01
-9.312204968676478234e-02 -1.072642599123156265e-01 4.563731428874701623e-01
-4.744818790946467996e-02 -7.365281662868365664e-02 4.436634048477559600e-01
-1.841366476431770954e-02 -1.262054451091774165e-01 5.208542790519025134e-01
-2.539229827515029209e-02 -1.032971020592968053e-01 5.559874659745036585e-01
-7.458645565900703933e-02 -1.222879158518948434e-01 5.109509521166002433e-01
-3.737405621710011144e-02 -1.165760100771641994e-01 5.409125843494534402e-01
-3.921170965662394703e-02 -1.177810732575051700e-01 5.388710823361766433e-01
-8.800727529218124734e-02 -1.220574338351194943e-01 4.848579431978805587e-01
-8.767429427358271188e-02 -8.992425741504196657e-02 4.464165261685063557e-01
-5.598733271095249903e-02 -1.050582394882216553e-01 4.630980792495004161e-01
-1.874172059262670109e-02 -1.232887255313458580e-01 4.965168626524641970e-01
-4.798823051732863110e-02 -1.185419828755270855e-01 4.907398298202311770e-01
-8.662342867774142433e-03 -1.281730341593345923e-01 5.234854626595211169e-01
-2.090421494320265916e-02 -1.245197365038528958e-01 5.344349782164674600e-01
-5.514557474923437175e-02 -5.917829379428447140e-02 4.389728615954699431e-01
-9.265272072079172583e-02 -1.222537265198483381e-01 4.787372694099437664e-01
-2.263585670507180236e-02 -1.247858549429503999e-01 5.087470667465325835e-01
-8.448284116902790575e-02 -1.206659949939576509e-01 5.137316700742210474e-01
-6.975055860404880126e-02 -1.011475566607683702e-01 4.559056804572243493e-01
-9.327259941542098698e-02 -1.220046695161774580e-01 5.072271047090579632e-01
-4.530121283413816868e-02 -7.352637653964225195e-02 4.438085436565886166e-01
-2.307393829287249232e-02 -1.110366697656099966e-01 4.725788661415182279e-01
-9.022971067608093199e-02 -8.560561451969178615e-02 4.450989415792727111e-01
-5.398091711686711647e-02 -1.131316873628420705e-01 5.340775395429423478e-01
-2.331433434879424949e-02 -1.002761902501922570e-01 4.587982283457084920e-01
-7.185330063337570794e-02 -1.225690074445729971e-01 5.075809490152733972e-01
-2.591309418913313387e-02 -1.236399588739875849e-01 5.051536329255198465e-01
-4.785556198243131470e-02 -1.085214574272148069e-01 4.703684121043022470e-01
-1.489198682837333462e-02 -1.269184893959003080e-01 5.166329214657664481e-01
-3.727692099864993863e-02 -1.136849240707154540e-01 5.426278183327337690e-01
-2.930994693037798637e-02 -1.213708453627049544e-01 4.968866628712493294e-01
-5.905538517996376108e-02 -1.167304988039015445e-01 4.837913291554070683e-01
-1.040787562005764944e-01 -1.192290968537667029e-01 5.035808328692167324e-01
-1.076896090441166881e-01 -1.235351815776477430e-01 4.876872879022024487e-01
-5.162680442017757686e-03 -1.267997056133688127e-01 5.014676522247263346e-01
-5.666089363986627318e-04 -1.290795135718764697e-01 5.196975049065472030e-01
-6.712160163647376554e-02 -9.800350916946494462e-02 4.534813034673380594e-01
-1.050905602311851955e-01 -1.144956367985070639e-01 4.643302630442855961e-01
-1.971003449619399342e-02 -1.097950431923541137e-01 4.688663728961665056e-01
-3.703684531181665462e-02 -9.644889896324823630e-02 4.581105613453168579e-01
-3.437098019647520132e-03 -1.289919821020513446e-01 5.146014853353925167e-01
-3.402316247725580001e-02 -1.231085004917678166e-01 5.171688915867620473e-01
-6.336486384609153755e-02 -1.083772906564104826e-01 4.657237614704844986e-01
-7.936887410304538371e-02 -6.594511033548364209e-02 4.381364833939220271e-01
-5.794349309664151293e-02 -5.908077892409436399e-02 4.386579379288773062e-01
-1.456199908955788970e-02 -1.155719631328796237e-01 5.580601055153636691e-01
-2.963109804021607854e-02 -1.215640351576009609e-01 5.388572034125532761e-01
-3.932606147848931311e-02 -1.041192739242408766e-01 4.652860689347389500e-01
-1.164605058968523621e-01 -1.068295973221450867e-01 4.653813281348830322e-01
-9.004988080757916208e-03 -1.248977545384234444e-01 4.963132287459081082e-01
-1.161460250724729096e-02 -1.203438513386219794e-01 5.503854774185976684e-01
-7.307100338967975617e-02 -1.180944306591612813e-01 4.800905303224443643e-01
-3.832169455091441468e-02 -9.418805772651413222e-02 4.560836212555577363e-01
-7.997212267793499252e-02 -1.224526213323371554e-01 5.099578024083720740e-01
-7.355039681005018370e-02 -1.106477218965341985e-01 4.656745836560008400e-01
-2.976376706223657354e-02 -1.215621308917964327e-01 4.979346873816697383e-01
-4.634725965700388362e-02 -6.423916639346106960e-02 4.408247859752530973e-01
-9.101051059189171899e-02 -9.631196609012768195e-02 4.496101012372983874e-01
-9.164239199411902681e-02 -1.229120579253314555e-01 4.754592551866044237e-01
-7.372292101507725570e-02 -9.082799276656820797e-02 4.473657116427865454e-01
-3.427859853036935994e-02 -1.231082897650890157e-01 5.179132577234714097e-01
-4.543520890216747737e-02 -9.577112760614713005e-02 4.561103868827582897e-01
-7.783650209543435672e-02 -1.196617749239866496e-01 4.810540713063338747e-01
-9.571598507883422036e-02 -1.220667563033368958e-01 4.653438911517844279e-01
-1.117654582436111016e-01 -1.220777004212598021e-01 4.941614386596006048e-01
-1.000507041484773318e-01 -1.176718013983842903e-01 5.097478882232776565e-01
-4.399768992023115471e-02 -1.031878383887542133e-01 4.637313869280756951e-01
-5.161408914324084468e-02 -1.187522778113331567e-01 4.917348134862167264e-01
-9.314170799444489168e-02 -1.086423414616158323e-01 4.573379027230192739e-01
-2.058574727258703427e-02 -1.252071034242759340e-01 5.305041322403005744e-01
-8.468790538641121635e-02 -1.195633796813667382e-01 5.156134060245760597e-01
-7.133664181884069588e-02 -1.211350563627125038e-01 5.163710440053862483e-01
-6.664577465429469272e-02 -6.676802573204912439e-02 4.381694305381861332e-01
-1.052231031429985975e-01 -9.459753472370568961e-02 4.537855344210621755e-01
-8.305284699370746315e-02 -1.148843912092830932e-01 4.665181613962264828e-01
-2.154689200679839323e-02 -1.242104543866167504e-01 5.354583717637793061e-01
-4.194555405809208271e-02 -9.545973455589447376e-02 4.566565380794631035e-01
-7.493717670179654566e-02 -1.228892943599572685e-01 5.022760729310323802e-01
-5.220520497603455684e-02 -1.124367641305792781e-01 4.761501637157747324e-01
-7.357574358388785374e-02 -1.205870630250435865e-01 5.174853573714990329e-01
-7.035312677715828411e-02 -9.826355565793151725e-02 4.532970421453699217e-01
-6.938341512376430820e-02 -5.434877057033585951e-02 4.394237068535546409e-01
-1.751821773764541956e-02 -1.184240685627319101e-01 5.530158233152470126e-01
-7.981320682496216568e-02 -9.187523194836406948e-02 4.475324398962495231e-01
-3.321855047634172248e-02 -8.036763895614132402e-02 4.464037746448981103e-01
-1.460542048351621061e-02 -1.266408280421134347e-01 5.092096606928634417e-01
-4.570869169066369558e-02 -1.066046252562207614e-01 4.678952981138037037e-01
-1.029506099429753213e-01 -9.125467414543056432e-02 4.515941457471346898e-01
-5.818981194611759500e-02 -1.009643596110180036e-01 4.577085791679348370e-01
-8.241158954053737218e-02 -1.230927954443617189e-01 5.036999681806710871e-01
-3.488070287905014472e-02 -1.140109469590736418e-01 4.801695755974687008e-01
-8.860963739119342986e-02 -1.215178002635300125e-01 4.812382594304198125e-01
-3.233680351247252699e-02 -1.223948710055471900e-01 5.334134154580977283e-01
-4.788364960468606546e-02 -9.170282967589526990e-02 4.522892425989555876e-01
-1.199275876290269299e-01 -1.128583703497280516e-01 4.763028311258106218e-01
-1.936009840607809743e-02 -1.236048630620241312e-01 5.399147366621933619e-01
-2.463840619273350088e-02 -1.119668788502627688e-01 4.749202889122640658e-01
-2.729200046841838770e-02 -1.233339182171839660e-01 5.331284103911713146e-01
-7.621530392720124447e-02 -1.175015242111503988e-01 5.223559504184697166e-01
-4.819157151615737628e-02 -1.199082506181523150e-01 4.969415691203813434e-01
-7.614807484347062283e-02 -1.215917394395213680e-01 4.914034554277073030e-01
-3.636908968837287287e-02 -1.227332039725431423e-01 5.232471111526855179e-01
-9.981158164091799567e-02 -8.580537321052705835e-02 4.518510051634489488e-01
-8.850157276622977465e-02 -8.762008866754546210e-02 4.456998563711984662e-01
-2.176774965774413637e-02 -1.248459117836202420e-01 5.065709968012865883e-01
-8.327045020335582803e-02 -1.178815406924800940e-01 4.706467435980996594e-01
-3.574693152425208881e-02 -7.862589171015932354e-02 4.457944867012129664e-01
-7.476570656656626734e-02 -7.547530730736658200e-02 4.391445346621192236e-01
-4.636461176205933232e-02 -8.707476117099095803e-02 4.495889838707837760e-01
-8.548888244017507909e-02 -7.464123780427590893e-02 4.409634573037606309e-01
-8.787272665510423297e-02 -1.226545802841509519e-01 5.067896342174443847e-01
-9.263874013110587335e-02 -8.733668510208225655e-02 4.459431703512246603e-01
-1.025793923789020679e-01 -1.175704212404537485e-01 5.064403726390213079e-01
-1.092692370407136182e-01 -1.008389346391916214e-01 4.558529503289896478e-01
-3.263643368307712900e-02 -1.062624936154501210e-01 4.676873945673656330e-01
-1.091126996344353173e-01 -1.188817243191130635e-01 5.007623727511162359e-01
-9.807026796753322284e-02 -8.142696598283873100e-02 4.525943881427151316e-01
-1.044044166379356070e-01 -9.380927007304136478e-02 4.529935848315760905e-01
-1.073503371796415279e-01 -1.208873181335444469e-01 5.004346525929505018e-01
-6.951299332189497804e-02 -1.140721733632976964e-01 5.272230810222557906e-01
-8.752493354812536375e-02 -1.229482468140771084e-01 4.901697215802989782e-01
-1.464247913026053838e-02 -1.027707768413554379e-01 5.657295852462351782e-01
-1.117690029614021446e-01 -1.016451080149708974e-01 4.579836668331352389e-01
-1.109762533627429992e-01 -1.096835976284112057e-01 4.617072820972494274e-01
-2.181956844142329474e-02 -1.094649734504264255e-01 4.695193934825692694e-01
-6.606658150844769983e-02 -1.215917270027124519e-01 5.157256588258714025e-01
-3.466371593674879431e-02 -1.227897641579661636e-01 5.122577825278769037e-01
-8.571698214619351275e-02 -1.226977623579869475e-01 4.901346654947070225e-01
-9.831779186020357664e-02 -9.234925472564767257e-02 4.501335365313237080e-01
-5.737267589857662081e-02 -5.624807018661528296e-02 4.382497611271886084e-01
-1.029929365351819615e-01 -1.089131265116169839e-01 4.587578298447440028e-01
-6.302711527671669978e-02 -1.129117361018826260e-01 5.300414851818047168e-01
-6.075781734914794535e-02 -5.989222067796669963e-02 4.383873705430108569e-01
-1.068398537162789166e-02 -1.172481808042770690e-01 4.777467526633450423e-01
-9.866514880489030137e-02 -9.704204419024436978e-02 4.506834361664502353e-01
-5.512348989798013243e-02 -1.011960997686729702e-01 4.584447425859001224e-01
-1.115627240242436785e-01 -1.225438359723835247e-01 4.924070066092000597e-01
-4.067853781912823125e-02 -1.138892075572711104e-01 4.799336748311903156e-01
-1.121583674219552157e-01 -1.225156944848884433e-01 4.875022530935181897e-01
-1.473471352610992643e-02 -1.146401040750933964e-01 5.590364428164328325e-01
-8.222680598376234939e-02 -1.093594825305098661e-01 4.606414703392574528e-01
