-8.314899293773718447e-02 -7.941723853467494432e-02 4.419594258714240609e-01
-7.022006578389530795e-02 -1.135556001931213588e-01 4.742991009819371162e-01
-8.802380018841331200e-02 -8.220073905410719972e-02 4.443015145636696750e-01
-1.089307804794775597e-01 -9.466591012025761531e-02 4.573510997861581218e-01
-1.174739146369877321e-02 -1.208401325776143759e-01 5.495038106099311426e-01
-1.109432826431705765e-01 -1.105129278601108683e-01 4.646648265145967294e-01
-7.867734300657992785e-02 -1.217001730850614666e-01 4.948002350380943382e-01
-8.625436425672547425e-02 -8.481777361079054223e-02 4.448847854959540604e-01
-1.450134166641529714e-02 -1.264748830888594577e-01 5.081414827702847026e-01
-1.040791645888005518e-01 -1.143946389913946260e-01 4.659678773875759461e-01
-6.022003879727685222e-02 -8.750556754136572246e-02 4.480425618525679110e-01
-1.035492362903584068e-01 -9.366542979996421436e-02 4.526245010604519892e-01
-1.162463055862982403e-01 -1.177548295269523343e-01 4.788823959296726884e-01
-2.356982946031802723e-02 -1.206564234162361138e-01 5.457055131944874571e-01
-7.179746874885578611e-02 -1.103601380022303652e-01 4.678842336169272142e-01
-8.176521618943080605e-02 -1.198427091515841814e-01 4.870235084817668980e-01
-2.073721656042366163e-02 -1.048095567691645497e-01 5.629956930203334764e-01
-4.714379875450412649e-02 -1.098650062668522359e-01 5.391629937177958576e-01
-4.593132822376633229e-02 -6.046564864672761275e-02 4.402661406616191209e-01
-2.993425134787339528e-02 -1.076051362522371102e-01 5.500329053753383324e-01
-5.771836954970892275e-02 -1.165573121941905210e-01 4.854763156728401641e-01
-1.026414436881811776e-01 -1.205269274964581028e-01 4.724766186207377539e-01
-7.654429205953727777e-02 -1.013167580063505518e-01 4.560992768949760912e-01
-9.118510784581596029e-02 -1.194892418204857309e-01 5.127193700578351887e-01
-5.086180092983131479e-02 -1.118058013787882471e-01 4.765034077966054937e-01
-9.825857753934022498e-02 -8.336392439118317510e-02 4.509946366309266486e-01
-4.639943655278409157e-02 -8.079624788016059878e-02 4.470469721348326875e-01
-5.102428081794296161e-02 -1.194403842106947777e-01 4.969725834344806414e-01
-2.995125110542787641e-02 -1.012489712873922837e-01 4.623152880682685484e-01
-4.960985544376906448e-02 -1.205195996768495814e-01 5.029159443719642963e-01
-9.176229675365091265e-02 -1.228536166933651419e-01 4.955693452863268456e-01
-9.318335577937728043e-02 -9.679599542377477495e-02 4.511711929054392778e-01
-2.161877935422279115e-02 -1.019996064465445995e-01 4.600466371242692976e-01
-2.166938139526458987e-02 -1.251606311890061940e-01 5.145167527489948878e-01
-1.163988185300952050e-01 -1.077352765026076964e-01 4.676479666777814126e-01
-8.945403123891389197e-02 -1.179910552188476458e-01 4.653013539243191499e-01
-8.172227369195035618e-02 -8.355936954834462804e-02 4.435431443283603392e-01
-1.186460420419578263e-02 -1.274340258153263128e-01 5.154380508710917352e-01
-6.187839422207636747e-02 -1.152853113804359064e-01 4.813235344181379660e-01
-1.167387732270516384e-02 -1.271607033650061225e-01 5.091107971173823854e-01
-9.943549955108801908e-02 -1.232161406879296456e-01 4.718192595754786001e-01
-5.438874034437573418e-02 -9.966586163087094719e-02 4.581253542443495808e-01
-8.998436038820799288e-02 -8.006302235302796555e-02 4.450903670299516390e-01
-1.525591931467419268e-02 -1.251662778679145938e-01 5.336353335153402044e-01
-6.818672711375560469e-02 -1.209952006731699892e-01 5.162551979240199707e-01
-9.884897106926514299e-02 -1.201000638794592207e-01 5.064689220177470697e-01
-9.008052306650503327e-02 -8.762691029653217611e-02 4.467396175186540974e-01
-2.898318419807701871e-02 -9.483970694935883738e-02 4.564733505332062569e-01
-8.493591742186103188e-02 -1.038169489189303685e-01 4.565333898412452518e-01
-2.597840971370448185e-02 -1.088543942401499209e-01 5.553930220949143681e-01
-2.541537512191782353e-02 -1.218009214914735211e-01 5.416422924190174015e-01
-6.000294501849011419e-02 -8.182647240504969943e-02 4.452149147701771614e-01
-9.086117023772677381e-02 -8.836502912939066257e-02 4.470112825636997078e-01
-8.201649666816496209e-02 -1.224148331402685475e-01 5.037486770497799915e-01
-1.195272582832610370e-01 -1.133579275782517354e-01 4.843458330386453126e-01
-9.159887991526842466e-02 -9.936113399422583092e-02 4.526505673201977054e-01
-3.616725000644947785e-02 -1.212229832962672671e-01 5.346474650763028968e-01
-8.061921615954681375e-02 -1.220782926270528035e-01 4.972002767612434537e-01
-4.151930817075702440e-02 -1.208405455581809396e-01 5.329835485901255332e-01
-6.832263862747371685e-02 -1.083525119403580539e-01 4.658177066533651933e-01
-7.835860221530342729e-02 -1.182858256011207337e-01 4.794446860486014095e-01
-1.877133954694860940e-02 -1.257163417740692624e-01 5.281589100197942033e-01
-2.549896217870651835e-02 -1.243768906745567476e-01 5.220525589637938779e-01
-2.434555484811711315e-02 -1.171825183719448216e-01 4.842686284312871514e-01
-6.851140033567369725e-02 -9.425143361218972504e-02 4.514752925905837211e-01
-3.283149257126985465e-02 -9.528357967087930369e-02 4.577474559864098125e-01
-1.051329874881393872e-01 -9.858381937980030540e-02 4.544867634870937145e-01
-5.655443330516254918e-02 -9.480921236594444523e-02 4.536432230319817349e-01
-5.314403613340635407e-02 -1.154130083332944867e-01 4.832867318694011871e-01
-7.602316793414931606e-02 -1.030350481847395749e-01 4.578746177404039441e-01
-1.767304993440497324e-02 -1.163357544784419523e-01 4.786616005042490518e-01
-3.255579866567941127e-02 -8.810688781127995473e-02 4.519231760616861937e-01
-7.767169707847097759e-02 -1.223137121384912929e-01 5.015644218888301031e-01
-4.711434996842275152e-02 -5.845636940340601106e-02 4.398060811823332195e-01
-5.885501570986297060e-02 -1.066679717328746085e-01 4.659088420492346061e-01
-1.103818000688293194e-01 -1.217984457143887755e-01 4.881080608792396358e-01
-6.828851518621552319e-02 -1.179968322101913325e-01 5.233291877925135838e-01
-8.624360288717629330e-02 -9.274423606512853524e-02 4.489492304443269410e-01
-2.264835987587442145e-02 -1.249788733812250696e-01 5.255594906258180821e-01
-1.044494074712976617e-01 -1.063804649944867925e-01 4.587187994314350648e-01
-4.292803383789414728e-02 -7.394635943022770386e-02 4.444161612451269505e-01
-5.847176445770278091e-02 -1.204520779432714239e-01 5.010054337082466835e-01
-2.351478986330898455e-02 -1.247500764792401629e-01 5.157333634343408413e-01
-6.688037651547806828e-02 -7.359875027783180368e-02 4.405976607196784856e-01
-1.055035308609634653e-01 -1.207320807050460409e-01 5.004082266473018903e-01
-8.810589445186185753e-02 -1.157211943224504269e-01 4.639147257606616170e-01
-1.948586667882450801e-02 -1.220872176734910802e-01 4.937650448631180078e-01
-5.949328787124236878e-02 -5.996488316008648928e-02 4.390720284479033286e-01
-5.188831141852322942e-02 -6.006952755140093636e-02 4.399044285191719417e-01
-7.716321325453448510e-02 -6.763637938031281938e-02 4.376023210600268887e-01
-7.996422739030401017e-02 -1.215843217525743869e-01 5.115932420609410336e-01
-4.071163415610019876e-02 -1.209915452352359339e-01 5.026648668123511188e-01
-9.559799574870667116e-02 -1.172503275107014548e-01 5.127242171478392230e-01
-2.845906155962736606e-02 -1.237779819527114189e-01 5.217392185993791065e-01
-7.514743068774855372e-02 -1.212692527878709986e-01 5.137751951651867710e-01
-5.294557967308893137e-02 -1.199491324029341166e-01 4.990864009054922223e-01
-9.978738217271211630e-02 -1.016286134980585038e-01 4.545735487221999049e-01
-9.459144113159717593e-02 -8.714528670018382994e-02 4.475575047810039231e-01
-7.696963021534068694e-02 -7.677016353856286335e-02 4.401470993250313768e-01
-3.292345753922674284e-02 -1.058184159374779693e-01 4.678461022239158162e-01
-7.798566196671691264e-02 -1.223968347648542176e-01 5.041442914195368719e-01
-1.018555689395066466e-01 -1.218673615716493186e-01 4.999794498424878775e-01
-7.038463838635508618e-02 -8.956480902595036209e-02 4.477206850830212637e-01
-9.444020743912569238e-02 -9.336848912854243954e-02 4.496179725059679111e-01
-6.297945760069056410e-03 -1.198909314520093666e-01 5.484115349991054433e-01
-1.155836307626035980e-01 -1.057111821046224920e-01 4.651527824653385323e-01
-3.396013647690905579e-02 -1.228747621385125194e-01 5.212145397600748131e-01
-1.140628036395331807e-01 -1.028726842329969471e-01 4.622419647755919292e-01
-6.983101785334289158e-03 -1.274459241808535981e-01 5.067023850385865558e-01
-5.821467010564199129e-02 -8.617693780297487616e-02 4.476469136433944285e-01
-9.475683853225808084e-02 -1.227317428984090325e-01 4.975279935216173066e-01
-9.887460839096781640e-02 -8.228184180270857462e-02 4.532782527689987462e-01
-5.588407788680739563e-02 -8.319547253827583311e-02 4.464918143444026599e-01
-1.184145517125391595e-01 -1.184016684714493117e-01 4.879828524469149165e-01
-1.016323832099092356e-01 -1.138455467168743990e-01 4.646120243712088538e-01
-7.588552127548930937e-02 -7.744842047391127526e-02 4.404236908772338754e-01
-7.669065792694759742e-02 -1.169416630930369544e-01 4.777353877422418349e-01
-7.010878844322478154e-02 -9.260977121627883557e-02 4.500335993970916992e-01
-1.130599698782514539e-01 -1.041972622175756646e-01 4.614507814629610905e-01
-3.465900077363819054e-02 -1.219718938132509090e-01 5.063249826802551645e-01
-4.968093914818723367e-02 -1.189200073099914573e-01 5.309189661627556900e-01
-3.002549551080419682e-02 -1.119727976253866164e-01 5.493997259984609860e-01
-7.319449131673605446e-02 -1.212228698025096807e-01 5.143969840462986332e-01
-5.855420695498519956e-02 -1.101073683375372453e-01 4.714657084724732661e-01
-2.814064267779980977e-02 -1.168634816022298129e-01 4.861374713574887485e-01
-9.330668443281200930e-02 -1.063631304879450873e-01 4.572775331321318193e-01
-6.659295765206457718e-02 -8.970833588358155530e-02 4.482774817635638565e-01
-9.250063450100155793e-02 -1.214883175258037878e-01 4.828044915926501535e-01
-3.281195173960291950e-02 -1.224883498055476111e-01 5.083481790701934733e-01
-5.828700252655973080e-02 -1.199106450872268748e-01 5.234061192717589517e-01
-1.477955016594283480e-02 -1.248001741039738016e-01 4.999840201088787128e-01
-7.414508608085423891e-02 -1.136994423360888906e-01 4.724852447303474756e-01
-5.983121846330827220e-02 -1.123709977873375426e-01 4.753692016683572219e-01
-3.908502408530841604e-02 -1.209009016538073050e-01 5.338818902997916060e-01
-1.230514515849503651e-02 -1.274485982402885076e-01 5.210352141207384991e-01
-3.778001978047239307e-02 -1.174061323795464740e-01 4.884943847489330859e-01
-1.013189504187675949e-01 -1.227065910180429320e-01 4.967594493499400410e-01
-1.737803796691669497e-02 -1.130199739661915809e-01 5.600596537460631463e-01
-1.030749841911562936e-01 -1.144426479309592348e-01 5.081597292415336309e-01
-7.357026939019896405e-02 -8.524738861011542379e-02 4.446921435588007121e-01
-5.574680204198375483e-02 -1.066279946366596870e-01 5.358605270402695409e-01
-1.200704264090625972e-01 -1.127476957214677278e-01 4.859428163072434526e-01
-6.520754557977223587e-02 -1.206689193267851540e-01 5.182237698671496862e-01
-8.148469386480637622e-02 -9.870682094166165210e-02 4.533031086986381575e-01
-3.915024995564009985e-02 -9.369985342044959142e-02 4.562288796299732718e-01
-5.125035094224332510e-02 -1.209745332405350871e-01 5.059629330051585994e-01
-5.509199421276497061e-02 -1.189600941360131336e-01 5.269686647597517926e-01
-1.963117758645854805e-02 -1.256621271097941028e-01 5.156404684545711214e-01
-1.198547768046028250e-01 -1.119863981743627196e-01 4.821956122336634731e-01
-5.153446160772236911e-02 -1.194599806049122387e-01 5.266758770701525094e-01
-9.307905515736113189e-02 -1.209399156149651017e-01 5.086069800542108998e-01
-6.686662021484640617e-02 -1.213539806990631686e-01 5.015600525288703704e-01
-5.805531371961481640e-02 -1.081041584039870024e-01 5.340354802385031130e-01
-7.033200422480560821e-02 -8.904810680841236670e-02 4.473803040876233039e-01
-3.713882487704420199e-02 -9.110723357733090111e-02 4.542780773475066369e-01
-8.824679233992760441e-02 -9.445786785996207469e-02 4.498586550234650594e-01
-1.529693787248542769e-02 -1.177824972432092859e-01 4.807339851432878564e-01
-4.183255601438349430e-02 -1.171584596520231780e-01 5.380258780757051218e-01
-9.206099196972768184e-02 -1.010610995743031898e-01 4.537976652394665744e-01
-7.677594531458771521e-02 -1.107470020403205357e-01 4.663588211193171462e-01
-4.323335276532484089e-02 -7.924296757598907337e-02 4.467815115309221041e-01
-2.703130980393158439e-02 -1.217227991119580743e-01 5.404379898502150725e-01
-6.119063487671900364e-02 -9.455140727611832663e-02 4.526508242151575656e-01
-3.298559508758650005e-02 -1.137938846009768495e-01 4.805950862892460762e-01
-2.070412722433954966e-02 -1.222513174991898960e-01 5.441272352664530132e-01
-1.543748898791469024e-02 -1.250032088146956488e-01 5.015561019635069728e-01
-1.009084177305614172e-01 -8.935745859174154537e-02 4.517393642874214521e-01
-4.455310830455709581e-02 -1.172127850557705825e-01 5.365186454316214215e-01
-9.686954681887280372e-02 -1.208465251560018050e-01 5.077036738643319058e-01
-3.842357915385785638e-02 -8.210544074504326495e-02 4.481297742810174123e-01
-1.126307971000585079e-01 -1.154835930499488461e-01 4.710449358663102437e-01
-2.376908398304738296e-02 -1.150113204913274234e-01 4.800627953682194415e-01
-5.986749084217474204e-02 -1.125396701743689998e-01 4.757279087410644092e-01
-3.238830933638262022e-02 -1.221142624048833503e-01 5.340318959996126491e-01
-2.428183245912869312e-02 -1.235171255163504123e-01 5.350505803244454128e-01
-7.791440230126522870e-02 -8.806662808225090844e-02 4.462745761343674400e-01
-6.745422993586296101e-02 -1.166931493313256851e-01 4.826546892356590179e-01
-1.198501435208765564e-01 -1.119934857016051527e-01 4.844964415142328229e-01
-5.835235418318127781e-02 -1.174238953095739085e-01 4.878633971759765986e-01
-8.067785741386673815e-02 -1.166222196427514485e-01 4.735002887811720074e-01
-8.028837182129712480e-02 -1.161238613118048130e-01 5.215021751069643940e-01
-8.477845830077580802e-02 -1.203337585180051794e-01 4.855466976915011057e-01
-4.791268777541754509e-02 -9.589792649140223280e-02 4.564351248622650625e-01
-1.052315274528316247e-01 -1.145702575090176978e-01 5.060454344359781587e-01
-3.235549268806379303e-02 -1.071875649566792488e-01 4.695480132733715894e-01
-1.122893332728745752e-02 -9.660182210193359043e-02 5.695305066154602303e-01
-1.088789565957855310e-02 -1.273193099730703659e-01 5.095110887912457365e-01
-7.661005084674714360e-02 -1.030752914122259889e-01 4.577855539180236133e-01
-4.198045765279943137e-02 -1.146935528880146660e-01 4.825458403844876121e-01
-2.019323863795278312e-02 -1.127459540839589325e-01 4.741219719863332682e-01
-3.155973933654004915e-02 -1.226958041659444304e-01 5.304818624093786683e-01
-8.103047533268556424e-02 -1.110649517556070304e-01 5.248781223020675402e-01
-5.299873824065604727e-02 -1.134552595697387173e-01 5.345401107506693172e-01
-1.092844916101148520e-02 -1.218271942732346014e-01 5.465722777549647526e-01
-5.937496157958854076e-02 -6.385993060550455847e-02 4.397523304322186743e-01
-9.793554624350742088e-02 -1.211302111594876885e-01 4.676540256595412837e-01
-5.267213806190881864e-02 -1.069677920569065133e-01 4.678961465828594402e-01
-1.052866164447794212e-01 -1.119218503110765150e-01 5.076296582348684971e-01
-3.572106944780786830e-02 -8.057714912934833829e-02 4.473121593582059519e-01
-8.116967838468935881e-02 -9.123150554293518733e-02 4.481395713753118515e-01
-6.345623004532457978e-02 -1.191513714167980187e-01 4.921839543042459963e-01
-3.934504601762269654e-02 -1.183819642988504089e-01 4.917016849371417253e-01
-2.256932025831059896e-02 -1.233926463247747990e-01 5.376435835183415168e-01
-1.182635268573200976e-01 -1.175190358972017235e-01 4.912213451939787534e-01
-1.370707161789949322e-02 -1.261668710488058065e-01 5.303626376644962059e-01
-1.148831565706333185e-01 -1.199367891305018613e-01 4.928807928765689961e-01
-1.115986038617138160e-01 -1.215080511679242775e-01 4.861206677862267567e-01
-2.919180373379935342e-02 -1.234623838284060748e-01 5.126025258001346563e-01
-4.763647726320215103e-02 -1.120818657087644943e-01 4.774199768884138662e-01
-7.223772866143177152e-02 -1.182067271103779543e-01 5.217739583772068590e-01
-8.413618119239882343e-02 -1.176100120160237378e-01 4.718794493569418713e-01
-1.128798908829363318e-01 -1.028106199333298776e-01 4.607489015493416717e-01
-1.061108945462197889e-01 -9.082448287136649090e-02 4.562940895234290362e-01
-8.060637856490764086e-02 -8.111013469259560627e-02 4.422635863174909088e-01
-5.342499757297356627e-02 -1.104321537874343451e-01 4.733977908054752270e-01
-8.661051366022615161e-02 -8.293679997684742788e-02 4.442270070181873476e-01
-6.935116241296124251e-02 -8.055838882678194313e-02 4.422133009906701884e-01
-2.962534909765305799e-02 -1.054888342385880973e-01 4.670391189323432890e-01
-8.272317128184884794e-02 -1.087962475895913883e-01 4.615765963771068514e-01
-6.300572320143968397e-02 -1.168924439842097124e-01 4.850627183003178300e-01
-6.976411659018413869e-02 -1.149516233252461939e-01 4.775533690688357757e-01
-4.698165837011786250e-02 -1.216807150225645701e-01 5.152790440507515335e-01
-9.930714660661975335e-02 -8.780068979732971735e-02 4.511198068834484376e-01
-4.028240110655198492e-02 -1.220405730839454611e-01 5.136219630851911466e-01
-1.894576233113009697e-02 -1.105567992877644207e-01 4.700616815234344159e-01
-3.221029406763908226e-02 -1.144949057012026039e-01 5.466201941786825724e-01
-2.741608367494477450e-02 -1.206386088411818824e-01 5.431648008656729809e-01
-3.666252537424511543e-02 -1.214737608345114600e-01 5.035578052674638538e-01
-3.068891114122090924e-02 -1.218645264256593141e-01 5.363852966263640276e-01
-5.477031736705906262e-02 -1.199086243301612231e-01 4.987985578621400018e-01
-6.461321275087337362e-03 -1.241726240131300341e-01 4.938451642993866852e-01
-3.757875501894829273e-02 -1.056455161890688943e-01 4.678612988371603776e-01
-7.838474815099094606e-02 -1.114211046675000066e-01 4.665840232117055009e-01
-9.017191240626849791e-02 -1.163336289632077997e-01 5.156646496794796697e-01
-4.287727037331898888e-02 -8.445233713650865393e-02 4.492885072683601155e-01
-7.219379499790050392e-02 -1.134356959617288663e-01 4.728952890872185066e-01
-1.990563335651378968e-02 -1.245329103220327305e-01 5.038944203582300663e-01
-5.460052112206688346e-02 -1.180996459677097349e-01 5.292013615639312718e-01
-3.191020811329306484e-02 -1.229688948369888207e-01 5.119217415252748093e-01
-9.466485054617121420e-02 -8.775189525613977248e-02 4.477562296188462576e-01
-8.623110056776611687e-02 -1.199552745043845486e-01 4.743721471182190119e-01
-5.562968105544217196e-03 -1.248528120290571114e-01 4.956676157528513427e-01
-4.515033700303813097e-02 -1.214245206663066012e-01 5.240114237890406423e-01
-1.941388585272178779e-02 -1.256523124819899639e-01 5.137885123123865361e-01
-8.585641327932133637e-02 -1.202296045945613623e-01 4.826190870477324868e-01
-7.728047246490719890e-02 -1.202875561781027031e-01 5.164807456313937895e-01
-2.764327149850179591e-02 -9.745754060056893708e-02 4.581395966189538704e-01
-1.100740294820247017e-01 -1.209332880507576063e-01 4.811407350480673140e-01
-7.273985504797472745e-02 -1.213634521659514853e-01 5.138143700786017565e-01
-9.677793660996458769e-02 -1.226677641059806395e-01 4.850757270613718641e-01
-8.379688455944858672e-02 -7.672562155603177003e-02 4.407971820708715960e-01
-2.270648902814502088e-02 -1.146177922141612404e-01 4.786138645450226381e-01
-9.069827295398423528e-02 -1.213533036002929638e-01 4.720288478327618331e-01
-7.810942676257315309e-02 -1.133987120421752481e-01 5.257769888239203215e-01
-4.284058394772161105e-02 -1.036184412783665437e-01 4.653260654611628411e-01
-1.898911669612345782e-02 -1.242504912415421242e-01 5.366073499779905331e-01
-3.143682227151150393e-02 -1.227209132873608444e-01 5.304550615602589003e-01
-3.610083022020189186e-02 -1.202461738511855921e-01 4.972732009015645160e-01
-1.722471905681259227e-02 -1.104534954589840162e-01 5.623397674038265182e-01
-1.961450593419986066e-02 -1.257729798739259663e-01 5.226220133658325828e-01
-6.836122147805175076e-02 -1.197619717630928199e-01 5.190722514757865058e-01
-1.055659259800787453e-01 -1.185030305205769380e-01 5.034051282794418380e-01
-2.531310651480779550e-02 -1.238508499065482243e-01 5.081250465022189022e-01
-1.543945984463940269e-02 -1.236258646923324295e-01 4.960319171285518247e-01
-3.812812959833569021e-02 -9.065700899811786340e-02 4.538265192834753381e-01
-1.127910824511720034e-02 -1.249655856403868587e-01 5.350503941296367305e-01
-1.082167097223227098e-01 -1.012918250796852465e-01 4.564762476707343031e-01
-7.220233430931828622e-02 -7.891434640064241834e-02 4.411826393017533876e-01
-6.606939981349768676e-02 -1.154274821413272673e-01 5.273097241324232742e-01
-9.248566317951797955e-02 -1.213939562579542247e-01 4.796960248379611991e-01
-1.704805852334756108e-02 -1.201111227077481386e-01 4.864501425424272441e-01
-8.060456946907544606e-02 -1.214680824970403306e-01 5.119573430757096144e-01
-4.598916631096544583e-02 -1.214111616168200569e-01 5.217039742484620435e-01
-3.133466750284880087e-02 -1.153434065490987898e-01 4.836684652375651261e-01
-6.452953787944791519e-02 -1.187023004633451229e-01 4.896985709277991705e-01
-9.810994186488761204e-02 -1.167675171594428213e-01 5.116906303928040467e-01
-1.880309528038753494e-02 -1.226453523827789466e-01 5.440385665946633198e-01
-7.326632171874972177e-02 -1.127543161900768920e-01 5.273591017165226713e-01
-1.453265289924627821e-02 -1.202129880401087564e-01 4.858142333108567135e-01
-1.217690767981467401e-02 -1.234253314059292478e-01 5.411395319433816020e-01
-1.100168483463349195e-01 -1.218814357927658215e-01 4.884485626783813816e-01
-6.397845382995445696e-02 -7.038120139738962555e-02 4.403398154747948934e-01
-7.401889577589328140e-02 -9.506066601813159544e-02 4.515433720781069638e-01
-9.390069346086277191e-02 -1.229459973452923516e-01 4.932454304549808155e-01
-3.078829032840604482e-02 -1.198352988510317796e-01 4.937493371504876327e-01
-6.723535880477718440e-02 -9.189375641399150085e-02 4.497801189442364733e-01
-1.133613225450614825e-01 -1.115291258755716497e-01 4.670832758024009435e-01
-2.436639938316793527e-02 -1.095194499281165884e-01 4.714185769931324432e-01
-4.684335805147318149e-02 -1.057553284684597944e-01 4.675304595674233954e-01
-2.414670167827093206e-02 -9.612331403693988308e-02 4.559614081854990730e-01
-6.502835823688610239e-02 -1.205160774407285779e-01 5.189624614694567928e-01
-9.240588832959101273e-02 -1.103451896402981441e-01 4.599526783169818889e-01
-5.646479736092006180e-02 -8.407289718527152789e-02 4.467597570665446938e-01
-9.309525942414177690e-02 -8.187652979285513222e-02 4.472450384150418179e-01
-2.594255910289963024e-02 -1.225473416542429556e-01 5.378587485293887527e-01
-4.015831492604234054e-02 -1.203745240259806587e-01 5.353053346254406097e-01
-1.074091764680562971e-01 -1.176652051973945123e-01 4.711335070552136184e-01
-8.347739579650970132e-02 -9.084928542997211531e-02 4.479103015301693080e-01
-7.773560482115410286e-02 -1.220041627446052657e-01 5.079986203061008787e-01
-7.096513449570045207e-02 -1.169624841623723432e-01 4.812320126062392123e-01
-5.407790784199579398e-02 -1.211486365676465310e-01 5.082290517279686171e-01
-4.911068185256025481e-02 -1.175407761275731322e-01 4.890627574746205797e-01
-9.241760954352205848e-02 -1.151943089936052211e-01 4.620137844274851413e-01
-2.969536870761056713e-02 -1.133002096310427864e-01 4.793343677845280371e-01
-4.061425699410715906e-02 -1.214419880254939688e-01 5.061954089454964167e-01
-3.561616079931320678e-02 -9.646293206145216403e-02 4.588102623084094334e-01
-5.753467314323060244e-02 -7.929263187697405124e-02 4.447151311441765453e-01
-4.737144747006753059e-02 -1.212695763008709710e-01 5.086013503174692252e-01
-6.080291681663613224e-02 -8.501695808197254345e-02 4.464584552823639974e-01
-3.783411953580110426e-02 -1.180673050719573958e-01 4.904880916854099104e-01
-2.183542848021764043e-02 -1.028836179905292941e-01 5.622043158725450462e-01
-1.666000094701116513e-02 -1.264391518856149144e-01 5.194971163445311069e-01
-5.771712771209533410e-02 -1.141462452022222879e-01 4.797127177039889334e-01
-5.507592145833931085e-02 -1.212154065302612216e-01 5.092054149577592836e-01
-6.472698292366545203e-02 -1.161156196925505063e-01 4.822875754716607899e-01
-1.361132345073721994e-02 -1.041311704418784317e-01 5.660944862111177978e-01
-1.878654647569433581e-02 -1.204471330356649827e-01 5.486880482817126925e-01
-8.973064749379827676e-02 -7.921383644220521270e-02 4.449257697471130646e-01
-2.582625335179012868e-02 -1.201943390644771154e-01 4.923136669519895814e-01
-1.807784436958359206e-02 -1.035136890237234042e-01 5.647648939243645749e-01
-5.050266789200003742e-02 -1.177732797690503735e-01 4.900235379732428287e-01
-7.508695281393820697e-02 -1.061341081982570822e-01 4.612383627395765795e-01
-6.268192979226031025e-02 -1.158075559636201485e-01 4.823518890426950478e-01
-1.135307895302660880e-01 -1.201965217412512971e-01 4.813313164515110598e-01
-8.584788221269121222e-02 -6.980116344736805867e-02 4.416216303785833186e-01
-4.757676197989592348e-02 -1.163339264505196813e-01 4.859280611863823207e-01
-2.181420534638571843e-02 -1.023767462499213243e-01 4.605815375030890557e-01
-7.640025452098075931e-02 -9.133051883975071283e-02 4.485457415226471456e-01
-1.495759821518952322e-02 -1.142159281776631008e-01 4.738453642904435492e-01
-4.850960812604998562e-02 -1.199932255602426112e-01 5.281589447142407412e-01
-1.430667558060203307e-02 -1.135626969047651563e-01 5.602260354009114263e-01
-3.413517243837547316e-02 -1.119425282952950101e-01 5.453027397588927627e-01
-1.018627420115280902e-01 -1.048097378699005822e-01 4.569285678846219945e-01
-5.913322140206332678e-02 -6.146917001699664374e-02 4.393804619137788303e-01
-1.163857736012547800e-01 -1.180351863421162661e-01 4.799225502166677981e-01
-6.070372319651858722e-02 -7.105849118970236633e-02 4.414210511825106265e-01
-1.011205989408225786e-01 -1.000077029935381029e-01 4.537292865567582045e-01
-6.733700987398379134e-02 -6.181108330846256382e-02 4.379739273306619274e-01
-8.245313777491275128e-03 -1.278594495196194170e-01 5.251523384240430747e-01
-8.035617759857911768e-02 -1.158284305108566031e-01 4.724761710649011404e-01
-9.488015572675979892e-02 -1.221369809232475817e-01 5.011982587172111314e-01
-1.843953048272616024e-02 -1.217380568709748589e-01 4.918353243188096080e-01
-1.057762176373620716e-01 -1.217315858857516142e-01 4.803445769666391252e-01
-8.053157870906235694e-02 -9.860684851541075269e-02 4.533497177227593378e-01
-3.365999662360807249e-02 -9.771774591930797171e-02 4.598678175123923628e-01
-6.286657192180548914e-02 -1.214114237079326891e-01 5.055673331158685446e-01
-7.984130091443419897e-02 -1.125010413910598889e-01 5.258084030664419428e-01
-5.459339678696505105e-02 -9.124815562512665623e-02 4.513520337608232236e-01
-5.381514424032910610e-02 -8.159260990856782858e-02 4.462709745216001389e-01
-7.190249881369012441e-02 -1.196029723970186975e-01 4.885355943535300005e-01
-3.525509460257102157e-02 -1.218293682213024282e-01 5.055569039358885908e-01
-3.634307958446318654e-02 -1.224348516105233375e-01 5.143537187189081150e-01
-1.017721459553758839e-02 -1.256456025749840832e-01 4.999956121210204496e-01
-1.050393038732342632e-01 -1.090102793815367760e-01 4.610711248415092500e-01
-9.328245878012890457e-02 -1.209410908560931974e-01 5.085676473342339854e-01
-5.465818432805351346e-02 -5.905682174224285291e-02 4.394306798866408070e-01
-2.868824127511214808e-02 -1.013343689274824599e-01 4.620209482197460416e-01
-4.604538172684781439e-03 -1.234135888928404590e-01 5.375721864700847563e-01
-1.689571734203810030e-02 -1.212373714286170551e-01 4.894665186392047063e-01
-4.768724492503004231e-02 -1.179159502379303615e-01 5.333740378483625699e-01
-4.944757104030889083e-02 -1.188804945620312303e-01 5.311200610252566623e-01
-4.661123826679529347e-02 -1.030579864786533711e-01 4.639030431928349851e-01
-5.216035265210412081e-02 -1.036904688939221109e-01 4.635224269531920127e-01
-3.074798109557227294e-02 -1.232916346006996261e-01 5.264447018696568614e-01
-1.177099257093840445e-01 -1.156650657931589249e-01 4.792142846022331426e-01
-1.066301193144708198e-01 -1.028983031128031106e-01 4.566057842643752585e-01
-2.008572997940697921e-02 -1.067155230490599988e-01 5.629935564913596258e-01
-3.269124949002648328e-02 -9.630718826261634724e-02 4.585953848914366970e-01
-3.197284590300533691e-02 -1.064967892301427466e-01 5.478882960096397303e-01
-7.810088973367032561e-02 -1.216969877731328975e-01 4.950909027817823049e-01
-5.910900253970260282e-02 -1.167087850906490948e-01 4.856552878405760998e-01
-1.038019469273382817e-01 -1.228539623576603151e-01 4.943945712914571411e-01
-6.673604739789122664e-02 -1.217038735700309848e-01 5.065279216953360031e-01
-4.770020337988891551e-02 -1.216523291735710083e-01 5.146650687689581227e-01
-7.453156706251218289e-02 -9.979058835724213816e-02 4.551656187339193638e-01
-7.757459529997491610e-02 -7.274485580605583035e-02 4.391900745272682149e-01
-5.781147433190045315e-02 -1.201315827360362187e-01 4.992668852561813475e-01
-1.330363255475668950e-02 -1.190447417752397014e-01 4.829228257280528402e-01
-5.442148574736301730e-02 -1.014810394572100150e-01 4.599192954485957219e-01
-9.137234752599221466e-02 -1.217207299789759695e-01 4.784216858335344491e-01
-5.276657479389867955e-02 -1.152010071400639962e-01 5.335864748746665942e-01
-6.320996083767965734e-02 -1.209685475046833047e-01 5.011855028915054300e-01
-5.842503728048834000e-02 -1.144611129440022829e-01 5.315523672876703021e-01
-4.021990943662914764e-02 -1.141364097006955375e-01 5.408080621659946408e-01
-1.008945854160409050e-01 -1.085976814667947987e-01 4.597751753618490311e-01
-6.764358072182817538e-02 -1.205325542067807870e-01 4.957243845538764626e-01
-2.985794790603723409e-02 -1.233834589075034210e-01 5.139993628151325877e-01
-2.611604712561170147e-02 -1.048642454182533157e-01 5.555061994320861229e-01
-4.195185697485400572e-02 -1.169556170360825931e-01 4.875951452786939644e-01
-8.939270029615957458e-02 -1.226615081387340128e-01 4.985163551694986039e-01
-3.976873895820738636e-02 -1.177764963000862836e-01 4.898587963911413823e-01
-6.362310052931492710e-02 -8.092136116473022667e-02 4.438594361202843341e-01
-1.684844971330748398e-02 -1.203112986541313434e-01 4.868788480654885897e-01
-8.053132472100175965e-02 -1.184854501172601660e-01 5.186180121223977757e-01
-5.208039840990431185e-02 -9.199309368746530491e-02 4.522957380626044244e-01
-1.932024282910201757e-02 -1.200087982641344503e-01 5.494052679713601339e-01
-3.784783159126349494e-02 -1.219117489591507453e-01 5.280577151821845838e-01
-9.671983370521596013e-02 -1.179656737029134567e-01 4.643364460157504703e-01
-1.177137508347799733e-01 -1.016295224630116012e-01 4.702586744668693641e-01
-2.007637570534551857e-02 -1.146310652826729864e-01 4.770732114609618213e-01
-2.433929411181685876e-02 -1.226874003565220361e-01 4.995567908906420884e-01
-9.612018493418356124e-02 -9.475434818685876670e-02 4.504901794528310410e-01
-8.306021318581453816e-02 -1.217031550996785505e-01 4.923970169438287581e-01
-1.174707056634160390e-02 -1.029010730729950363e-01 5.666551244639801421e-01
-8.182673581666366491e-02 -1.224045718889776035e-01 5.039177906505128979e-01
-2.024160974000047478e-02 -1.201121653759090607e-01 5.489016039325784746e-01
-1.827284081471911709e-02 -1.219516920246700442e-01 4.923261762580429801e-01
-8.280285686983820947e-02 -7.144706508376623411e-02 4.398223555650678240e-01
-7.954958641560844201e-02 -1.216367074171779972e-01 5.114577931209736139e-01
-6.135299955615690359e-02 -1.208657003746334141e-01 5.014826167151926750e-01
-1.461134970760544563e-02 -1.099420961786499173e-01 5.630893752721755074e-01
-1.180095954481931789e-02 -1.257367493139239234e-01 5.010868377425375941e-01
-7.967250625787535012e-02 -1.198297661776035888e-01 4.866760197897421203e-01
-4.315938713920872138e-02 -1.211415271766492219e-01 5.304080876101425757e-01
-3.050571544789125455e-02 -9.885205362264630480e-02 4.602989070214148493e-01
-7.478696304841754572e-02 -1.166544468033932636e-01 4.782871818082080062e-01
-4.108604438870752662e-02 -1.184904298190492117e-01 5.374093827075749896e-01
-7.345687985271580345e-02 -1.051439935390402480e-01 4.606372603760826578e-01
-3.946158029025866737e-02 -8.572125746775423327e-02 4.502250340610181034e-01
-4.173328248241831018e-02 -1.219988377604736551e-01 5.172760490206268491e-01
-2.719853354546680757e-02 -1.233925047160727012e-01 5.072814198743024194e-01
-8.960879286496034601e-02 -1.226267224074023554e-01 4.970160368212327984e-01
-1.197270143650475960e-01 -1.124786375924278492e-01 4.800434143818327892e-01
-4.419948082178518783e-02 -1.083825188335187373e-01 5.411060899050437190e-01
-6.763508415659678918e-02 -1.218631525335415189e-01 5.073927923257322004e-01
-8.171120899642481117e-02 -1.107697734794216987e-01 5.239056450612543658e-01
-5.949166923088880163e-03 -1.212377117068865889e-01 5.431136405324746841e-01
-5.341325226329841219e-02 -1.023723256017767119e-01 4.613503256506930605e-01
-8.144417342658279158e-02 -1.126678818718014619e-01 4.668828342789955177e-01
-3.396567610212464922e-02 -1.210283999831519436e-01 5.000259051415983924e-01
-6.915182588159242416e-02 -6.671432074549624169e-02 4.382920299917151818e-01
-1.147706566540280249e-01 -1.061369049252955388e-01 4.643107637106126950e-01
-5.642229456663436921e-02 -1.131385478461197219e-01 5.330803168549231863e-01
-7.362231545790352827e-02 -6.389050927357310672e-02 4.374759146445251212e-01
-5.480312035553896316e-02 -1.176273766297543100e-01 4.893637837856011363e-01
-5.252795128435076843e-02 -1.146980832664622474e-01 5.340087236298767248e-01
-4.526794549219746028e-02 -1.209952316507925119e-01 5.053728880524330780e-01
-6.189034844885085013e-02 -7.943119759401008617e-02 4.436710204521399636e-01
-1.149550177045579880e-01 -1.006361319507713681e-01 4.636897108494877906e-01
-2.870008192971353067e-02 -1.237017787184007955e-01 5.244237719656108521e-01
-1.095066774692061845e-01 -1.198175463161213483e-01 5.002206001857626427e-01
-5.923575528806351853e-02 -1.064484360006846403e-01 5.339530245832853073e-01
-1.128904364255231274e-01 -1.152811625432155207e-01 4.710264263429471132e-01
-2.488567795034045751e-02 -1.243562634900442776e-01 5.129915105444501355e-01
-5.817278446664164715e-02 -1.173716188676574568e-01 4.877496761465485164e-01
-4.789817838091154495e-02 -1.197507626215216364e-01 5.306595554943400739e-01
-1.000474394979615905e-01 -1.054041806619079868e-01 4.572255239228251167e-01
-1.097864079203373783e-01 -1.219200389611641150e-01 4.896667974259773515e-01
-6.528734112594083983e-02 -1.204034628593571299e-01 5.194574219236751667e-01
-5.759835901096960198e-02 -1.199533278771088840e-01 5.235440549195575777e-01
-3.445079008768249518e-02 -1.227911195352596602e-01 5.218266540814689991e-01
-1.804021938861212482e-02 -1.130708738749076070e-01 4.734938892005799427e-01
-6.383846862837694314e-02 -8.336958193065012457e-02 4.450098192890663551e-01
-6.725739593331778177e-02 -1.121979703379837601e-01 4.730285622409970414e-01
-5.175609226647572003e-02 -6.007996879097449172e-02 4.399199323781801674e-01
-6.975692912179300154e-02 -6.588600530356411578e-02 4.379822931088607207e-01
-4.336877289876206465e-02 -1.215446383045965945e-01 5.256673438019889844e-01
-8.323139543003808816e-02 -9.044111867123610926e-02 4.476802070126369992e-01
-4.850580741175949256e-02 -1.198250784429804733e-01 4.988442607438975385e-01
-1.056053804368766585e-01 -1.226726362990532559e-01 4.940561510414603896e-01
-7.565265837637749624e-02 -1.206307110315136266e-01 5.156843244378352953e-01
-6.292381475626651621e-02 -1.093195981326488264e-01 5.315323397792981464e-01
-5.985647911263433651e-02 -7.435088184335879313e-02 4.425359545641607828e-01
-8.554546946983541955e-02 -1.212278579334437889e-01 4.879456116760518269e-01
-9.256705126331390282e-03 -1.258379161372293054e-01 5.003452756698788528e-01
-3.415530687077530242e-02 -8.627414654409377992e-02 4.507871109083603223e-01
-1.192210592293735244e-01 -1.083501260327014160e-01 4.716440477392016550e-01
-6.040592650343151043e-02 -1.195299580627888492e-01 4.952478490765689356e-01
-1.173880349238920484e-01 -1.071278186948717154e-01 4.686019295867021595e-01
-5.975171570191573078e-02 -1.204055415054725020e-01 4.999623671209930675e-01
-4.314627252828229231e-02 -1.195800522216492884e-01 5.355774515776321465e-01
-6.740183483512837692e-02 -8.072124527398105709e-02 4.427795540106622685e-01
-1.176628540403665407e-01 -1.081176795799931173e-01 4.696106350980329691e-01
-1.412805760315150906e-02 -1.255083048312070071e-01 5.026556615141583029e-01
-6.983623893583011666e-02 -1.217938965623087816e-01 5.092955012217078581e-01
-7.998473702299629950e-02 -1.205037366221128198e-01 4.894467663289602255e-01
-3.220698787612438080e-02 -1.229819546485664550e-01 5.271656822957532240e-01
-1.039076258894595789e-01 -8.663931160354755578e-02 4.568247217280526074e-01
-3.016667941760286728e-02 -8.827875146235941717e-02 4.515084511270994194e-01
-6.016064556713707039e-03 -1.286482362665450907e-01 5.170140635769646664e-01
-8.896615159744716839e-02 -1.219150232715041637e-01 5.061636982184277711e-01
-4.156340337766530751e-02 -1.079661516322836246e-01 5.419758889147251457e-01
-1.055393450334031757e-01 -1.216857735700711401e-01 4.978358992357576618e-01
-1.886797242469205604e-02 -1.004647961871230344e-01 5.644987130589802504e-01
-9.338513789493263495e-02 -1.097667334510906978e-01 4.594616024507739427e-01
-1.128578974650331634e-01 -1.197794189148486538e-01 4.981988007240440997e-01
-5.302482455815730328e-02 -1.215078035237939086e-01 5.136605898235490075e-01
-1.728910546913611790e-02 -1.259223082812827854e-01 5.099512164006307913e-01
-6.567961675740496830e-02 -9.353407379018030543e-02 4.512176738676486054e-01
-6.014417587229931722e-02 -1.154946854467465006e-01 5.303198467888616818e-01
-5.560124347275792467e-02 -1.065963839269176705e-01 4.666336651189547102e-01
-6.559581047073154147e-02 -1.034540811272812721e-01 4.602563276135109849e-01
-1.179987441899716522e-01 -1.164308055508095491e-01 4.811977055967968098e-01
-8.624672396628917104e-02 -1.086476492692788204e-01 4.606281376718396880e-01
-5.450558219176129815e-02 -7.654028093458979665e-02 4.442722408271774781e-01
-4.708888602393283135e-02 -1.209071811246895806e-01 5.053327070787976272e-01
-8.886047670989898062e-02 -1.125870683275450312e-01 4.626417809658294189e-01
-7.194098658999638352e-02 -1.167682178820931699e-01 4.802024282631037755e-01
-9.218863796575009484e-02 -8.893059501015315726e-02 4.472450000018057259e-01
-7.262605035246441632e-02 -9.149389940216104411e-02 4.490076105325444544e-01
