-9.250203568275114363e-02 -1.234835279847860817e-01 4.941799736814248001e-01
-1.338071960896152629e-02 -1.166859677350999686e-01 5.566884195124260915e-01
-9.507284466175860982e-02 -8.438679727020448329e-02 4.477216697323753158e-01
-9.369692032761146872e-02 -1.226440936047597935e-01 4.677162353811725737e-01
-6.347429640203125500e-02 -1.161639286630385126e-01 5.274403149750570563e-01
-1.148696904311174022e-01 -9.933469755247253952e-02 4.646477580378887695e-01
-7.237866652697901027e-02 -1.054838656245620093e-01 4.605125559720295580e-01
-2.705618570326994571e-02 -1.127519871930739992e-01 4.770487508954560085e-01
-8.439780858531058250e-02 -1.183097630206772360e-01 5.173725322248876601e-01
-8.804307491592032464e-02 -1.203299345045225899e-01 5.123913412710169313e-01
-7.386378477137975351e-02 -1.212643650661275885e-01 4.926848330725337455e-01
-1.193901520649444797e-01 -1.107325222114934060e-01 4.732924246179451844e-01
-2.394722675751059446e-02 -1.022177809779845903e-01 5.580063091190272662e-01
-2.124632790115975334e-02 -1.145111755747601628e-01 4.774521662181844817e-01
-2.533128647324189853e-02 -1.240834744772776055e-01 5.099399557162509478e-01
-1.048469030111098266e-01 -1.143736880484525209e-01 4.652766964862621313e-01
-1.035048959010080594e-01 -1.228491500035517880e-01 4.976400945911020890e-01
-2.566736025598587156e-02 -1.093208289883503548e-01 5.554394188419669032e-01
-6.938040608093347383e-02 -9.401570180750853933e-02 4.507262322241281094e-01
-6.956566345885356606e-02 -1.183553172902423178e-01 5.224016862387109716e-01
-1.027225405713617368e-01 -9.731588011554620499e-02 4.526637714896665776e-01
-1.134883318993964718e-01 -1.183893929948974105e-01 4.746286473848581600e-01
-1.172829337347194717e-01 -1.176599360523664928e-01 4.931038957175754578e-01
-8.155662787376845302e-02 -1.230515727091327366e-01 5.019547743442865917e-01
-3.342701705823733493e-02 -1.091920611686406639e-01 4.721848996553088540e-01
-4.609615806759020940e-02 -8.452263890944969327e-02 4.486247655211997865e-01
-3.661475107913558097e-02 -1.092209269141622280e-01 4.724261615459302566e-01
-4.541314199360305809e-02 -1.211309811205030507e-01 5.272236366015753406e-01
-8.202280028884945118e-02 -1.115229161823265425e-01 5.227156016607195088e-01
-4.849971595540318592e-02 -1.204089543621395669e-01 5.265488405172715769e-01
-3.339152724100206276e-02 -1.231285838721897230e-01 5.194722300406335869e-01
-6.922495684126758753e-02 -1.223791523090222988e-01 5.072332229720863950e-01
-7.695919560963325468e-02 -1.209513753124612651e-01 5.156210150112459090e-01
-2.603943343027401505e-02 -1.125911197971218858e-01 5.543721586721520600e-01
-1.810623154100107594e-03 -1.290314174067893338e-01 5.205316204351286835e-01
-1.050939368594975554e-01 -1.174177504560109941e-01 4.686933704146446500e-01
-4.471315131141938987e-02 -1.206709048800670286e-01 5.008788725462470781e-01
-4.245057207382382097e-02 -7.522886289379675240e-02 4.448420561757377989e-01
-4.847598993785127985e-02 -1.143116264463414078e-01 4.809073125482644095e-01
-3.398496685604935480e-02 -1.115860034588077865e-01 5.452507122598816425e-01
-3.374278323845357301e-03 -1.225798153035570492e-01 5.387156873418386116e-01
-6.850603479185929379e-02 -1.219690746305186757e-01 5.014107964898663061e-01
-1.098682601365914419e-01 -1.107387109164074540e-01 4.634162842638406277e-01
-2.158207902468800565e-02 -1.226392929937432791e-01 5.420155490554618982e-01
-7.868966850649142253e-02 -9.471468655499395983e-02 4.502305908807275325e-01
-1.992516613797536140e-02 -1.253787221594454548e-01 5.100199106175828945e-01
-3.440993109143909712e-02 -1.229518875098000869e-01 5.204587446809367801e-01
-9.060811894016071455e-02 -1.037053530393804157e-01 4.550940754014967116e-01
-6.570508647092032639e-02 -1.211409528287336890e-01 5.174154633109776524e-01
-8.042757978243994521e-02 -1.125815663017337293e-01 4.660832269308042286e-01
-6.676115311297947316e-03 -1.276322775907032803e-01 5.072380012042194686e-01
-2.149192476861727999e-02 -9.999994084618112067e-02 5.625848357612802664e-01
-9.368799681864628526e-02 -1.232633395139437760e-01 4.877242493314969396e-01
-1.985193689216820795e-02 -1.172697445557292911e-01 4.809614506980133264e-01
-8.038671515769396647e-02 -1.223830150685481927e-01 4.949463035587861603e-01
-6.432635305664040348e-02 -8.641433590859565195e-02 4.462443410723203052e-01
-5.350868358006230507e-02 -1.213499981135762185e-01 5.196352614307958584e-01
-7.957338621488056762e-02 -1.121593986875192572e-01 4.659056369044945467e-01
-2.790997616844697205e-05 -1.290018434471069675e-01 5.226418834772156297e-01
-9.860589089047284983e-02 -1.204341455964980240e-01 5.070798009437752496e-01
-6.162800075519444393e-02 -1.210065563787271342e-01 5.186002767586830320e-01
-7.581038649446524350e-03 -1.283970937556005443e-01 5.181247370126217389e-01
-9.000001061973025851e-02 -7.280899440174709580e-02 4.467316812380037194e-01
-5.311957851666410796e-02 -1.164583671797908976e-01 5.326399133356628512e-01
-1.038889074434522358e-01 -1.208366965959749711e-01 4.732518880465979016e-01
-3.790888703824205758e-02 -1.086115124956292255e-01 4.714732568334555340e-01
-5.826543927088200653e-02 -7.480051832941676804e-02 4.428757748000020644e-01
-4.375028187109644695e-02 -1.199088308275605974e-01 4.970255486154912528e-01
-8.445656854651782675e-02 -9.255593417012780710e-02 4.484199783062526312e-01
-7.729207065594424775e-02 -1.221429774930008760e-01 5.107953188471920924e-01
-1.804154461535874970e-02 -1.253591308464810095e-01 5.321595786042032650e-01
-4.451913645254144264e-02 -1.016110766779298041e-01 4.622625123406382541e-01
-5.932672833502188048e-02 -1.068140153097095202e-01 5.337395430824443121e-01
-8.765082636213340772e-02 -1.149784177451782796e-01 4.633375490179224010e-01
-5.390164883405416246e-02 -7.431646363395315313e-02 4.434517421329968734e-01
-2.424813896306002303e-02 -1.223085055491749951e-01 5.408492324660779671e-01
-1.047653248277660154e-01 -1.235206808007133505e-01 4.919158636571726029e-01
-6.993601985212104244e-02 -1.174715411291566425e-01 4.818201213380581827e-01
-8.902192635159686396e-02 -1.157041267736912127e-01 5.166164663807104596e-01
-9.449387793037931915e-02 -9.685496204221825944e-02 4.508611694501925005e-01
-7.519882266267158277e-02 -8.421995566844667214e-02 4.434035317514154473e-01
-1.143249978350690393e-01 -1.159406039922276088e-01 4.721140922782312010e-01
-4.482540817551466938e-02 -1.217065048244150433e-01 5.231115149216527538e-01
-1.933167530590751068e-02 -1.016549854828965316e-01 5.639371039529882390e-01
-5.859155768614421333e-02 -1.202258608607269241e-01 4.975473772206073231e-01
-9.174744894337263923e-02 -1.145575675707766611e-01 5.161030098566699031e-01
-1.180482226527214545e-01 -1.018639107114125697e-01 4.716492111926585684e-01
-3.614784714491807438e-02 -1.116870007391978364e-01 4.763130464783794649e-01
-3.558375074525818582e-02 -1.085261420045957742e-01 4.714216195340581450e-01
-6.559715594602834321e-02 -1.112144632528252186e-01 4.706513332263039806e-01
-3.315873264000203380e-02 -1.200084237355702466e-01 5.403495956730128835e-01
-9.812206967390156576e-02 -1.169835158222240906e-01 4.642144690978637356e-01
-2.603623109155742479e-02 -1.162867923655708235e-01 4.833742459973729422e-01
-1.152987650109548873e-01 -1.124648678162586402e-01 4.687472819252091472e-01
-5.071630615195391739e-02 -1.084778900442515265e-01 5.381360854691217277e-01
-8.515933332247528631e-02 -1.207656513992603070e-01 4.814906456911647314e-01
-1.056284279899332920e-02 -9.662974425617745777e-02 5.695992428711570410e-01
-8.206875442453599734e-02 -1.228482170979005583e-01 4.992625633596716739e-01
-8.607431858833945737e-02 -9.856001242201443968e-02 4.519830345615615808e-01
-2.390680316914038303e-02 -1.241304610073830084e-01 5.319821809522590206e-01
-1.042516461903050286e-02 -1.100612175256230479e-01 5.633795047078639096e-01
-4.898966890827486514e-02 -8.329919653409872948e-02 4.475349345556643987e-01
-8.905525817091967944e-02 -7.905759115729017739e-02 4.442825265404267143e-01
-9.174369427086119522e-02 -1.226841624539815739e-01 4.768701170228276109e-01
-1.064173578893153199e-01 -1.219231997845670462e-01 4.784012515123532427e-01
-1.202921923981022934e-01 -1.123010633280038528e-01 4.796281991889843610e-01
-2.177889528130862173e-02 -1.163651860285076778e-01 4.808152719741451420e-01
-6.369797642946757599e-02 -7.854176161940309986e-02 4.426545589133916159e-01
-9.781277235411766149e-03 -1.146500532018701751e-01 5.591077842006080267e-01
-9.059429393726498025e-02 -1.161988293612908063e-01 4.624463638930437770e-01
-1.078774346517993865e-01 -1.226005746561232984e-01 4.950095633307338705e-01
-3.887729465874884688e-02 -1.057072080714498152e-01 4.675311607911655787e-01
-1.100071345950219270e-01 -1.098180082592463969e-01 4.625521090370953714e-01
-7.668354472347935213e-02 -1.210992827610546801e-01 4.903464403619028356e-01
-4.347351279389662093e-02 -1.154036769909299737e-01 4.834232938805189672e-01
-1.930089416043986525e-02 -1.160748470126879567e-01 5.564683539369116305e-01
-9.778534712784189842e-02 -8.094944570911440096e-02 4.529931515633109917e-01
-9.058356412944641722e-02 -8.711738216961188719e-02 4.462537175044996030e-01
-5.239220233835281682e-02 -8.417738771799564146e-02 4.473771392231957744e-01
-3.744808002802438307e-02 -8.471664038557669141e-02 4.495040261256856851e-01
-7.873600803729439990e-02 -1.229019318411223721e-01 5.035713835156879759e-01
-2.057004266158246261e-02 -1.252799463562505600e-01 5.109746926005036549e-01
-2.285260985397415817e-02 -1.103065557059675073e-01 5.581545858923651071e-01
-7.694850008644950334e-02 -1.220864055120711722e-01 5.113314435664763069e-01
-6.163436127834896056e-02 -7.146980970042274284e-02 4.410951273660861371e-01
-4.851024026539520889e-02 -1.060535988802425167e-01 4.670664740584084540e-01
-5.866159751225136915e-02 -7.973699842463041754e-02 4.443292420238978968e-01
-5.481788120630150252e-02 -7.218745242175554633e-02 4.426520782031139745e-01
-8.786872691053083939e-03 -1.279982671478942791e-01 5.239674246219624409e-01
-7.981245890846531965e-02 -1.227640110508207288e-01 5.049759920299300431e-01
-5.044250440152883014e-02 -1.140455326235591121e-01 5.354053782439736064e-01
-7.237505865360908952e-02 -1.210760969553975608e-01 4.924618065520447452e-01
-7.534031969744010848e-03 -1.246021674215540831e-01 4.951815791099355990e-01
-2.051332409141376836e-02 -1.061167599648380894e-01 5.627514909843975843e-01
-3.789580193784302525e-02 -1.114944242885006626e-01 4.760832471645853325e-01
-2.532042835282866111e-02 -1.190332642385229650e-01 4.891147469711689677e-01
-8.004402962314174919e-02 -9.933216735786669360e-02 4.533801518232945527e-01
-3.384255244188869721e-02 -1.097762295417924056e-01 4.730508231439161659e-01
-5.864404431630868691e-02 -1.106466378951816293e-01 5.328325803170255170e-01
-7.090801614828196042e-02 -6.034165995352187839e-02 4.376681527390895443e-01
-9.052648211312533388e-02 -9.596543747258694246e-02 4.501589952614482582e-01
-9.752877998262204917e-02 -8.426707514094382290e-02 4.500152079367868430e-01
-6.709578119029037391e-02 -7.367564115291590221e-02 4.403425895191817596e-01
-1.664847300626560306e-02 -1.257268989869197717e-01 5.313695988386410995e-01
-2.729024706712863263e-02 -1.189909538869821370e-01 4.899718894302906858e-01
-1.492706370194815842e-02 -1.230532596689143388e-01 5.434634605228093607e-01
-4.421511224319042005e-02 -1.059250782818605408e-01 4.676976243081671369e-01
-5.297432445692436265e-02 -1.074464067719982513e-01 4.678681378639497068e-01
-1.583833424163489170e-02 -1.181649289190289109e-01 4.814966129959972196e-01
-2.625324842934060113e-02 -1.108653464181015708e-01 4.741964194350137274e-01
-8.028115245506813047e-02 -1.040101132354980668e-01 4.569966243779070569e-01
-6.505247324135901565e-02 -1.015952356828263847e-01 4.578113343883241648e-01
-1.093831258741265189e-01 -1.052447346890097862e-01 4.584341105009703266e-01
-6.805677903416106067e-02 -6.034584714467720185e-02 4.376374028367669422e-01
-4.280163449956333500e-03 -1.285283059947623374e-01 5.109232986001149834e-01
-6.567787582564998949e-02 -1.126067252187448464e-01 4.733097421277685513e-01
-3.387692222007554488e-02 -1.126916014481046946e-01 5.452855372747713592e-01
-4.417997932260667171e-02 -1.210985579618465979e-01 5.037902225082354635e-01
-7.012858101547883583e-02 -9.328387281543101817e-02 4.500790405234970093e-01
-7.375038056882822490e-02 -1.023009205882917522e-01 4.569322748816688207e-01
-1.307281550355187706e-02 -1.268211372051175623e-01 5.081274521673453393e-01
-8.853368030129071808e-02 -7.598340802300709851e-02 4.441145516620878531e-01
-2.797746428583011008e-02 -1.239752176425580749e-01 5.211123443267063893e-01
-6.598872404086320032e-02 -1.190151978033094915e-01 4.883812749529667929e-01
-9.170103407075629043e-02 -1.190823163978208532e-01 5.133768812285107730e-01
-2.146138897014615923e-02 -1.103966216374937942e-01 5.602063329906149525e-01
-1.161135859285119254e-01 -1.143703228261951782e-01 4.717190055815950744e-01
-7.510661987974005804e-02 -8.875856501589975134e-02 4.464864578935613393e-01
-3.135317617475115448e-02 -1.014905328877528656e-01 4.627100553218647105e-01
-6.281310113337638945e-02 -1.187179353271298060e-01 4.891284020153415790e-01
-9.237979218829460437e-02 -8.346193477917185355e-02 4.464076033548429745e-01
-2.224581834244004908e-02 -1.201327490894896349e-01 4.895910289690033057e-01
-9.890239613625639858e-02 -1.151386248764773579e-01 5.119196722003679367e-01
-1.805462336488106861e-02 -1.161112313141246938e-01 4.781989967538340935e-01
-1.001111781859258670e-01 -1.205758433032652760e-01 5.053090488764196975e-01
-5.041178356400071586e-02 -1.121088919594554617e-01 5.365932257999095345e-01
-9.604806987487708725e-02 -1.224490605175129199e-01 4.803818540845620766e-01
-4.699694030257784566e-02 -8.256574774052184706e-02 4.475203601619336391e-01
-8.427906362332324153e-02 -1.215859281016018756e-01 5.115456777770195362e-01
-7.684567423170748923e-02 -9.134273800482600736e-02 4.480687547460363018e-01
-2.280776118145207143e-02 -1.248054061756116856e-01 5.113817290554510953e-01
-2.064251886963281921e-02 -1.154651332920778178e-01 4.785968455229607788e-01
-5.780706890804583609e-02 -5.711432258654862426e-02 4.386820026200849432e-01
-1.735652013051406511e-02 -1.177608628433049198e-01 4.811462836984232716e-01
-6.611977304736361971e-02 -1.214500399048883406e-01 4.996362999490593371e-01
-4.641424355650689004e-02 -1.031726809096079056e-01 4.636209975598337696e-01
-3.902289931244137811e-02 -1.222835547576420906e-01 5.117708801082669900e-01
-2.865458882807846511e-02 -1.209099269853414760e-01 4.955999321469333752e-01
-8.731486125021353795e-02 -1.227864249953864451e-01 4.928849735697700130e-01
-9.506156683391692175e-02 -1.106069170489144965e-01 4.593816333795717743e-01
-8.933111824211145691e-02 -1.218094298683664867e-01 4.752384682794307258e-01
-1.463825018788779408e-02 -1.157655875074833501e-01 5.579635615921698655e-01
-3.859880887939130117e-02 -1.175820180410868110e-01 5.394678556002170389e-01
-1.967106511285728401e-02 -1.060583907798786224e-01 5.632850144432959283e-01
-8.264520500045736962e-02 -7.503321334062004744e-02 4.398846259858246177e-01
-1.209678995192809900e-02 -1.257735862877753796e-01 5.323358867844466547e-01
-9.561362186137899177e-02 -1.136044984931813134e-01 4.612419553870111821e-01
-8.485538113936577642e-02 -1.125761461691934390e-01 4.637233204009083010e-01
-7.257722943022498763e-02 -1.107744672564831417e-01 4.671966177607524973e-01
-1.133496602920819329e-02 -1.266460575194565952e-01 5.286485826139329935e-01
-6.413154085255626247e-02 -1.212454724532357059e-01 5.000572921579597985e-01
-9.262539576930503560e-02 -1.092944692192849426e-01 4.586750804356379274e-01
-3.024806185227043448e-02 -8.611812111031455497e-02 4.499158138449380617e-01
-3.824530669905407132e-02 -1.203697269513607088e-01 5.366000428684607471e-01
-9.604973409793873818e-02 -1.230262939089001722e-01 4.837258371228251863e-01
-1.174083958221922436e-01 -1.118471004248834250e-01 4.712871559299007806e-01
-4.503870977533115660e-02 -1.219119386883331935e-01 5.168372158349511247e-01
-1.126601672968874229e-01 -1.219005830876027374e-01 4.912958268815658114e-01
-6.637394734838873711e-02 -1.082216605044092478e-01 4.652924027253788619e-01
-5.902074252292838913e-02 -1.211574077180133657e-01 5.173913333807916848e-01
-1.162380889915159005e-01 -1.203151959918517672e-01 4.913041249717087777e-01
-4.986085005232882006e-02 -1.200751454855946559e-01 4.984457049028828690e-01
-6.115261511803647687e-02 -1.216806368389488913e-01 5.060173765143036739e-01
-3.677402379278926076e-02 -9.078920755157278422e-02 4.538163060995763498e-01
-9.242587467788933309e-02 -1.062108575124651594e-01 4.566462594154881982e-01
-8.685557082325134903e-02 -1.156643338418574807e-01 4.638833625920809611e-01
-7.717332952766310650e-02 -1.015660748027030769e-01 4.556008172427155611e-01
-2.552666093341450504e-02 -1.106239932750845145e-01 5.554489979660995891e-01
-1.009429593078201293e-01 -1.209041410773037811e-01 5.039727708619484714e-01
-7.645782000037500137e-02 -7.423917931611366539e-02 4.392678901188054041e-01
-1.758903197395648293e-02 -1.261987025946571528e-01 5.162196332943570498e-01
-3.516368055566280321e-02 -1.134152246894284399e-01 5.441513415132244180e-01
-5.772543195909831532e-03 -1.284784960888776528e-01 5.133692935590132844e-01
-8.550371230411871193e-02 -1.226330378355001693e-01 5.051307779023497257e-01
-7.985459808627519418e-02 -9.040631102653078066e-02 4.472589106219506117e-01
-1.921382132128222550e-02 -1.242614312288617545e-01 5.014005762861457605e-01
-3.682630598789543575e-02 -1.097007686288064970e-01 5.433336936511989901e-01
-6.873524892963646382e-02 -1.147404687829221975e-01 4.764345024800151762e-01
-1.134635778799068968e-02 -1.276574348469339260e-01 5.194784858267740280e-01
-6.425975301442495013e-02 -9.367008708530011329e-02 4.511057337414527968e-01
-1.168606400869595940e-01 -1.136523584631745909e-01 4.722100213868855589e-01
-8.567270823994189988e-02 -1.214598502449449891e-01 5.104627443005643750e-01
-8.427617847829634024e-02 -8.637209134656195775e-02 4.447563586678716097e-01
-7.586094628238040927e-02 -1.056353506569698009e-01 4.598176253468502228e-01
-1.944861352397216428e-02 -1.234661268310810744e-01 4.981908305687624550e-01
-1.222042852329136009e-02 -1.154143457771827641e-01 5.583216474572723076e-01
-4.707679445863108963e-02 -1.215433936256071906e-01 5.090212068797637102e-01
-8.269585317157853235e-03 -1.270655323179650520e-01 5.052924790796199384e-01
-1.981686386120564206e-02 -1.233925817019754234e-01 5.403408682386292572e-01
-6.586619017478299865e-02 -1.217456836431200229e-01 5.130566433998932085e-01
-8.169406161243182585e-03 -1.243907331327423343e-01 4.946382722475310412e-01
-5.841306734934934020e-02 -1.213124920616812374e-01 5.158966431390396012e-01
-2.315113742899160484e-02 -1.248733673052038334e-01 5.139405099135325727e-01
-3.358447150358803007e-02 -1.027641991654897197e-01 4.643831664536575698e-01
-2.996068932082213837e-02 -1.200494713418531478e-01 4.935201765351016623e-01
-5.449735894124119184e-02 -1.082144627038816170e-01 5.360658834508625903e-01
-8.910195098220778653e-02 -1.226034386669807852e-01 4.889037409605450080e-01
-1.012412634058287991e-01 -1.236000169211351474e-01 4.855498321564329922e-01
-1.031071794790855839e-01 -1.234135527671628152e-01 4.834708619550537323e-01
-5.510861488140950809e-02 -1.208157693634891033e-01 5.219677212142745937e-01
-2.079776035016712987e-02 -1.233796330758837739e-01 4.989549890471269289e-01
-3.322155330451736360e-02 -1.223420290831767482e-01 5.065952702051669254e-01
-2.986983674609335754e-02 -1.236627981744151256e-01 5.201992048779698896e-01
-1.232965830895179846e-02 -1.273985127899843750e-01 5.164782441714755867e-01
-2.737159405799560741e-02 -1.238486550993502661e-01 5.286750131283296517e-01
-5.192040747456485444e-02 -1.057000245683014927e-01 4.657578722722789388e-01
-8.519636092788282489e-02 -1.230622178211031592e-01 4.996014542965748761e-01
-8.975048457246939670e-02 -1.164100372140761813e-01 5.158637935962859800e-01
-6.007678165816814769e-02 -7.414513230789002152e-02 4.421837094014471337e-01
-5.924221252498874588e-03 -1.240700797057774363e-01 5.366064803877116374e-01
-5.225307729092121267e-02 -6.376702512876264439e-02 4.404571830047436798e-01
-4.076949775603272430e-02 -1.212356750339091543e-01 5.029745628500650323e-01
-1.009734672958056412e-01 -1.223792137901221766e-01 4.720108303270091898e-01
-6.713223345093667638e-02 -7.178853557662824569e-02 4.397900151172859928e-01
-6.473773608048739858e-02 -1.203714671814994502e-01 5.206261838771711892e-01
-2.023976525119718442e-02 -1.074676679092400750e-01 5.626203042811219746e-01
-1.157247610870094784e-01 -1.021900044161171001e-01 4.653133801736789588e-01
-1.695346379897973849e-02 -1.252173326369365181e-01 5.039699611978958327e-01
-7.914970799759694919e-02 -8.546788909694824632e-02 4.440156144371751878e-01
-1.038231103647175024e-01 -1.142281387982178736e-01 5.075104469306588317e-01
-8.741789301306505944e-02 -6.995902204655249368e-02 4.445126012957367201e-01
-9.071767426018671754e-02 -1.218173872709871486e-01 5.081834841727248531e-01
-2.583238308691776508e-02 -1.107667955886982719e-01 5.551899100788727504e-01
-4.445450810262944336e-02 -1.060623748863098043e-01 4.678662576397581430e-01
-8.452602900583400247e-02 -8.719973053794118079e-02 4.452247357149661799e-01
-9.736114462320219487e-02 -1.036292894204410980e-01 4.550300075125196519e-01
-6.164322524199810499e-02 -1.216397532910266921e-01 5.046464823729395199e-01
-9.890835190025853985e-02 -1.239113179741002241e-01 4.701261959840610238e-01
-8.161870182353202219e-02 -1.154962952888135830e-01 5.215307726783962039e-01
-3.308036061274664819e-02 -1.162907306078082431e-01 5.448146483902566173e-01
-9.497047012554209189e-02 -8.466984357142907924e-02 4.475723219717729351e-01
-1.904795503651866492e-02 -1.258884017225247731e-01 5.255462021912895576e-01
-4.503023073919832503e-02 -1.165559300102863710e-01 4.859311326955356169e-01
-2.741526957765298700e-02 -1.070790268992267424e-01 4.684458821368149839e-01
-7.808773798205746741e-02 -8.454414005638440088e-02 4.434407421349799705e-01
-5.736041167601953206e-02 -9.199594369825170315e-02 4.510359892215069499e-01
-6.755550076969440987e-02 -1.129767309579346873e-01 5.285435116723739002e-01
-1.086380305578078520e-01 -1.227741266503791645e-01 4.856311597728601992e-01
-7.336445142404508790e-02 -9.022348680519438890e-02 4.475835675172994410e-01
-3.729567350533431747e-02 -1.225380842396423670e-01 5.219958179705084245e-01
-6.227640601271577925e-02 -1.208304925304406890e-01 5.193116714149075275e-01
-6.091118456902227390e-02 -6.184376534127018765e-02 4.390571278855988635e-01
-9.387277461367940501e-02 -1.232812640896513157e-01 4.977780357334037897e-01
-4.095954179262668859e-02 -1.090801118735930803e-01 4.722319556003541363e-01
-5.947555515421207306e-02 -8.089135158939472769e-02 4.446214859571581135e-01
-1.059694507545756587e-01 -1.107548129345911764e-01 4.621398973813472533e-01
-3.624433630269974227e-02 -1.226828540202666434e-01 5.163106409120464813e-01
-4.752117511958985768e-02 -9.708367914091470263e-02 4.571671949773463695e-01
-9.516852307107726006e-02 -1.232617407077530591e-01 4.860719526678333180e-01
-1.932835312731458893e-02 -1.254078995873803559e-01 5.303173128102103284e-01
-3.064370836894955707e-02 -1.235471932731295047e-01 5.199500217105187394e-01
-9.717696673708062227e-02 -1.211436729022407205e-01 5.083253063423711637e-01
-3.507378581240593041e-02 -1.198761301555906489e-01 4.947357551399870212e-01
-4.193609243149656191e-02 -9.158414699926684110e-02 4.539556424568378379e-01
-3.746586885265344030e-02 -1.224559317833504024e-01 5.128577318967912912e-01
-6.237216720682531301e-02 -1.175699147128478755e-01 4.858747273619096196e-01
-5.292135892438366157e-02 -1.217414874174755218e-01 5.122353031751516461e-01
-2.929487650468905885e-02 -1.228099844153010406e-01 5.337553551332672175e-01
-9.901886167716207610e-02 -1.149541083618717402e-01 4.633057762850714134e-01
-5.405883535677077911e-02 -1.197952983531676285e-01 5.253470619245008688e-01
-6.312052111403068655e-02 -1.145054573459524244e-01 4.780638906169793478e-01
-7.170163255071421160e-02 -1.168486770802317637e-01 4.791992036164947621e-01
-1.798010319514417588e-02 -1.199368703205031667e-01 5.500472773838012142e-01
-8.877516490807056682e-02 -1.215501800044325037e-01 4.833118940970568267e-01
-4.433270691077953463e-02 -1.218554561050856355e-01 5.117223238213733927e-01
-4.023028960271208404e-02 -9.448199608247066783e-02 4.564755810384827917e-01
-5.950717291165128625e-02 -5.720084708724680611e-02 4.384919754068725140e-01
-5.936019036024391127e-02 -1.059595033055409224e-01 4.640483838579673725e-01
-2.560303331375804112e-02 -1.215651930619443682e-01 4.961156461332174028e-01
-9.643439991492651353e-02 -1.235204618541231453e-01 4.933110815511685399e-01
-6.809836311452513447e-02 -9.806046362689552209e-02 4.540390153532091744e-01
-1.102124049650163029e-01 -1.033051067985663457e-01 4.580030515643485622e-01
-8.271993703778453277e-02 -1.203141766362622045e-01 4.802355063208075259e-01
-6.326241852824320000e-02 -1.198387451074177101e-01 4.932238619595271656e-01
-7.876783909583777443e-02 -8.316323160153399341e-02 4.428090958330895832e-01
-7.639552359458233466e-02 -6.032530424910721722e-02 4.382963278288039000e-01
-4.385158227783215318e-02 -1.011529286815965739e-01 4.619093029863005073e-01
-5.527420666819727463e-02 -7.036524989816930753e-02 4.420450109520470683e-01
-6.586993125046233799e-02 -1.150974419122303694e-01 5.278351891556944953e-01
-1.535969904493467847e-02 -1.199824138675918278e-01 4.852973609117525733e-01
-2.387718825130289921e-02 -1.248092377361159910e-01 5.198261303410169898e-01
-7.984139565604175814e-02 -1.225251727903654692e-01 5.072593324249640157e-01
-8.045701221095943878e-02 -1.148688293783033249e-01 5.229587042751560055e-01
-1.131727635678747151e-01 -1.159903243645469817e-01 5.000914739124038277e-01
-1.139167165628567208e-01 -1.166817410472734684e-01 4.727281046488633898e-01
-5.885277411555425719e-02 -1.145852066235208272e-01 4.795138411129187817e-01
-4.962120325489936118e-02 -7.209591206011194131e-02 4.432895937715387591e-01
-3.650595634362682751e-02 -9.724052984553840928e-02 4.592456059410175429e-01
-8.721958054978518407e-03 -1.167034038877123453e-01 5.562494284794616828e-01
-7.457586164343736612e-02 -5.910674880130614706e-02 4.384961234373127570e-01
-2.492953099284270224e-02 -1.016075517063516342e-01 5.560025606119702868e-01
-9.045936809689757163e-02 -8.546683749324290869e-02 4.457105647145734317e-01
-1.078815163563691532e-01 -1.220558228068161638e-01 4.807219169159532290e-01
-6.542026170125644913e-02 -1.179448623520396172e-01 4.855115931627133619e-01
-1.959379808202989931e-02 -1.257869432228042039e-01 5.242690931395772580e-01
-1.330562405260355199e-02 -9.711436846904045184e-02 5.681726847228810717e-01
-1.004492544304880081e-01 -1.136254149720294232e-01 4.629713385582746032e-01
-1.773122724392726945e-02 -1.260015794724223537e-01 5.122329058165479010e-01
-7.024726841630229979e-02 -1.199637833346313132e-01 5.190216009666713814e-01
-3.714415925216275199e-02 -1.225677815921248359e-01 5.152391758476425609e-01
-1.918628971349101847e-02 -1.244562356442921597e-01 5.023616808489812513e-01
-4.577966525211431270e-02 -1.180528410625650421e-01 5.352196501180916943e-01
-9.201864542772955624e-03 -1.124134274954002310e-01 5.615099605701325824e-01
-6.035585219046352146e-02 -1.216467085421246014e-01 5.067214426719954812e-01
-1.107615303572138526e-01 -1.220569382475152759e-01 4.840416234143616880e-01
-6.515674282411684781e-02 -1.215276564562768613e-01 5.009287677226385016e-01
-4.546639321592065713e-02 -1.219105116834687669e-01 5.149254025946273794e-01
-2.296275273497801889e-02 -1.248382962502642690e-01 5.124583955413433145e-01
-1.143458951100316812e-01 -1.053981946282609994e-01 4.631907835043325150e-01
-8.402657527022176775e-02 -1.201706654638808464e-01 4.754714785672802257e-01
-1.018953898463700325e-01 -1.087890512230396400e-01 4.594217352243228913e-01
-7.491348655189164485e-02 -8.907997042682061495e-02 4.467126842089326200e-01
-3.371172191242294280e-02 -1.131239785788951541e-01 4.788327184764049615e-01
-1.162047499098258635e-02 -1.170484418568360496e-01 4.778556987414201984e-01
-4.080087026881239198e-02 -1.190104418905873901e-01 4.929490290507145267e-01
-7.847177786381215325e-02 -1.225568856740445883e-01 4.981855472959397235e-01
-8.934295990920519681e-02 -7.286574632687400910e-02 4.459497904330947393e-01
-8.878436983140969296e-02 -1.215215688556136736e-01 4.805918036507148550e-01
-1.495668389649019644e-02 -1.165845936048936771e-01 5.568975302879821676e-01
-9.885005463874113607e-02 -1.234576655674665263e-01 4.956863607762654333e-01
-4.613940158404761238e-02 -1.217363939155082092e-01 5.190318079448674737e-01
-4.512023086856133125e-02 -1.216518235338465564e-01 5.081970956397418027e-01
-3.008747102552103078e-02 -1.227715681596810160e-01 5.330316210064727223e-01
-6.783127706494815334e-02 -1.201987476346769584e-01 4.914074250797202392e-01
-1.010901673323064687e-01 -1.142572187166829567e-01 4.639631126341219880e-01
-1.769644953600497603e-02 -1.181615518413797472e-01 4.821239504729930569e-01
-2.521398213961640808e-02 -1.233746934533644923e-01 5.349277993924792529e-01
-6.500456394547936279e-02 -1.129894176962322472e-01 4.743102301163108492e-01
-3.514325728165464124e-02 -1.203174930788024344e-01 4.964615391440705960e-01
-7.872232029806421061e-02 -9.509887598896472893e-02 4.505210805248712203e-01
-2.168002671551163760e-02 -1.198400567228460334e-01 4.883934894289308493e-01
-8.945327275100048436e-02 -1.214950980454070073e-01 4.822464957563071253e-01
-3.704239124280320206e-02 -8.635584234158219519e-02 4.505122594850211049e-01
-6.898287278374387599e-02 -5.891045522287274849e-02 4.379319218699909699e-01
-6.417940820797667090e-02 -1.129728046846615319e-01 5.298122125801302262e-01
-9.349214508789660538e-02 -1.234966293757755185e-01 4.894158239042820102e-01
-1.076509981545286931e-01 -1.223048217556417933e-01 4.818663281670495513e-01
-2.331584720991852072e-02 -1.249169259142117738e-01 5.185932856690097514e-01
-9.323057389009897777e-02 -1.231178001808122396e-01 4.753891483662492368e-01
-7.593199282070450806e-02 -1.143457990265992347e-01 5.258725429447043132e-01
-2.318067704714654731e-02 -9.818829959990801881e-02 5.580636660965150320e-01
-5.255316191277947802e-02 -6.068389920866327364e-02 4.398377191326366398e-01
-7.928312652203313438e-02 -1.210777760093099675e-01 4.895796231574228718e-01
-4.006925134523966342e-02 -1.162603451201220522e-01 4.853665501140912997e-01
-3.245758280385223349e-02 -1.128422802686691873e-01 4.782573355351265043e-01
-5.400940783030534070e-02 -1.162678125372036131e-01 4.843244295576985547e-01
-6.346581439866729422e-03 -9.478533019609849952e-02 5.711109604667755635e-01
-3.040187542303225340e-02 -1.229880580927622535e-01 5.076529226388788452e-01
-3.064586882056422740e-02 -1.199211050844953552e-01 4.933880681577283434e-01
-7.602556382402027302e-02 -1.189637742793487329e-01 4.811335207689867444e-01
-9.206860980302395553e-03 -1.222651280995569190e-01 4.889774444992372460e-01
-9.220969036247314565e-02 -9.893400497436893870e-02 4.517448724734419163e-01
-3.466210318422745934e-02 -8.677077733165358686e-02 4.508972274466569452e-01
-4.355707743581849894e-02 -5.869412164584775909e-02 4.399952914318733255e-01
-9.034640713361562214e-02 -8.128283545188041970e-02 4.454023656120189023e-01
-2.917014108990394552e-02 -1.235689790476226513e-01 5.278442009905442989e-01
-4.054449428830446400e-02 -1.185522466602719066e-01 4.915216696601761304e-01
-1.177383227165303692e-01 -1.183526720678536037e-01 4.915063303612424161e-01
-9.019748570837977930e-02 -1.177200587485539851e-01 4.630728005205672626e-01
-5.993319132077524342e-02 -7.603625676462813510e-02 4.428129506606672816e-01
-4.962877699142707877e-02 -1.020654356791420858e-01 4.615317505675914367e-01
-1.139778124975017043e-01 -1.119919631158395323e-01 4.670579471702709928e-01
-4.037061613453220288e-02 -9.592536118425147584e-02 4.576087779037247838e-01
-4.714701454759814142e-02 -1.218661375893091842e-01 5.158765007050735152e-01
-6.671704290043171948e-02 -6.768098129643602967e-02 4.388084609271596381e-01
-1.157593307760091533e-01 -1.045214541187835244e-01 4.647519295232485637e-01
-1.181025153143119844e-01 -1.193926677952346777e-01 4.882882667045985725e-01
-8.113524715439426882e-02 -8.101531144690586606e-02 4.419802088847716859e-01
-5.631108826809486795e-02 -9.742686361213419299e-02 4.554100818678871732e-01
-9.629100526689006456e-02 -8.113240574925510706e-02 4.498362721953761967e-01
-3.405940672247164541e-02 -7.971243689257723197e-02 4.464145863878437037e-01
-4.412183814911455060e-02 -1.208281508599110959e-01 5.017313933335889597e-01
-3.586417765011391812e-02 -1.113309496150951400e-01 4.756816099662327657e-01
-3.296471122486453742e-02 -1.230608805555154367e-01 5.263305533159012839e-01
-9.067223641294222536e-02 -9.837070001482195458e-02 4.514898287811203170e-01
-4.808792714384222539e-02 -1.174954164469633050e-01 4.880526073960157474e-01
-9.018137843963727751e-02 -1.231946307446814964e-01 4.990914919140012063e-01
-5.650688002232910623e-02 -1.178982291689832235e-01 5.290804394773470642e-01
-6.085993998974099928e-02 -6.619541420389368769e-02 4.397531426537111265e-01
-1.007446893932042835e-02 -1.276040865342049080e-01 5.108738033329910389e-01
-3.022196637957010740e-02 -1.163900658699827673e-01 4.853143164106600294e-01
-4.763857225591626443e-02 -1.157704626391147795e-01 4.839463595467127233e-01
-1.080813974163286062e-02 -1.275219428777718822e-01 5.241593862090461187e-01
-9.112354483432337504e-02 -1.136852181970458564e-01 4.614652852457374888e-01
-5.432101219219219457e-02 -1.129032857970581893e-01 4.771298911413267563e-01
-4.310060111226676066e-02 -1.210149283351322491e-01 5.025681807624390318e-01
-7.115936503641814848e-02 -1.202675666365339568e-01 4.895396392659306373e-01
-4.120154063238692932e-02 -1.221484129241774824e-01 5.217346200760372144e-01
-8.076637843803799455e-02 -1.198949197716728671e-01 4.802243101790836799e-01
-4.595658027469701895e-02 -5.744361866266881750e-02 4.395995692130932886e-01
-1.056137592339258524e-01 -1.171636279618572668e-01 5.043207661764488314e-01
-7.822785021512433656e-02 -1.015731293298615667e-01 4.554387710896586894e-01
-5.317509742799957084e-02 -8.264741551031576372e-02 4.465611363118866528e-01
-5.130177914529305411e-02 -7.891033364779900805e-02 4.454960206909327480e-01
-9.715427583125525735e-02 -1.204604030232927225e-01 4.661179944571970379e-01
-1.036490374417540494e-01 -9.008587766502695882e-02 4.540256256152252479e-01
-1.455824094092229154e-02 -1.229230151685676148e-01 4.926965524011128750e-01
-9.636868682644887663e-02 -1.137332055551213972e-01 4.613433156647139821e-01
-9.720869320378854039e-02 -1.237615082888041951e-01 4.895343178289064956e-01
-8.160471499338986523e-02 -9.348472186700727826e-02 4.490623229944665229e-01
-6.967911392152752181e-02 -1.220062375861034609e-01 5.107651083455234664e-01
-7.208577689721033799e-02 -1.217252451359070453e-01 5.138475899249848045e-01
-6.850295323205374091e-03 -1.235949679583283611e-01 5.382540859697360069e-01
-4.305759179819825672e-02 -9.766923405528775415e-02 4.587321227936941859e-01
-1.192144345371058262e-01 -1.171564907596768373e-01 4.860566326371996704e-01
-5.063538924073918146e-02 -1.210579376492078030e-01 5.045334860007623101e-01
-5.916499631241959462e-02 -9.010939087421902804e-02 4.494774521530748856e-01
-1.133614838167208566e-01 -1.044936385743367308e-01 4.616730881688266841e-01
-2.098183856942177281e-02 -1.152257532139221857e-01 4.784159948584046362e-01
-1.031746622367509386e-01 -1.078367296850118312e-01 4.589018378567621959e-01
-1.318131520634487248e-02 -1.269749315015957225e-01 5.244850192212167084e-01
-4.201017037844394231e-02 -1.217646101268949205e-01 5.270897050736168543e-01
-6.773349420209245908e-02 -1.168572596731453223e-01 5.254414721602006511e-01
-8.916162242445184460e-02 -1.222937172375625908e-01 5.073166826004655849e-01
-1.668384841390571985e-02 -1.108660798018551580e-01 4.694122214964000506e-01
-1.461493496538030304e-02 -1.265500527791774132e-01 5.092722079173127581e-01
-8.652993224023733387e-02 -8.667576846359621723e-02 4.454794005481557684e-01
-5.019227605896451477e-02 -1.039107321375456611e-01 4.637889208095311022e-01
-1.203394022962955695e-01 -1.099947957642096602e-01 4.743456168915110571e-01
-9.891959865909855099e-02 -1.220867728488622406e-01 5.033270498466726472e-01
-9.395559487862170656e-02 -1.223292502205643867e-01 4.820310893580290190e-01
-9.982856455677166507e-02 -8.240907994167487316e-02 4.552342520840664264e-01
-8.911553466984625804e-02 -1.133076710685980426e-01 4.622099009731044372e-01
-8.742606506470992911e-02 -1.086595391077376516e-01 4.595807979530120990e-01
-4.541008410659390371e-02 -1.217362965672325742e-01 5.200605345954573133e-01
-2.414929809417227027e-02 -1.193854195604719254e-01 5.481351936408488390e-01
-6.716708321556466577e-02 -1.139223698343898999e-01 4.754313898397465876e-01
-7.247910630784976105e-02 -1.219482922885380544e-01 4.969274829262704252e-01
-6.553070151606089910e-02 -6.222884809888080265e-02 4.382252851025741358e-01
-1.004400514025935442e-01 -1.231390018295484834e-01 4.980817614202109334e-01
-4.930882008691570700e-02 -1.096960675834861842e-01 4.726241356419963457e-01
-1.030568042572183873e-01 -1.229652566632464528e-01 4.976668532474017304e-01
-2.633264439667245410e-02 -1.067454754309006826e-01 4.678561801406986853e-01
-8.198237380688919163e-02 -1.200948595333267699e-01 4.833278359498298093e-01
-8.223372476082881077e-02 -9.703488225972013714e-02 4.514707740556853643e-01
-6.770159863803060230e-02 -7.823019465454511545e-02 4.415685196417248326e-01
-5.246208066717305413e-02 -1.072806002349185467e-01 4.677733312131024390e-01
-8.706983436639355312e-02 -7.805910732234008775e-02 4.433063859437227361e-01
-6.766688708889302684e-02 -7.101281170936306342e-02 4.394560437694927657e-01
-1.811974443759314587e-02 -1.235819125201846752e-01 5.406520511103604099e-01
-1.102082922879934618e-01 -1.181556190742118900e-01 5.009985909779707258e-01
-7.026326295155096990e-02 -9.260709372305057918e-02 4.495455404001638677e-01
-2.912436470185418569e-02 -1.231152911231520181e-01 5.067043949944612935e-01
-1.901458651532596245e-02 -1.168350378573599774e-01 4.798661722062305124e-01
-3.089586498254781599e-02 -1.110127040567375767e-01 5.483140271968750534e-01
-1.032458436281358111e-01 -1.203031261322724671e-01 5.034447532609641618e-01
-5.842270065197695261e-02 -6.560809284634436245e-02 4.400697904051238396e-01
-5.980016145076139794e-02 -1.211654460948088929e-01 5.019027526594073141e-01
-9.094054277436480760e-02 -1.200404308445999629e-01 5.124645225982250585e-01
-4.129163972256705284e-02 -1.059506930966132854e-01 4.676845173681899448e-01
