-8.703173612724067476e-03 -1.212773057543007071e-01 5.472455953756489855e-01
-2.771241212948674648e-02 -1.121830702901121107e-01 5.517343691929471605e-01
-1.173009554768733448e-01 -1.184211381902828125e-01 4.924760969342604766e-01
-4.715011421808918551e-02 -7.458876244688844581e-02 4.444921339319432563e-01
-5.595550980636617572e-02 -1.029232647751393837e-01 4.607755328540691919e-01
-1.389562872766815851e-02 -1.086864610107842327e-01 5.640579860144638857e-01
-7.958783700840030284e-02 -1.141649923748217638e-01 4.686764241289527733e-01
-8.474799222614952388e-02 -8.834525971240733688e-02 4.460074284274989087e-01
-8.374655980543546652e-02 -6.728976181902035503e-02 4.412432964038365268e-01
-1.865416738185895693e-02 -1.203696480764932658e-01 5.490485547923764642e-01
-9.657970237609159181e-02 -1.241536926991852058e-01 4.897276790538581670e-01
-1.975864828813528318e-02 -1.253306393075543368e-01 5.088156629707263345e-01
-2.792959677911167546e-02 -9.157351603715560562e-02 4.535970039323710123e-01
-1.279141342317781371e-02 -1.268807115128161023e-01 5.259018373846022776e-01
-4.388829320683607094e-02 -8.443189341519090341e-02 4.489666736762952248e-01
-1.172335462346967283e-01 -1.065571881808595051e-01 4.681662775715711433e-01
-8.941224784308272888e-02 -1.226106697287946690e-01 5.071914070541653219e-01
-2.007572994949471251e-02 -1.098627694885121880e-01 5.615298001347653889e-01
-5.097028211631558087e-02 -1.220126187545565316e-01 5.140354824876068873e-01
-1.036145113985568744e-01 -1.220306993548062185e-01 5.006679307269633616e-01
-8.358841818242530863e-02 -7.726289069853765901e-02 4.408643362635225049e-01
-3.498462970861414972e-02 -1.210776004375002796e-01 5.364683747755949472e-01
-8.844752906976061091e-02 -1.057470702646299970e-01 4.568498652688326445e-01
-5.102126695625368302e-02 -6.372037573293619361e-02 4.407446920731204476e-01
-8.557450142231189105e-02 -7.184712496329655196e-02 4.417398989402976373e-01
-8.148700188279800471e-02 -1.052815247606141841e-01 4.577676083893954528e-01
-2.079102311759679217e-02 -1.143030393391208932e-01 5.571232813258663041e-01
-1.882429173522870425e-02 -1.230045962449988067e-01 5.428222230847848939e-01
-2.694398750893365474e-02 -1.235089439846688009e-01 5.320383408206630360e-01
-2.352662504873436616e-02 -1.243884951364892522e-01 5.082765411536803724e-01
-4.129404639954646627e-02 -1.218683948094346631e-01 5.280243812531765224e-01
-5.441222435771175120e-02 -1.205270988333151938e-01 4.995343811414320601e-01
-2.546857464147843711e-02 -1.242502011548630297e-01 5.122810833665011332e-01
-1.213155967572128041e-01 -1.108854054040896014e-01 4.810531194864504090e-01
-7.082470486892133987e-02 -9.231807908350857239e-02 4.493056835782927028e-01
-6.129548449904852203e-02 -1.187466386178417238e-01 5.257381412424725342e-01
-5.744432511360386684e-02 -1.196165815656522607e-01 4.943329974022794837e-01
-6.185908226097228818e-02 -1.217001248275330350e-01 5.023723614150237271e-01
-5.574675742773334969e-02 -1.165251705793887427e-01 5.317223985180968837e-01
-3.181607431437849520e-02 -1.209381778474012820e-01 4.973797033574920423e-01
-2.237614066005819136e-02 -1.140271345890201821e-01 4.774922438084597265e-01
-7.074524687712921422e-02 -1.194991377710045155e-01 4.864073093786000501e-01
-5.861362227252096824e-02 -1.125183233182223824e-01 5.324063648107435487e-01
-1.591654886537820224e-02 -1.257910040234600513e-01 5.059812761028510408e-01
-5.339326600282952306e-02 -1.183331855582090281e-01 4.901218888733476220e-01
-1.198392224785612553e-01 -1.130668901673002463e-01 4.786044229976988418e-01
-3.934402173236530714e-02 -9.029477249151804386e-02 4.532021061107415205e-01
-4.587859068870600576e-02 -1.220578071487095073e-01 5.148637156061502962e-01
-1.979981442325916968e-02 -1.204688660585643556e-01 4.890308415837066325e-01
-1.332730519691685024e-02 -1.155509163875307055e-01 4.753557593271786064e-01
-7.203881811146092828e-02 -1.227665739598845507e-01 5.038712953742993106e-01
-9.922864785906286567e-02 -1.082236423648961499e-01 4.586066134637036273e-01
-1.818354995445751326e-02 -1.194624578378261359e-01 4.853099447324218385e-01
-1.058613031810390903e-01 -9.349096083417696157e-02 4.562566748103344394e-01
-4.073014426691593665e-02 -1.214169541217777204e-01 5.035963732149725258e-01
-5.397943002354713138e-02 -8.626398745673476143e-02 4.483104242853229726e-01
-9.293994123770592253e-02 -1.223287015714330656e-01 4.805811227537434838e-01
-3.543823385819450805e-02 -8.397423995754513260e-02 4.492286359427454245e-01
-1.066549260135447180e-02 -1.075607277969631154e-01 5.649708166472540150e-01
-5.424475097477932800e-02 -1.116935446847181074e-01 4.744733179460596806e-01
-1.722910199265430958e-02 -1.220805726212201431e-01 5.460359322525294434e-01
-4.644497730303596972e-02 -1.173940381471538924e-01 5.354252395632805861e-01
-7.340205579715973483e-02 -6.470377543116409558e-02 4.376485379706790413e-01
-7.680900957808814433e-02 -1.177718111637747617e-01 4.772991270031183841e-01
-6.064967318874406321e-02 -1.054871813301650196e-01 4.627789302159984186e-01
-9.515576550776073950e-02 -1.248085668544924171e-01 4.711574065342781226e-01
-5.269882796956425891e-02 -1.216318121085229048e-01 5.084412578302952568e-01
-4.946974199448004456e-02 -7.762918692745378324e-02 4.454232614810343938e-01
-5.155158132850787278e-02 -1.150574148371389105e-01 4.818717794972106616e-01
-8.305872815214224159e-02 -1.126206958503344069e-01 4.642514313884072430e-01
-8.160496166468224344e-02 -7.953337197259517655e-02 4.415654914489486327e-01
-6.454618687321256321e-02 -1.072127052567738298e-01 4.641201236918375828e-01
-9.079646799725522854e-02 -1.237466529076049482e-01 4.955888084119132730e-01
-3.185158609405671498e-02 -9.488781100829819792e-02 4.571408673383268173e-01
-1.100471037034846111e-01 -9.829060584130955291e-02 4.576046674824001959e-01
-9.853054909081311596e-02 -1.240813864740764189e-01 4.735407114058827194e-01
-8.022827780083187366e-02 -1.233076378472689194e-01 5.029981965039820313e-01
-9.816263396604091307e-02 -8.795747026262308588e-02 4.505161295827888046e-01
-8.544148126824022138e-02 -1.086483571684706134e-01 4.599252082857183677e-01
-4.762910242790421161e-02 -6.094977415854546665e-02 4.403328078009867697e-01
-1.506817468127501225e-02 -1.134021816406569488e-01 5.605854537801595594e-01
-6.319418053674349944e-02 -1.211475045002927409e-01 4.988233228396068974e-01
-2.565640972435693015e-02 -1.162959865966831235e-01 5.516799630901085827e-01
-2.455184254395125290e-02 -1.160426205281360201e-01 5.533453611695539065e-01
-3.299722611099673020e-02 -9.691508432307059662e-02 4.590316667928712735e-01
-1.012284835058442634e-01 -1.198172107363176947e-01 5.063997507344690785e-01
-5.098591440637069774e-03 -1.240508661066844209e-01 4.930363776263113063e-01
-2.613006707065186271e-02 -1.108574126342562749e-01 4.742249421641174800e-01
-1.019125048812128259e-01 -1.047553136682359970e-01 4.562279262439077887e-01
-7.790030851129685352e-02 -1.051459643634100743e-01 4.586043600099670714e-01
-5.862540251663424240e-02 -5.874687540529506535e-02 4.390639253859583979e-01
-5.793186107503166260e-02 -9.425421789552676510e-02 4.525456351941187227e-01
-1.665760671115820366e-02 -1.187768299020777740e-01 4.831480231169431039e-01
-1.181964498869277624e-01 -1.165983360735911578e-01 4.831320229811860711e-01
-1.082762585771337022e-01 -1.087544243156891161e-01 4.610160443513066086e-01
-2.677373140890133840e-02 -1.187034072826154696e-01 4.893137530647649891e-01
-8.223249737553366134e-02 -1.054595170844899454e-01 4.577564056428289896e-01
-5.188422378312358696e-02 -8.421233503001079868e-02 4.475569945159672547e-01
-5.398625164577797175e-02 -1.208792395332947273e-01 5.017501569995539423e-01
-4.350983339968739205e-02 -8.444383400672721141e-02 4.490294658779001025e-01
-9.537513881063452992e-02 -9.482732998226275911e-02 4.501257575741125505e-01
-2.889010588730324403e-02 -1.228372836599809642e-01 5.343017854014460166e-01
-1.017013002746074840e-01 -1.231081035484464792e-01 4.993603882707796648e-01
-8.655732984529730667e-02 -9.732097104147523214e-02 4.511493371941580066e-01
-1.623493112929242504e-02 -1.169492253764948531e-01 4.791950206245109145e-01
-7.964389525401581460e-02 -1.175159667123191060e-01 5.208466716707490507e-01
-6.453388450887037608e-02 -9.005279232263602163e-02 4.484694448698465230e-01
-7.006125804570313698e-02 -8.282348320973853539e-02 4.431784764211120775e-01
-2.510186672213702078e-02 -1.122184013937720659e-01 4.758174722577149796e-01
-4.767301556734555856e-02 -1.122450554184818705e-01 4.769317745638818051e-01
-2.055005716085733444e-02 -1.128029398972270753e-01 5.584454461134394920e-01
-8.870381629581976235e-02 -1.188152172287257891e-01 4.644525819438467540e-01
-4.106704894117181592e-02 -1.196639277691254055e-01 4.947393276038299925e-01
-1.134803924093515104e-01 -1.207286750466143171e-01 4.789546268131869566e-01
-9.268083832623560947e-02 -1.236608326714561529e-01 4.713901613874415530e-01
-8.960614075636387510e-02 -9.783759720289908479e-02 4.513329197337885845e-01
-3.955301877099644259e-02 -1.198720448080992929e-01 5.371976521802894755e-01
-8.627962106290581676e-03 -1.198650877873514015e-01 5.511568117009107981e-01
-1.136778838213221669e-02 -1.265906284103552881e-01 5.293557735281029242e-01
-5.833144400505520244e-02 -1.153066369670955604e-01 4.808279802077936593e-01
-4.531450215679282134e-02 -1.178741680561415234e-01 5.356842626342090963e-01
-8.037102268414936246e-02 -1.202304662047504746e-01 4.844800531628047913e-01
-8.590744064798455648e-02 -1.061755505907727576e-01 4.575827742964812539e-01
-1.943985224709030707e-02 -1.181458695154576771e-01 4.828359334596256103e-01
-3.092001364224838608e-02 -1.228065797660613523e-01 5.316642407274453364e-01
-3.089159826200290476e-02 -1.193089847913011009e-01 4.916980370517856636e-01
-9.616938798771604291e-02 -8.158794413209645435e-02 4.502522024570350667e-01
-1.045526742823362637e-01 -8.914136850820239544e-02 4.572583120686611879e-01
-1.174918716829110865e-01 -1.177007656857003010e-01 4.814248713232825438e-01
-1.183413911314008804e-01 -1.150121707231513413e-01 4.823386391265152007e-01
-4.011507883815256664e-02 -1.224022610640780329e-01 5.154369898699339148e-01
-8.986783883649326898e-02 -1.229134227001402457e-01 5.044131755644073456e-01
-4.144451447037591357e-02 -1.031167281610472636e-01 4.644385649218837897e-01
-4.320573708454967382e-02 -1.150250018258380247e-01 4.824702558739322189e-01
-3.618704744194985168e-02 -1.219562569890766390e-01 5.318079062700947768e-01
-1.014895818767375113e-01 -1.233971112852690760e-01 4.795226038096174204e-01
-5.606263129885799557e-02 -5.777635979333475835e-02 4.391506075704407208e-01
-3.337363547190865670e-02 -1.114361899495539265e-01 5.455531975616375595e-01
-3.250307871551968986e-02 -9.821313519371840939e-02 4.600196382565148734e-01
-6.313326940150665312e-02 -1.156389625088052736e-01 4.800190824430176639e-01
-2.229520048099778787e-02 -1.092425955831475698e-01 4.698793364524510019e-01
-9.781980990506568274e-02 -1.210383291122607008e-01 5.077621243552233876e-01
-2.355882665997002454e-02 -1.045886451608418061e-01 4.638914339562759670e-01
-8.819368949147371461e-02 -1.205025185609703009e-01 4.706942146125268622e-01
-6.527522092852268421e-02 -1.223910311087193226e-01 5.093283754926005713e-01
-8.969163909478800045e-02 -1.230690391158032471e-01 5.032330713100868769e-01
-8.934148662770476090e-02 -1.179765534044221464e-01 4.636339469526989387e-01
-1.325380302620222592e-02 -1.243652079802761573e-01 4.970398584822952048e-01
-6.088371165500437721e-02 -1.160031755477841237e-01 5.295397450911318860e-01
-9.487124202670471629e-02 -1.157080174734403388e-01 5.144727569358275021e-01
-5.137391670207830385e-02 -1.188944773423573492e-01 5.302758120629157412e-01
-5.755827929133559145e-02 -1.108919366773803566e-01 5.333416294406108094e-01
-6.702423194694191733e-02 -9.620422125830409288e-02 4.527100166851903973e-01
-7.163580180833187261e-02 -6.014262815892610498e-02 4.381211312621044462e-01
-3.059982192704190779e-02 -1.216060363530909599e-01 5.375171011204777916e-01
-6.062988554109093736e-02 -8.522913262728605555e-02 4.463399946036140653e-01
-1.064785422122676017e-01 -1.124928463948147855e-01 4.639382849979366563e-01
-2.838836330434817146e-02 -1.106771275020925760e-01 4.739328537226923377e-01
-1.076289224431466879e-01 -9.577324529127050068e-02 4.571658821323480448e-01
-5.112164544325713961e-02 -1.122845684785282044e-01 5.362588684825393415e-01
-5.285077737872598269e-02 -1.120851371406382802e-01 5.355575795527492966e-01
-1.074172373305179451e-01 -1.105871953269872143e-01 4.624582524851614806e-01
-3.564118766237103081e-02 -1.139132535227884158e-01 4.803535890531163144e-01
-8.651100941741213246e-02 -1.219631550468364967e-01 4.855327452285277956e-01
-1.003020401988583554e-01 -8.990810460641561475e-02 4.519630395053430005e-01
-4.833604341759735468e-02 -1.213913452031536722e-01 5.062063721361289570e-01
-4.126721137914778070e-02 -1.143034873718541816e-01 5.398717729864452863e-01
-1.064463647365664241e-02 -1.218772214874464938e-01 5.471532695284107017e-01
-6.208157657919722433e-02 -8.706213106395700729e-02 4.471273838799340594e-01
-7.918974930203509510e-02 -1.158273443713302986e-01 4.718351624169119241e-01
-5.491526742536326222e-02 -1.137266417426498061e-01 4.782674644099121908e-01
-1.776698412217075571e-02 -1.251808139918851037e-01 5.047423318450683372e-01
-6.260979037818753534e-02 -1.212480151657023691e-01 4.996572869574911757e-01
-3.381809159838459339e-02 -1.187016942844210249e-01 4.908014569805929650e-01
-8.355938621002141631e-02 -1.229359619923275637e-01 4.944720002584478413e-01
-8.237055349229152612e-02 -9.222758220091367698e-02 4.483611110113979170e-01
-1.670127985265850573e-02 -1.245184639885437289e-01 5.369505186988176026e-01
-2.309018363038972677e-02 -9.706459460705016418e-02 4.563768489193168465e-01
-1.021712726273012461e-01 -1.180147369505334110e-01 4.684242946584008527e-01
-1.307371782037753012e-02 -1.162502075154349529e-01 4.765027395195644000e-01
-1.236751539756902885e-02 -1.208964625181820213e-01 4.866023435704553424e-01
-1.136418342078644381e-02 -1.199093841411347783e-01 4.841597115120962469e-01
-5.246170987582504663e-02 -1.215474856039376605e-01 5.072208453563672448e-01
-5.290939086768631922e-02 -1.196662743895150066e-01 5.266134191570063239e-01
-7.086872477485968436e-02 -9.318895162292017975e-02 4.499401613537256095e-01
-6.605850897752184314e-02 -1.189157887416612269e-01 4.873588738174960966e-01
-9.422461772127389834e-02 -8.616708852635263094e-02 4.474145308716621638e-01
-3.118583328880887920e-02 -1.233256518964231802e-01 5.144327721442252255e-01
-7.558899368428424748e-02 -1.135439019094079127e-01 5.267167756209631957e-01
-1.749484964807420523e-02 -1.253235385131544477e-01 5.051993047425350492e-01
-5.491808928259520051e-02 -1.098745716410340217e-01 5.352225433311075253e-01
-6.550412587867125713e-02 -1.222985808676851499e-01 5.103007471353911972e-01
-8.196978052250920854e-02 -8.545652926456098752e-02 4.442719733216573541e-01
-3.089373470621886806e-03 -1.254441097812680483e-01 5.344293815977630979e-01
-7.518073756944052694e-03 -1.268631091167031211e-01 5.036075914215857319e-01
-5.500024457786895776e-02 -1.204733053488716843e-01 5.239113047461062544e-01
-9.909741113059049311e-02 -1.234881893585703383e-01 4.985347759747854601e-01
-7.240205628138207672e-02 -1.201314343405259222e-01 5.193018748982904942e-01
-9.978407972913767854e-02 -1.014293385277511977e-01 4.539791012922956281e-01
-1.115450783353219219e-02 -1.205716963990401402e-01 5.502547413472792526e-01
-4.654115893084809566e-03 -1.210734965920817890e-01 5.430712850175170026e-01
-8.807255460339734332e-02 -7.311641542023716855e-02 4.449576455523542307e-01
-2.012671446823234567e-02 -1.256822237054677216e-01 5.221142388950931190e-01
-9.091165189045793960e-02 -1.112957002604192530e-01 4.602579305035852664e-01
-1.043098434038050304e-01 -1.238552661084857121e-01 4.939798981939353406e-01
-5.179853953475721529e-02 -1.177324928994680497e-01 5.317244233142398580e-01
-4.848671020076028571e-02 -1.121684622810330961e-01 4.766744895554355099e-01
-6.958870757987344058e-02 -5.602554196631476247e-02 4.395207779589411223e-01
-8.565472779135331616e-02 -7.046473655886720255e-02 4.417894677485988408e-01
-8.692170972187872324e-02 -1.221530599210788048e-01 4.863407946256666503e-01
-7.354137634796796552e-02 -1.179070818320173963e-01 4.796805931691765501e-01
-8.556813272753399646e-02 -1.217461395701585347e-01 4.856702811166624389e-01
-7.066236267511458169e-02 -9.392582469774461706e-02 4.505293360128425073e-01
-1.203794718619425608e-01 -1.124306358153916580e-01 4.790802076064533122e-01
-5.728324811105476103e-03 -9.507445882554221850e-02 5.710505574529365358e-01
-4.499719437635727598e-02 -1.183536595867450830e-01 4.908662804434110183e-01
-6.478683616640029674e-02 -1.206055741652565377e-01 4.942667656122253228e-01
-3.068427252735371133e-02 -1.186040745330357027e-01 4.899413485970770532e-01
-1.044479684901259975e-01 -1.019386867669352242e-01 4.554581142209038203e-01
-9.277787495522145378e-02 -1.225600083416621827e-01 5.059126422534742096e-01
-5.700019831192525838e-02 -1.212800195612954712e-01 5.032073094275718583e-01
-2.803494501523356996e-02 -1.099737017547058604e-01 5.516425245268357092e-01
-5.351209397981032678e-02 -1.137495395666509035e-01 4.787281809622108142e-01
-3.542208900725759418e-02 -8.309017539283523879e-02 4.487152004151622742e-01
-1.331950938097469644e-02 -1.131674724507722163e-01 5.608315762646383096e-01
-3.188044609136050922e-02 -1.128800364531969830e-01 5.468308131951534756e-01
-5.677874489041201400e-02 -1.182373356667534986e-01 4.890332817637466634e-01
-9.109649528966858034e-02 -1.213029628834154244e-01 4.678849931517133354e-01
-3.052753732238863704e-02 -1.132093795125574676e-01 4.788700383445280706e-01
-7.277470765223027771e-02 -7.336813295265069701e-02 4.393623556868788693e-01
-8.682990380512858875e-02 -1.198470507990375550e-01 4.708514365133172341e-01
-8.059671220943190328e-02 -1.226177369967918901e-01 5.094279894379710738e-01
-5.606280447110520426e-02 -1.207365126288482415e-01 5.227348964306626211e-01
-4.097921956941647653e-02 -8.117074841615057323e-02 4.475443556145820012e-01
-8.745985050696905572e-02 -1.230784455452944431e-01 4.916396285772628438e-01
-6.214980575771981985e-02 -1.160360055878180974e-01 4.813475576401233247e-01
-2.598730958177623146e-02 -1.050130105813141257e-01 5.548654506297473477e-01
-8.207886020346794043e-02 -1.210078723188689614e-01 4.872886264836654990e-01
-3.428807712962000931e-02 -9.411676966294599267e-02 4.566901242480004841e-01
-4.273386246317764647e-02 -5.852519041787175580e-02 4.401605908566287306e-01
-5.513342267096763005e-02 -9.944642884434083674e-02 4.573870909739219948e-01
-1.025457400481068343e-01 -1.180470927897979833e-01 5.061108985172412256e-01
-4.757910499475590665e-02 -1.105227831762154722e-01 5.388217212238923803e-01
-8.173708234003604356e-02 -7.629445869832915395e-02 4.403261196103974706e-01
-5.555660370555052380e-02 -7.184371405883913098e-02 4.425853428751246321e-01
-4.159138532795300658e-02 -9.360010729399191598e-02 4.556408669858558746e-01
-1.381175811147759315e-02 -1.194806480237388668e-01 5.521435345325772515e-01
-3.901760040950125186e-02 -1.217938165048382398e-01 5.300599898158862011e-01
-6.169183219268909585e-02 -1.214969485013019657e-01 5.173072930908573230e-01
-1.076371771483601025e-01 -1.052463519118454621e-01 4.579554716964274741e-01
-1.163182287625934841e-01 -1.046519446148240495e-01 4.670115240445924520e-01
-8.179547660049704683e-02 -1.212296217971514378e-01 4.884475394698514772e-01
-5.552416917272842006e-02 -6.599351736611185071e-02 4.407950767312898144e-01
-8.071850524285321959e-02 -8.657128705176168892e-02 4.448364693195160369e-01
-2.604518921739928938e-02 -1.137396982301654147e-01 5.532369324767446583e-01
-6.028531371670751288e-02 -1.218672824567026275e-01 5.135397078563548323e-01
-5.369435105548682474e-02 -1.137736543700001157e-01 4.787219172026835334e-01
-8.059192439459901547e-02 -7.963789214695163321e-02 4.414486876824149642e-01
-7.342078643995805787e-02 -1.032432987931903023e-01 4.578691631685585794e-01
-1.135092054490883379e-01 -1.189369492022343822e-01 4.756506501457500868e-01
-7.782937856457616821e-02 -1.161084829128479351e-01 4.732897201970086565e-01
-1.679773118395371662e-02 -1.095198701117954670e-01 4.676470227127457191e-01
-6.677321618124844316e-02 -1.201778048345061300e-01 5.202469095527274545e-01
-1.436994492666430513e-02 -1.191128831924353343e-01 4.831884364586373493e-01
-7.427555799315574414e-02 -7.281249406887749243e-02 4.391256966260894123e-01
-3.362559409519932929e-02 -9.577349775103724538e-02 4.580068297857073922e-01
-3.454314187218578830e-02 -1.224217404250405178e-01 5.082575256149046705e-01
-1.118083439995786743e-01 -1.037470859849103227e-01 4.601717481429216106e-01
-4.368861394942304133e-02 -1.155711126964291818e-01 4.835685200731292821e-01
-9.443781850125872179e-02 -8.282419285625368388e-02 4.484259459325917740e-01
-8.458037742220819374e-03 -1.272668694824973246e-01 5.276649612541484125e-01
-1.673000123989030336e-02 -1.256261474882335305e-01 5.059655635479906044e-01
-1.191662834355084050e-01 -1.138992001375047636e-01 4.801563256798624946e-01
-5.440105221313162182e-02 -1.128394740418537795e-01 4.766650068126487838e-01
-1.066468516631679520e-01 -1.236926546527664372e-01 4.884344561032875620e-01
-5.051912569473277631e-02 -1.156370727062165094e-01 4.831249019107362042e-01
-4.456647672669632881e-02 -1.049650018864692752e-01 4.662489861322426377e-01
-2.846348279131675346e-02 -1.191510705282595312e-01 4.907226724094017611e-01
-4.294042256139912056e-02 -8.691755563904579596e-02 4.505214642029583549e-01
-4.698067758315130349e-02 -9.343818040730682284e-02 4.542590385771520523e-01
-1.677774552273954278e-02 -1.200945464998255247e-01 5.501591377660828286e-01
-9.134172648449483123e-02 -1.231676217400724804e-01 4.874653078803158346e-01
-8.780162563153316724e-02 -1.231983533135517367e-01 4.934033096759922188e-01
-1.106025720298221687e-01 -1.211541340888277057e-01 4.990583098886879343e-01
-2.510556175861021824e-02 -1.241896979914658833e-01 5.295814588365117537e-01
-7.077350549256027426e-03 -9.660495688970287265e-02 5.701424642936511189e-01
-3.620906619915181812e-02 -1.035924479548325644e-01 4.652559963083325312e-01
-6.094181306236184925e-02 -1.106770077692703497e-01 4.707336233372244605e-01
-1.062280338356865333e-01 -1.044028609777647998e-01 4.569197502628212781e-01
-4.378359281944584069e-02 -1.217411129392065167e-01 5.258639309707389131e-01
-7.173558624889209145e-02 -1.204407863958491948e-01 5.187330464671359165e-01
-2.570581485899044692e-03 -1.289742395895536742e-01 5.138066120678802529e-01
-2.111627469455920614e-02 -1.005884151247572050e-01 4.586548413112136457e-01
-8.573355746601002414e-02 -9.212430200241328304e-02 4.482619716824057243e-01
-5.476939181203446458e-03 -1.243049329457783236e-01 5.361651813748236073e-01
-4.797661668748369468e-02 -1.083804868660122461e-01 4.704273575052926315e-01
-5.021020348957958707e-02 -1.202518363169576138e-01 5.258989836824888853e-01
-4.331933985986866423e-03 -1.271051638089193969e-01 5.309111957351915212e-01
-1.855726032713768750e-02 -1.082997069391538475e-01 5.630903850324919802e-01
-2.838891671090208735e-02 -1.226913340995147844e-01 5.355345518808337646e-01
-9.417559538817736609e-02 -1.093316440268891632e-01 4.585995904138515655e-01
-5.881384155116487628e-02 -1.216509618347480920e-01 5.049291519857773691e-01
-6.043565238276409068e-02 -1.215480356304490112e-01 5.163121053999084609e-01
-2.369036273249175775e-02 -1.051564834366655737e-01 4.646749437638393321e-01
-9.580845246556324302e-02 -9.023241750953581164e-02 4.493693364029969772e-01
-7.327793798972979944e-02 -1.190955607154501050e-01 5.212897379436870482e-01
-9.146639102178234781e-02 -1.237512247746280908e-01 4.962374634045156330e-01
-5.738193347533918076e-02 -1.141706412759819350e-01 5.322851958156702423e-01
-2.230303611200886230e-02 -1.058339200479678222e-01 4.650623988458063574e-01
-1.969271950143863803e-02 -1.166537085501372500e-01 4.800808398092812346e-01
-8.753908369438034853e-02 -8.119047908611237707e-02 4.441832892788529774e-01
-8.554486922924543768e-02 -9.438625025257980916e-02 4.495162025376873705e-01
-9.051062766498574330e-02 -1.222415261799471575e-01 4.707096573620533353e-01
-1.766597862791688747e-02 -1.213975803896737427e-01 4.902862055863539958e-01
-4.606961914961309190e-02 -1.096869612685669598e-01 4.728717458252750250e-01
-1.400189823758847367e-02 -1.268096120703747776e-01 5.123021289215827778e-01
-4.476152339680763287e-02 -1.081998619160705472e-01 4.707420102634266579e-01
-9.258703088067543607e-02 -8.006018188257693624e-02 4.482147372544825759e-01
-7.606988844323063492e-02 -1.080396847604215699e-01 4.621170520343456656e-01
-1.007664265713482110e-01 -1.240439393432317960e-01 4.861812809731874685e-01
-1.995065249673151977e-02 -1.116283250754720596e-01 4.722232867745140283e-01
-1.183178680583310410e-01 -1.131956978272273956e-01 4.752620414188464815e-01
-7.596208909514834406e-02 -8.158092796857999152e-02 4.418604826472416480e-01
-3.092158134843210615e-02 -1.200745692786740482e-01 5.419939575248604591e-01
-5.881731033801438496e-02 -6.674979094465123552e-02 4.405110553611955027e-01
-3.953419535644820543e-02 -8.522868707143603506e-02 4.498028034453805390e-01
-2.738176877557702005e-02 -1.148156296437381485e-01 5.507517738145384367e-01
-5.941523806619353198e-02 -1.125754815610675863e-01 5.320594589639014993e-01
-8.937623248379732155e-02 -1.235026422204695551e-01 4.949751666186588683e-01
-5.903895503779695714e-02 -1.175207225816651962e-01 5.289492102770722015e-01
-1.629623029104434323e-02 -1.188701646008751556e-01 4.832271347862323596e-01
-1.023338544610310624e-01 -1.140794441329065628e-01 5.096522470910420655e-01
-6.313079383465750039e-02 -6.821897407651210388e-02 4.399977334124749451e-01
-1.041180736992569494e-01 -1.163448213890742738e-01 5.060758326772053506e-01
-4.103668447958902163e-03 -1.284732615005753642e-01 5.263935022035550748e-01
-3.127777607108547797e-02 -1.231847329436548677e-01 5.110581283720863066e-01
-4.166143444959383157e-02 -1.217109174149492296e-01 5.063236001408747411e-01
-5.717157920306120862e-03 -1.272595198393156601e-01 5.045927782004494544e-01
-1.083935877022516037e-01 -1.197836171820575307e-01 4.738441362387342259e-01
-3.840873849187220832e-03 -1.275015600633333523e-01 5.045084440500923195e-01
-5.576333540602140121e-02 -1.183830901749165360e-01 5.289225015293289589e-01
-5.556695255499474739e-02 -1.215809687973826714e-01 5.171811207708081337e-01
-6.486635119850696352e-02 -1.197465948762002769e-01 4.906881290616342262e-01
-4.295492394094022059e-02 -7.162984865392216238e-02 4.435740810059381478e-01
-5.462258684879133658e-02 -9.370527786780583068e-02 4.526950357281670501e-01
-5.285447384073811705e-02 -1.191923516464789001e-01 4.936351060746002051e-01
-1.001330077935358720e-01 -1.052952424371988160e-01 4.565112550454137885e-01
-4.715063864784960895e-02 -1.087517129930949678e-01 4.713203185515496552e-01
-6.799371225942968389e-02 -1.025635441963769767e-01 4.581972877577773495e-01
-3.334922231245288776e-02 -1.005638262348862028e-01 4.622779341123942065e-01
-2.650121101637942927e-02 -1.242367865430899360e-01 5.172404539305786031e-01
-9.455853568764163719e-02 -9.057808884678919537e-02 4.485682423559603227e-01
-2.360486832269878543e-02 -1.235139582457662061e-01 5.361698640255027071e-01
-3.923335786541781722e-02 -9.071611722315921222e-02 4.535508901723366293e-01
-8.823774924368807393e-02 -8.822322747899183359e-02 4.467507410392879130e-01
-2.524510523041654728e-02 -1.195601308113158762e-01 5.470414379934354088e-01
-7.219893077217935662e-02 -6.597790800674924183e-02 4.375931487915774021e-01
-1.127326430696047044e-01 -1.050511902725661667e-01 4.616946673074475704e-01
-1.007432967183796990e-01 -1.200674356453556579e-01 4.695509319395101411e-01
-2.382314835028081709e-02 -1.066436914143939624e-01 4.669131355428897678e-01
-2.805672558400361741e-02 -1.232988445072099731e-01 5.321342792280158163e-01
-2.795996310090553133e-02 -1.142046674816570573e-01 5.505997594931125727e-01
-7.151555609883299136e-02 -9.728624917430722663e-02 4.530597465829376835e-01
-2.138539589280742670e-02 -1.252793058494118816e-01 5.146717218326478660e-01
-4.002917696673051473e-02 -9.373389350606350923e-02 4.559325588602332058e-01
-5.628889074638603052e-02 -1.129768864851283805e-01 5.332271632545017015e-01
-5.022034605572837235e-02 -1.166015526425243920e-01 4.852258006727029893e-01
-9.531041592287366193e-02 -1.234200301154699947e-01 4.990641012397284970e-01
-7.485210011311675682e-02 -8.408443703572925088e-02 4.433700048791081594e-01
-6.948209105350433568e-02 -1.028343892963598238e-01 4.582159437781568312e-01
-7.419702591228648746e-03 -1.252317688853865629e-01 5.345244114660516743e-01
-7.182905923384409752e-02 -1.172247081568773275e-01 4.792974351251214071e-01
-6.889328870600919252e-02 -8.689043442692931385e-02 4.458865451089006338e-01
-1.379657049949846621e-02 -1.237229365622505572e-01 5.409246141755706949e-01
-7.878823678073575143e-02 -1.207901977782965264e-01 5.171388521392461524e-01
-6.157693307059833310e-02 -1.086308368057163631e-01 4.671344820975990575e-01
-2.264654417010387999e-02 -1.116569225955119649e-01 4.737957157697404997e-01
-2.316030988934957360e-02 -1.050299781464741067e-01 5.591514330112600240e-01
-8.507074863550771748e-02 -1.182415153059517138e-01 5.174328977364295312e-01
-1.013760802065042516e-01 -1.156052622323501256e-01 5.099750167915239052e-01
-2.301959981418006534e-02 -1.005599858651179124e-01 5.585551852463376266e-01
-1.043731422592749924e-01 -9.765983571919827078e-02 4.537945271800705727e-01
-1.802508031599052776e-02 -1.080489381143689004e-01 5.633752665690596739e-01
-5.499008346575272321e-02 -9.362277238508322219e-02 4.525658105784171048e-01
-1.993240265289419541e-02 -1.145802013759243954e-01 4.769671222078746831e-01
-2.442361139147024990e-02 -1.134148952802373211e-01 5.551481925630636916e-01
-8.276668646311552413e-02 -1.183145388340944570e-01 5.185399771175739358e-01
-5.789811972235939241e-02 -5.841155417900377456e-02 4.390783970749707055e-01
-5.682486364754840008e-02 -1.216424627991505997e-01 5.076318180823882198e-01
-1.192279534528797036e-01 -1.066433564497134695e-01 4.727604046376531755e-01
-5.645873043561393245e-02 -1.217205182580611555e-01 5.094771976840982708e-01
-1.005470258660542612e-02 -1.185535788555487774e-01 5.535507742068708215e-01
-1.477217263933755867e-02 -1.158251010957537519e-01 4.764124770500706707e-01
-1.318183839071952398e-02 -1.227007333092209607e-01 5.449696819099053569e-01
-5.730004347206429927e-02 -1.214472832643709588e-01 5.174823412522274735e-01
-5.079617862208298668e-02 -6.670585187866906463e-02 4.416278968297305818e-01
-5.129643586321176035e-02 -1.126038763916094171e-01 4.770262661901433776e-01
-1.084803487451480378e-02 -1.197290189433286162e-01 5.516813514941830698e-01
-6.426702103676064370e-02 -1.124766319510116519e-01 4.729898967081253014e-01
-4.777495750523325091e-02 -1.209710792561750070e-01 5.032395807073393179e-01
-7.310424765070190622e-02 -1.193474549761849857e-01 4.837429136202055502e-01
-1.372534544883939611e-02 -1.114119690890121445e-01 5.621852421628810159e-01
-3.569331729465782116e-02 -7.844315290700772103e-02 4.460834180516855541e-01
-2.323124243520905546e-02 -1.204808510318877979e-01 4.913047316410060206e-01
-8.603972237438678450e-02 -1.202502778035479530e-01 5.138109437707181204e-01
-1.182665923322922669e-01 -1.187312483995059537e-01 4.887256561053534010e-01
-7.901975503419809976e-02 -6.661148899078817021e-02 4.386033706832351275e-01
-4.606610631058034866e-02 -1.085557771238390284e-01 4.711398835952433917e-01
-7.483904619476124120e-02 -7.551005512655864504e-02 4.398529084173634085e-01
-1.704310292947699285e-02 -1.196863074082806927e-01 4.852887317213231411e-01
-3.878631162364143403e-02 -1.193777698140820048e-01 5.379457857128959741e-01
-5.240993942722083077e-02 -9.331931453948445754e-02 4.528011679991779670e-01
-7.627741027982476441e-02 -7.772270768771166738e-02 4.404080837007636196e-01
-2.302622695268024058e-02 -9.921506237578918419e-02 5.580229245809400496e-01
-5.440696155850859722e-02 -9.978780231079170671e-02 4.577956282196519178e-01
-7.732215738658501647e-02 -1.145524066010132069e-01 5.255551305092993619e-01
-2.817965357705959351e-02 -9.889233695890702058e-02 4.596080272702782743e-01
-8.218592510245317784e-02 -9.916353373079105082e-02 4.529862277805610793e-01
-8.724823935136029329e-02 -1.228456568270460680e-01 5.055533970978097758e-01
-1.192919727270742858e-01 -1.104573857389327951e-01 4.729635185808394593e-01
-7.211430586806068244e-02 -7.868588085666752829e-02 4.409800323683202294e-01
-9.646866229786507652e-02 -1.049254875499547879e-01 4.558911712089099844e-01
-5.382371743854394430e-02 -1.092677943958793585e-01 4.702896934372212123e-01
-1.077437286690004492e-01 -9.421408157070969291e-02 4.576791366353194501e-01
-7.416831909865101435e-02 -1.088685850664291299e-01 4.636269490011957761e-01
-2.133014229750699112e-02 -1.153271376343839860e-01 5.559736679213435062e-01
-7.316989528338271875e-02 -1.185416726558844863e-01 5.222313200837548353e-01
-8.715268919317224749e-02 -1.114891908216169431e-01 5.201122341389160519e-01
-6.524195230492058073e-02 -1.142921375654551708e-01 5.291296712791029311e-01
-6.860557753283974547e-02 -8.547680287397556309e-02 4.450996942808962964e-01
-1.788281962607236181e-02 -1.224568870670089960e-01 5.450803700024068332e-01
-6.242202896972716408e-02 -1.216838438027624397e-01 5.020067511615713407e-01
-4.729883638970638904e-02 -1.095894846025358416e-01 5.394409436860428952e-01
-8.803561708658994012e-03 -1.159705882975665125e-01 5.576256200179444678e-01
-7.357902179153034961e-02 -7.938291286704553251e-02 4.410856558359477764e-01
-1.145814541885241400e-01 -1.061750738704154706e-01 4.643499665707064850e-01
-3.969292778908641017e-02 -1.205115224731690970e-01 5.360242567494644117e-01
-2.296047966019150108e-02 -1.228985903519191625e-01 5.395574247908664356e-01
-5.632546110997757594e-02 -1.100542815174305883e-01 4.709533371316874661e-01
-4.613344882207157105e-02 -1.143455054463369536e-01 5.371943365779555668e-01
-9.491943724821010064e-02 -1.227286772246442559e-01 5.031339776547111287e-01
-5.213905715789208389e-02 -1.203758464429360991e-01 5.246947668261036091e-01
-6.515315703336413411e-02 -6.704803605595884008e-02 4.391579604609869292e-01
-9.868035781844508580e-02 -1.240853810476877928e-01 4.874176695161095973e-01
-9.707322675004141643e-02 -1.176373025144326623e-01 4.644003165818503254e-01
-4.670672878914391632e-03 -1.286175083585988088e-01 5.247247320609070842e-01
-5.928026459979592044e-02 -1.089792063067477335e-01 4.683953153516745571e-01
-3.141233184277851531e-02 -1.127307682802644317e-01 5.473362315781049592e-01
-1.158865131459100584e-01 -1.138140727699387678e-01 4.713049388962007313e-01
-3.511663493647251139e-02 -1.066828314497481195e-01 4.687484758919140959e-01
-1.270303841902020378e-02 -1.213652155387419107e-01 4.877599502468403792e-01
-1.866173838417123365e-02 -1.131642044308976414e-01 5.591256847698384824e-01
-3.586736451961880512e-02 -9.580023193794361125e-02 4.579705772197439906e-01
-7.554841513712369505e-02 -1.149518942301186175e-01 4.724512009812529278e-01
-2.013718557048501528e-02 -1.245582188181468403e-01 5.346949571574667326e-01
-9.862969079915008541e-02 -1.145748775843093287e-01 4.631146288566006519e-01
-2.359784616913039243e-02 -1.062118568860695306e-01 4.661817145624102543e-01
-4.055521248869051187e-02 -1.223353119843293285e-01 5.206862599500093891e-01
-3.523456727247118760e-03 -1.207487347547275269e-01 5.422750582089689297e-01
-1.101035174048680398e-01 -1.208995048268969447e-01 4.998031629392463149e-01
-8.149042977129015985e-02 -1.225051098610463879e-01 4.930395161465434550e-01
-1.327662137474431431e-02 -1.241796595841061640e-01 4.964107859752523999e-01
-2.153832879438669079e-02 -1.249085289424280987e-01 5.086444639771184884e-01
-1.561603155015406710e-02 -1.133441185469037660e-01 4.727555605337992461e-01
-3.677092558300838060e-02 -8.538359573119193302e-02 4.500073798710969020e-01
-4.409203587615330433e-02 -1.213628358907398314e-01 5.049036462117952873e-01
-5.871217858787759064e-02 -1.151814526424522200e-01 5.312320747255638853e-01
-5.176212030721363128e-02 -1.187631980056008396e-01 4.920221346820483621e-01
-3.913165238323575157e-02 -1.081602230222506039e-01 4.707067489389122339e-01
-9.251607164618458334e-02 -1.236940189646147381e-01 4.972983364508479220e-01
-3.263654237074867237e-02 -1.191361210295047990e-01 4.918880475764160765e-01
-9.297952701212109164e-03 -9.255448837440452547e-02 5.714752094168934482e-01
-6.215325410164165842e-02 -9.313093742029325550e-02 4.510675297793519944e-01
-8.258208269966409165e-02 -1.207215912990704104e-01 4.840438366573748263e-01
-3.986987897351784021e-02 -1.144344623271591199e-01 4.813846008366254314e-01
-7.737368092145711918e-02 -1.138234194587830206e-01 5.261226340215405806e-01
-4.574216305028214885e-02 -9.786523829786690498e-02 4.582570449783481825e-01
-3.095680887687150482e-02 -8.584619285807836009e-02 4.499700859038035516e-01
-2.118083938420987911e-02 -1.254039361424058030e-01 5.191379703306762128e-01
-8.297669175624260152e-02 -1.209052075718026059e-01 4.795150785848920072e-01
-1.224162888322920424e-02 -1.259552380595703458e-01 5.027260896741932994e-01
-1.033876414817251066e-01 -1.240508478946316662e-01 4.857218798773572654e-01
-2.223923492207497549e-02 -1.197395604361514848e-01 5.485706783895898386e-01
-5.415308219028548004e-02 -1.029892579828169813e-01 4.612189886353672552e-01
-1.043278035367401907e-01 -1.230657726457778656e-01 4.975631039061523264e-01
-9.256979336353601817e-02 -1.180403358093115723e-01 4.633477564256819337e-01
-5.017627171227645455e-02 -1.202187028374947925e-01 4.983668009542265853e-01
-4.353064187389138473e-02 -1.189709144188490220e-01 4.926348642712399251e-01
-7.684526439754962857e-02 -7.475611457403327775e-02 4.396161668405029199e-01
-6.991018281421404468e-02 -1.068639860484226489e-01 4.623271095775948747e-01
-3.686253578000806691e-02 -1.204296942101218681e-01 4.970678616740668021e-01
-1.803528629912733855e-02 -1.249542962480664071e-01 5.038514779508935781e-01
-4.385622989338450184e-02 -1.122946863990556404e-01 4.775829961564453385e-01
-7.528216500907072839e-02 -9.550507979007441528e-02 4.512364583842437549e-01
-1.357339514026057251e-02 -1.271950368639361006e-01 5.220058924327657390e-01
-8.990856667374272360e-02 -1.107604072713960636e-01 4.602161758978174921e-01
-4.434745100330794026e-02 -1.176007538754400422e-01 4.886078694400128319e-01
-2.810915388084423219e-02 -1.156677700691599447e-01 4.830157848270693055e-01
-5.176311853759291842e-02 -1.187993129774691237e-01 5.301828348317171313e-01
-7.881302952258469052e-02 -9.617216905626531365e-02 4.512949938803639260e-01
