-1.002587510427469242e-01 -1.239741360094895883e-01 4.968483281975315524e-01
-2.676386150401553060e-02 -1.136596371122264026e-01 5.524102042906239296e-01
-5.133002771669229608e-03 -1.267835402710908443e-01 5.018410934327623973e-01
-2.066427422188838597e-02 -1.149499856817477739e-01 5.566883194443226213e-01
-9.344003877650374282e-03 -1.213780813204782261e-01 4.868999812714931430e-01
-3.904493425189703437e-02 -9.155895548743922530e-02 4.542930638587442949e-01
-5.737841275851464362e-02 -1.207081637850524608e-01 5.227884327508220963e-01
-1.347374626040569179e-02 -1.166418344661957068e-01 5.570392708330901277e-01
-1.149663656859282873e-01 -1.080360218371235886e-01 4.657032346315974625e-01
-2.114276261802461310e-02 -1.243283456819406219e-01 5.352159543922497820e-01
-2.055696686338921719e-02 -1.240338198548658899e-01 5.016367842942239808e-01
-1.053793256041041099e-01 -1.063671818638237954e-01 4.581827334908271654e-01
-6.570544444506237758e-02 -9.136203467431511238e-02 4.492670561201755342e-01
-1.184668327841928021e-01 -1.186185773620963280e-01 4.887524612583976635e-01
-1.142955003880884030e-01 -1.035875139920799104e-01 4.636668536512310035e-01
-1.929318177124749595e-02 -1.137895477007936640e-01 4.753207355510523091e-01
-4.152173938959581589e-02 -8.867658926924204543e-02 4.518734076043409154e-01
-9.644399150808395660e-02 -8.859513491821524589e-02 4.495246593955832815e-01
-4.059383918046741840e-02 -1.209325427730416208e-01 5.003646109438879552e-01
-3.492482084039484624e-02 -1.073034185848565358e-01 4.696003732912731321e-01
-9.669196776052911557e-02 -1.235993348611021808e-01 4.991174743298858463e-01
-1.181215133350764501e-01 -1.151546743285126045e-01 4.776549784244284447e-01
-1.262343076805456932e-02 -1.267458563267921667e-01 5.074440097624163259e-01
-7.455342110972737468e-02 -6.871320947960232739e-02 4.380371656042702511e-01
-5.800129759939450652e-02 -7.332813839039414860e-02 4.427386321707887928e-01
-3.419770161651686236e-02 -1.229173026995958179e-01 5.139133233715372784e-01
-5.552042640190999606e-02 -6.270756959905171568e-02 4.401709255961241407e-01
-6.998316913168493858e-02 -1.219881019485599682e-01 4.967526472475608523e-01
-1.213167942025178553e-01 -1.113455815298350637e-01 4.802398311496905992e-01
-6.329223556871449441e-02 -1.185123563781546457e-01 5.254395592779441682e-01
-1.168223374473426890e-01 -1.043477757544765405e-01 4.686974666982458571e-01
-9.214574811804869536e-02 -1.228149113238538731e-01 5.057892931521269508e-01
-9.645136758785774478e-02 -1.011876646302503069e-01 4.535097963736862692e-01
-7.736679655583365844e-02 -1.161998350841175753e-01 4.736657901193684905e-01
-5.220306699492728575e-02 -8.161320835112270689e-02 4.465501458162279280e-01
-6.960940780281496543e-02 -1.198658142440518493e-01 5.203718593332045117e-01
-9.624086179760180104e-02 -9.415177434883752194e-02 4.504054062822029914e-01
-6.648604864828680516e-02 -6.525502089071470724e-02 4.387189385989167523e-01
-7.922569472909972432e-02 -8.591868182759819506e-02 4.444538032674109074e-01
-7.085610405978559623e-02 -1.227890860388821670e-01 5.080929887347003238e-01
-4.896543125091522286e-02 -1.143074679049305292e-01 4.805362467799714765e-01
-4.124439052812879647e-02 -1.214035968445056762e-01 5.032165624850788443e-01
-4.105270469934420297e-02 -8.506722470277978954e-02 4.497050852831503964e-01
-2.667457531077531072e-02 -1.132656626362906621e-01 4.778015111673812876e-01
-1.341847454967617405e-02 -1.085153827259895953e-01 5.642151630435172649e-01
-8.285772660483471663e-02 -1.210772098278243003e-01 4.806018461999731484e-01
-4.599575725148831451e-02 -1.220550367701339067e-01 5.174656638674994813e-01
-2.322023583741720035e-02 -1.034541085496925583e-01 5.591798002996787309e-01
-1.095208356024869600e-01 -1.228384206848786020e-01 4.841816606893287189e-01
-1.152027773659097809e-01 -1.152574325364492808e-01 4.982666677877163330e-01
-4.360092557586072587e-02 -1.131239676242667830e-01 4.789275004902868726e-01
-4.698099301150948648e-03 -1.287518818315838143e-01 5.234912828117440631e-01
-5.509899166728603193e-02 -1.127003503065031470e-01 4.760762327044698594e-01
-1.077313121614449920e-01 -1.189240547401136661e-01 4.717102619620150983e-01
-9.636776253256189306e-02 -1.222936509227908336e-01 5.065170142120960506e-01
-1.767606726749678184e-02 -1.105465707027872696e-01 5.620458936534511452e-01
-6.087701889323695464e-02 -8.890176984476755306e-02 4.485176127834156201e-01
-6.173615375665567062e-02 -1.222514755280484922e-01 5.082458703942747125e-01
-6.624413819193990249e-02 -1.189581753373138706e-01 4.870807967851752407e-01
-9.632463520240672206e-02 -1.225886793255948487e-01 5.049124179418057468e-01
-1.759858408101076452e-02 -1.036423545242651928e-01 5.647646503958871911e-01
-8.034067689023785541e-02 -6.861155959744857924e-02 4.395270049766942244e-01
-1.003807394274262160e-01 -1.181751544620495142e-01 4.673046880767015576e-01
-9.573986699100044129e-02 -8.249480576814657851e-02 4.496659596802523584e-01
-5.719394384559551431e-02 -1.211614487756109138e-01 5.018551743758624673e-01
-1.030468538364134046e-01 -9.220169641257026927e-02 4.529884452142021178e-01
-5.060879885384262332e-03 -1.287630883003170745e-01 5.160524751416328826e-01
-9.637565883268174594e-02 -1.034923924956988595e-01 4.550063754097112834e-01
-7.748246086557139534e-02 -6.986129465906840141e-02 4.384792926730047835e-01
-4.472402564056050800e-02 -1.209792190196881390e-01 5.017927340674637193e-01
-8.289057374124630950e-02 -8.309801781672507270e-02 4.434447349241096292e-01
-5.583418502308661741e-02 -1.151706257434171043e-01 4.809105557324216407e-01
-4.707791136073011251e-02 -1.204487529842266091e-01 5.293728209902990312e-01
-4.825915946589234146e-02 -1.174801595516372088e-01 4.873012243137421762e-01
-3.593120449544418005e-02 -1.158224886140924448e-01 5.425084192052529453e-01
-9.715598583288419243e-02 -1.159064699699346307e-01 5.132848796661489965e-01
-8.029378976087803155e-02 -7.948350809444619525e-02 4.414301359250150658e-01
-1.525075804644513214e-02 -1.009906471201373890e-01 5.657195303780994111e-01
-9.079755418272436596e-02 -1.000626755845654414e-01 4.526549279796748260e-01
-5.154920798233512264e-02 -1.018560034004968307e-01 4.603897135077922864e-01
-4.072590750267090359e-02 -1.034465028918823692e-01 4.648593635542189739e-01
-4.137450343361447763e-02 -1.147819689500482743e-01 4.819734662783737855e-01
-1.149564112641446034e-01 -1.023803694166040001e-01 4.649943708379934981e-01
-9.600360247413809722e-02 -1.235662515311139881e-01 4.832686921383357315e-01
-3.124390672062177937e-02 -1.037803527713555968e-01 4.651816386701411732e-01
-3.420194186434633021e-02 -8.295692588663068634e-02 4.484936526787861588e-01
-1.210339223695355848e-02 -1.235712052730059546e-01 5.413453241884814693e-01
-6.737707056633925051e-02 -9.712294208973043519e-02 4.534346920713660523e-01
-1.127366553316650269e-02 -1.103191923753831377e-01 5.631976890055330198e-01
-1.186361911566511801e-01 -1.147507309483050131e-01 4.831147310123035665e-01
-7.567619864878541436e-02 -1.147867846497428318e-01 5.262285511667449400e-01
-6.147286851440882105e-02 -1.178146004237208694e-01 5.272980530339214100e-01
-7.347281884206068037e-02 -1.148065274907494465e-01 4.730335080265231085e-01
-9.202698020824630343e-02 -1.233113132841239246e-01 4.780827525548668744e-01
-3.595000878964173946e-02 -1.172438507445537070e-01 4.872632454924627488e-01
-2.927383197539243712e-02 -8.913635691925626825e-02 4.520029778102133133e-01
-2.795654767178572947e-02 -1.200265556369697201e-01 4.922779744607524433e-01
-7.915582828654224579e-02 -1.142826326957365746e-01 5.250240533102245033e-01
-4.571821834695991016e-02 -9.862715248844521054e-02 4.589664841113813010e-01
-1.117803497371573501e-01 -1.184325530073658539e-01 4.731969383047035516e-01
-6.577931687587558474e-02 -1.199908642680010962e-01 5.217420171992993572e-01
-8.536248234700605231e-02 -7.420084151510793202e-02 4.416885167561995229e-01
-3.486911009213977675e-02 -1.220797271217340663e-01 5.329245093783969711e-01
-6.743509680969084208e-02 -1.190221376721690844e-01 4.867156847166990152e-01
-1.571359089588405047e-02 -1.159397315354418895e-01 4.770394379073255586e-01
-9.677532023274845741e-02 -1.250423905137503788e-01 4.718239654992474330e-01
-9.769006321975734486e-02 -1.069466899717631536e-01 4.575445166139590625e-01
-4.770990970706247974e-02 -8.918996109750142176e-02 4.511640599697077092e-01
-2.106081866148995507e-02 -1.228474842167311676e-01 5.416946210524393734e-01
-7.063657150371267790e-02 -1.212556265101692038e-01 4.921649980581449535e-01
-9.698358707210696927e-02 -1.215979536568876640e-01 5.089118281005643452e-01
-8.700410578608872014e-02 -1.232564041812867078e-01 4.920958357709702136e-01
-1.317556433980014013e-02 -1.265850391551715526e-01 5.285372466592391794e-01
-6.660582323944393146e-02 -7.250677729612629852e-02 4.403910435626008368e-01
-1.116201853357571827e-01 -1.178970805801944216e-01 4.722090579499580443e-01
-1.082496934696824259e-01 -1.119654079279411019e-01 4.639686337907876212e-01
-6.629187972559491548e-02 -1.211858486548037517e-01 4.956274048068387561e-01
-1.650657682108687407e-02 -1.252339809932455084e-01 5.036518738664542694e-01
-1.185172182697905585e-01 -1.185031471206207110e-01 4.888800239070821285e-01
-1.008672281068277443e-01 -1.156095458853386992e-01 5.108423714949241745e-01
-6.054475127520064087e-02 -1.198133127211129245e-01 4.934253676982235937e-01
-2.556605557204641790e-02 -1.030740446412386629e-01 4.628666589278239707e-01
-2.828693628366847276e-02 -1.133338467302661967e-01 5.505581504177916585e-01
-9.294277587495303194e-02 -1.233822889225391212e-01 4.858420144374823724e-01
-8.026787582106313657e-02 -7.653430711448441781e-02 4.403534846215824139e-01
-1.553147356079832841e-02 -1.194410751407611326e-01 4.841876309230214170e-01
-7.146239934869794141e-02 -1.194425753071369223e-01 4.851412998468048743e-01
-6.273538257518150585e-02 -1.051027245894002177e-01 4.618456987750936271e-01
-5.802258838600538732e-02 -1.080958600462315067e-01 4.672436100172621676e-01
-2.091426006588118988e-02 -1.254151844403687266e-01 5.263050064422789553e-01
-1.066090354975641752e-01 -1.019656278327754212e-01 4.561964519208333013e-01
-8.515833316567424094e-02 -6.905304487674555902e-02 4.416708291625536242e-01
-5.172669309444104940e-02 -1.168436281487942596e-01 4.856716048643632266e-01
-1.348603247448199906e-02 -1.188910553154526317e-01 5.533140257435947840e-01
-7.896395764724367661e-02 -1.178178353022586028e-01 5.210935605356993294e-01
-6.012669209684911448e-02 -1.118486276219319703e-01 4.728095276353958543e-01
-5.110518065692760958e-02 -1.125603793451020324e-01 4.768590661535523911e-01
-8.408345276998155371e-02 -8.194379110707343539e-02 4.432503859083103959e-01
-1.131595111758771643e-01 -1.223481366283189070e-01 4.925893547800130334e-01
-3.251629949213623999e-02 -9.655610325286861917e-02 4.587168610139623626e-01
-4.229236068872228860e-02 -1.215544507116786133e-01 5.048967346779621446e-01
-3.151792128140360610e-02 -1.122278356664704740e-01 4.769095521695221329e-01
-5.630636161156412495e-02 -1.095044096998277344e-01 4.699772297062243531e-01
-8.636188785039902727e-02 -1.202248029466232715e-01 5.143144851429726216e-01
-6.671912854627805312e-02 -1.158119280789641492e-01 4.788480373888525654e-01
-6.761358055264793387e-02 -1.180390460408587416e-01 5.247541434094059598e-01
-6.379242167523027640e-02 -1.166742897940071799e-01 4.820153254281975830e-01
-8.003638245806909968e-03 -1.238017967498902805e-01 5.387517239937233970e-01
-4.707137624218626915e-02 -1.211097191847603782e-01 5.036077107406728981e-01
-4.644586149991410812e-03 -1.286509763148751262e-01 5.136237645795362905e-01
-5.571043121989661777e-03 -1.283333719989028510e-01 5.256012662029947435e-01
-2.183568828057271330e-02 -1.037188091203652823e-01 4.622127153136560973e-01
-4.688993531594889963e-02 -7.234585253328308652e-02 4.438170517067580034e-01
-6.820210442532853579e-02 -1.193337789481281608e-01 4.872896979660740202e-01
-1.082433932728834314e-01 -1.220309025554214277e-01 4.785764383103437436e-01
-8.833990183740651758e-02 -9.494391585107814224e-02 4.498078792844888429e-01
-5.377880986342782610e-02 -1.189536569816119632e-01 5.288923049636354845e-01
-4.986824960682784830e-02 -7.426934531818575602e-02 4.442582975033079196e-01
-7.785200342486052472e-02 -1.195112400938217051e-01 5.196524880783227607e-01
-5.606833991191730038e-02 -1.183965123791612534e-01 4.894944975688365063e-01
-6.892120239227093881e-02 -1.169674063969570188e-01 4.801493986130970226e-01
-2.114302165891256136e-02 -1.086289188791982607e-01 4.683873868670951901e-01
-8.017373865972522717e-02 -7.763432740782987007e-02 4.406558128613702885e-01
-8.797754681334059301e-02 -1.227680094884732037e-01 5.080090759579215520e-01
-2.772165031411200076e-02 -1.221482054665540412e-01 5.385685443508272385e-01
-1.091454594748745149e-01 -1.232748168879689854e-01 4.911213349882042611e-01
-3.170179131730532784e-02 -1.212257587326409508e-01 5.378040142063456042e-01
-1.774083058563189624e-02 -1.243926965082631786e-01 5.005745713294663668e-01
-9.529375864679083194e-03 -1.234293918997536321e-01 5.409390089572687632e-01
-8.513040044135143647e-02 -1.168410679530985929e-01 5.186441295168215948e-01
-4.934530115651675902e-02 -1.064968013376900446e-01 4.673370013535709244e-01
-1.886474431022579223e-02 -1.074699264585225467e-01 5.633221839888142846e-01
-8.121337920433524538e-02 -1.228584773124296176e-01 5.088302247694068692e-01
-6.932630301688408325e-02 -1.224898716966878465e-01 5.011191656658692262e-01
-8.247568150275728927e-02 -7.211485898711765541e-02 4.401010694073888008e-01
-1.015804542797550253e-01 -1.242750495263377913e-01 4.862405748971254660e-01
-3.608378190236510852e-02 -7.774920720656319784e-02 4.458931874888129032e-01
-8.815377137958639586e-02 -1.229374467130739113e-01 5.062246280404780752e-01
-7.437036361442242449e-02 -1.216087261151712756e-01 4.919717580690917136e-01
-2.977503662774254323e-02 -1.117795022565336027e-01 4.760377402681370551e-01
-9.641924204140073229e-02 -1.116875137812369245e-01 4.603503142401285109e-01
-1.958318718861526073e-02 -1.125577233510325764e-01 4.735050021880844451e-01
-2.866699763635486425e-02 -1.074824562490279412e-01 5.509513743518927864e-01
-1.205424542793782222e-02 -1.274646718429278680e-01 5.182147302832463831e-01
-6.324546516707782451e-02 -8.590062660063874089e-02 4.462765235132252206e-01
-1.126891466466107272e-01 -1.208540009204557286e-01 4.784264799630932874e-01
-1.090363341701088562e-01 -9.919570610024393276e-02 4.571340260701143299e-01
-4.386696029880103598e-02 -1.205086207065308307e-01 4.990605405398301775e-01
-9.175675549066918124e-02 -1.167745303806661250e-01 4.626606742540853023e-01
-1.217208190215481045e-02 -1.198274847790992276e-01 5.517561245684710070e-01
-1.141002121556084492e-01 -1.063429829664698234e-01 4.638731723888958602e-01
-3.761370006821915246e-02 -1.130660822629126483e-01 5.428843282501015777e-01
-1.978196511700285043e-02 -1.189228876189204753e-01 5.516536888826337748e-01
-2.585196186234735294e-02 -1.244490745081586469e-01 5.207543427379273115e-01
-6.517311715057201582e-02 -1.026351495108358547e-01 4.587758648017142282e-01
-3.014157456907015642e-02 -1.002731911918990498e-01 4.614195312281797468e-01
-2.362424225468633815e-02 -1.207418150697679576e-01 4.923969971736972262e-01
-3.054396626171198767e-02 -1.173889492460911121e-01 4.873468737708245291e-01
-1.102087211266251088e-01 -1.183451215477920593e-01 4.721053447121867364e-01
-6.423915044300597399e-02 -1.198618737293429964e-01 4.911474846087785506e-01
-8.490641066016413330e-02 -1.183115130111712654e-01 5.177330108332228731e-01
-1.194805674085189368e-01 -1.148319348757651098e-01 4.922446011277946676e-01
-1.024665901748719604e-01 -1.016245250701372921e-01 4.547841369797781530e-01
-1.172580675568564018e-01 -1.155238805482561026e-01 4.762094841665528433e-01
-1.311936079453664139e-02 -9.828670250044149737e-02 5.675948131285908360e-01
-5.527063994848453732e-02 -5.952760669139551403e-02 4.396540789877704802e-01
-1.969426696122509451e-02 -9.633702280472020152e-02 5.630455115763545182e-01
-1.163101786345282634e-01 -1.151339932688774798e-01 4.733467003158294828e-01
-2.033378170414043215e-02 -1.256667962229099100e-01 5.217028809688482038e-01
-1.013641517795515617e-01 -1.242424055727219673e-01 4.855510315233456109e-01
-1.106525316861856068e-01 -1.230000890128622182e-01 4.888658876092110139e-01
-3.017937673828975653e-02 -1.229293932881847656e-01 5.062375715516476138e-01
-5.070036794052783236e-02 -1.215740628154928643e-01 5.064684845205542629e-01
-7.305838262887690004e-02 -1.204878868589402685e-01 5.189612118445837696e-01
-3.108238828023753356e-02 -1.138059608259428812e-01 4.800083022601450700e-01
-8.248006990942893801e-02 -8.009814276591045723e-02 4.420623150425841419e-01
-1.114090257653741964e-02 -1.170989131641768793e-01 4.778592851014435983e-01
-4.359954186057940495e-02 -9.789482811487991432e-02 4.588299317502316232e-01
-6.027116159392703620e-02 -1.212822483039084354e-01 5.004904661411591071e-01
-5.602764091690774079e-02 -8.310346892168284094e-02 4.463941697352669102e-01
-9.828925362977339319e-02 -1.237249639413158381e-01 4.815379322738363443e-01
-4.478032451389744178e-02 -7.978355930981753663e-02 4.468010716664590487e-01
-9.894196275575238564e-02 -1.173964546086602861e-01 5.114619220679952338e-01
-9.848636123886568561e-02 -1.207086527661972997e-01 4.677765610985344935e-01
-1.035412316675116129e-01 -1.206611334214932607e-01 4.718192397819208073e-01
-3.546939490772428594e-02 -7.878089196457990773e-02 4.462688308896575196e-01
-1.820983849081709086e-02 -1.213288495309963466e-01 5.473184066735803377e-01
-2.542909013716175212e-02 -1.245093163877528386e-01 5.224969278075826118e-01
-3.149491193673057115e-03 -1.290623147338960108e-01 5.189366517733463580e-01
-2.809626013841427794e-02 -1.239495458320408472e-01 5.250792917147975025e-01
-6.284528075317533102e-02 -6.041247812510125437e-02 4.388760509463016657e-01
-5.782285731034857157e-02 -6.512731210932506953e-02 4.403511423534064440e-01
-2.135701128017315070e-02 -1.254249930509690192e-01 5.216806740056314506e-01
-6.278973457547452897e-02 -5.786909224327484169e-02 4.384653804531329357e-01
-8.260421918624699655e-02 -1.072632316313341383e-01 4.592912446543555016e-01
-8.158841748783499104e-02 -1.138023885894431514e-01 4.667897152879410538e-01
-2.797529914742633711e-02 -1.138645887388766292e-01 5.508389744533709331e-01
-7.573150800333754151e-02 -1.122890421593825960e-01 4.677313246652531342e-01
-3.666157697766680296e-02 -9.466153816808178800e-02 4.570708175989394162e-01
-6.438275520552488862e-02 -1.222177529694047221e-01 5.054512524794888551e-01
-4.599256033830929208e-02 -9.038825705799187482e-02 4.522690383320956964e-01
-6.296890897106813267e-02 -1.200728107589368182e-01 4.929233337038054774e-01
-5.533153792110954983e-02 -1.144112726618669446e-01 4.793880226162876568e-01
-7.714692904787776029e-02 -1.188642785396069879e-01 4.791936849186271830e-01
-1.182111774587001410e-02 -1.036195246828855998e-01 5.665537870696988332e-01
-8.648327376383349585e-02 -1.206578015946806193e-01 5.133877638251449493e-01
-7.963027547214032720e-02 -1.000120523065193279e-01 4.539954788389829465e-01
-3.284229079357121189e-02 -1.232830213245258710e-01 5.180185754542520060e-01
-3.527717560580220096e-02 -1.117563163763192757e-01 4.762846439686340694e-01
-8.616219244292411261e-02 -7.817746939837569298e-02 4.431250436593567321e-01
-3.617077247288472824e-02 -1.149416947443479969e-01 4.824033328268912402e-01
-7.751887572165618023e-02 -1.226097364823157676e-01 5.108324132330777090e-01
-4.741218836950066712e-02 -8.615502693754895081e-02 4.494513636305303428e-01
-2.739698143982240153e-02 -1.125606319030874602e-01 5.521518738645189162e-01
-5.593636329392834283e-02 -9.661987421195011860e-02 4.548399896115516983e-01
-7.975309935741153877e-02 -9.186323990529637884e-02 4.482882791111841847e-01
-6.895971498484142204e-02 -9.119335917230289579e-02 4.486587207612263151e-01
-6.757668543595699018e-02 -1.197723604859669555e-01 5.210950910434306582e-01
-5.316714038404801029e-02 -1.057930388268262245e-01 4.653376725328167152e-01
-5.255780860166940627e-02 -1.201852550474276221e-01 5.254769221897539477e-01
-4.438351553016983003e-02 -1.193837672915257359e-01 4.938453126695095952e-01
-8.087248041037892188e-02 -9.222145566965857244e-02 4.484363840489669073e-01
-5.991471302463788340e-02 -1.222106223989428142e-01 5.106816313247135586e-01
-9.287791643153084711e-03 -1.213181517170861673e-01 4.867530070870774161e-01
-8.883699454297133702e-02 -8.118789980017296348e-02 4.447626849637612567e-01
-9.704427695759854089e-02 -8.546195859116591242e-02 4.501115348670540195e-01
-5.054553723743724497e-02 -1.045311942341460854e-01 4.643688529639091178e-01
-1.203201363253096623e-01 -1.118467347076726043e-01 4.856969984333382451e-01
-4.854776746350137479e-02 -1.162280824205668001e-01 4.844667754465672438e-01
-4.876306209900958810e-02 -1.184738062960047356e-01 4.906184417539605769e-01
-7.509178352208194240e-02 -1.206086960499279104e-01 4.861985511545359184e-01
-6.124582973366135552e-02 -1.217489891228903665e-01 5.161039465537531346e-01
-3.409126046258818127e-02 -9.727202111113864014e-02 4.594204710124959457e-01
-7.613789733446572720e-03 -1.281070105278981353e-01 5.125157834762602560e-01
-4.400890229025226918e-03 -1.276413734244087050e-01 5.056614850337428635e-01
-6.866186697644401093e-02 -1.147633832229762868e-01 4.757591236296944692e-01
-7.312108921371410220e-02 -1.223557983458051085e-01 4.965692693817602144e-01
-1.690428418924605838e-02 -1.115458503298666637e-01 5.615477210541520714e-01
-1.055929936377557471e-01 -9.187998042027548107e-02 4.567900008970238179e-01
-7.256256348013855051e-02 -1.046626540476037065e-01 4.595318789333572296e-01
-7.314160305958558594e-02 -1.209970274786166256e-01 5.176991119088768523e-01
-1.166657774280739496e-01 -1.206520105093470269e-01 4.915349111501706170e-01
-4.321292950983313119e-02 -1.038775817658193490e-01 4.651203861883119184e-01
-8.809357093005433514e-02 -1.207491365469397365e-01 4.711944203043900714e-01
-6.789894682498338885e-02 -1.076484574506669095e-01 4.638264089217901676e-01
-7.384880751001636490e-02 -8.471576201836260311e-02 4.439349177514316791e-01
-2.149711285310739600e-02 -1.164535895872267496e-01 5.548983189526955906e-01
-6.021310402084307373e-02 -6.883918699197799640e-02 4.410408387909182104e-01
-5.812708467606985535e-02 -1.199354782836689337e-01 5.253801004866400781e-01
-4.106339103917362038e-02 -1.009555706601200920e-01 4.620057595726505539e-01
-5.303123000800686465e-02 -7.337474014038974923e-02 4.435178761871302333e-01
-8.182922335630529731e-02 -1.211369221150165182e-01 4.875907841480002225e-01
-5.306485581074996127e-02 -1.216415919771984128e-01 5.071897207984341627e-01
-9.598288942611707397e-02 -1.239002304140810196e-01 4.973972587028614445e-01
-7.613257150150946895e-02 -8.249867785501641126e-02 4.424062507479930018e-01
-1.279502496175719851e-02 -1.197998654423025333e-01 5.518520273188797232e-01
-1.681273243104198069e-03 -1.290659233144883788e-01 5.130667727518500865e-01
-2.418705822570903219e-02 -1.146503011263726307e-01 5.546058428749089941e-01
-3.454737729549228753e-02 -1.227004319159715195e-01 5.104511778044253933e-01
-2.645900870093481627e-02 -1.225176503316013354e-01 5.000713799975867735e-01
-1.873564321099648045e-02 -1.253548779262861346e-01 5.065234725425709073e-01
-9.970134119845260740e-03 -1.247140321925996609e-01 5.365852768669514550e-01
-5.981201535543370640e-02 -1.157477711018364552e-01 5.306247666258727680e-01
-4.899902852869209013e-02 -1.071374539046284907e-01 4.682841105826657802e-01
-8.232668195337596029e-02 -1.235096536942218715e-01 5.014712654808050063e-01
-6.559147894699375592e-02 -9.798681979537297859e-02 4.543101682454167567e-01
-2.975031233794217002e-03 -1.290457811733420890e-01 5.165295240293842349e-01
-1.209282872952287084e-02 -1.044433993554717693e-01 5.663113439153520945e-01
-4.231810035637526002e-02 -1.171932034409000623e-01 5.378538132579677722e-01
-1.153436239527574486e-01 -1.011623340957226447e-01 4.664592914025191828e-01
-6.881118088330543704e-03 -1.179920421128142910e-01 5.541750272718379833e-01
-6.637534295875001378e-02 -9.770916561043259396e-02 4.540054373266609877e-01
-1.155777526316011106e-01 -1.044005655520134634e-01 4.655564404659660593e-01
-3.934594861341376287e-02 -7.611337925715058739e-02 4.453027554928501441e-01
-8.847041193291643735e-02 -1.232518816989467275e-01 4.902292139167523377e-01
-6.692111883431497987e-02 -7.171835102827647801e-02 4.401005459198910064e-01
-9.641759927897775029e-02 -9.788299689454754704e-02 4.517881319796299699e-01
-8.129437696405304725e-02 -8.629314499917065118e-02 4.447306939133229831e-01
-1.069212841096828098e-01 -1.164211583942468681e-01 4.682326136023255980e-01
-7.504766173801195872e-02 -1.141749996801914024e-01 4.712872385287318333e-01
-5.811273043535154087e-02 -1.215874075289840733e-01 5.164277239416236176e-01
-5.110385984522659159e-02 -9.393236257832435210e-02 4.536887143433042668e-01
-2.011997352609437226e-02 -1.219969767299288604e-01 4.937996719123918243e-01
-7.523508434041252524e-03 -1.218655261893018399e-01 5.447721572825092728e-01
-1.077083233138884932e-01 -1.167988162541733904e-01 5.040995370081109428e-01
-3.202224203793939405e-02 -1.158279177805740801e-01 5.457077454896869240e-01
-7.162663768448737645e-02 -8.508415920795991960e-02 4.444114282882200007e-01
-4.299309940262632107e-02 -8.039885234382926349e-02 4.473149223047049872e-01
-4.091369591288161744e-02 -1.120974157232816348e-01 4.771526830423536425e-01
-7.175531815016897297e-02 -5.634596483387682708e-02 4.398952152161677565e-01
-7.021535547197481353e-02 -1.159032914763656885e-01 4.772425500315299884e-01
-1.071583557386909386e-01 -1.227359878973735691e-01 4.807200493475045078e-01
-7.968791473744948894e-03 -1.274414125445290924e-01 5.274058786559233658e-01
-4.213812404825582197e-02 -7.810745712465594348e-02 4.463014541995181106e-01
-3.861045625915508761e-02 -1.216526024472857903e-01 5.317285019857320716e-01
-3.173064232247989249e-03 -1.211480074262135526e-01 5.409632731142852702e-01
-1.836671650238461476e-02 -1.099864730734203683e-01 4.688969503257524596e-01
-1.114696795814777430e-01 -1.012013641016351606e-01 4.591731795712268860e-01
-8.572017364351476598e-02 -9.468901563016503264e-02 4.497438486622073461e-01
-6.509956883213278978e-02 -1.088412424889942526e-01 4.663504365878624602e-01
-9.365084211249771751e-02 -8.636581605154410035e-02 4.473398960916364353e-01
-5.499341124252539459e-02 -1.063894784646892966e-01 5.363053225351551712e-01
-1.032245233431902109e-01 -1.242507326413989366e-01 4.925658072543209753e-01
-9.714823476204197117e-02 -8.743658473579375701e-02 4.497402600277539686e-01
-1.187938843972213970e-01 -1.180813925865226710e-01 4.865838356207433657e-01
-1.834718546725977451e-02 -1.260201018689126595e-01 5.262235452381502920e-01
-1.058198036878450349e-01 -1.231384758882384245e-01 4.970766585005176874e-01
-4.083820815307014768e-02 -1.200383187250693012e-01 4.961734089778012669e-01
-5.682304474162226671e-02 -8.053448327318073197e-02 4.452846928877592370e-01
-1.175395882062375830e-01 -1.168925166465252380e-01 4.807871374462549530e-01
-1.786929103054229334e-02 -1.018318029911225719e-01 5.647541149478646494e-01
-6.205799373689057513e-02 -7.614226439473222030e-02 4.425299445095220441e-01
-1.418155700623821396e-02 -1.185279775307504502e-01 4.818525562387999117e-01
-5.143176200138849241e-02 -1.181572013263684495e-01 4.893092376809568544e-01
-1.169042715631304127e-03 -1.290320673570574950e-01 5.239259304229446634e-01
-5.332545169415317532e-02 -9.297946778699067716e-02 4.524325970328533786e-01
-3.214557390244547619e-02 -1.233325493898287523e-01 5.235320433844821153e-01
-1.612248444655056678e-02 -9.857092686386133285e-02 5.656472183755772987e-01
-2.417316849994979866e-02 -1.247470989412624021e-01 5.179653477437023978e-01
-6.935872489885262782e-02 -8.851001201686374553e-02 4.468320286447788336e-01
-8.758730656314141216e-02 -1.234232625734131283e-01 5.022040424034367456e-01
-5.344003365584520243e-02 -1.119125676334573605e-01 5.354166252521836977e-01
-2.492305262112768163e-02 -1.025112703936589126e-01 5.555708727757890930e-01
-4.733778836484279356e-02 -1.000037488387832407e-01 4.597778318613998660e-01
-5.465545123166242608e-02 -7.606314050486026601e-02 4.441439256145615078e-01
-6.534283437599396061e-02 -7.860980247087895334e-02 4.425146979804945313e-01
-7.130589695503745939e-02 -1.171583589359640465e-01 5.249453004747627327e-01
-4.591213395542006331e-02 -1.207558635181940898e-01 5.007155821011946006e-01
-7.828477332847044723e-02 -1.103842472389628127e-01 4.640565081409989689e-01
-3.083338529806699604e-02 -9.710364827294913626e-02 4.587990570122252310e-01
-5.103877177853245739e-02 -1.144569724598377691e-01 5.350738997860243762e-01
-1.151912791276585857e-01 -1.036816590197850024e-01 4.649783579817787782e-01
-2.029152038567003449e-02 -1.153676563008823874e-01 5.565465334580933510e-01
-4.152896088989125462e-02 -7.418662821404550800e-02 4.445410101554045368e-01
-4.955802466292114072e-02 -1.162638486720213304e-01 5.347052451912063242e-01
-4.586513615184540857e-03 -1.258691663900244895e-01 4.986420050114472313e-01
-1.070381768540120682e-01 -1.059958175605592717e-01 4.583578540544684943e-01
-1.343921617118302471e-02 -1.268089720055324554e-01 5.093308776177788433e-01
-5.308582999381734890e-02 -1.098246975058104480e-01 4.713302850677295597e-01
-1.149293609272818706e-01 -1.033559313497570131e-01 4.646023847102337401e-01
-2.205124493646115624e-02 -1.247176296546433916e-01 5.070396206835144914e-01
-9.601012408964361422e-03 -9.433460478838333330e-02 5.709711063183758872e-01
-7.423695774631266370e-03 -1.278588172439140414e-01 5.091721293461319853e-01
-7.294135735288365119e-02 -1.229955638462313650e-01 5.039413785745195939e-01
-9.114910946006313242e-02 -1.235509749022497689e-01 5.003857085663191429e-01
-2.375678559453833077e-02 -1.079966817848219407e-01 5.572749372165952675e-01
-7.896682377328012592e-02 -1.021525050843980903e-01 4.557887035471050452e-01
-8.918388268193665203e-02 -1.205549254985108787e-01 5.131285963215280743e-01
-1.228862077635686431e-02 -1.232797921052950635e-01 5.425386661813411671e-01
-3.856008745295023965e-02 -1.222419956922141115e-01 5.275248854564729140e-01
-5.674340598138546965e-02 -1.153828770495389511e-01 4.811725297789149480e-01
-6.590486990293265013e-02 -7.465749030144232246e-02 4.411506145525705969e-01
-2.741354009589550347e-02 -1.213363250382426817e-01 5.416901450219920866e-01
-8.778910090439191738e-02 -1.187428531054520869e-01 4.676285308740271152e-01
-8.655784710175588870e-02 -9.880132386818150925e-02 4.521402236147806786e-01
-9.662436049397253590e-02 -9.776646335649728792e-02 4.517566807643610960e-01
-3.587942475303083217e-02 -1.219308758950243543e-01 5.041414318119160631e-01
-1.691114802441444354e-02 -1.248335100988352264e-01 5.357349551000193388e-01
-3.236378041417242030e-02 -1.080956370140251782e-01 4.705171911400626295e-01
-5.731665682039732701e-02 -1.011655676946920518e-01 4.586286353512279423e-01
-3.890089392228567554e-03 -1.219364272329973159e-01 5.407773090260130644e-01
-6.343150101267949759e-02 -1.154918254517784820e-01 5.286142146671132247e-01
-2.172679107875775950e-02 -1.252539457153313829e-01 5.254285818019039933e-01
-6.907194069253873303e-02 -1.131153949929815661e-01 4.720813857593307294e-01
-3.294750993532449129e-02 -8.030182017315475040e-02 4.467326161269222773e-01
-3.799757403977232356e-02 -1.028500195729221967e-01 4.643276322538910095e-01
-6.813556443231805204e-02 -1.206974117425590187e-01 4.915912671223457431e-01
-6.335522490145517605e-02 -8.964382984670413168e-02 4.484624033198965631e-01
-3.100214003093012399e-02 -1.203652600034526704e-01 4.948430490932105297e-01
-9.629800463083602879e-02 -9.809614372464656173e-02 4.518763632383422379e-01
-1.166083900795731980e-02 -1.103790916538624628e-01 5.631155081306344901e-01
-5.338556385300042423e-02 -1.180625086457231243e-01 4.889943173672134935e-01
-1.440681283742505092e-02 -1.257523994220856867e-01 5.041760474590507579e-01
-3.171431335383263772e-02 -1.229278456000022224e-01 5.086710351210933512e-01
-9.160768802692342838e-02 -7.679383964244003435e-02 4.480746106011941343e-01
-7.504856575919209745e-03 -1.274064917187722745e-01 5.067111288356425103e-01
-1.041011443047192009e-02 -1.214361704655087387e-01 4.872948487187227506e-01
-5.224358470952367856e-02 -9.315049322224064343e-02 4.527542220261646655e-01
-8.450850233227653885e-02 -1.162027685189138265e-01 4.667063743737032699e-01
-7.601377402756914758e-02 -1.177406731504630211e-01 4.775931229598004979e-01
-9.024025156500097011e-02 -1.230092607942634142e-01 5.051952745179381088e-01
-9.728887524314168769e-03 -1.212721875935124094e-01 4.867610957583974329e-01
-8.516992578566462413e-02 -1.215268881713932048e-01 4.759051218131752914e-01
-2.665957538015495051e-02 -1.205814976352747869e-01 4.934157662579194414e-01
-8.631894887058939869e-02 -8.914789840290428258e-02 4.468135494225426996e-01
-1.029223433725147061e-03 -1.289427951903618641e-01 5.250240736486668780e-01
-6.747847280387508917e-02 -1.103493949923785855e-01 5.298456592874417614e-01
-5.455783680830512267e-02 -7.727600186777845714e-02 4.445445951435387233e-01
-1.198897730161823383e-01 -1.144642939994589270e-01 4.906328370786195991e-01
-3.798224602175593462e-02 -1.104727815761590709e-01 4.742295980159982327e-01
-2.579631249681345329e-02 -1.204481976596675358e-01 4.925804455698456485e-01
-4.829932019265839593e-02 -5.957567521112172582e-02 4.401422635406835870e-01
-4.910542089949545413e-02 -1.191386659121277947e-01 4.934003561838521956e-01
-6.406497920697007409e-02 -1.213166062887690022e-01 5.186527250892166707e-01
-6.866250447787834721e-02 -1.194843315325767041e-01 5.211723126843638143e-01
-7.111438591541777154e-02 -7.556551444356257585e-02 4.403434765609560153e-01
-1.004548381086211167e-01 -1.107085927064516001e-01 4.607920363501564198e-01
-1.889230521349753722e-02 -1.229516686207674098e-01 4.960584280887112563e-01
-1.111176519970614660e-02 -1.234216779824758581e-01 5.417400378406950212e-01
-2.599772988832519532e-02 -1.054963101465497544e-01 5.549861200979481213e-01
-4.900723611740256946e-02 -1.120708294881110068e-01 4.763661382223071672e-01
-3.423563558898488207e-02 -1.229928978679550311e-01 5.257949097722381948e-01
-4.248812957720320138e-02 -9.903892559966161191e-02 4.600543921688147186e-01
-1.826423806514454115e-02 -1.208079682222642504e-01 4.889676446010786659e-01
-1.056635313083219979e-01 -1.238248005346647557e-01 4.942927256986723861e-01
-8.931617161433277885e-02 -1.235451830955872632e-01 4.912110130089877846e-01
-9.514351892878607220e-02 -1.238378035473004235e-01 4.980433867336477860e-01
-6.079813833218228325e-02 -7.302337006282499932e-02 4.419663560028641025e-01
-3.246302242046478909e-02 -1.165299416746978095e-01 4.856226595103713684e-01
-9.457356349840630172e-02 -1.237193980138574095e-01 4.859426181506041886e-01
-8.003334514838088276e-02 -1.129583525684885736e-01 5.249320703252745579e-01
-7.194189035223895468e-02 -1.042773233410261569e-01 4.592567807342775588e-01
-9.557507500443190862e-02 -1.163992738878241451e-01 4.630859793327028462e-01
-1.846448651587680179e-03 -1.261199544339183520e-01 5.335979037630488309e-01
-1.147156337754772493e-01 -1.165277034444783255e-01 4.984602754827797688e-01
-7.203694390451949314e-02 -1.205772573676602427e-01 4.882528873054896579e-01
-7.604168961150629957e-02 -1.231671689604118963e-01 5.055480899569902986e-01
-5.540932119542638090e-02 -1.217810913228741104e-01 5.160762578279743940e-01
-1.411016747622726233e-02 -1.231502524242891611e-01 4.932402630356655382e-01
-1.981015805636025806e-02 -1.251096424645187777e-01 5.063897885942385546e-01
-7.236374425830617574e-02 -1.136671664152583971e-01 4.715900434469256219e-01
-3.637660062868262184e-02 -9.086963163748311423e-02 4.540016776527975306e-01
-5.240435414368476048e-03 -1.207992273145317985e-01 5.456540933212996602e-01
-5.078032300917103420e-02 -1.152658283373576426e-01 4.822549592709585720e-01
-9.715306524444187672e-03 -1.248309131852520515e-01 4.966599761229105736e-01
-1.084214172715581848e-01 -1.225691302031869934e-01 4.812706272457504264e-01
-6.876985055810654057e-02 -1.227364828944141895e-01 5.065028162220162056e-01
-8.616263845000342314e-02 -1.111739708507934604e-01 4.621033597409187066e-01
-1.967829674874056745e-02 -1.037360067153773047e-01 5.634381733998231612e-01
-8.612976489910911804e-02 -1.218905487407455079e-01 4.770487130121315311e-01
-6.159712413885130855e-02 -1.041983663618261946e-01 4.610800764998101986e-01
-1.205623553385517938e-01 -1.122533269378478138e-01 4.809285010593353227e-01
-7.473967213551004074e-02 -7.722238902429423568e-02 4.404772582813442083e-01
-8.803510238744341465e-02 -1.082575303131428773e-01 4.589854867211554112e-01
-7.709275373445477475e-02 -1.230984204062237075e-01 5.062982270242025740e-01
-8.371445028212305683e-02 -6.885011423714787471e-02 4.411394575033785181e-01
-7.602627136105349903e-02 -1.226107955095028790e-01 5.106624445280292246e-01
-2.757587458012914286e-02 -1.180138935595399785e-01 5.479933319211170994e-01
-9.078417876309355372e-02 -1.215125837489554467e-01 4.688438687865204013e-01
-7.181293367509720971e-02 -1.230124866663063615e-01 5.063558221431860851e-01
-3.118305187642157056e-02 -9.512511791091037006e-02 4.572718571681517741e-01
-5.018726417979677001e-02 -1.137299096283632266e-01 5.359248164060597119e-01
-2.718850375649058126e-02 -1.240965415696231033e-01 5.261872050429001746e-01
-2.277957457550621248e-02 -1.193128833692734814e-01 4.877398986393454150e-01
-7.369264376063688893e-02 -7.676555307778082371e-02 4.404123288894207788e-01
-1.094432182600847264e-01 -1.191172770938949410e-01 4.728782001014011360e-01
-1.794552509406254284e-02 -1.261174879724561160e-01 5.261026051723417529e-01
-5.529648089035450742e-02 -1.078277085287506903e-01 4.675909348274082111e-01
-4.773355023089317917e-02 -1.217701055166433566e-01 5.095155466989281789e-01
-2.214510757040840522e-02 -1.223259499961347890e-01 5.428258317103756836e-01
-5.228489491933442646e-02 -9.243144903282496383e-02 4.522837599761307947e-01
-1.090823899119243573e-01 -1.211600028532195117e-01 4.769263877376575533e-01
-7.073891351595053278e-02 -1.222358068709191864e-01 5.129097478711865943e-01
-8.140962334042511905e-02 -1.230107819769560989e-01 4.955881090825771107e-01
-9.711357530067891985e-02 -9.373667031061413968e-02 4.509354466701497310e-01
-5.543556588596736112e-02 -1.214664909848532370e-01 5.047120256034657304e-01
-2.263027079128368882e-02 -1.244143614685700033e-01 5.324083291175708554e-01
-1.183458511506025879e-01 -1.169578214366170793e-01 4.839112128359250864e-01
-5.434204344784852869e-02 -1.218905585845067724e-01 5.153189537281632759e-01
-7.124555660765488629e-02 -1.221098419858390322e-01 5.141261134084320616e-01
