-4.124337497664264801e-02 -1.182206421124788326e-01 4.909115087010447187e-01
-2.338573897542186447e-02 -1.005397998831900619e-01 5.579345958489692059e-01
-5.662715116632154738e-02 -7.090450538713148620e-02 4.424449407676144252e-01
-6.146021338901468123e-02 -1.077981622580607979e-01 4.665485996825810000e-01
-8.751887830901818044e-02 -1.178092557426074216e-01 4.672149436413517987e-01
-8.945867036346533130e-02 -1.229502410369869708e-01 5.015461183956894109e-01
-9.731700147158882375e-02 -1.226767363846173464e-01 4.809186686609873140e-01
-2.070275401168486865e-02 -9.846123300883118101e-02 5.628815975325618393e-01
-1.126922034602343553e-02 -1.219020417762287922e-01 5.474004958835626544e-01
-4.620633054099340664e-02 -6.672345311896163422e-02 4.421705129896122966e-01
-8.865037116593836586e-02 -7.621975323131786884e-02 4.448469419733090957e-01
-4.070883691960204553e-02 -1.135180193567106727e-01 4.801340732907205533e-01
-8.766923040654164834e-02 -1.221603741815674854e-01 4.885666304111085378e-01
-8.593890071940625541e-02 -8.028359227535303289e-02 4.435736792989944388e-01
-3.906342890269160623e-02 -1.223085150802460386e-01 5.228388770238859840e-01
-1.017081802410952779e-01 -1.229701918803967620e-01 4.805372290137149283e-01
-9.177347710459426988e-02 -1.000162477033518377e-01 4.531984940819703267e-01
-1.056816867590135850e-01 -1.112204536496507190e-01 4.633774447117110507e-01
-5.431181215423769998e-02 -1.204923191127573456e-01 5.008909422085469076e-01
-9.726914328266433873e-02 -1.103622555411079564e-01 4.603726629419691019e-01
-1.118874044040382848e-01 -1.013864128378135221e-01 4.600229372034433384e-01
-9.396960735820869548e-02 -1.230581388511812480e-01 4.769708823151413979e-01
-2.984766083069312348e-02 -1.213705245773205460e-01 4.982695445205579943e-01
-9.072920756874465475e-02 -1.193782080351981217e-01 5.141966517290799121e-01
-1.620673935502724150e-02 -9.693528973714693464e-02 5.663785485763909167e-01
-1.058139121141740968e-01 -1.147676508596507244e-01 5.062653562858165923e-01
-1.156732388532350775e-01 -1.024243591454832847e-01 4.663887728604176885e-01
-5.759122532979968345e-02 -8.670604696652867149e-02 4.482173961599928425e-01
-8.217562273930044403e-02 -9.057704215529792380e-02 4.479475751639825920e-01
-5.350690455912206211e-02 -1.215396335574905617e-01 5.102211431799911212e-01
-1.244132765789217679e-02 -1.167263063599609102e-01 4.776154412049467002e-01
-4.462140551203397365e-02 -7.502511302494629941e-02 4.451294755526132851e-01
-1.865623783992430285e-02 -1.169939982286291730e-01 4.803253548643340309e-01
-7.567413977606951558e-02 -1.226559277725847025e-01 5.026958541654502621e-01
-6.683712199406469101e-02 -8.290761922313119592e-02 4.441884423153515948e-01
-2.674150937791312105e-02 -1.088278575451755575e-01 4.713169937530178322e-01
-1.344703705395272619e-02 -1.169478887888103780e-01 5.564554559723456917e-01
-4.731596320306048764e-02 -1.173905942583508971e-01 5.345870962045938812e-01
-5.245725458630810800e-02 -1.209562108821424509e-01 5.225591056647627131e-01
-7.335600382664883568e-02 -1.220251100415200435e-01 5.118156912760390975e-01
-5.762199123004626417e-02 -1.200846638374911679e-01 5.242420481018428280e-01
-1.420834773872641302e-02 -1.185129104097483455e-01 4.820751560887882037e-01
-5.991282967868551829e-02 -6.923278389287146339e-02 4.414084618658088432e-01
-7.401730406181400435e-02 -1.209511169821237409e-01 5.165490135192220000e-01
-3.733746513674003620e-02 -1.164625932961893678e-01 4.862201567543804615e-01
-2.895425620891877924e-02 -1.208566999745897402e-01 5.415216943496508062e-01
-4.671613145259616989e-02 -9.257274826027343806e-02 4.540377936861281771e-01
-7.273103117567729370e-02 -1.101203179654852010e-01 4.666386781835639708e-01
-8.640333507003540581e-02 -1.171370830724036138e-01 4.682431627124961082e-01
-1.011923017436420352e-01 -1.220573907467965569e-01 4.730736394228164943e-01
-7.393956265985636434e-02 -1.196250325773174222e-01 4.852920913440184614e-01
-1.090950678546205033e-01 -9.490012316898112366e-02 4.583937535935126428e-01
-1.114153847389021644e-02 -1.255828879077431071e-01 5.002747638649190920e-01
-5.375050235860409469e-03 -1.270183952691877061e-01 5.031958896549896254e-01
-4.319150712182299318e-02 -7.927285824773776246e-02 4.469803662441176884e-01
-3.984687783816550505e-02 -1.185221419255985675e-01 4.917743705238689089e-01
-5.005186996713531511e-02 -7.241395777255836552e-02 4.437547469302649539e-01
-6.592868897722582722e-02 -1.136255465011929144e-01 4.757769767071390876e-01
-7.507819438217591679e-02 -8.450365602143117272e-02 4.441441933210551474e-01
-5.005533293505397274e-02 -1.067707325116367123e-01 5.389992025383388841e-01
-1.100311585887680937e-01 -1.035780341356567213e-01 4.588977384870587262e-01
-5.093231246573415999e-02 -1.213513634927525092e-01 5.075214358614347221e-01
-7.852913551576036488e-02 -1.228509009197250590e-01 5.023199877053414752e-01
-5.389235993393814289e-03 -1.235705661795538646e-01 5.379545217800896229e-01
-1.184357036647480654e-01 -1.096517913001950478e-01 4.721375690904541234e-01
-7.831400376549588205e-02 -1.044563037175867959e-01 4.585719918871532519e-01
-4.356593396533024742e-02 -8.806370161663569507e-02 4.514066361295337448e-01
-1.645907652198096843e-02 -1.134116729824405645e-01 5.601134735885031635e-01
-1.500632003990830243e-02 -1.211640410857426353e-01 4.882551808604767007e-01
-6.469743937804428580e-02 -9.887988139457186409e-02 4.557527554607839759e-01
-5.136361852428632246e-02 -5.847680460362533056e-02 4.399150905652364218e-01
-5.055036892899156947e-02 -6.755805001671240373e-02 4.421379157066699372e-01
-4.186309835449488620e-02 -1.106687154599564626e-01 4.753024135029705888e-01
-1.358782706081067097e-02 -1.221772192435065241e-01 4.902281682000545482e-01
-4.658512090369148345e-02 -1.143294692120507550e-01 5.370944910128035987e-01
-4.080929275844084186e-02 -1.185467836441527895e-01 4.918998378995296794e-01
-5.618131665750342174e-02 -9.631351733307701168e-02 4.549731652896739642e-01
-7.994871859166087502e-02 -1.217336254109741001e-01 5.130595968065500001e-01
-2.302539690209793460e-02 -1.228383375035088099e-01 4.990241733958077908e-01
-1.193931627232957537e-01 -1.134728428299097980e-01 4.856433201781625297e-01
-5.615362393888034126e-02 -1.199260501663784034e-01 4.973119749667761491e-01
-7.291980014858892578e-02 -6.918897768601550702e-02 4.385190631291797647e-01
-9.281020553888123803e-02 -1.221500675616152831e-01 4.828363965273419489e-01
-6.031216325084936235e-03 -1.238243731392123931e-01 4.928159448591508118e-01
-1.031988007465491075e-01 -9.106133359736172384e-02 4.536219078452604636e-01
-2.293821198566479286e-02 -1.059005348272738650e-01 5.592459254036448169e-01
-7.811703843652650914e-02 -1.138343406488968035e-01 4.701867360902330373e-01
-4.225108772236351590e-02 -1.190291368123199689e-01 4.934678989280735228e-01
-4.906453392125865315e-02 -1.183318960058926811e-01 4.913093941915668839e-01
-2.379905088078584571e-02 -1.020518634155247878e-01 4.611614986716656150e-01
-5.671268085083107369e-02 -1.111959727975170703e-01 4.734350563226143449e-01
-1.349327837012613031e-02 -1.217236306360391096e-01 4.890302922689043763e-01
-8.798584624409619415e-02 -1.214457041908658663e-01 4.743641534565986584e-01
-5.839978607624579654e-02 -1.202312064392238589e-01 5.232735158266159647e-01
-7.172196182537148024e-02 -9.169096340865748318e-02 4.493012107406824662e-01
-1.064171733787319662e-01 -9.209270252313789262e-02 4.573116599005603300e-01
-1.775086060063119087e-02 -1.108758242669352218e-01 5.617837886920015178e-01
-4.438692013683424344e-03 -1.281220220241186536e-01 5.086741246939684435e-01
-5.639614204543650505e-02 -1.177404046952874733e-01 5.296882032426318831e-01
-2.597156576943239481e-02 -1.242499780143662830e-01 5.163323068655089054e-01
-5.239482570644018317e-03 -1.226141636131868745e-01 5.408229144962353185e-01
-1.130806543536486963e-01 -1.166805982443743644e-01 4.730752587887818161e-01
-8.828305521892591823e-02 -9.406094435957926270e-02 4.498314966828653727e-01
-7.207986219940547279e-02 -8.354113113877943697e-02 4.437550619131491736e-01
-9.929037566005925741e-02 -9.555770354886687634e-02 4.517773182588584735e-01
-6.573614698689586588e-02 -9.959919416555379490e-02 4.563291120510546417e-01
-1.194444682698591886e-01 -1.093588142984068395e-01 4.731408353385314070e-01
-2.926518546659603870e-02 -1.171430527845077479e-01 4.870010615132277509e-01
-7.099577314152120955e-02 -6.754665603949949748e-02 4.384650522596828526e-01
-6.987840389876875946e-02 -1.223269614884023582e-01 5.052666294286018989e-01
-2.391171272937031231e-02 -1.247090802459806247e-01 5.229766590441741192e-01
-1.378377818218088149e-02 -1.195972770022911968e-01 4.843154999214571155e-01
-6.859779070586988214e-02 -8.643991628072963951e-02 4.461240286194424476e-01
-4.284812289158722309e-02 -1.109135153290718712e-01 4.757464798115581539e-01
-5.124350226713043216e-02 -7.540615661124631941e-02 4.446615974267385529e-01
-3.342482659542965473e-02 -8.455409946085762352e-02 4.495321570731188876e-01
-2.140237164327492281e-02 -1.019814826037413330e-01 4.601046528592431240e-01
-2.765780456581041699e-02 -1.210755390902995138e-01 5.421091976300446147e-01
-6.191518016753707471e-02 -1.181255018766012299e-01 5.263533453057802625e-01
-1.112763117413496650e-01 -1.207719396678483964e-01 4.988855437655224656e-01
-3.062506713498098707e-02 -1.223908197598595760e-01 5.346804788325407731e-01
-7.402363045785213813e-02 -1.205809218335111149e-01 5.177029572597519058e-01
-2.114837467485269212e-02 -1.216710837092426639e-01 4.938901580921993828e-01
-6.909239801858362007e-02 -1.219939085795336137e-01 5.111582566235148839e-01
-9.595182201131535749e-02 -1.215567681351950452e-01 4.673648329501469689e-01
-4.841771798505459246e-02 -6.403451699614981507e-02 4.412670832702350054e-01
-8.857334624176148308e-02 -7.219147872800842081e-02 4.459180666352843825e-01
-4.488847002033082706e-02 -1.219343322066217539e-01 5.156847360851027906e-01
-1.122923802074729249e-01 -1.218492655832877636e-01 4.907431575322279693e-01
-2.337908230751943942e-02 -1.007453988229539271e-01 5.580077904059791427e-01
-2.300580573268338688e-02 -1.182465869684158899e-01 5.510238388212672644e-01
-4.692977103989095372e-02 -1.217252861524086571e-01 5.127710239669344139e-01
-6.384214409107789867e-02 -1.090748525573989186e-01 4.680282513690564583e-01
-1.153076242866938467e-01 -1.021119685025558138e-01 4.656585735438869000e-01
-4.413495184484853007e-02 -1.217394858983638362e-01 5.095028733762119177e-01
-2.716796305070926301e-02 -1.100255821615650637e-01 5.534519175810422853e-01
-7.711251021527934513e-02 -1.223221433267135255e-01 5.092761202401824283e-01
-7.168162454711748954e-02 -1.122135471033730986e-01 4.705026425056489381e-01
-5.787182619521210464e-02 -1.012029056224580253e-01 4.590554835262028455e-01
-7.757444824439710396e-02 -6.376019998671957068e-02 4.381434091076297777e-01
-1.208991661776003396e-01 -1.107003936841278180e-01 4.834048744068514258e-01
-4.071556894175423769e-02 -1.221784870927638406e-01 5.211310762391220264e-01
-1.990617575171953549e-02 -1.111252479716429015e-01 5.604351165922376588e-01
-8.255779433616274032e-02 -1.219847527663380782e-01 4.922914638168627288e-01
-5.054652939706064108e-02 -7.850121645986994634e-02 4.459101400746115496e-01
-9.136906948329311107e-02 -9.121427669266866933e-02 4.484389390640565187e-01
-3.019323505610536224e-02 -1.162274954423167805e-01 4.853020376545523762e-01
-9.972458851004997737e-02 -1.205395636594899927e-01 5.060699825284912245e-01
-9.263500360218107632e-02 -9.274323328531054733e-02 4.493263241011937748e-01
-2.784504598291054345e-02 -1.217903445564992582e-01 4.984735690991533574e-01
-7.911016327975879669e-02 -6.691417043128490560e-02 4.387973645771151565e-01
-6.813011154833349681e-02 -1.148480226667328297e-01 5.279452456487818690e-01
-6.212147934512579628e-02 -1.200059620345608064e-01 4.951167414908161368e-01
-5.548374453509254470e-03 -1.286634372455497111e-01 5.200466394641000134e-01
-9.884476257899188489e-02 -1.156078262136519957e-01 5.122651306782027847e-01
-3.725520680258615630e-02 -1.224075250092793998e-01 5.120593187965232218e-01
-4.333815972391874549e-02 -9.665346395084063735e-02 4.581694293108570792e-01
-1.039531121025181887e-01 -9.086022191270148873e-02 4.548593283847697233e-01
-4.551125462562819607e-02 -9.223779785516487972e-02 4.540665256667388849e-01
-4.791074478282080634e-02 -8.287254476335020881e-02 4.479508323672427572e-01
-9.885804421471343362e-02 -1.200940432634851202e-01 5.074994136534604072e-01
-8.000274366294081799e-03 -1.253183431223493238e-01 5.343993962517153973e-01
-8.108544079034273044e-02 -1.211737707004882925e-01 5.152138662830842986e-01
-2.661825790843570447e-02 -1.224659971911184059e-01 5.006751889983704906e-01
-4.207475042573491364e-02 -1.069454548844332997e-01 4.692952570308013271e-01
-1.536052824093936224e-02 -1.255799968960043256e-01 5.324523925434997418e-01
-6.991232358297300165e-02 -1.216998634982173755e-01 5.139176595463550434e-01
-6.677179475354953417e-04 -1.290045297989763085e-01 5.150943109869939862e-01
-2.940822378327629175e-02 -1.234232537598813073e-01 5.116855993815871972e-01
-1.811750407699760923e-02 -1.092496034325497745e-01 4.678679394759129861e-01
-6.155958924710975416e-02 -1.039151366335273330e-01 4.613728961065146073e-01
-4.431267697255616977e-02 -1.218848522676118096e-01 5.134164862453002298e-01
-1.070112010935867289e-02 -1.221869387381358391e-01 5.458733737669370090e-01
-8.273162638411156455e-02 -1.170342379190630056e-01 4.714027686640352433e-01
-4.066400050372906416e-02 -7.888551131280775730e-02 4.467293209729205627e-01
-9.138284530388231242e-02 -1.107368930850792105e-01 4.605711279805466685e-01
-7.935647260689723814e-02 -1.015729194158487142e-01 4.558842216083450194e-01
-3.172423827807593216e-02 -1.199964351983772853e-01 4.944124637201002259e-01
-5.690144574653391296e-02 -8.182765878679150451e-02 4.460002868559519995e-01
-4.148711384848009776e-02 -1.198998688361799930e-01 4.968660985454520507e-01
-6.945407704966782836e-02 -1.029199734684373840e-01 4.589691712522503408e-01
-8.997682897968591054e-02 -1.231303366313202530e-01 4.999134325862860662e-01
-9.696390173697579107e-02 -1.219738440675526558e-01 5.050463734029382312e-01
-6.640956777021771174e-02 -5.857606047794493981e-02 4.382960985265633713e-01
-3.681688456640973273e-02 -1.153927664327391300e-01 4.839295519498765241e-01
-4.768870811120826114e-02 -1.112315989680346534e-01 4.758225531558668564e-01
-7.785891471700001620e-02 -6.611435282514536993e-02 4.379531293860504104e-01
-6.787459909027501737e-02 -1.171862758012122696e-01 4.828797096050084225e-01
-7.696692919431431801e-02 -1.224611750101102930e-01 4.989681301265607161e-01
-5.694752176376075697e-02 -1.203768939060789189e-01 5.232894442457104445e-01
-5.562817240349747505e-02 -1.199277110225469983e-01 5.250610647084789084e-01
-5.657911223344846280e-02 -9.451054644925988013e-02 4.534585982744336885e-01
-1.044014036872569634e-01 -1.152676482643406747e-01 5.067685341794119225e-01
-6.894934012324489825e-02 -1.185439689563519416e-01 5.225718026076340283e-01
-6.572884393478180265e-02 -1.183934701016545604e-01 4.871491830072199325e-01
-6.788851397969601631e-02 -1.222460381609625779e-01 5.070772153627048917e-01
-1.803692359513117682e-02 -1.205987016074407392e-01 5.487485306657813311e-01
-9.564033021711390581e-02 -1.238847584294155008e-01 4.741026047494302786e-01
-6.772334919538601505e-02 -5.812851481179930752e-02 4.386389054337036519e-01
-9.698693786286807783e-02 -1.045642583755264643e-01 4.564106967200758369e-01
-9.828310042977543570e-02 -1.235316679705458914e-01 4.860332104979703249e-01
-5.825431976071644702e-02 -1.201174375078007533e-01 4.976601539112678885e-01
-5.371022616395671606e-02 -1.214893373701269458e-01 5.094968462456715974e-01
-3.348940686260978850e-02 -9.955779261183202167e-02 4.615004127298910075e-01
-1.180478391550648515e-01 -1.113526311057765200e-01 4.728736317174373482e-01
-1.045729020460941100e-01 -1.115246422919430186e-01 5.090231440197791057e-01
-1.885897064808611696e-03 -1.289480186097357595e-01 5.238992156985088355e-01
-6.167140419319458444e-02 -1.181850479607360616e-01 4.883190514621785216e-01
-2.091512318108296881e-02 -1.249400552976522721e-01 5.077559832029312492e-01
-1.143319067024005514e-01 -1.205797865700251048e-01 4.816537499786627263e-01
-8.213921215225915284e-02 -1.038520410982346348e-01 4.571107350027867056e-01
-1.162119674003623399e-01 -1.197617139730659530e-01 4.925491934069053390e-01
-5.807382053024627566e-02 -1.077107906650195956e-01 4.673927728716471552e-01
-6.999972544771618232e-02 -1.106755751474439858e-01 4.686905912104232241e-01
-9.965771896539907249e-02 -1.156744813461230148e-01 4.654447515416277881e-01
-7.743709685057803549e-02 -1.092419046984506315e-01 4.639471478373394797e-01
-7.331835661672700399e-02 -1.024703907213646986e-01 4.577967607154924123e-01
-6.869901737864955726e-02 -1.113771107778829678e-01 5.292526444641230121e-01
-6.479094251903153023e-02 -9.885370701702898832e-02 4.557163723420230017e-01
-2.794563871268890276e-02 -1.031416416318166052e-01 4.639991383752530840e-01
-6.896542874346285601e-02 -5.653071236672885247e-02 4.394097458904953624e-01
-2.373218633962650460e-03 -1.279035501791157825e-01 5.292430100286140693e-01
-1.084492010784765120e-01 -1.206331346920484354e-01 5.006156444285263518e-01
-8.973858596729114567e-02 -1.191632276154779013e-01 4.656991278627614639e-01
-2.034633611464783595e-02 -1.255201450292063314e-01 5.179036910227067247e-01
-1.687517922761809161e-02 -1.144707514762843686e-01 4.752585992643472146e-01
-1.670469957587311996e-02 -1.102129629187807575e-01 4.687585540513730109e-01
-9.883807640999688060e-02 -1.239514798329880291e-01 4.726441796230370640e-01
-2.078203267262105844e-02 -1.154979153076742815e-01 4.790396974048413692e-01
-8.465209998806649816e-02 -7.056327596757556997e-02 4.412345388230753951e-01
-8.323714180500724202e-02 -1.228801158487303896e-01 5.001871383468106114e-01
-7.373016770321158542e-02 -1.065398226248445573e-01 4.619310573868277148e-01
-5.246656114317580638e-02 -1.215770100074822918e-01 5.170951578562223983e-01
-4.103980962722737769e-02 -8.824942143867522959e-02 4.518288957165890185e-01
-9.983817370011248415e-02 -1.234858168590137056e-01 4.718287973086390807e-01
-8.861260291806426215e-02 -1.180550729661827419e-01 5.159152875967527585e-01
-6.336529472756542714e-02 -1.043785002199280054e-01 4.615698757593227342e-01
-4.754607801666384248e-02 -9.286743369337518983e-02 4.540690542196342272e-01
-9.671056639823780166e-02 -1.210082909033346060e-01 5.092834388046304506e-01
-1.167061492043292986e-01 -1.202792796865115865e-01 4.869520485557472522e-01
-1.021609513580009759e-01 -1.191120721764018231e-01 5.058825632435869357e-01
-8.413657922656027355e-02 -1.194966505150041880e-01 4.745414546220857455e-01
-9.588898272408991064e-02 -1.221784962483240811e-01 5.041021559428677801e-01
-5.383278291477362060e-02 -6.033940586714515303e-02 4.400374788809025550e-01
-5.944678957276355175e-02 -1.112230121999633059e-01 4.727863291004125723e-01
-6.776106712332419235e-03 -1.279134004815819237e-01 5.262618136390487811e-01
-2.940705337220274676e-02 -1.015573512340722240e-01 4.626376691683002917e-01
-8.129448421848757544e-02 -1.199902633408059388e-01 4.786635377625452215e-01
-6.013002588783160351e-02 -8.599235712333665183e-02 4.473117170575190427e-01
-1.073132131059356502e-02 -1.269820924531462614e-01 5.266521566437584179e-01
-4.365870493463185065e-02 -1.212653039165576679e-01 5.294654978582896687e-01
-4.169791051560050449e-02 -9.272481483680472536e-02 4.552641549148583322e-01
-1.654541459172619369e-02 -1.259830531360693895e-01 5.081972752539527516e-01
-7.804751300492511479e-02 -7.029493609775633312e-02 4.389092652539479111e-01
-4.560117380857473673e-02 -1.204192601052842815e-01 5.309240205525944667e-01
-6.135431402274919843e-02 -1.140655567841654117e-01 5.308875508523537290e-01
-1.177678023149710124e-01 -1.046611658058976824e-01 4.706759109008168407e-01
-5.745081250193964650e-02 -1.214287350724679998e-01 5.073635269699727779e-01
-6.572701107547510024e-02 -1.212173641301045879e-01 4.990768123595576977e-01
-5.206502858903905295e-02 -7.210208811070144275e-02 4.434448440376246858e-01
-7.085092029161171867e-02 -9.453929380364688162e-02 4.515338096042125771e-01
-7.158934513572548508e-02 -1.196094340623627128e-01 5.201441358945637639e-01
-4.971013414543001829e-02 -7.808106056936707506e-02 4.458511037444363723e-01
-6.891914791503903071e-02 -5.456880630243629571e-02 4.401497971000334353e-01
-6.534914272621585030e-02 -6.041023595263085577e-02 4.385866071102478836e-01
-1.089120910789570934e-01 -1.022240099006158365e-01 4.577262215190791017e-01
-7.803886391865849648e-02 -1.120299297017653684e-01 4.672213051032728104e-01
-8.073051461314427468e-02 -6.501741175792814798e-02 4.401353534325358474e-01
-4.341370654301440757e-02 -1.209555968244181018e-01 5.316073282324745852e-01
-4.058342362194310160e-02 -8.781557276657718514e-02 4.515253501193265961e-01
-6.653078388740772675e-02 -9.317356763300825573e-02 4.509175575574355666e-01
-2.863355050504175908e-02 -1.169742737317261971e-01 4.865275460886615555e-01
-8.229274850073160785e-02 -1.093876319130835800e-01 5.236604860517997118e-01
-9.227153430604756457e-02 -1.083079474709035817e-01 4.589647324379512727e-01
-5.500678071513519923e-02 -1.214841110191265117e-01 5.094121416058137175e-01
-9.676963031969233742e-02 -1.231030739572674254e-01 4.985613329172706165e-01
-8.880222945356627817e-02 -9.356767500753110367e-02 4.495682735737761559e-01
-2.921183147256502244e-02 -1.197762718526620557e-01 5.436361135831062619e-01
-5.368673775657547415e-02 -1.167557149189235033e-01 5.322558610220856634e-01
-1.630723316373500556e-02 -1.114798995697704881e-01 5.618507586702931045e-01
-9.984160528976603055e-02 -1.213971333795913626e-01 5.042553286687421199e-01
-5.737199032623360034e-02 -1.176151087394424061e-01 4.879242551006256479e-01
-8.048378302479165802e-02 -6.524279500198414128e-02 4.399348785163553766e-01
-4.187969117561791965e-02 -1.219569965590196758e-01 5.106840513356746269e-01
-2.217562871313330866e-02 -1.245989755196393878e-01 5.314924967188882077e-01
-1.133023936897743777e-01 -1.191723304099741726e-01 4.771722088895188341e-01
-9.674944163733294189e-02 -1.236735248127764086e-01 4.749153682784215125e-01
-6.143901311185361036e-02 -1.216999340382475814e-01 5.062272531553033694e-01
-3.700114343714525772e-02 -9.042852330846513909e-02 4.538305660677521836e-01
-8.765139839408253586e-02 -1.229938292721465126e-01 4.976420247591908930e-01
-4.442108738312966487e-02 -1.197915326095013722e-01 4.970777090553212818e-01
-5.247295524758664731e-02 -1.206961510195949105e-01 5.022397377962376508e-01
-1.450406698370448541e-02 -1.217079115213721419e-01 4.894689873695060034e-01
-2.383924100079262004e-02 -1.245383637379305769e-01 5.289397357430645208e-01
-7.842023018375215981e-02 -6.538321277682514199e-02 4.384355971306272970e-01
-3.445652100243873361e-02 -1.162683571263379567e-01 5.433649840522069008e-01
-8.837164552652577998e-02 -7.740758093649595384e-02 4.443946015921244053e-01
-7.073051280406744690e-02 -1.131224081361039274e-01 4.724331488638582877e-01
-7.992354173556791286e-02 -1.222497812944879914e-01 5.101139572591616433e-01
-8.954005249526360288e-02 -8.936257333472774622e-02 4.476459843984327835e-01
-6.072997660778482049e-02 -7.158848820325415530e-02 4.418304413812162990e-01
-1.134332617444318153e-01 -1.199207597861189911e-01 4.788607484423939020e-01
-4.259147526720401256e-02 -9.783950063366421424e-02 4.593406136609909374e-01
-2.840765955107722035e-02 -1.019158178529240705e-01 4.627329840450378207e-01
-3.393172016692991289e-02 -1.210288388996966225e-01 5.369728359336740642e-01
-2.096680960056889614e-02 -9.831300439134427194e-02 5.625516837638540046e-01
-4.742696615790675807e-02 -8.304113390268240413e-02 4.480708510929037325e-01
-3.002147620204395281e-02 -1.207560665952516488e-01 5.407770097050456082e-01
-8.104816697787760316e-02 -1.204555512944680412e-01 4.879107708753411821e-01
-3.137530696404021435e-02 -1.156055012929684545e-01 5.465607373234635524e-01
-9.126833450914811560e-03 -1.278887741367816799e-01 5.140654091894462097e-01
-4.522509501624290967e-02 -6.363526265790972469e-02 4.413692286722899483e-01
-6.753696235524229985e-02 -8.105633713854944189e-02 4.430951176541624847e-01
-5.918218118640398984e-02 -5.943639245649484648e-02 4.393495331336754184e-01
-1.413703171800707176e-02 -1.180535037305386614e-01 5.545698666300551416e-01
-6.211795366505461213e-02 -1.199340323734396502e-01 5.231683261334061363e-01
-3.555087405872096179e-02 -1.109518227621100195e-01 5.441936970545840913e-01
-1.156193169239093099e-01 -1.163316854117507210e-01 4.756959984593824298e-01
-5.240575791623738877e-02 -6.406284036814530181e-02 4.409220547756025343e-01
-3.973068504327734174e-02 -1.221614779810701601e-01 5.252165724660741164e-01
-5.320139020337822516e-02 -1.060213294057456707e-01 5.374440976601143616e-01
-1.029748445122671135e-01 -1.150482365657475858e-01 5.081568862638533579e-01
-3.167070938507864780e-02 -8.871570722305703594e-02 4.523549411243547036e-01
-9.050431563422789427e-02 -1.142293504096147660e-01 5.173457488382217084e-01
-6.306156155624501047e-02 -9.520202905899588508e-02 4.529342211645708827e-01
-1.153067893905516117e-01 -1.210919456885890394e-01 4.865465254135373230e-01
-3.267610135090976559e-02 -1.222651384737828556e-01 5.057505332092355754e-01
-2.240664506241416692e-02 -1.249424097512903814e-01 5.134431118906102043e-01
-1.599524063888579234e-02 -1.253021509602472161e-01 5.039099852383676081e-01
-1.025422410776768156e-01 -1.110990479136438475e-01 4.623993248328735484e-01
-8.567119359053015915e-02 -1.112571878946774645e-01 4.631264585468253259e-01
-8.388386402163477973e-02 -6.792453653298025085e-02 4.413925235083971943e-01
-3.946684030639863172e-02 -1.217641477923941257e-01 5.292746208276634112e-01
-3.091936813279258511e-02 -1.163335076381615679e-01 5.466195006532942324e-01
-3.600809227541965779e-02 -1.179849052497388417e-01 4.896003176977294369e-01
-3.576662209358156402e-02 -9.263258058487737479e-02 4.557328098357708024e-01
-1.815595886738552434e-02 -1.180732768711875297e-01 4.823808728454613282e-01
-9.520750917906019295e-02 -1.194315269515304617e-01 5.121270557462216377e-01
-8.842424711728565090e-02 -1.217358355406648607e-01 4.760397654103191711e-01
-3.445296786477455853e-02 -1.104116814853603190e-01 5.450475101333276395e-01
-6.658013216150437952e-02 -1.069725991974768281e-01 4.640448284644275168e-01
-6.964582182090027496e-02 -1.216450755518316829e-01 5.143364905769433060e-01
-4.509638787607121724e-02 -1.173066372967523641e-01 5.363085593762869641e-01
-5.965014648388049928e-02 -1.183380858321805146e-01 4.897580626557688777e-01
-5.751371565924465884e-02 -1.210741102367084571e-01 5.033306822739677111e-01
-1.339942475624033430e-02 -1.240807105189643544e-01 5.387622127578141074e-01
-3.659227201438349647e-02 -1.213234283452418322e-01 5.345005342247676206e-01
-1.100610295923636489e-01 -1.209927496159629301e-01 4.989256576075875582e-01
-1.770955787012714125e-02 -1.261765402038914075e-01 5.204875084078974812e-01
-7.158833469474307210e-02 -1.224058865665819257e-01 5.038834986456458553e-01
-8.502300750907362814e-02 -8.170216605079980154e-02 4.436799948909659341e-01
-4.738234005326577569e-02 -1.080820658616961638e-01 4.706986823499559325e-01
-4.993229257397956838e-02 -1.211534732441730544e-01 5.057937694825306307e-01
-6.009674913522534273e-02 -1.097630200764426328e-01 5.328116528374701177e-01
-2.666774586673847924e-02 -1.061031025651614640e-01 4.673805479595291024e-01
-2.567871687885855264e-02 -1.175276457172395733e-01 5.504911299094377153e-01
-4.221024272020142132e-02 -1.206347717571515654e-01 5.345132358123380056e-01
-2.028527005429656832e-02 -1.246344392133462570e-01 5.049462835936275873e-01
-1.181779718126728662e-01 -1.088407909373114574e-01 4.712555226421296650e-01
-5.387495675245702886e-02 -1.212002391749865682e-01 5.054965350064487550e-01
-6.241772874328330861e-02 -1.214111949973387811e-01 5.166176026812001609e-01
-3.784683579441654872e-02 -9.743157912911065699e-02 4.595680583230972727e-01
-9.042633912610696656e-02 -1.231726615826551768e-01 4.938339074282344643e-01
-5.267372063919645991e-02 -1.171552631278082318e-01 4.875107420361632360e-01
-6.665724664813453548e-02 -1.219439165234578737e-01 5.111216803899827354e-01
-2.218352332836367319e-02 -1.212209262575212054e-01 4.932211001139392148e-01
-4.755058534294585859e-02 -5.810809990274255071e-02 4.399742425172999960e-01
-5.817518578311763056e-02 -1.155477205445353261e-01 4.822463400421675983e-01
-5.351719166255210214e-02 -1.158271454810774065e-01 4.837111150004134719e-01
-1.171556268665348288e-01 -1.202568345892260082e-01 4.888515288259162594e-01
-3.884868249752863878e-02 -1.185587284069104658e-01 4.918367802506902198e-01
-1.229699651772348315e-02 -1.034205091727774528e-01 5.664830917387906339e-01
-7.901233793760525925e-02 -9.239317861807573584e-02 4.492059014152757213e-01
-5.169223650968025885e-02 -1.192781466425440612e-01 4.953148626907118435e-01
-1.004969594119817372e-01 -8.662592699792029394e-02 4.537507279068470623e-01
-2.549956054125660648e-02 -1.022477758774383017e-01 5.547337597580319635e-01
-9.111025550046063237e-02 -1.232297325088540091e-01 4.987063429407991855e-01
-2.052076708944920724e-02 -1.102388084099649029e-01 4.705290496514510368e-01
-3.377993992383408750e-02 -1.058263317498418787e-01 4.679995387162205200e-01
-2.196734346010381644e-02 -1.249318419795343027e-01 5.116692065917248788e-01
-9.717054569880669707e-03 -1.229155925047361875e-01 4.909710570949133990e-01
-4.700998268887375542e-02 -9.802190904095994806e-02 4.585136098728737619e-01
-8.225965841357700536e-02 -7.899751636814758560e-02 4.418340767027915117e-01
7.552702015253266157e-05 -1.289944385724773601e-01 5.210950372433010847e-01
-8.437827231361637315e-02 -1.220825950407110339e-01 4.906145205826732969e-01
-9.275549826394394182e-02 -1.223589305001169386e-01 4.841722209991943249e-01
-1.005241553674157129e-01 -1.111168147607049517e-01 4.618326375440801046e-01
-9.605908919660069434e-02 -1.235304444073628966e-01 4.927912862410084860e-01
-9.375033299945496890e-02 -9.220371382039857511e-02 4.491141242544473000e-01
-1.062911648527938568e-01 -1.203503929327139343e-01 5.023535530682924355e-01
-1.004765152433764186e-01 -1.180105798814343743e-01 5.095991357616650452e-01
-9.082734165804802473e-02 -1.204474687908929087e-01 4.685405763279572589e-01
-3.001524448399880279e-02 -1.235055602491518800e-01 5.243954544352608105e-01
-8.079106229061386313e-02 -1.215572627432636721e-01 4.919252508631404286e-01
-8.672004835061505879e-02 -1.230284135542999147e-01 4.991240045665210068e-01
-3.043489931674934340e-02 -1.073234296580295732e-01 4.695730219733660893e-01
-6.936849458227517529e-02 -8.058039918444162564e-02 4.424918029123791063e-01
-7.199856621124081646e-02 -1.095382284029316894e-01 4.659954306301830607e-01
-8.585601259860231593e-02 -1.164113268419749575e-01 4.664662345638503349e-01
-7.455022854079203232e-02 -1.189159349103794672e-01 4.827408628349074138e-01
-4.259047927820222568e-02 -1.146089469840674002e-01 4.822262983145029769e-01
-3.125480911791128635e-02 -1.161582684241966451e-01 5.463766276117416609e-01
-8.257048403261660341e-02 -8.176562909892892694e-02 4.431711949117319027e-01
-7.392636524994841175e-03 -1.264394527202816754e-01 5.017478266470480897e-01
-1.139710820235393940e-01 -1.127868244683682269e-01 4.690300340229905940e-01
-8.711856960354771862e-03 -1.266457305243087750e-01 5.303185250120221461e-01
-6.458332500440082391e-02 -1.206262539674373413e-01 4.965512179545527593e-01
-8.510004906942177094e-02 -1.227654175969277867e-01 4.961673943165788581e-01
-2.150435720100021819e-02 -1.060551071630684156e-01 4.651422554415388655e-01
-1.896794350941923696e-02 -1.145775083346497053e-01 5.578981338799594569e-01
-2.439299082517976461e-02 -1.093144037914169919e-01 4.713029600863372637e-01
-3.829037509775462533e-02 -1.205169199081222997e-01 4.987151872121623475e-01
-8.435898273366285172e-02 -1.225462681766583267e-01 4.935754410865503261e-01
-2.714088719842933789e-02 -1.027996118221446015e-01 4.632986282712662773e-01
-7.645471711918522262e-02 -1.199042687143266339e-01 4.854049685504361333e-01
-5.452986070362085547e-02 -8.022585350214785083e-02 4.458225864648224235e-01
-1.697271070508305987e-02 -1.210451907500759705e-01 4.891130871203268615e-01
-5.894149553633915191e-03 -1.259719331593296687e-01 5.328170839210626397e-01
-5.238701342278256901e-02 -1.145808555449964322e-01 5.343708571899692394e-01
-1.142195950556679773e-01 -1.068268511275584920e-01 4.646494272768082467e-01
-6.093017405354067551e-02 -5.715965703709326162e-02 4.387184465460089999e-01
-3.474511002769119922e-02 -1.165859758506848642e-01 5.426702984148917830e-01
-2.608748657415996611e-02 -1.173516104037379965e-01 5.503024960972739965e-01
-3.277548619030326571e-02 -1.042394184735073309e-01 4.661654445311970152e-01
-4.390637881494317829e-02 -1.186843066530692409e-01 5.359553824866740701e-01
-3.369128038554559251e-02 -1.091391942452090841e-01 5.455748509494383613e-01
-6.396059191291512958e-02 -1.132136896758180050e-01 4.756005527029639190e-01
-1.111955472716048485e-02 -1.026552659810371221e-01 5.669345503537590591e-01
-2.487229695886928466e-02 -1.031040829466535469e-01 5.560913764030085416e-01
-6.022557716275420830e-02 -1.197402777092982651e-01 5.245666917780795746e-01
-2.862068375245026969e-02 -1.237740517206693119e-01 5.188293663507612674e-01
-6.798808465177581285e-03 -1.246780982694689899e-01 4.955079484032022252e-01
-8.729023666593227482e-02 -1.130525786364381946e-01 5.198216409534426319e-01
-4.891366128573014505e-02 -1.203302996108994577e-01 5.001690338161847160e-01
-8.077146703638916903e-02 -1.201241451025904933e-01 5.172971959365497696e-01
-7.188727989526003115e-02 -1.176265786390816165e-01 5.237782974570078798e-01
-1.495958341800448718e-02 -1.251214532996615392e-01 5.018280143130423587e-01
-6.079090125317006960e-02 -1.186386069779312435e-01 4.905128823553180362e-01
-7.572864241037637056e-02 -1.105666741809629428e-01 4.660559614652529103e-01
-8.990125799536978490e-02 -1.213189761788047577e-01 4.717664221572038241e-01
-4.099235346842521055e-02 -1.221213124400300221e-01 5.224576788764303537e-01
-9.866492359339794349e-02 -1.235979453911651704e-01 4.874669822654275064e-01
-1.106405138072380917e-01 -1.155757035355808038e-01 4.701256575120352776e-01
-3.003146100925799256e-02 -1.123714266303082604e-01 5.489888251765858707e-01
-3.069277069084357795e-02 -1.234297717563366675e-01 5.179936928562093312e-01
-7.935929229158174281e-02 -8.708819828904974802e-02 4.456442384771610032e-01
-2.467614529269870557e-02 -1.236688818463305833e-01 5.333110696525240613e-01
-3.073188221671762158e-02 -1.011851720723191267e-01 4.625541846810303781e-01
-7.234846429647061317e-02 -1.210992868785692594e-01 5.164592546096857806e-01
-5.557086253153695893e-02 -1.201344689495737195e-01 4.983949560670033474e-01
-9.531137369373511581e-02 -1.115440927532665022e-01 4.609108551043638036e-01
-7.839986494097629655e-02 -1.229150770265116377e-01 5.036259672637571905e-01
-1.135037925059092234e-01 -1.091816839098499747e-01 4.649713337082460596e-01
-2.400213380268661351e-02 -1.246816887496864368e-01 5.181886797782372378e-01
-1.065845083640940966e-01 -1.144934281188295377e-01 4.668934931223714391e-01
-8.088795296717973815e-02 -1.067765921615962538e-01 4.601186200668692661e-01
-1.602378880864892621e-02 -1.134394472552486127e-01 4.732416212654412813e-01
-7.645428949269894581e-02 -1.206641912475113210e-01 4.887690266669587613e-01
-8.252383262549808571e-03 -1.281589289015422073e-01 5.209523862186079546e-01
-6.397456247675951946e-02 -9.079819208376525841e-02 4.495761288501589070e-01
-6.469282259090431211e-03 -1.284466212363667981e-01 5.226630663725779780e-01
-5.860980656535690753e-02 -1.214027540270620487e-01 5.150386168486067451e-01
-4.612804107929382308e-02 -1.134106180832871458e-01 4.798087794613717927e-01
-2.891707133673986074e-02 -1.061989946591079537e-01 4.678584595230723120e-01
-9.623128229549572643e-02 -1.100031686101918815e-01 4.599628961462189913e-01
-9.635889707416925298e-03 -9.729276399084264837e-02 5.695643001769024050e-01
-3.681182824878425491e-02 -1.210481945065661064e-01 5.006962805802632754e-01
-3.043545644528890953e-02 -1.080952290849169772e-01 5.490214462629456893e-01
-5.885991653556287700e-02 -7.159330220772219810e-02 4.422790718662087950e-01
-1.795566370749796317e-02 -1.237135548638745308e-01 5.400242701992042926e-01
-1.206039680789100371e-01 -1.111609171106736349e-01 4.830384747378249632e-01
-8.186566211943405169e-02 -1.223596188939032881e-01 5.089360428063716135e-01
-4.562038572467810166e-02 -1.169763423550561621e-01 5.362658215870388378e-01
-2.185747354458718317e-02 -1.226022387115325990e-01 4.975589152027011242e-01
-9.848882162528690976e-02 -1.138369234368050986e-01 4.630113236426338652e-01
-2.764173003394248748e-02 -1.140204221353257052e-01 5.512356335564543297e-01
-1.149201097724721066e-01 -1.188006481629718947e-01 4.955876479119423750e-01
-3.977900288475317431e-02 -1.124971826513311984e-01 5.419444187604304242e-01
-2.606704248207167979e-02 -1.234428182957219428e-01 5.055202670376022223e-01
-1.037942922469995005e-01 -1.024670622968248124e-01 4.560322009297381185e-01
-1.149079641873725216e-01 -1.034952355826858628e-01 4.646744406110049352e-01
-1.687687247837012239e-02 -1.127726517720906291e-01 4.726309352754864967e-01
-5.661743942391508216e-02 -7.369501619333664044e-02 4.433032586559609300e-01
-5.270574722536042200e-02 -5.711737896195601127e-02 4.395797838580340344e-01
-9.453453277222571838e-02 -1.230373051624872177e-01 4.862804507198378312e-01
-7.128176893652969637e-02 -1.187495717890049429e-01 4.849767267330078457e-01
-1.178969838042322471e-01 -1.191589621605721738e-01 4.890503765378826362e-01
-8.118579148949302271e-02 -8.885135563489150734e-02 4.468721528632580986e-01
-5.795793386412594062e-02 -1.207704211443544062e-01 5.211627791308180990e-01
-2.716042658779673283e-02 -1.227101338872230718e-01 5.025260570959876327e-01
-5.687931336422895334e-02 -1.206643921412790948e-01 5.012147238091192447e-01
-8.064291577182314263e-02 -1.105521092762815488e-01 4.640723918839711470e-01
-1.119013700270137107e-01 -1.172591076813354477e-01 4.728384013380446671e-01
-3.524357536745243574e-02 -1.175330241913620233e-01 4.883691603721402319e-01
-3.667452023236140307e-02 -1.216209863999058866e-01 5.038019087276767172e-01
-8.273566131573717453e-02 -1.220517397909554047e-01 4.924103142644730702e-01
-1.164263994488117654e-02 -1.274762254226015357e-01 5.167573954533030145e-01
-6.880272741806227332e-02 -7.845112482311224211e-02 4.419440303637861556e-01
-1.002564964199804121e-01 -1.162377100379494849e-01 4.663770076089260863e-01
-2.004166677028764235e-02 -1.238329755545567457e-01 5.005445266767555301e-01
