-2.998072854698309933e-02 -9.753721139871796009e-02 4.590221796178921010e-01
-2.535446198395231374e-02 -1.049311964404978648e-01 5.551404966604295277e-01
-6.388790818799633398e-02 -7.792043245385738004e-02 4.427279520572923177e-01
-4.339133270361382466e-02 -9.815249335582623691e-02 4.590189636713408183e-01
-6.505628978496964809e-02 -1.063572569738736318e-01 4.625201592642930737e-01
-8.317002739914763909e-02 -8.752495085021202992e-02 4.455480551150887703e-01
-7.886970973076536107e-02 -1.233147867271812276e-01 4.965981531117400483e-01
-1.800386532225990710e-02 -1.248085983488886885e-01 5.029719517736416234e-01
-1.012132135524818483e-01 -1.248583719225120625e-01 4.941864865509428828e-01
-8.989935569777023072e-02 -7.342154120835978071e-02 4.477360252664800422e-01
-5.848761947280541051e-02 -1.046596313114070975e-01 4.620239083054983875e-01
-6.266539522438899223e-02 -9.418603911116484040e-02 4.517447365001834858e-01
-5.191243948725517837e-02 -1.214287938424203489e-01 5.227795748914495499e-01
-4.209257466894766875e-02 -1.182221094638453013e-01 4.896852846023866390e-01
-2.507023026652280967e-02 -1.225717730438025121e-01 5.391579408566561371e-01
-8.791409139847244925e-02 -1.122148903281742355e-01 4.620065189897930580e-01
-1.160318003957831051e-01 -1.042190208431770654e-01 4.681566183305624351e-01
-2.235179683291104585e-02 -1.225855181029969487e-01 4.974178998102924965e-01
-4.556134596652419710e-02 -9.977205060500968226e-02 4.599044261937825229e-01
-5.973157159794274806e-02 -1.133248232318685295e-01 4.753286188290259395e-01
-1.144916139994126003e-01 -1.167680575170992052e-01 4.987014372064282886e-01
-1.066931956445346446e-03 -1.291082753252320026e-01 5.208378479569402142e-01
-7.787059679964614817e-03 -9.480836917629073546e-02 5.709746098253141167e-01
-7.964402403876301439e-02 -1.215793646185675675e-01 4.885442821344506137e-01
-1.062504277917562939e-01 -1.159387507711241716e-01 4.671363336631680907e-01
-8.063490645677023894e-02 -9.040582510837753827e-02 4.473645876734066995e-01
-4.302672774463469491e-02 -9.634502890677136555e-02 4.575496143825195650e-01
-6.832178378420242573e-03 -9.880042220889261040e-02 5.694088493949047702e-01
-9.339152740899572813e-02 -9.266138154164665908e-02 4.488352242660177405e-01
-7.238665053612805544e-02 -1.083163415200525947e-01 4.631821320269550735e-01
-7.270991350039977819e-02 -8.964971019666136132e-02 4.473292758164416072e-01
-5.555242090518503623e-02 -8.464254595375210466e-02 4.471209907503065351e-01
-5.551855064426632763e-02 -1.201701637745316159e-01 4.957508119381119349e-01
-5.031636764346597568e-02 -1.052029704543779726e-01 4.650897027198570566e-01
-2.694470761327892941e-02 -1.133413480553541047e-01 4.780379421626091974e-01
-7.135691113097968052e-02 -1.140905257421381130e-01 4.721144845302008286e-01
-2.456092836856720724e-02 -1.152091101515444194e-01 5.535294745903983626e-01
-7.064476557055104911e-02 -7.432377661587684370e-02 4.402102085656299790e-01
-1.021812010394269471e-01 -1.213441198330358073e-01 5.045086407522585414e-01
-1.619119957066138954e-02 -1.194959838525176399e-01 4.845305439835136951e-01
-6.696565410180663203e-02 -7.574251889717124875e-02 4.413550606479537119e-01
-8.664071208582596259e-03 -1.206211079997695917e-01 4.850635410226767918e-01
-9.239899243966832876e-02 -1.237347436851065630e-01 4.790883829099008562e-01
-6.009114147043807808e-02 -9.600968795895542529e-02 4.535020042801435891e-01
-5.974282127290595629e-02 -9.868748091858599303e-02 4.557339037613977184e-01
-1.035640548702550789e-01 -1.031392093082348083e-01 4.559346344028784026e-01
-8.747075005944658643e-02 -1.238175555043194709e-01 4.920414684251195880e-01
-7.310919556334198599e-02 -7.748755506151269734e-02 4.407968018907628682e-01
-1.082359902141228070e-01 -1.221753874437101622e-01 4.779494994824645682e-01
-1.400978521218872522e-02 -1.148325979076742220e-01 5.593046673140670277e-01
-6.494685911985337290e-02 -6.677319842369973391e-02 4.394430214755707387e-01
-5.399678014377504165e-02 -1.122053119470135252e-01 4.749624136647385142e-01
-5.340944606462620647e-02 -7.732777913519056634e-02 4.448357651380803746e-01
-7.278201577381711307e-02 -1.051758318900480604e-01 4.597676015047258424e-01
-4.943785609594767566e-02 -1.206508554404584904e-01 4.990656878461348089e-01
-4.672220223043610510e-02 -1.220118754817893086e-01 5.213797345895295754e-01
-6.437116288333959158e-02 -1.029233775746945939e-01 4.590249554111107133e-01
-4.990182664722592198e-02 -1.133433093422026028e-01 5.364072872708021134e-01
-1.283289737768054245e-02 -1.272232038057111159e-01 5.155670863710379859e-01
-1.109681258395351922e-01 -1.217667541466681269e-01 4.996500946760962791e-01
-1.074589809156060310e-01 -1.239322421387382966e-01 4.945680427611480745e-01
-6.281726059101583326e-02 -1.193020793944049446e-01 5.247533594055302508e-01
-6.760253331699897505e-03 -1.205172455242724538e-01 5.485603664491540687e-01
-1.111030380758898546e-02 -1.195212224298019404e-01 4.832161107379607246e-01
-1.068041394671612049e-01 -1.187091663696237531e-01 4.707579007128582238e-01
-7.949686093735229553e-02 -1.180844964576356210e-01 4.739265330108164420e-01
-6.483657777555711099e-02 -7.234390089017721237e-02 4.408176060587921108e-01
-1.062574621395256519e-01 -9.876204078438392819e-02 4.566203954869801906e-01
-8.478817329485488496e-02 -1.228718844287707140e-01 5.101358585205546525e-01
-3.092679191072528894e-02 -1.162975249064016614e-01 4.848811394690518140e-01
-2.121416928470722454e-02 -1.237204074881570331e-01 5.378730012118505543e-01
-1.097601905103237768e-01 -1.151367802255592182e-01 4.678839936637195218e-01
-3.680177661236684605e-02 -8.830041699525570387e-02 4.518777664039233533e-01
-9.505992289513033600e-02 -1.246538382687000096e-01 4.876727651603759428e-01
-6.349316257867629321e-02 -6.900140100707630175e-02 4.403444509840182541e-01
-8.169772871561158112e-02 -6.826751520967920539e-02 4.408394613946342022e-01
-1.111503483005223114e-01 -1.198618333770256894e-01 5.007623117144738289e-01
-1.019571831648779722e-02 -1.202466601467535451e-01 5.510121118691742037e-01
-2.084967603180134035e-02 -1.036004876833882538e-01 4.617430401309572940e-01
-5.794337947492507468e-02 -1.092902125059108109e-01 4.687897558100284079e-01
-1.646407898555209484e-02 -1.246169208524358085e-01 5.371456217875244521e-01
-7.411012268796433877e-02 -1.185234506493525602e-01 5.230359876105769024e-01
-6.244047580429704786e-02 -1.141049262482561055e-01 4.762227335798435712e-01
-9.881244954693713112e-02 -1.217818441055610601e-01 4.692028658084787529e-01
-7.138770407999597833e-02 -7.560548934124505793e-02 4.404204700167537179e-01
-5.735130831483342684e-02 -1.212447996921701965e-01 5.216306000975896584e-01
-9.752648028381591394e-02 -9.446865992359990138e-02 4.515990411708624697e-01
-1.349977356558932154e-02 -1.269844099243303270e-01 5.137017106299345270e-01
-6.917605885494775009e-02 -1.142337005557635121e-01 4.734546926899567687e-01
-5.466960053142064235e-02 -1.220325981431549384e-01 5.164608647105501937e-01
-7.204069419102425084e-03 -1.283248833980221437e-01 5.225448874341820371e-01
-5.043198372667533069e-02 -1.167605722285208758e-01 4.849676756852500104e-01
-1.014129757170247892e-01 -1.242257758678936841e-01 4.803875645922500159e-01
-7.011987592358444321e-02 -1.114134338096112731e-01 4.682479399987312663e-01
-1.845063543487300214e-02 -1.203912858034184019e-01 5.492438142668037981e-01
-8.377976141017719203e-02 -1.229852932974941915e-01 5.104190739625436013e-01
-1.179688296515662427e-01 -1.104643417668056404e-01 4.716271710999245248e-01
-5.137711518897450369e-02 -1.195488847850014885e-01 4.940713198912720650e-01
-6.677494777171101570e-02 -1.197627769233590850e-01 5.222930564962824374e-01
-6.614688371963148295e-02 -6.236260259354792224e-02 4.386993393760764137e-01
-5.778575330517947417e-02 -1.123074836176620322e-01 4.738057761199784279e-01
-7.773869007292931455e-02 -1.235739085011729049e-01 5.007022211395759648e-01
-4.249175194154060364e-02 -1.219115453879894978e-01 5.282533649010854315e-01
-8.599736420183291818e-02 -9.217501089159943484e-02 4.483519877087611682e-01
-3.561452969825297521e-02 -1.179982715864822673e-01 4.886190577480041819e-01
-2.450981814297155392e-02 -1.216345767293129793e-01 4.956236128087194714e-01
-7.941335135493003683e-02 -7.849125233699780213e-02 4.410300469714680260e-01
-3.438624059138267047e-02 -1.170033574993736281e-01 4.864816962653213950e-01
-1.988195946764297756e-02 -1.030038524713486336e-01 4.606244604441463442e-01
-7.855021591075758702e-02 -1.235945260760075021e-01 5.002264335192057043e-01
-6.415053287995797771e-02 -1.173314230041163919e-01 5.271119538452387898e-01
-4.382491517388743818e-02 -1.221492725231785176e-01 5.088842880755485298e-01
-3.066153406897441716e-02 -1.083989152831378866e-01 5.482107425852819071e-01
-4.607708027983548060e-02 -8.630056963685289739e-02 4.497698571480077123e-01
-2.503034024733219107e-02 -1.244725103427067603e-01 5.281636428339560041e-01
-4.324566392512117080e-02 -1.202546950014411753e-01 4.969580571249748169e-01
-6.594980791505537787e-02 -1.065521791309879118e-01 4.625523573838477565e-01
-8.040718421978858277e-02 -7.707463260641446434e-02 4.406821398572814408e-01
-1.170225735026124252e-02 -1.163065628397313145e-01 5.576216115700478593e-01
-4.067325499746293066e-02 -1.107496134839779656e-01 4.746964982234756492e-01
-3.232329119056018968e-02 -1.169498925050161120e-01 5.448220229743988563e-01
-4.027611999313092384e-02 -1.226031417368705773e-01 5.158004789171264370e-01
-3.285304632910816813e-02 -1.111059999084108157e-01 4.748198662691388017e-01
-4.362446673719622831e-02 -1.191217915701175550e-01 4.924287560330068425e-01
-6.807797108321529678e-02 -8.605728458569439354e-02 4.455863394800859134e-01
-4.769600849791246627e-03 -1.218858238465325428e-01 5.424547626732267869e-01
-1.053643301987401831e-01 -1.110192727644033345e-01 4.620246551644843769e-01
-3.478226504238256939e-02 -1.203144532041234421e-01 4.954509588032041667e-01
-3.099512613250945958e-02 -1.134088348118515860e-01 5.473706046119910518e-01
-1.519909178084590841e-02 -1.240755900765394965e-01 5.397829370352249523e-01
-1.815419290674447073e-02 -1.260797523551470956e-01 5.176428704921258728e-01
-2.031091241665791691e-02 -1.124003664595309010e-01 5.588882359543468903e-01
-8.710949153401681411e-02 -1.104754770268754072e-01 4.609148961060877681e-01
-8.884259809458038004e-02 -8.656748414153839222e-02 4.463870320017009341e-01
-4.536138671634932368e-02 -1.221183110975592040e-01 5.204715188882648169e-01
-5.627943317710992766e-02 -8.075169113022347134e-02 4.455373462458701028e-01
-6.910642787792564690e-02 -1.068351033046048421e-01 4.622233324132791199e-01
-1.368767165406988007e-02 -1.242919921161815683e-01 5.385575780412195090e-01
-1.021658747457073954e-02 -9.640117585879344475e-02 5.698292463619546444e-01
-2.445536705494751398e-02 -1.228612732356051535e-01 4.998821246308670085e-01
-1.399104931038063111e-02 -1.166155321040071580e-01 5.572181097628788882e-01
-2.482295564483315981e-02 -9.548412607761093407e-02 4.558653402496002927e-01
-5.765897489226405603e-02 -1.177984486829382060e-01 4.863813081304533270e-01
-7.115572209551482286e-02 -1.160867969364025587e-01 5.268498738987841268e-01
-1.018344919298670714e-02 -1.213375760667650960e-01 5.491189094714555852e-01
-4.664625862522588789e-02 -1.041442025596550219e-01 4.644644393022829831e-01
-9.033976510924154879e-02 -8.497933637768087523e-02 4.461267299079772486e-01
-5.901171586636154431e-02 -7.129061717601103965e-02 4.420984436344436164e-01
-2.859161810154722122e-02 -1.238383416307480694e-01 5.133512035427904019e-01
-6.697186079480647869e-02 -1.036304373003108376e-01 4.592882554567573883e-01
-5.393610898680296223e-02 -8.695870624220766731e-02 4.487905206819681192e-01
-5.337501719446939227e-03 -1.255893290755336067e-01 5.337356369963360825e-01
-3.822926126387302809e-02 -1.225189291881276371e-01 5.265488647629169572e-01
-4.738200514022904153e-02 -9.677730606484737097e-02 4.568664575711783304e-01
-4.372466421624890409e-02 -1.143879472945445730e-01 5.385405322865757238e-01
-1.097372474433020301e-01 -1.065815061641080530e-01 4.597028798800564253e-01
-7.765334505686730115e-02 -1.234547217095668808e-01 4.993236810149869198e-01
-2.450677753843644169e-02 -1.215077049479428156e-01 5.435722049134871225e-01
-7.350970139789052282e-02 -1.234626372785145448e-01 5.061543977061767619e-01
-1.938221429408071989e-02 -1.191734514185773114e-01 4.851919567825387358e-01
-4.033325551872803116e-02 -1.022669002112866765e-01 4.634519467004686866e-01
-2.747451032527000597e-02 -9.657652118799138485e-02 4.574994303960437936e-01
-9.633475455444145963e-02 -1.246397660528323625e-01 4.942779834297806874e-01
-3.577504640839792444e-02 -1.230244042723835224e-01 5.193627601407656558e-01
-3.374306196479244513e-02 -1.210225945936989483e-01 4.979055455292852317e-01
-1.024055714451735377e-01 -1.113134414683424611e-01 4.615970723192361347e-01
-8.371542995914678376e-02 -1.237129742993465092e-01 4.967173501001843072e-01
-1.043491492205339544e-01 -1.223805268330993984e-01 5.014531653145443135e-01
-3.237050781569788399e-02 -1.201931802435477342e-01 5.408944758064836433e-01
-8.991177204963668457e-02 -9.985967430876543927e-02 4.525240737072532826e-01
-3.492390756914194594e-02 -1.143154770047078439e-01 4.808732692281733057e-01
-5.217077807362206082e-02 -7.871941243297526924e-02 4.455598694767208268e-01
-3.145507844871150288e-02 -1.154068905825060415e-01 4.830129425664951848e-01
-5.144101148737433016e-02 -1.128088800538442349e-01 4.769195232666842976e-01
-5.406517448109000867e-02 -1.109426980559729686e-01 4.725721846947199545e-01
-1.100090708685118601e-01 -9.797970158298587029e-02 4.586655739846507984e-01
-3.719908881361319586e-02 -1.226734888744454993e-01 5.260124190320845106e-01
-8.919624632880213122e-02 -1.056789573683752370e-01 4.565843605642810887e-01
-8.384939946400571387e-02 -1.179031772302874675e-01 4.696499848595400706e-01
-2.868010142613672264e-02 -1.146854600249496009e-01 5.493849513867727907e-01
-7.586493499137632324e-02 -5.852089322130688692e-02 4.399766675963850959e-01
-1.184585714809698459e-01 -1.152497262016421858e-01 4.786819101876063631e-01
-1.025831908549317828e-01 -1.227029999338274252e-01 5.016054852290353638e-01
-1.352289976901230664e-02 -1.165543087146300727e-01 5.574151094336887713e-01
-1.915828378314980013e-02 -1.251429228345235789e-01 5.058999087967973596e-01
-1.730085430216491207e-02 -1.144256763665119081e-01 4.753635553663531077e-01
-8.930337326539426746e-02 -1.234660936506796480e-01 4.758756248790721455e-01
-2.192499820694830334e-02 -9.808267121705863123e-02 5.589792087801680465e-01
-3.548753791666667962e-02 -1.228149114605521230e-01 5.108218340481531783e-01
-9.124109429557784867e-02 -1.224033932024013033e-01 5.094328231336604507e-01
-6.638118285490791914e-02 -8.295870033278771039e-02 4.440006954502831449e-01
-8.863913054009053827e-02 -1.241308994743777622e-01 4.960554869637739395e-01
-4.257869130939617025e-02 -1.073825518496918235e-01 4.693148984279276736e-01
-9.151179196341308053e-02 -1.242212165411884089e-01 4.893982910051121182e-01
-4.805732192580985246e-02 -1.212765630437840497e-01 5.245628068802586919e-01
-6.230897654103964567e-02 -1.194539339481497098e-01 5.246568389616592665e-01
-6.531614788327178012e-02 -1.108665755669741154e-01 5.304525221007715396e-01
-2.319525678620215636e-02 -1.061677089536646329e-01 5.580340658613278659e-01
-5.998902163361365808e-02 -7.419302920781360722e-02 4.425677002405195570e-01
-5.161085953237186386e-03 -1.286513021347528152e-01 5.237272606946433706e-01
-1.198192177629857497e-01 -1.138019005659766103e-01 4.896204351724992576e-01
-6.607637302427105119e-02 -1.214776026763940003e-01 5.185246980347419932e-01
-3.063508341887734646e-02 -1.203458767372851124e-01 4.943070721531742651e-01
-8.615030789667248168e-02 -1.206994975971072692e-01 4.719052976721997972e-01
-5.282914473736412958e-02 -1.118006061215742891e-01 4.745274400471912180e-01
-1.890474744673115159e-02 -1.039127837505174901e-01 5.637582761162177603e-01
-1.108936870263681485e-01 -9.916242119782443798e-02 4.587622291093000904e-01
-5.151890187969709878e-02 -9.227277483372635369e-02 4.523318808952692116e-01
-2.336823517459674787e-02 -1.222341125476387458e-01 5.421556105931714109e-01
-7.913719167046025238e-02 -1.104688326508387330e-01 4.634366677901881060e-01
-9.727437777831811350e-02 -8.490710586397197390e-02 4.511089224347568649e-01
-1.145175322651311028e-01 -1.219178086186988169e-01 4.821191967739246742e-01
-9.280369717465845880e-02 -1.249241878459286526e-01 4.744961109569071356e-01
-8.247012980363256640e-02 -1.030542988531101267e-01 4.556609527849430630e-01
-4.395536076606951226e-02 -7.518643842066036198e-02 4.451340231663910574e-01
-3.197024622660946114e-02 -1.188920855946810490e-01 4.906908719160424925e-01
-7.451455168454561122e-03 -1.283484258738935846e-01 5.196314761013987038e-01
-8.893420809453007891e-02 -1.203625192816774880e-01 4.665749312632028745e-01
-9.267102269145868765e-02 -1.056203274760131039e-01 4.564628251304350126e-01
-6.230927724900263420e-02 -1.172410860001505684e-01 4.833486401156902312e-01
-9.826395053653658174e-02 -1.245785090556140728e-01 4.964776603069162575e-01
-1.104339158402624504e-01 -1.032550587408015974e-01 4.591514598171401174e-01
-9.770382537279657595e-03 -1.275848942875893732e-01 5.100214815143245817e-01
-7.700875694949226025e-02 -1.074852760319828515e-01 4.608709357738286494e-01
-4.476038806860994923e-02 -1.166402650842554845e-01 5.369410021142099199e-01
-6.124406793757389972e-02 -1.220729909190151341e-01 5.162042163824427377e-01
-1.118672042933470945e-01 -1.225414229507963554e-01 4.822002674037700887e-01
-6.108270253779712888e-02 -1.162882816460888563e-01 4.814297433263833303e-01
-1.578521159041515118e-02 -1.142555065705279371e-01 4.743634017489999355e-01
-3.953566783117398037e-02 -8.731181163665818756e-02 4.511245410848608306e-01
-7.414809067966374179e-02 -8.714982354423418676e-02 4.455722582427901757e-01
-1.015668473322892257e-01 -8.730464670743451339e-02 4.561371195119960920e-01
-2.998055937639801730e-02 -1.087457577661246205e-01 4.711790869680422822e-01
-9.784522747790619715e-03 -1.046288399130119590e-01 5.667196792598842014e-01
-4.350234410244455813e-02 -1.049621106096551432e-01 4.662338524985784605e-01
-1.549072245924404748e-02 -1.265608816736135400e-01 5.138532830846519461e-01
-7.461070825955828933e-02 -1.229467496738978899e-01 5.109092211032971731e-01
-4.162793814019334279e-03 -1.289128049463023340e-01 5.185591260171198424e-01
-6.721111464385651213e-02 -1.073035305938336015e-01 4.631898045961729826e-01
-6.456882073189418314e-02 -1.094221118182857888e-01 4.669977053720661408e-01
-8.676856289597270622e-02 -1.174255198242281084e-01 5.175203440209961148e-01
-7.652826656720435050e-02 -1.209963004698343669e-01 5.183442576813647173e-01
-3.325844055204393163e-02 -8.139311690921217923e-02 4.474985180808940810e-01
-3.426082076349429989e-02 -1.188248059384521271e-01 5.411589811172116127e-01
-4.992859344610552086e-02 -1.103196741643279050e-01 4.728074874366330338e-01
-9.604748900186522997e-02 -8.979215863036189849e-02 4.498686479255846749e-01
-2.639775206816643086e-02 -1.208166489293578255e-01 4.939057916345190868e-01
-8.716262961225536288e-02 -8.431572769527427569e-02 4.450275174809442680e-01
-1.892056990773564873e-02 -1.159629135566568742e-01 5.566963879813003890e-01
-6.127465683046622730e-02 -1.185193459491644119e-01 4.872403571063976813e-01
-3.136504219216861011e-02 -1.104340715156789804e-01 5.472294104634811696e-01
-7.694490951573483561e-02 -9.484131967429587640e-02 4.504730573054060438e-01
-1.049089083700340853e-02 -1.215553069481077469e-01 5.487503720494251169e-01
-5.385453613312339571e-02 -6.748975763064794797e-02 4.417413491177767382e-01
-7.722972998093499686e-02 -7.994794647846316382e-02 4.414318363823240832e-01
-4.821932938029240695e-02 -9.829602477829124663e-02 4.579726743460185157e-01
-6.394718417115619058e-02 -1.125852757120569397e-01 4.725092624240977979e-01
-3.245690231705639084e-02 -1.224945303956981174e-01 5.331830770645155093e-01
-5.701268425145773755e-02 -8.581826006214839098e-02 4.474879418653272545e-01
-2.598946981193520078e-02 -1.244092776310269932e-01 5.174855263775285374e-01
-9.491235603366134088e-02 -9.199243537832099693e-02 4.495469269107815191e-01
-8.474947909227563414e-02 -1.157488083657421812e-01 5.199452546065029823e-01
-3.582201309859420896e-02 -1.071588921122609700e-01 4.693112342724549135e-01
-1.054545405348017023e-01 -1.240468238099057957e-01 4.838143559607918642e-01
-5.809963563707600670e-02 -1.134682270956335337e-01 4.761353397879379279e-01
-1.836691010527058063e-02 -1.228985524462313933e-01 4.955134356588188349e-01
-9.869134249504857292e-02 -1.248866087699786603e-01 4.930941148844518729e-01
-6.115347618100208660e-02 -7.114992960273136546e-02 4.415479840136730671e-01
-3.094568277298456998e-03 -1.290501774073536112e-01 5.185768111096882294e-01
-2.629894580247984018e-02 -9.144563852709697294e-02 4.531193098692380961e-01
-1.095710787552434465e-02 -1.274115440094152063e-01 5.109412834164956951e-01
-8.487343701569050047e-02 -1.029285425757200667e-01 4.552221863985743688e-01
-2.481520858642861926e-02 -1.166476574168693742e-01 5.519916977049098561e-01
-2.943745481197802133e-02 -1.220418205254720639e-01 5.374334336890782549e-01
-5.680344140872588959e-02 -7.716434543071858110e-02 4.442878764175480222e-01
-5.437769382203622853e-02 -9.800873869431267482e-02 4.562488387906528109e-01
-1.047708372206102578e-01 -1.233597786231658694e-01 4.987160360066268949e-01
-5.822258059616065851e-02 -1.172590971193288589e-01 4.848819541343644679e-01
-8.719946231816730342e-02 -1.228052064112584163e-01 4.767566600990577053e-01
-4.961243270224862528e-02 -1.075497293778906321e-01 5.389924680170581350e-01
-9.803447729575882896e-02 -1.184225520408745264e-01 4.660415085167132210e-01
-6.343060156096360855e-03 -1.281051336018124431e-01 5.257555187874256575e-01
-2.655708886529054014e-02 -1.146871548020445414e-01 5.514939639031638530e-01
-6.336411669954042369e-02 -1.204071394702341258e-01 5.225786956645759318e-01
-1.115375014949865767e-01 -1.205728942545517962e-01 4.762603293473842148e-01
-7.614161824172199777e-02 -1.222162451528379795e-01 4.919595222825788872e-01
-1.194115342683509280e-02 -1.180267987097580323e-01 5.548875262227868088e-01
-9.555793265475653886e-02 -1.030727359898902240e-01 4.545843148845158388e-01
-1.118355376540233204e-01 -1.181697264882000664e-01 4.724908651243216462e-01
-1.432637531251665375e-02 -1.270194924607601361e-01 5.227745126446095014e-01
-1.140019528288993556e-01 -1.093917667823890993e-01 4.656208092824264955e-01
-3.442802430768585054e-02 -1.225370656070116221e-01 5.302862517714879154e-01
-1.146485937677563377e-01 -1.032334802085110304e-01 4.653160612651932038e-01
-2.785187483272962353e-02 -1.202783511728309773e-01 4.928745631368254276e-01
-5.387037144110473630e-02 -6.634361314904321794e-02 4.413839531671042149e-01
-2.263585494498175296e-02 -1.083871646811288975e-01 5.580278091658168460e-01
-8.252613561499140549e-02 -1.233158626798220026e-01 5.081579258120652032e-01
-1.040751903823958768e-01 -1.178356958054804782e-01 4.684943518631622950e-01
-5.270797026620852900e-03 -1.287692545364109709e-01 5.172412692597491146e-01
-7.119896144142879614e-03 -1.267785544389465890e-01 5.027162754094472996e-01
-5.967263681743423254e-02 -1.075869460577772024e-01 5.337132017000837392e-01
-3.110547440167366409e-02 -1.107465457815782067e-01 5.474755303232020642e-01
-7.173224339731629207e-02 -1.056539662212973851e-01 4.604842137547606740e-01
-9.463421762554224959e-02 -1.246821233257696393e-01 4.928982372354144825e-01
-5.309052703858642419e-02 -6.008033391487069275e-02 4.401179253088670640e-01
-5.869577481041465122e-02 -6.132213782151450798e-02 4.397816684402622855e-01
-1.010472350449795192e-01 -1.248817213470902326e-01 4.940463311277850655e-01
-3.053055388973717824e-02 -9.473726383137563711e-02 4.568789050287622167e-01
-1.702163778510941416e-02 -1.257204328878765986e-01 5.067147933815482341e-01
-9.585913575811445125e-03 -1.251817619498331591e-01 5.353614169505424014e-01
-5.570212820965302070e-02 -8.401804018121192263e-02 4.468610773666447100e-01
-1.959606972941521641e-02 -1.258254687679281059e-01 5.219498347469523347e-01
-4.379415681092012347e-02 -1.221016333950386556e-01 5.240270069568134792e-01
-6.911309268848228604e-02 -1.107305004011809174e-01 4.675896651295140538e-01
-9.489193656839536861e-02 -1.194557306041190425e-01 5.127869848047870160e-01
-8.694211596869917680e-02 -1.019155223945769767e-01 4.542025155318311080e-01
-6.198294070087177407e-03 -9.421839583349700398e-02 5.714883675774121707e-01
-1.099288113583979098e-01 -1.235177131990532196e-01 4.932658640659732807e-01
-1.111771949817554200e-01 -1.031270532614846774e-01 4.598026714922193725e-01
-1.192152370930234656e-01 -1.069186100587178473e-01 4.745144452633719423e-01
-6.404096804439925184e-02 -1.224433047946578978e-01 5.044889833344512464e-01
-1.036852445276982698e-01 -1.202343360983198356e-01 4.711914280078388084e-01
-6.184766042920424034e-02 -1.150602885540748521e-01 4.784782500843453024e-01
-3.003914697271379067e-02 -1.230492273981087098e-01 5.317825777878888438e-01
-1.042553941959388636e-01 -1.242265619400064747e-01 4.834854143272034332e-01
-5.194225819300079400e-02 -9.619730788643371389e-02 4.552912315349416650e-01
-5.216036067372418344e-02 -6.709359228678681009e-02 4.418186653054748114e-01
-6.689268479712519311e-02 -1.123684030926374450e-01 4.712077118929894337e-01
-8.112084250776031846e-02 -7.798113318353221135e-02 4.410208381579713288e-01
-5.955875561795725970e-02 -7.072011902742102174e-02 4.418294247958871046e-01
-6.410260310686738405e-02 -9.452640879514186134e-02 4.517652642258718210e-01
-1.524998012607410927e-02 -1.259505803252811418e-01 5.316553640192379637e-01
-1.521343827905695736e-02 -1.255663899118280857e-01 5.041084517287471867e-01
-3.603019050003617579e-02 -1.183879351728729240e-01 5.404305222783414298e-01
-1.150511330294338441e-01 -1.055894592502168994e-01 4.655893729586419449e-01
-6.396938481464931048e-02 -1.218187232643146989e-01 5.179030634691745849e-01
-8.538449992190609572e-02 -7.596064446553059402e-02 4.423287189088466742e-01
-7.038306894911650069e-02 -1.193376538760085176e-01 5.222128018227899515e-01
-2.020781333917720871e-02 -1.256679125001901876e-01 5.205060061605758515e-01
-1.019922780020389615e-02 -1.230994407328093038e-01 5.432201475094338150e-01
-4.858414253589818550e-03 -1.286169228831414713e-01 5.246028308637286086e-01
-5.768470880409033025e-02 -1.119808276358496696e-01 4.732867291787037356e-01
-4.953082664750304426e-02 -9.043854690788612205e-02 4.516389646922347456e-01
-7.321539985523529970e-02 -1.227204951250373266e-01 5.126736907513643748e-01
-6.659384895554265604e-02 -6.182802518960842791e-02 4.385686910105804914e-01
-2.988365740893321118e-02 -1.110906891996454593e-01 4.745748979370169596e-01
-6.844446374320949100e-02 -5.385992215863578958e-02 4.407697793471380132e-01
-1.006300364787754004e-01 -1.249123254541778943e-01 4.893146057615934130e-01
-8.249751843688525599e-02 -1.215937664016295272e-01 4.826563809002301086e-01
-1.137020940228487681e-01 -1.178499186939484800e-01 4.737868927517920326e-01
-6.460139872355546986e-02 -1.098603675014157843e-01 5.310184575819900665e-01
-7.473515933224889052e-02 -1.084474127340076810e-01 4.626163756455863307e-01
-5.552951060613609685e-02 -1.183854236343247351e-01 4.887759052186309572e-01
-1.100121175525417550e-01 -1.199624306062278267e-01 5.013110840151903114e-01
-6.126083311501418632e-02 -7.875349109719817497e-02 4.436622660799769968e-01
-1.024317340610529786e-01 -1.189301233902041871e-01 4.692525401113293304e-01
-3.507938932918145541e-02 -1.225511429352744569e-01 5.083251074819087334e-01
-5.251381102869143863e-02 -1.222524975818807397e-01 5.145523924904067403e-01
-8.448986246936593392e-02 -1.131633132852464668e-01 5.213459338121394504e-01
-4.328303789624343700e-02 -1.221265694435251514e-01 5.245040794274700158e-01
-8.348121802279741266e-02 -8.485857346786718214e-02 4.443946422045048639e-01
-1.105388019806770733e-01 -1.102156664007678255e-01 4.628126965821914851e-01
-4.404654657037614107e-02 -1.140546806156982618e-01 5.385321166401099147e-01
-9.691340405507865852e-02 -9.219543576744690383e-02 4.509471076007435242e-01
-8.853698938532066076e-02 -7.409762925002097433e-02 4.459318254200376197e-01
-6.498840319089435602e-02 -1.221168107167579786e-01 5.002014014556354082e-01
-5.941482432007259493e-03 -1.211533956241557103e-01 5.460546893815523273e-01
-7.022172697478869241e-02 -5.525289965500974898e-02 4.404871231820489119e-01
-2.065927423714009753e-02 -1.203269656891276657e-01 4.891598838224833212e-01
-6.794152701062199096e-02 -5.738768642797865971e-02 4.393539335117502831e-01
-1.144021751101051559e-01 -1.176358057538547663e-01 4.742171013297374338e-01
-2.413442125055571819e-03 -1.241144267066331408e-01 5.369910477395257731e-01
-3.754765083295443645e-02 -1.193099234350477184e-01 4.928854176709665524e-01
-6.532455787635277344e-02 -1.215984176872358935e-01 5.187134749135362544e-01
-6.639178244491789581e-03 -1.221614947715855964e-01 5.437409684477277905e-01
-7.714327701588698238e-02 -1.214274346246217301e-01 5.171518217595238998e-01
-2.809804407038277510e-02 -1.240727275676043045e-01 5.207106011243676225e-01
-3.266881260086518246e-02 -8.742526573952710822e-02 4.514813394504766930e-01
-7.225113371195167333e-02 -5.755282552462918227e-02 4.398938299227774795e-01
-8.603494303653975994e-02 -1.203498699742521771e-01 5.151322778949281034e-01
-1.025392681612995738e-01 -1.242847639730213366e-01 4.817741951400958400e-01
-9.220479418425435447e-02 -1.191221564624183188e-01 4.641756924338823476e-01
-4.891826827187143595e-02 -1.186558685678728436e-01 4.905547357229643746e-01
-7.740120187676811925e-02 -1.146768796566470794e-01 5.259492956961414611e-01
-3.085996990539632660e-03 -1.275365978238781617e-01 5.041926350142079682e-01
-3.623622017698583525e-02 -1.207645099759328960e-01 4.975792400189973375e-01
-1.827336528790923093e-02 -1.106161069219891990e-01 4.699140021493888875e-01
-6.562370719990545664e-02 -6.075998173084192627e-02 4.386474962299303226e-01
-2.493765576197493755e-02 -1.220804936567930349e-01 4.972439027857936122e-01
-8.272608495652633565e-02 -1.238660513986146045e-01 5.029304261362276263e-01
-4.762644477331248044e-02 -8.174240328517733134e-02 4.473713941911064973e-01
-1.025132166393143834e-01 -1.063562642259726215e-01 4.573954868610688451e-01
-2.665961983550313441e-02 -9.938750358909198557e-02 4.596415120154770384e-01
-8.973473093221928654e-02 -1.162728652825934239e-01 5.169144917384813631e-01
-8.935615997887111361e-02 -9.897515542067883421e-02 4.520461810759469623e-01
-2.945282824280145290e-02 -9.962737545633811032e-02 4.607652388792969345e-01
-7.590573962157785848e-02 -7.682541210558829770e-02 4.404230260251227325e-01
-9.491102301289975132e-03 -1.279615559407830394e-01 5.210496882528445894e-01
-6.590541362593135832e-02 -7.392475765339788507e-02 4.410549239486610817e-01
-1.122102037567638128e-01 -1.135508290884337940e-01 4.673372209836040847e-01
-3.688433869441120477e-02 -8.996922823156265625e-02 4.532159117095617140e-01
-1.111991297346407448e-01 -1.218233395228416893e-01 4.994087535286036994e-01
-2.807154026981029116e-02 -1.206137591172217055e-01 4.940623571870486064e-01
-1.073191544757168270e-02 -1.222010666371011467e-01 4.891507975147477150e-01
-6.802649295027489440e-02 -8.655590029457341239e-02 4.458862366518347442e-01
-1.197820000706994042e-01 -1.104135720302480556e-01 4.737207051281645542e-01
-3.341679334166397508e-02 -1.083801881887817981e-01 4.709294050261522147e-01
-3.441108069068538056e-02 -1.220978731705693876e-01 5.035670090836620316e-01
-1.982123452184480009e-02 -1.146363994691466520e-01 4.771169537809544225e-01
-1.109942679823367334e-01 -1.077698739983090070e-01 4.612979003169686565e-01
-2.151269859209413091e-02 -1.241614238402615894e-01 5.033347480095023974e-01
-2.140513478643808407e-02 -1.232178690653354253e-01 5.398755403954939025e-01
-9.056095322255167113e-02 -1.153489208780025116e-01 5.171124369194031178e-01
-6.893244930489382527e-02 -1.226601076842751686e-01 5.119175259193539107e-01
-7.660109149538953111e-02 -1.191476128214361552e-01 4.791710184544059614e-01
-3.766555988727185444e-02 -8.975142251853351905e-02 4.529638063853398400e-01
-2.961205516487344300e-02 -1.237630473011002846e-01 5.243071355848926141e-01
-1.016059542316495173e-01 -1.222303104475933599e-01 5.029938293020086437e-01
-9.091898409370970102e-02 -1.051327112977258615e-01 4.561035547695415082e-01
-4.175894134874994640e-02 -1.187052160967782544e-01 4.910980830463698155e-01
-4.073489988161139996e-02 -1.215892978179722861e-01 5.031995054581825944e-01
-9.328786019809919006e-02 -9.698389341573658562e-02 4.511688355289466545e-01
-9.297145196780477738e-02 -1.206756187849833128e-01 4.651037600658770033e-01
-6.989769820966350300e-02 -1.034842676797524813e-01 4.585960501602639461e-01
-8.915894766195785193e-02 -1.074752023530597400e-01 4.579804193214083718e-01
-3.186673165822412335e-02 -1.195348594629162542e-01 4.924245979365064474e-01
-1.097877711649511284e-01 -1.045901391304326078e-01 4.590364263011632029e-01
-5.057443493491833864e-02 -1.208391387922531923e-01 4.998390386208296787e-01
-7.723656767449971206e-02 -1.210724576801021635e-01 5.181468928885691883e-01
-7.942715886947790405e-02 -1.180470770475796072e-01 4.739280406927249278e-01
-1.063022489510598995e-01 -9.310705168374715235e-02 4.580339720485163690e-01
-7.556065180810529747e-02 -6.558084401112129758e-02 4.378649241516276436e-01
-6.612809287630105892e-02 -6.093156229744885188e-02 4.385660614407845270e-01
-2.292434916921197441e-02 -9.760976644549318459e-02 4.568692533554216673e-01
-6.394938333015129373e-02 -1.220677787588731050e-01 5.008778972318882472e-01
-1.073718229369082372e-01 -1.226243786201311331e-01 4.786601306270243383e-01
-1.672912378205970024e-02 -1.132936908163213879e-01 5.599270595787320115e-01
-1.758421754457496766e-02 -1.224410428069727941e-01 4.932862875645924183e-01
-6.918931888119340956e-02 -1.165352786364608206e-01 4.783584892630607377e-01
-5.024238693930368344e-02 -1.186157421043266547e-01 4.903854247690776491e-01
-1.625261229570491850e-02 -1.218792253883502624e-01 4.907897936900634805e-01
-9.622220100545936933e-03 -1.279361905202802407e-01 5.183952344027519255e-01
-1.179635853457164235e-01 -1.125388834504400387e-01 4.731185696238118243e-01
-4.392354640453596804e-02 -1.159267801248716895e-01 5.377101287871033364e-01
-7.205480614306303266e-02 -7.725377572902303314e-02 4.407971863646179544e-01
-6.076098648353776138e-02 -1.195615419603681395e-01 4.911564161776095228e-01
-3.591508914269102293e-02 -8.155099393646170203e-02 4.479494234002762698e-01
-7.651050483460603013e-02 -8.559424332487539089e-02 4.442989574654851448e-01
-7.288232025296448313e-02 -1.140473720341277086e-01 4.713663506438583450e-01
-6.832565031140808154e-02 -1.077795754642391218e-01 4.635303373859829823e-01
-1.165826399494287596e-01 -1.165773189596309017e-01 4.764465915282495301e-01
-4.130896844849014926e-02 -1.210664861593559599e-01 5.344431157909641517e-01
-1.104312076691167654e-01 -1.112900731626708800e-01 4.639391626405839353e-01
-5.231347576764956014e-02 -1.010991695710392879e-01 4.592219082600508817e-01
-8.610713144693987742e-02 -7.865978110382809696e-02 4.434830739374602815e-01
-4.221071739600934514e-02 -1.202421337731247597e-01 5.357926192287456590e-01
-1.059860923291479490e-01 -1.244896730634232895e-01 4.901590673034625367e-01
-1.041952089477279908e-01 -1.248679504207635127e-01 4.898044847101692412e-01
-5.020246575404094247e-02 -1.101605334740752146e-01 5.380270078375393172e-01
-5.650281245514524736e-02 -1.214084259967415091e-01 5.212766172584821778e-01
-2.849326955361369124e-02 -1.239278133859656739e-01 5.166390822275286343e-01
-3.961612561805716304e-02 -1.114743583800736765e-01 4.758790092472847677e-01
-2.023696551591762025e-02 -1.254709201139395380e-01 5.127986667346516869e-01
-3.860762645431770751e-02 -1.227906421796543385e-01 5.179185401375397957e-01
-1.110983442322265452e-01 -1.224063488377437475e-01 4.804294810773863666e-01
-4.352421551752373025e-02 -8.945839942535011025e-02 4.520811831104836753e-01
-9.192894497402509524e-02 -9.873254009971303702e-02 4.518684979520044553e-01
-5.786406599822133123e-02 -1.223575507711251731e-01 5.116597939803263495e-01
-3.883011792636459347e-02 -1.137121980743297650e-01 4.797071346123618629e-01
-3.373477597085587643e-02 -1.038621747147126517e-01 4.654870432988406637e-01
-6.294943425622664956e-02 -1.226969072571196806e-01 5.088115930237407936e-01
-8.947496006786838374e-02 -1.231019632283685133e-01 4.849194810830282365e-01
-1.159257224546004356e-01 -1.074183764088932208e-01 4.669794363078632604e-01
-4.095654528417341789e-02 -1.058034533381421588e-01 4.674319528403549917e-01
-6.239853868267720982e-02 -7.660837781195309337e-02 4.426724789976163033e-01
-9.489874438250593680e-02 -1.186430974320469151e-01 5.133101645938787927e-01
-8.031336698274288421e-02 -8.537022713536741858e-02 4.442895667949368632e-01
-3.719011902914127338e-02 -8.174348969277075994e-02 4.480008717646819516e-01
-4.286371547179129715e-02 -1.123668358284717478e-01 5.399405546979166859e-01
-3.015090063477248936e-02 -1.203363327738645322e-01 4.941149976037185199e-01
-3.962813864555326387e-02 -1.225875754700299497e-01 5.222255496893979387e-01
-1.057445138830830494e-01 -1.207598506430360846e-01 5.031304002207903636e-01
-1.638940735026803847e-02 -1.265042858540243176e-01 5.242152283431891213e-01
-1.089858199668157675e-02 -1.043034366002893870e-01 5.666540262729478084e-01
-1.176921595106195095e-02 -1.171154926200740631e-01 5.563187347895320878e-01
-5.090722809175816932e-02 -1.214971423108191229e-01 5.041430293468992518e-01
-3.046211639559971880e-03 -1.287761476122147031e-01 5.123376541769819603e-01
-5.749746198910957867e-02 -6.289263656861246443e-02 4.401657352662752265e-01
-1.244786256865132446e-02 -1.218585881548016198e-01 5.480401858759673672e-01
-3.459023848449732652e-02 -1.184794678722640854e-01 4.898302635388498416e-01
-6.778579129520137525e-02 -1.216896535703459320e-01 4.950392721956213826e-01
-1.179173951691156047e-01 -1.195027588929998830e-01 4.896630202018095734e-01
-1.412520544059615510e-03 -1.213151487831196085e-01 5.395694069322133357e-01
-3.257514925462789285e-02 -1.155475784469290057e-01 4.833440761616525916e-01
-8.015149385777002589e-02 -9.404896341182644726e-02 4.496296580257910236e-01
-4.187846867475994092e-03 -1.223257335551695413e-01 5.413140067529271793e-01
-7.485765574332009509e-02 -1.160868457620132660e-01 5.258912873441629054e-01
-6.636462818988388135e-02 -8.203214146073264934e-02 4.435571109794745337e-01
-9.910129377544546481e-02 -1.243223589634843418e-01 4.771778143420786766e-01
-1.156166564692496096e-01 -1.174020215024221409e-01 4.757939014443827719e-01
