-7.064291472981171216e-02 -1.223679751970076363e-01 5.076115954304063482e-01
-4.898730075390312494e-02 -7.296947774976657308e-02 4.439569364719076483e-01
-5.793827098053428576e-02 -1.083917691637405339e-01 5.340749131472166678e-01
-3.726875136822908885e-02 -1.221170270484484149e-01 5.086934937712029869e-01
-5.342914519779524279e-02 -1.180802986915129721e-01 4.902780710492624650e-01
-6.024323698679520667e-02 -5.679806755143443353e-02 4.386704870273743229e-01
-2.458956206478643547e-02 -1.075090992452639588e-01 4.686771110979364163e-01
-6.511624375995377079e-02 -1.075181560573836570e-01 4.650855834594092575e-01
-1.687476518061764921e-02 -9.768369621306816075e-02 5.656569127057083923e-01
-8.953436277498250107e-02 -8.740346899404358161e-02 4.468926976042936761e-01
-6.290076244625499025e-02 -1.179505785043819949e-01 4.871577907942813979e-01
-3.655272513910987064e-02 -9.485786840595707148e-02 4.574500156778442683e-01
-7.980294833129393528e-02 -1.057269034211890529e-01 4.592843176525341353e-01
-2.729293525796822398e-02 -1.018495434268567312e-01 4.622059937579187650e-01
-5.526807705898553746e-02 -7.518109899019566333e-02 4.438967234907360560e-01
-6.945016562678985039e-02 -9.742351499526914760e-02 4.538866184982276453e-01
-2.513713630818437128e-02 -1.194409942955258069e-01 4.903055519100956161e-01
-5.142694147235115504e-02 -1.008587978996766249e-01 4.597331950310102333e-01
-1.107285819588044000e-02 -1.270808103626411556e-01 5.258311787898934941e-01
-7.332922105676231705e-02 -1.209400692658883641e-01 4.919861317746125895e-01
-2.624121240033379376e-02 -1.202023782477375374e-01 5.450820146196317939e-01
-9.535965333647528075e-02 -1.224131805964730202e-01 5.024583960386271864e-01
-9.406273412936919098e-02 -1.235461231262933862e-01 4.746476542327855985e-01
-4.356192128827175714e-02 -9.427506222110706990e-02 4.561140445977544533e-01
-1.892037023638600338e-02 -1.007945937440022227e-01 5.642326386896585610e-01
-1.853132250046506113e-02 -9.703230865205619837e-02 5.646988171424209835e-01
-9.070790394761209241e-02 -1.168611137633039920e-01 5.155700542499301875e-01
-3.560124577916425059e-02 -1.200076126445687452e-01 5.391572352306472915e-01
-4.946463776025843140e-02 -1.133890114654344111e-01 4.794014080481118767e-01
-4.506719043685630810e-02 -1.216427407819149348e-01 5.219452950046304940e-01
-5.057580360177160728e-02 -1.191250440291225510e-01 4.948778068758973858e-01
-6.739487663813835405e-02 -1.120190348066631980e-01 5.291952618102271355e-01
-6.269369805944489948e-02 -1.024533974978795170e-01 4.595631456767440559e-01
-1.919465810244819909e-02 -1.150795129042882919e-01 4.774415882195376937e-01
-1.569594737529625417e-02 -1.001244395419887967e-01 5.656654573887986981e-01
-8.619452291743719130e-02 -1.053640081677597318e-01 4.575540134027168970e-01
-6.837842892745718548e-02 -6.378723205769472326e-02 4.382730451248798564e-01
-6.119650884414777614e-02 -1.113532846515511987e-01 5.318148457319381572e-01
-1.103932986940794891e-01 -1.067098851741187099e-01 4.606905758333302292e-01
-9.955749650798194350e-02 -8.650486575415901325e-02 4.520131905235397207e-01
-6.897568872689488484e-02 -7.603631305173719213e-02 4.410778960636643209e-01
-7.156039452742557483e-02 -1.214175006042347849e-01 5.154352989515993411e-01
-6.175806027850969104e-02 -1.150660698156228401e-01 4.802305792450509148e-01
-7.677677268050132897e-02 -1.216809830977710755e-01 4.939125917210541727e-01
-3.840131489689791594e-02 -1.181131243498339395e-01 5.392456018178310995e-01
-2.501190803301733129e-02 -1.079180838968496620e-01 4.694052744066767868e-01
-1.673590209024477735e-02 -1.175742357992761583e-01 4.807893302775760325e-01
-3.851864413982274138e-02 -1.201433682699377670e-01 5.372459454547243718e-01
-1.123985631497323306e-01 -9.898513817538562298e-02 4.607224397969210128e-01
-1.178162364665345518e-01 -1.192835712106944251e-01 4.894287022847728097e-01
-4.831016876297645340e-02 -1.161389411018737411e-01 4.851031909270400178e-01
-4.679726803691686837e-02 -1.191187236075148953e-01 4.944859125409173939e-01
-8.094904018651889743e-02 -1.142601915978144339e-01 5.226123215559158597e-01
-4.813132692830898729e-02 -1.128042930074513034e-01 5.373894197754891522e-01
-4.100736270950683382e-02 -1.218567582270630861e-01 5.086162440994793643e-01
-9.000058270748861888e-02 -1.221999454909682564e-01 5.071016407824411321e-01
-5.138207123500054818e-02 -5.968545304181794436e-02 4.400701519304227594e-01
-2.136668440590587179e-02 -1.018216859549777864e-01 5.623975259149371908e-01
-2.437002241245761133e-02 -1.243383402546638372e-01 5.114359203646442475e-01
-8.264319461731040040e-02 -1.155360136722885511e-01 4.695495420277818743e-01
-7.592762974494822459e-02 -1.090823292044039577e-01 4.641230187484989278e-01
-6.532924286977581652e-02 -1.142729255480479655e-01 4.772786093039056987e-01
-4.050010423656310449e-02 -1.170512539200057045e-01 5.389152998228520230e-01
-1.143550405253702801e-01 -1.213419146724158543e-01 4.918788010771740216e-01
-3.974167258692985066e-02 -1.177912391508966067e-01 5.387464507400239189e-01
-2.696817944383757618e-02 -1.086164681074958532e-01 5.542081827707457942e-01
-3.854942143499101581e-02 -1.198672877131731762e-01 4.959997073721271743e-01
-5.600526413844480328e-02 -1.033457912641415899e-01 4.617881954127482924e-01
-1.186062315166963033e-01 -1.157101511991665416e-01 4.842653540236032672e-01
-5.414302867305815364e-02 -6.784278281558796253e-02 4.417712092233053722e-01
-7.685070438764544931e-02 -1.225558003881693780e-01 5.065383519989054006e-01
-1.944832467283943295e-02 -1.257617318081238889e-01 5.195246027871821548e-01
-2.802707885473670196e-02 -1.238302651563853857e-01 5.171530634066066057e-01
-7.744969324280114031e-02 -9.222301164826002262e-02 4.491254206182339059e-01
-8.834987143850632496e-02 -1.229282497030268068e-01 4.966273189125755549e-01
-4.068535855609924784e-02 -9.431313911723727961e-02 4.565965495593100054e-01
-6.745636561320375590e-02 -1.164672294675865166e-01 4.809860592084471698e-01
-6.496066497892234726e-02 -1.208695101410843381e-01 4.978526638931317638e-01
-5.310138447691865188e-02 -9.542439189028011082e-02 4.548333311408729873e-01
-5.384682392989759148e-02 -1.178854922702317620e-01 5.302882980653458311e-01
-4.568550950116295056e-02 -7.258045030366166994e-02 4.440556813208267339e-01
-7.377045862710260304e-02 -1.160209341102265701e-01 4.767057053878342443e-01
-5.645548940785481001e-02 -1.084357117200403786e-01 4.689130322675771900e-01
-9.049120329554020958e-02 -1.224978621085157510e-01 4.877752609146741580e-01
-3.637501498053768989e-02 -1.176063861462073729e-01 5.408455992577433369e-01
-4.077793788131604813e-02 -1.076182019557613972e-01 4.703185496102728069e-01
-1.050677444054195497e-01 -1.136430629614579579e-01 5.072228279531514339e-01
-5.028091361608338916e-02 -1.023138852894262402e-01 4.619938437319776603e-01
-6.850898324224546747e-03 -1.283630603199866216e-01 5.236990321915507840e-01
-8.086735785543680555e-02 -1.117101421865916849e-01 4.650802089211933943e-01
-8.376702603510707834e-02 -1.202924083266776467e-01 5.150149671714433497e-01
-7.789660860225815220e-02 -9.366204045621813468e-02 4.500709091068167411e-01
-3.665648121014176281e-02 -7.824448992453096607e-02 4.461980178320875678e-01
-6.854342990224573939e-02 -1.201881833586698062e-01 4.914405734845735951e-01
-9.915036030202983852e-02 -1.045604006543766201e-01 4.565685788601221984e-01
-4.837540648292441153e-02 -1.206435128515029459e-01 5.250098649903716108e-01
-2.340800077531797821e-02 -9.775088721954958149e-02 4.570863076354353960e-01
-8.751073466622122377e-02 -1.203846839715764644e-01 4.727510276437994485e-01
-4.773888647337506952e-02 -9.661453735451384917e-02 4.570615521302366924e-01
-3.322726369801300150e-02 -1.173387610788422658e-01 4.878344575574847797e-01
-1.888935252458893294e-02 -1.256608114822302114e-01 5.120798139497877433e-01
-5.024225762515054788e-02 -1.118121501563916487e-01 5.370228764692213108e-01
-3.148584620655359156e-02 -1.135582800120975150e-01 4.799549575531011913e-01
-1.097777155662183791e-02 -9.953223952085482606e-02 5.684235731800366676e-01
-4.229480916039761451e-02 -9.541502215036133661e-02 4.572927610131909959e-01
-3.379854550515407063e-02 -1.227940601860792041e-01 5.270393104107834459e-01
-5.670979594384316369e-02 -1.208156686367238414e-01 5.024146471813605297e-01
-4.595389588364293121e-02 -6.126103439222725655e-02 4.406117533768809102e-01
-7.977054986114841262e-02 -1.098379411443499015e-01 4.636314186156872963e-01
-2.179244878897769466e-02 -1.131666196131831115e-01 4.758929921017491238e-01
-7.253020877216043508e-03 -1.233260723448193763e-01 5.395152619337407751e-01
-2.010620342794236515e-02 -1.131644779622007768e-01 4.749009713247532849e-01
-9.766497954531046244e-02 -8.594336064535575137e-02 4.503628926300903834e-01
-1.029008276226897195e-01 -1.176610235063850624e-01 5.060308873239844907e-01
-6.702239038575835695e-02 -1.176119791161507749e-01 5.251094728478725715e-01
-6.519151779128297408e-02 -8.528693313075187687e-02 4.458790697476139320e-01
-6.097570153709055280e-02 -1.217766276764137151e-01 5.086339567790273408e-01
-9.033683171756999586e-02 -1.226371611404057788e-01 5.032686689081345977e-01
-3.496719585431117688e-02 -1.203916853548381710e-01 5.383159986553158749e-01
-7.074690951982716414e-02 -1.207452052007742110e-01 4.922643123216230432e-01
-1.536801334767336213e-02 -1.193171766699368669e-01 4.841085183205807718e-01
-4.993880077054083100e-02 -1.184633027380035397e-01 4.918875251199434917e-01
-3.398042479327340742e-02 -1.205389610483222074e-01 4.972807782813636890e-01
-5.316148881448696725e-03 -1.263864335055289723e-01 5.008071068032817763e-01
-5.209521657990114074e-02 -1.146595062819611155e-01 5.344094533252718993e-01
-7.603004506399597962e-02 -1.125903880591484496e-01 5.271516251785191010e-01
-4.584563249437405286e-02 -9.632835372503102678e-02 4.572531580238955451e-01
-7.829018381823560357e-02 -8.273455429562240337e-02 4.430277208268674216e-01
-1.127335993263494096e-01 -1.209315448647299007e-01 4.817967867118020941e-01
-4.732580810350433403e-02 -1.086229904102386234e-01 4.716033532638074788e-01
-1.014409464637735653e-01 -1.204278457210621461e-01 4.711688946737129235e-01
-8.315251428163293601e-02 -1.131429300273105037e-01 5.218162336882545826e-01
-1.932939121166872554e-02 -1.234292101581862672e-01 5.403859189778408290e-01
-1.019459506181219777e-01 -9.780687254726795621e-02 4.533298230665958051e-01
-2.422093424088807290e-02 -1.162912292018173782e-01 4.827812652541106364e-01
-7.029802004821232575e-02 -1.220518019213442523e-01 5.004813060900580313e-01
-6.279168927611847306e-02 -1.071658260703606119e-01 4.652308988248466393e-01
-2.376918108296049992e-02 -1.247544326237640666e-01 5.196294915445115459e-01
-2.365546815884167833e-02 -1.247352162533382769e-01 5.251061274611934504e-01
-1.530599682829660545e-02 -1.263882533503346006e-01 5.278925902611918408e-01
-8.647784919932471892e-02 -1.170699490768997847e-01 4.671768133697468128e-01
-2.682229487335853479e-02 -1.238153986213249985e-01 5.114287850356110665e-01
-4.139714498079821725e-02 -1.174743531075488207e-01 4.887058206476764810e-01
-2.066000413801366217e-02 -1.222464759965851550e-01 5.441599718878811220e-01
-1.044445889339048195e-01 -1.233369535146488644e-01 4.936564482265849430e-01
-8.604902088389849990e-02 -1.052193219889761139e-01 4.574594353868746133e-01
-2.687308212764852322e-02 -1.176329433554589021e-01 5.490783020274748738e-01
-4.619966708393244414e-02 -1.200994035073940369e-01 4.989960568855154044e-01
-6.574409709599599028e-02 -6.588471230133990941e-02 4.389930329018716937e-01
-1.111326598493597995e-01 -1.220928351763184011e-01 4.897380390118978855e-01
-3.181588319082075123e-02 -1.091018958898386237e-01 4.722110756468512749e-01
-8.855256909863126746e-02 -8.584847079324377239e-02 4.461733025950500586e-01
-2.344441209230621603e-02 -1.049808998356485112e-01 5.589228210893895099e-01
-3.622583855133849895e-02 -1.203995972322897540e-01 5.376587014526325037e-01
-7.486135077441448404e-02 -1.183446342601004175e-01 5.219160722655818985e-01
-9.772182984618174584e-02 -1.226915209584240052e-01 4.805276921168347704e-01
-2.219121802376541885e-02 -1.227821714897056327e-01 4.983039928003796804e-01
-7.130042041598919078e-02 -1.222331560008965562e-01 5.019688261880254077e-01
-4.264797260151824421e-02 -7.339980755121645883e-02 4.443215867676186814e-01
-4.214809298021957029e-02 -7.946292685244867038e-02 4.470051446317930832e-01
-9.793743967017752919e-03 -1.243791219852912744e-01 5.375349901767019212e-01
-2.800376298382153614e-02 -1.131939067544270316e-01 5.512472178197415085e-01
-1.150320585922448569e-01 -1.157236963897749077e-01 4.735535609213492036e-01
-5.402145291840381586e-02 -5.966365629245608954e-02 4.398220698344163515e-01
-4.675812445137955686e-02 -9.355118610004396762e-02 4.547563871907294719e-01
-1.119383019297875009e-01 -1.209100372729327993e-01 4.806685806832567964e-01
-5.884748767169070693e-02 -8.197427710656499111e-02 4.456300211238079512e-01
-8.819119547970188933e-02 -1.223781769689496896e-01 4.895294376456826857e-01
-8.722727485459762231e-02 -1.054998458002932016e-01 4.575097067258522276e-01
-5.098724154802874997e-02 -1.062539841298033028e-01 5.385611882905053660e-01
-7.739888902791428049e-02 -6.579110210158913008e-02 4.375628624091188468e-01
-3.271107545656257165e-02 -8.708297917558122103e-02 4.513011588041599964e-01
-7.964900911166325481e-02 -8.786709732807433670e-02 4.460922295495882151e-01
-7.026184715748028109e-02 -1.217697368502582700e-01 5.129426353239092684e-01
-3.645807175087349694e-02 -1.194686766814038459e-01 4.941230983170173952e-01
-7.214664022457983883e-02 -1.170059787508464233e-01 4.798182650247914682e-01
-2.990100563023352642e-02 -1.206838334229237697e-01 4.959287235064577248e-01
-5.740165786089086730e-02 -1.204975210725766216e-01 5.000576627981623279e-01
-6.743597253524032109e-02 -1.214481671532323809e-01 5.151406888297236364e-01
-8.004585144302192590e-02 -1.206124068265456983e-01 4.885688511249745569e-01
-7.321643643006092717e-02 -1.222603791787489624e-01 4.997644013513926620e-01
-4.493262438669485409e-02 -1.216550283315787351e-01 5.093107522813151711e-01
-5.044139985301758500e-02 -6.863064449687407420e-02 4.423875735938224141e-01
-2.620527719836245745e-02 -1.240842739762646613e-01 5.283080427092249343e-01
-7.042557854859282651e-02 -1.207478335370651690e-01 4.925640149343480934e-01
-8.007567669403370392e-02 -1.214614846263480236e-01 5.139171415031147383e-01
-9.725337779983760089e-02 -8.260686994946112027e-02 4.510715716366871519e-01
-5.172842483225111032e-02 -1.217051778833019016e-01 5.151785927416524524e-01
-2.295256479811045441e-02 -1.227455764935625332e-01 5.400854930584132463e-01
-5.954054022664771739e-02 -1.088002047489398522e-01 4.687404778700322017e-01
-3.454453700801708022e-02 -9.756049053806657712e-02 4.599058610229955213e-01
-8.513781262576952669e-02 -1.226497844482974942e-01 4.950474516082526422e-01
-5.101983925351986221e-02 -6.836251430546888552e-02 4.422692715324603729e-01
-8.092397788033120487e-02 -1.199747020031631806e-01 4.797398769533866569e-01
-8.784967958685925560e-02 -1.214591333841304327e-01 4.776654987745893033e-01
-7.414417291835559420e-02 -9.306165705418854850e-02 4.500115719880966036e-01
-1.071937337164246412e-01 -1.220831049469588703e-01 4.816804480780469966e-01
-8.682691872797833332e-02 -1.229089832668583404e-01 5.016462951779337986e-01
-1.522374107062327356e-02 -1.089205400883858782e-01 5.638139184940740289e-01
-6.552464452745114520e-02 -1.218445806559021183e-01 5.121507602911248291e-01
-1.123710370862532476e-01 -1.207869824138165793e-01 4.805097180729754336e-01
-5.984395224081263953e-02 -1.203202738767709251e-01 5.221080703320012395e-01
-2.567292097535842782e-02 -1.151882151386353498e-01 5.528053723656635166e-01
-9.487763866696323489e-02 -1.232174153717350007e-01 4.975397559435059125e-01
-5.387381438124351496e-02 -1.100221303228529901e-01 4.721777825896594782e-01
-2.779802518643526357e-02 -1.238830604082235692e-01 5.257198467100783201e-01
-2.612376270298247954e-02 -1.002668609416525747e-01 4.602431363466468195e-01
-3.386957134310512180e-02 -1.086797750799687878e-01 4.717960175376994525e-01
-1.318193388707829435e-02 -1.147294397251393122e-01 5.591809261562902256e-01
-6.068943931501108446e-02 -1.123368281691871501e-01 4.745549147924750244e-01
-3.544643774679270137e-02 -1.080165916038401674e-01 4.709940511362926130e-01
-9.238649995310094232e-02 -1.054081457170829433e-01 4.568693326465224080e-01
-8.293131392401853486e-02 -1.201595861062695059e-01 4.772326560160421449e-01
-5.207226203724305003e-02 -1.200475178400826071e-01 5.253024473871870104e-01
-2.740198659965283751e-02 -1.234777249684248929e-01 5.081901384968690039e-01
-8.919448471050712979e-02 -1.013356803719862448e-01 4.541950934551388097e-01
-2.396332407668930534e-02 -1.145111987382112367e-01 5.550489309337396371e-01
-1.001234031389734297e-01 -1.138591237276538465e-01 5.119525305308647578e-01
-9.493559053697854522e-02 -9.502115354716136886e-02 4.507037961294874107e-01
-7.750411047343049031e-02 -1.197230762141163751e-01 5.191697802402620576e-01
-3.913356630573756184e-02 -1.044173083450921635e-01 4.663737472802110817e-01
-3.037723255212960299e-02 -1.217918485785114691e-01 5.007747157307348429e-01
-7.464962941483770098e-02 -1.215710001283215047e-01 4.945592039143125729e-01
-3.102292705584418220e-02 -1.075812710718243859e-01 5.484643842151840643e-01
-2.597581972018082191e-02 -1.182780931140205716e-01 4.882022294605525836e-01
-7.623058435655177822e-02 -1.116032232105745592e-01 4.674565569417148403e-01
-8.759931145737807900e-02 -1.212970795442616240e-01 4.799226859385563038e-01
-1.755561661069489354e-02 -1.013873780497387134e-01 5.651280258037101323e-01
-1.024965525038610270e-01 -1.198320233611900182e-01 4.714076677270995219e-01
-5.272177234616912817e-02 -1.075359121701799786e-01 5.373857272111840500e-01
-6.461195035474402715e-02 -8.201297876713914414e-02 4.442463149639965247e-01
-6.913603812560002726e-02 -1.153319824740138833e-01 5.269964844586210173e-01
-2.178805928845431450e-02 -1.172078863046114722e-01 4.825720939938394904e-01
-1.143932100089455478e-01 -1.002016323400025388e-01 4.641421586963100365e-01
-3.089355938946110325e-02 -1.207640752147356444e-01 4.967337867836183474e-01
-1.123439429512239351e-02 -1.161152450177409950e-01 5.575620269194248024e-01
-7.232908572274025782e-02 -5.566258197187898271e-02 4.400635109538048595e-01
-2.733089580695017770e-02 -1.066939408912112031e-01 4.682069892172542880e-01
-3.536987454685033144e-02 -9.043927594189939134e-02 4.539254480198773867e-01
-7.332985079366714787e-02 -8.194005908073138944e-02 4.424277995124676344e-01
-2.859756411203269108e-02 -9.814499670659401764e-02 4.592139036132169005e-01
-4.820773817870126210e-02 -1.135364388842652755e-01 4.798232165876911703e-01
-1.069443886397169335e-01 -1.212840732641588398e-01 4.994552637100883041e-01
-6.678454923063634197e-02 -9.202217223184756822e-02 4.499558994444205484e-01
-6.046311364842240493e-02 -1.216421225603133149e-01 5.073409262959258648e-01
-2.302203350594381887e-02 -1.226238172720716668e-01 5.405493454407104270e-01
-1.175817470677239379e-01 -1.055921365241767884e-01 4.692023917066319716e-01
-7.892715315084330996e-02 -6.380600178387103860e-02 4.388766171352480039e-01
-2.647304006390443359e-02 -1.223434669051256390e-01 4.998834672067879459e-01
-2.941239764213221357e-03 -1.253189791124834918e-01 5.346832804579323417e-01
-1.545446963549710478e-02 -9.778582121953359463e-02 5.664750475307110955e-01
-4.753619262760450104e-02 -1.209268942094332555e-01 5.044740642844104395e-01
-8.312224338889211139e-02 -9.971335300994486894e-02 4.538083371288073042e-01
-8.137697764937964692e-03 -1.193913819868586829e-01 5.518494198632551972e-01
-3.448202611968655823e-02 -8.205967580528675254e-02 4.480968407426554889e-01
-1.072132230820226628e-01 -1.208128079420416612e-01 5.005711939758208384e-01
-9.008127275173077875e-02 -8.379972288671075353e-02 4.456395509125538057e-01
-9.783612180475581566e-02 -1.202106176876317073e-01 5.100935738359172467e-01
-9.697815258409554773e-02 -1.234591280606490149e-01 4.863472715287881498e-01
-1.114888626258273424e-01 -1.013170696114192582e-01 4.593666800163402342e-01
-5.878094993866299356e-02 -1.182136838357642356e-01 4.895840249277849110e-01
-1.048421221278152404e-01 -1.175320844365492501e-01 4.696480062954910828e-01
-6.013646646276637336e-02 -8.748096833627332092e-02 4.481198513809320771e-01
-3.907364799664491545e-02 -8.448951389097418552e-02 4.495827000435005938e-01
-4.417849905310629322e-02 -1.196801584948850861e-01 4.965430627006200970e-01
-3.494454582031957662e-02 -1.203211809594357529e-01 5.385403962460163507e-01
-7.555146583246123704e-02 -1.180939324308364347e-01 4.800164640564199003e-01
-7.559192213797262527e-02 -5.700288125132244726e-02 4.399501821069917162e-01
-7.914759098656794223e-02 -1.211147345012020815e-01 4.905688739630992279e-01
-8.807503026571818217e-02 -1.220054480557014737e-01 5.088110208458616057e-01
-7.772296022282883243e-02 -1.123550110817383846e-01 4.678502812096496655e-01
-4.613248167646279846e-02 -1.067186670233357670e-01 4.688496836679192925e-01
-1.152849748434452287e-01 -1.021178472032580470e-01 4.653773255710331735e-01
-9.609443683047169671e-02 -1.233563884515294640e-01 4.692579370753267587e-01
-6.626939763514549941e-02 -1.213742485997188897e-01 5.159966150457397926e-01
-5.583389762663546613e-02 -7.479113738197251671e-02 4.436918140774233077e-01
-8.787607251481736881e-02 -7.069857739241647288e-02 4.454621103686972061e-01
-5.351362221444708189e-02 -1.188529959080402154e-01 5.284687551069191525e-01
-5.292733496712291597e-02 -5.956444226218293031e-02 4.399178416004358994e-01
-3.752359248977339690e-02 -1.225038347397479355e-01 5.207439568296541310e-01
-3.613376493595527039e-02 -9.089890780341804144e-02 4.542432627469142892e-01
-4.608519625619982713e-02 -1.209142824768726227e-01 5.039900739196112589e-01
-6.011522522133513208e-02 -1.137981484071652616e-01 4.779266032339080095e-01
-9.076224251063702564e-02 -1.104050940976663703e-01 4.604024891917925522e-01
-1.001238174648688556e-01 -1.027872941154370084e-01 4.554147015749567262e-01
-9.668302630840625023e-02 -1.226441057963654491e-01 4.817698789557637307e-01
-7.788817093115386891e-02 -1.153370355714666978e-01 4.730348513053030945e-01
-2.636329626298628687e-02 -1.065554870636735568e-01 5.552230781061442411e-01
-2.997881551637323477e-02 -1.204046279952604992e-01 5.419629621467134672e-01
-2.859427958220872937e-02 -1.032863944803033424e-01 4.642665319504610255e-01
-5.973767398868232853e-02 -1.211643456852828371e-01 5.024985681059196407e-01
-4.564476967813808905e-02 -1.174164013415710250e-01 4.887510525093761715e-01
-1.000162273057111084e-01 -1.236071362544894636e-01 4.936015192535188612e-01
-3.857701749234516281e-02 -1.177426219830400717e-01 4.893033294821927393e-01
-1.061532930216606135e-01 -9.570767303683709593e-02 4.562230696870148150e-01
-3.948969346580170903e-02 -1.216389006469316414e-01 5.059929141740540093e-01
-4.559647234692248280e-02 -1.158417678540704099e-01 4.846774174760826170e-01
-8.678953503525473068e-02 -6.989531711934229841e-02 4.439002854022023881e-01
-7.380795317544702229e-03 -9.617205007314633125e-02 5.702842387061243246e-01
-7.441237829136726489e-02 -5.770191505156781198e-02 4.395154985591813168e-01
-8.822585343765190768e-02 -1.226225473978385938e-01 4.909162639458247157e-01
-3.094740406015498643e-02 -1.181134505669452356e-01 5.455541284380440725e-01
-5.973378828111515493e-02 -5.847857524233623927e-02 4.390268454319907754e-01
-1.094231387006103645e-01 -1.225068126982341576e-01 4.868169789562966643e-01
-4.074355058943263108e-02 -8.097587594573193992e-02 4.476189072395049262e-01
-2.336048656589740508e-02 -1.056478152523580433e-01 5.587801105105193455e-01
-9.872748926333052566e-02 -9.001650241797895524e-02 4.515582107024747605e-01
-7.049369047189278648e-02 -1.121829260115907861e-01 4.709202510756751447e-01
-1.869606729778512666e-02 -1.181307154519961183e-01 5.532742456800194830e-01
-6.229151146689610591e-02 -6.324285107567333142e-02 4.393868319252152710e-01
-1.147230673454061600e-01 -9.998662944854529167e-02 4.650343485267390831e-01
-1.242173692268142005e-02 -1.267000790984647018e-01 5.072983113487609108e-01
-8.354042987668544584e-02 -9.358475071583283178e-02 4.495745083388161811e-01
-4.680035372127998999e-02 -7.514280117453304986e-02 4.449205684334099908e-01
-8.007837965009589887e-03 -1.139095305378239886e-01 5.599828313939008151e-01
-3.937473014126538495e-02 -8.262172551197217996e-02 4.484861031733872738e-01
-4.859962404969415950e-02 -1.218393215021709580e-01 5.151571386314379719e-01
-6.756865383679189208e-02 -1.173445173867945363e-01 5.252303367781288035e-01
-8.248041333421229915e-02 -1.152556567460408105e-01 4.693427396103054261e-01
-2.878685713430850432e-02 -1.225150743070906462e-01 5.029846549261403066e-01
-2.364705619069759276e-02 -1.036245320892428962e-01 5.587814332121174843e-01
-7.209301459040209914e-02 -1.109111783835882714e-01 4.681763191898538623e-01
-3.705954025198591323e-02 -1.202179762180314582e-01 4.969977427763110911e-01
-1.137480775226862827e-02 -1.267881529205359958e-01 5.271370411790594623e-01
-1.010036134717702538e-01 -1.016486049741084918e-01 4.547999593369966287e-01
-6.765823853734076465e-02 -1.209958133557178933e-01 5.175012923461018710e-01
-4.134121163573584168e-02 -1.002096430602641974e-01 4.615477064269843943e-01
-9.961715336714006830e-02 -1.235884164107214495e-01 4.716240319897835875e-01
-7.706268401768300545e-03 -1.228650077338606650e-01 4.904240710544802151e-01
-5.425503209107960384e-02 -9.115014901140136572e-02 4.514133956223042032e-01
-6.467656813862862619e-02 -8.541840927295801800e-02 4.460334868331897185e-01
-1.142562270212281184e-01 -1.178837503835821476e-01 4.979944400894069090e-01
-6.944700632576367161e-02 -1.171833230131665293e-01 4.817984974036140233e-01
-6.911615164239694187e-02 -6.813857052390032143e-02 4.388687357013578150e-01
-4.626911735025042438e-02 -1.196281505634299858e-01 4.967973454079375184e-01
-4.721408645096650258e-02 -7.053807250564413101e-02 4.432182823796806947e-01
-3.385955801683757788e-02 -9.386054272668019338e-02 4.567206634608121929e-01
-7.568773136715260808e-02 -1.221723126368930296e-01 4.970655264859965561e-01
-4.443223940275128903e-02 -9.135196465418678191e-02 4.536022288043591866e-01
-1.064390506268541106e-02 -1.243291624975086246e-01 5.375030832958592741e-01
-4.441581234102803810e-02 -1.204516223146386567e-01 5.002270014133379794e-01
-7.798648069073035871e-02 -1.168587219952694212e-01 5.224174265187748745e-01
-7.332804788355087866e-02 -7.901076539026714862e-02 4.412832355659679906e-01
-9.849523951247619521e-03 -1.108776113498866484e-01 5.628214739107226805e-01
-1.129999768556330109e-01 -1.132232140686625643e-01 4.686689525932037914e-01
-1.011823827882641913e-01 -8.686642975305107484e-02 4.542708787049348773e-01
-4.614962391313225110e-02 -1.101638739678412471e-01 4.741984247680584019e-01
-6.008619659740138674e-02 -1.099312645024064922e-01 4.704662618164886512e-01
-1.769946876052409107e-02 -1.135757038081228187e-01 5.593510000496078050e-01
-1.006998709656755503e-01 -1.236283310291747400e-01 4.938008083405459048e-01
-8.653573998603575346e-02 -7.459893412076608332e-02 4.427615772265401928e-01
-7.194353515795562370e-02 -1.224041070412576898e-01 5.040285333244323152e-01
-1.992506392594904641e-02 -1.219286179642531942e-01 5.452762366041745690e-01
-3.459788134578438423e-02 -1.227823938768266565e-01 5.259426567059151125e-01
-6.633705897816323527e-02 -1.215767278962397030e-01 5.141544898181010792e-01
-6.890039826055539829e-02 -1.088496419177545915e-01 4.660190936299770659e-01
-2.375898916655538873e-02 -1.242927816183908712e-01 5.086652588857567547e-01
-9.542720905659606012e-02 -8.242817220550943680e-02 4.492033667272439246e-01
-1.099581735079436379e-01 -1.207559762784713026e-01 4.993089366343984037e-01
-3.112915155746925552e-02 -1.175338982189079312e-01 4.881310001124033460e-01
-6.168022321708772904e-02 -1.208582759248673366e-01 4.998768263115461741e-01
-9.019191366888572314e-02 -1.119752193285813158e-01 4.618912961529078598e-01
-1.099078834603460786e-01 -1.223021973155381664e-01 4.921166624299859738e-01
-9.168241355060280373e-02 -8.843023413866803184e-02 4.473108457005368077e-01
-5.049453840445932568e-02 -1.045171404363416517e-01 4.649259463381754109e-01
-2.258258883170916748e-02 -1.234197255729269221e-01 5.374985658847220016e-01
-4.510139155152006335e-02 -1.196590392226656030e-01 4.966644992386762825e-01
-5.152868934847617405e-02 -1.174951311919111840e-01 5.321575929755213430e-01
-6.304296188540430002e-02 -1.144416562638583407e-01 4.784490659031809812e-01
-6.833113563820074343e-02 -9.958550847809154172e-02 4.558873075158631494e-01
-3.415680752318290408e-02 -1.206117971113918746e-01 5.380588407931183870e-01
-1.165653801676510143e-01 -1.169895109899098951e-01 4.952081585000021047e-01
-2.776737447036821752e-02 -1.047146664965549340e-01 4.657472472913238848e-01
-7.640473640625747298e-02 -6.660518987453747930e-02 4.374609130243052868e-01
-5.014043551409257116e-02 -9.851142429042908377e-02 4.581118412559971320e-01
-3.808958678105495849e-02 -1.117208987635441020e-01 4.768196328707247633e-01
-1.400087902769945464e-02 -1.269993778053231381e-01 5.235669126411636176e-01
-8.394747933450801003e-02 -1.176181658642728861e-01 4.710224807637795053e-01
-7.141729942102842399e-02 -1.199124436225981610e-01 4.886824380055984074e-01
-3.772204678363135638e-02 -8.593882806711301836e-02 4.505100110199256047e-01
-1.002470619750695235e-01 -1.230177721585198197e-01 4.786828064028018082e-01
-6.957159087537015396e-02 -9.244610729218699641e-02 4.499741461081244176e-01
-1.016794309763688758e-01 -1.100927691135165642e-01 4.612583015712707901e-01
-5.811503646117594651e-02 -1.177357507328965491e-01 4.881277891832479510e-01
-5.252809586398018461e-03 -1.221584543556347990e-01 5.415899303386358943e-01
-1.141408928579169535e-01 -1.205920187373046848e-01 4.816279895417448498e-01
-1.421171298568199223e-02 -1.193610426800248425e-01 4.838927522425731098e-01
-5.626860750526445354e-02 -9.652118156243712221e-02 4.550722926789261269e-01
-5.981795998601503739e-02 -1.127277289205196320e-01 4.756403843483987259e-01
-1.029123001610478400e-01 -1.221702667050695995e-01 5.000353997697979391e-01
-9.916097156796956080e-03 -1.189798270932273527e-01 5.527906430718092512e-01
-2.068165450802611841e-02 -1.248209965319174303e-01 5.322953408916291096e-01
-3.300860909029096346e-02 -1.169989407138205956e-01 5.443294815065377046e-01
-6.565016570796682049e-02 -8.182982553049444885e-02 4.438873238892572237e-01
-1.083313867127400354e-01 -1.112356472235660476e-01 4.641599327853782042e-01
-8.902197495618582868e-02 -9.956177442867571170e-02 4.529749295864826109e-01
-7.863185357722859981e-02 -1.194486197988300635e-01 4.813841275661789876e-01
-6.306526210476670613e-02 -1.217109808546417565e-01 5.136241981114035848e-01
-9.018021230505060548e-02 -1.219627960903889446e-01 4.849881850280769457e-01
-6.807229882615410156e-03 -1.284953462360727272e-01 5.168187936642293367e-01
-7.338404503702118664e-02 -1.147121534676728699e-01 5.267041835727394039e-01
-8.891275941323915910e-02 -8.278837745346374899e-02 4.450824043597005342e-01
-6.270313753351304531e-02 -8.590230302612991697e-02 4.466816563803285844e-01
-4.261888352366532268e-02 -8.437929333504745610e-02 4.493643419209064072e-01
-1.139122750101188852e-01 -1.125714521627408787e-01 4.686458403559238262e-01
-7.474469690291919710e-02 -1.209849731816910190e-01 5.160692205111062636e-01
-4.753928268987653305e-02 -9.515338541033646624e-02 4.558970681986516116e-01
-2.296135915993741811e-02 -1.030437564021084301e-01 5.598724558520092875e-01
-1.018541786501129948e-01 -8.866852927585333610e-02 4.536729004198924442e-01
-9.560142564121434927e-02 -1.053302212466545734e-01 4.567434497215831501e-01
-7.412100375645760617e-03 -1.276801176230458190e-01 5.267290216875721853e-01
-1.200836368234931145e-01 -1.120376510932076658e-01 4.815605810799941100e-01
-7.146243632275878221e-02 -1.214767505886418797e-01 4.957350277954792328e-01
-8.554214291873560999e-03 -1.281501174850182001e-01 5.188666522494346234e-01
-2.198322112462811062e-02 -9.847228777408972844e-02 5.604568318173092090e-01
-6.162925418859910298e-02 -8.095335668521715100e-02 4.444986324350721496e-01
-6.676514502714579746e-02 -1.072270190014773111e-01 4.643042806436545322e-01
-3.341880472306016370e-02 -8.221807007083646590e-02 4.480178817589214324e-01
-4.092947876019385756e-02 -7.963868589413541921e-02 4.470263022402593545e-01
-8.526713730526229440e-02 -6.945131533439720395e-02 4.415501208242190168e-01
-4.641994723131320777e-02 -1.100793951299272599e-01 4.740227308366893877e-01
-6.937233131859912860e-02 -1.198915308039231326e-01 4.900611203831041207e-01
-9.829982241237572582e-02 -1.169628468546198563e-01 5.119346212566719956e-01
-2.772761754477044011e-02 -1.181859690828691717e-01 5.478249739670965068e-01
-8.012576179597485915e-02 -1.124317618641656191e-01 4.666278022458801300e-01
-1.271425605644381854e-02 -1.170405412580996923e-01 5.561899991204185545e-01
-2.441222746868608462e-02 -1.160572365454373700e-01 5.535834266366090883e-01
-3.584037542804602294e-02 -1.227234602167235206e-01 5.180464312957175910e-01
-3.827700368479342030e-02 -1.004221242756323934e-01 4.621947710404912257e-01
-3.673811071498875314e-02 -1.065303514791328676e-01 4.688839155188148089e-01
-7.577270055223730982e-02 -6.461304793504553390e-02 4.376050780414246222e-01
-4.199490854194438960e-02 -1.167695506410704465e-01 5.383033026812436006e-01
-5.032251296041111849e-02 -6.941443484122106211e-02 4.426459921881987225e-01
-6.175594569196674738e-02 -6.054000000377537244e-02 4.390883063649624884e-01
-6.758620826616830446e-02 -8.817922332706876198e-02 4.472342703776983619e-01
-9.777116202046230720e-02 -1.222044680029174130e-01 5.032527057280041793e-01
-8.424701249881187681e-02 -1.002679040009463035e-01 4.540520171736804333e-01
-1.047370341969279112e-01 -1.235245377033011849e-01 4.894829781180596862e-01
-9.909258338034532265e-02 -1.230085814829324775e-01 4.791525452547262254e-01
-2.688292295998992096e-02 -1.046211873073847887e-01 5.535949386774761116e-01
-1.145908935291480857e-01 -1.159836733422909272e-01 4.734870647628188767e-01
-4.008137032865847355e-02 -9.563777793115298131e-02 4.577199563840269603e-01
-7.909252122910909177e-03 -1.234124727470973237e-01 5.395782711919681063e-01
-2.465699580709897198e-02 -1.245654401568518088e-01 5.193373322489885924e-01
-1.961509753239963627e-02 -9.921979318847763685e-02 5.638998293661144912e-01
-1.013589696825587388e-01 -1.164292755966322146e-01 4.673150099932465440e-01
-2.797068868109566647e-02 -9.200646458770093961e-02 4.540841635394414766e-01
-2.139918843149170476e-03 -1.290099213973080472e-01 5.144617023701509861e-01
-8.216221736007550680e-02 -1.151615671364496912e-01 5.216553428049862662e-01
-4.973671893358651286e-02 -1.206357116143606800e-01 5.021980742805142173e-01
-1.023462492414824176e-01 -1.211237366583144681e-01 4.731538202024058171e-01
-7.486055701247083805e-02 -1.068075817274922595e-01 4.618090047585576285e-01
-9.927215573393308179e-03 -1.250563506390923174e-01 4.978402707425989004e-01
-2.293292425590023539e-02 -1.190036845595081189e-01 4.873112505888225199e-01
-1.021792139472195299e-01 -1.147146826729292246e-01 4.657081712252952865e-01
-5.631065074186323086e-03 -1.282916515551892345e-01 5.256677043517152814e-01
-5.958354656852739989e-02 -7.655472545406581675e-02 4.434725559647858528e-01
-1.107770955854448375e-01 -1.152623480451752946e-01 4.697609274374858201e-01
-8.910386629370824207e-02 -1.115240241212656497e-01 4.619392947744570543e-01
-7.681623564155445893e-02 -1.020847524126452244e-01 4.566437055107319676e-01
-1.124072897305447433e-01 -1.044434079194030279e-01 4.613886379067976273e-01
-4.824684069431785932e-02 -7.759301372013216458e-02 4.457184649678647692e-01
-5.761073527612891459e-02 -9.307438273015797292e-02 4.521120979837243148e-01
-7.704821367252483177e-02 -9.893741658131496863e-02 4.540847847245193525e-01
-7.956878978514289255e-03 -1.241251579975229669e-01 4.940665174588646513e-01
-2.055006369395934868e-02 -1.118788082288840469e-01 5.593694856686115546e-01
-8.956907924852025582e-02 -1.216953547251518331e-01 4.730413428287540967e-01
-9.829365057444074127e-02 -8.939725432784148551e-02 4.511612727218373697e-01
-2.270675405757395515e-02 -1.226572765781239610e-01 4.982308907008364263e-01
-4.341025000440092846e-02 -1.089111581201493567e-01 5.413462250356103622e-01
-5.159186978691882725e-02 -1.143852305685850723e-01 5.348159081650400992e-01
-7.288413789186160008e-02 -1.025573795523768150e-01 4.579322686996065150e-01
-2.507922750154137348e-02 -1.236955334740526130e-01 5.325918765736424865e-01
-2.960953068457694223e-02 -1.234894678862635264e-01 5.143492628207404493e-01
-5.301242595381752687e-02 -7.001906989930486991e-02 4.425755942655194564e-01
-8.530218602143056772e-03 -1.224248612535864117e-01 5.432207606067434025e-01
-6.139213148164481687e-02 -9.935470728960967002e-02 4.566355437332780265e-01
-6.977022634899637810e-02 -5.949340912452658059e-02 4.382170476859471031e-01
-1.794092648529977893e-02 -1.260775354128677306e-01 5.255240453003666712e-01
-1.194943833365686991e-01 -1.075939618149315130e-01 4.720692274979019776e-01
-2.681346495774274488e-02 -1.241352397086962767e-01 5.219406383635698532e-01
-6.970520808641023081e-02 -1.214597253965667006e-01 5.155479116010943663e-01
-7.921385434692788940e-02 -1.220688304222834614e-01 5.113025762175978928e-01
-3.367135758717301752e-02 -1.223953248463814092e-01 5.304609152955146456e-01
-8.365674695173505593e-02 -1.224361846615188015e-01 4.934681317637826248e-01
-1.190279425528388731e-02 -9.796587003004561534e-02 5.685542496058060280e-01
-1.057178285742622383e-02 -1.009540933297791293e-01 5.680413386699963985e-01
-4.538123167345679831e-02 -9.731245039887043147e-02 4.582245054566012610e-01
-8.231963381241852451e-02 -9.415385891584832079e-02 4.499798419126408988e-01
-7.109056132884040979e-02 -8.072602253165876707e-02 4.421840383367159899e-01
-5.905401680154320765e-02 -1.199665271700372793e-01 4.966855880442642701e-01
-8.586665192840339800e-02 -1.211021853966138401e-01 4.765770433270307693e-01
-1.102201488185451106e-01 -1.212750772940414667e-01 4.977008139936124342e-01
-1.085566376010377032e-01 -9.643321335696418417e-02 4.574987584695102694e-01
-7.258728335449365909e-02 -1.191502472280374786e-01 4.851232219473272100e-01
-8.307173063060101226e-02 -1.229517030257781668e-01 5.020774639713924126e-01
-1.160861356434119279e-01 -1.007613280256660915e-01 4.679374316038794057e-01
-4.143655676761322237e-02 -7.368529613327427785e-02 4.444043644343173560e-01
-4.143122534065342422e-02 -8.233673706811607540e-02 4.482636627727001333e-01
-6.686682431219388711e-02 -9.382501290990347131e-02 4.513232177227012865e-01
