-4.163442639536396594e-02 -7.477542094685397933e-02 4.449939567492719461e-01
-6.195441405859344192e-02 -1.067787062424389588e-01 4.658527082706432343e-01
-4.617723586700492322e-02 -1.144162205517945674e-01 4.825811610667744556e-01
-1.836611660341577051e-02 -1.239720433859767268e-01 5.001194654456903033e-01
-7.260167338994823194e-02 -5.842741180017704816e-02 4.387597305436892747e-01
-2.485744472692089785e-02 -1.238727444386990700e-01 5.084261379161343353e-01
-1.019460867914934177e-01 -1.066522372004516245e-01 4.593050220831359498e-01
-3.320678880165005287e-02 -1.123233337106704088e-01 4.781115856794753705e-01
-7.830678110115706081e-02 -6.607038136785402249e-02 4.380743185521771554e-01
-1.787195870320565372e-02 -1.131088063009482170e-01 5.597029692946149382e-01
-5.878631280258692776e-02 -1.205334632432369379e-01 5.198640951145998557e-01
-5.518647987283520351e-02 -9.213659181445318924e-02 4.522492398594918361e-01
-1.013713047930602518e-01 -9.480187973437735616e-02 4.522822639445539528e-01
-8.916338867628674503e-02 -1.187640172665232613e-01 5.143891535377540514e-01
-5.367142245528334216e-02 -7.182604964954902860e-02 4.431826846484205884e-01
-2.702186530039828519e-02 -1.073706868552479765e-01 5.546442761906903440e-01
-1.073821800361008938e-01 -1.204246566294641801e-01 4.991531073295939480e-01
-6.172796746640335508e-02 -1.208782657827129903e-01 5.028177089388313759e-01
-2.830811544189149390e-02 -1.236269003804350702e-01 5.173361076939646530e-01
-6.514856258535670075e-02 -1.201322234897471697e-01 5.200868537173030104e-01
-1.150702440234173535e-01 -1.175621340342031668e-01 4.784278051007784804e-01
-6.767233298319232093e-02 -8.418445115377226617e-02 4.452193185592128732e-01
-6.716785179127965355e-02 -6.526738174590758501e-02 4.386861522564634575e-01
-3.361945871626331739e-02 -1.170399492230616567e-01 5.436731963870282680e-01
-7.187006866072649658e-02 -8.155773801850707549e-02 4.428708978464719337e-01
-6.916323256036673028e-02 -6.435614305010460556e-02 4.382343818946357605e-01
-8.429561570297063045e-02 -1.147027096342355390e-01 4.684165709043289216e-01
-5.639519620696246266e-02 -6.568299656914297624e-02 4.408733495335920849e-01
-6.512652513558882250e-02 -9.583457929505063977e-02 4.535889562480567849e-01
-1.094812619978946661e-01 -1.201951371034462174e-01 4.796241112665870499e-01
-1.341793966795458079e-02 -1.268716216710529809e-01 5.241679803590320041e-01
-5.026057422193606211e-02 -9.689730483615191514e-02 4.571711567914248930e-01
-7.051350513029026879e-02 -1.209869030127655315e-01 4.975502128609988195e-01
-4.893352145459835267e-02 -1.178256335578344027e-01 4.910178963798454421e-01
-4.722482771467284568e-02 -9.767212511869438618e-02 4.585362872729347727e-01
-4.940820647586325470e-02 -6.883700381745430641e-02 4.425808957076645678e-01
-1.049379465279309809e-01 -1.096109048825971016e-01 4.625648699855589019e-01
-9.188623596486143394e-03 -1.233417058973074326e-01 5.399715333496805103e-01
-2.638212988370506121e-02 -1.193168196154971439e-01 5.466918088207793902e-01
-1.524024510305449151e-02 -1.248210662922095704e-01 5.009216642212623860e-01
-2.293865645057690736e-02 -1.149082722199579326e-01 5.555231215207714346e-01
-1.071680455668638926e-01 -9.601480170596712882e-02 4.566448150101909409e-01
-6.926885440923560844e-02 -1.179396801048603061e-01 5.227123622282437987e-01
-1.121062258186997784e-01 -1.206622061887724917e-01 4.854428355559786135e-01
-7.624084901827837824e-02 -9.258394054433312370e-02 4.500232222505975432e-01
-9.202123648708405990e-02 -8.346284940049077117e-02 4.465377065584504312e-01
-5.662256171493076917e-02 -1.207665439402235974e-01 5.058227177659526674e-01
-9.610678154449357746e-02 -1.185818828100194400e-01 4.655613189703167176e-01
-4.330976732216675062e-02 -1.163150219525985324e-01 5.378663886562038421e-01
-9.351124968558337247e-02 -9.835126704020819011e-02 4.526062661890045691e-01
-7.950492224934185836e-02 -8.844248991679101723e-02 4.469995941698700070e-01
-7.064021531745763582e-02 -7.343106513707034488e-02 4.401828654576789845e-01
-2.835475189909555244e-02 -9.719014077919606309e-02 4.583915349339430789e-01
-2.771757233779341065e-02 -9.945476308176195990e-02 4.601923052302403505e-01
-1.112461333626072330e-01 -1.209774937393362226e-01 4.861193853880493854e-01
-1.050117471738941100e-01 -1.214867496322637325e-01 4.813889579017506803e-01
-1.912835906305370565e-02 -1.192895581096113378e-01 5.508745123504331653e-01
-8.542736569911356381e-02 -1.219852307043952228e-01 4.968700834300823210e-01
-5.331034383320811670e-02 -1.058155014046747305e-01 5.374745490260777192e-01
-9.314365718410273776e-02 -1.210298108720355148e-01 5.078052378112594134e-01
-4.054578208854513893e-02 -1.212717153024412825e-01 5.303025059836865562e-01
-6.244863056770885712e-02 -1.069425692524294258e-01 4.659550991633389372e-01
-8.935343750545089725e-02 -1.211234387565260917e-01 4.863913340602828983e-01
-2.776343524243731972e-02 -1.087777048393021168e-01 4.718211266544609650e-01
-2.146825267189892208e-02 -1.037682212252004077e-01 4.623511072983075842e-01
-8.669364577823325535e-02 -9.100152789290362476e-02 4.485859428991840758e-01
-7.774690447693434481e-02 -1.218856500237254503e-01 5.066565171679969781e-01
-1.580336257538157360e-02 -1.166431280929091513e-01 4.788126168668578320e-01
-9.208181185065346386e-02 -7.700165835924270563e-02 4.482484576213621730e-01
-9.655717820872160295e-02 -1.216666073668108555e-01 4.780114727164010424e-01
-7.829233597046933446e-02 -1.078629710493937688e-01 4.630637495220838451e-01
-8.754770481978470242e-02 -1.218877624107408547e-01 4.934730108744961874e-01
-2.613859277599997477e-02 -1.104801834992012594e-01 5.551163952717355077e-01
-5.261111374902430193e-02 -7.851002753001970480e-02 4.456453066679598729e-01
-5.824061031646650399e-02 -1.163671356820325659e-01 4.857846461132377391e-01
-3.466466369783476054e-02 -7.751542335649451443e-02 4.457326064399034782e-01
-7.008050238978830171e-02 -1.197676867228229247e-01 5.187425837697071662e-01
-2.190970465954077129e-02 -9.866280799204585339e-02 5.613415113744031348e-01
-6.473492870579983238e-02 -1.143684027674372050e-01 4.791148110351615141e-01
-2.947442799120099724e-02 -1.031045837768189005e-01 4.644747059186609683e-01
-6.880767613373879599e-02 -1.197845160792472968e-01 4.924073360654870335e-01
-2.655694685588385479e-02 -1.088535816315478327e-01 5.549045589110664922e-01
-4.526131739964097539e-02 -8.237685192222861386e-02 4.481814809983237224e-01
-7.755533223743768523e-02 -1.165521023740956064e-01 4.773912650648522438e-01
-7.739052768648542469e-02 -1.197256099253878464e-01 5.177329661467537925e-01
-8.936868885386820005e-02 -1.220267057548071882e-01 4.924093056429781901e-01
-6.861709581414773829e-02 -1.076191242045495683e-01 4.653608670959135107e-01
-2.700706372694875596e-02 -1.238196744821917217e-01 5.146008404466630992e-01
-8.323956751897587658e-02 -1.062187665159662481e-01 4.597594591528418317e-01
-8.652699042591470435e-02 -7.077665552813587613e-02 4.430998365021693863e-01
-6.700575638036070092e-02 -5.786105042209915145e-02 4.383362609992715875e-01
-3.480034050475871998e-02 -1.213021587788309236e-01 5.025777307315693054e-01
-1.211520963226982162e-02 -1.194218835716547716e-01 5.520955716340403274e-01
-9.097414915307958094e-02 -1.213697870492972120e-01 4.789313135986059122e-01
-1.013638255914253161e-01 -1.226367762640667575e-01 4.899297150229454667e-01
-1.089167334351441169e-01 -1.126508188397254695e-01 4.670828086490972364e-01
-1.142238425409122515e-01 -1.203540705329702032e-01 4.872922857713035683e-01
-3.658544400591180051e-02 -1.170154195509863632e-01 5.411970508868482188e-01
-4.389370753251476548e-02 -1.212728365364822702e-01 5.080118955630441580e-01
-4.927224641024862545e-02 -1.211857027257187275e-01 5.108141798551528723e-01
-1.124076632145345200e-01 -1.199324690424857509e-01 4.969788883845055460e-01
-1.190626267240156057e-02 -1.226465130740294479e-01 4.909922832066472287e-01
-6.585865154774032948e-02 -1.159623760160570505e-01 5.269740254496065868e-01
-5.203159476759751378e-02 -9.004650828526787609e-02 4.514548412676790967e-01
-7.922336528766431990e-04 -1.288976483437637710e-01 5.150979099502599468e-01
-5.877534716300069489e-02 -1.101831596099882987e-01 4.722116632832160099e-01
-7.302444135984716145e-02 -1.076044688779916464e-01 4.642519703568214751e-01
-8.845999414942132266e-02 -1.210422691706633108e-01 5.094272446579978242e-01
-3.680013884291085530e-02 -1.090901788321739507e-01 4.730290919349134926e-01
-6.998439674037090774e-02 -1.007199818646679068e-01 4.573445490043108741e-01
-7.584266222673352598e-02 -1.162957246497999253e-01 4.778719550470552635e-01
-8.838354330762204780e-02 -1.058899700496454543e-01 4.584513024950083726e-01
-7.905180256109053949e-02 -1.218210462560010976e-01 5.072586989335137186e-01
-2.652118985311366361e-02 -1.007768789002519289e-01 4.609497578932515993e-01
-1.029491425496534412e-01 -1.145955479081911671e-01 5.080511568947440049e-01
-5.991029454837438345e-02 -9.470761142572745039e-02 4.534408349817928285e-01
-5.878994430750956318e-02 -1.068930029167536183e-01 4.668723440471121422e-01
-2.075396683797837982e-02 -1.242537120630684416e-01 5.349912734429719263e-01
-9.459815510383884352e-02 -1.222007230867129673e-01 4.759109090314239121e-01
-6.822450428290263713e-02 -1.141228082512118214e-01 5.281483028216049647e-01
-9.110087516599334190e-02 -8.026391305447894142e-02 4.467394084264625920e-01
-5.105164285048252593e-02 -1.084840092424047414e-01 4.712380855602065211e-01
-1.113677515475238432e-02 -1.268646352196407256e-01 5.072943641162350747e-01
-6.455323400203390183e-02 -8.565779430359839186e-02 4.465648641359804549e-01
-2.920551832340453555e-02 -1.189232886594490668e-01 4.912078283486560615e-01
-5.748451172633409906e-02 -1.100858261181519859e-01 4.723536872745942583e-01
-6.093161503041728128e-02 -1.198882747723643005e-01 5.219368622644718902e-01
-7.574096391482885993e-02 -9.985591431607471202e-02 4.556605650955885545e-01
-6.402789516140186543e-02 -8.656353107353800813e-02 4.471941997548333769e-01
-7.371025206366607629e-02 -9.474057896096745035e-02 4.519125908374032052e-01
-1.204669862312588574e-01 -1.102689021715137080e-01 4.784063224349795473e-01
-4.751284447867263477e-02 -1.138455662426357401e-01 4.813728967633000289e-01
-7.229522777496685815e-02 -7.866355643162958877e-02 4.415192641814670860e-01
-3.964257733766590741e-02 -9.081742979935453208e-02 4.541278243660646363e-01
-5.267052125339226343e-02 -1.024509651122521570e-01 4.622013424167094042e-01
-9.734993170500419457e-02 -1.223604945581633213e-01 4.854695194996854202e-01
-8.525711140983504438e-03 -1.225912468025011637e-01 5.420663631964415252e-01
-4.444722384111231273e-02 -1.214903334647167155e-01 5.122307178124788640e-01
-3.446037445279415828e-02 -1.159515219161943167e-01 5.439233979246611561e-01
-5.888102377438927254e-02 -1.199620456439874361e-01 5.223526750226233917e-01
-8.114542635926555447e-02 -1.098522893385582289e-01 4.640529771754400290e-01
-9.204144436745015367e-02 -1.215907289188653401e-01 4.781325773834378401e-01
-3.203040547402187521e-02 -8.670728380564776683e-02 4.510365064688862113e-01
-2.855190178715455093e-02 -1.043831025189309314e-01 4.657425975613803115e-01
-9.366971617022282204e-02 -1.074159198198565424e-01 4.587805563876806714e-01
-4.504211230589908604e-02 -7.642103713488783423e-02 4.456821871385480693e-01
-7.709359758538900098e-02 -1.130238349372296586e-01 5.264640380181148105e-01
-2.007094908569114627e-02 -9.847488285575577149e-02 5.637972113688799469e-01
-2.569317768183233125e-02 -9.747068303623382390e-02 4.577116843822006675e-01
-2.587475219007190699e-02 -1.207968169221453753e-01 4.947346909192282260e-01
-3.808641818936836509e-02 -1.166280702809791431e-01 4.872844221507582341e-01
-5.352020999869640250e-02 -1.038875331195186907e-01 4.639703832628095936e-01
-1.969203830196106231e-02 -1.226822232076862640e-01 4.964466762990736304e-01
-7.429253878286964929e-02 -6.199374652918775846e-02 4.378991552906701390e-01
-2.077231371740651325e-02 -1.237741025756082941e-01 5.016133394524018296e-01
-8.503874798878324759e-02 -1.203192940505041775e-01 5.124938844885378320e-01
-1.607963835139640182e-02 -1.211950683560989728e-01 4.892280782342851020e-01
-1.353451542414416120e-02 -1.236339225439506695e-01 5.404606446129087693e-01
-6.259910185966785501e-02 -1.038376639922806016e-01 4.617814852942502268e-01
-3.448743944877128570e-02 -8.887349882918303690e-02 4.528912054783217900e-01
-6.060412544454442732e-03 -1.241244550087934329e-01 5.363060288784665675e-01
-1.208291731422991844e-01 -1.101277041548896773e-01 4.810137348825969661e-01
-2.848282162303207576e-02 -1.236383013592455837e-01 5.235416756012605255e-01
-7.470884656994053463e-02 -1.162543574977469019e-01 4.784593682476920296e-01
-2.160344747442665206e-02 -1.197276074861936962e-01 5.489097451783944148e-01
-1.145610602330401073e-01 -1.193459903944342759e-01 4.812866329799567744e-01
-8.956017541758219680e-02 -1.037534866475682688e-01 4.565979941641088447e-01
-3.973696044924191623e-02 -1.219642909850295331e-01 5.140382648376130570e-01
-5.577297027962231646e-02 -1.187915695530036425e-01 5.271385946443110093e-01
-8.135685041132596773e-02 -1.094398578540168587e-01 5.252004273656145639e-01
-8.913123910997257371e-02 -8.469123901467288940e-02 4.461623134820992820e-01
-7.120554273556711777e-02 -1.163394800170367144e-01 4.805947508806094892e-01
-2.977527481845831936e-02 -8.463097212544110071e-02 4.491074938847268161e-01
-4.818075342544773931e-02 -1.199331229163754786e-01 5.003587481258288117e-01
-1.079741676251882720e-01 -1.202830494873927125e-01 4.992079241034785286e-01
-1.115050544307685625e-02 -1.255778610286220343e-01 5.005085711552803573e-01
-8.362235365697122391e-02 -9.195212216912657111e-02 4.491386195335279607e-01
-8.589952104985687509e-02 -1.220035835918181627e-01 5.031933725923988243e-01
-1.313046827630473361e-02 -1.267930351748079720e-01 5.250295579523973633e-01
-5.396107837712539601e-02 -1.201359664548434791e-01 5.234882698645372257e-01
-1.005416242458196108e-01 -1.166596648513660017e-01 4.674598545387323445e-01
-7.227091996046784705e-02 -7.051344045399321470e-02 4.390008842777827769e-01
-5.657780496781413676e-02 -1.181468297624991837e-01 4.920991681013328622e-01
-4.302496557745764255e-02 -8.059970661803859959e-02 4.476822492951894605e-01
-1.193311275626175866e-01 -1.105208751461749933e-01 4.760177939920431367e-01
-7.777041080676611040e-02 -1.151635681464185518e-01 4.743710425440344491e-01
-3.920315136069212753e-02 -1.095734175277256750e-01 5.427595047726025967e-01
-5.313546682859733583e-02 -7.499583534794135309e-02 4.442744697347355554e-01
-1.032237266175915769e-01 -1.225739363755141698e-01 4.925892874280846101e-01
-4.996422709443198995e-02 -1.197330932962566430e-01 5.265584520432619042e-01
-1.034764096800556560e-01 -1.207791728398391329e-01 5.009018820514411496e-01
-6.402139342647800158e-02 -9.435457154726439866e-02 4.525749089405992076e-01
-6.676543034333873305e-02 -1.103114343524373708e-01 5.298962426305695583e-01
-5.233923975761987230e-02 -8.799063669014120515e-02 4.501406250531175823e-01
-7.922772470886939311e-02 -1.219323234791269556e-01 5.001265425601003622e-01
-3.944165144153361641e-02 -1.197959732781070791e-01 4.973531085682215136e-01
-1.747909871067910084e-02 -1.251801158285530124e-01 5.052744576803572807e-01
-4.209107898494799521e-03 -1.270147790964152867e-01 5.027006063261846291e-01
-4.734513458050475243e-02 -1.214548070220641401e-01 5.143374302209432480e-01
-6.109337807449588542e-02 -1.212202398168921447e-01 5.081402118130381451e-01
-4.936752058806725268e-02 -1.184644940210319297e-01 5.317531134965286510e-01
-3.986838967092222463e-02 -1.021875513758357945e-01 4.641989046739743441e-01
-8.809209130334837157e-02 -1.188320581171664891e-01 4.712281916208057031e-01
-4.920062152266791583e-02 -1.208740428529394423e-01 5.069483068191096287e-01
-8.617819040147271792e-02 -1.201372483402623204e-01 4.801766651441081168e-01
-5.510273714547241075e-02 -1.125552288776525134e-01 4.777472106055145606e-01
-9.039434756381885261e-02 -7.299503723786482379e-02 4.473624251573399824e-01
-6.881482165407476481e-02 -8.314139389435112881e-02 4.443798213411198073e-01
-1.098123968156186486e-01 -1.029621696537422609e-01 4.586390573570103824e-01
-1.469822877333728725e-02 -1.267573739010777467e-01 5.173865343861244748e-01
-3.741920884142801995e-02 -9.134209024503046892e-02 4.547371286503892329e-01
-5.610481590496949056e-02 -1.165346594473553321e-01 5.311970659021788554e-01
-6.359608804862544595e-02 -1.215403442486485824e-01 5.101073646987740462e-01
-1.047856105884252126e-01 -1.158800151999659356e-01 4.689249549750777457e-01
-6.872987543564511304e-02 -5.421664225402285375e-02 4.399306383958170863e-01
-6.430680738439581434e-02 -8.045714535187169225e-02 4.438736016361731207e-01
-8.577209533095819793e-02 -1.096483693244185431e-01 5.214065167804224910e-01
-5.395233288531058047e-02 -1.028370274095626036e-01 4.623996870052739516e-01
-1.077107068848846133e-01 -1.210586017091554861e-01 4.973577547184435677e-01
-8.664765913321215152e-02 -9.747711445531855035e-02 4.524138302957889657e-01
-3.887733867671584742e-02 -1.221541341394352248e-01 5.187517164987933693e-01
-1.145379428250945519e-01 -1.182095484429139115e-01 4.959831516415447172e-01
-7.167896468010856448e-02 -1.187576802371468759e-01 4.872352552645508039e-01
-6.166702663787162336e-02 -1.148523593831520667e-01 4.811935990336337343e-01
-4.773073501252541456e-02 -1.088194933259400421e-01 5.397098608459313107e-01
-9.874405062823551904e-02 -1.227068203016974945e-01 4.913225836675311764e-01
-1.060240466828515915e-01 -9.525855260246807177e-02 4.558633447952958329e-01
-9.548952823665060943e-03 -1.278709504399949404e-01 5.214425958089221602e-01
-6.254596087107749947e-02 -1.127205009457423190e-01 5.308441586430501236e-01
-5.604585716498994979e-02 -1.178213131524553370e-01 4.909088192109980486e-01
-2.811112866364961268e-03 -1.276729125176092328e-01 5.296230552662153368e-01
-7.064402870050848215e-02 -7.025149839603618551e-02 4.392442212273682256e-01
-6.931236444845277622e-02 -1.200282912351119669e-01 4.933172954929706533e-01
-2.398914433754823633e-02 -1.235244058598263528e-01 5.349056788614143798e-01
-9.933224982950863979e-02 -1.130451246369420376e-01 4.636093129066766738e-01
-7.140897054369549357e-02 -5.774846644755619179e-02 4.388991071343201766e-01
-2.182226719484624960e-02 -1.036809042699916306e-01 5.618973718835132969e-01
-6.044458959356888844e-02 -8.022587233098998905e-02 4.447334688749271514e-01
-8.060072310837476661e-02 -6.423686803480153917e-02 4.399106401472414052e-01
-1.451861525693235594e-02 -1.258791674676523198e-01 5.308885591872584131e-01
-1.043940562885955908e-01 -1.179950046423753757e-01 4.712837107769325962e-01
-7.877279109781698541e-02 -1.122749024483498115e-01 5.264299565043898399e-01
-3.186710176562176228e-02 -1.192181879285807572e-01 4.927299382632088776e-01
-8.022041298940087162e-02 -1.118886877628807730e-01 4.672214189431161957e-01
-5.832887285612143452e-02 -6.824126937568029960e-02 4.413967424204182088e-01
-6.685376521465100086e-02 -1.099812888947486744e-01 5.299583516944459394e-01
-6.840976040311529116e-02 -1.092793439823385171e-01 4.681864967360410135e-01
-2.338589498865602939e-02 -1.247176128441709192e-01 5.184737422748719737e-01
-6.511838416130316665e-02 -1.110365233730345597e-01 4.721142681314141609e-01
-1.169616184986426582e-02 -1.249628119686963523e-01 4.987159591739608877e-01
-3.320613763275236108e-02 -1.224055451731881350e-01 5.296450510246497601e-01
-4.779999175799611033e-02 -1.183267998796144888e-01 4.927720085437419795e-01
-1.183375614355985060e-02 -1.047583842070232696e-01 5.662340654188547928e-01
-5.396456411205422660e-02 -6.521791228731754764e-02 4.410809644739264734e-01
-5.228330515914504650e-02 -1.099073235082903000e-01 5.369602886379697404e-01
-3.537071686527362008e-02 -8.550999034148488998e-02 4.505103484561536198e-01
-3.793550905061263828e-02 -1.054552668528850740e-01 4.680056910494105882e-01
-4.795683918910481625e-02 -1.171390439755952695e-01 4.887771942237215117e-01
-5.759741294577335607e-02 -1.147727068930795569e-01 4.818504345924700116e-01
-6.891166275012867992e-02 -9.629506936186219002e-02 4.536043765078349166e-01
-5.808096720125533602e-02 -1.187628640901174371e-01 4.942090680753781218e-01
-9.644871129694995715e-02 -1.201495902015433936e-01 5.095346750238441969e-01
-2.292186742013826994e-02 -1.246426252260285361e-01 5.122316116989976686e-01
-8.462300625827871847e-02 -1.009842967432503930e-01 4.551969806101801574e-01
-9.510903503989130703e-02 -1.222990986410691788e-01 4.873889760018255690e-01
-6.018102153304589336e-02 -1.197608829485987264e-01 5.226381394493050392e-01
-1.007188370739044575e-01 -1.039888010517436706e-01 4.570804251731951928e-01
-2.661286094322921209e-02 -1.167651510779146029e-01 4.854426268167910674e-01
-1.182069372447181743e-01 -1.019467988046432877e-01 4.724988327732939086e-01
-7.081478175880608072e-02 -1.217684147710068610e-01 5.058655380471400731e-01
-4.019876222139129318e-02 -7.753372139182992950e-02 4.461464648887294437e-01
-4.819236966838887776e-02 -1.004661895506818725e-01 4.609586285428224905e-01
-7.565108562981527618e-02 -8.183563581543723542e-02 4.426238592638624403e-01
-4.032077154393631790e-02 -7.431462081976282497e-02 4.447262996321802442e-01
-1.033719544774555493e-01 -8.965939578670271970e-02 4.538643416203272940e-01
-4.405789386901421550e-02 -1.216690052394310412e-01 5.166104886062370394e-01
-5.625848691986033712e-02 -6.804100942756972914e-02 4.416569568082457931e-01
-7.129928755569817089e-02 -8.944907826064499301e-02 4.481184867644895098e-01
-5.880973581381677973e-02 -1.210993979742528426e-01 5.092959530756218101e-01
-3.029509537245783993e-02 -1.134183787504798591e-01 5.489617171433396337e-01
-1.504349906637081694e-02 -1.237890390759019271e-01 5.396449577024957645e-01
-3.201385074302540851e-02 -1.217430943195649679e-01 5.352365381116480636e-01
-1.302430056641845288e-02 -9.980833748439804642e-02 5.671691061044695781e-01
-1.788280599651956987e-02 -1.260423388165890779e-01 5.191863562416285660e-01
-9.496705676084712944e-02 -1.215363577186666516e-01 4.831240891143612770e-01
-1.046179404288100634e-01 -1.065175153424262749e-01 4.598009500811200412e-01
-1.569855510522603220e-02 -1.219431428572354398e-01 4.910719552790807074e-01
-1.084643244718533767e-01 -1.151615737352871122e-01 4.698030266732831084e-01
-6.809073296725597080e-02 -6.027049513570215816e-02 4.379922809502905801e-01
-9.554228527272733140e-02 -1.014697100512233913e-01 4.549038931844858746e-01
-2.472438928367243563e-02 -1.028288090553019091e-01 5.568263605453601661e-01
-6.441728504701724201e-02 -1.096412881834657599e-01 5.310093275078154873e-01
-8.178652961554844225e-02 -1.110226293459325164e-01 5.233290648737273232e-01
-4.839830039367011560e-02 -9.300383125263304851e-02 4.543272763236591016e-01
-4.342108535045390016e-02 -1.106006728016089569e-01 5.405198705025293648e-01
-6.078315393663086263e-02 -1.208901418169673198e-01 5.035841885135354801e-01
-7.437707137857509088e-02 -1.124823422396633438e-01 5.274414064215088294e-01
-3.300595184886592759e-02 -1.126252907217171334e-01 5.461673508127563581e-01
-5.290226083392732953e-02 -9.286411689464309227e-02 4.531430932558380698e-01
-1.154116500219005415e-01 -1.058296813085640165e-01 4.660480365611069931e-01
-5.478394652062489045e-02 -1.201768155375070590e-01 5.018740572617729212e-01
-9.772860807289930618e-02 -1.220815154498237076e-01 4.834724420165274483e-01
-7.088328610980579314e-02 -1.002765907201199624e-01 4.567913938722651390e-01
-3.910214442880829283e-02 -1.219680698912673361e-01 5.122832953350022756e-01
-3.261392585958685503e-02 -1.151613146805669785e-01 4.838015130641925010e-01
-9.006388205370116640e-02 -1.217178747790308990e-01 5.045849091598143543e-01
-2.512910486572419652e-02 -9.730730290641215197e-02 4.573732731715113298e-01
-6.595025470436022275e-02 -1.095328335869137915e-01 4.693721596548612318e-01
-3.102580436981890871e-02 -8.899906550940034355e-02 4.525254916715061859e-01
-1.004352428825260324e-01 -1.139405919176664367e-01 4.652365844180840204e-01
-9.122148215419884076e-02 -1.148821650395634580e-01 4.629746826839408191e-01
-9.642731350516600686e-02 -8.825486821483079225e-02 4.497626306285856801e-01
-3.343020277538437390e-02 -1.113388140336591670e-01 4.763040387785551499e-01
-9.999781108320621170e-02 -1.072698397984207519e-01 4.594512579243211770e-01
-8.646931337702518094e-02 -6.825930179322046987e-02 4.429297090770119016e-01
-1.149378148653068393e-01 -1.109549734334225046e-01 4.689125511760346421e-01
-1.182257894524195718e-01 -1.138865278130159475e-01 4.816887322015569461e-01
-8.440796579518894394e-02 -1.196650348605293457e-01 4.845044938273863622e-01
-8.571494948881074050e-02 -1.199288611549289979e-01 4.830855776560150638e-01
-6.875594054402883737e-02 -1.103627605872507939e-01 4.699048300206600803e-01
-3.953580231720459082e-02 -1.214792934725925505e-01 5.293463413952260721e-01
-8.155904990255051501e-02 -1.170231874217237122e-01 4.743058511387485132e-01
-3.566941283885511488e-02 -7.965197593117082087e-02 4.469811253485557190e-01
-3.599107129783468001e-02 -1.223859818381080322e-01 5.249702610418798265e-01
-6.490019718592947295e-02 -7.158449521798164461e-02 4.407813606143206053e-01
-6.506770628804221801e-02 -8.753795494345177619e-02 4.476178167744192526e-01
-7.888562639808031907e-02 -1.200918115370307043e-01 4.893621927360938817e-01
-6.210809566903846557e-02 -6.611989628271333630e-02 4.399859799706208330e-01
-6.735472920624888116e-02 -7.768154384345439534e-02 4.421404164574256335e-01
-8.700404992565090312e-02 -8.533304363036776918e-02 4.458851393597259016e-01
-4.428039472664155318e-02 -1.215016159286939623e-01 5.122283870430937025e-01
-1.047079392167554468e-01 -9.276683733805435317e-02 4.547807159180458081e-01
-9.509532199515752238e-02 -1.225998117744279831e-01 4.744077847435648754e-01
-1.510538744153553693e-02 -1.258715278492707479e-01 5.307028939817372004e-01
-1.150176422165636037e-01 -1.170296342947862861e-01 4.970545325406992010e-01
-8.214458956154110925e-02 -1.121440292892265378e-01 4.664792241728142885e-01
-5.802878282827725331e-02 -1.006028099920857483e-01 4.589697617431272025e-01
-2.657575283633231353e-02 -1.177110991769129700e-01 4.876478519368531162e-01
-3.697759651632355482e-02 -1.078175869904109685e-01 5.436687745631380020e-01
-5.211293029349267636e-02 -1.063384431850832867e-01 4.677260773641289116e-01
-1.981404945994989786e-02 -9.643824510441983966e-02 5.633899876203573021e-01
-1.109836483775554633e-01 -1.207994494159905230e-01 4.950427400918624432e-01
-8.526738336791161998e-02 -1.166765562478366686e-01 5.182145782786097277e-01
-7.117307266512526431e-02 -1.217791052001213348e-01 5.075804879521897961e-01
-2.735205400011111315e-02 -1.235642404327422922e-01 5.114116980126814926e-01
-5.565391770472292998e-02 -7.618843530173630141e-02 4.443213526721721540e-01
-3.111650551465477629e-02 -9.754457568428584469e-02 4.595588712543533516e-01
-5.794026893602290812e-02 -1.185504923183916537e-01 5.270070216775033511e-01
-4.851993349646831211e-02 -1.209778110927931249e-01 5.079964875016990122e-01
-7.549258920589474453e-02 -1.213148398488583662e-01 5.125158861301987168e-01
-6.962370880784179983e-02 -1.123704221239044954e-01 4.730012696698600583e-01
-1.434108596045395763e-02 -1.253330835196569959e-01 5.025775955438741560e-01
-2.040482200513674474e-02 -1.251672868840847663e-01 5.112792042417415583e-01
-3.489349579194418738e-02 -1.200611804457834136e-01 4.967907878687130019e-01
-6.667235464383231003e-02 -1.101920488436172879e-01 4.703076713541156639e-01
-9.857663334031650793e-02 -1.126614438000302781e-01 4.626836300425460347e-01
-1.269462761494342257e-02 -1.165817836325013235e-01 4.775999598633863807e-01
-2.948555491176181598e-02 -1.054470632889995957e-01 4.672667151351299619e-01
-2.701255419005650638e-02 -1.171140464794858949e-01 4.865567578533149251e-01
-2.777369808561743272e-02 -9.694239077599016430e-02 4.579683743710117327e-01
-1.430831453533914013e-02 -1.044560434152662920e-01 5.658487847222973821e-01
-2.314084637467487757e-02 -1.164537160005270217e-01 5.537871688336701848e-01
-7.305441846749802237e-02 -1.130029601927877853e-01 5.275057925160082650e-01
-1.094228591234141790e-01 -1.213443845242606761e-01 4.941812722905546407e-01
-1.485428858952054891e-02 -1.254474830456142331e-01 5.323885214854443548e-01
-2.977869965247405618e-02 -8.756475301521356169e-02 4.511484787842433009e-01
-9.892939166855538313e-02 -1.185710714736623733e-01 5.096844823517622247e-01
-1.065356263430560085e-01 -1.217241220539415497e-01 4.846419709787097019e-01
-5.199587165597947119e-02 -1.054159333164108314e-01 5.382595383547706946e-01
-4.705063653733018714e-02 -1.071646446826729909e-01 4.699745185450455720e-01
-6.843848630778333331e-02 -6.066427643053226570e-02 4.379732670622296098e-01
-6.836300266963596384e-02 -1.191843921433735770e-01 4.904443567017908734e-01
-8.192273903059542339e-02 -1.106788079577954304e-01 4.645805137768524995e-01
-1.716872266180791487e-02 -1.209347288041408564e-01 4.891821186342957262e-01
-4.669429868897213148e-02 -1.087952580973857997e-01 5.400480744029166891e-01
-2.871282871019746608e-02 -1.072006706889481464e-01 5.517601673323966338e-01
-9.755354426162303472e-02 -8.281054726535984345e-02 4.507990122055353654e-01
-4.901506199698635151e-03 -1.208520756161496623e-01 5.430307863919193734e-01
-2.248378447242835657e-02 -1.035076438510051516e-01 4.624671892352796854e-01
-5.601249208132409035e-02 -8.234428522246320381e-02 4.465046679621482717e-01
-9.503522800609209842e-02 -8.360430667329502019e-02 4.483021983253352438e-01
-4.056219558136142656e-02 -1.143109362450983879e-01 4.823142363411065947e-01
-4.386713054725487060e-02 -1.115231942469232379e-01 4.774181494597045661e-01
-6.427996614152024779e-02 -1.197022174405134726e-01 4.952152150473393410e-01
-7.688027677875398924e-02 -1.135157929307966523e-01 4.719182342013908960e-01
-6.413220595482167774e-02 -1.177299965806403448e-01 4.878434543694844527e-01
-6.143073194390342301e-02 -1.063126484854513415e-01 4.653236499044755003e-01
-5.057556380591264611e-02 -7.867347066203746186e-02 4.460658221674220214e-01
-2.003421512228570345e-02 -1.246896704357300378e-01 5.333945139459124185e-01
-5.241506051698518326e-02 -1.174883512374890193e-01 4.898821365591934374e-01
-2.728979905178860466e-02 -1.058356577721642627e-01 4.673665237178444842e-01
-8.953326593900114150e-02 -9.889936444997836362e-02 4.531662556994470736e-01
-5.443800913134265451e-02 -1.010412173930647084e-01 4.599100405213492615e-01
-3.253241001678579963e-02 -1.182014313132014327e-01 4.904422616881548569e-01
-3.831253949776675799e-02 -1.218407596843517071e-01 5.093139492379600286e-01
-4.376659328649604858e-02 -1.015925165584466300e-01 4.632736872693995478e-01
-7.428476988949919702e-02 -1.174115968837310120e-01 5.227076071272979130e-01
-8.597368970635733965e-02 -1.047482227718724707e-01 4.578796810039846288e-01
-4.517869993109550897e-02 -1.125517205137029769e-01 5.386604797824946500e-01
-2.853034866377077497e-02 -1.088353657309314854e-01 5.517458012777431975e-01
-1.212147390378803813e-01 -1.092247260028605393e-01 4.833787539041743408e-01
-1.025331775659964334e-01 -9.728381908898264818e-02 4.537754211401316962e-01
-3.557430358856263769e-02 -8.942057000283111512e-02 4.532986640741996642e-01
-3.675945397687149611e-03 -1.279454603904777166e-01 5.285711495708698138e-01
-1.388012461287240797e-02 -1.167424022451642590e-01 4.783179699657545414e-01
-6.942869547536276165e-02 -1.119680841180690917e-01 4.722894599277360772e-01
-1.093215403982990830e-01 -1.180595053343349299e-01 5.015992806921691916e-01
-8.008101943973269798e-02 -1.221793096198058592e-01 5.022957605544501325e-01
-5.711819709056244893e-02 -1.116372964411527779e-01 4.753998428588363523e-01
-1.135198780976277334e-02 -1.168055498998078479e-01 5.562759522276932156e-01
-7.432629103179314023e-02 -1.207270029241514359e-01 4.941397002849627351e-01
-4.495820523097142363e-02 -1.170045383748184176e-01 4.887290122826650762e-01
-8.840373141370501398e-02 -9.441195112021062708e-02 4.504793033068824060e-01
-1.066173462960531698e-01 -1.222163608291986503e-01 4.881973426083681677e-01
-6.394581772185636837e-02 -6.813622344633200878e-02 4.401129646614256319e-01
-7.998546767136992253e-02 -8.223405762848758072e-02 4.433128954292173129e-01
-4.148290300248290430e-02 -1.155792008437586255e-01 5.392436048070818888e-01
-1.836654822244175589e-02 -1.225124944172189811e-01 4.947209258912116381e-01
-4.774627013845496315e-02 -1.126456462308377260e-01 4.790053429459262269e-01
-4.321036691804558405e-02 -1.138242399323026455e-01 5.390956832263867904e-01
-4.073558598204808645e-02 -1.149855769263972843e-01 4.837452410538759517e-01
-8.049672490531686875e-02 -6.782326476159383777e-02 4.395256397288099803e-01
-1.623914314092445715e-02 -1.254882956439902497e-01 5.055329576289329108e-01
-8.872438418080658140e-02 -8.030340841549442332e-02 4.447886456164429347e-01
-6.122413181461762444e-02 -1.199279886964743358e-01 5.217081860731047627e-01
-2.224121049820423565e-02 -9.737829469878621358e-02 5.598114549999254619e-01
-6.611538955593584954e-02 -1.205524131230416018e-01 4.987693317112915636e-01
-4.652096958796399923e-02 -1.146760481031407208e-01 4.830628808300731492e-01
-5.307177955530636981e-02 -1.192684459571924233e-01 5.263095455332325034e-01
-3.645280081070081946e-02 -1.211133154439831550e-01 5.346215823276065926e-01
-9.645928449799459625e-02 -1.082914659601648538e-01 4.595086780643484192e-01
-1.158404292583947864e-01 -1.081218010356346654e-01 4.682266519561492646e-01
-6.431594376449341344e-02 -7.831729677901533293e-02 4.430837427138717421e-01
-4.900774563646057014e-02 -1.199890361774915010e-01 5.264993980353648295e-01
-6.990772481178834930e-02 -1.133624005605305685e-01 4.749597494479930182e-01
-1.014393570377471326e-01 -1.223781974791632032e-01 4.840711212457357582e-01
-8.036395568878705598e-02 -1.136056528657802545e-01 4.700565647169323014e-01
-5.307520178931644794e-02 -1.154190474169403680e-01 4.840406647437819343e-01
-1.151402496270280545e-01 -1.169205691877969605e-01 4.969542823808609788e-01
-9.822982355683805566e-02 -1.217146017898966259e-01 4.797808945258317803e-01
-6.092701577292829185e-02 -1.212987389370524804e-01 5.119538818501392363e-01
-3.535687329564642101e-02 -1.181547168118135538e-01 4.908168588082258976e-01
-8.443704550643212070e-02 -1.198113092648073197e-01 4.796790200341028987e-01
-8.448995264552050521e-02 -1.112336477673768476e-01 4.642550071412226975e-01
-5.593217992117629350e-02 -6.743039515258301975e-02 4.415076630675541236e-01
-3.585097690969374362e-02 -1.159599408799095177e-01 5.424816415089305233e-01
-2.338400218914097814e-02 -1.025625410098663509e-01 5.596237942973655288e-01
-2.567266392762669949e-02 -1.240493341497215379e-01 5.285171076253197819e-01
-5.873566261007189676e-02 -1.031635500991403692e-01 4.617369438269776638e-01
-7.312728910855006981e-02 -1.168852762640572029e-01 4.807228942257844584e-01
-1.409363123330950075e-02 -1.167548246335364387e-01 4.784098185207443232e-01
-5.997712867750867871e-02 -1.164025180544180499e-01 4.856442405623343506e-01
-9.189713432821863814e-02 -7.500961532587248348e-02 4.484536811861097871e-01
-1.065500946653260284e-01 -9.142575957818613319e-02 4.571899245977840698e-01
-5.771577212299051907e-02 -1.063595539051820221e-01 5.349903728721805418e-01
-5.090377914582201735e-02 -5.995098411959778884e-02 4.401540279855831184e-01
1.243141997655679114e-03 -1.286408823198186835e-01 5.135743935788279479e-01
-8.140738822273141384e-02 -1.216367598879757456e-01 4.956033287274002053e-01
-6.412218141091258206e-02 -1.178503234806036887e-01 5.251009745329684453e-01
-2.851719362694258436e-02 -1.060218435291021555e-01 4.678119376991310419e-01
-5.161493758886181310e-02 -1.208524189682611411e-01 5.066637971913615646e-01
-3.325895849625457035e-02 -1.066175459481705778e-01 4.691848536955214866e-01
-5.134937751654178317e-02 -5.872246564058084678e-02 4.399033598912284182e-01
-2.296484282780125730e-02 -1.054603935901693296e-01 4.651337292661409939e-01
-9.917664003410009421e-02 -1.072324072436587200e-01 4.593463403256258237e-01
-4.024240586720837648e-02 -1.215110605256185666e-01 5.078331633512819243e-01
-3.828576127510102678e-02 -1.209673336316945264e-01 5.339435459194933342e-01
-1.131098688690428816e-01 -1.002682504966667942e-01 4.617856463195790795e-01
-8.227831246009814636e-02 -1.198631329778923477e-01 4.882186083510394736e-01
-1.122147032734718483e-02 -1.065930767248496058e-01 5.654071933469217992e-01
-9.833685615481610465e-02 -1.228745960916776403e-01 4.724270826901915687e-01
-1.165150865857455947e-01 -1.000258784836095399e-01 4.686261531985357887e-01
-4.572064498951262934e-03 -1.276410082719933170e-01 5.291387963614293533e-01
-8.714529641571511567e-03 -1.267619115090126147e-01 5.047291803554044831e-01
-4.274841719806324325e-02 -8.444750593251418302e-02 4.495903996938987457e-01
-9.295432716351749447e-02 -1.027466139912689841e-01 4.557923102314730412e-01
-3.561331928572267908e-02 -1.224526326226557937e-01 5.243947338968902860e-01
-8.134283460688225553e-02 -1.220201677495646592e-01 5.050971521335501091e-01
-1.149202660229009659e-01 -1.076510026467885628e-01 4.663490831114976420e-01
-1.156575990165315398e-01 -1.014337124124074369e-01 4.658295193333641393e-01
-5.672770331293759682e-02 -7.043847312621721868e-02 4.423380444141299384e-01
-5.580914896290588983e-02 -9.020875686324164588e-02 4.509174436872476766e-01
-9.044709704909370540e-02 -1.223690125970360171e-01 4.985709503567534173e-01
-8.543529291207604959e-02 -1.193963732373809761e-01 5.141821704894293799e-01
-7.470339163330703969e-02 -1.042068668326871228e-01 4.600845946834383193e-01
-2.324743875367142609e-02 -1.222232364412449285e-01 5.416934080852519040e-01
-1.565751773016391124e-02 -1.231548233633146944e-01 5.427503766182256717e-01
-1.031300678185749914e-01 -1.181439336095277820e-01 4.709236804669488796e-01
-4.444305031511757570e-02 -1.184196462821458934e-01 5.357869342590464434e-01
-5.084018916742640004e-02 -1.212654949868060689e-01 5.120441671664424099e-01
-7.932423286208908908e-02 -1.080616912212698649e-01 4.629650693172575604e-01
-5.978310403487814562e-02 -1.193899194369656414e-01 5.244021450937592643e-01
-4.256282322667727380e-02 -1.216804792834817045e-01 5.219373448800864734e-01
-2.417856032437358874e-02 -1.160812858499309375e-01 4.825249614374362284e-01
-5.967952780814662211e-02 -1.197492540230634811e-01 5.228915325480381071e-01
-8.530944533022903620e-02 -1.218409562933615853e-01 4.948531591892524339e-01
-4.168322201343434980e-02 -7.574052446341832112e-02 4.454243618994873088e-01
-7.185324471766461885e-02 -9.536441618994863367e-02 4.525866128362222574e-01
-8.497280965282093257e-02 -1.193585660887516720e-01 4.755231832705101858e-01
-7.699454088142561499e-03 -1.278111686397278846e-01 5.102560853753196346e-01
