-2.787522337633412117e-02 -1.047602861630530652e-01 5.523000214596237578e-01
-3.957906677171219023e-02 -9.383725668090073246e-02 4.563435455787876460e-01
-1.945275189728909795e-02 -1.256651384647520242e-01 5.164153689782645662e-01
-4.276020868605102943e-02 -1.135760680384656218e-01 4.804357107377627556e-01
-9.725477385662424645e-02 -1.222724227138114322e-01 5.012466118501692769e-01
-6.588194597422823706e-02 -6.913810309600190718e-02 4.396567108158750958e-01
-1.162706508948077866e-01 -1.075994597333365249e-01 4.681297228340440819e-01
-5.316002882190126039e-02 -1.106270074183157287e-01 5.360567647921431478e-01
-5.919392619096802699e-02 -1.009408632333139572e-01 4.586127011794559616e-01
-5.724144347115325132e-02 -1.164711875439447819e-01 5.311307576373391903e-01
-1.061249595663263379e-01 -1.160022643821659594e-01 5.048836700121080989e-01
-5.398853934058020498e-02 -1.169896145811984284e-01 4.873964529120707878e-01
-3.977797481070103475e-02 -1.218125009200231729e-01 5.082710683053603962e-01
-2.453426824967121916e-02 -1.142030777299129080e-01 4.790926362655583137e-01
-2.899275046058429756e-02 -1.184071316053218331e-01 4.896721300482096417e-01
-1.748679403791895612e-02 -1.240607674395542565e-01 4.995076754546456943e-01
-1.295460926770574533e-02 -1.269145483117096462e-01 5.246831561325597804e-01
-8.954277265095736404e-02 -1.216203154250121710e-01 4.792657978793751772e-01
-7.465187872154099846e-02 -1.172598571455823330e-01 4.791595232999261711e-01
-9.120301146313049279e-02 -1.200277986150333209e-01 5.121679058124029016e-01
-8.635558648843900953e-02 -1.207767082212790610e-01 5.115213115740487870e-01
-2.603900112384321952e-02 -1.242457292868744956e-01 5.217294856587925134e-01
-9.288617440531352076e-02 -1.196139957140676113e-01 5.127179818997047445e-01
-5.310413116076355411e-02 -1.102021100240603568e-01 5.362499396387174766e-01
-6.167356664324221555e-02 -7.652895226854072863e-02 4.428539600633468187e-01
3.426666881653332459e-04 -1.289916694476521963e-01 5.171802299264117719e-01
-8.107873273046592444e-02 -9.080009737090344313e-02 4.480364813580439698e-01
-4.298136578293559190e-02 -1.210891027080570892e-01 5.311559001543836311e-01
-8.989637470086153659e-02 -1.221006083732988218e-01 5.057129676508071991e-01
-9.099694263588756910e-03 -1.278927586994126897e-01 5.144429227435665108e-01
-5.228152347495804847e-02 -1.216277006020474172e-01 5.140946336599319100e-01
-2.827664847925715885e-03 -1.273751727232720898e-01 5.305090637761863404e-01
-2.383831595810468815e-02 -1.044359552432083255e-01 4.639779292982301184e-01
-7.017370529797868628e-02 -7.521699493404235271e-02 4.405384399992893774e-01
-6.808328741139152429e-03 -1.277175389904696423e-01 5.270792299253377333e-01
-8.269708687298633898e-02 -1.221856345063426358e-01 4.942961312718610056e-01
-7.166488734086103041e-02 -1.162093447405378177e-01 5.253721237411265177e-01
-8.002036715177954229e-02 -1.121487984683937345e-01 4.664360781869210104e-01
-5.218674518723515066e-02 -7.993908402326931062e-02 4.460153666702186270e-01
-2.149228173981847234e-02 -1.211111238981547183e-01 5.459769958748619256e-01
-6.063926403614416233e-02 -9.937202866734630435e-02 4.568403109724099020e-01
-5.870886285521102754e-02 -1.208893024879896111e-01 5.189534249945083610e-01
-6.350943857335220044e-02 -1.117832956560078084e-01 4.729282845083622733e-01
-9.343328470487960793e-03 -1.266440896192523591e-01 5.041994879749346348e-01
-8.279380665919612581e-02 -1.091485555114409811e-01 5.229019398091743209e-01
-9.666909179640119365e-02 -8.523698529730200368e-02 4.494782731618673921e-01
-1.048943701921456334e-01 -1.232367432898207188e-01 4.887317617488466936e-01
-8.072352050823923542e-02 -1.196871015974246694e-01 4.856660970159412116e-01
-8.493707755510507273e-02 -7.320051596270754635e-02 4.412161325483231478e-01
-6.768846316519371714e-03 -1.280327588511837311e-01 5.107452805345149560e-01
-5.772322246286065023e-02 -9.113595235591419319e-02 4.508322719827911884e-01
-9.111968429297530314e-02 -1.216556650290740588e-01 5.079338266181662176e-01
-3.706769967310411668e-02 -1.092993694043202652e-01 4.729061227986595672e-01
-8.290598813773243647e-02 -1.049839939265032607e-01 4.579668939213937806e-01
-7.122054461803864478e-02 -8.946760068181756897e-02 4.477111688730979200e-01
-8.146565871099958889e-02 -1.174292860257014071e-01 4.734680419388682671e-01
-7.549518688732204108e-02 -8.966993038504807167e-02 4.476007690716027887e-01
-1.010894541887605302e-01 -9.842297402141103602e-02 4.533851859731657385e-01
-2.682652915972727481e-02 -1.146795304284361217e-01 4.809681655417945567e-01
-4.470730225433997007e-02 -1.162277202381977598e-01 5.370903002544520355e-01
-4.029039022733677672e-02 -1.087829573599966015e-01 5.423921558339830362e-01
-6.764535920412817482e-02 -1.195809944456608376e-01 5.203153251559700099e-01
-3.220852949091218553e-02 -1.116228325128455490e-01 4.762957133434885248e-01
-6.687375631211699145e-02 -6.055250663966658953e-02 4.381050467971853157e-01
-1.592677349309575691e-02 -1.242197629650010626e-01 5.378240410595405141e-01
-9.825125209098735379e-02 -8.140602451369215176e-02 4.539433223045243881e-01
-5.664955383318876631e-02 -5.616049814241368121e-02 4.388689273097412524e-01
-2.402309304551029229e-02 -1.044807391239777061e-01 4.640994833117629281e-01
-1.115300352993342653e-01 -9.987310080361341824e-02 4.591904685376207995e-01
-1.014992467675864540e-01 -1.189673294674430531e-01 4.702909392561582802e-01
-9.448217558811621009e-02 -1.214632519654675474e-01 5.073051862268972423e-01
-9.551086389509601954e-03 -1.226897584182169709e-01 4.904057724842529886e-01
-3.631915436669409802e-02 -1.159165948201970886e-01 4.851438037488342570e-01
-1.021280830659870159e-01 -1.233403297422307338e-01 4.925690984680933804e-01
-1.944594879902893439e-02 -1.238696565353739620e-01 5.002872477205184687e-01
-1.015909759272980301e-01 -1.233572894196637432e-01 4.933256550796977780e-01
-9.951269694042727543e-02 -1.230260343056227695e-01 4.716688050706068225e-01
-6.025820826481239657e-03 -1.282694269636799611e-01 5.122952971966630020e-01
-8.524212221071560125e-03 -1.153631083141495456e-01 5.583941144161849168e-01
-8.043983758448802757e-02 -1.127922627366844954e-01 4.672732755328884990e-01
-3.896635580451661418e-02 -1.187621515005063827e-01 4.927339715337096249e-01
-1.052457232634791545e-01 -1.221568467453080231e-01 4.814545185035463692e-01
-1.524736159428728005e-02 -1.189843079481813781e-01 4.834180225631027339e-01
-1.210121772630132625e-01 -1.102475043897769708e-01 4.821890107064707442e-01
-4.876804256564774148e-02 -1.048075338696248526e-01 4.657936544762991682e-01
-4.885033993933773216e-02 -7.679162113330634254e-02 4.453241320208159437e-01
-6.710228474836019141e-02 -6.523540010382825050e-02 4.385433182196924462e-01
-1.060531866274039142e-01 -1.196428803253043183e-01 4.747957294998895739e-01
-9.954824215822036249e-02 -1.099837865363373218e-01 4.606943713214624037e-01
-7.851712882001879446e-02 -1.133341655576649287e-01 4.692526904167883539e-01
-1.418758763367425867e-02 -1.124549795431145638e-01 5.613991040126169452e-01
-8.543028369204729022e-02 -7.880842546494142009e-02 4.427422346380751050e-01
-6.481664100364804837e-02 -8.718242059944686373e-02 4.470645863204898429e-01
-1.789610273902775966e-02 -1.217025525417315124e-01 4.915849315179139922e-01
-8.396290113217258488e-02 -9.676305291218276206e-02 4.516698407248927460e-01
-5.121834349296389144e-02 -6.930605124797187266e-02 4.424733164936731078e-01
-6.115856795391417383e-02 -1.213502307347869846e-01 5.042122410853683290e-01
-1.144622477582924458e-01 -1.153291444965411638e-01 4.989419610383877268e-01
-1.000601381200351830e-01 -1.111395669893636834e-01 4.616169628890265941e-01
-8.843318228361743416e-02 -1.226932643776131315e-01 4.965629846203501452e-01
-7.202304472478758546e-02 -1.133851429394092114e-01 4.725250190741496215e-01
-6.982061287053967225e-02 -8.198140247143112513e-02 4.430890506479276403e-01
-4.048429140680562255e-02 -1.183463579557250539e-01 4.915384291242465564e-01
-1.822229044316010793e-02 -1.257526013496831629e-01 5.285226457221952057e-01
-5.723197178659125695e-02 -1.202070476403542115e-01 4.991590130530073610e-01
-5.304380629960279286e-02 -1.206636887557998444e-01 5.028738928757577886e-01
-4.819667006162321049e-02 -7.042890427882921023e-02 4.430747601787868306e-01
-1.058798600973538395e-01 -1.229944498103131556e-01 4.894430942659333539e-01
-1.044286423266634345e-01 -1.195193982076467182e-01 4.721780861990890199e-01
-2.408140638748136955e-02 -1.228608665926402693e-01 5.003785822038518960e-01
-8.676446528794029556e-02 -1.212647450520931147e-01 4.856982799474831025e-01
-3.509205975947362471e-02 -1.182311124460592999e-01 4.903708082277994929e-01
-1.136320667663416779e-02 -1.252372203613368040e-01 4.992706517142396216e-01
-2.756085169019501305e-02 -1.222653236606569549e-01 5.376124291879801342e-01
-1.068363382699673569e-01 -9.732819536783542114e-02 4.561974745381431329e-01
-3.248298366881218618e-02 -9.259619258605453207e-02 4.553996364130794561e-01
-1.013583507881202217e-01 -1.233269854606161148e-01 4.894024936102743806e-01
-1.145145836036070078e-02 -1.220260543238212841e-01 4.892035324878942770e-01
-1.038136534070206174e-01 -1.052241743687715309e-01 4.577603849431776117e-01
-1.497746257261259144e-02 -1.234182981790969136e-01 4.951387575090173687e-01
-8.887108204733715211e-02 -1.131003567178490293e-01 5.184142387850787514e-01
-2.137505945035670513e-02 -1.216081613489006785e-01 5.449910698302956602e-01
-9.825808793901567861e-02 -1.220642498212393540e-01 4.694335012288929909e-01
-8.687696574669996619e-02 -8.594806013759033470e-02 4.458030488794381685e-01
-1.055270505374173995e-01 -1.061414150756487679e-01 4.588998196095154247e-01
-9.611139018091034714e-02 -1.230567378833697656e-01 4.749293302799716954e-01
-2.017381252365390426e-02 -1.231743951699324907e-01 5.407876668516965468e-01
-3.952166286676808693e-02 -1.216841090126198066e-01 5.290999679974328629e-01
-2.230015798390574955e-02 -1.031710614780136787e-01 5.608994290125987048e-01
-4.989558799435488828e-02 -1.208071010863276673e-01 5.042561773679570258e-01
-2.964938137238740459e-02 -1.170892786385211853e-01 5.472832041096149513e-01
-3.153448746511104683e-02 -1.232391060875313166e-01 5.226867732633496688e-01
-3.833693840558078519e-02 -1.094826890637324995e-01 4.731967577300846273e-01
-6.268885485096375998e-02 -1.141090993365772160e-01 4.781731171048685947e-01
-5.702464936449202354e-02 -1.121031366006342567e-01 4.754318317468801958e-01
-4.262149090801461981e-02 -1.122909493758643684e-01 4.781469611701257838e-01
-8.136696284465798346e-02 -1.090690484228305224e-01 5.253048711716480357e-01
-2.850749007188318335e-02 -1.075780956080836237e-01 4.697978967262318450e-01
-4.918175552831513531e-02 -1.130003674210816600e-01 5.367546210129009454e-01
-1.265741819755048479e-02 -1.272156151908409305e-01 5.234206907441677492e-01
-8.012941751139665558e-02 -1.216113701413120279e-01 5.123021418203614896e-01
-9.082794679386205217e-02 -7.366346543478155540e-02 4.478361411049571195e-01
-8.853393514208357518e-02 -1.213785983621426673e-01 4.739353136084004658e-01
-5.076409935937128276e-02 -1.113631055313265006e-01 4.757168550173793697e-01
-3.942927397955478530e-02 -9.153895351008367598e-02 4.544593733257561441e-01
-2.669989921596738203e-02 -1.238150112987805307e-01 5.117960418426000802e-01
-5.735984058668048419e-02 -1.179810706312115626e-01 5.285524848853431212e-01
-8.934891876279915657e-02 -1.214387146387158056e-01 4.842965945336695777e-01
-1.055726301354130564e-01 -1.208788751942811573e-01 4.773742294770359496e-01
-3.031854696208467412e-02 -1.234131133886873510e-01 5.235826078147653995e-01
-3.913154964263546032e-02 -1.077291418675404427e-01 4.705433502614203567e-01
-5.130163785892650347e-02 -9.276524646137249142e-02 4.530339544512224648e-01
-1.008592665700718677e-01 -8.731640444939492429e-02 4.531905233514796350e-01
-4.742086469113815372e-02 -1.171381848169760209e-01 5.347501708400074216e-01
-1.138698146655054977e-01 -1.208071645200124999e-01 4.842594251062055655e-01
-7.768609802183770729e-02 -8.087935643587797208e-02 4.420294726095460591e-01
-2.786309465530425675e-02 -1.106316341609338144e-01 5.521557386460929084e-01
-3.646875504874249468e-02 -1.213831036869684604e-01 5.027272246065153105e-01
-7.790985581098600066e-02 -9.304405260465438421e-02 4.496866188984975365e-01
-9.209530932513336487e-02 -1.220304120455912023e-01 5.052867862590160186e-01
-9.487397234887014197e-02 -8.331961061695672410e-02 4.484010258741405464e-01
-5.807887693239512789e-02 -1.202194920916101056e-01 4.988759149250823755e-01
-1.153200472381173125e-01 -1.180446829079627863e-01 4.951902149973052003e-01
-2.158738669740945318e-02 -9.907570564892738407e-02 5.618329961944059647e-01
-1.469267524467463004e-02 -1.243089319309015894e-01 4.983112231215625632e-01
-9.413721867462498949e-02 -1.225179005229685703e-01 5.005408574250114206e-01
-6.489011491582868940e-02 -1.088995451330046355e-01 5.309669733885342691e-01
-8.292946563439884677e-02 -9.465154709285512891e-02 4.503058436415619536e-01
-9.429663012608873601e-03 -1.204914554221699768e-01 5.497763415337718618e-01
-1.172742854144219471e-02 -1.268403671004665612e-01 5.073358586433290851e-01
-8.767980614315258603e-02 -1.228127117717369432e-01 5.003370395843185214e-01
-3.298999728410538512e-02 -1.220443461708883431e-01 5.049176173829761360e-01
-1.551822535918264551e-02 -1.252286180706022878e-01 5.031781819504874687e-01
-1.181049425743374154e-01 -1.056063532237197650e-01 4.702286652964492442e-01
-5.885997263965911386e-02 -1.030849753183419870e-01 4.609747859253719993e-01
-1.022755567331977283e-01 -9.872612233293849571e-02 4.539180499473616237e-01
-7.854527601342048415e-02 -1.213493267246620044e-01 4.923741911605138410e-01
-9.389551994999507933e-02 -9.958907075146387899e-02 4.527988479716998915e-01
-4.700049743430482346e-02 -9.630834213120686993e-02 4.569912277460854155e-01
-8.500042930222802620e-03 -9.370929790906867840e-02 5.714547889979199047e-01
-3.030859591615597814e-02 -9.837994315680446966e-02 4.599428344143390857e-01
-1.116897452182454981e-01 -1.217242646061637290e-01 4.865843583807446526e-01
-2.109831060556172783e-02 -1.188162566949325233e-01 4.855531769063077263e-01
-3.868390469333645582e-02 -1.223506500349176296e-01 5.170105497946311246e-01
-1.006628308275363121e-01 -9.192440720539224452e-02 4.518280316898709015e-01
-4.314858116166064850e-02 -1.212150505138653023e-01 5.054240780104553021e-01
-3.185892145571571354e-02 -1.122325611647517901e-01 5.471256866755365156e-01
-1.121216885102170879e-01 -1.019393082082859781e-01 4.603248773501452118e-01
-7.833264882188480105e-02 -1.133219201397227260e-01 4.693406273454247546e-01
-5.554489165902874726e-02 -1.126369757617193268e-01 5.338638910449212682e-01
-6.405705543542683511e-02 -1.205658461723537606e-01 5.196706873327976428e-01
-5.142190906082419466e-02 -1.140948968167919825e-01 4.808363703183252125e-01
-8.993993096649618990e-02 -1.187380696395073792e-01 5.145627061593803786e-01
-1.036680100772907759e-01 -1.153295887044212126e-01 5.067095134251377031e-01
-5.717255040472912775e-02 -1.197691327825099739e-01 5.247141127284833395e-01
-1.092411668656532997e-01 -1.220894023833935527e-01 4.935853173324297183e-01
-8.836506500789606533e-02 -9.516856764927257573e-02 4.504086532670810716e-01
-5.573799285633546097e-02 -8.450538108734946541e-02 4.472273677175520046e-01
-7.298650384511737310e-02 -8.889380166467672484e-02 4.472455156098985585e-01
-9.336241245162614499e-02 -1.050793594123680813e-01 4.566908572275427125e-01
-4.804138245674231811e-02 -1.120251185694177559e-01 5.377874764073539149e-01
-1.258067913256511426e-02 -1.017447655384823846e-01 5.664770716814483409e-01
-3.019903140546356321e-02 -9.385490000734500460e-02 4.561454795114077143e-01
-7.109566440898987261e-02 -1.191031925927319157e-01 4.869479550498607145e-01
-5.874742378334350118e-02 -7.013336684918015929e-02 4.417288378564377949e-01
-8.737042741591132672e-03 -1.280799297502547840e-01 5.175902720072599328e-01
-1.040749028881499255e-01 -1.226079779377516332e-01 4.826399239338661218e-01
-3.818529678845249825e-02 -9.271751152088399117e-02 4.555417394194664071e-01
-1.158041204642623750e-01 -1.122487445728027194e-01 4.707542470986273431e-01
-5.006265548480291760e-02 -1.094972080727359826e-01 5.383491168750310640e-01
-9.781576775380386793e-03 -1.242350658230282623e-01 4.949831120101687576e-01
-8.403032522605614896e-02 -8.313725954175957278e-02 4.439412460932434246e-01
-1.123359390564938609e-01 -1.173127591657098373e-01 4.735514807957765249e-01
-2.473176267874814885e-02 -1.245062446717119381e-01 5.195206891857214737e-01
-8.696073433917091144e-02 -8.652143028278530545e-02 4.460904756357190748e-01
-7.330693746773203623e-02 -5.987160690329432211e-02 4.383037688423855327e-01
-1.038654510424879551e-01 -1.228489412860673119e-01 4.965179633110358703e-01
-1.101429836492479331e-01 -1.097293983725309147e-01 4.635751716033355563e-01
-7.264105006408813625e-02 -7.613394971195808214e-02 4.404057553164384964e-01
-1.172020931953051959e-01 -1.162880074394209984e-01 4.797535230165390074e-01
-5.615019302691637293e-02 -1.204634834646195474e-01 5.225450135124671824e-01
-6.273060893941999339e-02 -1.149011215079068088e-01 4.798309700600440486e-01
-2.634716460519855377e-02 -1.133754612991734606e-01 4.782340694807378223e-01
-3.253553395293536099e-02 -1.230625521763310387e-01 5.238131375610717289e-01
-7.116707706517412524e-02 -5.574840019502055877e-02 4.397052781983197267e-01
-5.049854356512998438e-02 -1.171422549351486542e-01 4.875414665014936033e-01
-9.044013141495826913e-02 -1.008801593929499890e-01 4.538748735986071758e-01
-5.977964305281808360e-02 -7.199923995724810677e-02 4.420018747431572748e-01
-1.066883064573299483e-01 -1.071617968995983022e-01 4.600274834578343408e-01
-7.861513623749154245e-02 -1.201125563199263308e-01 5.176825409198019257e-01
-4.595241824656856600e-02 -1.196995590757086586e-01 4.975421293039546389e-01
-6.752344316724334661e-02 -8.399833070711297534e-02 4.447293680027363250e-01
-1.196397001894780182e-01 -1.123311765310113092e-01 4.807626623576237712e-01
-2.016505132947284812e-02 -1.020013769075076016e-01 4.596392458334935816e-01
-1.045143762314830194e-01 -1.146588701084573225e-01 4.665392508212048983e-01
-9.441062669388630701e-02 -8.239753192301743634e-02 4.484052240098482245e-01
-5.678807093368043457e-02 -8.058299291279560905e-02 4.454303687249002719e-01
-1.731789864220123487e-02 -1.246815324794829510e-01 5.356942843282912481e-01
-4.879129147663544691e-02 -1.070002882312295900e-01 4.687783446649840258e-01
-5.975630444608819730e-02 -9.574346010067538715e-02 4.538362258909324209e-01
-7.448754951008129677e-02 -1.156170567274384109e-01 4.757218322461890803e-01
-3.746516316219642567e-02 -8.416378058844804777e-02 4.494182869896453658e-01
-2.390781263675395216e-02 -1.205415231697614942e-01 4.924692608426811113e-01
-3.254394565696876879e-02 -1.229580630867135455e-01 5.148612348511413250e-01
-3.145942380996585158e-02 -1.230895649886182969e-01 5.134853287648492026e-01
-1.086292492413010458e-01 -1.197600493380964054e-01 5.009777573611973178e-01
-6.147297273463667167e-02 -7.102180495958727857e-02 4.413520466739521697e-01
-1.146528326291390981e-01 -1.163363130745325713e-01 4.745654102079229775e-01
-6.614870844261816485e-02 -1.182982740439446900e-01 4.872151607249879390e-01
-4.795241671393384031e-02 -1.161373800417896118e-01 4.853657623270697385e-01
-8.137635520177431692e-02 -9.775971342074758763e-02 4.527214585152349313e-01
-2.607205087961701404e-02 -1.242452844772606452e-01 5.211817249893453408e-01
-9.631822901934783410e-02 -1.233732156887616532e-01 4.897853518078076340e-01
-7.981590694211709858e-02 -1.064440892839072922e-01 4.601454387513149169e-01
-1.431091670762290463e-02 -1.251361915706626082e-01 5.340335384379184536e-01
-2.425917279927313971e-02 -1.238650356136176273e-01 5.324165191462474356e-01
-9.726178268067624255e-02 -1.230296557657173523e-01 4.959567114616274530e-01
-5.305508222875356117e-02 -1.187577349005073529e-01 4.935082989071489790e-01
-8.148881912287833651e-02 -1.075152776809558675e-01 4.606645832740947633e-01
-4.034131255544755323e-02 -1.220472196270854515e-01 5.244621801399981242e-01
-4.196392465158212473e-03 -1.288528493057420898e-01 5.171163578201042332e-01
-7.526065018293646991e-02 -9.981059775414409529e-02 4.550976283760773122e-01
-1.488648433916734889e-02 -1.198256922713696881e-01 5.511017996910734240e-01
-8.012234698531670030e-02 -1.195275844907583984e-01 4.809165771514781751e-01
-4.784227952753927239e-03 -1.285724351463847503e-01 5.136613083698703397e-01
-8.831744116164638725e-02 -9.987077767313232157e-02 4.533041197558386748e-01
-9.447125726293033321e-02 -1.217797982513549315e-01 4.806994136003609475e-01
-2.962203745516347325e-02 -8.566914975021412693e-02 4.496859532426638051e-01
-6.032358405176541788e-02 -1.113377012668636118e-01 4.729099709508869931e-01
-5.783307045128047857e-02 -8.795170394506178491e-02 4.488264209064166121e-01
-3.545591525321972054e-02 -1.019754401985246278e-01 4.640627081647516472e-01
-3.615654941053082078e-02 -7.761765536833258039e-02 4.458714713659918116e-01
-1.255639343028210411e-02 -1.269039314595591383e-01 5.088711950387477811e-01
-3.945951973058314105e-02 -1.217044266278162479e-01 5.071751414725642615e-01
-2.476359978417118010e-02 -1.035060936280198657e-01 4.632328733655312059e-01
-3.106898811517461514e-02 -1.034947699103274249e-01 4.650547973131418655e-01
-7.150919609148220779e-02 -7.676805558917089434e-02 4.407169626873346790e-01
-6.714154701312267937e-02 -1.135544259160399111e-01 5.287636508681661240e-01
-4.571080750150077060e-02 -1.202735032037021284e-01 5.001730847344505460e-01
-1.208253191570886759e-01 -1.105477266680587045e-01 4.785531978617797999e-01
-4.679735022025276192e-02 -1.194541993536266528e-01 4.965928266745398556e-01
-7.211399539066244702e-02 -9.586774072746552522e-02 4.524347940320919137e-01
-9.322962998823046410e-02 -1.231498339679912568e-01 4.906177216639057148e-01
-7.545051444806512297e-02 -1.053389384225080633e-01 4.603130177046549920e-01
-4.454522655949117588e-02 -6.212473146828133980e-02 4.408576539713967013e-01
-3.447282488738777351e-02 -1.043980468188297206e-01 4.664562143274978423e-01
-4.244647871387774440e-02 -1.170101989717757252e-01 4.876941193038875633e-01
-7.775645404741722555e-02 -1.168633248183825468e-01 4.763159086097920603e-01
-8.077040511389414756e-02 -1.212335495248577227e-01 5.137967819275467418e-01
-4.094789327380006505e-02 -1.220701412111238893e-01 5.205583426859080598e-01
-8.718473752079453076e-02 -7.346269859141132952e-02 4.435214892164280331e-01
-6.677666540981820609e-02 -1.060873193288823790e-01 4.629385707233737435e-01
-7.854955899654111895e-02 -1.173903342128574667e-01 4.765484906231962636e-01
-8.356639942717350444e-02 -7.977074728490803068e-02 4.424081840509519470e-01
-2.042053881691091588e-02 -1.073019325269652519e-01 4.662780760873407315e-01
-6.338579600528636282e-02 -9.413223218563038230e-02 4.520506534864028869e-01
-5.757036128549768150e-02 -1.206370506514126695e-01 5.017674307032016223e-01
-3.274928931738846360e-02 -1.100691620054758540e-01 4.737400863682200702e-01
-5.320619887301216572e-02 -1.062898348829855316e-01 4.667276828032793090e-01
-4.010972622663042109e-02 -9.253878022435754747e-02 4.552208317685301764e-01
-4.559121879444997388e-02 -8.146960043171055932e-02 4.475198720922581863e-01
-1.097629832674260342e-01 -1.219074849067968841e-01 4.943889874240605109e-01
-1.475886554746601818e-02 -1.258902796668353308e-01 5.057554220154006908e-01
-5.067191001604277878e-03 -1.246991155772843723e-01 4.951366145335797664e-01
-7.015822031562217453e-02 -1.091773172769639616e-01 4.663980366574294600e-01
-9.599911404874859888e-02 -1.232278268595128345e-01 4.874872641168226939e-01
-1.115136474713379899e-01 -1.039272037200753285e-01 4.603522350199688029e-01
-8.111171744209125234e-02 -6.728390838340185531e-02 4.400457419264169334e-01
-8.412839397736640579e-02 -1.094920341589677437e-01 5.221542923643303080e-01
-6.928970081354958802e-03 -1.274726118470510261e-01 5.070960510516511199e-01
-1.794952729188148410e-02 -1.233331205235729255e-01 4.970615570228847369e-01
-1.783765267455081696e-02 -1.132022003222592360e-01 4.737735957995830027e-01
-5.173446254745158596e-02 -9.171493226183421998e-02 4.522350189473848259e-01
-7.496013135450356468e-02 -1.172486223002529443e-01 5.232228976391130049e-01
-8.589076082790590705e-02 -1.035572687868046293e-01 4.562632547224420576e-01
-5.076186519234732186e-02 -7.996723720977667871e-02 4.462838684443583559e-01
-7.811781218869104371e-02 -1.192812755974119177e-01 5.191124852082088514e-01
-1.010869068243361729e-01 -1.218349289107084898e-01 4.756817159384843507e-01
-1.812939151074758129e-02 -1.235849977856943172e-01 5.403383748455834468e-01
-2.798430652376297789e-02 -1.185076857913141130e-01 4.896926040770010480e-01
-3.090435895142030695e-03 -1.289774850504588621e-01 5.215626731421243445e-01
-3.134894957377311331e-02 -1.213617375055745795e-01 4.998723170063505417e-01
-6.951316533770830752e-02 -1.220446393145219049e-01 5.086159652223962713e-01
-7.672993928967587751e-02 -1.202903635666660448e-01 5.172006915901032897e-01
-3.696938624913746751e-02 -1.218698448259447620e-01 5.070883938852031037e-01
-4.036391644322109840e-02 -7.829987688497233589e-02 4.463600163431325485e-01
-6.577682832915651701e-02 -6.558923334918764780e-02 4.388325943471368396e-01
-2.759286115461550420e-02 -1.080529916918347155e-01 4.703049789624585419e-01
-5.535939234720207991e-02 -1.071449914834332051e-01 4.673844010343808364e-01
-5.841719192334429711e-02 -9.048586364484677291e-02 4.502832293287347687e-01
-6.316073096951022037e-02 -1.063096076663780365e-01 4.640578747695039974e-01
-7.063549309300978796e-02 -7.146675174448241519e-02 4.393607673353280840e-01
-9.542195746776235832e-02 -1.234763649477253894e-01 4.733094443311448019e-01
-2.024133921659808377e-02 -1.203922714792217408e-01 5.483614955152783521e-01
-1.989458374865088128e-02 -1.254654609978586299e-01 5.282119822691194733e-01
-3.200724125835856249e-02 -1.127015668819594668e-01 5.469342715001008770e-01
-1.975692019569090518e-02 -1.247950853116524539e-01 5.053731876648814847e-01
-3.561159097007624008e-02 -1.132702082167401092e-01 5.438122480989822094e-01
-1.779257834802249610e-02 -1.235553898305868786e-01 5.407156415313293385e-01
-7.140403578839954468e-02 -5.435012859239485988e-02 4.402678024412532976e-01
-3.217794613951552307e-02 -1.079369047513341340e-01 5.471510521915021741e-01
-7.135207975266273650e-02 -6.178787598714588492e-02 4.378785078685616394e-01
-6.289110996226936201e-02 -1.138872432915677690e-01 4.776329949377562389e-01
-4.259848541451945886e-03 -1.286316637668896701e-01 5.246650597455324583e-01
-5.500582152590426793e-02 -8.288088330232935841e-02 4.466371289784958343e-01
-2.323391246227605664e-02 -1.208067492288310285e-01 5.455421063523311354e-01
-7.919694054581387366e-02 -1.079800842304027286e-01 4.620678912298558094e-01
-1.158367352965537916e-01 -1.164185644639308403e-01 4.962463913869781806e-01
-4.526836834075545490e-02 -6.740219125438443037e-02 4.422855707483275833e-01
-9.044684887828854589e-03 -9.863371901898136673e-02 5.691329416854544743e-01
-8.421817140288367920e-02 -1.177798634104247066e-01 5.180764499810558421e-01
-2.404920287827454206e-02 -1.125293848668604546e-01 4.761674474371039301e-01
-2.090290771381988003e-02 -1.062740118755397117e-01 5.623202149844496178e-01
-7.897930586392903907e-02 -1.203152482480928098e-01 5.170899398930216551e-01
-1.061174578883833791e-01 -9.048881951105425259e-02 4.577029515963741968e-01
-1.114067128916601535e-01 -1.215378742074976898e-01 4.850968007218284805e-01
-1.786164248552904801e-02 -9.798140961236542767e-02 5.651473287250977640e-01
-9.178363768951437740e-02 -1.223479722988386753e-01 4.869342993976992773e-01
-2.666976847499749614e-02 -1.131039124503065707e-01 4.778396495696776158e-01
-7.242712322583286233e-02 -1.105537586352773882e-01 4.676595791048064887e-01
-6.188616086865406096e-02 -6.360056904912889109e-02 4.393991543764446117e-01
-3.963890149614617692e-02 -9.100244226319401109e-02 4.540081916942171336e-01
-3.604347727671230323e-02 -1.095386511817787040e-01 4.732924433431934808e-01
-2.769459262286484355e-02 -1.210639000150643685e-01 5.419755082370171229e-01
-1.097883849941406476e-01 -1.082987009075464524e-01 4.620705518492089214e-01
-6.237426183263142937e-02 -1.209192042255404359e-01 5.183153627353676018e-01
-4.776001010696568488e-02 -1.018277191126035069e-01 4.621664828649210688e-01
-8.903645716011288069e-02 -1.053624824505321467e-01 4.572146679416435600e-01
-1.186717490786528967e-01 -1.134815331948202111e-01 4.819033510676579146e-01
-4.748496386158231747e-02 -1.100865487293207490e-01 5.390675787829203314e-01
-1.055847424429839573e-02 -1.271532206566673429e-01 5.081688464856024545e-01
-1.291599274876905831e-02 -1.269689389745590757e-01 5.118056959908530157e-01
-5.168829027948037419e-02 -9.124113738863831591e-02 4.519400883901157906e-01
-7.582506615626095903e-02 -1.202665894944922875e-01 5.174320184327029226e-01
-1.170019110424572011e-02 -1.255796946920658685e-01 5.007016617343229559e-01
-9.654465220962615835e-02 -1.014444910349781709e-01 4.542897779582162898e-01
-4.541119026157385691e-02 -7.651469112045763965e-02 4.455120544163955199e-01
-1.115082368623799558e-01 -1.161220416833065178e-01 4.713452993706508387e-01
-3.910471926757577710e-02 -1.220868532749802698e-01 5.102251054656937734e-01
-7.130314243652163819e-02 -1.137223913405644715e-01 4.735510640444720032e-01
-1.947950461557202209e-02 -1.162225965078372419e-01 5.562840909172439563e-01
-8.916724038178167056e-02 -1.202085114754773143e-01 4.709092267143391575e-01
-4.904472342726914902e-02 -1.212922195897762762e-01 5.222414913404258563e-01
-7.429959170668191948e-02 -8.766346495895326052e-02 4.463447855239878193e-01
-1.035048248721602004e-01 -9.201980635498070715e-02 4.534380985674259512e-01
-8.020809443498916336e-02 -8.046276349835139452e-02 4.420812677780903699e-01
-1.049893463671883048e-01 -9.432195712371621577e-02 4.550023319643964892e-01
-4.557050234783157489e-02 -1.211138286022308413e-01 5.058757030983552783e-01
-8.854901552002533704e-02 -1.188134673434589755e-01 4.688468129740441248e-01
-3.828766587647595976e-02 -1.222980313597067797e-01 5.142447317830263209e-01
-9.770847634867026177e-03 -1.215842112596760005e-01 5.468743874370357583e-01
-6.874582083817561140e-02 -9.805249743036176246e-02 4.545021854591902444e-01
-5.611315315971992373e-02 -9.470917660023628337e-02 4.536716979664707772e-01
-5.628396911008961764e-03 -1.204368715451409749e-01 5.467450325526338473e-01
-7.686959949322280661e-02 -1.223644714537692746e-01 5.007274930513812006e-01
-6.014651399795605674e-03 -1.285158548964323300e-01 5.225004079041210003e-01
-5.031441858110249910e-02 -9.442887209046978148e-02 4.546663333953186448e-01
-8.568427646720505608e-02 -1.227407530586408779e-01 5.011282887320065438e-01
-2.904122622762530040e-02 -9.847563587866221824e-02 4.596736987291477061e-01
-9.622001815662670210e-02 -1.155774919450253679e-01 5.137285509200393285e-01
-1.126605086658468424e-01 -1.210550785894534964e-01 4.947437001228044973e-01
-4.614146024381336753e-02 -1.214064192477382065e-01 5.231055040991063887e-01
-9.688978102143316895e-02 -1.228990145746712698e-01 4.755427107304710521e-01
-1.150257610636869071e-01 -1.197030873414874352e-01 4.807825979594156918e-01
-1.193257397144521087e-01 -1.077489374860002430e-01 4.719257563386297649e-01
-8.090348609951669712e-02 -1.158709028617812276e-01 4.715149497085889818e-01
-9.083791791851862640e-02 -8.728197429014708519e-02 4.468792354193992789e-01
-8.587790968459128871e-02 -1.176408883679710277e-01 5.171382632329833973e-01
-5.951102135871837173e-02 -6.833518704150454148e-02 4.410470469899072654e-01
-1.026363229502555430e-01 -1.229935743398237052e-01 4.960180302222785276e-01
-3.214797496751716638e-02 -1.208493259408612436e-01 5.381733329997111515e-01
-6.816239346034919100e-02 -1.167615719958844112e-01 4.819330421133670161e-01
-6.997256470699646236e-02 -1.115998215468576860e-01 5.287418134779836576e-01
-3.677690233271782572e-02 -1.118712941040796993e-01 5.432577324185967615e-01
-3.315935320489780264e-02 -1.206796367127313807e-01 4.977879880640062593e-01
-7.684368426437993005e-02 -1.222681550259610145e-01 4.996922101185612974e-01
-4.740462897661118502e-02 -1.108091700376047234e-01 4.752902993068279236e-01
-3.150666152832175965e-02 -1.042363823029636566e-01 4.660450204843019639e-01
-9.429813723186664109e-02 -1.227181522216355819e-01 4.993105873741247591e-01
-5.787075561453569605e-02 -1.110279225478621734e-01 4.730184972623386885e-01
-4.680049862146826167e-02 -6.202676460607634001e-02 4.406665347859786142e-01
-5.696874758796693916e-02 -1.119721267208012849e-01 4.751816090101714796e-01
-6.702226368709690574e-02 -8.941898269617643003e-02 4.480651446936228521e-01
-8.181752696094264643e-02 -1.217716551303731354e-01 4.927829857561382143e-01
-6.699464099822212415e-02 -1.193236374820441509e-01 4.899133467435694556e-01
-7.179581350776509385e-02 -5.620021913518308265e-02 4.396128647222816155e-01
-4.708392034883059594e-03 -1.277640207224287894e-01 5.069729837120877658e-01
-2.258231051355775315e-02 -1.173368991960450219e-01 5.526822273956063514e-01
-6.511364303307975998e-02 -1.205373503951585046e-01 4.967687523665401117e-01
-1.014173160970542192e-01 -1.226372380861433103e-01 4.990901853437450519e-01
-5.126398982409446220e-03 -1.286807165126545305e-01 5.159303029479874736e-01
-4.521763643163454610e-02 -1.079810496280294851e-01 4.709491930693482931e-01
-1.138037169314417979e-01 -1.211887878250199613e-01 4.867983626416077514e-01
-1.033501585068250239e-01 -9.939138609105897804e-02 4.545626692958283921e-01
-5.971550230396894393e-02 -1.216109656950113277e-01 5.102085318766125255e-01
-3.295911447932201033e-02 -1.141451479872740982e-01 4.812768226927421900e-01
-5.398149141452151384e-02 -1.147969897013788737e-01 4.816448849900485940e-01
-4.632227220761769848e-02 -8.071603670617333304e-02 4.471131334151359216e-01
-9.702398512743076742e-02 -1.231596224988185523e-01 4.698063285008214351e-01
-1.086788038542140233e-01 -1.174654675990782493e-01 4.716857332165071415e-01
-1.794058479663602351e-02 -1.141028776856611998e-01 4.752190579404426685e-01
-8.525608763740753770e-02 -1.154972404884747200e-01 4.660396902674842634e-01
-4.619306254251740601e-02 -9.962518805042225312e-02 4.600791913053237092e-01
-6.542321447422934366e-02 -7.606933949670570405e-02 4.417699655118605961e-01
-9.834977376410909689e-02 -1.225289049249823903e-01 4.797073610168261504e-01
-8.188359921643824368e-02 -1.150265518382274921e-01 5.217480840164084865e-01
-1.295563514025912903e-02 -1.253066387513225577e-01 5.334212115556460354e-01
-1.944798598365232722e-02 -1.244008910929731149e-01 5.030071943540947998e-01
-1.993475811724063768e-02 -1.255828461347948122e-01 5.248709608876305222e-01
-9.713581211495396495e-02 -1.219860888221891426e-01 4.686187888232257737e-01
-2.241099188399485811e-02 -1.250408249803178773e-01 5.200890600916882045e-01
-6.314992336472748102e-02 -7.205143067330102569e-02 4.411758510245624709e-01
-9.433189589145868359e-02 -1.230272870723549544e-01 4.961988915053703875e-01
-7.012165740505708900e-02 -1.213174629669151322e-01 5.152990030059303450e-01
-1.677366695001368882e-02 -1.142378097674152104e-01 4.748488252714183067e-01
-1.097188042022598786e-01 -9.734980955484183462e-02 4.575987959815582817e-01
-1.024896298962478386e-01 -9.352330993815917426e-02 4.521172642041659806e-01
-1.040693632985761480e-01 -9.475456131407210270e-02 4.538429042378363532e-01
-5.279117171321959928e-02 -1.208233504801756314e-01 5.039696719319212148e-01
-2.065939947826992557e-02 -1.229569829316213281e-01 4.979865620144686700e-01
-6.175267546673934849e-02 -1.183647137949613154e-01 5.256956178748564135e-01
-1.111701227074118475e-01 -1.003512279990169953e-01 4.587902077623757235e-01
-9.894749603263662541e-02 -8.639827274802139301e-02 4.512909857575007067e-01
-4.393275578814975074e-02 -1.176984236662490524e-01 4.898462025892421079e-01
-9.404938493686300360e-02 -1.221178825201235107e-01 4.831329757025835114e-01
-1.597099907776224764e-02 -1.234786889828835693e-01 4.961099075428188065e-01
-5.295908612241645441e-02 -1.208056301830064266e-01 5.038181641034632507e-01
-5.924591668517118631e-02 -1.191516111831215918e-01 4.936789256726299979e-01
-8.624619236851424620e-02 -1.208900388591151176e-01 4.771377672040033047e-01
-7.419625282051532655e-02 -1.219305291812567138e-01 4.977050281529608045e-01
-6.978858414903289786e-02 -1.126970758856682686e-01 5.283471731007102212e-01
2.811310791081195800e-04 -1.288458334624692225e-01 5.142383014250114792e-01
-8.940398978183623779e-02 -1.215309164031646433e-01 4.802632388464181945e-01
-8.063088909712642915e-02 -1.196032482193149366e-01 4.831203909680050756e-01
-8.682504996749867976e-02 -1.159451458059760631e-01 5.177250663500160277e-01
-4.406285821841118833e-02 -1.204473282702879233e-01 5.327558432494925444e-01
-3.798666936985162224e-02 -9.139874096003869353e-02 4.544758778133416999e-01
-5.697783226879704621e-02 -1.163921462842218146e-01 4.849631291559313717e-01
-6.295258134805353789e-02 -1.073859395680455270e-01 4.656592936565805974e-01
-7.887190735178080392e-02 -1.203696962302530787e-01 5.169342898891563509e-01
-2.206669184858621457e-02 -1.063889027468138682e-01 5.604938236244288996e-01
-3.798275761923305960e-02 -7.796041505128088744e-02 4.460954314919716168e-01
-7.857684707946466229e-02 -1.220832766286419624e-01 4.965599854062245910e-01
-9.405486117928391065e-02 -8.524791261788308705e-02 4.474016824000769388e-01
-4.235443226151260065e-02 -7.847192069407531168e-02 4.465321456950467338e-01
-9.357193600534391420e-02 -9.581901309946191936e-02 4.509811465348952386e-01
-6.716837665523892054e-02 -7.793981415977495331e-02 4.419865144749952623e-01
-1.006847991781497226e-01 -1.231397540114947814e-01 4.850772255250446752e-01
-8.637068076635574798e-02 -1.171706884442306890e-01 4.683824248158485748e-01
-5.460789570234761414e-02 -1.169425620144230321e-01 4.870679155726593268e-01
-7.761622535407268486e-02 -9.422507507872902865e-02 4.505646299323819437e-01
-9.524367780534634398e-02 -1.007952393768194871e-01 4.537215888169142120e-01
-9.378347553026493422e-02 -9.328348497125248107e-02 4.496967542367789061e-01
-1.137250303985174876e-01 -1.202028882866917614e-01 4.804689135451636339e-01
-6.386698313169889007e-02 -5.843852670556232143e-02 4.383325862328752986e-01
-6.332583264962607372e-02 -1.121593216269552301e-01 4.737920322212902935e-01
-1.089140779536575954e-01 -9.610338808764225249e-02 4.575736750598860536e-01
-2.453705321475176115e-02 -1.134950451476816197e-01 4.777171012389812566e-01
-4.502666991327626544e-02 -1.118440560829406377e-01 4.773250004350263476e-01
-8.125340735596238428e-02 -7.601462886846013789e-02 4.404209960228555598e-01
