-1.009866473759703509e-01 -1.208363020140278132e-01 5.043708068539133338e-01
-9.141651065366115936e-02 -1.163818645160966808e-01 4.614888852313954737e-01
-6.997882991102813421e-02 -9.561742854908247824e-02 4.514353097666782832e-01
-8.890545437262760420e-02 -1.098346301697945837e-01 4.591091077332871695e-01
-1.142043564394294719e-01 -1.213581472600993583e-01 4.810060548398645275e-01
-1.098308153875512810e-01 -1.197726334377174628e-01 4.737388100633241339e-01
-1.201044581708606701e-01 -1.121254567633991339e-01 4.841361460919068604e-01
-1.036130995284707534e-01 -9.444803210970968699e-02 4.527759365277186365e-01
-3.120623194057665917e-02 -1.222780826758370076e-01 5.029317586793610184e-01
-5.272297654387275018e-02 -1.218910529550411292e-01 5.146107377091686530e-01
-2.242286289387422638e-02 -1.010916189911480745e-01 5.608105355989494445e-01
-6.212509862321951432e-02 -6.114830422624772249e-02 4.385321260312324831e-01
-9.895335455660386748e-02 -9.890960209912388890e-02 4.518701343296653294e-01
-3.386249784206171731e-02 -1.231472129577245445e-01 5.189582256745949307e-01
-7.450153351724951578e-02 -6.852066940473740264e-02 4.373967578799035083e-01
-3.520362172265840972e-02 -1.132088472859126976e-01 4.786522310550164194e-01
-2.607855836003225569e-02 -1.092476847719495714e-01 4.713298613578770779e-01
-3.077054681283400775e-02 -1.081696963355547880e-01 4.702261453825066218e-01
-5.386859900374579846e-02 -1.071908356030108200e-01 5.364953812082655649e-01
-3.797921314311342167e-02 -1.055555138980175389e-01 4.670805753922843140e-01
-1.059074292107814175e-01 -1.129344287642652794e-01 4.634080714800483114e-01
-2.530477046901571936e-02 -1.119947492049193638e-01 4.753289905042920593e-01
-3.554299854739796649e-02 -1.000498867860000196e-01 4.616373147272241906e-01
-4.116230097855135689e-02 -1.222879304033629433e-01 5.208496638714670279e-01
-1.207319643955577504e-02 -1.143785018530956987e-01 5.594540549488917769e-01
-3.909043878627021379e-02 -8.416280755129500191e-02 4.488741369164619965e-01
-7.173529463569935927e-02 -1.186004601665034686e-01 4.823051679620722343e-01
-8.719811597074776655e-02 -1.143462141168794521e-01 5.184505465794161383e-01
-9.835213828748511078e-02 -8.623614125236982175e-02 4.502705612163916404e-01
-7.497228982777881523e-02 -1.216267092359945012e-01 4.920586760124747161e-01
-9.996208343063357760e-02 -9.364999729786353810e-02 4.507043856982695940e-01
-6.290589156413169125e-02 -1.158434787101631364e-01 4.800925847920772260e-01
-2.707843696087337132e-02 -1.236766503847041287e-01 5.083103700827468208e-01
-4.827363228893556679e-02 -1.220531047079835008e-01 5.147899474498893735e-01
-8.038974336731119497e-02 -1.211507281424874516e-01 4.884556826693847720e-01
-8.242380849119822217e-02 -1.206292491998595812e-01 4.832014630061812754e-01
-5.652575727630284458e-02 -1.048747143757860767e-01 4.627157122081881346e-01
-4.847768306467252486e-02 -1.141089013717087458e-01 4.799457478938579658e-01
-2.350148215834609033e-02 -1.215988808142634547e-01 4.948254777853445807e-01
-5.218215531561785220e-02 -1.007057676519595019e-01 4.585686571734790551e-01
-4.427668463867067555e-02 -1.214327969557152664e-01 5.051395552985538107e-01
-1.144766206723225876e-01 -9.998850540715131796e-02 4.639711567974350581e-01
-8.476953659728073132e-02 -1.153172830904129337e-01 4.644384622340803626e-01
-4.474350307920298142e-02 -1.136620282863151365e-01 5.380724258683513561e-01
-1.554387858479286573e-02 -1.257855416247222469e-01 5.317092992572004517e-01
-6.331596147356857718e-02 -1.140901820563633151e-01 5.296400054243063371e-01
-4.298881072022932986e-02 -1.206628486716188886e-01 5.341882421735311137e-01
-2.765559409533742408e-02 -1.236411141449609424e-01 5.302995433324020347e-01
-9.916324303159045062e-02 -1.190085682709234316e-01 4.662777067444209278e-01
-6.064067732391228288e-02 -1.129252786058102948e-01 5.311521247675808910e-01
-9.169703135669853358e-03 -1.267421227536183748e-01 5.295270127235826019e-01
-8.397442778823922815e-02 -1.175756418409648063e-01 5.182583201754942248e-01
-7.238249653204922862e-02 -1.155203769986350576e-01 4.746893485002818269e-01
-9.621131644514151898e-03 -1.202000208401163839e-01 5.505728357857198052e-01
-7.685113518052401338e-02 -1.176376508026550638e-01 4.763823952219201074e-01
-5.786089910803484532e-02 -1.189463445010658094e-01 4.911133601603513421e-01
-5.368638027519449796e-02 -1.201857551119256684e-01 5.246444175399507248e-01
-6.586874881600138232e-02 -1.096821620803695441e-01 5.299768921890307682e-01
-6.734896125872782448e-03 -1.250687412755690231e-01 5.344966974911411484e-01
-8.300666258325165026e-02 -1.227475709761647604e-01 5.075687798911154847e-01
-6.016480258732614939e-02 -1.048305131747171437e-01 4.616075306898265174e-01
-4.882690711614715018e-02 -8.945361390834638549e-02 4.507041573238521615e-01
-1.063367287010733298e-01 -1.139729621879512766e-01 4.645625749811023164e-01
-6.227808106037996394e-02 -1.123230280595363534e-01 4.727577523774444401e-01
-8.644492180619976762e-02 -1.024492514562224954e-01 4.540984087196464625e-01
-1.365465657455854076e-02 -1.269884550631357190e-01 5.134395089604411044e-01
-1.040036574655955892e-01 -1.228185996155689713e-01 4.780979694102276412e-01
-6.882502374720853022e-02 -7.396885690347609899e-02 4.397477419776121277e-01
-1.149964833889651067e-01 -1.144599846797266507e-01 4.981156037579951290e-01
-1.968076066474842151e-02 -1.257235937007929738e-01 5.155404191535635228e-01
-1.880984508387450668e-02 -1.259308217765267579e-01 5.160142851065283587e-01
-2.942635286192608196e-02 -1.180342888831691361e-01 4.882486346305268121e-01
-3.194974045156213915e-02 -1.156306119228623364e-01 4.834931196618225124e-01
-9.055094060919462173e-02 -1.212602914873139315e-01 5.103552944875573427e-01
-7.900382706780356701e-02 -1.040086036895375293e-01 4.566261495949719973e-01
-1.045304858312458979e-01 -1.086750244903155055e-01 4.592077675412060134e-01
-2.137428886839187747e-02 -1.083669190920177744e-01 4.679457428710524503e-01
-4.893899521835232830e-02 -1.190856221564869366e-01 4.931593708576408330e-01
-1.740516908687092870e-02 -1.174060622637327772e-01 4.802291703376074805e-01
-5.682925499559449839e-02 -1.090311310987330112e-01 4.687283223439085433e-01
-6.971750745452402753e-02 -9.528291283010463519e-02 4.512054313478772172e-01
-3.365156382781717831e-02 -8.348626438820561102e-02 4.484161648594677807e-01
-9.911152847799299670e-02 -1.242245094546304135e-01 4.912861253279222074e-01
-4.591246230591740363e-02 -1.190154877571588665e-01 4.924890857400222588e-01
-7.482557009128394665e-02 -5.874416531140887188e-02 4.385689287171309347e-01
-8.804619385002275533e-02 -1.217557929603571010e-01 4.801855407950368360e-01
-2.135717800515169601e-02 -1.181630423582075984e-01 4.837809313593311455e-01
-7.512022367911741494e-02 -7.920932371255556825e-02 4.404290332429402488e-01
-2.710336491854888410e-02 -1.052373967249527198e-01 4.658436711502803029e-01
-8.518464123229373131e-02 -1.232169113766175550e-01 4.960062919113362168e-01
-1.134361889603910656e-01 -1.116892983453147137e-01 4.654962573086606215e-01
-1.074365797751696272e-01 -9.410907877466510862e-02 4.567959927297748357e-01
-5.992731127795904861e-02 -9.626675728056273418e-02 4.532992625994683444e-01
-7.273306980215088480e-02 -9.305410886392553871e-02 4.491799199640391649e-01
-3.593291531252724297e-02 -1.203712811012673661e-01 5.380053042954533460e-01
-7.114046767539435046e-02 -9.842430594711205905e-02 4.534725240438142735e-01
-8.400701582039976634e-02 -1.227519977349001701e-01 5.073798557180156932e-01
-3.124183263737222160e-02 -1.009776507555560088e-01 4.619734917879923519e-01
-2.561171615116686340e-02 -1.165309605664204690e-01 5.516727812468432690e-01
-9.918078618574142913e-02 -9.501231187546443913e-02 4.503869673592271194e-01
-8.096792059845635270e-02 -9.630845636803127274e-02 4.505629270187167523e-01
-8.308029211115026264e-03 -1.230676846814962727e-01 4.906787993015127580e-01
-1.169987689859488394e-02 -1.138774917461387731e-01 5.599803477484647241e-01
-5.070868936198349823e-03 -1.221976505516889772e-01 5.412603045499319032e-01
-6.741628543975962395e-02 -1.222420678373130620e-01 5.101945096566864457e-01
-1.487112894337657212e-02 -9.933945153477240220e-02 5.661199084351585809e-01
-1.544622674180358944e-02 -1.251001037502839086e-01 5.344853978803847383e-01
-1.535624876698251512e-02 -1.232951924088201562e-01 4.943682795262522300e-01
-7.378124592214548028e-02 -1.228575696705120762e-01 5.059984988653148941e-01
-8.725137374968399209e-03 -1.281695442595308931e-01 5.193242504569075546e-01
-7.773133015886311836e-02 -6.299913551608586626e-02 4.376560374825338440e-01
-4.521678816770534348e-02 -8.529471915786657199e-02 4.489067789299206468e-01
-1.168577712691622056e-01 -1.162839048429084865e-01 4.757572446873699623e-01
-4.630572639628308118e-02 -1.051684875882181874e-01 4.658356687851245570e-01
-8.278159186897515731e-02 -1.224515804907302385e-01 5.098656204093243716e-01
-8.684753673331284396e-02 -1.234484913712180637e-01 4.980228562592181052e-01
-4.666273304568259450e-02 -1.133345858178666926e-01 5.372640485182798020e-01
-6.743094701061057294e-02 -1.204447811154646664e-01 5.188384546548023835e-01
-7.113806430431951489e-02 -8.206065506072443561e-02 4.420282337559664487e-01
-9.177768611605613414e-02 -1.206367684835731729e-01 5.114637830881987313e-01
-6.197063801801264149e-02 -8.256398160235621508e-02 4.444014787688925217e-01
-1.069042985632023476e-02 -1.268418753728083326e-01 5.056098518168506972e-01
-7.676777168148074537e-02 -1.165917057981635252e-01 5.232584262425904464e-01
-5.260039252144573657e-02 -1.109367649777852627e-01 4.731469869450051213e-01
-5.345455682338939862e-02 -8.670442673166031677e-02 4.482376888517237146e-01
-1.208202544581850196e-01 -1.104423780266655108e-01 4.755326157694000910e-01
-2.120573257564238243e-02 -9.644796311094638863e-02 5.613783937482333952e-01
-3.750124046865538352e-02 -1.198261670014887509e-01 4.946035722665080847e-01
-8.060998211928040169e-02 -1.126197890622191444e-01 5.240207774128836649e-01
-1.064690778166442336e-01 -1.051660638870976772e-01 4.568852584847621356e-01
-5.580855668314547990e-02 -1.189851874264266640e-01 4.919087429175468262e-01
-9.651028996517860281e-02 -1.228453680889526611e-01 4.780861264053008486e-01
-3.644085366380901692e-02 -1.185160874190628877e-01 5.399018681164949873e-01
-6.557876215158986444e-02 -1.221363284312985270e-01 5.045223442493260713e-01
-3.433056215526613525e-02 -1.221363866579250890e-01 5.048040493874910162e-01
-1.011626201493250471e-01 -1.006452951126580037e-01 4.532074682802567644e-01
-4.318775637051191357e-02 -8.516116426993609878e-02 4.491420597958277749e-01
-1.165709143818421945e-01 -1.173830464631336196e-01 4.768579936664280594e-01
-5.139802350613764670e-02 -8.945979170374948608e-02 4.501679617327413174e-01
-5.992979859573398932e-02 -6.620240219064796316e-02 4.396776133374883933e-01
-5.873410263768609474e-02 -1.187227696707841840e-01 4.899264238129818483e-01
-3.772077168831079741e-02 -1.094394405421286742e-01 4.723358917931220202e-01
-1.137333087489175165e-01 -1.215603326316710003e-01 4.815534583015288472e-01
-2.118723176603335562e-02 -1.024719602946242009e-01 4.602338503882818510e-01
-9.925256743419733074e-02 -1.213990449831670732e-01 4.681388564342266467e-01
-5.791659955965973439e-02 -1.074096453490110264e-01 5.341443790998585683e-01
-6.674983269314745116e-02 -1.160523252436144737e-01 4.790076336143981317e-01
-1.905468945379517470e-02 -1.239194850489094418e-01 4.993809229452511045e-01
-5.185476622947646913e-02 -8.823670235608424561e-02 4.493635521483230755e-01
-3.928469848014627674e-02 -1.072325648168672152e-01 4.690321181279433760e-01
-4.989253749046628633e-02 -1.207859469767199184e-01 5.240989859094759007e-01
-1.299346227874980698e-02 -1.171278965068297123e-01 4.782499072015242714e-01
-8.929429230566439391e-02 -1.156149055824091665e-01 4.620366056245884256e-01
-8.994439635050598125e-02 -1.226367944505016017e-01 4.736881798207602801e-01
-2.890302473413182416e-02 -1.102951464774018925e-01 4.731168599077678061e-01
-1.205163116142726754e-01 -1.122341957295442394e-01 4.791244133263872773e-01
-9.603638153557442214e-02 -1.235184930685532256e-01 4.749215375745497458e-01
-9.589706650170004565e-02 -1.230749124820375018e-01 4.766203125178973821e-01
-5.651511801579754690e-02 -9.237099158265213439e-02 4.510541396382953261e-01
-5.346539292647478625e-02 -1.209422670571563829e-01 5.224550641113353544e-01
-9.117310803594071145e-02 -1.238012993105362114e-01 4.952423352400469603e-01
-3.215977358716640838e-02 -1.182004588461606914e-01 4.889076045165415829e-01
-8.126838000294836495e-02 -1.203994189195637943e-01 4.819550851698692906e-01
-9.085103337328549744e-02 -1.229840062147369989e-01 5.033132536048394723e-01
-8.796271905088977328e-02 -7.821853298187701753e-02 4.434231283708999216e-01
-4.126778861154177525e-02 -8.592142565872806781e-02 4.497878738333304649e-01
-2.282126842798986796e-02 -1.244313310348034579e-01 5.059758968604551876e-01
-1.290400686409786876e-02 -1.250183077251925123e-01 5.348329220228653647e-01
-4.499317482342359703e-02 -9.209670914538969910e-02 4.533392134224906167e-01
-2.024394257671632488e-02 -1.199558648188500526e-01 4.876323105021033166e-01
-3.677952556585000615e-02 -9.046979537582525155e-02 4.532914885620174528e-01
-2.900291174073344955e-02 -1.144583507826576890e-01 5.495166207256610980e-01
-8.740124377005614731e-02 -7.228908461788610684e-02 4.439467699497779418e-01
-6.476432017465043323e-02 -1.100304481890417019e-01 4.680867925247338412e-01
-6.976237213661248826e-02 -1.119085225439245129e-01 4.692781085718955580e-01
-1.064221330265455179e-01 -1.053570273945024921e-01 4.570166858459374648e-01
-8.173278302709534315e-02 -8.209005411492008297e-02 4.422312701579694805e-01
-2.939736074341045211e-02 -1.129740974847392304e-01 5.494833159230372299e-01
-7.736256154133695773e-02 -1.137385558565821991e-01 5.257377467791062298e-01
-2.477036046653736945e-02 -1.179162585934548507e-01 5.504095255835850242e-01
-1.158009137105085046e-01 -1.178205603619061348e-01 4.951430972774520933e-01
-5.357160881430050869e-02 -7.124717177319511707e-02 4.423083450091981894e-01
-4.093929992396438261e-02 -1.179767012371672891e-01 4.891784406766784832e-01
-8.420609364886695591e-02 -1.229482476299946919e-01 4.932283430013744141e-01
-8.717679425588142905e-02 -1.222024122743872315e-01 4.859294266424256103e-01
-8.175091152620249380e-02 -9.721723729305423167e-02 4.511156337354817469e-01
-6.081028014897296025e-02 -1.211983621246754267e-01 4.999175059983782532e-01
-2.356249635197045847e-02 -1.242799231372496843e-01 5.316577479018728125e-01
-9.827819512970968618e-02 -9.681028821328893641e-02 4.508882061374412387e-01
-9.042857980767043946e-02 -1.163420596090165710e-01 5.154512599970373365e-01
-3.545875078893399174e-02 -1.103938099428722341e-01 5.441427867598599422e-01
-1.004235922535463704e-01 -1.058284461866667026e-01 4.562394258043602213e-01
-5.595353100127730545e-02 -1.184502900963053107e-01 4.896952941742015453e-01
-7.683616846668722862e-03 -1.162754422345242539e-01 5.569161344332544950e-01
-6.931291272604604703e-02 -1.222712878599481051e-01 5.104439647437217786e-01
-3.576806498162313913e-02 -1.225367637683118516e-01 5.097224278927222629e-01
-3.569370412755103195e-02 -8.757812357460939556e-02 4.511084063780158027e-01
-4.647932973738137102e-02 -6.558855940107463645e-02 4.412936311879517293e-01
-8.917038274519401009e-02 -1.008365063995669275e-01 4.526437759994677013e-01
-5.955986351067839302e-02 -6.669900789416102760e-02 4.399226462604585719e-01
-6.100585852295978273e-02 -7.574571654561711165e-02 4.421121773897893625e-01
-5.711731357806770770e-02 -1.155509606070157652e-01 4.812029754652681901e-01
-8.459387906971611859e-02 -9.508348248097270305e-02 4.493500775382928136e-01
-1.572335546217531674e-02 -1.173603976109733604e-01 4.795712042355563254e-01
-6.281671475155588269e-02 -1.189233700170719971e-01 5.242968745497593730e-01
-1.168692317665129266e-01 -1.087707675007615338e-01 4.681271456416549737e-01
-2.993659900101422466e-02 -1.103725992676318768e-01 5.491856258037217664e-01
-6.195810102975560230e-02 -7.890697265255192105e-02 4.428807820157775188e-01
-2.063257340764340642e-02 -1.254858794981231485e-01 5.271644723393473786e-01
-6.378995218268559975e-02 -1.218602488868028855e-01 5.026703656911168938e-01
-1.716182145615618646e-02 -1.259411733429370295e-01 5.083907318801069719e-01
-3.716512353402517260e-02 -7.653724407978362843e-02 4.450552250966228751e-01
-7.030075527999998797e-02 -1.141521671819454298e-01 5.273147777832581928e-01
-1.043176621952703192e-01 -1.231972367097652621e-01 4.803436986774430317e-01
-5.369665317169512730e-02 -6.866293171634976766e-02 4.414857078856437855e-01
-9.677278830620913291e-03 -1.186029159097821972e-01 5.533079297818427333e-01
-1.672983291540014461e-02 -1.264406283150974475e-01 5.250667899925619553e-01
-6.515991164789637635e-02 -1.018407553378650188e-01 4.574863401297786236e-01
-6.193827947022601671e-02 -7.228800773811727698e-02 4.409239079634613145e-01
-1.189573442305074391e-01 -1.176237861245596761e-01 4.862998181501660966e-01
-1.184040518571469608e-01 -1.178835806081010573e-01 4.837361012928170778e-01
-1.051541178487222783e-01 -1.154548797703975060e-01 4.656930298165151694e-01
-2.240265538457944516e-02 -1.248479220389389632e-01 5.100443143174064886e-01
-4.811548304957864036e-02 -8.060622813494916494e-02 4.463266955906576294e-01
-2.067978650169288030e-02 -1.225594855655434412e-01 5.431901258630004170e-01
-2.721469849589029308e-02 -1.241665180314042022e-01 5.219862958744820869e-01
-8.365087401479917584e-02 -1.189472585780381869e-01 4.717081273403826436e-01
-1.316745349106091673e-02 -1.258097791030003687e-01 5.027599621082412540e-01
-2.175116512064031310e-02 -1.156462280553384320e-01 4.795544751812069739e-01
-1.036019642182295225e-01 -1.193995953584653380e-01 4.696203484782927040e-01
-9.516048570754183367e-02 -1.229510587797925658e-01 4.810649150867020163e-01
-5.994820232021139117e-02 -7.672226860659922543e-02 4.427016395915542857e-01
-6.092697282148420296e-02 -1.187183094985540810e-01 4.890747595042647111e-01
-2.577798632281122493e-02 -1.244161774351133509e-01 5.237738164863036117e-01
-1.050758445916203931e-01 -1.176723381589279277e-01 4.682193478931745423e-01
-2.751187662965352138e-02 -1.142003409683751552e-01 4.797383722020664987e-01
-5.119376333127180490e-02 -1.021090753968195292e-01 4.604780444996120492e-01
-7.302823207895497992e-02 -1.199471183472599206e-01 4.851675016203745860e-01
-1.182855817829512809e-02 -1.095411207900138101e-01 5.636880448676688804e-01
-5.486977391565368845e-02 -1.021713527138742167e-01 4.596534676339620318e-01
-8.940328395072040524e-02 -1.194874686042853712e-01 4.648277762696467752e-01
-1.178056759098238815e-01 -1.199619587365434586e-01 4.879791643338281526e-01
-2.461580407698029521e-02 -1.245623977019403167e-01 5.133218400463200881e-01
-4.972864449461258246e-02 -1.177333862472029619e-01 4.878099481612213628e-01
-4.633191529376049639e-02 -1.075960380115312393e-01 4.691732523013302236e-01
-7.387177676445952357e-02 -9.395130154826616953e-02 4.496825175226635274e-01
-3.276908411932047405e-02 -1.070717405823124330e-01 4.688225852727061493e-01
-2.706649818580313810e-02 -1.208173421638318867e-01 4.941739784922369871e-01
-2.607602837301780871e-02 -1.115726129882620848e-01 4.749647376378556829e-01
-6.580555080053814010e-02 -1.221872256542078233e-01 5.049318786991069397e-01
-7.085876992359949056e-02 -1.225474008526368647e-01 5.015737106145000679e-01
-1.021021804005314976e-01 -1.176571992924008991e-01 5.067218536894220193e-01
-1.006724393527727024e-01 -9.802516738774426364e-02 4.519195677745847517e-01
-8.282651103224623890e-02 -9.480817663289778374e-02 4.492811291651400696e-01
-1.208954837633085810e-01 -1.118045958241021126e-01 4.780216463204627897e-01
-1.185539647529963853e-01 -1.171547033182880754e-01 4.836883132816719444e-01
-8.208393560668159061e-02 -7.457821799973470001e-02 4.394560319005223481e-01
-2.146399604568446917e-02 -9.779390683523081496e-02 5.614995473619353028e-01
-1.036963901865955162e-01 -1.005359894180256064e-01 4.539722700410892542e-01
-3.277642074455690974e-02 -1.185598817889859519e-01 4.899666741832507388e-01
-8.163236603404154523e-02 -1.151064884315918385e-01 4.679969442537044721e-01
-2.823743296709351619e-02 -1.091294877428208160e-01 5.517327345565905539e-01
-6.888126133554674235e-02 -9.168522420960935337e-02 4.485441711059915404e-01
-8.814773358289225424e-02 -1.235220764738385185e-01 4.979058352548053068e-01
-2.849223149367977048e-02 -1.233035851005922640e-01 5.316433914270771721e-01
-1.201248381024879325e-01 -1.133082407054106233e-01 4.867646719362156982e-01
-2.270008514147044826e-02 -1.228673141992216028e-01 5.400557479684068296e-01
-8.459700765749299245e-02 -1.232114049046391241e-01 4.966807249844966132e-01
-7.564810296503171605e-02 -1.049180503122946889e-01 4.585042760950308049e-01
-3.909201370174113926e-02 -1.168783886073040540e-01 5.396612712765317399e-01
-1.144675375155477237e-01 -1.069744009698662540e-01 4.637525211427743210e-01
-1.122385738383972070e-02 -1.163007842180660417e-01 5.571961135395133713e-01
-7.673624361405247118e-02 -1.220945922495077218e-01 4.933080982773382361e-01
-6.800454772011768623e-02 -1.006086896799149033e-01 4.558403603106846447e-01
-4.556929154891425221e-02 -1.220908856751860283e-01 5.156502677782497379e-01
-3.262380365944318739e-02 -1.229551957122787947e-01 5.102468173730629886e-01
-6.411721700778284794e-02 -1.175543248824378606e-01 4.840102383860899193e-01
-1.054829032094619229e-01 -1.227611802270683061e-01 4.970566233125465749e-01
-6.558376533889397064e-02 -1.094705279193335101e-01 4.668802156784455648e-01
-9.950680998357465390e-02 -1.205696411581603789e-01 5.059891377451127825e-01
-6.430928098722483999e-02 -1.160893126438947709e-01 5.272821598744730220e-01
-6.917248922514829257e-02 -1.057550717396042311e-01 4.607945171694199371e-01
-5.074854626188723267e-02 -1.189343469029509603e-01 4.925631482260933725e-01
-8.256176065928699792e-02 -1.207658835646499840e-01 4.775287441409237221e-01
-7.091476340692111358e-02 -1.179297775272595411e-01 5.232229369674710195e-01
-1.175225413448020319e-02 -1.251411427332693727e-01 5.345180150290251841e-01
-2.739827711395614873e-02 -1.142534473756298963e-01 5.513542684868957267e-01
-1.058552210217819298e-02 -1.198631578730297714e-01 4.836599498593526225e-01
-2.101699995248031833e-02 -1.244598722094090032e-01 5.345544189047565231e-01
-5.143370652361808210e-02 -9.009155610476143883e-02 4.505439212537389881e-01
-3.394732183525086405e-02 -1.101830175723411132e-01 5.451369671519836757e-01
-1.209873321074438762e-02 -1.168898265856333218e-01 4.774610805584178497e-01
-5.999016367866681632e-02 -8.592733561700847955e-02 4.464456750825257503e-01
-7.636926475604295661e-02 -1.222934337082904055e-01 5.117627227365966203e-01
-1.148797667473338141e-01 -1.179895147948884782e-01 4.964079444300226740e-01
-7.220724044004855902e-02 -1.224407715056279600e-01 4.979124433866721766e-01
-8.754108853978441462e-02 -1.007669910712786221e-01 4.527519533425433673e-01
-8.413753964882021708e-02 -1.120923489630261810e-01 5.210194541479812314e-01
-3.459795450115737969e-02 -1.059424183516539664e-01 4.676066452873129942e-01
-2.906505089882478743e-02 -1.220775371656560165e-01 5.000871905925483585e-01
-1.076168961496752619e-01 -1.227366874667997487e-01 4.813230173898229158e-01
-6.703549425442402454e-02 -1.113778039696330796e-01 5.290508637101252187e-01
-7.143088572834951910e-02 -5.631739280133245262e-02 4.391615978931534547e-01
-1.136275226985834913e-01 -1.211981918875404962e-01 4.793751769971918431e-01
-4.653687216910146890e-02 -1.028245774892020403e-01 4.627370784916461366e-01
-1.202902903014948788e-01 -1.123060083109069240e-01 4.808726197270984382e-01
-4.683327956894003941e-02 -9.423863346165692323e-02 4.545784606713306197e-01
-7.112333686752451978e-02 -1.194122172824802763e-01 4.852957715019319829e-01
-9.058269455586952235e-02 -8.363684744795071846e-02 4.452319909752658345e-01
-6.590682101542880145e-02 -1.217724374127780035e-01 4.997234662506158109e-01
-6.846313097108472356e-02 -1.117669896229913362e-01 4.696327827202357863e-01
-8.358529187356088241e-02 -1.211382857116501538e-01 5.134404164051701303e-01
-5.850770371940342690e-02 -1.218315658976224375e-01 5.084623834673870357e-01
-4.757559844589932113e-02 -1.188800878500042985e-01 4.920269312402928419e-01
-3.150357166183916785e-02 -9.760835957542181307e-02 4.591392712432734724e-01
-1.437095680859654806e-02 -1.042483904908493714e-01 5.657756889981075954e-01
-3.832332589107756426e-03 -1.289922175504181479e-01 5.191286801819641195e-01
-5.126033019889957715e-02 -1.021712981557704042e-01 4.605443426210952818e-01
-1.005242769414736725e-01 -9.551974312840727510e-02 4.508611213002785001e-01
-1.164294006746825899e-01 -1.200025901294307501e-01 4.914165477314286212e-01
-8.101031744076507557e-02 -1.225438066464226844e-01 4.928824946099659154e-01
-5.114037696165658203e-02 -6.652142407678407476e-02 4.411796893424201893e-01
-5.402538160816044988e-02 -1.142429593714825997e-01 4.791545166646830611e-01
-7.989394371933566941e-02 -1.228523969964767509e-01 4.966873060373042659e-01
-1.889143308842964122e-02 -1.259753495050378036e-01 5.192198619684198491e-01
-4.153923738004106081e-02 -1.222792946981426238e-01 5.194485574846826603e-01
-2.385438292839578769e-02 -1.239950645448738148e-01 5.049761335919884520e-01
-1.048820145385357810e-01 -1.211922277131633613e-01 4.747738689567955750e-01
-8.564517632053772478e-02 -1.164730264715467950e-01 4.646146894240815728e-01
-9.434888530246765548e-03 -1.205832802548260502e-01 5.496281794297525058e-01
-6.658218701834887898e-02 -1.063962688924936090e-01 4.620550863985652956e-01
-8.539351091162766805e-02 -1.143736829159847090e-01 5.196576000043787724e-01
-1.217473444367539112e-02 -1.273912289450095936e-01 5.149787461873908123e-01
-4.970822117174210353e-02 -1.176597846673681780e-01 5.327823500660778810e-01
-4.080947868777290433e-02 -8.687601956000820524e-02 4.503656926383242665e-01
-5.566436395160058448e-02 -1.057822185651695612e-01 4.642286337810989649e-01
-1.059277156304044565e-01 -1.233292936309160620e-01 4.827932038270638659e-01
-7.673733173104915761e-02 -1.052822115490826688e-01 4.585092561724588567e-01
-7.029586091757222821e-02 -1.132847293203133737e-01 4.713531142687819586e-01
-7.685774191690057655e-02 -1.044703243226064865e-01 4.576974683116963316e-01
-8.030650065243782887e-02 -1.060714747131160790e-01 4.581404321838867255e-01
-8.718632287736841069e-02 -1.216243364512826358e-01 4.787233851495286130e-01
-7.069366138358001983e-02 -1.141552116809607248e-01 5.272317015647820515e-01
-6.844741310129379142e-02 -5.295594660822611904e-02 4.400955727850069388e-01
-1.919220268273166830e-02 -1.234099755351280858e-01 5.407962621899388145e-01
-3.327560402332404438e-02 -1.022332437212631062e-01 4.636451510676860566e-01
-2.564244836226312746e-02 -1.171834991177257423e-01 4.850238763825031052e-01
-6.951404319431853107e-02 -9.893021726547819583e-02 4.540882743670222599e-01
-8.030026336259377118e-02 -1.050591507475883285e-01 4.572363144331841878e-01
-9.283355554482378147e-02 -1.202211995032846370e-01 4.636109970352872978e-01
-6.751442879298703847e-02 -1.224174958886482256e-01 5.052235746244535530e-01
-5.732186477924391260e-02 -9.426943789610965629e-02 4.522339312943302048e-01
-5.934047561503676821e-02 -7.820486331835428684e-02 4.433246693160579621e-01
-1.078973870015061953e-01 -1.216044065692277049e-01 4.987072382662495196e-01
-8.889880984635686878e-02 -9.977694819722247865e-02 4.519435657259316397e-01
-7.356378340956468143e-02 -1.212428293693871284e-01 5.158766574940529814e-01
-7.966821103941790216e-02 -1.163678177471564046e-01 4.713211995944062149e-01
-1.050322302024237278e-02 -1.268175144170358148e-01 5.053218920539945813e-01
-5.420755190944866186e-02 -1.068234822878028484e-01 5.363805427203769405e-01
-1.130112266652501668e-01 -1.220774163148070218e-01 4.836434261596121442e-01
-5.802261554579750402e-02 -1.118912441748794034e-01 5.325665236634311572e-01
-8.249357042484527225e-02 -1.177372511466145827e-01 4.705773610299752163e-01
-1.018827011420936623e-01 -9.555510854428231338e-02 4.511868550332879813e-01
-7.433668038923871117e-03 -9.679829994724944986e-02 5.699668515717972728e-01
-4.349980012242905814e-02 -1.201542267960723775e-01 4.972756502983655125e-01
-1.049034299353470562e-01 -9.174613921629194702e-02 4.547652151371315288e-01
-2.403390466952895141e-02 -1.158844821503405564e-01 4.816103199931824341e-01
-1.133099485704216342e-01 -1.215217017954818152e-01 4.807859493949888097e-01
-6.527309421511787169e-02 -1.041335182514731561e-01 4.598513935203383807e-01
-4.919099590590576138e-02 -1.195385675191369818e-01 5.304363963549522110e-01
-3.939786673776420056e-02 -1.191690823833902041e-01 5.376264344058350186e-01
-4.119403797951906587e-02 -8.836807394764882584e-02 4.512889282259995860e-01
-6.824013468174593144e-02 -8.059709310935797566e-02 4.418416268343816067e-01
-9.719943524447613448e-02 -8.582357829205124189e-02 4.493183497109943803e-01
-4.480226741499975657e-02 -9.824131474366835926e-02 4.584491019065721207e-01
-2.130057341868981519e-02 -1.183299667281996342e-01 4.840668651718045834e-01
-2.169732974156901584e-03 -1.290529957749724232e-01 5.226107789324663244e-01
-5.915425381166112412e-02 -9.681705620327359096e-02 4.538937533929098267e-01
-1.065185491771883791e-01 -1.232527525618158232e-01 4.830013769323948103e-01
-8.116968422388105842e-02 -6.680904761501199607e-02 4.397184895324289799e-01
-8.929781656221091879e-02 -1.068602049841998747e-01 4.569023630044777851e-01
-1.083101218074632305e-01 -1.227875735400606044e-01 4.823308177796776230e-01
-1.008824099297851301e-01 -1.232392132170862381e-01 4.991587323384150676e-01
-9.147136655287615992e-02 -9.077072869464578031e-02 4.470966985838719099e-01
-7.254758350161219504e-02 -8.927410920826892027e-02 4.465874419309824872e-01
-9.718928669688799149e-02 -1.239088894685700798e-01 4.941311171916565326e-01
-8.909802617383205670e-02 -1.235528561638572359e-01 4.962701467388329624e-01
-5.900533829082383469e-02 -6.546078731080479107e-02 4.396455988614324517e-01
-8.659622827461611883e-02 -8.385081121749157762e-02 4.439789128114425831e-01
-1.828866767678533761e-02 -1.200315460912003140e-01 4.866433186190984306e-01
-2.643612901801899520e-02 -1.223006082995600347e-01 4.988403783736516939e-01
-2.652342319940797707e-02 -1.237414510820151331e-01 5.080190087078341188e-01
-1.101413538323247829e-02 -1.273717440848935734e-01 5.246244506135393504e-01
-1.144150157964038683e-01 -1.165059523876967040e-01 4.720964340633576617e-01
-4.783212048889506907e-02 -1.088951357791799607e-01 4.710286710182067793e-01
-7.590016006293896778e-02 -1.230320779774817658e-01 5.046060040634030575e-01
-5.990302299809088793e-02 -1.208713527070912341e-01 4.987013229532195058e-01
-5.653577572545782914e-02 -1.154740006661334611e-01 4.811610219986821591e-01
-8.596479967299555658e-02 -1.213099059646332162e-01 4.809125886021987650e-01
-2.910022741604412905e-02 -9.249189826128939584e-02 4.543848935923890942e-01
-1.048305851999986049e-01 -9.000342136456832010e-02 4.561474656895869173e-01
-9.103331483295271087e-02 -8.257113912838501268e-02 4.458493736272879371e-01
-3.640386311970993799e-02 -1.209469007179820449e-01 4.988161834568476949e-01
-7.299408876378198074e-02 -6.295884195444295672e-02 4.373191439349904952e-01
-3.138705957655092693e-02 -1.160195510212350817e-01 5.462011157986204068e-01
-3.218107126700838622e-02 -1.225406246955095951e-01 5.059182795720669201e-01
-1.024900373215647115e-01 -1.236952055699271358e-01 4.815890736640665581e-01
-1.000811043972919812e-01 -1.236946310849652148e-01 4.969450851054951768e-01
-1.851480349569669878e-02 -1.189516195085150857e-01 5.518012011913873138e-01
-1.086907472262780942e-02 -1.245649120621863809e-01 5.366818699210559318e-01
-8.039681450772326321e-02 -1.046013523335370815e-01 4.568212363142292731e-01
-3.659372948956853694e-02 -1.224987029819246676e-01 5.264697021429288748e-01
-5.004630212182017111e-03 -1.265667512624177593e-01 5.319178231169329196e-01
-3.687932155283301511e-02 -1.018732266127261171e-01 4.631565028552935837e-01
-6.253355052859751670e-03 -1.283651105021346717e-01 5.247399072502975104e-01
-3.230228254362955964e-02 -1.223286799975459999e-01 5.042687300373003279e-01
-3.407330215094593606e-02 -1.209878543419205948e-01 4.982215071815307983e-01
-6.059731798148768750e-02 -1.115238910251760418e-01 5.316082969644703171e-01
-6.013360967430558812e-02 -9.612905924177486683e-02 4.531487971173457918e-01
-1.425675384758778169e-02 -1.106966587935971497e-01 5.625554783424642213e-01
-8.023847011121505723e-02 -1.228121470250462532e-01 5.071864840480425629e-01
-8.320699951683938056e-02 -8.628791533560303817e-02 4.442378202119965924e-01
-1.192612643160938062e-02 -1.242824805806087146e-01 4.957533666702806374e-01
-6.108759763861265624e-02 -1.218377233848966790e-01 5.137547799537276472e-01
-8.680929592749728196e-02 -1.152357818302327530e-01 5.180581062703217832e-01
-6.295199915911388333e-02 -1.182856660501712676e-01 4.864899776887110505e-01
-2.183339672179238425e-02 -1.230054493069125954e-01 4.982260116613926315e-01
-6.778400981803769931e-02 -1.119251106999442219e-01 4.701864578719820997e-01
-9.876318785481331963e-02 -1.155222039389997846e-01 4.632663104680896371e-01
-6.163124931410342983e-02 -7.196549921721424881e-02 4.409225702675501068e-01
-8.032671976911963385e-02 -9.573873832113118099e-02 4.502345074855026441e-01
-1.192255700043707428e-01 -1.105762858490012546e-01 4.721004042983859561e-01
-4.960169514732297447e-02 -7.094063978874531884e-02 4.426790239752758649e-01
-9.015059966210003939e-02 -7.775629158915595140e-02 4.456788541381493940e-01
-1.089615809856882556e-01 -1.170687165037201383e-01 5.022091692700911825e-01
-5.797450281348522083e-02 -1.170749190209325746e-01 4.849060744798747713e-01
-5.075833834099460762e-02 -1.014915670020317962e-01 4.598282677573222732e-01
-2.680236434812491297e-02 -1.227690287930545548e-01 5.015985061668805089e-01
-5.645999984627380480e-02 -1.214916284485990511e-01 5.050093245451660051e-01
-9.069395882886785443e-02 -8.129082922214579676e-02 4.458146746984754105e-01
-2.225053229091986107e-02 -1.225782156693008551e-01 5.416768558732153460e-01
-5.666572573097557186e-02 -1.181326376547535278e-01 4.883485500296264048e-01
-6.131522367848217525e-02 -1.156412847956502787e-01 4.802850028557790751e-01
-1.007834168107362149e-01 -1.216180399207204277e-01 5.028946939053107190e-01
-4.337228678733755921e-02 -1.141707049855042455e-01 4.805709296085345361e-01
-4.547824239846473549e-02 -1.110801703598196799e-01 4.749670570194730046e-01
-2.677443018516004539e-02 -1.156590251188796270e-01 4.822580910283909006e-01
-7.258078022551327224e-02 -1.132203782244648460e-01 4.702191433609779758e-01
-6.263207788825134181e-02 -8.183725830612280372e-02 4.438727999433007554e-01
-4.379105925910659752e-02 -9.451538340296641860e-02 4.555589341869434317e-01
-1.138835938646813178e-01 -1.164786378765769181e-01 4.715741698475275356e-01
-1.137658288155801445e-01 -1.210981731347739454e-01 4.935842253375862243e-01
-3.986614886260109181e-02 -1.079660093163705009e-01 4.701201841927106773e-01
-2.249749434427716563e-02 -1.240542522326223696e-01 5.349623126971868592e-01
-2.790780557879794441e-02 -9.409907021353780543e-02 4.553737177170713024e-01
-1.139337056536957743e-01 -1.198568259220661597e-01 4.962377063695276314e-01
-6.143297045434802095e-02 -1.166186265463756006e-01 4.827995036008811969e-01
-1.022791001308667388e-02 -1.224692952145861602e-01 5.444155899364944151e-01
-5.407930814596299124e-02 -9.068346555216647009e-02 4.504065622115862588e-01
-2.313938059245299050e-02 -1.248457728574296627e-01 5.284747967185807749e-01
-7.515347009548486480e-03 -1.260421743541027817e-01 5.322347771753551671e-01
-1.148509013285468200e-01 -1.179274876458947241e-01 4.750818766248539049e-01
-3.678451166372209702e-02 -9.715663874089101870e-02 4.588350620470234564e-01
-1.474308530244419248e-02 -1.177601936530933147e-01 4.801382342609727960e-01
-9.007042205945438307e-02 -1.024916741492007677e-01 4.537035342870989751e-01
-2.493068000976867565e-02 -1.221405069704104979e-01 4.973297545466722758e-01
-5.476578362396125610e-02 -7.542611729778078700e-02 4.434138583195647021e-01
-4.670990044403335040e-02 -8.210541883083312398e-02 4.471041491217161434e-01
-5.868403657511636617e-02 -9.955071845309565459e-02 4.563994561716066545e-01
-4.693551116297568077e-02 -1.207795490292664919e-01 5.014809165750604425e-01
-5.249508742604845624e-02 -1.218916928969832891e-01 5.115710180195812695e-01
-4.517848234873702434e-02 -1.101367296699638926e-01 4.734093560244357901e-01
-8.568973101691886030e-02 -1.159526913964660927e-01 5.182901514975175594e-01
-1.380339372482872889e-02 -1.242506555898163917e-01 4.967802539467797152e-01
-1.018132847583750750e-01 -1.021011935952011451e-01 4.539807742614200836e-01
-2.856292636029979237e-02 -1.126375589682256512e-01 5.504339585297574056e-01
-6.099030965324469394e-02 -1.085260880635985636e-01 5.323802378832376281e-01
-1.160497093493540050e-01 -1.214198559575796615e-01 4.845831773046726521e-01
-7.188135879989847321e-02 -1.174635283950106468e-01 5.237177241046073739e-01
-2.507754496207147826e-02 -1.237035347807851210e-01 5.049560378070939715e-01
-5.238726103877833912e-02 -1.185089022585454899e-01 4.905816095658018794e-01
-1.354772735746380061e-02 -1.094853881327789158e-01 5.635832412045932438e-01
-2.903176298926583507e-02 -1.142552698646608217e-01 4.804078128828586092e-01
-8.392490924233439453e-02 -1.233159268748125342e-01 5.015056488104057131e-01
-4.722001926175613956e-02 -1.013773018059029307e-01 4.608792471914567312e-01
-1.672588441108528376e-02 -1.148108896857559791e-01 5.585401883915523946e-01
-2.793215365773614109e-02 -9.065227804535114231e-02 4.526330489050944816e-01
-7.058131776277984382e-02 -1.058524339583443996e-01 4.606128924247385181e-01
-6.159186007741050684e-02 -1.222281430114914996e-01 5.100318622926478529e-01
-1.550255446833162520e-02 -1.028429057267763874e-01 5.655114804790106753e-01
-8.934977849992835341e-02 -7.179116915190250636e-02 4.463943086055843779e-01
-1.004844614179485757e-01 -1.132913062961756201e-01 4.619479091834908790e-01
-4.664099311181488239e-02 -1.210800052632953483e-01 5.257425089953373654e-01
-7.624416857352474264e-02 -1.158712717403013459e-01 4.730759465454534851e-01
-4.299278499885753058e-02 -8.314935410506064939e-02 4.480863249115656366e-01
-2.238878133476108687e-02 -1.040408943091696431e-01 4.626135976544841211e-01
-5.748233366711483910e-02 -9.696995451351857198e-02 4.543530835574488558e-01
-9.099369605771795433e-02 -1.209034545945072564e-01 4.663156348416788721e-01
-2.917117799310516707e-02 -1.166382744984946346e-01 4.853334530890264231e-01
-9.770390219992815262e-02 -1.232683949709622723e-01 4.684236962485497369e-01
