-1.059300450251650511e-01 -9.085916948994858522e-02 4.562864369992328806e-01
-8.922122548872966907e-02 -1.213257731102025672e-01 4.712980067817808538e-01
-6.352610530161742486e-02 -1.174061007936663403e-01 4.844200153260473374e-01
-2.328821200418411050e-02 -1.066113068816117587e-01 4.663984238097526602e-01
-8.073773657567241691e-02 -1.022272034572024174e-01 4.549704071991406140e-01
-8.245638190298096304e-02 -1.169052241286940574e-01 4.700663667571789994e-01
-7.078931496934622036e-02 -9.844549674991678878e-02 4.536361835319475122e-01
-6.047860167190442088e-02 -6.025508401886196796e-02 4.385837071893529115e-01
-4.992317750602278531e-02 -1.174997648265485722e-01 4.873881465176271854e-01
-1.020692480574975497e-01 -1.163754453240837261e-01 4.659847159966488683e-01
-2.388802671520181067e-02 -1.208388055318825316e-01 5.451606955616248307e-01
-5.632750610949130432e-02 -1.017065591043892353e-01 4.590054694816037562e-01
-2.311572843092988064e-02 -1.129473171767539919e-01 5.569343876897814294e-01
-8.669863612701068922e-02 -1.222727605819871749e-01 4.881989296887309093e-01
-2.592086741872034333e-02 -1.175030713245697328e-01 5.503743438342704186e-01
-1.012285933609279182e-01 -1.235223185371596977e-01 4.959241758676404266e-01
-9.090634708200762137e-03 -1.246899316959569626e-01 4.958203360717392538e-01
-5.923244434708476586e-02 -1.193453962122928702e-01 5.253417514577137792e-01
-1.877646749892783115e-02 -1.171666344522872966e-01 4.802414662287681213e-01
-9.421651700413093133e-02 -1.225107518341056606e-01 5.031667752976941577e-01
-8.442502456337221128e-02 -1.119440112235294410e-01 4.627591902684456415e-01
-1.671862334403919834e-02 -1.259453219137345870e-01 5.302537779687456210e-01
-4.907203316000970789e-02 -1.032347720622938669e-01 4.627714633555274903e-01
-2.502174205776478214e-02 -1.245798174640191380e-01 5.221321285785083255e-01
-6.639480492942465180e-03 -1.285479560939561394e-01 5.201434704735501402e-01
-5.157325729503346029e-02 -1.209121601821605274e-01 5.226023001226735021e-01
-6.974563558012805697e-02 -5.655783236147041149e-02 4.386935599872342495e-01
-1.723507905321622694e-02 -1.260578167234287783e-01 5.283737970402571094e-01
-4.921523532983677202e-02 -6.703994033074328618e-02 4.414750284542294234e-01
-2.864747278374646031e-02 -1.237502055963684289e-01 5.142925636050378335e-01
-9.665231759216093288e-02 -1.168882240727922989e-01 4.625309532437870130e-01
-4.115517058047272331e-02 -1.222614165497793309e-01 5.184670130501888297e-01
-5.351444604439252462e-02 -7.141969596594895109e-02 4.423497120364209834e-01
-5.580738947032796993e-02 -6.753121223430723352e-02 4.408276516608100049e-01
-4.333406184362301877e-02 -8.834318396313514676e-02 4.509971009052337054e-01
-3.052944365998752282e-02 -1.214821511905373325e-01 4.986612101451516899e-01
-9.547762677035653844e-02 -1.235536861036837936e-01 4.860434115243538744e-01
-1.885621960260946972e-02 -1.215376411190667721e-01 4.911746996970394186e-01
-5.582349759949237905e-02 -7.888774303183658521e-02 4.443489573640157508e-01
-4.797716839826319385e-02 -8.857141971429745297e-02 4.503174664089947821e-01
-6.266131467761171248e-02 -1.215461193232477283e-01 5.016841904636347715e-01
-7.236420611757213295e-02 -1.149241042240294469e-01 4.740260459365071011e-01
-9.987270523521581123e-02 -1.143911265697062501e-01 5.112170045965253040e-01
-9.227964738283561674e-02 -1.231798435407764486e-01 4.990480615885271032e-01
-8.942456326834523350e-02 -1.227735968332271665e-01 5.032844402571511333e-01
-9.820924427584475092e-02 -1.210864959596238966e-01 5.065678557194659426e-01
-9.557657652768207501e-02 -1.232625083677090505e-01 4.978762916098042890e-01
-3.349713760112185690e-02 -1.230495428046794598e-01 5.255264805011835572e-01
-7.826742663725387572e-02 -1.225912016345981348e-01 4.973891367015806364e-01
-9.774328806934140523e-02 -1.230425512493489582e-01 4.987804769296567131e-01
-8.602520760076727557e-02 -1.118763600014484744e-01 5.200768929509361760e-01
-5.794644330838154278e-02 -8.538604192659027259e-02 4.465975171840586566e-01
-7.183722732239929132e-02 -6.309336076014716854e-02 4.371871023212549612e-01
-2.879025154331979475e-02 -1.141267655399098441e-01 4.800982500805534570e-01
-7.580668616813639182e-02 -1.107108893481920514e-01 4.650417244459252863e-01
-1.195360126374297866e-01 -1.161012518676241279e-01 4.861444251285176876e-01
-2.426523970985343046e-02 -1.225632188414282342e-01 5.397598930836836617e-01
-7.236686853080924464e-02 -1.142184631264819422e-01 5.266218767154355884e-01
-9.198818870130519298e-02 -1.225038859739937813e-01 4.693385241103445460e-01
-2.683031525351640273e-02 -1.044210249723821066e-01 4.647356521839600685e-01
-1.420064666610362618e-02 -1.163503001201887377e-01 5.572673989624692403e-01
-3.296553592678174577e-02 -1.224006380322807813e-01 5.319539328688740465e-01
-4.070388438349082511e-02 -1.215953798047637313e-01 5.052956736124197823e-01
-2.554681813842270277e-02 -1.240283991170786360e-01 5.300814910497190224e-01
-2.185132209766931649e-02 -1.248213502260766272e-01 5.077296496111243229e-01
-9.542996646946952377e-02 -1.101902983362225835e-01 4.585600464584217439e-01
-8.671279112259694388e-02 -1.226301913363917057e-01 5.055216489798105561e-01
-2.138700797302343914e-02 -1.173630365952834514e-01 5.535575851722995822e-01
-8.211597761196193224e-02 -1.125208621564620509e-01 4.642089353107977101e-01
-3.592971113798196919e-02 -1.226879318381315920e-01 5.253587579600459412e-01
-2.323547517314652686e-02 -1.090673537055852349e-01 4.698747929583116933e-01
-2.684916399089652336e-02 -9.160396484567775999e-02 4.530576206673282424e-01
-5.805771135143129869e-02 -1.070244543918832392e-01 4.655626183122923423e-01
-3.993094475582138064e-02 -1.221772415312301907e-01 5.253274270984840122e-01
-6.304180684766672038e-02 -8.526276967437862453e-02 4.454719293985076045e-01
-9.029431916102545475e-02 -1.233780579403374461e-01 4.946264154280280989e-01
-7.685741007581427253e-02 -1.226427033317141757e-01 5.063713547912259694e-01
-3.955152340203309941e-02 -1.140986526956252051e-01 4.805913476989929212e-01
-7.717481696263239765e-02 -1.217046886556775592e-01 4.922583141646890703e-01
-2.916236586524435098e-02 -1.230017674612072787e-01 5.327231390692469537e-01
-3.939675305421822676e-02 -1.103366707628638255e-01 4.739438960271917800e-01
-2.014853002944389654e-02 -1.018732175665440221e-01 5.633365900148228356e-01
-8.714370195280476961e-02 -1.032937460988854333e-01 4.547173517988483682e-01
-2.711453948151199000e-02 -1.241404285055685980e-01 5.172962936703542347e-01
-4.655922793194542525e-02 -1.217051685058233301e-01 5.106377949169306207e-01
-2.004373202935080464e-02 -9.664585716075953237e-02 5.631442197041232056e-01
-4.910313047852615798e-02 -1.163518503043783903e-01 4.847209138414472207e-01
-2.656095371162025057e-02 -1.114140149539788321e-01 4.748787000664821956e-01
-8.755181839737022353e-02 -6.908326979142652424e-02 4.447466940959609594e-01
-1.072737827320489196e-01 -1.165707078251162626e-01 5.033632209515208622e-01
-1.557933085264218143e-02 -1.256672258594948577e-01 5.046349926450995893e-01
-9.606146691879402510e-02 -1.203952861388162265e-01 5.101564789471374484e-01
-8.182624013575187649e-02 -1.227027651359306193e-01 4.962329715696819910e-01
-1.204811001490385530e-01 -1.092819918384532879e-01 4.727308943893752669e-01
-5.350456507078128060e-02 -1.063940837228506686e-01 5.368663854636875898e-01
-2.906554411536711041e-02 -1.176702709709552541e-01 4.875078051215894215e-01
-9.048774445192341032e-02 -1.122830622122137495e-01 4.606599834319929365e-01
-4.183256626934888506e-02 -1.144210894064542905e-01 4.812051906075920926e-01
-1.219897884180857345e-02 -1.055976578106059272e-01 5.656094702076147618e-01
-7.589304994777301694e-02 -1.212696451870441533e-01 5.146530636721687868e-01
-7.604173898952523714e-02 -1.136352129376299452e-01 5.259803476884549189e-01
-5.666057992572454127e-02 -6.229007796610296771e-02 4.394198894258359300e-01
-6.930135264825000585e-02 -1.187169408556366657e-01 4.854397976482010546e-01
-5.645792909924866182e-02 -1.172565064321671319e-01 4.861567107934841592e-01
-1.797114104227286527e-02 -1.152887808261344321e-01 5.576603810731329824e-01
-6.743306615253973069e-02 -1.221640372568751770e-01 5.091656374760112902e-01
-2.645434401316439088e-02 -1.242275569750443537e-01 5.259562432792131981e-01
-5.922173846374444856e-02 -1.109361465744730380e-01 4.714571073520771316e-01
-4.312002690243705444e-02 -1.011564505965826671e-01 4.618093109635119653e-01
-9.184724720226591921e-02 -1.229235020232534725e-01 4.865584333558988783e-01
-3.823241361013429013e-02 -1.024119171044451659e-01 4.635728013246555590e-01
-9.015803903527677687e-02 -1.207214608358762598e-01 5.110188708015241943e-01
-1.128352967951927188e-01 -1.198469240346386605e-01 4.761864323423659617e-01
-3.202813162813567677e-02 -9.307230763971585663e-02 4.553158563135230597e-01
-3.479776085358831511e-02 -1.225601090184039177e-01 5.100176489443227767e-01
-5.573905537376423747e-02 -1.166581050698249356e-01 4.846128182390746497e-01
-3.876173929732332213e-02 -9.217092767520751462e-02 4.545040809367645318e-01
-1.182016998884457409e-01 -1.143623928141211388e-01 4.757720931715812007e-01
-7.983345636741484563e-02 -1.128775182724321979e-01 4.662960323166798760e-01
-4.891277104839190232e-02 -9.263467374404323051e-02 4.528339952176755334e-01
-3.890669499387909569e-02 -8.454660987322605570e-02 4.491248560645709764e-01
-4.172871829199533561e-02 -9.099409801793832686e-02 4.532707360701506150e-01
-1.109787978498136957e-01 -1.048864354250093334e-01 4.588074312356560935e-01
-3.932423560016614500e-02 -1.190456702034680403e-01 4.926733989805979763e-01
-6.448950793781496604e-02 -8.890795929717280888e-02 4.473489877405013582e-01
-9.662148138013371135e-02 -1.155404733583274279e-01 4.617221926970224710e-01
-6.004601233013688588e-02 -1.212016791651228803e-01 5.171095156779408342e-01
1.277635569593916142e-05 -1.290433206511377717e-01 5.203515735367897355e-01
-6.513591382047279055e-02 -8.153130685209949990e-02 4.430916510503592476e-01
-2.051984239400810386e-02 -1.167932020973209556e-01 5.550900721675068317e-01
-2.243745119699322443e-02 -1.250653608739310529e-01 5.138953166162705255e-01
-3.372897792036803205e-02 -1.213735997481632523e-01 5.004076022762339315e-01
-1.089235581421529597e-01 -9.778347199154796554e-02 4.560524227067888625e-01
-2.827868290734092058e-02 -1.167090560699720475e-01 4.853276440761349342e-01
-8.271839493131635801e-02 -1.219420691676842278e-01 4.905834621075894630e-01
-1.427162657365042830e-02 -1.147869587983085943e-01 5.589358058017990238e-01
-7.943992797217291901e-02 -1.116693304879767257e-01 4.644810066044243180e-01
-1.011500669940508662e-01 -1.136433543899132703e-01 4.627429121786109656e-01
-4.624298376811536437e-02 -1.217820316587592683e-01 5.119356730489502683e-01
-5.571860540239262360e-02 -1.213329532060085508e-01 5.054939104001874295e-01
-2.099663032555723272e-02 -1.242815455646127942e-01 5.353211929998188401e-01
-1.108162531356576969e-01 -1.224975661804185434e-01 4.911809788173153724e-01
-6.549132491275563850e-02 -1.195971298232221675e-01 4.900866237484430288e-01
-8.050990223040048466e-02 -1.199350940640705604e-01 4.793206188178240068e-01
-3.195510324220544179e-02 -1.120862812394442243e-01 5.470510646596115079e-01
-1.151519326326546772e-01 -1.214274082439334296e-01 4.846323657157268761e-01
-8.955104368802539738e-02 -1.218226539944092107e-01 5.085152658400455827e-01
-7.175912005646095659e-02 -8.435467590695074069e-02 4.434543140012767726e-01
-2.180728742760392608e-02 -1.132994791576157206e-01 4.757144499428035966e-01
-2.728964378496278806e-02 -1.174232744039141046e-01 4.865700488641910293e-01
-4.380945729697351826e-02 -6.548308025539553712e-02 4.414159704906536752e-01
-2.159078092237851076e-02 -1.226963349264900138e-01 5.418222761288613576e-01
-4.901452888655466467e-02 -1.152985616630440718e-01 4.824700870605035941e-01
-1.145946704917445852e-01 -1.094878001624667724e-01 4.650186508514948525e-01
-7.933532060740688951e-02 -1.208376938878730350e-01 4.879134818971088694e-01
-9.082556894832939653e-02 -1.230216866375529461e-01 5.007065775117489626e-01
-5.981875281274878775e-02 -1.218962771777969273e-01 5.108558222751468092e-01
-4.501956610023252758e-02 -1.093575652181613261e-01 4.722932075223332249e-01
-7.415613494417065688e-02 -6.381276950164285755e-02 4.370274084261306369e-01
-6.402955954193728649e-02 -1.215715377970215672e-01 5.011719997315605690e-01
-2.866837016631196278e-02 -1.173032329202997048e-01 4.866801533965999793e-01
-3.400945958100367976e-03 -1.278460116821749371e-01 5.290491397497077974e-01
-6.389983585266043042e-02 -1.155622494079829032e-01 5.276980498672331210e-01
-6.495541119386917528e-02 -1.091522738605647802e-01 4.668762939664060641e-01
-2.770257013061611789e-02 -1.200839414138033245e-01 4.922514433798406697e-01
-7.839627322758886685e-02 -1.187433626061648317e-01 4.779781234220709107e-01
-1.156305715373200371e-01 -1.206933153512877999e-01 4.816037371410743506e-01
-5.048071823221673970e-02 -1.209021443878845192e-01 5.028076753032978408e-01
-1.724750661299891130e-02 -1.181451049952178256e-01 5.535748243399112312e-01
-3.948031677081503821e-02 -1.106071064893495576e-01 4.744123657003634364e-01
-7.101600863779040929e-02 -1.157611803837971520e-01 5.256842746188090665e-01
-1.126584421603119557e-01 -1.015743672464700237e-01 4.599624136984572509e-01
-3.433287786011390841e-02 -1.090469268929108032e-01 4.718293143951534652e-01
-6.114791470380765565e-02 -1.186831363013948898e-01 5.254466117402332159e-01
-1.070482787090900473e-01 -9.807059861303960013e-02 4.550530127737391073e-01
-9.369774165143358868e-02 -1.227236759835243773e-01 4.764425880632929822e-01
-8.259822649092784727e-03 -1.245956806294215846e-01 5.361381778929047437e-01
-8.180459689424746106e-02 -1.231389089705106077e-01 5.009618730029986589e-01
-2.712564118595450768e-02 -1.238986223020637212e-01 5.288747365435970682e-01
-3.039596077763314849e-02 -1.236129843930719729e-01 5.202704260974362338e-01
-7.009289641061683396e-02 -1.224278799859288142e-01 5.044254782169961260e-01
-8.545658767207874040e-02 -6.882468385967503710e-02 4.409269298841953511e-01
-1.048741813441078363e-01 -1.209894268222578978e-01 4.746605042595613555e-01
-1.460935674837994351e-02 -1.191961942485793291e-01 5.523756298808580878e-01
-1.085286851841469648e-02 -1.263693409731252715e-01 5.029389030750620604e-01
-3.814847601527475429e-02 -1.201197498241189376e-01 5.374561060164620985e-01
-4.784298315885696096e-02 -1.210084681182813648e-01 5.239842040346895935e-01
-8.967620633005925213e-02 -1.228831580132268564e-01 5.023969682335196474e-01
-5.987632537307923525e-02 -1.206333568603427109e-01 5.206625431627555090e-01
-2.782595278377721429e-02 -1.135479268117202817e-01 4.786167598288348368e-01
-7.000207557463049290e-02 -1.105506419276454516e-01 4.674045274392869542e-01
-5.437537482895238999e-02 -9.868862632867902995e-02 4.565277387639814499e-01
-2.939468097572263405e-02 -1.233042248463157436e-01 5.086515936600818355e-01
-6.206172950195055354e-02 -1.158577198396983227e-01 4.810221534165087798e-01
-4.004329534424271725e-02 -1.080484982137255162e-01 5.422274497026751128e-01
-4.956135973720778021e-02 -1.126304365113500183e-01 4.771594682343191507e-01
-3.695284605134176170e-02 -1.189030852330298094e-01 4.918590301309040957e-01
-9.816765858483138263e-02 -1.165146638152519121e-01 4.634272642251253682e-01
-5.898653752841173659e-02 -9.970642903915001576e-02 4.565988922187198540e-01
-3.433534640171059110e-02 -1.194789926085073756e-01 4.930223873675977364e-01
-9.739014866021143690e-02 -1.155706085209681766e-01 4.620578992166078924e-01
-7.317018485368213809e-02 -1.203422927756067212e-01 4.874890008584493728e-01
-7.739300940898466083e-03 -1.187573323545233345e-01 5.527427514501405126e-01
-3.123582483331932905e-02 -1.122587887511823090e-01 4.768652023367788706e-01
-2.435257190473402722e-02 -1.082463969657876668e-01 5.569247714259186743e-01
-5.518074677330817024e-02 -1.213504125848904186e-01 5.057671090893459676e-01
-1.231028857652323102e-02 -1.253875605712732599e-01 5.334785764588745316e-01
-1.172247374040003981e-01 -1.206653727309836555e-01 4.867842345348378785e-01
-1.919707446080150953e-02 -1.156810495780430104e-01 5.568808979660903047e-01
-8.224564485532116775e-02 -1.223508387950305726e-01 4.922612419163127639e-01
-1.109882637749462775e-01 -1.208386881677422781e-01 4.769793734081363423e-01
-4.822404986785080311e-02 -9.413088142868886177e-02 4.542408501909472318e-01
-8.937896763493015373e-02 -9.902490105588020175e-02 4.514968540805628372e-01
-9.527758599065441758e-02 -8.156826026239409611e-02 4.483798729137868366e-01
-1.082144123639581026e-02 -1.269622366619557741e-01 5.268560524273874224e-01
-3.431857235662794797e-02 -8.936130963950336681e-02 4.526131780390820203e-01
-1.978427622419218213e-02 -1.253986405301658613e-01 5.298588114799070992e-01
-6.984047643268967431e-02 -1.224367328071983424e-01 5.049968653643859273e-01
-2.068401520083262835e-02 -1.253215719794798788e-01 5.116099547638571776e-01
-6.460552208302558497e-02 -9.640052666034173989e-02 4.527449642593315282e-01
-1.840452004751531867e-02 -1.230974640140327231e-01 5.427274705135712862e-01
-9.242490065254156673e-02 -1.227763869320385032e-01 4.851087207787245781e-01
-1.040647126735253503e-01 -1.102130993777121065e-01 4.605296617369749601e-01
-1.243880647805542874e-02 -1.262765258834971926e-01 5.042973196399525015e-01
-6.061581511065524536e-02 -1.219021558082838685e-01 5.089094120639801044e-01
-9.078791806611416493e-02 -8.479585455114085901e-02 4.451077164333711034e-01
-1.888382771077649208e-02 -1.260245661126353778e-01 5.223971625555395848e-01
-5.274770913114629201e-02 -6.986816100534741503e-02 4.419621462822131419e-01
-5.749583387979117360e-02 -6.769944492026271077e-02 4.406003103371404217e-01
-8.206035445297574227e-02 -1.198084982678543908e-01 5.164073974006422318e-01
-6.813661178926254391e-02 -1.011952746585422780e-01 4.564962221288106359e-01
-7.682816546465090490e-02 -7.581306371555342205e-02 4.392783370797341269e-01
-5.581333488557492506e-02 -5.720708742883726106e-02 4.386549529084929344e-01
-5.027299141344528099e-02 -1.133002155928979349e-01 4.783839003665187328e-01
-5.104907001884140261e-02 -1.066499184235626674e-01 4.669571277697801559e-01
-5.108093052285378466e-02 -8.576004731302624973e-02 4.481872692738291808e-01
-4.469814800748702494e-02 -1.218300461848636912e-01 5.202210316266218104e-01
-1.587130668858750468e-02 -1.265934222439663304e-01 5.149756869975264939e-01
-2.986636485692304929e-02 -1.207524176759674495e-01 5.411054328210577191e-01
-5.590147914760317666e-02 -1.085730290914458246e-01 4.684645110997808226e-01
-9.060501359235830637e-03 -1.276814290440690669e-01 5.094382711081759663e-01
-4.908731158473448458e-02 -1.062861085189447247e-01 4.669250945523838459e-01
-9.257417877304788267e-02 -1.002014699833724543e-01 4.520764315410668033e-01
-6.320516629638005257e-02 -6.943411106603421257e-02 4.397640522911201999e-01
-4.785415723801983434e-02 -1.148570884049501112e-01 4.817109482449315472e-01
-4.102439947435456563e-02 -1.221625852148888053e-01 5.237695616735288384e-01
-6.678685616341110964e-02 -7.868920175105026393e-02 4.415835812624914203e-01
-9.015936789530985818e-02 -1.217023392332398785e-01 5.086401068229053912e-01
-5.416992010876303665e-02 -8.885535082058092227e-02 4.493306974452117020e-01
-3.249120292432621654e-02 -1.231379923734365195e-01 5.148902380786011257e-01
-2.416280272226483533e-02 -1.160783812944360394e-01 4.819343562083731602e-01
-1.931789084869017098e-02 -1.204200581609788656e-01 5.486259357606294573e-01
-6.727514917468202515e-02 -6.198419531910422109e-02 4.375661628159077110e-01
-6.698096038044250300e-02 -7.679039795998265916e-02 4.409414140121281078e-01
-7.757736953261265556e-02 -1.138134388117274937e-01 5.254892319894955977e-01
-4.213782173752705917e-02 -1.214591334343494283e-01 5.048826100773275982e-01
-4.520829690523991973e-02 -1.132504895767236924e-01 4.788921295226687413e-01
-4.454233089357117342e-02 -1.044193689774497308e-01 4.653067009720321945e-01
-7.796791973195841587e-03 -1.282141940034585703e-01 5.137773769841224025e-01
-3.274897039438848939e-02 -1.054280459566993566e-01 4.669382873608927120e-01
-1.793868277726607535e-02 -1.205334912480787307e-01 5.488305916847564525e-01
-1.336330153870136754e-02 -1.266901968710826554e-01 5.075558405178279830e-01
-1.067091023109477538e-01 -1.222658193368038465e-01 4.967722643432392338e-01
-6.631806480662583159e-02 -1.201172360601835687e-01 5.201110876373178371e-01
-4.061012060107925536e-02 -1.222065987180469826e-01 5.236556177006502777e-01
-1.189932160033490421e-02 -1.237446762759801255e-01 5.401363143026426394e-01
-9.644022032920096521e-02 -8.405423352996142794e-02 4.487546421219785198e-01
-8.146217810233771783e-02 -1.124002249478576743e-01 5.229278189505204288e-01
-1.154057973826920491e-02 -9.885808005372277718e-02 5.684866414012327285e-01
-2.351793809664327189e-02 -1.118960206195189627e-01 5.569361482329930890e-01
-4.300338710392908464e-02 -1.144109006108394305e-01 4.811800161177469115e-01
-4.856863218916044472e-02 -1.180836444065761909e-01 4.895223023232209703e-01
-1.695400732431589022e-02 -1.133317504687707533e-01 5.599386045695080583e-01
-8.577014629755197461e-02 -7.879175059601840891e-02 4.422684931558962251e-01
-4.202558546251210919e-02 -1.220179699241815546e-01 5.102185557266893934e-01
-1.339586180511967255e-02 -1.272320921539726868e-01 5.183346135692418200e-01
-1.160978106240107832e-01 -1.155041199671379831e-01 4.729834727525114024e-01
-1.156701531641211311e-01 -1.167072874771474117e-01 4.743945816970026597e-01
-8.134534385319001915e-02 -1.202914264971364777e-01 4.858652916703850022e-01
-4.139063390079146532e-02 -1.112775938952259014e-01 5.413206918228430364e-01
-6.718235973524060156e-02 -1.203907410170113601e-01 4.920024273462145215e-01
-1.074842038908927072e-01 -1.036477500115877554e-01 4.562086155955121236e-01
-7.639709963406618454e-02 -1.209637818881171972e-01 5.155096171278238382e-01
-4.810924091509825862e-02 -1.089332064660716581e-01 4.712627275792009018e-01
-2.207528154044863244e-02 -1.217396215170983148e-01 4.943223861772390038e-01
-3.836986445887092395e-02 -1.091929035809192233e-01 4.720762720796726764e-01
-8.354311121753277281e-02 -7.014514259510824801e-02 4.399504063027333545e-01
-2.157473247367048749e-02 -1.125373012165831882e-01 5.581861335626097098e-01
-4.726890154149976375e-02 -7.196468412978924978e-02 4.431985073438095002e-01
-3.068514045294850820e-02 -1.086790363671446408e-01 4.710054855924431516e-01
-8.126836725697880737e-02 -1.015796458630290333e-01 4.543669055897623377e-01
-7.755842745200140775e-02 -1.211492212011876790e-01 4.893194084227217577e-01
-1.442958579453675061e-02 -1.173796949862287997e-01 5.556101285225800712e-01
-2.813010156346727048e-02 -1.239692761163570384e-01 5.218957317806836027e-01
-4.879617330078626219e-02 -1.194319488951385011e-01 4.953223708659068580e-01
-2.944800816184855313e-02 -1.237510187362233505e-01 5.207191590431373696e-01
-3.458096177495759149e-02 -1.229872638602723250e-01 5.178657772587088592e-01
-6.187277015339536640e-02 -6.482607094433170958e-02 4.389336079585128281e-01
-1.994872673750454697e-02 -1.153642075596674199e-01 4.779219087758357909e-01
-4.533882755058306346e-02 -8.755553048892764090e-02 4.501523343289907109e-01
-8.867484421557601804e-02 -1.216020475535509460e-01 4.787131601707182438e-01
-7.777691247089384141e-02 -9.345549147581846960e-02 4.490055625800519201e-01
-4.315353558819036428e-02 -1.148325972334656303e-01 4.819512031782522965e-01
-8.601008851981403747e-02 -1.202090161689704784e-01 5.128839615664663176e-01
-1.052571257200858867e-01 -1.027910682289696759e-01 4.552424527326608406e-01
-8.098721920466191160e-02 -8.403314693930996615e-02 4.430316447356867915e-01
-6.494370628011128521e-02 -1.182297704066236493e-01 5.244567194482344652e-01
-1.028175085151614154e-01 -8.936667307777861058e-02 4.532236961370922357e-01
-8.035271708496767584e-02 -1.084868667695570998e-01 4.608436892792321937e-01
-5.538713022054157775e-02 -1.204816526268545629e-01 4.996390065942415970e-01
-7.218027628841677812e-02 -1.225422024722819803e-01 5.029784579769518427e-01
-2.735473986813754393e-02 -1.102786690035323924e-01 4.731268603273310891e-01
-4.751600653231670413e-02 -8.733473761177358574e-02 4.496626335209261693e-01
-1.196436605653980051e-01 -1.134147117362359486e-01 4.782298227268242385e-01
-8.952623416044792892e-02 -1.076627823997350769e-01 4.576261606087214107e-01
-1.067430791779509364e-01 -1.137604315452558079e-01 5.054279007633963872e-01
-1.986203650798758907e-02 -1.189159413542059535e-01 5.514514964262978713e-01
-8.937665115608109390e-02 -7.137960500822050636e-02 4.462548033507324763e-01
-8.021860258341673156e-02 -1.205048104312190782e-01 4.866333822332714054e-01
-3.196422362806488476e-02 -8.053726293733545760e-02 4.464039937540666414e-01
-8.835865780030482952e-02 -1.219047266646257482e-01 5.087019796239689029e-01
-6.571685633971985352e-02 -1.220965727920802629e-01 5.060916839362596953e-01
-3.456307166753398025e-02 -1.152911947822370803e-01 4.830109484443741441e-01
-9.065793259836321671e-02 -1.229846520260362425e-01 5.012016126887904877e-01
-9.140316971472553509e-02 -1.232759106962853790e-01 4.986459535507940521e-01
-6.608208314958595453e-02 -1.043172100000447078e-01 4.600571062627272778e-01
-8.706554098932696439e-02 -1.117800027102917731e-01 4.616038003594923889e-01
-1.046047056992350024e-02 -1.077669221650466164e-01 5.648566414845612726e-01
-1.060075282251056981e-02 -1.218696026453923997e-01 4.881554951591041691e-01
-2.922372661167050439e-02 -1.237152273105330269e-01 5.166855827274753343e-01
-4.212007311483420557e-02 -1.217814848832616814e-01 5.271380726120945548e-01
-4.189210991488023089e-02 -1.195808291281003632e-01 4.946424197950437529e-01
-5.163595887788621254e-03 -1.212619957233077861e-01 5.421393584450340253e-01
-1.102470122440675632e-01 -1.179712632408813772e-01 5.007000720931560345e-01
-1.190404482181031121e-01 -1.141607437194280122e-01 4.787651847194641097e-01
-7.668254715468060534e-02 -1.191589431746441774e-01 5.197728848000483515e-01
-4.850456355249026241e-02 -6.008073897829960958e-02 4.397471554590344223e-01
-6.955842503929385301e-02 -1.148383633693276923e-01 4.755648085978393391e-01
-3.501984404416861457e-02 -1.222119800340042972e-01 5.068537246617158543e-01
-1.263254535229559397e-02 -1.047709377274916864e-01 5.659476854816516411e-01
-7.374925951167835003e-02 -8.761126179835374006e-02 4.454707512485026610e-01
-5.595941442570770419e-02 -7.314998410583509192e-02 4.425022829855973505e-01
-3.526591051500380103e-02 -8.392851460527178675e-02 4.489025111748688457e-01
-1.095979631821311084e-01 -9.765848253256879941e-02 4.564184874613887999e-01
-7.847484155390276050e-02 -6.759474727305953001e-02 4.375275473710328322e-01
-1.761022924964835909e-02 -1.093397539212625780e-01 4.674373930251058407e-01
-2.631445304030815766e-02 -1.210885958922045536e-01 4.947417365804083200e-01
-1.005121122336179174e-01 -1.191718876991410270e-01 5.072820992421542829e-01
-9.704557296432141794e-03 -1.182188183775034901e-01 5.538182959378290526e-01
-2.031350819868261645e-02 -1.193248446323633555e-01 4.858985707712363822e-01
-7.109676296743867863e-02 -5.806604038193665523e-02 4.382430208096856905e-01
-7.139795519160577197e-02 -5.458774745509783338e-02 4.396570243639175146e-01
-6.102440926320163578e-02 -1.012387828653398686e-01 4.577287739359390262e-01
-1.063039322753817073e-01 -9.857973771465118606e-02 4.545354285665767491e-01
-6.038370500312087441e-02 -1.188388347495044350e-01 5.256002928516537720e-01
-3.238211535532836000e-02 -9.837511595744487247e-02 4.598665309218383790e-01
-1.045425811166315194e-02 -1.241866196120734872e-01 5.381016868376440332e-01
-4.596943183702434377e-02 -5.990091394521606522e-02 4.398591106003749140e-01
-7.387943949415176625e-02 -1.210982263422108740e-01 4.910805376874652350e-01
-3.136799397788301441e-02 -8.080328120372438916e-02 4.464707715262113408e-01
-9.136213040594549917e-02 -1.215823276893742144e-01 5.085562135291873398e-01
-6.668724584160370950e-02 -1.021799751625180191e-01 4.577064350644031721e-01
-7.658017909122447064e-02 -1.229099344429888940e-01 5.030511484133298739e-01
-1.185699793967090604e-01 -1.148348749982576744e-01 4.811125849189137882e-01
-1.056365806582325040e-01 -1.216242893564042776e-01 4.993803941406360636e-01
-6.607148765859648110e-02 -6.343381575020505536e-02 4.379310880273439843e-01
-1.206708844216844018e-01 -1.117615351237273014e-01 4.869151834221460140e-01
-1.190536661929046947e-01 -1.174487114372432944e-01 4.886541033119979893e-01
-1.668262597554237212e-02 -1.256077540209420695e-01 5.319678661879125858e-01
-8.358046074577797635e-02 -6.969195119387776305e-02 4.400480896138546094e-01
-4.738611125061925611e-02 -1.183954039515156681e-01 4.906298506893755906e-01
-2.425582709133040568e-02 -1.240784911641041877e-01 5.058675783315724761e-01
-5.874102497117205876e-03 -1.209550527516459473e-01 5.448672437415240655e-01
-3.207491050839751667e-02 -9.569780596386816274e-02 4.576279105941700176e-01
-9.139766584690416085e-02 -1.233315050234043281e-01 4.895103693201516282e-01
-3.410113667988161346e-02 -1.139602832959028395e-01 4.802677514689826510e-01
-1.011279800690877695e-01 -1.175289274447831461e-01 4.668092631232261258e-01
-6.605882782788502494e-02 -1.009447542575964002e-01 4.566398464685494929e-01
-9.065735454355340617e-02 -1.042475142037909142e-01 4.549646617655583869e-01
-6.027860949940226643e-02 -1.202552707162595352e-01 4.962580894663971565e-01
-5.712032646186820939e-02 -1.212043032084243882e-01 5.032747137433862816e-01
-5.540396092528301897e-02 -9.355435039250126206e-02 4.521116049865956388e-01
-7.488608712571342974e-02 -1.174799646063501152e-01 4.779513961336247507e-01
-3.378873761127744457e-02 -1.222564177452626633e-01 5.321058223061270187e-01
-4.788878775365178891e-02 -1.208698710465598292e-01 5.247811844701341100e-01
-9.248428283450101095e-02 -7.824981451981513625e-02 4.478531671674277903e-01
-7.363684911370689534e-02 -1.207447235707425903e-01 4.893823358815290181e-01
-5.046768841941092626e-02 -1.160351687272821314e-01 5.340474259135078450e-01
-6.584293050119793822e-02 -9.021817210411088583e-02 4.479918448392254393e-01
-7.598869032742577856e-02 -1.116837777112053565e-01 4.664915633862943833e-01
-5.332000824825042229e-02 -1.126640404040235716e-01 5.347084989845724001e-01
-7.027412596911616904e-02 -1.144739152928333087e-01 4.743473950561233887e-01
-3.963850501519464858e-02 -9.091998325178854423e-02 4.534061195096323327e-01
-1.413639925843363995e-02 -1.259212823021923777e-01 5.044610963602762510e-01
-4.193102241204363367e-02 -1.127711632403379655e-01 4.781569097134880097e-01
-1.159375692689142423e-01 -1.076313934494663727e-01 4.658722372973631565e-01
-1.089683340495355979e-01 -1.122796155491667253e-01 4.640095915749304356e-01
-1.130723212175276243e-01 -1.171893873717987367e-01 4.991739739159724576e-01
-1.268344976256738886e-02 -1.168898957482345791e-01 4.776455276520779059e-01
-8.278748997015873690e-02 -1.151351677812609275e-01 4.675596115425177945e-01
-1.190051446004057600e-01 -1.050170341891474152e-01 4.716603743594256493e-01
-8.489277428331887254e-02 -1.161572510137137276e-01 4.662894788760140741e-01
-3.010904116644780998e-02 -1.227422843429125249e-01 5.046496518528891251e-01
-5.151701852468149045e-02 -1.076069817074579854e-01 5.377232485865170997e-01
-6.777031436777353202e-02 -1.222798625604832740e-01 5.082221645800260035e-01
-3.592709347177095586e-02 -9.989036103594514659e-02 4.614949050190531032e-01
-8.540016874708132588e-02 -1.208778277310400134e-01 4.810045499363309607e-01
-2.985024339582644307e-02 -1.233989329937229401e-01 5.108273146285166044e-01
-1.030691625769280806e-01 -1.158464756038944804e-01 4.656951382339485357e-01
-1.189958546473473128e-01 -1.061396008460190610e-01 4.707133288343925970e-01
-7.897642720736225419e-02 -1.039604845732316901e-01 4.567597856038967397e-01
-6.051731187865346667e-02 -6.207542142744668784e-02 4.388773454116207673e-01
-3.691601018801032863e-02 -1.017996648325735498e-01 4.631527076306155011e-01
-3.166555241468918536e-02 -1.189531612621322204e-01 4.909132040133646346e-01
-4.743669378623829869e-02 -7.827511942540005263e-02 4.454707197612002290e-01
-1.839318456638803709e-02 -1.086586587024924166e-01 5.629652991893462355e-01
-2.808582914722309101e-02 -1.238399175919100287e-01 5.140779103292966168e-01
-1.010148075889849839e-01 -1.140335790261899351e-01 5.105577384930880536e-01
-8.928246703754139091e-02 -1.219467438287789446e-01 4.725203351413022057e-01
-1.096659652040825328e-02 -1.110173214256149343e-01 5.624801060616729798e-01
-1.248733409000755967e-02 -1.268373875116118876e-01 5.263072307316932763e-01
-2.350758383719587369e-02 -1.249322478705554434e-01 5.200041712235130564e-01
-6.751720259815337244e-02 -1.147298998431206252e-01 5.275995763829036678e-01
-3.546402896967149054e-02 -8.129292384958829165e-02 4.473975792417111963e-01
-6.743471057145693226e-02 -7.469740104883482168e-02 4.402310962119718729e-01
-8.288620645446746760e-02 -7.850130472885119559e-02 4.408382427991382468e-01
-4.781454748167706520e-02 -6.196145854505678841e-02 4.401499148510149007e-01
-1.018794207570297983e-01 -1.145389198207107662e-01 4.640044908153811432e-01
-3.848807305922171372e-03 -1.284414744529116803e-01 5.270664932670396929e-01
-6.169432782710346230e-02 -1.203828507857964830e-01 5.214469940938760706e-01
-9.479343218545928373e-02 -1.089153943161106780e-01 4.576856868912194676e-01
-4.187260585459093298e-02 -1.221065502843037692e-01 5.225184673160053750e-01
-1.222531220516719259e-02 -1.251403096527989312e-01 4.988500153840507712e-01
-5.234799696574753136e-02 -1.181237294190325832e-01 5.305076659059085875e-01
-1.014418702997148536e-01 -9.969225547331177217e-02 4.528605262385526076e-01
-1.909956423579856760e-02 -1.198553372220927254e-01 5.498378201002092069e-01
-4.107120451820300139e-02 -1.095414753907785199e-01 4.726911074354599451e-01
-3.284158684182707233e-02 -1.156025545430431206e-01 4.836014372282266827e-01
-5.735609879326659943e-02 -1.026205787318312523e-01 4.598869029097248373e-01
-6.885128197325604549e-02 -1.217792985950686829e-01 4.981936820446820069e-01
-3.678231557861215417e-02 -1.133149627532819004e-01 5.428748084479089187e-01
-9.389051723360018753e-02 -9.045869911579032530e-02 4.473100605463669610e-01
-5.958000806816747541e-02 -1.213526598335194218e-01 5.156430651117953623e-01
-4.885082728748187803e-02 -8.152729822639688539e-02 4.466232082459605235e-01
-1.551865472770001808e-02 -1.268081292857289044e-01 5.212430499844148413e-01
-9.666384557951976375e-02 -1.116547027319787083e-01 4.595801486516007395e-01
-8.109486268825610855e-02 -1.187675477022331755e-01 4.749964996202793444e-01
-5.174066480772857718e-02 -6.644771877583641184e-02 4.410617258617842151e-01
-2.218099025237627378e-02 -1.184869791916410009e-01 4.849567392468954741e-01
-7.990253811935586759e-02 -1.156808468368003967e-01 4.708034285743742942e-01
-8.176135266762388221e-02 -1.072937059725276865e-01 4.590760469862614213e-01
-5.723369746437802219e-02 -8.950294680315584728e-02 4.491557331861791291e-01
-4.866135709754969285e-02 -1.085679733860797774e-01 4.704385157863517630e-01
-1.854722312893310882e-02 -1.259766238138005090e-01 5.148192361668701977e-01
-9.388828377328803376e-02 -9.303722532940641998e-02 4.484774988184401234e-01
-2.290218164663682457e-02 -1.234783425427532777e-01 5.371424407448711635e-01
-7.370723472425282086e-02 -6.060303778269764130e-02 4.374748028596462390e-01
-9.188736940865636915e-02 -9.786037241794771913e-02 4.506885035286073427e-01
-4.515847350094042562e-02 -7.373812247279393217e-02 4.439979494079893674e-01
-9.574332857328553270e-02 -1.066935749047204646e-01 4.563876140750814381e-01
-8.741309680107157976e-02 -1.192965784260579254e-01 5.145809539623649176e-01
-2.312180869416341836e-02 -1.204228734945978901e-01 5.465272910242104931e-01
-7.786995857629977480e-02 -1.225273793036036618e-01 5.075800974686559552e-01
-7.014132288638701140e-02 -6.110581999644745799e-02 4.373162314180376042e-01
-9.501035362189631794e-02 -1.221332645957741991e-01 5.056048914925512783e-01
-5.241409862311644657e-02 -9.578452294364635244e-02 4.545848729076764627e-01
-5.724959092334151040e-02 -1.060462466392631253e-01 4.644000983470594202e-01
-6.532526644997294074e-02 -1.213147914912399428e-01 5.166952141098476448e-01
-1.017958224777553988e-01 -1.154274037813082798e-01 5.092901391825142010e-01
-1.026127101981736539e-02 -1.206004308736600972e-01 4.852200858464066902e-01
-3.008183341493397139e-02 -1.235200092377204684e-01 5.268439219308068688e-01
-4.716647512265172842e-02 -1.204598322876054561e-01 5.000964113460685256e-01
-7.432594961056333827e-02 -7.954435077364974127e-02 4.405596327103482035e-01
-8.605123198482243774e-02 -7.379876220443633283e-02 4.415099431193431068e-01
-8.196840375080284569e-02 -1.202096072685722716e-01 4.813605377748426117e-01
-6.667937215766189807e-02 -1.134327899676787488e-01 4.741157123039606014e-01
-3.941022541031844600e-02 -8.008687691146644527e-02 4.466798385353396017e-01
-8.115775311383325794e-03 -1.237118963672825811e-01 5.385030731682300953e-01
-5.134075372855567698e-02 -8.041448284160485072e-02 4.457589142760864931e-01
-6.832672564073902222e-02 -1.217533802203203813e-01 4.985347637967226797e-01
-5.822593493325917136e-02 -7.070360904034092564e-02 4.413971507525430438e-01
-5.690623439089267238e-02 -1.214759718801811522e-01 5.071835206459341938e-01
-7.579225266350103629e-02 -1.222171686766897192e-01 5.104854747701284001e-01
-1.025810073576466364e-01 -1.208908965549021775e-01 5.024109299970351827e-01
-4.093238584455648893e-02 -1.102478951385083283e-01 4.738916295030419223e-01
-1.018216662223227348e-01 -1.228117863214514410e-01 4.769871420364019121e-01
-1.121737696351440966e-01 -1.065410809646753915e-01 4.605228789075681006e-01
-2.351537330327494596e-02 -1.246517171539687635e-01 5.292336989139881931e-01
-9.925135323660506936e-02 -1.236012174295960109e-01 4.724090624666955618e-01
-6.617168354143591717e-03 -1.285637645461225331e-01 5.194921576541862152e-01
-1.062586339543711983e-02 -1.264348501312106132e-01 5.031529713938335258e-01
-3.550049331823004056e-02 -1.016968744395988500e-01 4.632741260024385022e-01
-1.156319249411986161e-01 -1.076010509629774098e-01 4.653570430828786186e-01
-2.246830985764080441e-02 -1.186583721105112232e-01 5.507317995211574724e-01
-1.155082884130772813e-01 -1.197273313472059092e-01 4.925632037903561189e-01
-5.683285792732981068e-02 -1.207775509968306155e-01 5.008567230375089441e-01
-6.492144701356813985e-02 -7.724417851473007468e-02 4.415758828079946463e-01
-1.061191370870912393e-01 -1.168987481133820644e-01 5.038268830837002721e-01
-6.577226305144937002e-02 -1.174695731634851220e-01 4.835714051458850360e-01
-2.331177865329242972e-03 -1.269997498770228106e-01 5.317871874245834185e-01
