-7.553786887117854010e-02 -8.782154217541289498e-02 4.448268660979711187e-01
-1.010254117430707116e-01 -1.236024493581058814e-01 4.756108867052795675e-01
-3.928271828440212804e-02 -1.218748555418652374e-01 5.302984274644239049e-01
-1.045708733410701113e-01 -1.037419426714586701e-01 4.547842955668829346e-01
-2.463291759026774164e-02 -1.247917758179971220e-01 5.197683546984958047e-01
-7.790360845357637010e-02 -1.227753705043957144e-01 4.932296546538328386e-01
-5.327778575251139459e-02 -5.776839995347941153e-02 4.388560649950159487e-01
-3.580556976992318313e-02 -1.220498424265896997e-01 5.034771792037500138e-01
-1.592861540267598991e-02 -1.236355074514509933e-01 4.956519546175172097e-01
-5.571434494443820717e-02 -7.411304032605181558e-02 4.425423179563308107e-01
-8.645967553740362133e-02 -1.231057844828167269e-01 4.880521291377336035e-01
-5.997955839254756616e-02 -1.205820168776926410e-01 4.950982470614582742e-01
-1.100694109500455209e-01 -1.210544781287347521e-01 4.989173258346768502e-01
-6.506617593571388525e-02 -1.157275862992800941e-01 5.274645499003255411e-01
-3.573834011005976030e-02 -1.227746074902777151e-01 5.100566356820844804e-01
-1.048828235511598851e-02 -1.240150440195918191e-01 4.936561182292011352e-01
-7.835235582693374223e-02 -1.220388944269084480e-01 5.139451912338430795e-01
-2.068921795391463238e-03 -1.290872455060170787e-01 5.130479189029955034e-01
-8.243389618578535194e-02 -8.642003378551732506e-02 4.437085380670456325e-01
-1.118756472356985388e-01 -1.179521330148244479e-01 4.997140518032885947e-01
-1.117292237031728558e-02 -9.945332926318081745e-02 5.682995760899719473e-01
-1.007295177744963327e-01 -1.248790451292030451e-01 4.904989979556805824e-01
-2.273797436632084279e-02 -1.002231123057207712e-01 4.585502781113948711e-01
-5.355208098683747475e-02 -1.214428210594159230e-01 5.213816242466770001e-01
-2.275783129349627509e-02 -1.043128302589120260e-01 4.628551289022130866e-01
-1.629908625659277216e-02 -1.264103452286749474e-01 5.121644284978799089e-01
-8.449540099766791879e-02 -1.204722035086722987e-01 4.720404242595967470e-01
-7.857927167273565106e-02 -1.181973297944887147e-01 5.203280191941707100e-01
-2.167433796057081224e-02 -9.754844633900731921e-02 5.607242997728790757e-01
-4.316344822389198838e-02 -7.483164836297170885e-02 4.442415216367607278e-01
-1.075805064427550750e-01 -1.242644883878618045e-01 4.856258210019182564e-01
-9.119220710286302101e-02 -7.805180193255886745e-02 4.466063079535108615e-01
-2.311091568764736537e-02 -1.249268274825373892e-01 5.123933149475285997e-01
-9.165850961982167922e-02 -1.197632774112982468e-01 4.623491831874026459e-01
-5.505116263480340499e-02 -6.649948979830042073e-02 4.403613543825049548e-01
-2.733421241072751112e-02 -1.050224497971462279e-01 4.652914484329925826e-01
-7.309545265927600011e-02 -1.200720484523820769e-01 5.193446546039123257e-01
-3.057172189273379970e-02 -1.230733981730865872e-01 5.066960762099278481e-01
-9.636918007523738103e-03 -1.217770456224344516e-01 4.874138004204789376e-01
-9.996468015728986189e-02 -1.240516352510948744e-01 4.981373597316595125e-01
-1.022363132354408982e-01 -1.233892830184700473e-01 4.762763860219768608e-01
-5.915396248263604662e-02 -1.125916373609272270e-01 4.731267632373991061e-01
-8.164080448949444235e-02 -1.004009726704144234e-01 4.526056456692357233e-01
-1.846684104663479445e-02 -1.190151029637278590e-01 4.838661709310728143e-01
-1.823463239644324344e-02 -1.127647896331156613e-01 4.727315766612295578e-01
-6.711563023533217986e-02 -9.557822161152249030e-02 4.511204332241449677e-01
-1.111404372080571634e-01 -1.233002646596535190e-01 4.836518025637275286e-01
-1.806218152929953830e-02 -1.235624656964478124e-01 4.969054516097481389e-01
-5.656291217986143122e-02 -1.211044426567274290e-01 5.215819911292891575e-01
-6.061914600974990797e-02 -8.722854770675694813e-02 4.466012218035378956e-01
-4.911012640676337693e-02 -1.221460070095504169e-01 5.163967834998341999e-01
-1.205089523029968454e-02 -1.162144435586684038e-01 4.756293669701776028e-01
-4.645672455766722969e-02 -1.210439786587111793e-01 5.272230843156822111e-01
-1.076900955969585100e-01 -1.206156706190273653e-01 4.725007401544978336e-01
-2.381195754606291876e-02 -9.881964302911513953e-02 4.576676260719016454e-01
-3.956700419778459710e-02 -1.224560746849336773e-01 5.091505897519236212e-01
-1.185698358561948634e-01 -1.114369811643938363e-01 4.709635927186413551e-01
-6.128203330203190607e-02 -1.179474393164418183e-01 5.268823689185572201e-01
-2.373208623805579676e-02 -1.119679275670898977e-01 4.744448667775595929e-01
-7.057498525460119410e-02 -6.539048268496946981e-02 4.370316940590286414e-01
-5.054248449091430784e-02 -9.976374494853738895e-02 4.576989306830112625e-01
-1.709741286614102542e-03 -1.275388110112431472e-01 5.305182680120311689e-01
-4.292851062152706204e-02 -1.223928542711720246e-01 5.140740391113057806e-01
-1.037535839878876709e-02 -1.178054489043173780e-01 4.787875344048602710e-01
-3.703977499281488339e-02 -8.805303987208817906e-02 4.510285050233777682e-01
-6.244372725407915797e-02 -1.162374189919766765e-01 5.280351899758657375e-01
-6.610310301444195791e-02 -1.074751367452154022e-01 4.627197606064945568e-01
-4.718119629417647648e-02 -1.223284401259630422e-01 5.145490181546357178e-01
-1.615019029547715840e-02 -1.093424505629913834e-01 5.633350052002235042e-01
-1.477141984214429445e-02 -1.192600755275987495e-01 5.522743648121889448e-01
-2.724421292725797555e-02 -9.780114896905975352e-02 4.578977758406088117e-01
-1.010930974986641237e-02 -1.097029475729521947e-01 5.636805144741791063e-01
-2.161267800841122633e-02 -1.237476567476920308e-01 5.005673824375890257e-01
-6.761030510339276212e-02 -1.200474117487389802e-01 4.879949604430811050e-01
-1.180664955253880599e-01 -1.184074024867884933e-01 4.907670879338717485e-01
-5.014080312181405652e-02 -5.842246078602687798e-02 4.392219241132351848e-01
-8.812712519390077104e-02 -1.093356316626725999e-01 4.580544590390907556e-01
-5.265611552518362215e-02 -1.072558187754098086e-01 4.663940661311051783e-01
-2.839800538832701685e-02 -1.131354588813998918e-01 5.503936733910651524e-01
-1.040303240134176320e-02 -1.268776835076612930e-01 5.280337356093757206e-01
-9.236282243750368326e-02 -8.407555239927083646e-02 4.459830396944724495e-01
-5.251256318008461904e-02 -1.167629012271762107e-01 4.840913325702137504e-01
-2.975415008997882305e-02 -9.296963075679753885e-02 4.546452440511927207e-01
-5.061764287104981302e-02 -1.180051589359741304e-01 4.874612642695585474e-01
-5.155944448126170004e-02 -6.575254223847715185e-02 4.406590719556467972e-01
-7.110178937563216284e-02 -8.668373470413097415e-02 4.444705600082132779e-01
-4.975916137159488994e-02 -1.117592258944315464e-01 5.369445270466037812e-01
-2.404007672199122772e-02 -9.559583167401593251e-02 4.552028358359991311e-01
-8.457324998875645483e-02 -1.219203878129223734e-01 5.113157075337080304e-01
-5.260479337523723403e-02 -9.864762724919393100e-02 4.562776081506314529e-01
-5.198926803191054880e-02 -1.117894002487562211e-01 5.358472533335660870e-01
-7.506142844549988646e-02 -1.115711096793954998e-01 4.651190623533335011e-01
-3.799676667344299708e-02 -1.089412748651376606e-01 5.426762731913862270e-01
-4.917748285951108189e-02 -9.951169720309971378e-02 4.579006529364484934e-01
-7.887002022823910719e-02 -1.188683351257468906e-01 4.751698211962995799e-01
-9.613155621146708685e-03 -9.811598431277544774e-02 5.691191095454497528e-01
-5.241635839958194709e-02 -5.983682707975043757e-02 4.392968822442386845e-01
-2.286823277104666624e-02 -1.104667898292497757e-01 5.576384026376164371e-01
-1.133667694613032934e-01 -1.200678568746314928e-01 4.747183130866916012e-01
-1.071262136557325079e-01 -1.075335224618547136e-01 4.579097214362467527e-01
-4.162257106540388774e-02 -1.218948229288018131e-01 5.290978673031075941e-01
-5.450854474745641526e-02 -6.157888163022668532e-02 4.393477088383845319e-01
-2.523307059002649622e-02 -1.238826780056297289e-01 5.322231827962745632e-01
-7.415349183430915148e-02 -7.315924834796669329e-02 4.383656291650048220e-01
-7.002209373273175774e-02 -8.212566019947649398e-02 4.417497814515867760e-01
-8.786062663147883867e-02 -1.184347388276206225e-01 4.627575816276147669e-01
-4.165396777279984503e-02 -1.211178069948902480e-01 5.334614913208909348e-01
-8.780426960311940587e-02 -1.217339404338977221e-01 4.709185436541938330e-01
-2.098528249412942581e-02 -1.123140939383004550e-01 4.735093286397162315e-01
-2.736142709130740674e-02 -1.241152942474764848e-01 5.140897809722438927e-01
-9.525755286318701720e-02 -1.201866069903950313e-01 5.107924054804764413e-01
-1.021474305902001917e-01 -1.171180457929677649e-01 5.071949958368557887e-01
-7.527874272750363638e-02 -1.112674746294330247e-01 4.645253591511698810e-01
-2.094057542029306718e-02 -1.243285105462429707e-01 5.027607397586065785e-01
-7.676258180579441370e-02 -8.485554279164071734e-02 4.427159261933766854e-01
-7.510057555476182256e-02 -1.102818743551875480e-01 4.633738433985592486e-01
-5.347793576168525208e-03 -9.569337631238002129e-02 5.706929193257446187e-01
-5.627050770111618333e-02 -1.071048661111373146e-01 4.651658146720603071e-01
-9.783823063719576663e-02 -1.013750065704975972e-01 4.523348610242091672e-01
-1.974502159224118814e-02 -1.077561150388574307e-01 4.660398553538834809e-01
-1.089496296777246916e-02 -1.242551555155539111e-01 5.382882895254532674e-01
-1.405381369492978913e-02 -1.197749897209013509e-01 5.515059060723810358e-01
-9.373474706644027710e-03 -1.280390024170245944e-01 5.228002992595942588e-01
-7.571754836917092557e-02 -6.498531770574010602e-02 4.366384228376030685e-01
-8.616259252166139082e-02 -7.117402076097588404e-02 4.423890604427702655e-01
-6.570677195870408549e-02 -5.890115211959454089e-02 4.373655142577800858e-01
-2.173035964415123353e-02 -1.254329633068723138e-01 5.218722373168357409e-01
-6.213020963866211499e-02 -1.207641789717903563e-01 5.215055842302549483e-01
-8.174992976359483909e-02 -1.210150176599031208e-01 4.826662545067776922e-01
-9.071007868611578873e-02 -1.110711801006274285e-01 4.584923406352788833e-01
-3.959414108027499435e-02 -1.224811315554300423e-01 5.094018845904686454e-01
-1.578860347017481749e-02 -1.100642269881431240e-01 4.676868144740415900e-01
-8.487011882273656771e-02 -8.489547233966192319e-02 4.435047476266296695e-01
-2.618714747799110593e-02 -1.224578428821007509e-01 5.387199681712615540e-01
-8.591135545462037781e-02 -8.160977510274677882e-02 4.427865719495778785e-01
-7.693590236116415459e-02 -1.229999534054357635e-01 4.950746398211562926e-01
-8.087782995585447721e-02 -1.037809573006958086e-01 4.551843534704377303e-01
-7.698012447075228137e-02 -1.198322991631013273e-01 4.793458190982733402e-01
-8.839000322409688859e-02 -8.009390986646860999e-02 4.434402491421269854e-01
-1.512161668554282828e-02 -1.150567419697591798e-01 5.586655303760306168e-01
-1.019120242963659634e-01 -1.152250282173500340e-01 5.092863501479428789e-01
-2.830352273741649355e-02 -1.199767631978643501e-01 4.916220290546760019e-01
-6.932868968635359785e-02 -1.226596476775817651e-01 4.991278344643249043e-01
-1.194023834865678424e-01 -1.168033407801109536e-01 4.865253015012454552e-01
-5.022716365874850541e-02 -7.118525036751778556e-02 4.424411885835010660e-01
-5.590004318938768951e-02 -9.845361760756754510e-02 4.554095841388624555e-01
-5.957610604481804184e-02 -7.324131894037985702e-02 4.414068926794629255e-01
-4.669556784578389463e-02 -1.203895739460858205e-01 4.977016828066101461e-01
-2.330793917200043794e-02 -1.233741344915198768e-01 5.005172153598340667e-01
-1.136435733868226272e-01 -1.077197121655684847e-01 4.623889559722792475e-01
-3.696510822936920765e-02 -1.052257545670415989e-01 4.663393498935158865e-01
-3.967577134567477903e-02 -7.638057604174301740e-02 4.448451285896181662e-01
-9.316079099386521956e-02 -7.936475933184951315e-02 4.479980678875127298e-01
-8.185964511818334677e-02 -1.130010274575436874e-01 5.216959464664043811e-01
-5.598969375791241349e-02 -9.641800014888622650e-02 4.536741117387476652e-01
-4.101240260315748565e-02 -1.213298699860276969e-01 5.327399521783613423e-01
-7.095210021876019457e-02 -9.604942113527105418e-02 4.510106101166597159e-01
-2.547746719523052983e-02 -1.242390145040655619e-01 5.294723921127706401e-01
-2.634074037242740973e-02 -1.212245467047663866e-01 4.945828666351940739e-01
-6.056110662092437785e-02 -1.222130315951242691e-01 5.054311180722144137e-01
-6.556845732880391131e-02 -1.201080761681493081e-01 4.892632989341925698e-01
-8.604076616611100459e-02 -1.012902878625754760e-01 4.525540856402203715e-01
-3.523510377186060694e-02 -1.229660615257628098e-01 5.255106072718149779e-01
-9.080427440294115693e-02 -1.096508581410139127e-01 4.576670344066006701e-01
-1.044131491490795094e-01 -1.131499438915335026e-01 4.620895992119279927e-01
-1.043127881996643025e-01 -1.164602027877234547e-01 5.052259099980708212e-01
-1.236841851839200895e-02 -1.275355112153426229e-01 5.216440160781500301e-01
-2.287398556051980364e-02 -1.127049960269158879e-01 4.751745910268281858e-01
-8.023745732392513486e-03 -9.718157888518388909e-02 5.696994940253616857e-01
-5.511034122439667504e-02 -9.833126601057609606e-02 4.554213635685998018e-01
-3.912779250631583799e-02 -8.190057268728230533e-02 4.473119325899443388e-01
-1.053167124174918534e-01 -9.991862301787017564e-02 4.535612528291024792e-01
-6.455978906518318461e-02 -1.148278621055144333e-01 4.761154933625154628e-01
-5.372557848618873116e-03 -1.207417217055247183e-01 5.458864724249568035e-01
-4.508829570385351759e-02 -1.126254699300154594e-01 5.382743423077299694e-01
-6.357305309795106829e-02 -1.161093889549816294e-01 5.274628037705364481e-01
-6.724621763319084400e-02 -9.742072523102203452e-02 4.525300440171797223e-01
-1.019777340613516395e-02 -1.202710051401529451e-01 4.841950360514217788e-01
-2.148046489918938387e-02 -1.170270535072765045e-01 4.815030281714157701e-01
-5.901097532908448906e-02 -1.222165743347963796e-01 5.119618236576015669e-01
-6.057931255344183030e-02 -1.195704249462891527e-01 4.907866102632355010e-01
-7.699051318447985848e-02 -9.416612940955014499e-02 4.488421015826083438e-01
-1.530391273515941362e-02 -1.111569498264824013e-01 5.621516071756116339e-01
-5.532649461241276323e-02 -1.125590703870306547e-01 4.745035285320741703e-01
-9.042975872907506318e-02 -1.176510099759971589e-01 4.613519016805769923e-01
-2.721027526634825153e-02 -9.118558866799617024e-02 4.526708426888180203e-01
-8.957648224515109281e-02 -8.128982738604788316e-02 4.444379534757734729e-01
-6.503000764672514644e-02 -1.140626738544836816e-01 4.743965369600204873e-01
-6.950516173158112487e-02 -6.201624222239352641e-02 4.371316732436320573e-01
-4.275495853408185776e-02 -1.217169996369502905e-01 5.046668178949642591e-01
-5.472609329071659312e-02 -1.220171148164681529e-01 5.090478118640724414e-01
-2.911159233904248717e-02 -1.039264511142604097e-01 4.643419912694234375e-01
-3.049835179099277815e-02 -1.213112620428063448e-01 5.388203544182286198e-01
-6.603177986605669736e-02 -7.055764600629600702e-02 4.390015425702848972e-01
-1.084829227703631022e-01 -1.095544482916117196e-01 4.600130629539929128e-01
-2.657061141167295359e-02 -1.194421292265964718e-01 4.900156918472424183e-01
-3.454291448172931017e-02 -1.095266995860395137e-01 5.446149353302602858e-01
-2.189012143924728288e-02 -1.194300541382256747e-01 5.495352025323605449e-01
-5.103876408424001809e-02 -1.217411898934517983e-01 5.056301876088951097e-01
-4.707699570675875217e-02 -1.173283604107123040e-01 4.860376472516892976e-01
-1.401499208037728858e-02 -1.245077160413737422e-01 4.975722012176088116e-01
-6.256514540179694550e-02 -1.213570859506644395e-01 5.188091781175285799e-01
-8.734055845970077961e-03 -1.209857211817147588e-01 5.480572017895026793e-01
-3.780338569159145956e-02 -1.190531098379340180e-01 4.915569416471615716e-01
-6.213905727588204392e-02 -1.154021844376888206e-01 4.783183453519074257e-01
-6.446413006955457881e-02 -6.415757099291939658e-02 4.381011956657918094e-01
-7.634892230947777636e-02 -1.228665019479711490e-01 4.946898733257973912e-01
-5.903293389095475713e-02 -7.954790692028991528e-02 4.434605586234299790e-01
-6.110135876126931292e-02 -6.625900912028485912e-02 4.391255501142248274e-01
-4.847784470458184336e-02 -8.485290640439233090e-02 4.477406412080106590e-01
-1.003931386966919609e-01 -9.710177315471522907e-02 4.508225650729026923e-01
-8.130595194281915739e-02 -1.235666416944208590e-01 5.040139753294918812e-01
-8.300370273303471491e-02 -8.010371684962555583e-02 4.411593059135869299e-01
-7.203600403058618706e-02 -1.200889874721891432e-01 4.846605487894838915e-01
-2.131593203408348527e-02 -1.092273798084555381e-01 4.689179927453950847e-01
-1.046969368031877012e-01 -1.248355639756859731e-01 4.868035572485597817e-01
-6.879350496873024023e-02 -9.511602488172030134e-02 4.505600551345310678e-01
-9.832128937268320990e-02 -1.001149720963588896e-01 4.516473134360045605e-01
-4.346056770720926887e-02 -1.221402601287188555e-01 5.081435686598126944e-01
-3.906908393321050638e-02 -1.103445506666813902e-01 5.422353653992746381e-01
-9.256515826606534492e-02 -9.059579348844536140e-02 4.465000383942853146e-01
-5.409324432600208336e-03 -1.286004131544452589e-01 5.133982058220639688e-01
-1.169716317798028121e-01 -1.222141837718152962e-01 4.881872445724094733e-01
-9.708779770980414947e-02 -9.840955056220472563e-02 4.507232663195873679e-01
-2.340810287608127011e-02 -1.249871096463053277e-01 5.248809245027356019e-01
-7.663889070802860914e-02 -8.240777193257745048e-02 4.414064325959418111e-01
-1.118465402045320661e-01 -1.204742367180143270e-01 4.983600290534471178e-01
-6.511955596941758351e-02 -1.215910690515428216e-01 4.968054021484805682e-01
-4.565442094315461975e-03 -1.265345457597406020e-01 5.320952213175972334e-01
-8.852129678706018023e-02 -7.798367327316278741e-02 4.437215363189028206e-01
-6.855526677215170728e-02 -6.002128148034106131e-02 4.372768879601778846e-01
-2.264801745147187323e-02 -1.252105921480361761e-01 5.195653276290925771e-01
-4.794927891292585787e-02 -1.213146541311236892e-01 5.237262380633084247e-01
-3.861389300450249890e-02 -7.938475225590151119e-02 4.461251419834570409e-01
-3.173765702438827857e-02 -8.436201210884157475e-02 4.485077330753508562e-01
-4.556057857139448469e-02 -7.867704475058594216e-02 4.455317029787677630e-01
-9.338886125194399701e-02 -1.108544162391698479e-01 4.580253768655708768e-01
-8.836182448756951802e-02 -1.195639464303889649e-01 4.658102448363622416e-01
-1.190112132890419061e-01 -1.147995080458498601e-01 4.824257211723257388e-01
-7.858326714744753860e-02 -1.038968781814379877e-01 4.558030513579184873e-01
-7.673976001794095836e-02 -1.094961124958187537e-01 4.619982794510132385e-01
-9.265761431846890328e-02 -1.224589427671105429e-01 4.643813134899244521e-01
-4.536979711771060159e-02 -7.284249462357605953e-02 4.434068327207554838e-01
-7.707765592282676825e-02 -5.835657224259201831e-02 4.388794184527478603e-01
-5.270418039166507168e-02 -8.827337907284903140e-02 4.488159658274136765e-01
-8.041670482411765464e-02 -1.051639821589811508e-01 4.564536563112004397e-01
-2.439569970646709302e-02 -1.002090167469067011e-01 5.560108141081973043e-01
-3.490481546409796715e-02 -1.227103230094133274e-01 5.280417471237687232e-01
-7.271789389606897469e-02 -1.214834257380621452e-01 5.161699565415699409e-01
-1.681116218086746439e-02 -1.255941175794760833e-01 5.050492728596565062e-01
-8.023110609660831505e-02 -1.226322809924779295e-01 4.915743782857143751e-01
-2.068216674763369983e-02 -1.041247376575882982e-01 4.618262334077345987e-01
-4.460760637873750073e-02 -6.280936392807306978e-02 4.404600810493136676e-01
-1.134167976208566159e-01 -1.019029980841993505e-01 4.612065750883216908e-01
-4.664050795030031532e-02 -1.215816981169555167e-01 5.236050895455386378e-01
-5.641529309723728597e-02 -7.601423392024739267e-02 4.430281069340987754e-01
-4.952452387415089835e-02 -1.200880667049261108e-01 4.961835269946019422e-01
-7.321643952689349533e-02 -1.157806861723287423e-01 4.732688881814143267e-01
-6.501223343606972460e-02 -9.710839822558223200e-02 4.525618791444859235e-01
-9.409700232318853053e-02 -1.229137359068961516e-01 5.056499475734500537e-01
-7.995668631932109638e-02 -1.068807467908828718e-01 4.581078746310984773e-01
-4.162233965505637151e-02 -1.214771446590311443e-01 5.022879292994294476e-01
-1.081207746176028189e-01 -1.203743007257618569e-01 4.721146409383555897e-01
-1.045774516001461152e-01 -1.236046551969487567e-01 4.787393125993776866e-01
-1.100147149045782452e-01 -1.112194214359254196e-01 4.620768737929326631e-01
-8.488998546678575008e-02 -1.221548529908205172e-01 5.104763634909115222e-01
-1.631448687841605821e-02 -1.207876912264853470e-01 4.872385970621867513e-01
-1.274951951067076691e-02 -1.173852895836350885e-01 4.784742426372276536e-01
-6.420338656622209816e-02 -1.159084068957208363e-01 4.785502468543786914e-01
-3.324778551214849914e-02 -9.147040403917976181e-02 4.539276574085467919e-01
-6.557455540022652518e-02 -1.167298747260797076e-01 5.263807822837355266e-01
-6.952263081367583697e-02 -9.295277666466954247e-02 4.488243806641118994e-01
-9.993552453375255384e-02 -1.235725660903939233e-01 4.705731329752574910e-01
-5.720090320856949240e-02 -6.937537785704490922e-02 4.408800987341551791e-01
-3.774736819480023486e-02 -1.173873004750052157e-01 4.867520181994239858e-01
-7.841932102283745432e-02 -6.738203994093849847e-02 4.375310486139936117e-01
-7.389354115071957059e-03 -1.237227564457339252e-01 5.385889352561041843e-01
-5.517733321077615549e-02 -1.106236853448107765e-01 5.344412955043952307e-01
-8.280725489172374720e-02 -1.234513005908376426e-01 4.945950347586516305e-01
-3.257828497481991131e-02 -1.189244482941193698e-01 4.903304780064143831e-01
-4.148475148286091818e-02 -1.207269617682293350e-01 4.983194677763824187e-01
-1.169542106825601294e-03 -1.290971680186717707e-01 5.235809177525778679e-01
-5.119103512257278110e-02 -1.194493563436144073e-01 4.931963876871878205e-01
-8.532523260840263468e-02 -7.213308539813596820e-02 4.408644286274400748e-01
-4.599440376416169540e-02 -8.873529134168901822e-02 4.503416192183038458e-01
-2.551010865541019149e-02 -1.153137766942509412e-01 5.527632126884174379e-01
-1.068358234620409991e-01 -1.189252459105083343e-01 5.021847012766595952e-01
-9.102732567656907081e-02 -9.467060316994900526e-02 4.484648316532453549e-01
-2.391772571404581979e-02 -1.239887268394017084e-01 5.333568069338119333e-01
-3.912851610374429301e-02 -1.195871097662758731e-01 4.932247751735874819e-01
-4.337494290120462448e-02 -8.905354161574637051e-02 4.510455276560930149e-01
-7.573882939507642353e-02 -7.888761915455669294e-02 4.398660631279001643e-01
-6.905578904428230982e-03 -1.273574827779026530e-01 5.053316709241469917e-01
-9.270503547208537587e-02 -1.011472843273869687e-01 4.517943108840092870e-01
-9.007065175046974348e-02 -1.231243755772733484e-01 4.704314331057931065e-01
-1.161785671458353680e-01 -1.221049091486501037e-01 4.845236221438453672e-01
-2.294220942983333719e-02 -1.151496994613268043e-01 5.551180848971986048e-01
-7.182345087216790436e-02 -1.195617147553890841e-01 5.204252875522396016e-01
-8.000575365349399393e-02 -1.227934556269225930e-01 4.922851492371818627e-01
-6.585618679230263728e-02 -1.219858788354668960e-01 5.154127434110370443e-01
-8.215228733642371273e-02 -9.481571758971862884e-02 4.486803144821359668e-01
-5.113358448990654864e-02 -1.210929310576533136e-01 5.231152364992079917e-01
-1.124094449169566051e-01 -1.116881544894859773e-01 4.637274863499229460e-01
-7.255638854906870661e-02 -1.233048894306170845e-01 5.051518224162462323e-01
-1.339951735390420423e-02 -1.223044632097273487e-01 4.897648720148105039e-01
-7.060064069172525270e-02 -7.055127000458845388e-02 4.380343934561657937e-01
-1.185775567379173112e-01 -1.187311804423807765e-01 4.840785250744646384e-01
-4.592786093379870593e-02 -1.193525420055000646e-01 4.926644424045927839e-01
-2.370316252986222338e-02 -1.249871922739344138e-01 5.204180045334850790e-01
-2.644070719138305256e-02 -1.243670052104741686e-01 5.252721439846584905e-01
-8.617771074773356021e-02 -1.220555534435916606e-01 4.776970713746613306e-01
-2.619062926824118967e-02 -1.239714397543613539e-01 5.086523111541229047e-01
-1.150932814261326487e-01 -1.125255547926281297e-01 4.673944438608111374e-01
-4.328758388453021050e-02 -7.867791743523082360e-02 4.458077051291279846e-01
-4.863185400922340890e-02 -1.207501332605257771e-01 4.991827208253524772e-01
-1.726716409634758420e-02 -1.179181426223118168e-01 4.809761056935841772e-01
-3.786189525871156564e-02 -9.070500805336018102e-02 4.530324312257483776e-01
-1.626080280486567886e-02 -1.266273986440488997e-01 5.183978940896399878e-01
-8.098126090574524205e-02 -9.827645142790843169e-02 4.512413843914129252e-01
-2.762606025077550195e-02 -1.209932320849937126e-01 4.944628435247800935e-01
-5.392308864576989685e-02 -1.217710014846369454e-01 5.055462845943954342e-01
-3.777155402994454569e-02 -1.000023271898054233e-01 4.608435580338148818e-01
-5.570044031893325864e-02 -7.545430061065097616e-02 4.429628238309020194e-01
-7.570554597902204308e-02 -6.077547104391974736e-02 4.377692476777718666e-01
-2.081144716747696313e-02 -1.252821694619026816e-01 5.297944676202873682e-01
-1.078121165863613756e-02 -9.665062090961866470e-02 5.694916333728090585e-01
-3.270854771557518692e-02 -1.171406071482081895e-01 4.861551674445011573e-01
-1.179199419824451117e-01 -1.085494142088999220e-01 4.682519925192475951e-01
-7.952785918894880735e-02 -1.206007071676180320e-01 4.788298476886990729e-01
-6.484436653306937734e-03 -1.269273601952352060e-01 5.307806799122213315e-01
-7.697272346906788854e-02 -5.973299178247949009e-02 4.383129297892155996e-01
-2.918649402999920484e-02 -9.278563360408426108e-02 4.544038158663752380e-01
-9.048078390381125713e-02 -7.634627108480120106e-02 4.461253162411496498e-01
-1.026254790483577400e-01 -1.141594876111475809e-01 4.625493433268327292e-01
-1.153335053726717435e-01 -1.098977841388815019e-01 4.658932246016257994e-01
-2.015164162179670926e-02 -1.257231359218944911e-01 5.167505412956637789e-01
-7.662781467122634083e-02 -1.184181123184742251e-01 4.766334037011563662e-01
-3.290935193872089604e-02 -1.216180723034957362e-01 5.000199347865121879e-01
-9.738273286473510260e-02 -1.049984670342312409e-01 4.545898028871163121e-01
-1.007631788464519174e-01 -1.185170817315371883e-01 5.083342972894787648e-01
-1.096741941122294367e-01 -1.040010539041201776e-01 4.569348731492068327e-01
-4.522941753572153056e-02 -1.180653946756410194e-01 4.886651924896361354e-01
-9.182337129229763140e-02 -1.235938163524345906e-01 4.758419919328973346e-01
-8.108422910104393089e-02 -1.105784597186052209e-01 5.247405052048371710e-01
-2.147827463255123914e-02 -1.223081944664406312e-01 5.435877527646584273e-01
-4.357056265228932690e-02 -1.092105641978802361e-01 4.714570249609694730e-01
-3.857890546305754731e-02 -9.743972203913954522e-02 4.584381683100852145e-01
-4.292552397112619350e-02 -1.047775416090902384e-01 4.654114954935684723e-01
-3.067906734301177260e-02 -1.218644925860401657e-01 5.368114667865553358e-01
-1.951651964494544034e-02 -1.224696391637395826e-01 4.943372173935967617e-01
-7.431063227427024687e-02 -8.799095000310350190e-02 4.450432159953163769e-01
-4.739733922961265888e-02 -6.059435744773554455e-02 4.397569565844425266e-01
-2.904159936611827933e-02 -1.067507351101590757e-01 5.506059605329121087e-01
-2.839458747828728716e-02 -9.802892290973948264e-02 4.584833455962714632e-01
-6.152019374315258193e-02 -1.173557455412417433e-01 4.833756873869960446e-01
-1.200648476306456248e-02 -1.273452118203806382e-01 5.119075049345029882e-01
-4.157332702912232281e-02 -8.570804408447139922e-02 4.493363521467046429e-01
-2.681282677867055653e-02 -1.174346770241820603e-01 4.859007635087705390e-01
-4.359714506214941443e-02 -9.792339538593720916e-02 4.580119360006649765e-01
-3.099057900120787135e-02 -9.289611618269899562e-02 4.547543390264535135e-01
-1.142152685713485744e-01 -1.026723626640172610e-01 4.623364221979631150e-01
-5.920325494765881630e-02 -8.263750334321856572e-02 4.446873695344447652e-01
-6.291086982141341766e-02 -1.104256426859120677e-01 5.308226825002935190e-01
-6.658808910945852866e-02 -1.207732850802913788e-01 4.911258877960574254e-01
-1.005174833152938131e-02 -1.267129012494755402e-01 5.297111712076633117e-01
-3.901312237615230105e-02 -1.153011667971721721e-01 4.822175977428544980e-01
-4.598533657056853158e-02 -8.178251279236625759e-02 4.467477342912250515e-01
-7.338098710795493140e-02 -1.156525750314961742e-01 4.728896255525367187e-01
-3.978104233359425895e-02 -1.198600331739678587e-01 4.940769223422216139e-01
-2.885651859232233468e-02 -1.220705286320897254e-01 5.379551028622305830e-01
-2.604051859654651219e-02 -1.244875618805964534e-01 5.232008597739739031e-01
-9.862392527932939412e-02 -1.242691436638396069e-01 4.735205588873462879e-01
-3.661972287055968722e-02 -1.223714935555257621e-01 5.070123171204882206e-01
-5.535124768665412170e-02 -1.091189243249897356e-01 5.349157956281171966e-01
-2.815259585406835671e-02 -1.108552729986101437e-01 4.735524198344874813e-01
-1.483753688957348618e-02 -1.216684672863196925e-01 4.888254453611300954e-01
-2.674945168389453523e-02 -1.242573952722671182e-01 5.149923973535307509e-01
-7.518581267553153813e-02 -7.905061015480339959e-02 4.399544926884195184e-01
-7.893495970724663524e-02 -1.223534411762564333e-01 4.910495448972319599e-01
-1.173137824231757637e-01 -1.157992053494257129e-01 4.745442602777021901e-01
-6.201329501874971312e-02 -8.064256109361481184e-02 4.430360492071896417e-01
-7.724448378149413597e-02 -6.591180155385062411e-02 4.368358666797610423e-01
-7.451515830163825405e-02 -8.414606996924277327e-02 4.424149741966253435e-01
-3.893559580104711398e-02 -9.356290764424073092e-02 4.552284011925572527e-01
-3.457100615688834394e-02 -1.212230570068672797e-01 5.363793028508613281e-01
-1.177590414355393217e-01 -1.189642778721260868e-01 4.907952803848386614e-01
-1.019261924030440136e-01 -9.923384564766596361e-02 4.521941033760866757e-01
-3.698806080351935838e-02 -7.491785689861749087e-02 4.441618609069863388e-01
-4.272418442064399025e-02 -1.215935176877094709e-01 5.304545961755114947e-01
-1.822646284025720292e-02 -1.245686120740972930e-01 5.012147108439258814e-01
-2.087482420200228658e-02 -1.216254474366956773e-01 4.925598285193960035e-01
-3.625601183061556709e-02 -1.194341810498079914e-01 5.392130303565174643e-01
-3.174695661270084818e-02 -1.132361214472708821e-01 4.781415146248293446e-01
-4.576624033753899645e-02 -1.223295884438026504e-01 5.151630874289969686e-01
-2.521548383438867308e-02 -1.188477294972924980e-01 5.486657808207243692e-01
-5.223309192761095565e-02 -9.709777304876317239e-02 4.551151806593231597e-01
-3.185692127059975426e-02 -1.229525136975287841e-01 5.301946667965896642e-01
-9.843740504702545857e-02 -1.248518059868110319e-01 4.900314364398135059e-01
-5.051870585817801185e-02 -1.003618191982965924e-01 4.582047992638886291e-01
-6.727960384576162078e-02 -1.143942507627477012e-01 4.741446510887522003e-01
-9.283468650306030828e-03 -1.192913476473199813e-01 4.818010432491239281e-01
-8.292058858270361099e-02 -8.577187705181892052e-02 4.434077220844007683e-01
-7.965444128851402461e-02 -9.660562527517531362e-02 4.502326164109842765e-01
-4.287893667354658600e-02 -1.160293003663494110e-01 4.835886167657536538e-01
-8.531573133811086451e-02 -1.138182397250299682e-01 5.197400941783798523e-01
-5.603417502343652212e-02 -1.200672455457126447e-01 5.251578939583010364e-01
-9.165080802296571294e-02 -9.731003468293768222e-02 4.497636146482047459e-01
-4.273312579391590205e-02 -1.215103108428878531e-01 5.030903528066781316e-01
-9.503822352170977761e-02 -9.565963351886326571e-02 4.492669082385704060e-01
-5.433749939940524243e-02 -1.024682679508631816e-01 4.594562191641636262e-01
-8.912012004461286607e-02 -8.157360717330541799e-02 4.439069196030503428e-01
-9.987930068663686267e-02 -1.100598489857729373e-01 4.584579331692759108e-01
-4.825973159687231562e-02 -8.351411569940973834e-02 4.471270979499433196e-01
-8.049213254373269177e-02 -1.208173433451582152e-01 4.788103620239039793e-01
-7.747300453407235388e-02 -9.462566978969297327e-02 4.491016493200516435e-01
-8.888682388969218473e-02 -1.239944346162563105e-01 4.936222189671551352e-01
-6.512440027220989247e-02 -1.130089112936973339e-01 4.722459240184542772e-01
-8.721118295585721103e-02 -8.750038159187005504e-02 4.451791825162138005e-01
-8.086298426769182590e-02 -1.230069968720921281e-01 5.093351803994007332e-01
-9.743613788663151032e-02 -1.136022222009596960e-01 4.599145084423668650e-01
-1.112803989570338714e-01 -9.877177814001901479e-02 4.575142800128091380e-01
-2.865975650804095110e-02 -1.177136857469695819e-01 4.870000450959907634e-01
-1.023550085084809769e-01 -1.244078536554083653e-01 4.955224303008480824e-01
-9.448401129854089309e-02 -8.897399749694884230e-02 4.471648258000789911e-01
-8.175509155894780666e-02 -1.231527116559460872e-01 4.922816892674060640e-01
-6.008231887915248953e-02 -1.053144863732388137e-01 4.614590853053719410e-01
-7.057382095657814547e-02 -8.081621402388572406e-02 4.410365903597986970e-01
-6.462964047688857239e-02 -9.750561939279486778e-02 4.529180063093915520e-01
-7.603210399656536167e-02 -9.715211744619364764e-02 4.511859452654746749e-01
-1.144322437020980909e-01 -1.166724436570838047e-01 4.978192588244856887e-01
-2.211492906871255840e-02 -1.202354669194331260e-01 5.476278472936680908e-01
-2.484783299798490330e-02 -1.234274066134647824e-01 5.026036064322926267e-01
-3.088084995432771596e-02 -8.792879697264635586e-02 4.509585587089969816e-01
-9.121802033705304902e-02 -8.398134336525119037e-02 4.453325500454702324e-01
-6.103304189392539519e-02 -1.214401836911683796e-01 4.989391860988398042e-01
-1.242504100117264483e-02 -1.110493849521257265e-01 5.623550714831875297e-01
-2.801879958229819972e-02 -1.066620119765713803e-01 5.525280440968494133e-01
-5.477814127304767716e-02 -1.020421117747790790e-01 4.588695186213285204e-01
-3.981968422446711259e-02 -1.222352646405927279e-01 5.274818203570452724e-01
-1.180815442610922555e-01 -1.034367260953794887e-01 4.715871653001383890e-01
-9.257608207047723914e-02 -1.190808336401535245e-01 5.127120209506381698e-01
-1.002585914734815814e-01 -1.222589968692520679e-01 5.028123907039268037e-01
-2.237631477675428374e-02 -1.037825214484504044e-01 4.620973464733205693e-01
-8.036185456283624629e-02 -1.106845938345809299e-01 4.617466724925267663e-01
-5.430877623330093718e-02 -7.738005149879333133e-02 4.437764544175478720e-01
-2.706043814839445560e-02 -1.117026482179266783e-01 4.751275706478854111e-01
-2.048426269041234149e-02 -1.082489978601220981e-01 5.620796748511767138e-01
-1.800126742671029345e-02 -1.015886035024841511e-01 5.646672024989722871e-01
-2.701480142223905423e-02 -1.159608121506851969e-01 5.502418772671896496e-01
-1.028260764829587968e-02 -1.255162665291889024e-01 4.987501094134472179e-01
-1.412843302535822694e-02 -1.268642598051461789e-01 5.117491678020940071e-01
-1.155060799670965255e-01 -1.183113553492124853e-01 4.952425711926516927e-01
-8.059172775283642010e-02 -7.207513685563333994e-02 4.384987817185738157e-01
-5.289220985448395140e-02 -9.806795666899498221e-02 4.557415751581400665e-01
-2.955626693401500193e-02 -1.048562763201909415e-01 4.655444535226012648e-01
-5.287975995802383228e-02 -1.025156671730683422e-01 4.598359550397547180e-01
-8.437326567064121208e-02 -1.235361509221625381e-01 4.936627103883612366e-01
-6.895159672240112891e-02 -1.204635399399856671e-01 5.188094024258309567e-01
-9.805310027170179021e-02 -1.025235005212891126e-01 4.530537261566703333e-01
-1.179739648453731124e-02 -1.169354035928451552e-01 4.771968240260465177e-01
-8.438852588141057542e-02 -1.216972614708981965e-01 4.785238957037978857e-01
-1.127096785850234262e-01 -1.050465585846971361e-01 4.603308203230676576e-01
-1.059320107985558673e-01 -1.240419558681772061e-01 4.825071496784568148e-01
-5.531010178974939129e-02 -6.233785890685540620e-02 4.393825694687411021e-01
-7.213114261221356682e-02 -9.475399601202100230e-02 4.498648710738251677e-01
-4.173338661814338796e-02 -1.132458333585383142e-01 5.398839256629122119e-01
-4.348376400997150393e-02 -1.129614329211486717e-01 5.389648661633024140e-01
-7.747315428223221223e-02 -1.188891799622698586e-01 4.768339016749243431e-01
-2.770660787859207524e-02 -1.205399419945887424e-01 4.930520182991507960e-01
-1.042395485180824116e-01 -9.096485048542166107e-02 4.546635336135221861e-01
-2.872780446826882217e-02 -9.379295053979561092e-02 4.551598923397669472e-01
-1.978510578377760606e-02 -1.020783624134175283e-01 5.633733076944693607e-01
-6.967413606487740663e-02 -1.209714490876999671e-01 4.897563918617914847e-01
-6.655638598190498356e-02 -1.226678346807277137e-01 5.091620493161953531e-01
-3.845031355182643856e-02 -1.184857349151111489e-01 4.898073121143536879e-01
-6.970321827481873456e-02 -6.698273869572726746e-02 4.374314079840351810e-01
-4.475597496856856261e-02 -9.950940965034354990e-02 4.590842804850633341e-01
-5.255966105719247355e-02 -1.218986542848046056e-01 5.076671124660997458e-01
-4.068635054368861109e-02 -9.050671225791435959e-02 4.525912438756281020e-01
-8.475226968856351684e-03 -1.282568679399906098e-01 5.169036904350264860e-01
-9.948361391986992874e-02 -1.224690300894930445e-01 4.684921509768573689e-01
-1.180850582564590551e-01 -1.187748227488448771e-01 4.904068435235022783e-01
-9.982268598023627537e-02 -1.240981620836131005e-01 4.770403110563375959e-01
-6.028585379839698083e-02 -1.151702229155401741e-01 5.301956521527714239e-01
-4.201545103736068626e-02 -1.219070627813389623e-01 5.057768898584943384e-01
-5.706419460643936958e-02 -1.123123769781698561e-01 5.326793382861987336e-01
-4.773096216434329075e-02 -1.188706057358803470e-01 5.322533703849845477e-01
-9.177877299501460695e-02 -1.235903128770954595e-01 4.847092597559771732e-01
-8.768951871369580486e-02 -1.190886963847582053e-01 4.646112748730620856e-01
-6.249189652327730854e-02 -7.162706512566825723e-02 4.402329228938368644e-01
-6.637577922996952540e-02 -1.109420850541081305e-01 4.680487841646723823e-01
-1.131875591355843980e-01 -1.218877119168432499e-01 4.944186129690796849e-01
-6.328541080504800076e-02 -7.227517433709924888e-02 4.401674965376862758e-01
-1.077798894865519413e-01 -1.201096671009246886e-01 5.007859790362432229e-01
-8.006311820725470207e-02 -1.230905327144426048e-01 5.084263178454864196e-01
-4.538209642399340660e-02 -8.835057524917401539e-02 4.502004960974393954e-01
-2.669477019648235430e-02 -1.243332313461965183e-01 5.247312572731652747e-01
-6.713657440447312608e-02 -5.619966231344637742e-02 4.385588245998021661e-01
-4.506394216833976840e-02 -8.458912971060697505e-02 4.481868496316103734e-01
-8.566827894778858421e-02 -1.197606452683967343e-01 4.693994148657101850e-01
