-2.024379479373870222e-02 -1.082151776866792925e-01 4.692580375121616632e-01
-6.914496763432008419e-02 -1.111018582687746808e-01 5.208101865938320474e-01
-5.160764874473405817e-02 -8.064581460743816543e-02 4.277205168215621467e-01
-4.051552068507496829e-02 -1.172494289746619234e-01 5.128942953400400517e-01
-7.719892569677395955e-02 -1.064136162350987624e-01 4.584629802839904622e-01
-4.051695618166165080e-02 -5.931916951024603091e-02 4.344741421706099227e-01
-3.507901268726811017e-02 -6.403711829556076041e-02 4.360462273779777687e-01
-6.170036217054052780e-02 -1.136492127752253001e-01 5.014671901038435520e-01
6.274351861598314456e-03 -1.260330547083021446e-01 5.117125070690380362e-01
-5.031061691113787593e-03 -9.680033332861356921e-02 4.549512728979537846e-01
-6.038745569227890048e-02 -1.026262617501443597e-01 4.249153724402511267e-01
-3.789520131533594127e-02 -5.895027112845554335e-02 4.353227251344033433e-01
-1.242621324789857339e-02 -8.703965711933221716e-02 4.473803061691871141e-01
-6.818370165271070427e-02 -8.150221620032434278e-02 4.259607835717245661e-01
-8.664848104612632440e-02 -1.102692399551832986e-01 4.866379578392337479e-01
-5.594189202424598717e-02 -1.116999205395789313e-01 5.315009998742902253e-01
-4.227843068556577655e-02 -4.055716134016632002e-02 4.351979990428635481e-01
-1.250383824249877429e-02 -1.235797248196193049e-01 5.240412769185234243e-01
-4.283528656201773810e-02 -6.500240341095946117e-02 4.329859790666092390e-01
-8.994162394889688994e-02 -1.073295746091724040e-01 5.097283694655619923e-01
-4.609007995693243515e-02 -1.007315469884778741e-01 4.512978311773383489e-01
-8.823157358997624211e-02 -1.089381566620634539e-01 4.729930768617308101e-01
-3.117095965259505247e-02 -1.087025258402628536e-01 4.722078697180513429e-01
-3.222570271168826578e-02 -1.187082462447588693e-01 5.206098139881079057e-01
-5.803313154828566162e-02 -1.137382087354330551e-01 4.953102168430300600e-01
1.929854749826427456e-03 -1.206556670144258575e-01 4.899126986864302258e-01
-2.623480347492206793e-02 -8.458740991406278609e-02 4.443198197641953784e-01
-5.710647220610864938e-02 -1.138420831926487964e-01 5.219226399131522420e-01
-4.540292538875327633e-02 -1.147290467446688694e-01 4.926422067281422956e-01
-6.675634514407520481e-02 -1.120721928488496444e-01 4.881393054180733215e-01
-3.938712316671622027e-02 -9.883001686445455625e-02 4.528868580473170979e-01
-3.953790154002429641e-02 -3.219738402425482982e-02 4.358752288435731592e-01
-6.867963905494202381e-02 -1.119330101890109314e-01 5.173674932386860270e-01
-8.943258499379716508e-02 -1.022469871407314518e-01 4.534235298142949566e-01
-4.694556269673889892e-02 -1.158192204031348871e-01 5.022652263893420121e-01
1.661354810654176901e-03 -1.144564929511675266e-01 4.756826877141749899e-01
-9.275859797308262655e-02 -1.052557730652747131e-01 4.630766807803478602e-01
-1.861812584388330624e-02 -1.203924102425077275e-01 4.989394043093342557e-01
-2.040689927020743893e-02 -1.215339043569413496e-01 5.103975650769008165e-01
-2.610719381142392187e-02 -9.324268617518334523e-02 4.512929625704279468e-01
-1.277442226691243715e-02 -1.233505489353114576e-01 5.259906296659094815e-01
-7.471751206087395847e-02 -1.109051150002982877e-01 5.138858095195750764e-01
-5.389166429355522758e-02 -6.996349557792490292e-02 4.280260484106532259e-01
-9.188241975625113800e-02 -9.759877071282983818e-02 4.509259185391442659e-01
-4.946446813565872486e-02 -1.133329109060461082e-01 4.875325881440224496e-01
-8.349541048998009030e-02 -1.106177819106185234e-01 4.970189467223796731e-01
-4.482854797582731810e-02 -8.875637046798852403e-02 4.367485108786264281e-01
-5.425074359388276646e-02 -1.119688662681278674e-01 4.813422635230804603e-01
-4.510011949938560333e-02 -1.139400969503189115e-01 4.892115037771161967e-01
-9.292303921691003055e-02 -1.092051620035381643e-01 4.884885701322413953e-01
-2.054425898347623375e-02 -6.380041831471169878e-02 4.390912184671416640e-01
-3.689983008447119545e-02 -4.791990468300932893e-02 4.356853368180880204e-01
-5.533598720579138708e-02 -5.855535324224579730e-02 4.319438570072108297e-01
-4.575202453787962503e-02 -7.218175436995816208e-02 4.316504981985208045e-01
-9.863993685468362346e-03 -9.584973002067781467e-02 4.533933127327694490e-01
-3.137947248584414123e-02 -1.168188782108761370e-01 4.945515069173255784e-01
-8.072773227442993360e-02 -9.939922819226944262e-02 4.391552147569603437e-01
-9.337737440144047718e-02 -8.422239149267399250e-02 4.592196672306203542e-01
-8.942684288281521621e-02 -1.063594494550599012e-01 5.137310960912946367e-01
-7.855767331834873080e-02 -1.092400892550041414e-01 4.704126444831095433e-01
7.845975263133862614e-04 -1.111132036445214299e-01 4.700112415298705604e-01
-3.092968992249757812e-03 -1.179908965897904505e-01 4.821375092241675375e-01
-4.797162265599939218e-02 -1.157636187570573877e-01 5.051228708505084430e-01
-8.132980222811285465e-02 -1.022668745028776638e-01 4.470453596682064101e-01
-9.680585104192755697e-02 -1.052838325955948312e-01 5.098999088962774540e-01
-1.175650911972556806e-02 -1.240724936347886304e-01 5.147979427584469247e-01
-8.610737365653772790e-02 -1.049684083427637055e-01 4.574162943183343599e-01
-3.693069354508919655e-02 -1.107947644358327072e-01 4.768636547662384317e-01
-7.049314447590741828e-02 -1.116907181225375578e-01 5.154150637157669523e-01
-8.558789902611432798e-02 -1.037313025106103570e-01 4.537931883761939789e-01
-9.435035436692794375e-03 -9.765630540964267969e-02 4.550165173889397785e-01
-5.240769233801523957e-02 -1.133193460996392704e-01 5.289852277463912289e-01
-1.059606782685376669e-01 -1.026409846622842875e-01 4.725359449193805572e-01
-1.015201428735676009e-01 -1.069114078863340617e-01 4.840725332232960754e-01
-5.497889911631938242e-02 -1.128276252360498610e-01 5.283359360330308618e-01
-3.559422654706462935e-02 -8.746660560809620122e-02 4.435386663211028369e-01
-7.833901058729060563e-02 -1.066005941795575007e-01 4.594559910891347077e-01
-4.262001443711500165e-02 -1.033280780100561402e-01 4.583355765107156032e-01
-1.503308201699869381e-02 -8.481036811829531508e-02 4.460430128235044478e-01
-4.929213968004288182e-02 -1.067494244071546805e-01 4.621908573851934432e-01
-9.018101626003559301e-02 -1.084426243173888388e-01 4.723948888569963755e-01
-3.664563806351310397e-03 -1.238903941887104093e-01 5.014202445096269667e-01
-9.222783132897995062e-02 -1.093425314927859715e-01 4.955284736125949441e-01
-8.938258310360858161e-02 -1.049589171246971681e-01 4.594976845195720139e-01
-6.885796589321484251e-02 -1.121493597649318719e-01 4.912487485282570621e-01
-9.587356491269497308e-03 -9.082276529821631250e-02 4.498137945704260288e-01
-6.028533729265853069e-02 -1.072228881164535436e-01 4.598591063764106424e-01
-2.022853752635219923e-02 -1.211239844263568011e-01 5.269492081795774663e-01
-4.797805500224940067e-02 -1.151060944306263045e-01 4.964053313970876458e-01
-2.143505357710048798e-02 -1.184426725821614013e-01 4.947787742743652850e-01
-4.900698545967623748e-02 -4.558279701809842682e-02 4.350577756883274860e-01
-1.565899040437028489e-02 -1.188406295125185447e-01 5.467641656846804477e-01
-9.487919143155428003e-02 -9.960306865893481243e-02 4.548426360025870085e-01
-9.140585315842625347e-02 -1.095673002563610221e-01 4.920475557758343665e-01
-3.996464454280753559e-02 -8.752145316072405812e-02 4.413429815940608791e-01
-8.530573721247690366e-02 -1.080521682990756155e-01 5.128009320757795919e-01
-9.969518877756244554e-03 -1.082129224462442252e-01 4.660489545453400662e-01
-2.738148144171311665e-02 -1.177617724646035507e-01 5.385334529778598167e-01
-4.592964089780361692e-02 -9.858724266742069364e-02 4.475376939253685737e-01
-2.437262557279765499e-02 -5.313017748065622381e-02 4.382633056451243347e-01
-1.740238366809275863e-02 -9.689478825984328136e-02 4.547955076597968715e-01
-1.927001359945001990e-02 -7.329233095287222832e-02 4.410781358251537609e-01
-9.531886047182207278e-02 -9.632325303956824902e-02 4.540124915520195037e-01
-3.235974699496191320e-02 -8.697407953048270912e-02 4.442182926755025019e-01
-5.269242785924671546e-02 -1.130750542885689686e-01 4.865111112960578410e-01
-2.734317300416366087e-02 -1.197957257147398979e-01 5.092492434546478375e-01
-6.261792771718410755e-02 -8.570483011717833222e-02 4.236262501704642358e-01
-8.286888921351094617e-02 -1.095131771304032886e-01 5.088474728086408438e-01
-8.945800808779111324e-02 -9.916050857823098530e-02 4.491418542888777066e-01
-8.580011412818404348e-02 -1.064449697699346026e-01 4.616998400980372730e-01
-6.120048564339450325e-02 -9.186045272028683928e-02 4.228801323656239952e-01
6.914496841660045488e-03 -1.268249984163511423e-01 5.229585278337639531e-01
-9.982237941004196147e-02 -9.904008593659349713e-02 4.609630462052280442e-01
-2.726541958370955199e-02 -5.131599690946563735e-02 4.381039643438563447e-01
-3.123522912859411776e-02 -1.186481786027012431e-01 5.034601852306291869e-01
-7.999992608876273226e-02 -9.299271967497339808e-02 4.313688926518159938e-01
-1.012968416086713341e-01 -9.532716671684197951e-02 4.608565814826893758e-01
-5.523061595918355576e-02 -1.147887225827055740e-01 5.086507870865009107e-01
-6.686618087691115209e-02 -7.783664559750738676e-02 4.284085372867721953e-01
-6.253593336873386477e-02 -1.047318851821743280e-01 4.461303336975848133e-01
-2.232966287104472258e-02 -1.145387426387081131e-01 4.835274435729837172e-01
-2.704194878376121533e-02 -4.233598103841264976e-02 4.385703385125017673e-01
-6.538176695909053704e-02 -7.354202544337011538e-02 4.298821973127189278e-01
-5.247424624707954649e-02 -1.054284896217865808e-01 4.575393549052252928e-01
-2.268695683310483976e-02 -1.083553030804751960e-01 4.704239748309429481e-01
-7.159566146775471485e-02 -1.042464896780310180e-01 4.462250363748153648e-01
-3.591243338119622097e-02 -1.116141875169411601e-01 4.790483615368815173e-01
-5.133306553533278915e-02 -8.601495644241527461e-02 4.281441103622497524e-01
-1.121571476682738794e-02 -1.142834335281628089e-01 4.762181463327770370e-01
-2.745209000801654507e-04 -1.084771151811396162e-01 4.666912984352372673e-01
-5.528109328981029719e-02 -1.133171420230616594e-01 4.892857840691275939e-01
-6.822319510554844535e-02 -1.127738601213828795e-01 5.011803416816752454e-01
-9.812139710487059741e-02 -1.054400669399425949e-01 4.682541638616777302e-01
-4.568667099399324749e-02 -9.930628686947759465e-02 4.490647872786864836e-01
-9.027479522363897335e-02 -1.078196800582781889e-01 5.075735902811996381e-01
-1.094225022679523596e-01 -9.298351862121616296e-02 4.757156116800692613e-01
-5.568214125642718254e-02 -7.328109229537388414e-02 4.269618890610994977e-01
-6.465731708464594885e-02 -1.128245871059411348e-01 5.176344922218307776e-01
-1.012002839686119149e-01 -1.064928748898288785e-01 4.787568443227623871e-01
5.125457445721263647e-03 -1.233467658101087966e-01 4.990634602632148531e-01
-4.971113031410406141e-02 -1.013372383657591275e-01 4.491125902672800096e-01
-4.212093357117857595e-02 -3.665073430945304384e-02 4.353130052092648028e-01
-8.477438025321211434e-02 -1.072732716372576112e-01 4.642281473484599630e-01
-5.972456091210059936e-02 -1.119855300686642408e-01 4.826545482454833169e-01
-7.054532284291059607e-02 -8.161572226405820751e-02 4.268130607289885581e-01
-1.063582814919994124e-01 -1.055709769896294864e-01 4.891729385973380140e-01
-1.847126532483178707e-02 -1.061094017985843574e-01 4.651567494838674266e-01
-5.777598015897052186e-02 -1.120839856599176315e-01 5.289640657105360022e-01
-2.089687048595963419e-03 -1.023331824265612117e-01 4.603042221480161955e-01
-7.181524972529559903e-02 -8.803660247551914342e-02 4.228840853653611509e-01
-3.050368288434972958e-02 -8.818583576298082150e-02 4.455326164619317630e-01
-5.082320321288519294e-02 -7.679253323475752901e-02 4.282244431766911164e-01
-1.060319883057037234e-02 -1.243894706871509770e-01 5.153540402775355078e-01
-4.361685999857545931e-02 -3.804622293040991338e-02 4.354176580907796468e-01
-5.403752723827476984e-02 -4.053883522003817741e-02 4.394409885285450179e-01
-3.429615057475723233e-02 -1.184800641886142869e-01 5.114486305898999774e-01
-3.306848941319009971e-02 -3.407101015360224083e-02 4.370694934734902781e-01
-2.198026307770037033e-02 -9.944675261911266329e-02 4.583171852858484718e-01
7.674117643776795158e-03 -1.267465716200255332e-01 5.252495942345045687e-01
-2.906550606108912124e-02 -9.208254636298063289e-02 4.495265482242019606e-01
-1.948058413867583341e-03 -1.169374826768151548e-01 4.797602173536325565e-01
-9.922348031826748460e-02 -9.911817680772347372e-02 4.604348781210954589e-01
-7.201472143681612870e-02 -1.122627207566296026e-01 5.002024333753571916e-01
1.399894353760469320e-02 -1.259150076449760125e-01 5.352848160141694400e-01
-1.102217625910254656e-01 -1.007810248706831058e-01 4.837680783386024697e-01
-4.968985673790845409e-02 -4.415654804627202473e-02 4.355373871570130118e-01
-3.013480504888632963e-02 -9.539521741824120993e-02 4.525153623514495682e-01
-4.859451944353209568e-02 -1.034207357740658945e-01 4.543893707456865272e-01
-1.766445538619347208e-02 -1.219956053070990754e-01 5.252547220180928678e-01
-3.627287457938242060e-02 -1.141557352567528494e-01 4.870229780328251823e-01
-1.525046868798038760e-02 -1.128547776051473106e-01 4.755435695493309134e-01
2.764721103071152673e-03 -1.109869442892098684e-01 4.702286630543088264e-01
-4.916065042263572521e-02 -9.509078549312888207e-02 4.367409426076475643e-01
-7.303621586026148860e-02 -1.109249839128527981e-01 4.802183846702996473e-01
-1.177231962406063634e-02 -1.239868829518305932e-01 5.202641697865377779e-01
-2.907448255663145839e-02 -7.697785519489566686e-02 4.402121020426149056e-01
-3.152993776003047179e-03 -1.245302308459460550e-01 5.337283603187830128e-01
-3.401531664830850787e-02 -7.465645480063562434e-02 4.376680806992781503e-01
-4.589940702420811092e-02 -5.600043325022104751e-02 4.335125021546516466e-01
-9.148736075035616977e-02 -1.088923101816530875e-01 4.762966700383000074e-01
-5.906207814817013985e-02 -1.037904687401675768e-01 4.460363929818507156e-01
-5.418827178835738945e-02 -1.018799713309052057e-01 4.459416695299461830e-01
-8.354040680762730986e-02 -1.059660336788306040e-01 4.589911693517252367e-01
-4.473608081908562323e-02 -6.910044597217497586e-02 4.321188111152404199e-01
-1.645899066917671724e-02 -1.201359230298588432e-01 5.415565386875238474e-01
-1.076199424776636965e-01 -1.027245830639323537e-01 4.783184918836617672e-01
-8.368536297545829672e-02 -8.956931189377584368e-02 4.392151414648710617e-01
-7.248962199393954586e-02 -1.120080944835105397e-01 5.082532190622633950e-01
-4.191951409671276774e-02 -4.608887166754446763e-02 4.350253816456726708e-01
-6.180294251310634868e-02 -1.089298751007496818e-01 4.669764622080939676e-01
-7.150224896269220462e-03 -1.223357476256787119e-01 4.963919759435627133e-01
-5.552860769018642256e-02 -6.087932140463812869e-02 4.310408983845676056e-01
-2.180852444135198895e-02 -1.212332409142969497e-01 5.189027508037161729e-01
1.354474391625508714e-02 -1.261400828707287258e-01 5.345745118483167246e-01
-5.092379022023583307e-02 -9.598758361800724392e-02 4.307530552992884232e-01
-1.259191025150167148e-02 -1.201539125621382403e-01 4.915004692207177173e-01
-9.884741452000236905e-02 -9.763737057561559796e-02 4.591151231797633847e-01
-7.551867881228316315e-02 -1.105067592188457432e-01 5.151690379546908227e-01
-1.172073143715802838e-02 -1.211727372379550610e-01 4.946949974828591112e-01
-1.415600385222261226e-02 -9.585014062209373797e-02 4.534878637528616530e-01
6.357611310004414491e-03 -1.256295116222363728e-01 5.361406092440262894e-01
-7.472693572949544449e-02 -9.148262133550215391e-02 4.249622134875910562e-01
-1.100895669580026770e-01 -1.015229651384158271e-01 4.978536393223140233e-01
-4.630230755438180523e-02 -3.697090905693209417e-02 4.357703901775584754e-01
-1.161794133891071515e-02 -1.025265155512020826e-01 4.595080156141175265e-01
-3.667762352390325359e-02 -1.015144134798576930e-01 4.590061149877704416e-01
-5.179797647812759559e-02 -1.141118138000931787e-01 4.922340077169376493e-01
-1.220995063699576409e-02 -1.204702549829162195e-01 5.434621727035796601e-01
-5.411358370415818991e-02 -4.150666743830988548e-02 4.390745450332983468e-01
-7.061560131574493027e-02 -9.469919754110435461e-02 4.227422148592516193e-01
-1.029798228313798386e-01 -1.067068962797638604e-01 4.921733961558877324e-01
-1.011777458800716678e-01 -1.044626027330266133e-01 5.064861374906208802e-01
-5.789456215138144568e-02 -8.622594416742157541e-02 4.242882137390062702e-01
1.367629749385875166e-03 -1.262912509665859995e-01 5.298566482806431610e-01
-1.035055329766991078e-01 -1.063222328268874639e-01 4.851184410705355887e-01
-8.214887977023707655e-02 -1.085780533567162337e-01 5.147865129153674779e-01
-4.492345618633178383e-02 -8.770314692820006808e-02 4.356816628246871770e-01
-1.103474036649035733e-01 -9.803971929164674581e-02 4.767966760395571102e-01
-4.262581350688653126e-02 -1.105030881980861857e-01 4.762887830862948535e-01
-3.833118498129741564e-02 -1.176660817289717220e-01 5.146797275820643724e-01
2.342771647014145822e-03 -1.087304422646553359e-01 4.673083959056825720e-01
-2.409945859583658562e-02 -1.113743005099373656e-01 4.767224780054244992e-01
-1.374099005060272841e-02 -1.169794187694266352e-01 4.835811727998759468e-01
-4.754817246997745939e-02 -7.540300519904381826e-02 4.304595240043765370e-01
-7.171269963371476597e-02 -1.059649480487169781e-01 4.552265310445409718e-01
-3.385708591565424891e-02 -9.797111819269611888e-02 4.543932077844685669e-01
-5.450351849557508871e-02 -7.042443174398899108e-02 4.277571761768261260e-01
-1.310356800570724317e-02 -1.216073911977189614e-01 5.386170112162429469e-01
6.759758310012745769e-03 -1.248313260716174267e-01 5.054780833239794768e-01
-3.686955570913971053e-02 -1.138163852488614652e-01 4.862138608260204165e-01
-2.738894724863196253e-02 -1.144247292151257533e-01 4.845920005903251448e-01
-9.159627680476985570e-03 -1.113050853335331714e-01 4.705297414330679717e-01
-5.059304002749763496e-02 -9.832722643424393616e-02 4.395281825757885730e-01
-8.848183614919308271e-02 -1.039681919134345656e-01 4.565699691031019358e-01
-1.041221399523731966e-01 -9.269976304355130592e-02 4.668160594127481744e-01
-1.073447595409247335e-01 -9.566464475070271534e-02 4.700107314831614147e-01
-1.367993731681595680e-02 -6.084903246637668461e-02 4.393735224180983501e-01
-2.016733442633866780e-02 -1.217588269427844899e-01 5.128256486566713512e-01
-7.760639737983679454e-02 -8.524507683198609409e-02 4.321623785852882205e-01
-3.770539312299529128e-02 -1.172568232566073843e-01 5.251062744297854135e-01
-3.714969239070312068e-02 -1.177418939353636063e-01 5.202738794875435557e-01
-6.592745561801417742e-02 -1.117459216333378802e-01 5.217149231044028168e-01
-1.646593027154543212e-02 -1.216815382104817350e-01 5.035173245656604513e-01
-9.497473986875790142e-02 -1.085656736832499997e-01 4.815671868221488294e-01
-9.184730533738155733e-02 -8.529097036355950956e-02 4.555848638152047991e-01
-6.181922624203767952e-03 -1.005056164109868200e-01 4.580352704269076702e-01
-3.686245753697423716e-02 -1.166682086887973896e-01 5.311887792020747456e-01
1.312936616631385500e-03 -1.146978824002368724e-01 4.760371305685911492e-01
-3.459314925433636112e-02 -1.097420557543721392e-01 4.742491458879919963e-01
-2.402704011622855060e-02 -7.351240713599806187e-02 4.402594205646596093e-01
9.763888226066460771e-03 -1.266754781394466289e-01 5.293483994027069484e-01
-1.069614851721081561e-01 -1.028154303588155599e-01 5.038282130145463888e-01
-7.934659938635826859e-02 -1.103714297399893962e-01 5.093103940373148175e-01
-3.102971320690831036e-02 -6.598503435349413471e-02 4.373868942369856239e-01
-6.981109342409094753e-02 -1.111702207993094799e-01 4.809411181431456628e-01
-4.198649902336090006e-02 -1.162044930990145247e-01 5.261794373781997214e-01
-2.971134251510256299e-02 -1.089828025505964332e-01 4.727801100920817623e-01
-4.253437331051838216e-02 -1.161377055776602607e-01 4.984224299956229176e-01
-3.934410110930069981e-02 -3.227625070042904054e-02 4.359051076010920234e-01
-5.413272210104789345e-02 -1.122885146205357954e-01 4.831405436093857975e-01
-3.900476782235823585e-04 -1.265085482168892272e-01 5.189429157570734086e-01
-6.173950089836091615e-02 -1.078069659079568948e-01 4.615239184261526462e-01
-5.729827503264597194e-02 -1.031636123235938618e-01 4.348663802879521589e-01
-5.438215724875273410e-02 -1.124606828585761747e-01 4.841839474482240724e-01
-1.199453662387778806e-02 -8.184992557005327241e-02 4.451853488092302191e-01
-6.057226625166359235e-02 -1.076719870135373486e-01 4.613463198630901041e-01
-1.933310151741080354e-02 -1.217020646869916428e-01 5.081898815099186173e-01
-1.940025294061169031e-03 -1.121357578115729364e-01 4.713296702286950413e-01
-3.754227058627592623e-02 -1.090164481650833794e-01 4.724298779723772324e-01
-3.177212697307633255e-02 -1.178168880044371536e-01 5.314392703598264101e-01
-3.241530140719591207e-03 -9.497577913741805933e-02 4.537286280990578957e-01
-2.296611467394228320e-02 -1.201834742400820499e-01 5.032031998903245817e-01
-5.937452517225045440e-02 -1.141932827878694989e-01 5.116795046952272719e-01
-5.533664218946987567e-02 -4.347967560078398047e-02 4.415814252652129901e-01
-5.041676026126232918e-02 -3.795729821070429472e-02 4.371918100642492866e-01
-1.361395605479815731e-02 -1.164170701680182496e-01 4.822358688016869510e-01
-1.633706533745219250e-02 -1.000489223748215334e-01 4.577423547127884573e-01
-2.017686857479161072e-02 -1.087322776855486756e-01 4.701535919668596297e-01
-3.480899121107708383e-02 -1.036786423430030579e-01 4.628300496064118863e-01
-3.207998944684138654e-02 -1.155410398961368296e-01 5.427627443385701911e-01
-1.664528766088452932e-02 -1.197764201015569102e-01 4.934465458164585816e-01
-5.901542674220444304e-04 -9.446560269356456263e-02 4.535948670093333801e-01
-2.915101870974690784e-02 -1.180654032922100194e-01 5.347708955387224794e-01
-2.605271802025728445e-02 -7.418706188672223589e-02 4.399380175662909731e-01
-6.755334511977699463e-02 -9.843183844333577848e-02 4.232967367339608988e-01
-3.338088335083488206e-02 -7.918606926035852422e-02 4.399262402328765753e-01
-4.251415469559816779e-02 -1.160327082031343687e-01 4.974404200246296259e-01
-2.034918872129320988e-02 -6.040719317712845565e-02 4.387953778255112014e-01
-1.544211109835149504e-02 -9.800362053595544631e-02 4.554474263459923900e-01
-2.615442547699360631e-02 -1.196079148751145182e-01 5.267185575646997631e-01
-6.887785287791273192e-02 -1.048588915946855327e-01 4.489723087389254630e-01
-1.844702909343167319e-04 -1.251606023075026164e-01 5.063045819884710586e-01
-2.093740333570453735e-02 -9.902580719318702929e-02 4.576657393444639732e-01
-4.063241852634871115e-02 -1.051492340467344855e-01 4.629896978303185695e-01
-6.649856190181928361e-02 -1.124664676441047145e-01 5.172012557339999983e-01
-8.338926037739489983e-02 -1.054050397632535357e-01 4.572169013570727136e-01
-4.597623024966798755e-02 -4.614507459626279728e-02 4.348781855707743449e-01
-9.701599391986298615e-02 -1.046570158460474465e-01 5.112704218203570905e-01
-5.623107259258832563e-02 -1.138975944188755363e-01 4.949771595643232547e-01
4.383877764981667529e-04 -1.263194451270879815e-01 5.134510736006074882e-01
-5.435057887779859431e-02 -5.376466577232876659e-02 4.337901933053771031e-01
-9.779657330925282943e-02 -1.076852777455928056e-01 4.987727941815249810e-01
-4.430958895565326877e-02 -5.101218309530967249e-02 4.346133312099277890e-01
5.258589115969200534e-03 -1.258265877244826580e-01 5.344781566618407309e-01
-5.413503283129478261e-02 -4.051272117154054025e-02 4.397541982700555185e-01
-1.140549597307583679e-02 -1.202301303577512914e-01 4.911336411261684742e-01
-4.062176726174607927e-02 -1.013151906592886370e-01 4.560944016984216365e-01
-7.443645272761978404e-02 -1.107611826952561995e-01 4.792488579609693877e-01
-5.546877221411568304e-02 -5.635763567078236336e-02 4.327801275960353466e-01
-4.966972544243417054e-02 -4.546030690486237147e-02 4.352807498069637959e-01
-1.644737740127924508e-02 -9.343049856242981177e-02 4.510752905458944584e-01
-7.504840607914863015e-02 -1.066019552956104510e-01 4.584716607173087710e-01
-8.499438883975697634e-02 -1.022170134465721358e-01 4.491868930554454020e-01
-9.645742211768264240e-02 -1.010779916170436582e-01 4.572196525415487267e-01
-9.226376819039287455e-04 -1.203662942529382801e-01 4.888449565555830212e-01
-1.554598007034935746e-02 -1.079362935965333670e-01 4.669004435941905284e-01
-5.676587863392989347e-02 -1.145144727375572574e-01 5.069741929647295642e-01
-1.525207512484831954e-02 -1.019839858187334414e-01 4.593620108704984939e-01
-5.521656160783921380e-02 -4.311876266701385879e-02 4.414386367256184496e-01
-4.610196638511544071e-02 -9.209663969218991053e-02 4.387304340972413286e-01
-1.168434830585023815e-02 -1.232020775875819901e-01 5.315775063430587810e-01
-3.144761167569028876e-02 -4.885731859812969535e-02 4.373255703343999490e-01
-6.931614258442314602e-02 -8.363734613229234505e-02 4.247678385630038189e-01
-2.269643026553160720e-02 -6.893454646670915675e-02 4.395403231992588977e-01
-5.730568051375437705e-02 -1.129609328910713972e-01 4.877677855993598488e-01
-3.574538491685433361e-02 -7.355305295537244159e-02 4.364244782323463689e-01
-1.087792700315446705e-02 -1.240024047875007973e-01 5.243810760634586288e-01
5.183226347286927493e-03 -1.260372576669279709e-01 5.331953991556724892e-01
6.410026881166238158e-03 -1.260922530687614562e-01 5.334091234938829196e-01
-2.101161822039564545e-02 -1.204074776429601007e-01 5.021628415614650676e-01
-2.827990284859791849e-03 -9.117562843951854124e-02 4.511769296180967448e-01
-1.999189174862639126e-02 -5.156139709081983269e-02 4.386684551709628122e-01
-1.041250338279651466e-01 -9.113619506154371774e-02 4.685841470346747695e-01
-8.582412812072434671e-02 -1.020009994251833418e-01 4.491291490667300712e-01
-5.511535909478039452e-02 -4.652813736999947963e-02 4.369170403955136561e-01
-1.585800596575099794e-02 -8.922977289179864768e-02 4.479668338860423038e-01
-5.457397308194067431e-02 -1.149296005674510651e-01 5.145742497645998670e-01
-2.137742244608375683e-02 -4.118311014073429421e-02 4.391271787197143506e-01
-6.546088095291721642e-02 -1.132218515500722777e-01 5.036742840508127150e-01
-6.401646583626086073e-02 -1.125543614492419964e-01 4.904569612554878777e-01
-4.807622861327993935e-02 -7.195042919283818617e-02 4.301596030351855782e-01
-4.351426758853636084e-02 -3.650225620700012219e-02 4.352963261095753045e-01
-7.445382813801118549e-02 -1.095793256860402437e-01 5.205946333535826920e-01
-2.113347834280369583e-02 -1.213586271789173221e-01 5.211270015510028886e-01
-9.150163705138590620e-02 -1.085024834112089109e-01 5.035775571390749272e-01
-1.436718395385410026e-02 -1.231303193551690073e-01 5.109029665406368270e-01
-3.645343562191984046e-03 -1.231952857745479274e-01 4.983926098446367359e-01
5.718611726313986565e-03 -1.257828004791023413e-01 5.099964962935529256e-01
-9.577808200448563458e-02 -1.051437356467819634e-01 4.647782895761395361e-01
-6.284901597698963616e-02 -1.116025817414052490e-01 4.805287879951903318e-01
-4.537732917756643475e-02 -5.653471793780767696e-02 4.334034482398392840e-01
2.873679806874565069e-03 -1.199940731350529199e-01 4.880082591684627435e-01
-7.078323935963823019e-03 -1.250804545604199680e-01 5.136850981866845078e-01
-6.207772742746516664e-02 -8.805418239034137895e-02 4.230420703850779063e-01
-7.646591847881843707e-02 -9.547564930072194311e-02 4.273196310036666001e-01
-7.216779818454178118e-03 -8.604382072056329656e-02 4.477083624069091439e-01
-3.473014732620797324e-02 -1.179620505053812218e-01 5.038284023261123679e-01
-5.790774454664997239e-02 -1.122360117827840148e-01 4.836940813055622956e-01
-1.975088098572485434e-02 -1.188388536592184519e-01 4.940020204542088234e-01
-2.891882135229056211e-02 -9.778540996178161637e-02 4.557879902117031867e-01
-4.931313816220569100e-03 -7.751858270537904938e-02 4.446062062541550897e-01
-1.281248699925748545e-02 -1.235613136146960778e-01 5.231959660170298898e-01
4.176109742635526756e-03 -1.257261615892615314e-01 5.345867636492667163e-01
-2.647159513643899953e-02 -5.890931572573230440e-02 4.376127621464202533e-01
-2.194022816849479016e-02 -1.207797945767791342e-01 5.055910200735295179e-01
-2.742517865365134283e-02 -5.824724262349879889e-02 4.373889199552018492e-01
-2.540014895252647523e-02 -1.114201634380957845e-01 4.769838109383404690e-01
-1.218846674295377859e-02 -6.002533808784991931e-02 4.391049107398280471e-01
-9.012179781859529226e-02 -1.092703996642638148e-01 4.782347446483756204e-01
-7.294455861278993647e-02 -1.106478627206940596e-01 4.780556807767312177e-01
-4.014802974328936236e-02 -1.112018966383387653e-01 4.789138600006263569e-01
-5.110882160804940122e-02 -1.013256123196095704e-01 4.479615062097092038e-01
-8.250259821389643172e-03 -1.218068835919920018e-01 4.950446130891776875e-01
-5.382066307787041967e-03 -1.123951886331329142e-01 4.718899183197872160e-01
-4.830970827257637101e-02 -5.210206335980106102e-02 4.344693302526384526e-01
-7.113258205846725857e-02 -1.078236172141966986e-01 4.627584290592367533e-01
-6.830842762083691455e-02 -1.125809604071315861e-01 5.124086505947490489e-01
-7.689422472960848187e-02 -1.019928771082981023e-01 4.400375592973778116e-01
-6.393119965395784032e-02 -1.134891789758871866e-01 5.061841249179954705e-01
-9.436605104682993517e-02 -1.051072442044855698e-01 5.127009096456344173e-01
-6.417221701859909810e-02 -1.123151841453826211e-01 4.883016661171660222e-01
-2.305972997430727131e-02 -7.754739555993933608e-02 4.417962114009595931e-01
-9.226739947852707208e-03 -6.743036491300952173e-02 4.408569244931068165e-01
-1.121598457146454342e-01 -9.792935766680152532e-02 4.841463029267458751e-01
-4.788880474383733904e-02 -1.123900936075022672e-01 4.828712614014761262e-01
4.727870106979083914e-04 -1.264994912280194561e-01 5.257456285303243604e-01
-5.642741456360332586e-02 -5.782180914168558172e-02 4.325861048017426436e-01
-5.498221070484771156e-02 -1.104598342836624891e-01 4.721632389916475825e-01
-2.404780739274945539e-02 -1.207884238920865771e-01 5.134558609092145787e-01
-4.776077823247520948e-02 -9.439260397025370231e-02 4.393895146784967398e-01
-2.686229359041546541e-02 -9.529949426911413224e-02 4.535559513672211551e-01
-7.233197068450636022e-03 -1.084991380104208120e-01 4.661653269128660515e-01
-5.261820865056354712e-02 -2.664457788872103688e-02 4.399734578798017437e-01
-3.669043170333207565e-02 -1.123097649868073089e-01 4.813709792425640566e-01
-2.573190154705307098e-02 -6.607554185845437855e-02 4.384409713887728599e-01
-8.209509425560895801e-02 -9.110891335343576647e-02 4.354076208901856981e-01
1.112896398685155747e-02 -1.266446157621872737e-01 5.278606146730141502e-01
-5.705530022606925336e-03 -1.232477115266009254e-01 4.992198115889823207e-01
-9.055571415650386091e-02 -9.481328583629386464e-02 4.475933328405450884e-01
5.090799526029273110e-03 -1.262124805215261991e-01 5.319365858454001561e-01
-5.012870037420906477e-02 -7.273441767840703454e-02 4.288518645873797830e-01
-7.630704351150063847e-02 -1.111091065677636130e-01 4.841621221056695568e-01
-5.028732263571757122e-02 -5.810121158444075951e-02 4.323473358567589409e-01
-4.580757693722633389e-02 -4.383494765445787589e-02 4.351148764245961198e-01
-1.288439947597666904e-02 -6.260731544327048648e-02 4.395593618990519813e-01
-1.042052589028031606e-01 -1.059515272383080436e-01 4.963903704856225119e-01
-3.074572887608613067e-02 -1.185678000153954359e-01 5.260026044237801068e-01
-2.400227185020285467e-02 -7.191417898361798788e-02 4.398535616836974360e-01
-2.650852139621959203e-02 -4.780002341634287388e-02 4.385048633310741351e-01
-6.393212639726787716e-02 -1.073929458752786864e-01 4.600476650792960087e-01
-9.133534951482148723e-02 -1.077853143751737325e-01 4.707545165946683263e-01
-8.190448459785669086e-03 -1.231875570991351476e-01 5.354544491139916484e-01
-4.036420100442153491e-02 -9.606250946854973105e-02 4.487375335828575063e-01
-1.077392027746904846e-01 -9.850749699167529738e-02 4.713136699700080090e-01
-2.017308295296263432e-02 -1.198114353262101223e-01 5.377209493746386570e-01
-4.489557506414369736e-02 -1.101159222236321178e-01 4.744405359700966107e-01
-8.983338844006720503e-02 -8.863482258710464468e-02 4.490725266453119424e-01
-3.148957737275472069e-02 -4.432119704373867208e-02 4.374567328672228639e-01
-1.278260353410493738e-02 -6.992821394175569027e-02 4.411990441614982439e-01
-3.295269671666663236e-02 -3.449645776251276941e-02 4.371064678684316585e-01
-4.488458395533452550e-02 -1.076940144154977658e-01 4.658077553873212207e-01
-4.282666072816171399e-02 -9.470001264904140403e-02 4.459955341075311219e-01
-5.084339243016809673e-02 -4.364942059549615366e-02 4.359819779914959614e-01
-7.506156696973528830e-02 -1.119120715715926501e-01 5.006989680319491320e-01
-8.906275972506100258e-02 -9.043554256342141440e-02 4.471466795356340285e-01
-1.342016070730670321e-02 -5.332282396877795205e-02 4.385765222601013535e-01
-7.903990413805631055e-02 -9.557346797230535651e-02 4.321030247965642612e-01
-5.045894089677852717e-02 -1.044791542660035433e-01 4.558054929848288639e-01
-3.114382397829396076e-02 -1.188958471900705971e-01 5.209819039874339364e-01
-5.485411814770844302e-02 -1.028050184063167560e-01 4.475556983834551583e-01
-4.491178010026285194e-02 -8.772550100554848962e-02 4.357214914341848710e-01
-5.804365462399545955e-02 -1.039174740459524598e-01 4.476647644338383469e-01
-3.592613202224714808e-02 -1.181203741041834954e-01 5.104350126696063361e-01
-1.090485375980497149e-03 -1.260415320989971555e-01 5.277390875831782235e-01
-4.309817912849944060e-02 -3.288401858891271123e-02 4.355330099477411343e-01
-7.040597924962817278e-02 -9.986944932062094549e-02 4.266277329524317263e-01
-1.074267277720485428e-02 -6.685117129313751516e-02 4.406434038487739846e-01
-5.290486088426063493e-02 -7.435652799859905626e-02 4.278397001297676305e-01
-1.708025130021116264e-02 -1.084949299645072557e-01 4.684350079697916502e-01
-6.734373755162148534e-02 -1.048895315110668219e-01 4.477666778599638242e-01
-2.439027701001949405e-02 -7.497906315878145878e-02 4.405714632384016283e-01
-1.072829927678387307e-01 -1.046671593204629991e-01 4.885385662693275122e-01
-1.343122578511593730e-02 -1.236390665210113787e-01 5.179226476536183954e-01
-6.284389350110833328e-02 -1.122647249622309024e-01 5.229384472303342246e-01
-1.054040183945423453e-01 -1.048433689865576890e-01 5.009020600242766186e-01
-1.037325499340119861e-01 -1.044721692894823861e-01 4.724194173195770396e-01
-9.192959372319865763e-02 -1.094598131739171060e-01 4.936708147895927934e-01
-2.877267496381129275e-02 -1.161540926313093247e-01 4.909379673794689314e-01
-5.288157716483444550e-03 -1.251883781435329523e-01 5.275605329180025338e-01
-8.096491307612460608e-02 -1.060006844402229531e-01 4.580177572987113588e-01
-7.743163674881629703e-03 -1.246635794013538079e-01 5.270682047368023815e-01
-5.236491999470063718e-02 -9.873224941803020183e-02 4.341535473224418795e-01
-3.430893918622572591e-02 -1.184112900107937433e-01 5.186057133370685079e-01
-5.346821362052986415e-02 -5.750547790157990030e-02 4.324552437833574237e-01
-7.027518366405011152e-02 -1.044310865249575837e-01 4.467658888633880276e-01
-1.554104199068976830e-02 -1.209796895197806088e-01 5.386946447094183021e-01
-4.847864408311292062e-02 -7.919695414116358079e-02 4.299738070787326727e-01
-2.352655958040555939e-02 -1.203337662337820302e-01 5.049593947560629958e-01
-1.922881636557942017e-02 -1.180715840585775667e-01 4.910652933414546006e-01
-1.903250209965565327e-03 -1.232100332958644823e-01 4.979720911752902324e-01
-7.193009322906926406e-02 -1.115218892303636855e-01 4.860982564715569110e-01
-8.203102579603342714e-02 -1.104321202926462769e-01 5.028485396554263076e-01
-8.986946707712444027e-02 -9.969133159638947361e-02 4.507514821519243986e-01
-2.521682584167015545e-02 -1.201749336971060650e-01 5.226425382124366692e-01
-7.397339388880563860e-02 -1.115485737617363526e-01 4.902373295563210998e-01
-4.811130007854972496e-02 -4.916313536051253319e-02 4.346104324479760916e-01
-1.582467674118314543e-02 -5.009451571514212526e-02 4.387507025284566042e-01
-1.589746770231024661e-02 -1.182016360213153233e-01 4.880400126708831499e-01
-3.246262931795903389e-02 -1.164284465193950319e-01 5.388769271894274793e-01
-3.079012905240555847e-02 -1.167009609847868556e-01 4.938547016052662886e-01
-6.197046350820488003e-04 -1.006187354874257533e-01 4.589122955535734349e-01
-4.652645133765367924e-02 -1.113746591316154555e-01 4.790852942019676597e-01
-3.705783933680250990e-03 -8.696700155647194008e-02 4.488926993575342306e-01
-4.722556946548178008e-02 -7.840514679340411519e-02 4.308263894590941834e-01
-8.195776625033224239e-02 -1.080332657296940446e-01 4.659325810247437749e-01
-2.993879101461351805e-02 -6.325373519080784712e-02 4.373547676825784714e-01
-4.500872228807503012e-02 -1.019278246623777778e-01 4.541651099907494937e-01
-4.799412822956092978e-02 -8.684695660884306223e-02 4.307803512554530534e-01
-8.672474469727593782e-02 -1.099154161323594309e-01 4.799592431370914292e-01
-5.459159329923470028e-02 -1.130687819038614927e-01 4.872258254023926205e-01
-1.545304036196671650e-02 -6.779623039435005161e-02 4.404701850888870784e-01
-2.863798625416775351e-02 -5.097532416456568988e-02 4.379763741606372274e-01
-2.219301638735091120e-02 -9.540482189076172903e-02 4.537876147693611362e-01
-5.193381968610199378e-02 -1.051228418748027388e-01 4.567172423015400384e-01
-2.199539929200896443e-02 -7.805871668504071881e-02 4.421682949943224195e-01
-4.201467286359981956e-02 -1.062316175352810838e-01 4.641886821835831123e-01
-2.195885390607919818e-02 -1.009595581241372747e-01 4.601044882627510213e-01
-1.565189531575837331e-02 -1.226978744551369960e-01 5.093861919003889183e-01
-4.808356095111380318e-02 -9.767986116717268519e-02 4.446208390957033796e-01
-1.090420868373014468e-01 -9.856258721111289811e-02 4.742402422076220647e-01
-4.802707611157849138e-02 -9.348406502230555137e-02 4.364002533424446995e-01
-8.887885278877283302e-02 -1.097909725837174638e-01 4.969478980777709554e-01
-7.766909865593435262e-03 -1.235019721580045277e-01 5.024436463375941964e-01
-6.569140824719707505e-02 -1.028935246357289141e-01 4.303030585322369928e-01
-5.766420525654530893e-02 -1.108329581928103602e-01 4.740604020398999086e-01
-1.834213569631683999e-02 -6.139597997384736716e-02 4.390737086693783375e-01
-9.743622178544764090e-02 -1.054562475410112526e-01 4.675557566621189043e-01
-7.773737489482036855e-02 -1.080866582740320631e-01 5.218332617984340338e-01
-4.349617074853377036e-02 -5.820156908745796609e-02 4.333525183566292460e-01
-8.888589544097685868e-02 -1.013335663256029334e-01 4.514722245451160965e-01
