-6.241114367127240103e-02 -1.070808658829468518e-01 4.576005503201237556e-01
-5.492396440130974805e-02 -4.083275814912240564e-02 4.422259191254374056e-01
-1.092654181845990891e-02 -1.136231672237724005e-01 4.748018066149045646e-01
-9.912903566071989969e-02 -1.073379626756424954e-01 5.017391201691997482e-01
-5.375483372795580167e-02 -8.569046533932637988e-02 4.260318967340093743e-01
-8.344215575113989036e-02 -1.082887496141748812e-01 5.149942944650518495e-01
-1.807653374568618737e-03 -1.254005062799646852e-01 5.084861156735959176e-01
-7.670250051832885885e-02 -9.832124494540048221e-02 4.294884487710745047e-01
-5.140244650917639990e-02 -3.080875472325238229e-02 4.384238795597922289e-01
-4.304032733814332906e-02 -8.094687378382060816e-02 4.347992780748082819e-01
-4.785030208413999092e-02 -1.149742724442741337e-01 4.937923573963420854e-01
-4.893551567232061472e-02 -9.151457350147279568e-02 4.308208204622344661e-01
-5.834158977768887783e-02 -1.072765889063444639e-01 4.591640127086283329e-01
-7.070223328957078723e-02 -1.102240604019146530e-01 5.229803627103967179e-01
-2.826439653645409708e-02 -1.014397875474466471e-01 4.607511458667524207e-01
-6.941265193923042837e-03 -1.236970306878415887e-01 5.337552200846046313e-01
-8.946615232723245659e-02 -1.011387936542065963e-01 4.516720601985391159e-01
-3.915887168597761286e-02 -9.894731350252297664e-02 4.526704244005486655e-01
-4.921418363246807259e-02 -1.107421007501535742e-01 4.738941062898370249e-01
-5.083003266752245120e-02 -3.012622640550455602e-02 4.379139335477568173e-01
-4.939309358818715079e-02 -3.906308649699477553e-02 4.365961506529206781e-01
-5.358376289476694115e-02 -2.626277084225024996e-02 4.442089129124461300e-01
-1.785762917008600764e-02 -4.460599584996329664e-02 4.388895660787687225e-01
-1.104093859406377054e-01 -1.012007814565453606e-01 4.955998726010350519e-01
-2.050945557120076312e-02 -1.216992890609186057e-01 5.133612760694005184e-01
-2.736501843390489949e-02 -1.177884309324735701e-01 4.958607687986107959e-01
-3.143071865929857739e-02 -3.437329059806366882e-02 4.374901174466019338e-01
-6.397122363357045371e-02 -1.067320776291765388e-01 4.561507923542320597e-01
-3.212899487983339464e-02 -1.117917208787627265e-01 4.784060704155032595e-01
3.385480343913131220e-03 -1.248653387656847719e-01 5.036793596230189074e-01
-8.222274142510289929e-02 -1.022879594061712055e-01 4.467945388753005731e-01
-9.277068544717780030e-02 -9.276401429697871126e-02 4.517460566119909648e-01
-2.418438119334462288e-02 -6.232682495581524235e-02 4.383352668504529315e-01
-6.796467944224511559e-02 -1.117562554677875297e-01 5.204168174146203141e-01
-1.028368853500347124e-02 -1.184255029234752843e-01 4.849295895050468874e-01
-9.265632727989575601e-02 -1.049945939709696352e-01 4.609937918399834023e-01
-5.699786296926804413e-02 -8.477562574870924073e-02 4.246939861366400004e-01
-3.475515393890603322e-02 -1.114330306651428321e-01 4.776310934417419274e-01
-7.456483097279190120e-02 -9.766105772174124566e-02 4.274303093240193752e-01
5.054501171225434311e-03 -1.265787012276670676e-01 5.154505650265985839e-01
-1.061214604213697038e-01 -1.059391380440046493e-01 4.884592531236692792e-01
-8.820521477029077961e-02 -1.079021032066327518e-01 5.107203818040988441e-01
-7.432556041606083741e-02 -1.122944007920139570e-01 5.016788595344205959e-01
-3.715085764760861498e-02 -1.128018734855547184e-01 4.825822946702932881e-01
-7.197746134941608587e-02 -9.846180836425572069e-02 4.262516079997769602e-01
-6.408593459713529672e-02 -1.132206642069428226e-01 5.168839018660885687e-01
-7.239977169176739502e-02 -1.102702795876587399e-01 4.734690335020645957e-01
-4.988637640763346481e-02 -2.832891495835832690e-02 4.374551723184895713e-01
-4.506494553729217811e-02 -1.163325662985021935e-01 5.035697414463521371e-01
-5.078986127429663266e-02 -4.416403289393374537e-02 4.359490854557086514e-01
-1.849739422269429043e-02 -4.673939086892968386e-02 4.390013699040456463e-01
-1.013944586449915253e-01 -1.074719789706723855e-01 4.898258666087785818e-01
-7.873598330538479281e-03 -1.248309274310641925e-01 5.242906584595997677e-01
-5.356633416355332383e-02 -7.706211522547491699e-02 4.271661904116720310e-01
-2.156663679847609094e-02 -1.169672905817492198e-01 5.473990623799366295e-01
-9.983042815959003446e-02 -9.032469988569158392e-02 4.629869122285406591e-01
-1.015108071047319677e-01 -1.074213779743963260e-01 4.874969716753426163e-01
-2.770558916426075005e-02 -7.884622201295957145e-02 4.412474781860938888e-01
-7.784284331485467889e-02 -1.094615353542993663e-01 4.693624456134560807e-01
-9.252328576672982918e-02 -1.077035100852031940e-01 4.699596927631889964e-01
-2.557317914283565446e-02 -5.513212914611283211e-02 4.379485976625408505e-01
-1.850343178061688090e-02 -1.212395707192190086e-01 5.309122170361054716e-01
-2.851547420764554905e-02 -1.175617196684872606e-01 4.955646354417493349e-01
-5.960042923714640312e-02 -1.134925120578688801e-01 5.219570041181577080e-01
-7.257066500512814045e-02 -1.118792098266132989e-01 4.873935826896331758e-01
-2.607372408356615351e-02 -1.175275554395126820e-01 5.414881928058064009e-01
-2.601468523726021415e-02 -4.835576001623820980e-02 4.385708904362662364e-01
-5.181152687694674797e-02 -1.154878426980859019e-01 5.135780852064272262e-01
-1.104158087149283013e-01 -9.544306238519704999e-02 4.782460085488413060e-01
-5.794278473766403120e-02 -1.087520099534264734e-01 4.649432586061599260e-01
-4.708562230303242613e-02 -9.271461208073765448e-02 4.361733121276724634e-01
-6.930701718640452924e-02 -1.024777400519032294e-01 4.307749897284564589e-01
-5.482487742574674444e-02 -6.115612414827918675e-02 4.311171629215651557e-01
-2.816556591310198643e-02 -7.613066053698980262e-02 4.400635484871571745e-01
-2.025791646616954475e-02 -1.095636809898881958e-01 4.716462040140766976e-01
-3.136401379871261302e-02 -6.586766322258408302e-02 4.373114765496038392e-01
-2.267677020757049439e-02 -6.619129409531827879e-02 4.389675438116921735e-01
-6.504308284211945956e-02 -1.128106934036259973e-01 5.186571374615238650e-01
-3.032134711443708677e-02 -1.189139955492386214e-01 5.236366170781193707e-01
-2.722069482793436704e-02 -1.198496507693437990e-01 5.211398344858453324e-01
3.637082517083414096e-03 -1.247893176617111410e-01 5.033881558526939193e-01
-9.162484372274107280e-02 -8.688948362192824848e-02 4.542891110807111832e-01
-5.506775716538484661e-02 -1.108320863402418727e-01 4.722941832431108433e-01
-6.957251916368822897e-02 -1.099116979095251107e-01 5.253782621102400796e-01
-3.528230399889632773e-02 -1.182683322085490984e-01 5.196224677719278873e-01
-3.930836226534523831e-02 -1.129275883792938834e-01 4.837403528886690673e-01
-5.503978417175380000e-02 -1.093377883728658267e-01 4.671461156658079372e-01
-3.171886781887361256e-02 -1.189573261205735810e-01 5.198170994552419044e-01
-4.039138025528726805e-02 -1.125264071495510471e-01 4.825887855941478066e-01
-5.895886869975790895e-02 -1.144393459447213546e-01 5.111649702028722153e-01
-1.272753537775716919e-03 -1.229630751224714963e-01 4.970465214495290995e-01
-1.034166665125594436e-02 -1.207602136992550340e-01 4.922038964765456104e-01
-4.903531669608596211e-02 -8.701926471538616592e-02 4.297999359281405307e-01
-4.592119435194161325e-02 -1.163804417328637847e-01 5.173500366791619065e-01
-4.776023729498860004e-02 -1.149837007457216731e-01 4.937950019620295783e-01
-6.173036852853513307e-02 -1.043566332026797938e-01 4.344847103006490019e-01
8.879889795065699660e-04 -8.925776804991018831e-02 4.505335068455746383e-01
-7.951794918889695113e-03 -7.298994297937090592e-02 4.424586456227932452e-01
1.260583969792928097e-02 -1.263108521615408653e-01 5.223037823822366255e-01
1.160612234226781475e-02 -1.261347854734689578e-01 5.181345439842786060e-01
-3.437465880855093692e-02 -7.054655818266777900e-02 4.365956389700965112e-01
-7.222826330839157705e-02 -1.054585739925783111e-01 4.506257374121593884e-01
-3.103537334899082734e-02 -1.162946861056981807e-01 4.919973096939416757e-01
-1.035737701831674351e-01 -1.063451124796582214e-01 4.977384705978695201e-01
-6.539148236047112595e-02 -1.083843342489163031e-01 4.628436634061489641e-01
8.491151229789366955e-03 -1.231079574994804193e-01 4.992845269446979928e-01
4.574200598809054046e-04 -9.388866581517850418e-02 4.532789788447919022e-01
-3.269210013043163943e-02 -1.184438097913128735e-01 5.236376133798553711e-01
3.089404527582371909e-03 -1.154573425274827703e-01 4.773567094967066105e-01
-1.042609893475458099e-02 -9.594086636905556353e-02 4.534251013491013005e-01
-4.660660575914125220e-02 -1.077505882352509797e-01 4.646394006242939301e-01
-7.375223812456441208e-02 -1.122932629043909419e-01 4.994590884213342408e-01
1.502346794859893940e-02 -1.253381144911261402e-01 5.373383340690235377e-01
-1.505489358246728596e-02 -1.179459575716527292e-01 4.867179657007432714e-01
-2.599720902633021261e-02 -8.829937169930718310e-02 4.463193284206329325e-01
5.656086172385973825e-03 -1.266458167328149975e-01 5.274606941698739559e-01
-8.347937691735779486e-03 -1.055261640129197959e-01 4.626463075142576709e-01
-5.450087640110860832e-02 -4.072794990655020930e-02 4.410114866024592017e-01
-6.436411629673219337e-02 -8.225587088559255244e-02 4.244451495215587067e-01
-8.558899462112960765e-02 -1.102316603714139920e-01 5.010082358895124877e-01
-1.066589161374085493e-01 -9.358691859353569786e-02 4.705852192044643889e-01
-4.386189888231729200e-02 -1.167611014315344947e-01 5.142807467901080454e-01
-1.550676698830387099e-02 -1.228433762888113123e-01 5.228033282840082174e-01
-4.494506424420556534e-02 -9.598465274123116342e-02 4.449702065380232163e-01
-2.181774767899402612e-02 -1.209564582237665914e-01 5.062458722039241410e-01
-2.714880391822143205e-02 -8.540643307946881035e-02 4.444831929337847987e-01
-7.158671535704114186e-02 -1.115668959182005288e-01 4.822084738655523228e-01
-4.667318011794220622e-02 -7.034413837116780532e-02 4.309864992059754263e-01
-3.733173435154718556e-02 -4.031158498318104105e-02 4.356375395008258433e-01
-1.845718916931788842e-02 -9.722050585123070965e-02 4.551916829235799211e-01
-4.896355383030636527e-02 -1.159397109857642910e-01 5.141776713747617800e-01
-1.236152933518534780e-02 -1.180062310755006644e-01 4.848751988132712909e-01
1.824384125366251960e-03 -1.266868445075492455e-01 5.258672990445365514e-01
-1.002903906731468092e-01 -1.071448356646003963e-01 5.000823879892355439e-01
-9.378412608309696918e-03 -1.234455913183721554e-01 5.336969044506397752e-01
-5.803131696553603946e-02 -1.028613022307064695e-01 4.397715187462054587e-01
-5.167762321145669829e-02 -9.877767668544781832e-02 4.344532037885188158e-01
-2.145434952366818276e-02 -1.191655836629344350e-01 5.393004555024000224e-01
-3.849255448781331579e-02 -1.100344032681028761e-01 4.746900579340179727e-01
-2.435698548182587894e-02 -6.020831464744528377e-02 4.380999977575967264e-01
3.234472468789195351e-03 -1.032336837340646490e-01 4.615009675649666687e-01
-7.270445609923398278e-02 -9.128662311574754773e-02 4.223449294919518482e-01
-2.393945349130336894e-02 -6.016005308426787546e-02 4.381664792094767669e-01
-3.553690893323869365e-02 -3.379079211149341871e-02 4.365210517960010916e-01
-2.144805045207897817e-02 -5.178701585356380865e-02 4.387112108775431674e-01
-1.574474683555381407e-02 -1.231414838465396400e-01 5.161450845663988485e-01
-6.068439088528070069e-02 -1.041265217086281558e-01 4.301825109260437596e-01
-4.138649088784409485e-02 -7.539987840359560489e-02 4.343746049011604216e-01
-7.625340116757339803e-02 -9.309630185666914470e-02 4.273477912017368263e-01
-2.690625275738012939e-02 -5.112662787506942058e-02 4.382039041410504265e-01
-7.145404274539257639e-02 -8.836365533313553233e-02 4.228916089222087837e-01
-5.284746617163945531e-02 -1.140187234732342181e-01 5.257460931737762966e-01
-4.987743442797220456e-02 -2.834321793968475403e-02 4.374503642629993805e-01
-3.452723379317412106e-02 -1.142525644910055982e-01 4.860663399208787760e-01
-6.676624552512150368e-02 -1.038511930355836693e-01 4.346835454620369688e-01
-2.449476930357302393e-02 -8.626766995867182763e-02 4.454782781799579983e-01
-4.913360941732653094e-03 -1.256810184864234348e-01 5.197911372632104676e-01
-3.381605564098882216e-02 -5.947214897651987436e-02 4.364291709280769815e-01
-9.182232489509983830e-02 -1.089500702071889010e-01 5.023703084026679422e-01
-1.030558868524131602e-02 -1.220540368124055780e-01 4.971781887184814064e-01
-3.427181046749645105e-02 -9.784649398493337757e-02 4.537043169546662313e-01
-6.926898542204854015e-02 -1.060855107464755004e-01 4.530233351244724593e-01
-8.748862991310753234e-02 -1.071569745955197883e-01 4.640156263889203547e-01
-3.346049538227698072e-02 -8.611949661659050459e-02 4.431258366139861904e-01
-5.785060348181893242e-02 -1.096519983615147631e-01 4.679944085480564619e-01
-7.072695927800408400e-02 -1.045114356407838146e-01 4.431032792687110700e-01
-2.677346870764994724e-02 -1.201093205937249775e-01 5.169668228098024398e-01
-1.555053875920643647e-02 -9.332823751817184710e-02 4.508695476248310019e-01
-3.826638572069751554e-02 -9.532937354705774136e-02 4.487403578477864863e-01
-3.773097676865258283e-03 -1.234414854105544690e-01 5.368415853198048593e-01
-3.762235527262436374e-02 -1.120323589940720455e-01 4.803786986168351314e-01
1.220282061985397681e-02 -1.263543215676086462e-01 5.226285674410154902e-01
-8.710592778650456947e-02 -1.009656562100737925e-01 4.478150819823509265e-01
-8.193225829048583764e-02 -1.108881163630122124e-01 5.014813547312250153e-01
-7.106337748468993798e-02 -9.917222857915637679e-02 4.260726585104736563e-01
-1.314916900277925127e-02 -6.644292487572536765e-02 4.404138167921969882e-01
-8.715929318288226368e-02 -1.023825288490479990e-01 4.498715278009711716e-01
-3.333253538681037881e-02 -1.088478543376169561e-01 4.719490772213136287e-01
-1.052217176652874148e-01 -9.822096802536667282e-02 4.660154998517948566e-01
-4.980879283257257095e-02 -5.291112970313382319e-02 4.341088769381708512e-01
-1.947946707154449677e-04 -1.259679096196817116e-01 5.299602025740647315e-01
-4.370854914761244936e-02 -7.804122474137228926e-02 4.335243420124931246e-01
-4.102610626813423672e-02 -1.172616672012061351e-01 5.137465992862869646e-01
-9.538409444298649731e-02 -1.069486544598784727e-01 5.075805184424901917e-01
-1.320285826681403402e-02 -9.257206649798127573e-02 4.502553996999666408e-01
-2.280918907620772818e-02 -1.208495515367853518e-01 5.223163528871451744e-01
-6.666810832933772746e-02 -1.089108186242260662e-01 4.655295902707684008e-01
-7.214042288317178142e-02 -9.438623149525170175e-02 4.236233718832007611e-01
-4.001447790260740517e-02 -1.131542487128610885e-01 4.846196155580659304e-01
-7.548825437926980075e-02 -1.040724725914164428e-01 4.443373159387818405e-01
-2.688459897875812576e-02 -1.172434374415291108e-01 4.937041580120367090e-01
-5.457338217789688140e-02 -1.017210778061836129e-01 4.392901167461423784e-01
-1.692390927028918080e-02 -1.226938624541759199e-01 5.126485026587148663e-01
-3.795243467255637188e-02 -6.525839205249620023e-02 4.350893629281926689e-01
-6.087518968909240435e-02 -1.115514352343634080e-01 4.769156407199152126e-01
-6.023466145789481418e-02 -1.138197990500939699e-01 5.182676166731516876e-01
-5.490739815050423717e-02 -1.027222430311405810e-01 4.360096505868117367e-01
-4.851173013860884953e-02 -9.177563795671020430e-02 4.316469109110958602e-01
-1.510080537750815508e-02 -1.205346233995899796e-01 5.412795972109871734e-01
-1.001389815159652308e-01 -9.539317317875688207e-02 4.598301615873399140e-01
1.434399795706716579e-02 -1.250554891081646913e-01 5.388436138555875443e-01
-9.341884669289389487e-03 -1.176748868285434346e-01 4.824693530223068128e-01
-3.696536789485197622e-02 -7.788734313454571956e-02 4.374968701101694668e-01
4.948688551171965405e-03 -1.254268313477732988e-01 5.075507807975310204e-01
-1.018732568524568921e-01 -1.066406075759671196e-01 4.793944235839390222e-01
-4.203696618358924303e-02 -1.168517639655038270e-01 5.050331371065784891e-01
-2.402836474774192044e-02 -6.044994722334282727e-02 4.381793721317756574e-01
-9.232595333413282784e-03 -1.199204589437155855e-01 4.890839091331312671e-01
-7.143991148254030810e-02 -1.125115756103677589e-01 5.062261741566754791e-01
-4.817445791133689870e-03 -7.996079172494487131e-02 4.455243724691119733e-01
-3.062017930288110645e-02 -8.072192725552625181e-02 4.413104547949058265e-01
-1.061368344228728472e-01 -9.530913855049920336e-02 4.682014157778934260e-01
-5.756870481368984299e-02 -7.381262611648931049e-02 4.267009324867793163e-01
-8.285456530748995518e-02 -8.971736467396138059e-02 4.380689306449361831e-01
-6.128865267405417261e-02 -1.140636141367284001e-01 5.053880374704600165e-01
-8.543822054332203542e-02 -9.730625664875171277e-02 4.437303858219719399e-01
-5.826179743582460269e-02 -1.145325118085917249e-01 5.146129338605488490e-01
-6.043530013975969423e-02 -1.125143010862922344e-01 4.844993172737111498e-01
-3.422448367959868287e-02 -7.195797392902632261e-02 4.367893108649929523e-01
-2.360595707991192810e-02 -1.093907363946663297e-01 4.724038527570528223e-01
-3.583975507124785576e-02 -1.111923379355880814e-01 4.772867581137217874e-01
-2.002707686613623000e-02 -4.153626685081911879e-02 4.390951631807155087e-01
-4.012059166100124391e-02 -1.173650024070295173e-01 5.087202778860904218e-01
-2.799894886595482094e-02 -1.169355434715848158e-01 5.420591417367974785e-01
-1.426081435557018454e-03 -1.257803675723454806e-01 5.101445562917076293e-01
-8.167110770699811950e-02 -1.112732505600741578e-01 4.915477777913437318e-01
-7.751357817548273910e-02 -1.113362058005149258e-01 4.824094587428712222e-01
-1.065606906888611621e-02 -1.031105853563609176e-01 4.599994063316802384e-01
-6.754608390446104060e-02 -1.130575330334405576e-01 4.995187640255807637e-01
-3.267362811482429907e-02 -1.174941956514506253e-01 5.330550494538919271e-01
-6.956738263739750683e-02 -1.067928028703896276e-01 4.566139890838981086e-01
-4.565482950271955789e-03 -1.252028966660327092e-01 5.288041511589425259e-01
-3.278635684022210284e-02 -1.053477857052761008e-01 4.656915937902019742e-01
-3.021299919319869742e-02 -1.114880700573706029e-01 4.775977903245202660e-01
-6.573990817744826409e-02 -1.133769952268827985e-01 5.120857046563788151e-01
-1.702678819066561974e-04 -1.035303647902816176e-01 4.614710024726930149e-01
-8.542177214002026620e-02 -1.068120811791891805e-01 4.612677251956592839e-01
-7.311670631215394511e-02 -1.090324785544908442e-01 5.246568225370578098e-01
-2.610344774495299003e-02 -1.200560741128214315e-01 5.219704360365031715e-01
-1.049598019481246952e-01 -9.391667875243679686e-02 4.676509592260734149e-01
-1.081163199968407790e-01 -1.033654952200356997e-01 4.813707716266995007e-01
-1.074904363767776316e-01 -1.031209781625844063e-01 4.783792963422815459e-01
-3.652964060161671689e-02 -1.165994926811214222e-01 5.329416750880091591e-01
-9.208523909778779104e-02 -9.832076917924401083e-02 4.518795144648255491e-01
-7.878399423238237331e-02 -1.088141913883732964e-01 5.189037947425425568e-01
-1.521573979638906823e-02 -6.323755291539780166e-02 4.395519361404148229e-01
-4.808356114127283754e-04 -1.264761728120652462e-01 5.222682091218965317e-01
-7.776036508909764389e-02 -1.115992993908647424e-01 4.906805999247210726e-01
-5.187433541625795230e-02 -1.092898322656645077e-01 4.671424740337930537e-01
-4.428479494598363403e-02 -1.166774339356211332e-01 5.169896234615949382e-01
-4.228947956721383628e-02 -8.385696276312733233e-02 4.367626208103906893e-01
-4.288227871863230928e-02 -5.430642018709456315e-02 4.345602771225637317e-01
-2.594725840306394762e-02 -8.208103513683850938e-02 4.432029162761728647e-01
-4.791598682706801893e-02 -1.148442601766989091e-01 5.273148035901945585e-01
-4.665489067886578745e-02 -7.506685577945061694e-02 4.309620419009663750e-01
-7.866638275969368987e-02 -1.115877613822681275e-01 4.970781360009690064e-01
-1.022955528508820294e-01 -8.904632213629111448e-02 4.685511582922813334e-01
-4.124742711474085194e-02 -1.073973080204938396e-01 4.660066196638935065e-01
-5.682644072493449328e-03 -1.252730152897416349e-01 5.122452525245928534e-01
-4.642013938451250432e-02 -4.365075258518209128e-02 4.351954726910958193e-01
-4.580741804307241621e-02 -1.056777034016468664e-01 4.604886652324300389e-01
-1.617733572148909171e-02 -7.079374946686800563e-02 4.409978929358854827e-01
-8.348409915642876489e-02 -1.064401407344920947e-01 5.202346552929729695e-01
-4.459320792677432671e-02 -5.202545909128926394e-02 4.346021162242669766e-01
-1.050351773168664710e-01 -9.065060427991024350e-02 4.713782829194501089e-01
-2.313586822186831579e-02 -1.195779068889389479e-01 5.346146368677452410e-01
-1.708220669485955440e-02 -1.213914076260333291e-01 5.334479341715735456e-01
-5.642987931218945014e-02 -9.645093886912503578e-02 4.240508036756124310e-01
-2.146384464763968075e-02 -5.015906945930538596e-02 4.388437231755694112e-01
-9.788195924715037410e-02 -9.574557379558329417e-02 4.572055768319910340e-01
-6.493836019893303724e-02 -1.075174730380076688e-01 4.590969876180444054e-01
-8.864688625748316786e-02 -1.085927801175994994e-01 4.700994881229796918e-01
2.518650326107508934e-03 -1.263393129573106288e-01 5.116792181601393930e-01
-9.725837006431212184e-02 -1.074127080266901318e-01 4.736905903524984418e-01
-2.009100855795583132e-02 -4.288549180402412286e-02 4.391689141163148680e-01
-3.782725403792690927e-02 -1.157897491068901191e-01 4.931896576722951675e-01
-6.577207560805516107e-02 -1.080429841128148771e-01 4.613564615344470377e-01
-4.728842503934811703e-02 -1.159527632172056566e-01 5.027391445822904092e-01
-6.536624860679129956e-02 -1.118756618109177370e-01 4.821504427932902792e-01
-4.305542610131269515e-02 -1.168921874232985297e-01 5.096844608528624532e-01
-1.009607796780048333e-01 -1.048197941897870272e-01 4.680238770010126115e-01
-1.026689361195810696e-01 -9.399249885848826036e-02 4.642960062938200627e-01
-5.207005357032017112e-02 -7.596695415466706014e-02 4.279211443623319178e-01
-2.095235937637713805e-02 -1.012316497473767923e-01 4.601562978446830932e-01
-9.953356351437875338e-03 -1.212490540852956128e-01 4.936753888196386830e-01
-4.996837144917459783e-02 -9.906647000761187316e-02 4.419253898432929373e-01
-4.106206252143734803e-02 -1.155729889266754462e-01 4.935680309920110198e-01
-4.406776065017176808e-02 -1.011024354067538017e-01 4.525916777496812315e-01
-4.472012895477107258e-02 -8.547143211854761613e-02 4.345644602527730660e-01
-7.283478132597297205e-02 -1.057648095865811461e-01 4.522078184012843782e-01
-4.094964425373012751e-02 -5.237418048774900720e-02 4.348429791070560491e-01
-6.209096143406708790e-02 -1.050598268839211952e-01 4.454451246848467050e-01
-1.253611283764671271e-02 -8.603364423240758563e-02 4.469150759968527065e-01
-3.436376435946193048e-02 -1.178728553575863064e-01 5.018945996065642401e-01
-6.480297439016091676e-02 -8.689930375240241534e-02 4.228712074743374294e-01
-7.499195784134639331e-02 -1.025556137326731621e-01 4.382564227789442768e-01
-4.093557895897163151e-02 -7.386903067716332760e-02 4.343380941019494568e-01
-8.850783702146922116e-02 -1.083662989136544713e-01 4.691311551001047242e-01
-5.777049220591253670e-02 -1.143354291422790103e-01 5.174827171747928833e-01
-1.264044968823400256e-02 -1.227800190284652759e-01 5.326279451844171398e-01
-3.272028087128582563e-02 -1.189046707958537064e-01 5.124663022250521838e-01
-2.657075302235283737e-02 -9.828892142313379321e-02 4.568794500103158240e-01
-1.024199229590119914e-01 -1.042604248486973667e-01 4.679326768206358289e-01
-1.127689554866661593e-02 -1.209744454885425397e-01 4.933337649512010703e-01
-4.466255908821865905e-02 -1.013238240452550148e-01 4.525582717608498395e-01
-3.039339029749676263e-02 -6.533101869211982438e-02 4.374392590169111084e-01
-6.324573713967061861e-02 -7.964271625868230009e-02 4.259346718146729827e-01
-9.690226593692641624e-03 -1.237756991164447734e-01 5.314300355889388650e-01
-7.161342256281355567e-02 -1.053092489527803488e-01 4.495302021157162042e-01
-3.075950615170170571e-02 -1.167680056441016134e-01 5.395093103217417640e-01
-2.034516700204920883e-02 -1.158414276325498427e-01 4.852428865296352645e-01
-3.823349466402740926e-02 -3.824471321867010942e-02 4.355861336815385343e-01
-9.455477161876080228e-02 -1.057292673497204072e-01 5.116994197016365709e-01
-8.896747401365867614e-02 -1.069626024471365261e-01 4.643709913952870916e-01
-8.446415787180737433e-02 -8.940161189983500400e-02 4.412428184116446439e-01
-2.517511253384880146e-02 -1.158042227208564423e-01 4.881452210354494392e-01
-5.933717380077439818e-02 -1.143620212805093461e-01 5.077880787302141430e-01
-3.705704404400758656e-02 -9.760426439244342112e-02 4.520759932383000557e-01
-4.895565618440672964e-04 -1.026211503828900751e-01 4.606345019009197017e-01
-8.408660870373729779e-02 -1.102578027081492495e-01 4.763017374365419720e-01
-2.208574749332287146e-02 -8.385326552939167954e-02 4.446004536266616181e-01
-3.113703571950900487e-02 -8.743337064019561511e-02 4.446487051817676894e-01
-3.139297497316857061e-02 -4.976698585415957610e-02 4.373241370920272209e-01
-5.760956030488414981e-02 -9.219969631806738952e-02 4.237116673041655956e-01
-2.715232387281128409e-02 -1.121906152291740760e-01 4.785100203558854126e-01
-8.737989130384164749e-02 -9.608291717267512799e-02 4.447157521080162268e-01
-4.977148429283672487e-02 -1.111056120202825043e-01 4.755004430303996221e-01
-5.572643646171780707e-02 -4.709969132778930867e-02 4.391807157258325600e-01
-9.170881316482434875e-02 -1.063024605828705033e-01 5.125647390730592168e-01
-5.792523647700290046e-02 -1.146178592447640032e-01 5.141078361007587194e-01
-7.612811138560783564e-02 -1.114073101390189030e-01 4.825851376071794707e-01
-4.483496024976171140e-02 -1.126691655989090907e-01 4.838625221581819846e-01
-7.661535500419082434e-02 -1.015299209384191437e-01 4.358792935184329642e-01
-9.820611138871190859e-02 -1.082725984101643862e-01 4.861077170932961433e-01
-1.552417029680594127e-02 -1.213978188488755161e-01 5.367801585893973160e-01
-2.342623011709103753e-02 -5.650783414415910116e-02 4.380584302638900751e-01
-5.977151367475041707e-03 -1.191265486290785380e-01 4.853175404735643461e-01
-9.214287446421538796e-02 -1.063008476270037445e-01 5.122174127261714949e-01
-1.011576691026587066e-01 -9.147983787921254439e-02 4.639560942091888740e-01
-1.172458339950267292e-03 -1.254378152342959796e-01 5.322439013637706440e-01
-3.940502896756837431e-03 -1.206953688502857280e-01 4.898835894972178862e-01
-6.127055315507795585e-02 -1.076671463280049895e-01 4.597419740922814024e-01
-7.454029630117547933e-02 -1.119540870731255966e-01 5.070167025336351774e-01
-2.549090970317337973e-02 -1.189845330163653153e-01 5.346160885204633839e-01
-6.539099546460747092e-02 -1.117301358639519460e-01 5.229354598365797413e-01
-3.250230885698050104e-02 -1.189196466440413935e-01 5.136846477018991441e-01
-7.824914694503085077e-02 -9.117711851413480562e-02 4.302138944112472996e-01
-6.981598486440539209e-02 -1.093107160685049956e-01 4.674892150689273218e-01
-8.700022124839119908e-02 -1.013354007754762171e-01 4.482329062670516451e-01
-4.690781287654571807e-02 -6.430062649219900339e-02 4.313984102006884758e-01
-7.335929492732871579e-03 -1.233437437016920851e-01 5.352785992120128178e-01
-7.429218947552386834e-03 -1.250024954377205177e-01 5.233748092696089982e-01
-5.110009710289317025e-02 -1.048398644140450114e-01 4.550655993702946156e-01
-6.447378771245394768e-02 -8.778302857596785580e-02 4.226828619044180613e-01
-5.722309703262547231e-02 -1.080760073289371986e-01 4.624654014724505768e-01
-7.636028589013593715e-02 -1.102738949413369779e-01 5.166806456835488781e-01
-8.000631666460316857e-03 -9.442734018200134305e-02 4.525160692202709334e-01
8.270277721847690486e-03 -1.232941509809484942e-01 4.998502543518704710e-01
-4.444842526972912072e-02 -1.165718867921142488e-01 5.071144406500810442e-01
-6.942888378862221987e-02 -1.113329813022466835e-01 4.795994596103479446e-01
-5.138071292455939632e-02 -5.789899125527853130e-02 4.325002519969989301e-01
-1.468075454570300087e-02 -1.187882592274450977e-01 4.883567165879124095e-01
-5.571678088419293462e-02 -8.022761127154968974e-02 4.258174976165740588e-01
-1.361300746365952385e-02 -9.185565547903526418e-02 4.497817566890011665e-01
-6.481596497013210334e-02 -1.127398510796423919e-01 4.902442763473079390e-01
-8.001879971741711339e-02 -1.082097996740482571e-01 5.191776755115472541e-01
-2.996035883430106170e-02 -5.536327456838938815e-02 4.370611334271481963e-01
-6.206446206519863895e-02 -7.655344050546972201e-02 4.265340568225807205e-01
-4.303352675491314838e-02 -4.090391844744994954e-02 4.352732030559208209e-01
-1.023872726554180546e-01 -9.013241816223502290e-02 4.675075698451897077e-01
-3.542490245849622826e-02 -1.162983865087397067e-01 4.938788318618226314e-01
-1.269133644784772516e-02 -1.207146298315917160e-01 5.423057273951302770e-01
-9.647207812770725033e-02 -1.087231567821592831e-01 4.878503784552271072e-01
-9.077064133539533564e-02 -9.998628633158446188e-02 4.520976501907635892e-01
-6.745689587883431371e-02 -1.127195284691014515e-01 4.928936144551654963e-01
-9.624544953709008102e-03 -1.241745130056534779e-01 5.266456735910404197e-01
-9.842146492735008578e-02 -1.073198363471990074e-01 4.754107716835581643e-01
-4.543243977881109008e-02 -5.677539698498908216e-02 4.334093688802347910e-01
-8.235649568803556086e-02 -1.112029070553951088e-01 4.858131204791111823e-01
-4.761789133718870998e-02 -9.111794242628708240e-02 4.328700344030256275e-01
-5.612506328477316619e-02 -1.038094738639455256e-01 4.292734262093043651e-01
-7.024470302346894068e-02 -1.084541204324415975e-01 4.635879391055522936e-01
-6.183127097382300902e-02 -1.136988103198445926e-01 4.982597922333525386e-01
-5.863331148482736621e-02 -1.073190409277797464e-01 4.592276424577229066e-01
-6.306376137021375838e-02 -1.137405112880309349e-01 5.137356465658377003e-01
-4.943606958008955887e-02 -3.368153158882125631e-02 4.374297133080458089e-01
-4.721814645485616913e-02 -8.571731040712253502e-02 4.311556703040851368e-01
-4.965672967829790063e-02 -9.879164823577382681e-02 4.419691421836852707e-01
-1.531246772503043474e-02 -1.049982857777474188e-01 4.626820439094521120e-01
-1.227407342181898418e-02 -6.987645108434804853e-02 4.412402218751498295e-01
-8.362650814990126025e-02 -9.866035658758777471e-02 4.424256584828921701e-01
-2.885125618842420119e-03 -1.254190765301918808e-01 5.300590063337283775e-01
-1.084341094744406958e-01 -1.042986984896157598e-01 4.973451949145851203e-01
-6.491825799794434526e-02 -7.553066407878412936e-02 4.289321984851106606e-01
-1.014843994759967172e-01 -9.022882885255573138e-02 4.658665333240881723e-01
-8.943534808277438242e-02 -8.924015536629209544e-02 4.486551026857772961e-01
-9.903507598169362935e-02 -1.072750640772186514e-01 4.763405026134482911e-01
-4.399989244399841321e-02 -1.106808161409471858e-01 4.757625835111294332e-01
-2.994378523230839181e-02 -1.194517092232958294e-01 5.133114722562015508e-01
-5.089153413114793495e-02 -1.063481206106269561e-01 4.595792541936231657e-01
-5.916900171302411082e-02 -6.304618024001151788e-02 4.326606177004297948e-01
-8.464461562435190989e-02 -1.096010241258751211e-01 4.720600573901162500e-01
-6.479866520890989467e-02 -7.687243578120717125e-02 4.282192439185092958e-01
2.248606498183786540e-03 -1.164722614168128556e-01 4.791338185175848530e-01
-1.011523631511195426e-01 -1.053736196639193379e-01 5.047451105832212459e-01
-1.563888727913544455e-02 -1.074260198354590468e-01 4.659366685458781743e-01
-1.635228063444665869e-02 -1.228194311966138846e-01 5.192806098031386153e-01
-4.014978077357932856e-02 -9.801375577604870548e-02 4.507849321790358688e-01
-4.283828258624155366e-02 -8.692994185553236386e-02 4.380408918183134048e-01
-3.284209496263330516e-03 -1.238436617011221541e-01 5.358880323444801252e-01
-4.348642372091590658e-02 -1.159191602154649586e-01 4.961617576527959095e-01
-5.178252678964824496e-02 -4.854137610789281687e-02 4.354022463183591096e-01
-9.972128783005293484e-02 -1.054804435993859646e-01 4.688408682275337913e-01
-5.505216112967274700e-02 -1.147646238787729256e-01 4.997972661871259437e-01
-6.819697877831336352e-02 -1.124375066590876660e-01 4.902108031367378715e-01
-3.217037602020828696e-02 -1.186287004836115988e-01 5.041863252169855869e-01
-8.755086176376782048e-02 -1.098736400221733689e-01 4.765053206965751409e-01
-3.317143221456320124e-02 -1.178611892560605529e-01 5.002540769397200160e-01
-4.267054108999700224e-02 -3.740761145196179471e-02 4.352859789264190149e-01
-3.188243364699603483e-02 -4.112533709071715393e-02 4.374006619335788493e-01
-3.312195053218591062e-02 -1.114518362300941090e-01 4.775988296153648172e-01
-3.106968601420043857e-02 -1.089534678228372411e-01 4.723509108902365639e-01
-9.300317032076199641e-02 -1.076995647293178537e-01 4.703427019809301446e-01
-7.419777733622465177e-02 -1.095142962767413769e-01 4.693405214956977156e-01
-5.241453195304691254e-02 -1.122345973675052816e-01 4.808962302373119835e-01
-4.985238079382404291e-02 -1.022578324641227610e-01 4.499970223827797766e-01
-7.371308370958890022e-02 -8.996221336862934848e-02 4.237286170173022448e-01
-9.570907140670635582e-02 -1.089171285454592492e-01 4.906941906742445791e-01
-5.461413845222257146e-02 -5.099341928948562808e-02 4.353650697406378778e-01
-7.301690405916573534e-02 -1.117307867773958269e-01 5.125954338331788485e-01
-9.132186668092574788e-02 -8.460502206066837505e-02 4.559314078220655930e-01
-7.063955652251296957e-02 -1.125915066037792428e-01 5.082825765998346679e-01
-2.315815147371727903e-02 -1.016047244814608785e-01 4.609621709396728995e-01
-5.636696479728598580e-02 -9.589920264903535607e-02 4.241020881138805043e-01
-6.483011542943895034e-02 -7.348796760067950740e-02 4.291573731680747295e-01
1.144848931036392993e-02 -1.266417296059585695e-01 5.281275377423552131e-01
-6.549999561507272028e-02 -9.003565557205470138e-02 4.220578335853142349e-01
-2.066229920845895004e-02 -8.173733670362706705e-02 4.438599455504500524e-01
-6.915066703961565697e-02 -8.231640736280092241e-02 4.261434211971459884e-01
-3.807978092895886180e-02 -8.882626709357785422e-02 4.432312013499439263e-01
2.098115812433382077e-03 -1.118671794535972680e-01 4.713275341043573485e-01
-4.113469262504700769e-02 -8.658632166519829310e-02 4.393389532469711978e-01
-3.500009699640659055e-02 -1.169241975061746791e-01 5.332911409861226248e-01
-4.100257155938562270e-02 -6.036368670978837364e-02 4.341703120816166606e-01
-1.187393987582307728e-02 -1.235214473395943313e-01 5.268725253777555295e-01
-2.655458887092860057e-02 -8.749774845706577431e-02 4.457485562460831718e-01
-1.038520812933210191e-01 -1.066885022262466926e-01 4.875962780164966315e-01
-7.855865938589730313e-02 -1.116104340180056470e-01 4.947034004119484352e-01
-9.622034816148910402e-03 -1.184116607379763625e-01 4.845267754192999488e-01
-4.162011069785451212e-02 -1.171497703089655062e-01 5.156591287720977412e-01
-4.963750999424445393e-03 -1.148285190384665533e-01 4.758500063239749500e-01
-2.589766721659630955e-02 -1.202858617844983630e-01 5.186640030760669706e-01
-4.907209200765039886e-02 -5.907872024298362057e-02 4.321802251757155267e-01
-1.017139302867147987e-01 -1.073721440744865446e-01 4.881300852254594203e-01
-2.487906832179712091e-02 -1.079911980111909475e-01 4.701876518922486481e-01
-9.874220770328503982e-02 -1.081418472262694885e-01 4.938849171510292235e-01
-9.093952351297114600e-02 -8.707469152752038422e-02 4.527207802017938487e-01
-3.493613804238805687e-02 -6.731892143230894243e-02 4.361606398027589870e-01
-5.110340810880975582e-02 -1.019532172943426324e-01 4.483157040960737416e-01
-2.544376833631604301e-02 -9.269030729315692885e-02 4.505460168491099426e-01
-6.822731916353873272e-02 -1.105642986411931039e-01 5.244035056238994796e-01
-3.264673452519081809e-02 -1.166879374607473346e-01 4.941607702309319117e-01
-2.123716756863633717e-02 -6.610636342369426155e-02 4.392575314294496769e-01
-3.070873101321236129e-02 -8.748692652871142839e-02 4.448181557440155087e-01
-6.389970934515783185e-02 -1.102916224192376088e-01 4.713658776697854935e-01
-8.134033505762881811e-03 -1.238346703936233084e-01 5.046765763720129083e-01
-1.691818385724315130e-02 -1.004780230342978836e-01 4.583236508796901809e-01
-4.193187829197909944e-02 -9.456332984997847801e-02 4.460914190073985708e-01
-1.489963792607748756e-02 -6.177486778526134620e-02 4.394058723862621640e-01
-4.748952530285228957e-02 -7.552076234735484450e-02 4.303893992796936074e-01
-7.839996693879790202e-02 -1.114754369766729064e-01 4.873250142332514190e-01
-4.344140359281139369e-02 -9.004432750760338333e-02 4.400575048700891001e-01
-2.827587722483450305e-02 -1.157533256367783842e-01 4.888617353575021029e-01
-5.115587621738080376e-02 -9.902072414184810711e-02 4.369899211209318235e-01
-3.555190170485416495e-02 -1.117130819971537820e-01 4.787287372705344990e-01
-6.358530186625831193e-02 -1.070696905709433155e-01 4.573299233489710458e-01
-7.815954019165224920e-02 -9.088299560091908647e-02 4.302122874389862073e-01
-3.564968570944938159e-02 -1.180945723790080143e-01 5.066126030018003323e-01
-5.996882767753459326e-02 -6.458570559296297753e-02 4.319229416961314350e-01
-3.767863700235495050e-02 -1.178531780387511579e-01 5.096877415183460602e-01
-7.094506466872282924e-02 -1.122129818665093814e-01 4.914546667833165627e-01
-4.098320704525439118e-02 -1.071706485848386986e-01 4.657456195598134174e-01
-9.865756342098828957e-02 -9.065711930847714095e-02 4.607617973722893390e-01
9.375253109144080985e-03 -1.227004687368311864e-01 4.981957727781956002e-01
-4.462419248394799282e-02 -8.654037515304899286e-02 4.351264666105897350e-01
-2.419413723059062743e-02 -1.184714334594572649e-01 4.966197653915215282e-01
-2.102248456494040796e-02 -9.212328369218431012e-02 4.501196995073401541e-01
-2.434976561896230393e-02 -7.443027341251293172e-02 4.403780363247922769e-01
-4.595145866629111314e-02 -1.111277600337174515e-01 4.770590797805334682e-01
-3.417866600268786026e-02 -6.815966142507658143e-02 4.364872195129391730e-01
-2.611963243294602305e-02 -8.200041038908172097e-02 4.431360214936617137e-01
-3.019376731103419129e-02 -7.618460068543131403e-02 4.395458844649876573e-01
-2.016058393382228614e-02 -1.171944657582738025e-01 5.478722775177859994e-01
-4.809268473399930938e-02 -1.142453597654752989e-01 4.904726598656843906e-01
-5.870492914129887135e-02 -1.131274578254933272e-01 5.244799082916755673e-01
-2.571700171815854627e-02 -1.178212608813344886e-01 5.404516768028710949e-01
-2.918132252022959117e-02 -1.176479622915051759e-01 5.370625627833855997e-01
-5.936310029545559253e-02 -1.119052706404685404e-01 4.798746152293404399e-01
-5.583539421284949844e-02 -1.037431470589739307e-01 4.336220212463692825e-01
-2.702554956847282724e-02 -4.495926679957457095e-02 4.385599950894592536e-01
