-1.927524099578999681e-03 -1.006681658049079775e-01 4.588165507736081117e-01
-5.069358380882930254e-02 -6.050389195688766347e-02 4.317198132892638429e-01
-5.858354507041342585e-02 -1.102619559984308745e-01 4.700101650578816237e-01
-2.478186357310927304e-02 -1.149451554692810240e-01 4.852090106248582724e-01
-6.232320021942190647e-02 -1.114908408973947773e-01 4.759021824573401727e-01
-7.178817539644916090e-02 -1.093087062067155113e-01 4.670723511582815513e-01
-4.973285358252559768e-02 -5.661696591494057990e-02 4.330338339505360734e-01
-8.602574258402904961e-02 -1.106790887716240651e-01 4.957989339398194417e-01
-7.565873954958854397e-02 -1.116871213990514450e-01 5.083904712882603150e-01
-8.302920555015542298e-03 -1.235547904634370919e-01 5.032062617195772747e-01
-5.371197420494353003e-02 -9.653945560000119774e-02 4.265532348056680356e-01
-6.052553837989347457e-02 -8.551875802019866246e-02 4.244779710974813103e-01
-1.137785836413997276e-02 -9.340590785437793975e-02 4.511594118482707416e-01
-8.822831752548448980e-02 -1.105032014686227054e-01 4.936189269122913115e-01
-9.016705363262554618e-02 -1.100802023229363047e-01 4.848790752617114785e-01
-8.936468416418685834e-02 -1.069776993690854383e-01 4.642305406228611764e-01
-1.940190603184134555e-02 -1.048552507601094169e-01 4.638174422445457412e-01
-6.927111824795335882e-02 -9.486511611604778182e-02 4.220292078592036145e-01
-1.242420093881243647e-03 -1.194618891373109559e-01 4.860561020412627609e-01
-2.154105986764363531e-02 -4.508114572351382132e-02 4.391515526832104332e-01
-2.145591752284682976e-02 -7.334557918729885106e-02 4.407247203372883226e-01
-4.188004940656805952e-02 -7.862325658485724844e-02 4.346907101103967830e-01
-2.504230591650096621e-02 -1.181410429909693777e-01 5.397730045567150636e-01
-7.950376550564730582e-02 -1.082739443146610581e-01 4.640781885371916826e-01
-5.133056482064113878e-03 -1.254798725407902937e-01 5.141006271452726040e-01
-8.675742329077506740e-03 -1.246381959362348746e-01 5.238083208058796902e-01
-1.865635230036708642e-02 -1.223284497551351963e-01 5.143956990512589256e-01
-4.242912964715341018e-02 -9.856087147714974461e-02 4.496513968733777400e-01
-4.789301407112915576e-02 -1.095085982135468872e-01 4.688571734288454196e-01
-5.523268092960784831e-02 -4.713212848733174670e-02 4.372470040763253851e-01
-1.418331020258985394e-02 -1.231321916841441599e-01 5.101690927919270147e-01
-5.132150776563400296e-02 -8.216167875623719974e-02 4.279717295626607743e-01
-1.071901083765981755e-01 -1.030316778987836607e-01 4.769710170427382545e-01
-9.191068320656346768e-02 -1.097191954805524644e-01 4.824880446871572803e-01
-5.285064162609088428e-02 -1.151119039494566676e-01 5.185039993487798871e-01
-3.505358768977946075e-03 -9.406921934923434536e-02 4.530186781649848671e-01
-1.143803231541476798e-02 -7.711035371010688255e-02 4.434618380886534705e-01
-3.500891898176575201e-02 -1.126932842611257368e-01 4.813253798795303351e-01
-8.387161552021601962e-02 -1.056662395269567928e-01 4.564761002245149579e-01
-6.129102246616522504e-02 -8.223334951633969048e-02 4.251780512819726132e-01
-4.421377148931251305e-02 -9.905235102647830248e-02 4.487834438451793195e-01
-3.566952846219496355e-03 -9.212247412944789271e-02 4.516037900239048830e-01
-1.076464161025704747e-01 -1.002201811279350985e-01 4.725161863890630642e-01
-3.687136179113786882e-02 -1.176839424929354699e-01 5.232999748281738084e-01
3.476141677001245295e-03 -1.089610635917457326e-01 4.677267028115438818e-01
-1.087964521553964198e-01 -9.921599618751032745e-02 4.743066526324568044e-01
-1.324554234708287884e-02 -8.106654569372145902e-02 4.445942120488061700e-01
-2.544025392881142655e-02 -1.202719690018169557e-01 5.078703820028674931e-01
-9.169995321515182762e-02 -8.942015247586647397e-02 4.522127662670692994e-01
-6.111693568151839451e-03 -1.225117944105525158e-01 4.964902912125778722e-01
-5.546421116139164942e-02 -1.056008902756158524e-01 4.532726596667476793e-01
-5.005530687190565264e-02 -8.445816544064106701e-02 4.290798921418370604e-01
-1.453220193787896873e-02 -5.941627533308253134e-02 4.392326920354440722e-01
-9.188569977680091649e-02 -9.208502134573712250e-02 4.508596081406547884e-01
-2.725285197449030944e-02 -6.595042992515805225e-02 4.381804277833022399e-01
-1.957294063831763534e-02 -5.939885532703613469e-02 4.387943823770961704e-01
-4.200238031241770864e-02 -1.070316055400885452e-01 4.649112930117396125e-01
-4.181954853620206691e-02 -6.809278000753325732e-02 4.334136131272268155e-01
-3.231463216621492662e-02 -1.164994713244134200e-01 5.390203518144471850e-01
8.092120702359017689e-03 -1.249005959062182702e-01 5.061351272518390676e-01
-1.411459125573431665e-02 -7.085930473388611650e-02 4.412853371762777699e-01
-3.825666673731944328e-02 -8.877731596545566928e-02 4.430953084295161659e-01
-5.410143083291208549e-02 -1.124683944884584119e-01 4.821356076542508973e-01
-5.586809632937331932e-02 -8.143051748157197067e-02 4.257015397579639870e-01
-6.475255706348767570e-02 -1.136004140042915916e-01 5.033522966610822769e-01
-6.440298812277346630e-02 -1.019969375003253881e-01 4.243911257740031195e-01
1.403439959726545012e-03 -1.262834678510278419e-01 5.297143887752828739e-01
8.480081265662254772e-03 -1.229597330359518542e-01 4.987313298884761825e-01
-3.066457507839171620e-02 -1.186796553467901055e-01 5.258847972676149451e-01
-5.901317446712319587e-02 -9.539278752950329510e-02 4.240155269765913948e-01
-9.776052785010177007e-03 -6.627300507958275300e-02 4.405935482791196178e-01
-5.154278477535628039e-02 -9.827053699369907303e-02 4.321180009434884561e-01
-2.702831781215817020e-02 -4.065839751760432635e-02 4.386305042611314264e-01
-2.237327684352832108e-02 -1.186020887425398018e-01 4.959878292958239676e-01
-1.043914679588189703e-01 -1.044243573225425159e-01 5.040079369681355059e-01
-5.503555097896131038e-02 -1.116602662606761553e-01 4.769950097054500571e-01
-8.002400950389506468e-03 -1.238302062276250837e-01 5.045232488670621240e-01
2.860328531519035038e-03 -1.270483856026332070e-01 5.199757244310497795e-01
-4.833363831387352261e-02 -8.940471756909024181e-02 4.308164096270091781e-01
-4.131276201111230839e-02 -1.077819377926387545e-01 4.665308976352688375e-01
-6.532207770080594722e-02 -1.124992656519614165e-01 5.205714433457570012e-01
-6.285061348173290319e-03 -1.235948275563147902e-01 5.011935133400892139e-01
-7.645528873782615753e-02 -9.396907247318028733e-02 4.274299203829076688e-01
-6.218036348864541818e-02 -1.138843337792332239e-01 5.146832778729696356e-01
-4.312597891097184194e-02 -1.137809155368324082e-01 4.871288781323780959e-01
-5.947446144814958618e-02 -1.055871194856661671e-01 4.501718668307858051e-01
-9.192239789512110515e-02 -1.096095930707652738e-01 4.798267220008032297e-01
-5.084757119199413700e-02 -5.519062584865112864e-02 4.334508719007084121e-01
-2.857108936478088695e-02 -7.626462431455353908e-02 4.400602302040231284e-01
-3.403048785670319265e-02 -1.175973915000948639e-01 4.991912104092758873e-01
-9.602504267658424492e-03 -1.228321730205657047e-01 5.366698636559744662e-01
-4.262118652533673085e-02 -9.862826520940753960e-02 4.495815284214563223e-01
-4.363003472119978375e-03 -1.233249736281059328e-01 4.989491536021569695e-01
-3.032933173709531638e-02 -3.927170741479936444e-02 4.378881571747058055e-01
-1.071290374086079633e-01 -1.057075139238915773e-01 4.942244850924392141e-01
-5.445038241211690166e-02 -1.023160626986946015e-01 4.378218958329010979e-01
-7.703852417474858251e-03 -1.244539480340155074e-01 5.083856196795754068e-01
-1.080180931273603401e-01 -1.049129172964391732e-01 4.924160807134332907e-01
-7.163665644303338076e-02 -1.097803865657512451e-01 4.695902465823843519e-01
-6.901094831538143182e-02 -1.117744835695507477e-01 4.824624590633107002e-01
-1.520902572623423262e-03 -8.398706038554140663e-02 4.476500686593447020e-01
-8.986069986983155622e-02 -9.407764112228143849e-02 4.471452376843692011e-01
-6.513812593083319336e-02 -1.127542068247665008e-01 4.897281849464020231e-01
-5.103191641107970161e-02 -9.820732350096358920e-02 4.350419986373388337e-01
-2.873952761997822236e-02 -1.074833313317658662e-01 4.699183946079250052e-01
-2.803971621300768800e-03 -1.260775293136566499e-01 5.185938118293551558e-01
-2.585832330179721125e-02 -1.188612058684386658e-01 4.989830989896730240e-01
-2.313281402412499174e-02 -7.159388202162103587e-02 4.400160527320610138e-01
-5.510613962107321906e-02 -9.457759453435689301e-02 4.252675160470471005e-01
-8.619420924137252693e-02 -1.102490998407564260e-01 4.774921546024260555e-01
-3.115054774179596558e-02 -6.111956152304446471e-02 4.370159373994239038e-01
-5.471129133714650039e-02 -6.916277790976882445e-02 4.282006249484564542e-01
-1.059117860107651882e-01 -1.052534898087253562e-01 4.827558261100497461e-01
-3.422122377637115687e-02 -8.121178452678347315e-02 4.403884673856632848e-01
-8.359807924156820169e-02 -1.111660390640773627e-01 4.909084743982862209e-01
-2.846778608277500400e-02 -6.883613415003304870e-02 4.382488125409365054e-01
-6.168083293423049646e-02 -8.159295846546357756e-02 4.252831280811176784e-01
-5.068141160292904956e-02 -1.056665907736453469e-01 4.575847138422970972e-01
-2.945944427662448156e-02 -1.137562552307833791e-01 4.826706364736459975e-01
-7.336601509198513449e-02 -1.119798526212695128e-01 4.890411503434599072e-01
-7.647344266263997326e-02 -1.103730959691804486e-01 5.162859323578208315e-01
-5.056409927989250624e-02 -9.772746997723215368e-02 4.355830999002537340e-01
-7.521242279910508866e-02 -1.109846396280805420e-01 5.144140232698085624e-01
-5.322998071826016281e-02 -5.347488077367507087e-02 4.340637877301514180e-01
-7.815381573562445172e-02 -9.485692215748825484e-02 4.290318818079527086e-01
-1.996019938339202437e-02 -1.180168586826769173e-01 5.454204216541023165e-01
-4.030415595582158284e-02 -1.132386125523005688e-01 4.847987555403052151e-01
-5.202820573668563708e-02 -8.248497860178122254e-02 4.274144474599421151e-01
-6.170871066798989599e-03 -9.922543248860429821e-02 4.568453931726484951e-01
-5.951827334935289732e-02 -1.018307296905648779e-01 4.243762283832184234e-01
-3.656292242018450295e-02 -1.164583173379380998e-01 4.950480477700312520e-01
-8.310369548560653241e-03 -1.232721636669665971e-01 5.012967608043340517e-01
-5.547360883767044060e-02 -1.149646005446721686e-01 5.156368536520252732e-01
-2.263952891964502757e-03 -8.196155175210934063e-02 4.467198057059988403e-01
-4.305165388104469082e-02 -6.929714010090581855e-02 4.328768987415217429e-01
-6.386652394783531861e-02 -8.713942292346374408e-02 4.231907681794053744e-01
-1.751258044941054028e-03 -1.260890962742933497e-01 5.258098548790571813e-01
-3.772178767196996546e-02 -7.909316804133989520e-02 4.375916342214089538e-01
-3.295389664374209077e-02 -4.095271547988760946e-02 4.370724740272168840e-01
-8.575273170659931943e-02 -1.065056500377840332e-01 4.598871787303757119e-01
-6.477850147852420859e-02 -1.136606691549630205e-01 5.052107505660843323e-01
-3.975110459656285011e-02 -1.036768726143847130e-01 4.598447686370527032e-01
-5.796732285830864112e-02 -1.146235416886098174e-01 5.086417302694516973e-01
-6.620171050805083446e-02 -1.010255433929541785e-01 4.239787890834710860e-01
-1.083699332353407485e-01 -1.044110187505283421e-01 4.975265116498420181e-01
-8.324261118713371932e-02 -1.111961543375629552e-01 4.915717777850683312e-01
-1.009324830950893009e-01 -9.497360045163563691e-02 4.615144787750213307e-01
-9.916127909018908337e-02 -8.927666334236830648e-02 4.634247061210000074e-01
-4.354107656899055406e-02 -8.135495713380019867e-02 4.343978016108108742e-01
-1.760759105489775097e-03 -1.205112309446035312e-01 4.890216515063652847e-01
-7.236066773386760909e-02 -1.065033079790325826e-01 4.548427451254051235e-01
-7.129920068177944548e-02 -1.125584857586063303e-01 5.079303393084504403e-01
-3.228088567743450654e-02 -8.460347872123950841e-02 4.427669556899196945e-01
-1.000606289690872119e-01 -1.079229827291683652e-01 4.923929741769281776e-01
-2.969953896150402325e-02 -6.439504142768551209e-02 4.375426269266447510e-01
-8.114181559229820262e-02 -1.102923230823839029e-01 4.742399126656284825e-01
-1.110502380707661940e-01 -9.986419824456824190e-02 4.820839320405893025e-01
-6.948595252844459724e-02 -1.050033963908673512e-01 4.448691661221370608e-01
-8.088167403135976263e-02 -1.043680139152907832e-01 4.506364271208849193e-01
-3.979222947327904630e-02 -1.155959097921759465e-01 5.340387022924671934e-01
-3.597221915563911243e-02 -1.097643837508718023e-01 4.736623763355309880e-01
-4.987452641285840954e-02 -9.635980253690701325e-02 4.341448425725633609e-01
-5.584249067290738416e-02 -1.123441772786475668e-01 4.817545193043938911e-01
-2.811496262505348495e-02 -1.098230602381570914e-01 4.739884278004966589e-01
-7.420329948669071585e-02 -1.035570002968614900e-01 4.405437579769295176e-01
-7.412778865942198925e-02 -1.115200449364483343e-01 5.127348641081762581e-01
-3.020971426299556752e-04 -1.016477174393696919e-01 4.598133531290010678e-01
-3.887004784870397300e-02 -3.256214291553240214e-02 4.360362798344801782e-01
-2.480139214486945520e-02 -1.026664551277836901e-01 4.625277926752949798e-01
-9.619124175529765453e-02 -8.641177182968577675e-02 4.626645639638350960e-01
-1.557640081103199570e-02 -1.111613176871687758e-01 4.725294302768647814e-01
1.056285635445718823e-02 -1.266112322910272758e-01 5.308871494116736978e-01
-1.701063382408575346e-03 -1.246862476906380052e-01 5.045749689902483404e-01
-2.859276964063604820e-02 -6.782121554179575129e-02 4.380844534114818889e-01
-6.147975857689341739e-02 -9.316460912214664936e-02 4.229169982626084789e-01
-3.752690648034030796e-02 -1.158496927546676936e-01 5.360940707601601352e-01
-4.858909797568786160e-02 -6.841878821643537778e-02 4.300974176977964691e-01
-3.498298111948042882e-02 -1.163944555632486499e-01 4.939323971349840470e-01
-3.758003778480130397e-02 -3.976208872309578563e-02 4.356668692161947964e-01
-7.054037785247173342e-02 -1.053263150596991521e-01 4.482815443403603273e-01
-1.029058547220202194e-02 -1.100899438869512997e-01 4.688013026845915254e-01
-6.128894643330971836e-02 -8.419744788694211168e-02 4.246906137700538486e-01
-3.918949318240221198e-03 -1.244299432124444937e-01 5.043365676995885671e-01
-4.444611445669937808e-03 -1.248399566581247927e-01 5.071461870119238213e-01
-2.441085934757010467e-02 -1.197476596939865690e-01 5.300784916947894887e-01
-8.974393765021315694e-02 -9.419972256393491228e-02 4.469294194960320987e-01
-3.085620965514389302e-02 -9.775284486617406843e-02 4.544858359162634587e-01
-9.525031123903026503e-03 -7.859348130312358849e-02 4.443170203377183602e-01
-9.600715455402081266e-02 -1.048471265011072656e-01 4.634369465272618061e-01
-7.901634447640190628e-02 -1.061294863794261106e-01 4.559119885204757638e-01
-1.688434388408592557e-02 -1.037885716102775607e-01 4.616765239135186549e-01
-5.189159505125262584e-02 -4.480385506716709487e-02 4.362258724657394060e-01
-6.826943696683587803e-02 -1.126214784946052011e-01 4.916250968492044682e-01
-3.043936695032888051e-02 -7.402510842282356007e-02 4.387451803001514161e-01
-5.341108075991125165e-02 -2.891030112297475474e-02 4.420504675353877366e-01
-2.355213271625147126e-02 -1.071011266610702034e-01 4.683293770832433478e-01
-6.850654096801725434e-02 -9.177339078071028444e-02 4.216193118737432410e-01
-2.575484354106641685e-02 -9.657116195892996580e-02 4.549355295606902216e-01
-5.928308720608822108e-02 -1.037600769993834021e-01 4.387158149914270888e-01
-6.768121251526285076e-02 -1.124801634216037738e-01 4.891558446042252872e-01
-5.349077980123238124e-02 -1.153220351267922328e-01 5.107449186293261389e-01
-6.890954459623929718e-02 -8.953007723014611008e-02 4.216151147831674328e-01
-9.322416809941370952e-02 -8.756688947606355855e-02 4.563353497140258397e-01
-4.208774374242899019e-02 -5.064919133403189555e-02 4.348412664957936324e-01
-5.239644718739143447e-02 -5.309865440926343078e-02 4.341204351995838207e-01
-8.380075644726536765e-02 -1.102236079014793646e-01 5.049941206820498518e-01
-6.385208518368803987e-02 -9.528206440747506722e-02 4.227466154571170587e-01
-8.883838553071123079e-02 -1.104493596784681675e-01 4.930317012851280767e-01
-5.385014741073840955e-02 -1.132630317674876430e-01 5.283898866700872388e-01
-6.158018000104312911e-02 -1.045636088562906518e-01 4.317581018624689904e-01
-9.663517876880099722e-02 -1.082352674779936130e-01 4.762846562912835813e-01
4.324910963747297631e-03 -1.229342294014946074e-01 4.971296523590465477e-01
-4.532757093518961777e-02 -9.373796121078339927e-02 4.426255181136468098e-01
-3.084576150119834950e-02 -8.519362715725889434e-02 4.434887044466330752e-01
-3.143258854985458983e-02 -4.868796585071434591e-02 4.373973806402363662e-01
-5.131655340369362800e-02 -1.123791154644108725e-01 5.333870307115383680e-01
-2.900523149536709047e-02 -3.268708814909503102e-02 4.380208972207749740e-01
-5.322013320900209621e-02 -7.077774391939914422e-02 4.282312841114008783e-01
-1.419265611510666693e-02 -1.117177149984722034e-01 4.727199774531917753e-01
9.125702384259251881e-04 -1.265978720437939686e-01 5.161062387810610996e-01
-1.605079642723819533e-02 -1.140128832413315474e-01 4.785572692115175331e-01
-6.945849679089761974e-02 -1.124546267662250992e-01 4.913278919637498743e-01
-8.991954144814538752e-02 -1.101634919336889895e-01 4.864828613135059876e-01
-5.850564580396636766e-02 -1.145142183370381067e-01 5.058294170415975621e-01
-6.294479965448963876e-02 -1.115957614073451454e-01 5.262874232843617328e-01
-5.654665051736951220e-02 -1.132593668356373651e-01 5.260909320323015059e-01
-2.982579317863290683e-02 -1.027314847811698073e-01 4.622327166319064040e-01
-4.223120646156202501e-02 -1.170812009557630068e-01 5.150590630607875253e-01
-4.833777111015825911e-02 -1.152593728917477023e-01 4.962433090605296582e-01
-4.005391783818682688e-02 -1.113744693141576619e-01 4.786503113452527103e-01
-8.895534820620014382e-02 -1.095566616801391530e-01 4.742203557160233895e-01
1.301291872686735282e-02 -1.265491630800543998e-01 5.318809523303351661e-01
-5.259414232379147625e-03 -1.255362054297466390e-01 5.216300048050878102e-01
-4.666896603338520355e-02 -8.167917770102677000e-02 4.313895793444307847e-01
-9.409201052072548033e-02 -1.078515962012065316e-01 4.717063246743757876e-01
3.968194496891280267e-03 -1.121087605734255588e-01 4.720779612239179857e-01
-1.361533886712444456e-02 -1.176581773635554662e-01 4.850345582649284171e-01
-6.565004938286844727e-02 -1.126338179652345006e-01 4.889363921979670291e-01
-2.401704909317775929e-02 -1.033669920553625110e-01 4.632534109248027110e-01
-1.032981897478261676e-02 -5.768046643243276983e-02 4.387069231989182416e-01
-6.876660227335476550e-04 -1.262030326522419199e-01 5.144191482648721170e-01
-9.022592388708748634e-02 -1.014178592216641167e-01 4.530712484779960136e-01
-7.033836713832429532e-02 -1.123104521202891309e-01 4.905921209447248743e-01
-3.416383463360178618e-03 -1.118700806423777033e-01 4.707662418913655111e-01
-8.055167906153121171e-02 -1.109186360925713960e-01 4.791138186661294540e-01
-6.941805698780893763e-02 -1.129217080785008959e-01 5.077005522476901733e-01
-3.159795778616648898e-02 -4.592999722563616966e-02 4.374298358883703108e-01
-8.492729769976697929e-03 -9.872411901183837657e-02 4.560203968094782567e-01
-3.984224768096158303e-02 -1.146817847811888030e-01 5.376282422547111750e-01
-3.020328396479653177e-02 -1.024313857296195313e-01 4.617343459465185207e-01
-5.148006951478927007e-02 -1.155868108147709017e-01 5.129718754553491689e-01
-7.478799295946725323e-02 -1.113020286788995727e-01 4.798370376615505584e-01
-5.546689994124852363e-02 -9.982094836689039963e-02 4.253925324460963164e-01
-5.667133965949613938e-02 -1.145263476523807888e-01 4.987043959445386920e-01
-7.678834044401082470e-02 -1.023271996979456949e-01 4.382330291252327092e-01
-2.209342801131935694e-02 -9.292691565900242090e-02 4.511224465878745371e-01
-5.694877329283332817e-02 -1.144503294041611802e-01 5.183690251187977882e-01
-3.779031104231288934e-02 -9.632375519265701236e-02 4.497894812527334918e-01
-5.390945000929232844e-02 -1.007695744776773705e-01 4.276493489168217699e-01
-2.833387513421233017e-02 -1.158096880360057618e-01 4.889898395222267991e-01
-5.301544462398639912e-02 -9.955730457813495582e-02 4.279459775047573244e-01
-1.394920812500073659e-02 -9.684986706892133312e-02 4.543467422698131419e-01
-9.254640927086299484e-02 -1.008232975862531217e-01 4.546371446344052436e-01
-1.378450891012487564e-02 -1.070365734017542925e-01 4.647987405544535267e-01
-5.738599378296971310e-02 -5.463694359297130432e-02 4.357131675769443380e-01
-8.326799575619224514e-02 -1.100618028883519339e-01 4.733289453822094872e-01
-8.905222554592948092e-02 -9.474030268546318467e-02 4.456927297318049042e-01
-9.401631932585043094e-02 -9.978279295938877191e-02 4.544142943821462555e-01
-9.093854494181217996e-02 -1.075663278161651942e-01 5.094392321200261753e-01
-9.374568967952508214e-02 -8.975888576788287887e-02 4.549906955444367740e-01
-5.501660695024009062e-02 -4.916135706114966447e-02 4.359479903138812062e-01
-6.015294801790114360e-02 -1.093309456062976220e-01 4.666706707551221411e-01
-3.777205878255555233e-02 -1.179057437168234412e-01 5.154861384771887156e-01
-5.728108201642810073e-03 -1.245649273575471228e-01 5.065108214240718887e-01
-7.274111805575173006e-02 -9.950131798243476433e-02 4.277253511883002401e-01
-2.392850380827743137e-02 -1.183210135814294767e-01 5.403978000667563064e-01
-1.087147603332063867e-01 -9.846105545797456671e-02 4.740940060431056979e-01
-9.266795615613687698e-02 -1.095849781142850393e-01 4.824892952230967480e-01
-6.540166118219699690e-03 -1.054993955210531548e-01 4.629298607918169717e-01
-9.342290065551898948e-02 -1.084547104800302475e-01 4.734203593756438622e-01
-5.748093022255133105e-02 -1.123017664267365462e-01 4.818327433601768406e-01
-5.621482298265779304e-02 -6.681225305494392641e-02 4.292488211622088046e-01
-7.286247281921814922e-03 -8.459174425827380162e-02 4.470619806815461228e-01
-3.066260385166153998e-02 -8.398615153548935619e-02 4.429440692934863977e-01
-4.314889551760698466e-02 -9.288373551813992879e-02 4.435845511082268655e-01
-5.788898402203596777e-02 -6.414361803766586989e-02 4.315339300372119102e-01
-5.391951963408093962e-02 -1.031068960417566571e-01 4.475110640058452827e-01
-2.302054669973646259e-02 -1.185505344733536331e-01 5.403724000311038722e-01
-4.024035025091204920e-02 -5.559833565505371139e-02 4.348253372381157278e-01
-2.999408578431873168e-02 -5.186989160178213237e-02 4.376058570981656848e-01
-2.762382866184350666e-02 -1.197604984132382422e-01 5.077334859820569202e-01
1.218168096828941421e-02 -1.263502994379332445e-01 5.223903913104185337e-01
-4.269284397364210559e-02 -7.457706116574072674e-02 4.337058161602419526e-01
-8.399062699192610948e-02 -1.078813941506327756e-01 5.157590006415789796e-01
-9.492697202681034396e-02 -1.092306294647207715e-01 4.887558179236766720e-01
-5.516955631298840756e-02 -6.016003606661618486e-02 4.316086031596291783e-01
-2.446832509194030517e-02 -1.205852472621046639e-01 5.203715924320320152e-01
-5.067375523385665714e-02 -4.886615999575323610e-02 4.350927711930266950e-01
-6.474710579885660511e-02 -1.103647949297731218e-01 4.714160782660286042e-01
4.716435468374237557e-03 -1.263947936666111882e-01 5.129705472513232944e-01
-1.086173196405684910e-01 -1.007032466010706895e-01 4.766347426024112877e-01
-6.546748857104997890e-03 -7.188739331020108092e-02 4.422933506624094346e-01
-1.954085823989847037e-02 -1.218660686532839210e-01 5.111541609012512088e-01
-2.275692141796790621e-02 -1.052710517300794596e-01 4.655681146507052448e-01
-8.348132474485601973e-02 -1.103596433087689760e-01 5.043294401999339760e-01
-2.681425190452022336e-02 -3.341370779639749045e-02 4.385345852837745917e-01
-4.295587071255292655e-02 -1.082009722008642622e-01 4.667040454092903357e-01
-3.153243970800517076e-02 -1.162661408447932532e-01 5.411316603311392415e-01
-7.157245764008060562e-02 -1.039196539505378297e-01 4.402000783251911464e-01
-5.307538660504682038e-02 -1.130834870141762538e-01 5.301369122740650086e-01
-7.177254595189463959e-02 -9.006687158821333195e-02 4.222426980897041049e-01
-4.618621489492782083e-04 -1.260467689933674196e-01 5.286522456972924111e-01
-4.622787643526061335e-02 -9.528515912590987402e-02 4.432919378866487792e-01
-9.194661756452428281e-02 -9.090095322044149106e-02 4.511448039110679264e-01
-4.892967454714396841e-02 -5.281249567730676719e-02 4.343854254752724242e-01
-4.134782927178491663e-02 -1.132834585936054600e-01 4.851264076873847975e-01
-4.553704371050367600e-02 -8.415957561168616041e-02 4.326049471975270677e-01
-5.250705674956334529e-02 -8.860758838990046016e-02 4.272619822487130348e-01
-9.796996748757613727e-02 -1.067344595362136467e-01 5.056516373478270321e-01
-4.787268183538755106e-02 -7.433240354626462210e-02 4.302412083045603075e-01
-5.783796194445839367e-02 -1.136040349797347720e-01 4.907752285839659945e-01
-1.368002253367595240e-02 -9.726011321118133157e-02 4.546876861260206182e-01
-1.075191827161232488e-01 -1.046170972619901995e-01 4.855478700195686725e-01
-2.322348658511866684e-03 -1.258137385384225648e-01 5.127181948901521347e-01
-3.272174740534497528e-02 -5.235743763367996934e-02 4.367471678042895711e-01
-5.085576131956145995e-02 -9.762436287621732711e-02 4.336695617213237597e-01
-5.358580736752585616e-02 -3.815633026636088693e-02 4.388140369012361597e-01
-6.594860427300701378e-02 -9.635053222334631629e-02 4.225268419127966024e-01
-3.492445223937044180e-02 -1.178137591911607995e-01 5.019108301211365752e-01
-4.776265773753251426e-02 -1.161721729128770836e-01 5.157144789628155257e-01
-1.006368041998367269e-01 -9.279280714106136196e-02 4.625358663069601417e-01
-2.753411739082078924e-02 -7.323536347362394339e-02 4.392895995181110291e-01
-8.128718689492293870e-02 -1.092029064499821095e-01 4.682543051762654285e-01
-1.674218283294585594e-02 -1.004142309968771574e-01 4.582281003527995389e-01
-7.883939633447531459e-02 -1.115529032530457321e-01 4.865870184758348538e-01
-9.767122883395876198e-02 -1.062095278490708672e-01 5.074718723816015187e-01
-4.504955134921872356e-02 -1.017897199528801228e-01 4.529430512739888726e-01
-9.919528223557398661e-02 -1.059771078749419809e-01 4.695872031366662980e-01
1.051817096896357634e-02 -1.265308592989466130e-01 5.222447182927957288e-01
-1.065027111002523758e-01 -1.044121940304372914e-01 4.790509948127796291e-01
-5.348649527119628266e-02 -1.043094771131757303e-01 4.515093634272944190e-01
-8.562771454974398011e-02 -1.081988458286697596e-01 4.664581878830679207e-01
-4.615020213776502289e-02 -8.059370827066419940e-02 4.317405532990339911e-01
-5.330474940392624511e-02 -9.415134099639796417e-02 4.267185859062599396e-01
-8.257407898078161779e-02 -1.113243711382483209e-01 4.862198553804790158e-01
-3.017937530715042102e-02 -1.078329685083519451e-01 4.704239777457114857e-01
-3.556002823790114630e-03 -1.055136934292864592e-01 4.632372229035325861e-01
-7.839954789147432490e-02 -1.025073224989514753e-01 4.407533394137987393e-01
-8.847440069391547882e-03 -8.816180333354604881e-02 4.484632969495748189e-01
-1.051309853456177529e-01 -1.064645184944873202e-01 4.920012436353197183e-01
-2.087440152086547651e-02 -4.766255986691329133e-02 4.390532301615756028e-01
-2.960135633413838938e-02 -7.184699234975136517e-02 4.384660025732002309e-01
-1.837641345319567659e-02 -1.116753612348517360e-01 4.750357988450385482e-01
-5.908948144098430388e-02 -7.325012579588274786e-02 4.272557073591178312e-01
-7.265790084764919832e-02 -1.048564252281539294e-01 4.461053878927570548e-01
-5.427485395895847303e-02 -1.061966760663044657e-01 4.573024170357760654e-01
-1.103649915750845589e-02 -1.065033275550221620e-01 4.639030322472773582e-01
-1.008282780632992898e-01 -9.806334925542653513e-02 4.610969706015489167e-01
-4.416116670219691343e-02 -3.067604522281180274e-02 4.359215999402137887e-01
-7.403168756416546314e-02 -1.123944515065592037e-01 5.033833655531584350e-01
-3.936952445962434849e-02 -1.036882950338469944e-01 4.600803362506875049e-01
-1.613748124404788473e-02 -1.217199654385691943e-01 5.329360294932637965e-01
-2.414402421683835634e-02 -1.188329366180133351e-01 4.978485280443540328e-01
-1.784795652167062152e-02 -1.141324977199746488e-01 4.800457520963871683e-01
-3.555994697921671666e-02 -9.481797205757233615e-02 4.494746372035318682e-01
-8.945986608143428886e-02 -9.247923083406160705e-02 4.471828782629863053e-01
-2.151865322103839462e-02 -1.170984143841582309e-01 5.470364009771941927e-01
-4.096839919535866237e-02 -1.093055030326854360e-01 4.711042048241944613e-01
-8.769943895564034919e-02 -9.229578253630223161e-02 4.450139324097379112e-01
-9.908282092773121330e-02 -1.050422039047709255e-01 4.661722992994994930e-01
5.383721922017434790e-03 -1.262067115157893549e-01 5.322693948161570932e-01
-5.761825441240472044e-04 -1.207581641448505771e-01 4.898433352350243797e-01
-7.258278248552786811e-03 -1.097704361565789849e-01 4.679001177053456750e-01
-7.235639447142444038e-03 -7.412277666457708913e-02 4.430138455444709300e-01
-3.148058976564335754e-02 -1.181838831661826961e-01 4.998187266658100647e-01
-1.537144374484903341e-02 -8.571556342862844680e-02 4.463813825474726160e-01
-1.002778395669060539e-02 -9.044321548478621853e-02 4.495294423152116914e-01
-5.193166245071256099e-02 -1.154017253529425052e-01 5.053063331721459051e-01
-6.603910481765047635e-02 -1.122623007092212882e-01 4.858427060538219044e-01
-4.433546197378022795e-03 -9.652739995421019681e-02 4.547508468651500491e-01
-8.502308086632288237e-03 -9.602563978382437637e-02 4.536687804142725544e-01
-9.400633105905227549e-02 -1.093891936129154363e-01 4.963871700599049586e-01
-8.601507656715944028e-02 -9.435622713392068095e-02 4.427184093014037147e-01
-7.877424633605695226e-02 -1.101043363461310792e-01 4.724551837052036740e-01
-3.828845929670899456e-02 -3.463941276174684059e-02 4.359211308048274724e-01
-2.644228836426860962e-02 -1.182811996283488210e-01 5.373132233878045172e-01
-9.996913690593756119e-02 -1.047428106433888617e-01 5.085145264422842315e-01
-4.047886938043499666e-02 -9.198698477436152710e-02 4.446270175111964873e-01
5.689199400910210230e-03 -1.267465724340759714e-01 5.174150248230076077e-01
-1.007023738050420725e-01 -1.045760775671520232e-01 5.079799875116094432e-01
-3.292100551654126434e-02 -1.188394819524185020e-01 5.154859611869040403e-01
-3.332889789504638739e-02 -7.406860779398492800e-02 4.375814195901423509e-01
-6.715875214535185767e-02 -1.121276179602261475e-01 5.201780719290965971e-01
-5.578782819939927945e-02 -1.073169983745518169e-01 4.600838297747364414e-01
-1.654552371168933889e-02 -1.226337704410341706e-01 5.216177732818473300e-01
-1.001969586237846654e-01 -1.076089919518732202e-01 4.968767052106414228e-01
-3.992307262687823377e-02 -1.065164038013284437e-01 4.650350517987552057e-01
-1.396426933930492581e-02 -7.979836224783161402e-02 4.439774972903868244e-01
-3.988978768866326824e-02 -6.879023966421297931e-02 4.343295949292798608e-01
-2.626533597718298113e-02 -9.112689685426794695e-02 4.488875463217961714e-01
-8.937941240656631370e-02 -8.983121967792223606e-02 4.484848503395705843e-01
-7.157544717347760765e-02 -1.060084690026253940e-01 4.523426858446794041e-01
2.105082622195770907e-03 -9.436755523661602418e-02 4.538187063860823489e-01
-5.862746323753593308e-02 -1.081380042375725270e-01 4.617517185528546841e-01
-3.699053845525333839e-02 -9.501454505497958225e-02 4.490106129585818007e-01
-6.366354519738343098e-02 -1.084257260674570261e-01 4.621548137730579486e-01
-1.777173616969988240e-02 -1.182594862638500915e-01 5.466147017136064878e-01
-2.630059769600534038e-03 -1.051524111845916487e-01 4.629455305192772263e-01
-3.982808866869825409e-02 -3.386747648453689030e-02 4.357020137122138981e-01
-9.540470164902745132e-02 -1.047217824310447409e-01 4.626282185416580872e-01
-4.069964875711848395e-02 -7.905679304773356730e-02 4.356359566160170060e-01
-8.765618408017224195e-02 -1.096601240960497770e-01 5.031831933405236379e-01
-4.723024010774773407e-02 -3.710835708750183370e-02 4.363731423690999089e-01
-8.757361922722792236e-02 -1.098228382410400689e-01 4.748878100190049856e-01
-1.121470959360548469e-01 -9.835483248983661886e-02 4.875169301453480819e-01
-9.873882928063015818e-02 -1.070692970837828079e-01 4.741207588325343503e-01
-5.408370815400108389e-02 -3.611256279941205127e-02 4.420882768002873942e-01
-4.708975626963926575e-02 -1.154357574789110774e-01 4.959804322896078088e-01
-5.487264975872258033e-02 -3.900775515973249619e-02 4.432598481831051540e-01
-9.692023268869608132e-02 -1.080784573595275355e-01 5.018766456622854033e-01
-1.648949522228417008e-02 -1.066946217449348949e-01 4.652009451774691273e-01
-5.444620472651906518e-02 -4.139304371710658681e-02 4.405137935137231064e-01
-9.756092391942802755e-02 -1.084724220670301026e-01 4.807997017539454299e-01
-4.908893475789694039e-02 -9.377569794317952567e-02 4.316053833362667458e-01
-1.075941259619463547e-01 -9.366899359554520244e-02 4.723749031251031627e-01
-5.068487060887871820e-02 -1.156253943214989310e-01 5.067918842961838255e-01
-5.142099305988898778e-02 -9.774963620028973010e-02 4.303227888993393369e-01
-4.779720927464326669e-02 -4.319978376166306450e-02 4.353334348974579604e-01
-8.749596434548566337e-02 -1.067898733124817978e-01 5.153034676507129985e-01
-1.780418591040568502e-02 -1.176438784156531303e-01 5.485808862122929508e-01
-8.646184058519927607e-02 -1.082853746581676768e-01 5.118286940672179819e-01
-5.248821332502077996e-02 -6.217930306479264868e-02 4.309830719787723918e-01
-6.244475741916843264e-02 -1.139208268675305225e-01 5.032864135669145034e-01
-3.846566110655566528e-02 -5.698233414344534148e-02 4.352889388017990302e-01
-6.311902835443006232e-02 -1.043754675192765935e-01 4.302169140466832187e-01
-2.444061164477304496e-02 -1.120619172180981615e-01 4.778801990565051394e-01
-3.547437029237046624e-02 -7.689590127876795578e-02 4.379095193748850368e-01
-1.513627478574889468e-02 -1.223121024278816804e-01 5.304125172153912882e-01
-5.289521004006749079e-03 -1.255104344740316791e-01 5.149250952894465216e-01
-2.037475448596332353e-02 -1.091092092000694735e-01 4.707817890413117934e-01
-2.091588657702622700e-02 -1.181287563228800297e-01 4.927185305944080662e-01
-1.117621025679268604e-01 -9.910297513449596585e-02 4.881903271382740384e-01
-9.987173910633205531e-02 -1.061817681310111283e-01 4.715614355574120342e-01
-6.620957328542716180e-02 -1.018490494534027707e-01 4.247074246342834036e-01
-3.439158294000408539e-02 -1.185830952042467440e-01 5.113434608891387345e-01
-1.845032434511716807e-02 -1.052382899604728944e-01 4.639966372564518493e-01
-4.730217787783370931e-02 -7.894107527082758202e-02 4.307804141994750480e-01
-6.752972281613392469e-02 -1.117599873957067780e-01 4.813981686044507269e-01
-1.110567318372636912e-02 -8.692421850839796016e-02 4.474811374991458646e-01
-6.130807710310740705e-02 -1.039636214207829285e-01 4.268329430358922538e-01
-1.038205440239284849e-01 -9.371581520845727320e-02 4.664037409740910411e-01
-9.671430335504769757e-03 -1.237174392344937840e-01 5.317667010901045987e-01
-5.050245233737856582e-02 -1.124207408468636815e-01 4.811201292355886672e-01
-3.473673238271175051e-02 -1.183351613563977250e-01 5.204822390508702101e-01
-6.574601046801535620e-02 -9.057041667415627328e-02 4.220870692733156848e-01
-5.598805676746319848e-02 -1.054894305227837698e-01 4.522566128613422776e-01
-7.481489560875269340e-02 -1.085010477260138356e-01 4.637853530507018984e-01
-7.664107996826353963e-02 -1.014394861635418699e-01 4.354922330571401323e-01
-3.340623568904089319e-02 -1.170150193325362048e-01 5.352572648459501536e-01
-6.978254940480631448e-03 -1.164596637680810065e-01 4.791720414559060282e-01
-4.289793120296852419e-02 -1.074895507134763506e-01 4.653714199466829071e-01
-5.030603257266015593e-02 -9.388810435200739546e-02 4.296186826477547682e-01
-7.357500962966272151e-02 -1.038730802304667078e-01 4.414345440759228079e-01
-7.492581841931469921e-02 -1.016754744402412342e-01 4.332547539736644748e-01
-3.933568428332410993e-02 -1.176062563739122269e-01 5.154656265827443073e-01
-1.572646108015015795e-02 -1.219948794756260529e-01 5.316326920677508783e-01
-2.992701160489798923e-02 -1.190407509237955269e-01 5.035351405246563106e-01
-4.120925767318760896e-02 -6.196453881509761397e-02 4.340363036114088247e-01
-8.894768326179776363e-02 -1.076258656193353203e-01 4.664136658385004686e-01
-2.957447873639093908e-02 -5.225656491319502495e-02 4.376728516244943745e-01
-9.089613949826286232e-02 -1.068270012186211260e-01 5.120143260921323769e-01
-3.216845329545540283e-02 -6.679073731797607882e-02 4.372684808102463294e-01
-1.029259191270864709e-01 -1.043098516903954026e-01 5.056861141107777957e-01
-3.066885581043972062e-02 -1.190150197839811297e-01 5.219143934414315344e-01
-8.102104889862475970e-03 -1.248875671320328201e-01 5.145042942274240527e-01
-3.668486221950394144e-02 -5.500707330530128780e-02 4.357091692612363176e-01
-4.947590937276021006e-02 -1.062590615126155352e-01 4.597417457560911136e-01
-4.537268633098630322e-02 -6.038493960584936232e-02 4.325558759529633535e-01
-1.016252765823200677e-01 -9.071530164074523284e-02 4.659231491317163965e-01
-2.792473019184379956e-02 -1.002144882243183460e-01 4.590163394883364778e-01
-9.960082424990074346e-02 -8.903448439428107708e-02 4.643790227087790101e-01
-8.554978035930996261e-02 -9.105889981285281154e-02 4.424613573400291155e-01
-3.983795630900618251e-02 -8.043955320511884943e-02 4.368416948278515122e-01
-1.014561895451849584e-02 -1.159572209163412526e-01 4.790390410685751443e-01
8.544044772447014977e-03 -1.259437470286776661e-01 5.119590041543657932e-01
-4.392726674264775533e-03 -9.840944406230296704e-02 4.564176233206553857e-01
-7.218402240689990312e-02 -1.111134856437491908e-01 5.186125385449947833e-01
-6.753077264297641102e-02 -1.057170225938105362e-01 4.493522700892699784e-01
-2.349538529743815801e-02 -8.697195068178451005e-02 4.460258574696389644e-01
-7.171307657659092838e-02 -1.124479474288640340e-01 5.088280932354630748e-01
-5.522385471107185001e-02 -4.151635640914655423e-02 4.427826301661422770e-01
-2.041639846125349947e-02 -4.691780465801059785e-02 4.390754211993668221e-01
-1.276111194167041732e-02 -1.229359813584105093e-01 5.309524219227698127e-01
-4.101618181051197576e-02 -1.024674056030743935e-01 4.570139718148466534e-01
-3.742044412442787488e-02 -5.052187327088995122e-02 4.357210059119880352e-01
-9.061273134572876697e-02 -1.099609372596525997e-01 4.832029405897931285e-01
-2.921356891830523966e-02 -9.901596528199066438e-02 4.569349625588820518e-01
-1.569696675218618109e-02 -4.657913704226795959e-02 4.386493183880209590e-01
-8.975230899527526091e-03 -1.213992577361628356e-01 4.938132730959234884e-01
-1.087544932537309744e-01 -9.759470703847995809e-02 4.742482976555615903e-01
