5.787205546831271363e-05 -1.198046358628078734e-01 4.869743448475523095e-01
-1.048087510731698230e-01 -1.066399433649854039e-01 4.862623359140262336e-01
-1.429574122241772730e-02 -1.216166647866754325e-01 4.993461887133106569e-01
-1.033647437585036022e-01 -1.063716757145651837e-01 5.007537763431872957e-01
-1.022872452968264373e-01 -1.024794122442052174e-01 4.644900439332697029e-01
-6.696877136166468070e-02 -1.129840849105865769e-01 5.149047512403269744e-01
9.341289613717272330e-03 -1.257486354031603359e-01 5.365289686217866727e-01
1.907024240356729530e-03 -1.256831867900156940e-01 5.336418680248149471e-01
-1.140641064205598874e-02 -1.235029968628997693e-01 5.288459230303561576e-01
-4.014337826495158190e-02 -9.451171724542142827e-02 4.466716532345391122e-01
-1.011656176423618610e-02 -1.226186436693712106e-01 5.372596475056781173e-01
-1.005598504010775558e-02 -1.223707594214745870e-01 5.383595839852998166e-01
-3.115940169706059304e-02 -1.069204162880927345e-01 4.683792457087033734e-01
-9.791726292315018620e-02 -1.010171930141186419e-01 4.594676173678583497e-01
-7.944086526550807326e-02 -9.305310840891224677e-02 4.312935853317289014e-01
-2.576611944782953613e-03 -1.013726778979209958e-01 4.593000681834764065e-01
-8.442323809162712023e-02 -1.069020774559569786e-01 5.183862585256246991e-01
-8.445130285422565442e-02 -1.065793405486432505e-01 5.192992504679073695e-01
-8.598990837542312693e-02 -1.101911758583086903e-01 5.027896513074197049e-01
-1.072214001858052684e-01 -9.664825185548256425e-02 4.704528763550713810e-01
-4.101536194142826192e-02 -5.146822936261677417e-02 4.349397927339663794e-01
-6.081606220642526983e-02 -6.363322016439977580e-02 4.328836740502601255e-01
-2.703241168501473168e-02 -9.640236748743861994e-02 4.542576303796115322e-01
-2.484905474965752419e-03 -1.261173652611470852e-01 5.223022243315682545e-01
-4.947208790247052679e-02 -1.157928646787894922e-01 5.019053356063408744e-01
-5.782462469050891896e-02 -1.109544324055403985e-01 4.716971265491411991e-01
-5.019232035959996646e-02 -5.774083223451207530e-02 4.326766297131757755e-01
-2.053867115009008412e-02 -7.245767801830890753e-02 4.406309740643097328e-01
-7.838192870017005043e-02 -1.106590837554887879e-01 5.119437158972580670e-01
-5.131914738979406060e-02 -7.968975881955069063e-02 4.276430291871877731e-01
-6.662475498286096753e-02 -1.122191579474215439e-01 5.206812101563923489e-01
-5.358639977577822622e-02 -4.121902979914077864e-02 4.377938534961709482e-01
-3.038436916472265700e-02 -9.244349674153051755e-02 4.488486613561560312e-01
-1.488284790040415514e-02 -1.194238989628023800e-01 4.903365409096649974e-01
-8.998896891192650904e-02 -9.430267399087649549e-02 4.474594955486840830e-01
-2.829215177894230104e-02 -1.187550258898879552e-01 5.309295677553435011e-01
-4.326604819556724435e-02 -9.160220848182384912e-02 4.419703431439753749e-01
-5.349874949769959503e-02 -1.028745401927463193e-01 4.356762742157133661e-01
-4.874214655695846554e-02 -1.060064826025370333e-01 4.588216710631824458e-01
-8.368142244655304984e-02 -1.112372794167003215e-01 4.951328028167819584e-01
-5.488605819826865295e-02 -9.890444332373077296e-02 4.253769349315075776e-01
-1.089164364345004965e-01 -9.621599411325819362e-02 4.749658277359059544e-01
-4.239882286049848764e-02 -1.057698860310608141e-01 4.621163697426096673e-01
-4.206060460248294691e-02 -1.091343541915915788e-01 4.696197026036079136e-01
-4.221876482711160034e-02 -3.058090974300844284e-02 4.358559614183796227e-01
-8.650032461798570771e-02 -1.046549376460414599e-01 4.548385630888919784e-01
-5.464007662277315519e-02 -4.471765727863969558e-02 4.390616259246122310e-01
-1.063944066680175687e-01 -1.034542465603428829e-01 4.748225700450340869e-01
1.636730734157675494e-03 -1.263010645922680308e-01 5.109157959774941471e-01
-7.401817623436056370e-02 -1.124031028406850818e-01 4.948830763165298352e-01
-6.627061371650434796e-02 -9.713960040571453791e-02 4.225096311597728582e-01
-6.083848601785946109e-02 -1.068220546176101432e-01 4.537701255650606891e-01
-9.419534968123759178e-02 -1.063147383381832511e-01 5.111815360966979194e-01
-4.778447713466298791e-02 -2.831860721169143433e-02 4.368404094927904047e-01
-2.736052986815868532e-02 -9.293904528437670065e-02 4.503442811724326922e-01
-4.945807211665647490e-02 -1.036944720426920125e-01 4.526407382911154520e-01
-2.039088029768814161e-02 -1.191272799631908491e-01 4.957300685989828315e-01
-7.005960094820158635e-02 -1.117342409624644400e-01 5.189523097203414537e-01
-7.445486691741468044e-02 -1.114676112257616397e-01 4.794189008456097856e-01
-1.750543244512862279e-02 -5.175909700722339940e-02 4.388628801154643710e-01
-4.934452469697048899e-02 -5.000426102838034792e-02 4.346563391635300255e-01
-3.746657281972757408e-02 -1.170875560437941304e-01 4.989027638759243599e-01
-6.077127013567877600e-02 -1.143657508692215025e-01 5.106317428368157829e-01
7.723683402205960662e-03 -1.258625090344410724e-01 5.353101500269085156e-01
-2.607956929898765097e-02 -7.351252984734034379e-02 4.396274814218174565e-01
-4.104665533002776340e-02 -4.800817645825693897e-02 4.351973957831915540e-01
-6.405209980379661383e-02 -1.113260501815815789e-01 4.746745061973238755e-01
1.089166509852356607e-02 -1.266550236354087589e-01 5.296317297552640690e-01
-5.808002630009086176e-02 -1.036691486431045861e-01 4.414590659143527995e-01
-3.777034749190475577e-02 -3.301160905670342399e-02 4.361898991936019598e-01
-7.794012389808369079e-02 -1.119768426802907751e-01 4.954667925753354352e-01
-1.474074990932594184e-02 -8.440235951438643247e-02 4.458159835213047484e-01
-7.451997974863464047e-02 -1.090816377943692045e-01 4.652128918754677711e-01
-2.852472856417679475e-02 -1.057991131753259068e-01 4.669687131812061964e-01
-4.803053387944836161e-02 -1.161402914294132338e-01 5.071746533725263184e-01
1.726847814941973600e-03 -1.247393584590369281e-01 5.028786495298492865e-01
-9.837729422647781274e-02 -1.082637196567638876e-01 4.972533727740215959e-01
-4.904746248369058065e-02 -1.057415387620107283e-01 4.579154831674581705e-01
-3.806434721035240748e-02 -1.020785917605910309e-01 4.579922920783831564e-01
-1.738823481724153727e-02 -1.217426229394740489e-01 5.293676083614802241e-01
-7.422708119547298533e-02 -1.044195883714021111e-01 4.430897313036226692e-01
-4.149337422055323493e-02 -1.172889965695897013e-01 5.138472487694234481e-01
-3.246950118197059615e-02 -1.134828872619091517e-01 4.825170873610744038e-01
-8.270519477817961373e-02 -1.113527136253980726e-01 4.961906820967663667e-01
-9.445604859867180736e-02 -1.084814582156278795e-01 4.736732707241949614e-01
-5.388178524618211784e-02 -1.063180873978657598e-01 4.569682297265620363e-01
-7.650698764374139205e-02 -8.683643581764022290e-02 4.304048332057551773e-01
-8.729283430300546764e-02 -1.087486193036736604e-01 4.684540184821656683e-01
-5.441158055595379794e-02 -1.149113573478660194e-01 4.987253084270107384e-01
-2.707850707724063916e-02 -1.175223708060845473e-01 5.404203177051003504e-01
-2.827746387537845296e-02 -4.832616423035165226e-02 4.382690444693589926e-01
-5.753048409974145794e-02 -1.133480469212730102e-01 5.252211956629558864e-01
-5.422012123960556068e-02 -9.627318227207355694e-02 4.256753485114351254e-01
-5.666780144472552405e-02 -1.109094905385385327e-01 4.712667471034245881e-01
-1.091927463134005107e-02 -1.240149179718114392e-01 5.239322251879980907e-01
-6.961487843427209554e-02 -1.120335041829355061e-01 5.177123582076755826e-01
-3.235361675066167342e-02 -1.182103565497383268e-01 5.276252602167319505e-01
-5.329317702115999970e-03 -1.234553813177801246e-01 4.996521341919970549e-01
-9.025380296308525840e-02 -1.101074228883963113e-01 4.982603680688785786e-01
-7.207215445632390860e-02 -1.126571590821097424e-01 5.059340223919073232e-01
-6.607116591484860080e-02 -1.134724247019194693e-01 5.002012033273310898e-01
3.871907959700575906e-03 -1.172493368919030332e-01 4.809986950840065556e-01
-7.913202447914882698e-02 -1.067296356843576849e-01 4.570062090908677543e-01
-2.951824022537045261e-02 -1.195700175815371386e-01 5.113815360058963089e-01
-2.318965928988740016e-02 -1.102384574735703615e-01 4.737986246058228379e-01
-4.083269621605613992e-02 -1.139393814169578772e-01 4.868377037560264187e-01
-8.577791706002760135e-04 -8.630595587286447878e-02 4.487949858177851525e-01
6.663168403347977109e-03 -1.256668489746198547e-01 5.360247277052562209e-01
-3.566169819478510333e-02 -1.168353438842537478e-01 5.331512053228379955e-01
-3.097083602008512612e-02 -1.178712818699383935e-01 4.974165934157208646e-01
-4.458412569981479862e-02 -5.623225110361965845e-02 4.338261092243021477e-01
-5.919115057623750009e-02 -1.126357941423343778e-01 4.831293711852898132e-01
-6.062016611850036540e-02 -1.126163602286249649e-01 4.834273265676288234e-01
-1.901970112594370335e-02 -1.113224925645605323e-01 4.745098836204615367e-01
-3.470633721015631279e-02 -8.275497481865701221e-02 4.406951195518548636e-01
-9.063702821352039030e-02 -1.097991967397045909e-01 5.001053871752167979e-01
-8.322678559871118931e-02 -1.099115955398585892e-01 4.709855008717669933e-01
-8.194995841840849171e-02 -1.113008015593023176e-01 5.003198651524027873e-01
-4.124733953403631609e-02 -6.381900123875970665e-02 4.337766319709563390e-01
-7.082403215960436649e-02 -1.046326809056296464e-01 4.416120451653647305e-01
-1.041418907417905049e-01 -1.053817136292806295e-01 4.757410053525160110e-01
-8.930067970031509150e-02 -1.102784123878816358e-01 4.805916955692373649e-01
-3.138888203117993353e-02 -1.187904412968014134e-01 5.035604281159646867e-01
-3.115664881208168261e-03 -1.117152269632422507e-01 4.703994111015677437e-01
-1.899640305214782970e-02 -1.207147732659876599e-01 5.343593896844112123e-01
-8.208815163358225420e-02 -1.115839771584929141e-01 4.865979264480470579e-01
-6.495788232713148314e-02 -8.664464644198505150e-02 4.230109495305343636e-01
-1.374571898098019690e-02 -1.169877063588452976e-01 4.835852773727555287e-01
-2.565089763298356029e-02 -1.125941641331394821e-01 4.789245818945085942e-01
-2.397526206338846874e-02 -1.133887468903261031e-01 4.803507944010573238e-01
-5.961547763237382697e-02 -1.047510432256196222e-01 4.307006935528600589e-01
2.553750683424620745e-04 -1.265831018024474175e-01 5.235986020031282440e-01
-2.702790008210059075e-02 -1.075384248140044824e-01 4.696881053452094945e-01
-2.660765318123188561e-02 -1.201023174847667685e-01 5.203706060420819624e-01
-9.145688295155067482e-02 -9.691733752013478864e-02 4.495911519195576189e-01
-5.126094911868712273e-02 -1.156419360148312897e-01 5.067314623071594859e-01
-6.766415508925058275e-02 -1.038706286912029625e-01 4.332103665443579055e-01
-5.411379586278541876e-02 -3.873093622851968981e-02 4.413267456612129380e-01
-5.805906776347402598e-02 -1.071252630290219915e-01 4.573494543782788968e-01
2.584526642285277665e-03 -1.056803719559516325e-01 4.639986255693770989e-01
-5.804831920325167344e-02 -1.096643773563786561e-01 4.670715333687046611e-01
-3.274521496569794687e-02 -1.099501149410555267e-01 4.740356054661885032e-01
-7.759559683020669785e-02 -1.037286108714314675e-01 4.431938195396071811e-01
-8.234595110481615632e-02 -1.068724662227007322e-01 4.587597594005984325e-01
-4.956669632189715513e-02 -1.159730437736286868e-01 5.140893136123572127e-01
-7.751280351542021163e-02 -1.020579173514007815e-01 4.376662389673801057e-01
-3.897655885902717027e-02 -8.312566066816443056e-02 4.383522669887662815e-01
-3.120013742006740032e-02 -7.600950502144014631e-02 4.391573698681627280e-01
-3.171529896348663016e-03 -1.260069082751025804e-01 5.209419847283454086e-01
-9.067288917694003858e-02 -1.100714597902403280e-01 4.806504783221212662e-01
-9.337221566901442171e-02 -1.031690526109077660e-01 4.568919779138662651e-01
-8.338124304200666970e-02 -9.962399719910181028e-02 4.427007424985613393e-01
-7.935266626478859608e-02 -1.093043145675707678e-01 5.170791185080950703e-01
-1.056985113112030861e-01 -9.780129768813876356e-02 4.668988715346361618e-01
-1.014677238950501964e-01 -1.042758848445963504e-01 5.081227900103810757e-01
-7.147381352062857907e-02 -1.102122533370874513e-01 5.227956799035405888e-01
-5.656814234559920385e-02 -1.076660285941380552e-01 4.599849728744353494e-01
-8.665151446576192795e-02 -1.100744275510410625e-01 4.742865008717885300e-01
-4.915104795505714774e-02 -3.576848589026890984e-02 4.375217143171982181e-01
-9.220393885736885564e-02 -1.085255379571792300e-01 5.055691833655661105e-01
-1.716766114471257598e-02 -4.927952588432919084e-02 4.389380840216118296e-01
-1.009867718239809142e-01 -1.074883493659595513e-01 4.975315014341264996e-01
-3.114071223327832469e-02 -1.191217093696782803e-01 5.076081621577788194e-01
-4.366972775238878862e-02 -9.306255127498798407e-02 4.429492112259968417e-01
-4.625958376172467634e-02 -1.158585818312815596e-01 5.242592075451250055e-01
-1.993301041881690924e-02 -1.188800024528981758e-01 5.423644820830734181e-01
-5.913200764299299944e-02 -7.891659990412318304e-02 4.257985065361727939e-01
-1.546364265322912844e-02 -9.576357680846099563e-02 4.532558650466634864e-01
-4.514093783253404074e-02 -1.020293142591069957e-01 4.527846900396140795e-01
-1.023965399668821247e-01 -1.063228033491075558e-01 4.769052005861412757e-01
-4.798570167620026805e-02 -1.162228308241375213e-01 5.099843453333579024e-01
-1.112110762509736228e-01 -9.692108078596901877e-02 4.796329760916354656e-01
-6.378849817287272905e-02 -8.392006746402723427e-02 4.241163372329610493e-01
-5.605162388405725282e-02 -1.086624285096805531e-01 4.635303482765059102e-01
-6.880743203839470579e-02 -1.098283062817451278e-01 4.683056977459252868e-01
-1.618983648411530685e-03 -1.066801987923966522e-01 4.645285124915658481e-01
-7.189385964545691107e-03 -9.909531361019807694e-02 4.564854929213870705e-01
-7.831566247774248909e-03 -6.279358511752136662e-02 4.395162703508284641e-01
-2.954808454918311095e-02 -4.644455347608656554e-02 4.380201875081810026e-01
-4.142222216309825872e-02 -8.730667073893443042e-02 4.394465116271265570e-01
-4.523459197874814264e-02 -1.148315972631106241e-01 5.310896190413828544e-01
-4.556732556170853266e-02 -1.086595405689701477e-01 4.663030292511862740e-01
-6.472769652465325263e-02 -1.047736939652708504e-01 4.341209431942154029e-01
-2.306493055559060215e-02 -1.126658531546301106e-01 4.787826557770893388e-01
-8.367786065223938030e-02 -1.098837042535985575e-01 5.085875015292645740e-01
-9.304049137684226867e-02 -1.097106291421608704e-01 4.820176147695114377e-01
-4.652107922509231275e-02 -1.107772270831444278e-01 4.741968074388293597e-01
-6.692677455643629425e-02 -1.130469081422806887e-01 5.144295619239847017e-01
-6.626301387294639134e-02 -1.036582736909586744e-01 4.293292997572729086e-01
-4.575507586021587692e-02 -1.109296537578785824e-01 4.752268851981762965e-01
3.522483730706558493e-03 -1.261002142143475002e-01 5.102098699498953671e-01
-6.200566933268510106e-02 -7.575019711052083382e-02 4.269805652850911515e-01
-8.192592637626976149e-02 -1.050819816216408964e-01 4.527201229695972384e-01
-1.982499930777719896e-02 -1.191141061746787411e-01 5.414252479072266810e-01
-6.525160843465946381e-02 -1.134032487931951327e-01 5.146244958087536903e-01
-6.464560063509373899e-02 -7.978541809089099990e-02 4.268437459320833516e-01
-2.088508292916144149e-02 -1.168719085614592784e-01 4.885679791728811949e-01
-2.730118272586515987e-02 -1.196776461018207727e-01 5.049049688575506512e-01
-6.608700829943081612e-02 -1.053687480441123231e-01 4.407432068801077074e-01
1.319487195938823763e-02 -1.257737179597862021e-01 5.366469033917459219e-01
-2.316173677958515906e-02 -1.206081191742886388e-01 5.055543268608766461e-01
-6.719985335100507606e-02 -1.021956225544645991e-01 4.256146886150737330e-01
-4.162481407038222392e-02 -9.919023929832049280e-02 4.509102142139634894e-01
-1.081961793239563131e-02 -1.205758173863497457e-01 4.917007534665429058e-01
-5.520526178283158281e-02 -9.558615000517928229e-02 4.248850860484030822e-01
-8.529950920063668340e-02 -1.095419194544592356e-01 5.083730105277105560e-01
-1.037607209751420789e-01 -9.743586149797295315e-02 4.636769016757220641e-01
-6.962781786362326475e-02 -1.062788147012015127e-01 4.519230844703309713e-01
-6.518614117430716892e-03 -7.658119849476704988e-02 4.439971609583967527e-01
-4.741289571759242649e-02 -1.156762720311155374e-01 5.238988061131556462e-01
9.755241965690846298e-03 -1.210761719567239603e-01 4.934723680307315230e-01
-8.713393490716087042e-02 -1.102645215109983451e-01 5.005537549968588351e-01
-5.048547662250649215e-02 -1.134304620253577256e-01 5.314369445758746480e-01
-5.933603901297161698e-02 -7.404344981755045518e-02 4.270489303457590813e-01
-1.382502989593525911e-02 -5.791794472030777075e-02 4.390370694750769243e-01
-4.151036855796570724e-02 -1.143413473972613725e-01 4.884022012480432329e-01
-2.317596428822184251e-03 -1.254304936185258734e-01 5.309115034341940209e-01
-1.038003896365966294e-01 -1.030679566964414207e-01 4.677623098799784107e-01
-5.934827288376347959e-02 -1.042846053568457498e-01 4.272651870923561135e-01
-8.865463555384001104e-02 -1.075829844812928038e-01 4.652022632436061400e-01
-3.583359564938101444e-03 -1.130094994694363503e-01 4.726543167396703438e-01
-7.138810771635195618e-02 -8.457554316376614256e-02 4.256130741661444672e-01
-5.211330917786170108e-02 -3.173063289789475327e-02 4.390999021417955617e-01
-1.002253315324798388e-01 -1.060771763056002209e-01 4.704262065491560119e-01
-6.759897447755569555e-02 -1.128489621031989881e-01 4.914079808367811109e-01
-1.294226515048233113e-03 -1.167074087858432502e-01 4.789638249977817286e-01
-7.051065873494866132e-02 -9.318625316496226274e-02 4.213083965505474704e-01
-2.528916147573185766e-02 -9.577907746428740432e-02 4.539951479788570388e-01
-7.977481375024270127e-02 -1.023243149761144805e-01 4.414169961312158774e-01
-5.014712216440130044e-02 -9.399296001784349097e-02 4.293168120984631742e-01
-6.844117518526561528e-02 -9.563806173992744908e-02 4.220140733929604315e-01
-7.832619970913234919e-02 -9.493773991482037933e-02 4.293745758885468833e-01
-1.688116221005290726e-02 -8.111482786600925088e-02 4.439409419406711299e-01
7.034524316932931187e-04 -1.264451703289625750e-01 5.267741332213498051e-01
-8.058290082058695847e-02 -1.116342168107657823e-01 4.955738079083198411e-01
-1.058483330041407183e-01 -1.063287988855356886e-01 4.939832313058040159e-01
-7.606250549256851623e-02 -1.119760816503638234e-01 4.893717928879641743e-01
5.325208569506929140e-03 -1.258700287158333042e-01 5.098206078903956273e-01
-5.638742204320467549e-02 -5.722579017367609294e-02 4.332216623720432924e-01
-5.557912895789916818e-02 -1.132706836618785629e-01 5.271868515499720242e-01
-8.637247513189065529e-02 -8.730284622491370217e-02 4.456145779999848844e-01
-5.437508790788144614e-02 -5.583838741586274329e-02 4.331885155115089425e-01
-8.381148228843809944e-02 -1.063811145663287189e-01 4.578407741384601937e-01
-6.232585116970115052e-02 -7.333290747252413366e-02 4.278924305286489482e-01
-6.628740892888566882e-02 -1.070844776694217099e-01 4.559723405356507775e-01
-9.667290258040500683e-02 -1.029968447193897740e-01 4.597678247629057857e-01
-1.013837023731665038e-01 -1.070403376377248028e-01 4.785961662823125518e-01
-5.388671755223261445e-02 -3.500984468249083298e-02 4.418412141690080674e-01
-5.258067401873988550e-02 -1.082172732002185528e-01 4.630558929880534969e-01
-3.929326772864401296e-02 -1.000457570572231142e-01 4.536509434433394494e-01
-1.393785452539043034e-02 -1.167850925408463192e-01 4.832686848337441887e-01
-6.544392445419872084e-02 -1.129432350216195008e-01 4.903202936941512546e-01
-3.556326997307652366e-02 -1.177415513017305015e-01 5.263415758372004261e-01
-9.790510886349973463e-02 -1.021636910294447392e-01 4.600494199422260899e-01
-6.140337775706018741e-02 -1.044348102307338239e-01 4.279598352351957624e-01
-2.033962378489182973e-02 -1.137861488478902339e-01 4.807942316014828243e-01
-8.454811554713974331e-02 -1.068925014381476579e-01 4.597558855239836650e-01
-1.051105700845405277e-01 -1.066209101783933688e-01 4.880563424576297993e-01
-1.004839229221426156e-01 -9.751770957451115496e-02 4.605521297946966741e-01
-4.599310686703803053e-02 -1.155595756124782880e-01 5.261991928588560796e-01
-9.600566239947580516e-02 -9.814935644219097144e-02 4.549716371823780414e-01
-2.851338792893621382e-02 -9.449584995277521271e-02 4.516720519375698184e-01
-1.306706177220104750e-02 -5.739168154572319575e-02 4.388849957689813785e-01
-9.354656114614592899e-02 -1.096993741353074203e-01 4.860699316102092271e-01
-4.236671330321961637e-02 -1.077133915550921028e-01 4.655893185034380433e-01
-7.101163260032629376e-02 -1.128146526629939667e-01 5.059973181778937290e-01
-5.778314983799662935e-03 -1.229665529707903993e-01 5.380172791013686506e-01
-1.879773321281107482e-02 -7.667701928218279006e-02 4.419635394381756788e-01
-4.552979246890957038e-02 -1.164420508657132980e-01 5.044175425712702499e-01
-1.765752468632281885e-02 -1.140688477008132418e-01 4.796992274589240712e-01
-5.116140075976541302e-02 -6.879707402955471951e-02 4.291493591570845201e-01
-5.254955070864830713e-02 -1.140206801886480964e-01 4.895136200524853876e-01
7.979018849536887933e-03 -1.264378805416296603e-01 5.148906417990530837e-01
-6.458924640961014041e-02 -1.122596960002729405e-01 5.224059640054440345e-01
-4.875938075814888195e-02 -6.789175229335560335e-02 4.300158732806576012e-01
-9.379772932728384915e-02 -1.095152787821616347e-01 4.808272934499780993e-01
-4.920695377524869629e-02 -2.812319372762356329e-02 4.373187791153539949e-01
-3.979641015106256952e-02 -4.323396433025085417e-02 4.353476973293304852e-01
-9.401810451501027566e-02 -1.088150137602359596e-01 4.745542839056116069e-01
-6.187749909488128586e-02 -1.046935821077630835e-01 4.371617810694521378e-01
-3.451572940942017331e-02 -1.160303936244509726e-01 5.389867997099793140e-01
-3.409359565989741880e-02 -1.180893882017656354e-01 5.255411663578706261e-01
-1.609393644946272711e-02 -1.213690617403505312e-01 5.359333280818053824e-01
-2.230008050910283965e-02 -7.808966392749545904e-02 4.420330854356779304e-01
-4.703330139713902264e-02 -1.007462214859378008e-01 4.485591272063564894e-01
8.185471210306418700e-04 -1.250976857408236109e-01 5.348521429819385054e-01
-1.014813709815559212e-01 -9.929239587136912126e-02 4.617179908700638769e-01
-2.146921858885920964e-02 -1.215299519658977756e-01 5.143378889241638774e-01
-8.749680469589536658e-02 -1.089626746857687706e-01 4.692967124758513631e-01
-4.891322807647693546e-03 -9.638329044238520826e-02 4.544758150895061855e-01
-6.577514011375455716e-02 -1.128676965617494143e-01 5.182574194625977348e-01
-8.118884800649368849e-02 -1.006858753016278973e-01 4.404681134391212893e-01
-2.300155698346755678e-02 -1.184689667125059520e-01 5.408182798140386272e-01
-7.189992588675389595e-02 -1.125364757283951606e-01 5.089815037168916589e-01
-4.609914153438843254e-02 -7.806130542691368246e-02 4.313754477979789836e-01
-8.732938897062277744e-03 -1.129171629983756892e-01 4.728399263518688334e-01
-1.437245421769761146e-02 -1.233962257069603496e-01 5.183766891352260542e-01
-3.245631024600202641e-03 -1.259686025131070697e-01 5.218164036508011749e-01
-7.920394502381007673e-02 -1.113581781624471967e-01 5.049838493634823955e-01
-4.972888832267193665e-02 -1.040979351801773201e-01 4.534061108590919931e-01
-8.753125075887333018e-02 -1.107962508986030936e-01 4.876486545439979170e-01
-2.457617429511186821e-02 -1.195884950823354886e-01 5.313401039461063124e-01
5.512104432952874382e-03 -1.266988135464955367e-01 5.271387625696118961e-01
-4.573931589532895248e-02 -9.647759267664848815e-02 4.443394561809812515e-01
-8.654351826465894737e-02 -1.106425052269718046e-01 4.798942436079170482e-01
-3.004323682058657186e-02 -8.251172067567892621e-02 4.422605652652784602e-01
-1.319946875326758785e-02 -1.227385389627353995e-01 5.315036794062388825e-01
-6.288207621166785888e-02 -1.073095684126034594e-01 4.570176053477514322e-01
-8.691160243548747000e-02 -8.481736316177579393e-02 4.491382377041329699e-01
-3.813952159710810863e-02 -3.309638944395337790e-02 4.361072775352208275e-01
-1.559839210036991809e-02 -8.478302180127850196e-02 4.458424777257954386e-01
-1.293045547717629196e-02 -1.085369664409965157e-01 4.668563270421323685e-01
-8.215011495595793412e-02 -1.001881855709776947e-01 4.409079778981201403e-01
-4.847103950488779178e-02 -3.649020119455975014e-02 4.370698906292588282e-01
-7.167025868899491725e-02 -1.013409514240305731e-01 4.282586558405114263e-01
-2.536314800526272631e-02 -4.816370759173538990e-02 4.386976971291506877e-01
-5.851519642393708531e-02 -1.146224262698759544e-01 5.150068681323951569e-01
-8.107743649713540501e-03 -1.246463997170875609e-01 5.257437180626619577e-01
-5.214349744397552000e-02 -1.129462662348473673e-01 5.315323932836760745e-01
-2.616743290599613664e-02 -9.013404650926641615e-02 4.477562500016203373e-01
-8.721922004430392172e-02 -1.100372876551685419e-01 5.021494643903772204e-01
-2.787569832198265318e-02 -1.185749412525799601e-01 5.336152909903617569e-01
-3.885710859507925802e-02 -1.011918991302382526e-01 4.559406576822627732e-01
9.678840361672602643e-03 -1.267063426405756199e-01 5.290537407539815939e-01
3.406234483914274708e-03 -1.132646493455018721e-01 4.737422695503157311e-01
-2.712173727881210181e-02 -1.140486701734034630e-01 4.826460132654136759e-01
-4.855399276258080127e-02 -1.145971075753750429e-01 5.285574239456596324e-01
-5.787302519481504065e-03 -1.240522875053052254e-01 5.034939063665587744e-01
-4.497318466717910995e-02 -7.803478944794241257e-02 4.322695945213422264e-01
-1.060260673145133475e-01 -1.018406687222070811e-01 4.707780170988028479e-01
-1.600314168749213117e-02 -1.123053936619976129e-01 4.748634765144287284e-01
-9.677998387261761704e-02 -1.088993798508729044e-01 4.823751878256303804e-01
-5.502274751201141623e-02 -8.050325409127319365e-02 4.260652755746807685e-01
-6.629070831147851339e-02 -1.033435057421114855e-01 4.275602852533743059e-01
-2.637357765180440433e-02 -1.154918309457492326e-01 4.870320421285844747e-01
-6.175689190390617339e-02 -1.109920466952079715e-01 4.727509792157234547e-01
-8.967698048297084723e-02 -1.070174363472895934e-01 4.636410029315691239e-01
-6.535129744690273967e-02 -1.035076453638012206e-01 4.268499232146111821e-01
-1.990320474438923154e-02 -4.202962983881736170e-02 4.391299209288389571e-01
-1.057761154866847797e-01 -1.016213693594902878e-01 4.698070329572739401e-01
-3.494840979425270500e-02 -9.100052123329051279e-02 4.461949831063527494e-01
-4.494942940258180725e-02 -1.037389466865651227e-01 4.561082993546138331e-01
-4.358365167287727576e-02 -4.885156906045234199e-02 4.347842940120969502e-01
-1.061545000839086983e-01 -1.061556348054944893e-01 4.888640501062001542e-01
-5.122133964891990160e-02 -5.981901620045484980e-02 4.319545681963457562e-01
-5.309516206224800666e-02 -1.093386305386304380e-01 4.661895008322547440e-01
-3.913338409894701747e-02 -1.177069990321770593e-01 5.156941968628825368e-01
-1.326744400182015837e-02 -1.217570981139288605e-01 4.987708999527305509e-01
-5.133123280935435878e-02 -1.082746841094163609e-01 4.636379905854974837e-01
-1.134810677348090623e-02 -1.215764022529528948e-01 4.959190680388699812e-01
-9.839192834946919319e-02 -1.085214330716055692e-01 4.834050692956500805e-01
-9.339077098628169316e-02 -8.881503997181153243e-02 4.556641901248973392e-01
-1.106451687612026655e-02 -1.095188630332736279e-01 4.679756074413125022e-01
-3.189662546307071855e-02 -1.190840372212013942e-01 5.154205832465242887e-01
-8.924338541075013329e-03 -8.081823617408517846e-02 4.451791330164864280e-01
-6.299491134113133217e-02 -7.073765070127922827e-02 4.291812073219564150e-01
-1.099045491750443165e-01 -1.006300284827865016e-01 4.800207117147797797e-01
-5.711321983309203265e-02 -1.106073901673447768e-01 4.702416046769837266e-01
-3.626738361013875922e-02 -1.082822175393569203e-01 4.700700380010778279e-01
-1.086923673945817265e-01 -1.038089368051941519e-01 4.950289452380743915e-01
-6.447103401145563850e-02 -8.218355466044138802e-02 4.249365487599329749e-01
-4.546678479865461781e-02 -7.827823537950111266e-02 4.318640560246522764e-01
-6.640039797510487174e-02 -8.673828600166136327e-02 4.226325096070258636e-01
-4.696521777143927018e-02 -1.156462446002741451e-01 4.965423956882709655e-01
-8.329997544343574478e-02 -1.106248740048478563e-01 4.758177743281570837e-01
-3.343198020316303504e-02 -1.078460969609346259e-01 4.693616792985443320e-01
-8.126292870684573288e-02 -1.024313192322537786e-01 4.448723124446322119e-01
-4.059910303656665692e-02 -6.061929729570545572e-02 4.343298504153870199e-01
-4.399670216358757269e-02 -4.737027333691929548e-02 4.348292762753407370e-01
-5.401156681918242719e-02 -1.129986194164484814e-01 5.297622952716821709e-01
-6.475655871847647849e-02 -1.112289922691472033e-01 5.260749083661080405e-01
-1.018469764671982858e-01 -1.046478641349716243e-01 4.672634457359662319e-01
-5.689846293145892769e-02 -1.049713469548989725e-01 4.486259677208138119e-01
-8.619587216763258120e-02 -1.097002927629322083e-01 4.713720984472087872e-01
-1.063409887799966203e-01 -1.047634483882409900e-01 5.013825097457713653e-01
-8.306589331765139306e-02 -1.089297450302604969e-01 5.139148419973911253e-01
-2.012168889144195366e-02 -9.801753797460839579e-02 4.561927372371727962e-01
3.943547355521999365e-03 -1.255465542480984353e-01 5.074091743805978494e-01
-7.525973471987597307e-02 -1.100877876859041732e-01 4.707938450024574673e-01
-7.435152409362252857e-02 -1.037272126990292781e-01 4.403357678805532305e-01
-7.925705957340556385e-02 -1.090289719106259519e-01 5.181133469824866777e-01
-6.220706614776189830e-02 -7.807004366755966596e-02 4.262065470139657086e-01
5.171096065792459180e-03 -1.264008638459221401e-01 5.130478628967855004e-01
-9.284360860448603869e-02 -1.038735822748061838e-01 4.578998598761607752e-01
-8.452786217252394874e-02 -1.101120316826474793e-01 5.060177827604658285e-01
-1.010383977330532451e-01 -9.046480091830798320e-02 4.655213840511198686e-01
-2.004805441736281016e-02 -7.368971377768550324e-02 4.410015112312217767e-01
-1.212782420820753514e-02 -1.237026735983732806e-01 5.112504586322293987e-01
-8.170627768868025942e-02 -1.042235079584710039e-01 4.500659827969068494e-01
-3.466546514777262694e-02 -9.145961368449515017e-02 4.466949114553625533e-01
1.506142759050039430e-03 -1.016822051408711597e-01 4.599607171722918109e-01
-5.060166582283731618e-02 -1.107191981106533663e-01 4.719104821588922527e-01
-4.211912417101527917e-02 -2.647595701799869070e-02 4.363684673955446902e-01
-4.738961291736907416e-02 -1.054663380455079374e-01 4.581636111827880886e-01
-1.620854301908823680e-02 -1.131425991473442999e-01 4.766157943270896702e-01
-5.981376661853050197e-02 -9.033790212608684700e-02 4.231462542935220394e-01
-4.456288447836002919e-02 -1.001047038678289647e-01 4.498211336185785614e-01
-6.933915177015341491e-02 -1.079774652747021585e-01 4.599182196239745002e-01
-3.203711587135934374e-02 -5.641824798923152778e-02 4.366308702393241759e-01
-5.367403708364777704e-02 -8.446693098934486554e-02 4.259306053752883181e-01
-1.058082313836660737e-01 -1.033088883157823185e-01 5.053099831445168055e-01
-1.036441577927833396e-01 -1.046206149557710324e-01 4.697454074357562681e-01
-7.051856275111030581e-02 -9.561123553504230488e-02 4.227495963648598143e-01
-1.111354735737861248e-02 -1.233850146304569378e-01 5.311336736381573331e-01
-3.641333588922208986e-02 -9.901395166953366744e-02 4.539882754296916123e-01
-9.585693754965519953e-02 -1.051544768964720739e-01 5.124946851326901420e-01
-3.918553589557527417e-02 -1.169288559317178539e-01 5.266986482470726871e-01
-5.949816636731480868e-02 -1.046081646142146132e-01 4.295071098447473812e-01
-7.936729127009972684e-02 -9.048314397576456836e-02 4.320059271597525008e-01
-5.799026433030218808e-02 -1.142027890659096379e-01 4.954533771057802460e-01
-1.412473222552418535e-02 -1.174735473610050568e-01 4.849568795579542457e-01
-5.830868808805023812e-02 -1.128186029121680672e-01 5.269033302492645010e-01
-4.791152010078338075e-02 -1.161080664949839941e-01 5.056959301150583119e-01
3.159165541551753331e-03 -1.251921650966083266e-01 5.050393089480090802e-01
-1.127139255117213384e-02 -1.220738125777104804e-01 4.981305899461029307e-01
-2.544057558122532828e-02 -1.165574468363901744e-01 4.902911712312034709e-01
-9.063710132761716720e-02 -8.837753018018516815e-02 4.514830991279285555e-01
6.510497609191021051e-03 -1.238631402314273183e-01 5.010083995186283001e-01
-5.946662169436284229e-02 -7.077921892145738747e-02 4.284222557721297786e-01
-9.711965361096294713e-02 -8.789975869331213831e-02 4.625129027909130608e-01
-1.049477309176072466e-02 -1.223526872105757390e-01 4.986487195969929731e-01
-5.677501237779403881e-02 -5.152815838003286381e-02 4.370775430995181288e-01
-4.056069088601532008e-02 -7.003622406356956043e-02 4.338929028672336430e-01
-9.803121466838890519e-02 -8.816718905757701952e-02 4.635266037336230327e-01
-8.231054028362003172e-02 -1.100851865475684782e-01 4.715299769886519554e-01
-6.762388272723202087e-02 -1.131970778629039498e-01 4.974948667344354925e-01
-4.184442942246785480e-02 -1.100347230104886664e-01 4.727649468118715337e-01
-7.450165463852385928e-02 -1.018940230303449906e-01 4.326559250001994483e-01
-5.016555033528584395e-02 -9.127686539342996785e-02 4.289408733836114762e-01
-2.545977863519994361e-02 -1.004332657226450487e-01 4.592746647729211151e-01
-5.588518021631473653e-02 -6.978731656544853723e-02 4.279540030246866689e-01
-5.688339888893933875e-03 -1.131626243711241347e-01 4.730375432173687389e-01
-3.824476033225771010e-02 -6.799463485340319358e-02 4.349412045894127665e-01
-5.822536027331527003e-02 -1.100881587280906071e-01 4.685583938699156015e-01
-2.164998710259409195e-02 -1.207340005699577279e-01 5.275087183058068119e-01
-9.670673094498534461e-02 -1.089726950141877704e-01 4.904977334378116671e-01
-4.161160557762760143e-02 -1.172855702393360289e-01 5.114001410789746904e-01
-9.427709217982947754e-02 -9.855479664689066610e-02 4.534949641892500605e-01
-2.834557910754544746e-02 -1.185007458298122512e-01 4.988214107422581645e-01
-4.069406079807146720e-02 -8.561745333535193681e-02 4.384795886474516791e-01
7.799348707495214542e-03 -1.232706773672048173e-01 4.994294634196906890e-01
-3.960418309982134677e-02 -1.172181120795934006e-01 5.025983534163446231e-01
-2.172863643670325251e-02 -1.169389114692630377e-01 4.893280409436646661e-01
-3.805195744977178662e-02 -9.803345755388824523e-02 4.516189202651776369e-01
-1.877370452221322622e-02 -1.122309601004619073e-01 4.762303695399912051e-01
-5.637337625772706473e-02 -6.756800475045943166e-02 4.291740263916952181e-01
1.645684929929893845e-03 -1.265184179302641654e-01 5.275530486957246135e-01
-2.224667014334932164e-02 -8.859632445224412123e-02 4.469353936380078274e-01
-9.347008645489218726e-02 -1.097690662984769777e-01 4.906457292198174169e-01
-3.735747476766104053e-02 -1.177924739322941672e-01 5.044284788346304893e-01
-7.165736284585946803e-02 -1.119782642383847920e-01 4.835072684686621547e-01
-8.326914102073355861e-02 -1.114366087296863872e-01 4.869360375620800929e-01
-1.111229030145625962e-02 -9.253378642281474831e-02 4.504806929817027350e-01
-3.765603779075361174e-02 -1.051076940483554739e-01 4.633656074162118554e-01
-5.510469722832100209e-02 -4.946358547387343096e-02 4.359082503851632873e-01
-5.226492066908519640e-02 -2.477395137456620683e-02 4.400280328544909914e-01
-6.254125138450125632e-02 -9.019658149730228058e-02 4.225868447177017484e-01
-3.044792255654194674e-02 -7.378118595502410060e-02 4.385468790606010803e-01
-7.650328974609411914e-02 -9.287736753638015097e-02 4.280102713202412201e-01
-4.285081398375340661e-02 -1.167580737746605896e-01 5.022645811931519821e-01
-2.915928374358089936e-02 -1.170121174729836649e-01 5.404257759821583518e-01
-9.062206694351848668e-02 -8.949423520827855250e-02 4.503658713637467281e-01
-9.079047953020719097e-02 -1.051536355542593143e-01 4.590620656052628035e-01
-4.748947174643732005e-02 -7.001948972515051328e-02 4.304027162181215949e-01
-2.992466395612872199e-02 -1.174314740030465709e-01 5.374360305474115140e-01
-3.033933879232839689e-03 -1.257001623450512695e-01 5.269817818799561460e-01
-8.643179851204461916e-02 -1.065415214885155060e-01 5.170586242019143963e-01
-4.401080018600965482e-02 -3.146473603938815256e-02 4.357856970169859956e-01
-8.639445563243958182e-02 -8.601098305720566994e-02 4.470841021376947277e-01
-5.535713902950119454e-03 -8.702696688762193156e-02 4.484883296298143307e-01
-5.602836657090212724e-02 -1.038379405397984179e-01 4.263128456888226059e-01
-5.629050498349934956e-02 -1.112846213482651114e-01 4.730573384943628779e-01
-6.719637395356237858e-03 -1.084418216097323834e-01 4.659905625888947633e-01
-4.415927874781536144e-02 -1.072404044477054397e-01 4.640752849564966365e-01
-1.382619716256403355e-02 -1.035594342521142103e-01 4.608220555132607199e-01
-1.018629200558675424e-01 -8.862519813811481351e-02 4.692463164307689727e-01
-7.153357141042793188e-02 -1.055497723301400820e-01 4.482657512699314561e-01
-2.855195817656680166e-02 -9.884033448031390168e-02 4.567345128346435579e-01
-5.201795669828213065e-02 -3.216463170118216003e-02 4.390947681178962725e-01
-4.270653487854308983e-02 -1.136978605397027942e-01 4.863469550395657648e-01
-8.689155486544733464e-02 -1.108944197453245462e-01 4.926450197953564647e-01
-1.636274902108771426e-02 -7.928040152867463219e-02 4.433082006167476385e-01
-2.386660268020305772e-02 -1.183651990692627248e-01 4.958285403898413657e-01
-5.676948904201899876e-02 -7.585607637155800109e-02 4.264243348649037757e-01
-9.598141682975573630e-02 -9.308849598179816387e-02 4.557034550463874290e-01
-3.814592865023712365e-02 -1.177035274808278659e-01 5.057445659593591269e-01
-7.356225991324570612e-02 -1.123885320134269949e-01 4.938969574599567092e-01
-5.722319344600487918e-03 -8.486848481538247779e-02 4.474054291818311824e-01
-3.202522885649835421e-02 -6.217712303257003775e-02 4.368940998913692364e-01
-4.753401526078403216e-02 -9.956807677349624464e-02 4.462344136511394721e-01
-8.015889310002884127e-02 -1.107293332460142499e-01 4.754786316033918769e-01
-3.852844947911483742e-02 -8.717914873421749034e-02 4.411551088922796571e-01
-9.086780064732402629e-02 -1.055001988152297204e-01 4.599678735827515963e-01
-3.802232248212914639e-02 -1.179030233075900047e-01 5.169749845552727985e-01
-6.365938295466042063e-02 -1.053141842772279957e-01 4.416718449275643388e-01
-7.199680249974108048e-02 -1.053263103979856924e-01 4.469967243626083997e-01
-6.706067530821889500e-02 -1.096312879051293959e-01 4.673472264894225625e-01
-5.633198166215682562e-02 -1.100257689219075463e-01 4.683057120533403173e-01
-2.238309781147342775e-02 -5.178163943520278784e-02 4.387270799983887803e-01
1.934843555935355369e-03 -9.108905597765404316e-02 4.516807647230961509e-01
