3.666057910701965572e-03 -1.267881543592803972e-01 5.259065687396702327e-01
3.655451403842038902e-03 -9.914523522919127529e-02 4.579320652765832000e-01
-6.748761424644593443e-02 -1.129482947480280747e-01 4.945040793108781974e-01
-3.616215047867978039e-02 -6.502307149468258829e-02 4.356260222415422878e-01
-2.226258759125234604e-02 -5.653600648890876740e-02 4.381639431617319613e-01
-5.051303818457549694e-02 -8.970358566338999806e-02 4.286796302376278400e-01
-5.930273429692615311e-02 -6.441066563300422432e-02 4.319094703791115930e-01
-8.337300587407059371e-03 -7.351278838038595442e-02 4.425537837100521621e-01
-2.077434654639856090e-02 -1.211749544123407046e-01 5.252252058335903362e-01
-6.962867380878232093e-02 -1.072823002572031587e-01 4.576235955902282493e-01
-1.890676843228306786e-02 -1.052951673526209830e-01 4.641108814692440632e-01
-2.324584461783599232e-02 -1.175484434863229288e-01 5.441089036873637541e-01
-2.307356231656482876e-02 -6.231729326193512220e-02 4.384812950007350163e-01
-3.904259853417644394e-02 -1.177087944596388186e-01 5.119550241180818029e-01
-6.650424673994528857e-02 -7.995322982590687133e-02 4.270874287381495327e-01
-6.744829705583669545e-03 -1.089047925826475416e-01 4.665094986035082103e-01
-1.643146357356392584e-02 -6.518995568686575259e-02 4.397746700338805992e-01
-6.778301627703273158e-02 -1.129680239888694732e-01 4.955365523316556109e-01
-2.633374544143463059e-02 -1.194346034823085823e-01 5.287649785529106028e-01
-5.888930626135576579e-02 -1.141881641401294167e-01 4.978919005540247689e-01
-3.764811563513124903e-02 -1.179623858954899629e-01 5.132731479348064951e-01
-2.317210609643475042e-02 -1.159062063306490614e-01 4.871548662969767962e-01
-9.574448713673137240e-03 -5.901208516878325705e-02 4.388254694616082197e-01
-4.186393561841375566e-02 -9.025793617374057443e-02 4.419962621962625904e-01
-3.886939184050930418e-02 -9.677535879685397746e-02 4.495349393371767532e-01
-6.402594425250617005e-02 -9.606403763986108568e-02 4.226284064623553882e-01
-6.400083389892244345e-02 -1.072717577638219177e-01 4.571155208567047046e-01
-3.608879612074106930e-02 -1.160702433047117732e-01 4.930424914179796225e-01
-1.839137210258671301e-02 -1.098922081807016810e-01 4.713456450929048303e-01
-3.324187885897668393e-02 -5.161807405828893608e-02 4.366078593685022713e-01
-1.141328588682403132e-02 -1.224190917867878092e-01 4.998299418357310953e-01
-7.779496161942195398e-02 -1.043752753051754856e-01 4.462782684771186004e-01
2.068445536624322154e-03 -8.571990390501242618e-02 4.486661257990929297e-01
-2.258550647742480627e-02 -1.209218316909844437e-01 5.223332010872561160e-01
-8.286827816083784659e-02 -1.111740043829271829e-01 4.964379518296669347e-01
-1.424737384411806085e-02 -1.231799925067719181e-01 5.231627886941688788e-01
-9.329689139004890275e-02 -1.096392748154057656e-01 4.930968031734033752e-01
-1.698107373389506555e-02 -7.991005368154190103e-02 4.434048300485844973e-01
-2.581141939705045452e-03 -9.666810458800774442e-02 4.551079152480522749e-01
-6.490688861067921145e-02 -1.051789551538623163e-01 4.409296032463214110e-01
-8.215698356580321271e-02 -1.072198782983689869e-01 4.603261911786790117e-01
-6.411741422754552167e-02 -1.134637294471483870e-01 4.977089833382770667e-01
-7.856881335610242656e-02 -1.010321835793936140e-01 4.375449009589356675e-01
-1.070011435558750473e-01 -1.043463335081832588e-01 4.804031086291622454e-01
-7.339171738688456993e-03 -1.058908968473239454e-01 4.631526531698825777e-01
-4.395140378551106765e-03 -1.243336953286628410e-01 5.333958388000168416e-01
-8.842830195911645721e-03 -1.243535788890682281e-01 5.272989111155877984e-01
-6.850687509024509791e-02 -1.058365394702382861e-01 4.501607179555425775e-01
-4.105553405143367446e-02 -4.270464293944934570e-02 4.351611819741800224e-01
-1.918069077415843204e-02 -1.178896548505063563e-01 4.904783789357741175e-01
-6.131201840760215627e-02 -1.101874780666358411e-01 4.698125466603823019e-01
-4.810379481590856127e-02 -1.161249783560334842e-01 5.099440974272940741e-01
-5.579457043411611972e-02 -1.038095214295249452e-01 4.293512116190820738e-01
-6.783176414186725678e-02 -1.040649293419769333e-01 4.355216297577045870e-01
-9.250723277443276271e-02 -1.096941537027203983e-01 4.839096409152141565e-01
-5.749941515201148490e-02 -1.147545129492211907e-01 5.120145611086576176e-01
-1.872540854006268449e-02 -1.083473315194599107e-01 4.686195797317688760e-01
-1.062524069815052414e-03 -1.263709188649874970e-01 5.245137376903908910e-01
-6.914258273238103880e-02 -1.037049445408325526e-01 4.353235307351746575e-01
-3.376965836279158945e-02 -1.176114662220444085e-01 5.295956559668089092e-01
-7.970966860158733291e-02 -9.859695941017151966e-02 4.351780777098022135e-01
-3.786744513167181886e-02 -1.172848145345104925e-01 5.258642252408503026e-01
-5.790250253727128107e-03 -1.246620960094589614e-01 5.070280377803692007e-01
-2.470905547535830193e-02 -1.052174118545141646e-01 4.657850774009949513e-01
-7.490700714776593258e-03 -6.155879961185274640e-02 4.392032699163418430e-01
-5.188052620365709439e-02 -1.146381123712982147e-01 5.241480948340536683e-01
-3.757031883776339870e-02 -1.171783756514791913e-01 5.269122808284226744e-01
-9.485622528930347241e-02 -9.837715998842863629e-02 4.537096504180794243e-01
-2.596190739060617175e-02 -5.304053869958071099e-02 4.380879825596188937e-01
-2.465723845075486198e-02 -7.786305673034550623e-02 4.415251833600591924e-01
-1.059881833638510601e-01 -1.027437685988401711e-01 5.059936866626433272e-01
-4.648133489497142945e-02 -3.740982548382517509e-02 4.358389388306282419e-01
-9.030045027387853529e-02 -9.913113167915005297e-02 4.495139318564181363e-01
-3.612825887339560921e-02 -1.008784018526681370e-01 4.575184949311890681e-01
-2.226334466310313925e-02 -1.211481340968674769e-01 5.105906389491251529e-01
-7.954480499737559551e-02 -1.089725754836703281e-01 4.664116444084432378e-01
-5.293707646710644338e-02 -1.057905224409255857e-01 4.559865846195312322e-01
-3.846713960055268139e-02 -7.131649853706482911e-02 4.349027151989299234e-01
-3.786853752777703114e-02 -1.129525747748697379e-01 4.831079246189385890e-01
-6.505152805849827302e-02 -1.058248148705042135e-01 4.469041173175983261e-01
-2.095119071874472841e-03 -1.027886176174128141e-01 4.606146985454312448e-01
-5.022470201224279313e-02 -1.144323616700291119e-01 5.270466316409171403e-01
1.023313467226657537e-02 -1.266702697664738309e-01 5.298272256585159212e-01
-1.093290205801007026e-01 -1.029707197044782419e-01 4.993396435177731574e-01
-6.130503979682489640e-02 -1.014071474707266274e-01 4.241704449844355684e-01
-2.274118275525637348e-02 -1.013621905559380643e-01 4.604837963638344078e-01
-3.282703404893743543e-02 -4.557661932233922353e-02 4.369616203260420217e-01
-3.261609359733097513e-02 -1.106547337626405808e-01 4.756129240674637493e-01
-8.329586635866442768e-02 -9.489784337652415469e-02 4.383092340755483374e-01
-5.544541640932700022e-02 -1.034819087591011127e-01 4.303862035816766740e-01
-1.070247056442299310e-01 -1.041954448837337927e-01 4.793002161872044753e-01
-1.005984192114117021e-01 -1.047841032333913514e-01 4.666277935675491872e-01
-3.420890561857784645e-02 -1.186059054077714531e-01 5.105897800578234058e-01
-7.461968450487162230e-02 -1.105458681831538031e-01 5.180294660591455713e-01
-1.229305281771019866e-02 -1.224180514466184644e-01 5.008412748402515380e-01
-7.665315141766841645e-02 -1.099473440236051758e-01 5.177438738810442587e-01
-4.710866937324825754e-02 -1.098149841095714813e-01 4.703399790415184745e-01
-4.626756120385004667e-02 -6.492281096536924034e-02 4.315503819506923966e-01
-2.718894977619536191e-02 -8.373743558446866686e-02 4.435932772893280696e-01
-5.680958616490335705e-02 -1.148173301339522612e-01 5.089810199742412777e-01
-4.547712366626805065e-03 -1.165322619603417764e-01 4.788182926578665177e-01
-6.226371641084258585e-02 -9.802620221247505816e-02 4.238210839149382791e-01
-1.061130651631456145e-02 -7.725572181813054884e-02 4.435793913746108874e-01
-6.895450638057123993e-02 -1.049701778176899830e-01 4.422331347529593892e-01
-5.149124276481571727e-02 -9.409468530031320221e-02 4.281001129746994094e-01
-7.750332168468959670e-02 -1.098132888081030795e-01 4.701060391687534312e-01
-6.710401156117898336e-02 -1.084811608505355518e-01 4.624452766599109199e-01
-4.715744284640487061e-02 -7.370839252546232401e-02 4.305336681928860765e-01
-3.998044547274026694e-02 -2.859350172826924386e-02 4.362072365791870299e-01
-2.201529941783069225e-02 -6.535214968892896770e-02 4.389553287480905674e-01
-5.423465939620578102e-02 -7.767029605040830231e-02 4.267386318940696310e-01
-9.062089355995404938e-02 -1.089703574019470350e-01 5.043751347623283143e-01
-2.071820140559955947e-02 -7.196027079203878851e-02 4.404611897800604359e-01
-4.526361073154815812e-02 -1.061266824224133681e-01 4.614738015227861645e-01
-6.451801579522914443e-02 -1.098181917795196388e-01 4.683858554896139226e-01
-3.172048441666404373e-02 -1.030395040075352264e-01 4.620594773361569318e-01
-5.671743415210886430e-02 -1.117969154531241877e-01 4.776850366925657343e-01
-3.771030081993300559e-02 -3.674617311196803904e-02 4.357507129305376314e-01
-5.457363498277056912e-02 -4.103342511381483093e-02 4.410474041906428111e-01
-8.264143141562251341e-03 -1.248616873242171799e-01 5.215106651922922776e-01
-7.173861356996916183e-02 -1.087304248452107547e-01 4.639763042242233126e-01
-8.937808355996371135e-02 -1.066682967485288319e-01 4.625816893807279673e-01
-7.198473416354654597e-02 -1.124085846929559068e-01 5.089050259220525563e-01
-6.279146301120674956e-02 -1.135228744240298904e-01 5.170861750314781347e-01
-4.666151722492350301e-02 -5.369127165146384689e-02 4.343104950026962507e-01
-3.234953484654817107e-02 -4.977437820051100470e-02 4.369757735020771139e-01
-4.406893743165994637e-02 -7.916353221160916942e-02 4.332176495254378423e-01
-6.392257748355618940e-02 -7.823394736603798971e-02 4.270085969319639130e-01
-2.641766200649482005e-02 -7.758126175538627989e-02 4.409000740398196228e-01
-2.980013838215920044e-02 -9.197566121675240791e-02 4.486796883155579341e-01
-5.360596032791796473e-02 -1.049250502450057992e-01 4.525544335426033848e-01
-6.811536231424865362e-02 -1.121237258314862345e-01 4.853683096907603911e-01
-9.402351244988964296e-02 -1.090502543430932614e-01 4.768559469240711834e-01
-7.039857326687673500e-02 -1.106717353495357270e-01 5.218954186249427085e-01
-4.651324659692181868e-02 -1.039784198107692736e-01 4.556570372217584874e-01
-1.036205997264484646e-01 -1.067390567564743958e-01 4.952931163487551691e-01
-2.005245831041032462e-02 -1.182822989475394992e-01 5.444788745413368103e-01
-1.080617884899587877e-01 -9.850156156029801768e-02 4.721158153109134559e-01
-5.969309888489048033e-02 -1.144160603322053466e-01 5.140586510234551598e-01
-9.990073426053232980e-03 -1.238802606072126056e-01 5.079004769801265251e-01
-8.533441166902021313e-02 -1.098387318130472634e-01 5.056708982061512980e-01
-1.717189850798116896e-02 -8.199358337568656008e-02 4.443085410692267923e-01
-3.633736980806052952e-02 -7.354970476216043940e-02 4.360563825674504401e-01
-6.945956799755309552e-02 -1.052081322903878624e-01 4.457941560928436187e-01
-7.934410733934270377e-02 -1.116653712535146531e-01 4.933110234762787538e-01
-6.274415533181319782e-02 -9.220168734075494255e-02 4.223132079314968479e-01
-1.043154859949392554e-02 -1.127759891340400084e-01 4.730811816343989951e-01
-7.811374977756893601e-02 -1.111112056752035643e-01 5.087846725762170674e-01
-6.732614918178965457e-02 -1.120139233052475647e-01 4.835213106208176570e-01
-1.758937119455872191e-03 -9.283066718122381933e-02 4.522552303770701609e-01
-3.058328205130817282e-02 -8.989110686729535893e-02 4.464687293640510757e-01
-6.702109416639602524e-02 -9.483633857649047261e-02 4.217712815367910539e-01
-2.009502095880557823e-02 -5.208994787456078246e-02 4.386460793439114769e-01
-5.099699192738711001e-02 -5.466363789599792966e-02 4.334892711143212840e-01
-2.621693233600037864e-02 -6.614265602078224504e-02 4.383057975497511860e-01
-6.343186529084320069e-02 -1.138630334489176971e-01 5.092240610637380760e-01
-5.657415798354586273e-02 -1.032422269102761109e-01 4.432536490309982313e-01
-4.897529789566741620e-02 -7.772491407816060904e-02 4.293216872481434576e-01
-6.938072913884327231e-02 -1.065468414588907342e-01 4.542354603281054670e-01
-7.744926621447158210e-02 -1.116396966974727151e-01 4.859343657270506212e-01
-2.111889946679333663e-02 -1.112024640545000165e-01 4.750209695858691461e-01
-3.646582621817121006e-02 -9.850231012338787895e-02 4.534038669633447816e-01
-2.657763860246396131e-02 -1.006953246606832469e-01 4.596495974237225224e-01
-4.053479606541324221e-02 -1.159516937333196079e-01 4.947524314715369131e-01
-2.078417656754419016e-02 -1.010276371626685626e-01 4.597783193815397906e-01
-4.240817619121019233e-02 -1.169114613725904389e-01 5.194339658365846324e-01
3.176386677827553861e-04 -1.266329756775290694e-01 5.184943759119424733e-01
-8.698691755953323612e-02 -9.611249128712465173e-02 4.441668818576191557e-01
-1.034781595129361798e-01 -1.041676579435925065e-01 5.053246875212826783e-01
-5.580370013549632024e-02 -4.768560946156201463e-02 4.386855676166631635e-01
-2.766258350045613587e-02 -4.441543879558251806e-02 4.384089659905219261e-01
-4.663500340089438145e-02 -1.129202088132563453e-01 4.840013417746245605e-01
-9.967429125164045667e-02 -1.061953525518543190e-01 4.707162847889498902e-01
-8.931296865751989222e-02 -1.103773954634703347e-01 4.891721076906381249e-01
-4.753010732228279273e-02 -9.492716670070144858e-02 4.388333718788831050e-01
-6.315944790264411968e-02 -1.115328348548060983e-01 4.759111160945372898e-01
-2.567387292669691748e-02 -1.196691692708218568e-01 5.280748509074133512e-01
-1.059927860385254626e-02 -1.226474351109041877e-01 5.000787204544268061e-01
-1.041174717806201550e-01 -1.031837640443492438e-01 4.684151220392106518e-01
4.337287865223409845e-03 -1.256278470237997547e-01 5.082218519819459157e-01
-6.389136013666603386e-02 -7.411717762009140120e-02 4.277246848452444516e-01
-2.268432641911333550e-02 -1.174232552174475919e-01 4.914566742943702327e-01
1.168280346549456158e-02 -1.261782987158421299e-01 5.349370524824671458e-01
-1.008262189753466806e-02 -1.232120945574933374e-01 5.029947561396871381e-01
-5.872161494758273981e-02 -5.781875298376433492e-02 4.348905357313713749e-01
-9.108107247944706442e-02 -8.571072652452034479e-02 4.544374168043459616e-01
-2.082367943466250856e-02 -5.030009894361704703e-02 4.388047453274363519e-01
-5.680759252845482554e-02 -1.004487333530395821e-01 4.238220566803664324e-01
-9.218951552322865450e-02 -9.934042050256783329e-02 4.529406600897817325e-01
-5.035055540367810306e-02 -1.084331398703362870e-01 4.646521160945082385e-01
-1.391357173024647745e-02 -1.129451552164360550e-01 4.747338513199037546e-01
-8.092247671315577762e-02 -1.070236580400376475e-01 4.591017567527028165e-01
-1.080195289146291260e-01 -1.049083166204323736e-01 4.936464894448111540e-01
-1.073793230388532111e-01 -1.051594921426703688e-01 4.898613706764898268e-01
-7.380227694459344512e-02 -1.124832675542720983e-01 5.020691437617773589e-01
-3.150764034328219082e-02 -1.018028930552172667e-01 4.603096182577247619e-01
-6.366971022740151864e-02 -1.121218286365913419e-01 5.234480453531721311e-01
1.230518972483400295e-02 -1.258639981571285926e-01 5.364998074054211363e-01
-4.712826761848567560e-03 -1.237939525068476321e-01 5.349382703034119002e-01
-2.072463883985879371e-03 -1.194310781989682130e-01 4.858215945265031421e-01
-8.626506505542043401e-02 -1.084454032976699123e-01 4.672707515932889577e-01
-4.221442911410863003e-02 -1.171139081640372726e-01 5.106957563711204129e-01
-8.754661070553551583e-02 -1.104008846549807826e-01 4.977157492670731265e-01
-1.092978620464357953e-01 -1.029301739358192552e-01 4.962719265335521768e-01
-4.713619630991321835e-02 -3.873326290944504452e-02 4.358653008297529441e-01
-2.632428226579102554e-02 -7.903629742655640666e-02 4.416503885139147489e-01
-3.352783098420929891e-02 -7.853647659913777501e-02 4.394032738312467767e-01
-9.218130357238664419e-02 -1.095304836852272062e-01 4.784602388496804748e-01
-9.273878867684297311e-02 -8.933746670184346261e-02 4.536790581473981732e-01
-7.923848173516354065e-02 -1.029921069706691700e-01 4.438353132167230375e-01
-4.816879788845743887e-02 -9.874365232208606735e-02 4.448566738398326836e-01
-5.363890672649211655e-02 -2.439749272480406378e-02 4.453532104238758227e-01
-2.500446873413358223e-02 -6.325398144284855029e-02 4.382402429584247305e-01
-8.068068916033246940e-02 -9.438179848187736032e-02 4.335375950377396981e-01
-2.500114231359543832e-02 -1.038495513201044551e-01 4.639704702227461786e-01
-5.777632611066833845e-02 -7.415451627402491752e-02 4.265585244832914014e-01
-7.614018135396120879e-02 -1.098061249331169498e-01 5.187627548277525813e-01
-4.896128515526642494e-02 -5.406839697311145720e-02 4.338175322720606020e-01
-6.448911063129858512e-02 -1.061085850794522417e-01 4.501389684646830980e-01
-5.172994506381678459e-02 -3.814905721664822724e-02 4.376980832656971465e-01
-4.917156361431134631e-02 -1.128868298324685326e-01 4.831525095661705071e-01
-8.729876815333993678e-02 -1.063684876855235661e-01 5.163560399581433868e-01
-5.916213324580602700e-02 -1.061179679395208297e-01 4.521255609775549633e-01
-1.829217059361254796e-02 -8.836518765623810334e-02 4.472162968172912478e-01
-4.139838324506004558e-02 -8.319789835103701126e-02 4.368857605077439699e-01
-4.584048744181769275e-02 -1.123170398941856774e-01 4.815063340960914484e-01
-4.215399154890608208e-02 -6.549692538052770407e-02 4.331814062483131389e-01
-1.415497577286943011e-03 -1.066228620544561606e-01 4.644705700697718265e-01
-2.336599850835071115e-02 -1.204215115510703787e-01 5.257789721302824626e-01
-6.675446546741091447e-02 -1.130867263302154646e-01 4.954800514521359167e-01
-3.488721149439397151e-02 -3.775048209094623158e-02 4.363745889568085290e-01
-9.750446205374553588e-02 -1.086239691493604553e-01 4.905531973066399321e-01
-5.604578812046808606e-02 -1.099441462247431472e-01 4.684193381354829211e-01
-2.904385161082714221e-03 -1.239284195628400503e-01 5.010856800059103611e-01
-9.093948980703602664e-03 -7.262992303476838163e-02 4.421929010856567310e-01
-6.313542605517655226e-02 -1.119009546205125966e-01 4.788342520212737763e-01
4.046221063822383161e-03 -1.235280047375807294e-01 4.989950280390156312e-01
-1.048497636849356762e-01 -9.621649053456382550e-02 4.655592894950910110e-01
-5.739821160850622217e-02 -1.147515706935411245e-01 5.107614224746888087e-01
-2.597731936308138659e-02 -4.074614482704997515e-02 4.388044828622142401e-01
-4.061451892722680451e-02 -9.224489182503317619e-02 4.445663223512178464e-01
-4.554155085808858638e-02 -1.056116059933506907e-01 4.599623707330376399e-01
-5.682058283735797258e-03 -9.555844268103498573e-02 4.536800896066667255e-01
-8.977205733055501624e-02 -1.077622101712409075e-01 5.096756330735773277e-01
-2.025259676531321329e-02 -8.108337840281952535e-02 4.435583612658082764e-01
-8.861610950913359486e-02 -1.033701858538170759e-01 5.222834874393649240e-01
-5.598336302356727440e-02 -1.113620520469331687e-01 4.744387071330590233e-01
-5.853330163084539961e-02 -1.094946504902113565e-01 4.668756748715509053e-01
-4.561250702889649289e-02 -1.081364659247500554e-01 4.654805771287978122e-01
-7.222698739387130307e-02 -9.280066844173411045e-02 4.227089513986900249e-01
-5.430377233630328399e-02 -3.261812612475007561e-02 4.447194478675087770e-01
-3.018921125753188869e-02 -1.193109430269400917e-01 5.087104179628719747e-01
-4.046705055097822579e-02 -1.171485043051208874e-01 5.211657885745970553e-01
-6.629094982410274617e-02 -1.134507118618150179e-01 5.060720611801378110e-01
7.810392740307450093e-03 -1.230246493310862554e-01 4.986516151727135582e-01
-8.129262011050752967e-02 -1.085428494867590049e-01 4.652062124315697322e-01
-5.179481669325601556e-02 -1.022934997328830420e-01 4.475138727783616877e-01
-8.406017849369358530e-02 -9.769340763588446608e-02 4.420298480341128267e-01
-5.301266324906481198e-02 -1.145574859365874054e-01 4.945328268223767032e-01
-3.563076285398503878e-02 -4.946766260153403344e-02 4.359123636765777632e-01
-9.029036581448192378e-02 -9.803025848688703969e-02 4.484606537729853293e-01
-6.970241941561532151e-02 -9.204548565980442965e-02 4.212125410379762847e-01
4.456741451549306801e-04 -1.194848031755455509e-01 4.861863767028056227e-01
9.190402900105748910e-05 -8.895055906289536796e-02 4.502261546746996745e-01
-5.614554734934077557e-02 -5.884214929344640937e-02 4.321595256969170129e-01
-1.008250087581680499e-01 -8.959075116555753615e-02 4.655737412110946272e-01
-4.347156594517055661e-02 -1.012033114397412337e-01 4.527964235465389842e-01
-9.733864254009641503e-02 -8.939542889300272632e-02 4.603554011237995236e-01
-6.019564035093702414e-02 -9.899702018346102916e-02 4.238896490138008843e-01
-3.169359394560220672e-02 -8.250022491669870006e-02 4.417225176192490221e-01
-4.416741111871259201e-02 -9.408846257568438676e-02 4.436247267179436182e-01
-3.508279576146938750e-02 -1.159794286496980964e-01 5.384374712651387451e-01
-3.021353339568620330e-02 -4.772706644758076266e-02 4.377485595480398173e-01
-8.202726951798880450e-02 -1.102055878738351924e-01 4.733324565878882506e-01
-6.259803099133370852e-02 -1.045936648603445207e-01 4.362650194748327048e-01
-1.612754405338842623e-02 -5.698041007525966178e-02 4.387761999289811476e-01
-3.793485113820923432e-02 -1.175115138707749224e-01 5.228308617267904967e-01
-9.915246002505789802e-02 -1.082034595777476155e-01 4.906720921073452479e-01
-2.050307541195605862e-02 -4.656269340600770884e-02 4.390399338396101525e-01
-3.233463114962447510e-02 -6.457297768017078443e-02 4.369762748629950622e-01
-1.338309100004211535e-02 -1.144856922570160612e-01 4.777680467770243911e-01
-5.374127621309636449e-02 -3.370991978362946478e-02 4.414175107166279921e-01
-9.053519959470858122e-03 -6.655887135616941896e-02 4.406153475975728151e-01
-7.231467890363751927e-02 -1.025292022689563848e-01 4.332809484187962745e-01
-4.328479737262883736e-02 -9.615248332447388913e-02 4.462929025403907235e-01
-3.320315957457675715e-02 -7.748691294308421296e-02 4.390677327925036622e-01
-9.120213307379418637e-04 -1.264119090952180169e-01 5.203261809239336788e-01
-8.023426275953486619e-02 -1.101674194896489906e-01 4.724474760715023924e-01
-6.256042616895819697e-02 -7.162046853842254923e-02 4.283489948500887601e-01
-3.842180019624709397e-02 -4.930821390559562284e-02 4.354815647821327906e-01
5.562398210444110570e-03 -1.262972275861241056e-01 5.313012176337073011e-01
-4.742977031953529710e-02 -6.582069478491886505e-02 4.308650955447319020e-01
8.478485299467972136e-03 -1.256977211317335252e-01 5.365806875658297725e-01
-2.884165609562594577e-03 -9.088574140554714353e-02 4.509787524247144685e-01
-4.680885571816673085e-04 -1.123663225958126954e-01 4.716967740838387546e-01
-4.728230649407600544e-04 -8.356916919642917718e-02 4.475050370785580989e-01
-5.528183508640128335e-02 -1.024138396707725551e-01 4.257296806101639186e-01
-4.435603057905068008e-02 -1.004615416746300338e-01 4.508700631422826177e-01
-6.825094823955694945e-02 -1.026053998777482490e-01 4.274087322889705276e-01
-6.179217681196131490e-02 -1.104121602125510554e-01 4.707338577902849264e-01
-2.265869633618642146e-02 -1.058184581977903438e-01 4.661470705592826169e-01
-3.713940411250407636e-02 -1.067178673466402522e-01 4.665031325999156042e-01
-5.060233565794892280e-02 -9.588963194659964884e-02 4.297134431381836039e-01
-4.096952382049785790e-02 -1.087031313659394816e-01 4.689384140031953585e-01
-4.883471862707525202e-02 -9.625609206653469585e-02 4.379501303563138048e-01
-4.665350312994764187e-02 -1.075696783780343002e-01 4.638857174516817783e-01
-8.274204767088655377e-02 -9.443585039508843593e-02 4.370673154634585611e-01
-7.464964449683861476e-03 -1.191621220435549605e-01 4.858274136516152475e-01
-2.621132835516457732e-02 -8.879335156948457708e-02 4.464834240730055637e-01
-4.560228110656744382e-02 -9.196265621889869457e-02 4.377431323644989103e-01
-3.415221819324645164e-02 -6.761493641784370456e-02 4.364125217229961051e-01
-1.282957915973285436e-02 -6.183760597313950336e-02 4.394333564238675494e-01
-5.799864935720655534e-02 -1.095277106675158069e-01 4.670080717720203611e-01
-6.728862806432155119e-02 -1.038588593619751282e-01 4.333074537663446080e-01
-1.842992725706782756e-02 -1.093763292933403741e-01 4.703475384569382745e-01
-4.919130478341852963e-02 -8.656936752476265817e-02 4.295738457208676531e-01
-2.118059799690046735e-02 -8.198639949956641748e-02 4.438405287159877255e-01
-7.922775263435385962e-02 -1.115804855943417218e-01 4.868347349339917085e-01
-9.439904947687476067e-02 -1.093975676677478998e-01 4.927384790942108128e-01
-4.129623274773606967e-02 -7.938837379730823152e-02 4.351991175225006780e-01
7.452290195472101482e-03 -1.268621778197012162e-01 5.193857673512749518e-01
-4.479547986341440857e-02 -1.151605841131224522e-01 5.293674773079547480e-01
-1.610899390898977521e-04 -1.261557300886884947e-01 5.125955429557418341e-01
-1.015417695731610226e-01 -1.036400077617758847e-01 4.651405617563481032e-01
8.064255644158954683e-05 -1.048195270156528913e-01 4.627538803322508998e-01
-3.901038911710351387e-02 -1.136899146090644408e-01 4.859174295571638824e-01
1.062874737909746091e-02 -1.262425955863030747e-01 5.168242402823695070e-01
-1.062446521393010240e-04 -1.103837639503345291e-01 4.686707560958560670e-01
-4.291886029854064671e-02 -1.169886154544931278e-01 5.107613830926495124e-01
-4.447799534794525528e-02 -6.335047235141515187e-02 4.323630184783516794e-01
-3.036112295946928955e-02 -1.059586700835834366e-01 4.670655455327605288e-01
-2.956483563607190113e-02 -4.803306918360487898e-02 4.379522410972314650e-01
-3.836617888020320971e-02 -7.973685512055267433e-02 4.372866952761079173e-01
-5.512321160061943448e-02 -5.857235304958634259e-02 4.320817843968333127e-01
-3.529902255619105783e-02 -1.116388943269962936e-01 4.781407150772450931e-01
-5.498541954568463702e-02 -1.116286803402766481e-01 4.762647056826975756e-01
-5.263026053500288043e-02 -9.347236855805216016e-02 4.270176124277550445e-01
-6.432784158894408466e-02 -1.069366625029329471e-01 4.559407112201566137e-01
-9.824301115025042830e-02 -9.020990717835332406e-02 4.606873065423336966e-01
-3.475697384288879699e-02 -7.727220352685543192e-02 4.382506873488715149e-01
-7.104641111697800049e-02 -1.126818216192078670e-01 4.981172026465109370e-01
-2.320060687091831525e-02 -1.203391701850825696e-01 5.271716695892161297e-01
-1.424179506600770605e-02 -1.227832515368200567e-01 5.067490891474784043e-01
-7.802249102106730873e-03 -1.210488155275630112e-01 4.922082636169635150e-01
-4.997372973988280925e-02 -9.930107109173047508e-02 4.412872429299330990e-01
-3.353792557811663411e-02 -1.178686904975742994e-01 5.004237593246112503e-01
-1.758300180005616456e-02 -1.047629813450440678e-01 4.630102478373903652e-01
-9.903950087876237096e-02 -9.006573610503684768e-02 4.620718894080005357e-01
-1.041756560046122881e-01 -1.026856183313561571e-01 4.677953678014785122e-01
-8.770102220487639710e-02 -8.947675831225314347e-02 4.462137534066346056e-01
-3.463364348589917374e-02 -6.078359412250576577e-02 4.361588015971119003e-01
-1.097487716005026981e-01 -9.600782938563735824e-02 4.768332896178760771e-01
-3.654157224819170463e-02 -1.181490455460330047e-01 5.153471472636015349e-01
-1.505445270109993620e-02 -1.226223643815218672e-01 5.272890888915660046e-01
-2.145498343527794949e-02 -1.188046218640065460e-01 4.958574853493676327e-01
-4.875897327193037811e-02 -7.032216166997172502e-02 4.296115351373409608e-01
-4.141971702471262257e-02 -8.757321114946206575e-02 4.398231089222306989e-01
-1.155665663044283184e-02 -1.024470914820176937e-01 4.592590386455798201e-01
-5.798163512526617602e-02 -1.119603335008488298e-01 5.297781631793248014e-01
-4.674279645493203961e-02 -9.295066047795053077e-02 4.367549426168241267e-01
-3.651486052474075400e-02 -5.029556313047746363e-02 4.357362763132909822e-01
-6.476542377146618512e-02 -8.193171030058274407e-02 4.248926813966923954e-01
-6.221970939791157673e-02 -1.135625247660475290e-01 4.957600760152211516e-01
-1.036701042491764424e-01 -1.048974459256785396e-01 5.035417113088811458e-01
-1.834641444424813320e-02 -1.223312513693478876e-01 5.124805629139109753e-01
-2.174715901582018399e-02 -8.433484526039661255e-02 4.448073465702426232e-01
-4.157664464124695425e-02 -1.138088087222322159e-01 4.867604432990365604e-01
-3.039561004985000606e-02 -1.193815805770369748e-01 5.118877463768349845e-01
-5.193540237425768244e-03 -1.189887384545808419e-01 4.845243381697565965e-01
-1.360064446697225975e-02 -9.305540042065853223e-02 4.505198847765218284e-01
-5.046738985624522195e-02 -8.319340526233842681e-02 4.284728575807368878e-01
-3.602036953904803190e-02 -1.170990792833761646e-01 5.300242381270597880e-01
-7.048856008561145414e-02 -1.049226869491205194e-01 4.440654682162273881e-01
-8.527936569427142441e-03 -1.236508221748553460e-01 5.332055788847653854e-01
-3.060158970629249520e-02 -1.193575573241436871e-01 5.130911414286771777e-01
-7.483817089091654440e-02 -9.824049590814844246e-02 4.275898201829003153e-01
-1.587197363050446217e-02 -1.075092635672243724e-01 4.660564766042755158e-01
-1.434652972180295444e-02 -1.229024129129954457e-01 5.262286470462036458e-01
-6.889197674252243997e-02 -1.083693414459749177e-01 4.621343629981709000e-01
-4.104416205529947542e-02 -9.781927351662947356e-02 4.495001912114531262e-01
-9.756029614755303350e-03 -8.387612461442217615e-02 4.462792304340438831e-01
-7.530840028853406920e-02 -1.111276185114146997e-01 4.780970861316092835e-01
3.889823251887491486e-03 -1.147090654681582472e-01 4.761710902871976736e-01
-1.407046268212604895e-02 -1.233278339986426109e-01 5.213997366608884576e-01
-5.634657375034915483e-02 -1.035351888624638922e-01 4.448717940696077511e-01
-3.706996603984291649e-02 -1.022244340536930252e-01 4.590711374711722303e-01
-2.287719465443898564e-02 -1.156240374604682875e-01 4.861005063191917164e-01
-9.631948607100704329e-02 -1.060318853550554774e-01 4.659909422080348862e-01
-2.518672714092641887e-02 -4.586022599708412112e-02 4.387988137857470883e-01
-3.267851449414453657e-02 -1.016780201160604191e-01 4.598111232463698017e-01
-5.971160248534843062e-02 -7.037816913132237395e-02 4.284870882572758832e-01
-8.500675980231772733e-02 -1.110167513634798264e-01 4.907859870308506345e-01
1.132582742909290542e-03 -1.113730052234996049e-01 4.702979019518727100e-01
9.239585769157902112e-03 -1.267461039590237759e-01 5.260229859707802325e-01
-2.825361305609289109e-02 -5.426826548688259977e-02 4.376863446527204937e-01
-3.221662285082095567e-02 -4.230128376880414043e-02 4.372763627130447639e-01
-5.547162191094109213e-02 -1.142395291909162891e-01 4.942493840809945582e-01
-5.948976205976989201e-02 -1.137630434002298019e-01 5.207821342354406191e-01
9.174747784355126445e-03 -1.267074288164189155e-01 5.253206876358637034e-01
-3.351094131553480904e-02 -1.183625582746973270e-01 5.230505310726378809e-01
-8.469197753409760110e-02 -9.458803306339164108e-02 4.404918527793929561e-01
-2.627810613198318032e-02 -1.018342235852802424e-01 4.613451287881377150e-01
-7.359706095499370104e-02 -8.943761301159043609e-02 4.239026916874577000e-01
-8.226672957815356346e-02 -8.984415387622841920e-02 4.368948667497672966e-01
-5.417796680977495644e-02 -1.150987090528559353e-01 5.050356982265263861e-01
-6.118557195095341433e-02 -1.046148376741213165e-01 4.349372684237773901e-01
-2.534644164207552203e-02 -1.121866352284794921e-01 4.781158099576017784e-01
-2.868843252576121564e-02 -7.794874946596892784e-02 4.404538275262612212e-01
-5.072239134104448294e-02 -1.156427410638496273e-01 5.166453426530043247e-01
-3.915039879917853183e-02 -1.118361904044149896e-01 4.797772262299189183e-01
-9.911675441072709258e-02 -1.067463485707338955e-01 4.725949886201339933e-01
4.813919509185261500e-03 -1.270329780950617826e-01 5.225008592279938302e-01
-5.479482240957640748e-02 -3.907048349066914034e-02 4.429150988104505471e-01
-6.362826504027928320e-02 -1.136129344377565104e-01 5.146594759666169860e-01
-1.008008003819171189e-01 -1.075462201254451244e-01 4.958938839127253195e-01
-3.516920102836501583e-02 -1.169356972544162709e-01 5.329802837959608519e-01
-4.376437233691363865e-02 -5.577211731206407896e-02 4.340158604345375482e-01
-7.360068689551603309e-03 -1.247723025927189727e-01 5.106025463602056336e-01
-5.276009544394374973e-02 -1.026813428395466632e-01 4.473847188276302567e-01
-3.827331634568080510e-02 -1.176786674744517008e-01 5.198845194564263306e-01
2.314558031692726114e-04 -1.188961925641226353e-01 4.845908729307693563e-01
-1.977768577774172143e-02 -1.218864952140365776e-01 5.171777433911983746e-01
-1.692982568853173414e-02 -1.192276060984182873e-01 5.442349859212221030e-01
-6.038270788296481312e-02 -8.433259277909418983e-02 4.246006570261306456e-01
-5.135111465432470185e-02 -3.515681548746597135e-02 4.384078321505950893e-01
-6.746913423339237492e-02 -1.126189723235975076e-01 4.900146212660306810e-01
-6.670561236207718514e-02 -1.061576464334644254e-01 4.516463563885030341e-01
-7.582410560959355894e-02 -1.044457399614456272e-01 4.449059962544472113e-01
-4.283540843097499717e-02 -3.750050894836916282e-02 4.352670824610813671e-01
-4.410867453604479238e-02 -6.024597070800310344e-02 4.328668022734709075e-01
-4.578137166948501036e-02 -1.072143471029709388e-01 4.635644161200886959e-01
-4.347438022384761402e-02 -1.168649541127619179e-01 5.166591787435561578e-01
-1.564531872277848817e-02 -5.907151621463393315e-02 4.390341716977783637e-01
-7.727715628884668231e-02 -1.098288641839110097e-01 4.701935027468527317e-01
-3.001201999673577814e-02 -9.059377996984031844e-02 4.472267064287003824e-01
-7.955918680099659246e-02 -1.083864060028583570e-01 5.194570814385282009e-01
6.654155939601309223e-03 -1.269129588610822534e-01 5.222735995510052742e-01
1.167088505464785805e-02 -1.263206286324796701e-01 5.196961709936328555e-01
-6.786297833303429894e-03 -9.187018975669346277e-02 4.507899245067362726e-01
-6.660501287746051213e-02 -9.116023871716444349e-02 4.216372494444305397e-01
2.340795826767746828e-03 -9.883684142800011618e-02 4.575375085513710971e-01
-9.735356613966991701e-02 -9.594914230949162792e-02 4.565247851101508769e-01
-6.313561616009394188e-03 -1.197453395702503115e-01 4.874532572493102678e-01
-9.244132458309799183e-02 -1.067912181196206262e-01 5.108578764745537182e-01
-3.114646832201550461e-02 -9.444449591044420944e-02 4.506068764542197069e-01
-1.054139121122505199e-02 -1.241185721471981529e-01 5.240673932034243254e-01
-3.213266660737029712e-02 -1.182376866833588502e-01 5.009584089878794666e-01
-1.198037126292946473e-02 -1.226871684622588971e-01 5.021179243664726233e-01
-2.887923266092185665e-02 -1.057689683343664699e-01 4.670255165129145181e-01
-1.917478986611660663e-02 -1.214249810882397640e-01 5.054984459755755832e-01
-9.435649930376614758e-02 -9.265394891529261934e-02 4.535443015802446687e-01
-2.448567665865041335e-02 -1.116023604451591295e-01 4.768243047951996605e-01
-8.584732457023917795e-02 -1.108321458451571734e-01 4.833125134457425531e-01
-4.947428056358706139e-02 -4.012525205338279832e-02 4.363126325047237408e-01
-9.092223528364370977e-02 -9.707502184564109626e-02 4.488038052285802104e-01
-4.098023361609987036e-02 -1.139368036546534874e-01 4.870866562416969470e-01
-3.270616218109172191e-02 -1.187888120865500524e-01 5.079484676091009510e-01
-5.225498208577630810e-02 -4.779213590480406448e-02 4.356409634656472907e-01
-3.297283963148205099e-02 -1.184568851324869221e-01 5.038591366095096502e-01
-5.263025544273933209e-02 -7.886891022803817208e-02 4.271571493874674608e-01
-4.746606509779061067e-02 -9.217013716895670894e-02 4.338264794403934865e-01
-6.364753674198507516e-02 -8.349012099018075783e-02 4.241245569173435204e-01
-9.030795814705760982e-02 -8.843130154667759590e-02 4.502083188388575352e-01
-8.658455405116985415e-02 -1.098552502203548192e-01 5.033061658002169203e-01
-3.058226407060997409e-02 -1.182275579712052105e-01 5.307528172593865001e-01
-5.857687664213252071e-02 -1.061623615632693585e-01 4.528740511628515653e-01
-5.180483037533516188e-02 -3.777130042928795312e-02 4.378325764569716561e-01
-3.629838735848753273e-02 -1.031795645846298737e-01 4.610633691265189071e-01
-6.330046439909450817e-02 -1.136105576931293742e-01 5.152892097737091781e-01
-1.047012055886007015e-01 -9.677232623035746106e-02 4.649492461222969331e-01
-2.418129514431987398e-02 -1.207770070264954226e-01 5.170697188745677630e-01
-4.522217011200427295e-02 -4.952412015567146664e-02 4.346360503517509577e-01
-7.526770386067103968e-02 -1.068885046104205427e-01 4.569389002847460968e-01
-5.773198093431888833e-02 -1.133171204203415883e-01 5.247228261488777745e-01
-6.569629683961086819e-02 -1.056677444421658951e-01 4.460432215091807984e-01
-2.310986878473920633e-02 -9.874691640772084722e-02 4.573349711627094361e-01
-9.426200496808652407e-03 -1.233633558217024639e-01 5.030946452819605730e-01
-5.676011137088490636e-03 -1.233114551073554305e-01 4.991550693007381079e-01
-1.831814975024368200e-02 -1.004265112601809146e-01 4.586138268204484891e-01
-8.296230125958739543e-02 -9.227492806815611182e-02 4.369044412789242493e-01
-5.381921363916145062e-02 -3.959676917893446835e-02 4.392673405889241378e-01
-9.997978325552188406e-02 -9.137032098593678153e-02 4.622608028330882357e-01
-8.824077109144658204e-03 -6.942995970311734155e-02 4.413084379665785928e-01
-6.709504597548618388e-02 -1.104771550007095787e-01 4.720724290655306521e-01
-5.860638148496703781e-02 -1.097380258005586917e-01 4.677499846300125497e-01
-6.086304832367592926e-02 -9.809656320469217761e-02 4.240035990653839848e-01
3.934483213439384994e-03 -1.219745763366743008e-01 4.939841688999863645e-01
-3.402453799259328587e-02 -8.644066743076513071e-02 4.429451350671880228e-01
-2.270906477702558032e-02 -1.043348596625868901e-01 4.641851670789215456e-01
-4.300461462189207607e-02 -2.747956166492328267e-02 4.362523186866532066e-01
1.490557150101579596e-03 -1.180679440241480666e-01 4.826601516871590336e-01
-6.785006342006186242e-02 -1.000378030258227968e-01 4.233529981117142849e-01
-3.343268211744283153e-02 -1.157996816005685548e-01 4.908925933253593943e-01
5.329922746935115280e-03 -1.206796360321726047e-01 4.905292379238459510e-01
-5.136830004383131226e-02 -1.154806130517942730e-01 5.171526826766796869e-01
-5.961430223230833325e-02 -1.140465224652359028e-01 5.178152312841201033e-01
-1.821157098358822460e-02 -1.189553840972762538e-01 4.923911796223670589e-01
-1.644748289572611072e-02 -1.138041813738032981e-01 4.782251313146672067e-01
-3.024512258739946169e-02 -8.404813305600095097e-02 4.429546383002138654e-01
3.000782417578517786e-03 -1.178057293039699166e-01 4.822089009736086895e-01
