-2.604022926650731776e-02 -1.195030319531544677e-01 5.013140732476145667e-01
-7.129284295188967335e-02 -1.098162358129976257e-01 5.240515820192725993e-01
-3.998014471574846268e-02 -1.175759969208328148e-01 5.093872317282901463e-01
-4.377932214463572946e-02 -3.225335897544567149e-02 4.354144057979972282e-01
-6.987021314149505224e-02 -8.248535110557998762e-02 4.260221845884649694e-01
-2.445945735250698930e-02 -6.801569636134242869e-02 4.385054041982183737e-01
-8.981951490986796183e-02 -9.486341844171435056e-02 4.463607523425824342e-01
-5.196634619870290489e-02 -6.012752579672760861e-02 4.312512057653261621e-01
-4.188729328352755465e-02 -7.212135087259233246e-02 4.328347741086984724e-01
-3.743814551552485104e-02 -1.173863577384268581e-01 5.006211103010870245e-01
-4.647621727958638205e-02 -1.152976363838737611e-01 4.934971680346025291e-01
-7.253096795205579012e-03 -1.126311266538430195e-01 4.719181546084407208e-01
-7.129620795941572775e-02 -1.127652987212661995e-01 4.961447717592698536e-01
-1.100849419583673286e-02 -1.212898959014354211e-01 4.938895545699890088e-01
-2.310733870648767202e-02 -1.143095211870718830e-01 4.821834472436993813e-01
-6.902738842848075984e-02 -1.043808107958327513e-01 4.369732924718952027e-01
-5.480719442704472949e-02 -1.025981686197604270e-01 4.425182215691886856e-01
-5.880546754533048925e-02 -1.014157736206924287e-01 4.230287101275372885e-01
-4.107893333215407311e-02 -4.256153041829689732e-02 4.349022740528110109e-01
-5.104687057129446426e-02 -9.885937477515328864e-02 4.322181645952112294e-01
-5.094435616421157803e-02 -7.189546851954244089e-02 4.279777030276576411e-01
-8.019858094301117457e-02 -1.044079353409837485e-01 4.484887040573747874e-01
-1.073101880853374879e-02 -9.818628198679800467e-02 4.550503615872324992e-01
-5.681860515814994572e-02 -7.746599330777244330e-02 4.253894704266999449e-01
-5.946418709121707724e-02 -1.145615972018810408e-01 5.088403923356201730e-01
-3.849058106567188053e-03 -1.020764874481385892e-01 4.594754777906863152e-01
-2.111858398929349068e-02 -1.124363054578529225e-01 4.773383470918709515e-01
-3.096972780457863533e-02 -3.328585233308851976e-02 4.374017300363008398e-01
-6.433467678902859976e-02 -1.044917317398583317e-01 4.301205881140015008e-01
-1.629445466982864729e-02 -1.188134112711453499e-01 4.897073910794282336e-01
-1.095386846014981125e-01 -1.028171195539714089e-01 4.994427616159717309e-01
-4.813919037717689919e-02 -9.725629395689168455e-02 4.402017483647175378e-01
-6.869460135286720170e-02 -7.945660833416727520e-02 4.279925277662701144e-01
-7.320303793182297847e-03 -1.201062639869630716e-01 4.886165200491939808e-01
-1.048064816099061186e-02 -1.231464151669895424e-01 5.026991492447362431e-01
-4.724057935608538122e-02 -1.032038122205127390e-01 4.525197374058169686e-01
-9.985072683538863403e-02 -9.557755130952966249e-02 4.589994171327336225e-01
-5.006990482807845144e-02 -7.934695298603614000e-02 4.276924679747879376e-01
-3.835748580218877046e-02 -4.177032564364793754e-02 4.352330358906632002e-01
-1.570635155445304632e-02 -7.749237222729367380e-02 4.424347633155242265e-01
-4.259706763749881997e-02 -4.031891436634862241e-02 4.350507228442740959e-01
4.710992456951506365e-04 -1.001166471683417880e-01 4.582750741617981904e-01
-3.634400315546020693e-02 -1.182795431177222079e-01 5.137169348754387910e-01
-4.964441267335692465e-02 -5.091308607828407690e-02 4.341517375029728676e-01
-1.045638815607337346e-01 -1.027636608515683780e-01 4.675428427198866088e-01
-6.079085585099323896e-02 -7.326369979431346380e-02 4.269659441953487788e-01
-7.001245455503217474e-02 -1.086071031536805370e-01 4.615430082032869752e-01
-5.024908881582259429e-02 -1.128174225529982172e-01 4.817182599154726241e-01
-8.946704438488133071e-02 -1.034314371695117113e-01 5.211495223321797043e-01
-8.415367030668316484e-02 -1.094596330353390795e-01 5.096304218347574855e-01
-3.827653221533023481e-02 -3.163738009561479353e-02 4.360335217673801944e-01
-5.628037746666148672e-02 -6.575092915061105103e-02 4.293436037049341292e-01
-5.807643398809496371e-02 -1.049424163026628359e-01 4.308767819052164438e-01
-6.256932140412387044e-02 -1.137876291836899256e-01 5.156806790607227908e-01
-1.005288178213356864e-01 -1.074008973979903442e-01 4.995043432738846545e-01
-1.241171199216361751e-02 -5.658595446939752166e-02 4.385830647482255595e-01
2.765027336190563866e-03 -1.241638412902031086e-01 5.005021076130004021e-01
-5.933411126872521063e-02 -6.675040614246097181e-02 4.301904147574469595e-01
-5.671404734252603191e-02 -6.238552784072662338e-02 4.309871952582713939e-01
-7.482470337313811004e-02 -1.124544350853614039e-01 5.023165480840152686e-01
-8.294252636975338322e-02 -1.110302822150281421e-01 5.005550456460454711e-01
-9.503547980028663467e-02 -1.093195707796869032e-01 4.959762218934719580e-01
-1.776502225998573617e-02 -1.085660625855629363e-01 4.682855034260225424e-01
-2.781343735290418145e-02 -1.148480544082443738e-01 4.848063751038467761e-01
-1.554804918688562632e-02 -1.214035843947616489e-01 4.994252079344663753e-01
-4.846870320502486701e-02 -9.761191029622212634e-02 4.398426579171669792e-01
-4.787016008124938410e-02 -6.906238460250786748e-02 4.295018295872037317e-01
-8.229662821928367122e-02 -1.078872011885453758e-01 4.612117028267834762e-01
-6.305280806518337444e-02 -9.068939334283387943e-02 4.215284818180605186e-01
-1.238313353453573615e-02 -1.078860149329755186e-01 4.653495678508761113e-01
-1.392224625700158244e-02 -5.533050996728677146e-02 4.385909226936854921e-01
-8.604040880550847814e-03 -1.243951584857461018e-01 5.090296967822215413e-01
-7.939707116990393776e-02 -1.021525042422691126e-01 4.397221346091231275e-01
-2.382796272589750644e-02 -1.209438103896651046e-01 5.127969165828505371e-01
-9.098639544197563434e-02 -1.103248363227340573e-01 4.902600386583519376e-01
-4.331412577864648256e-02 -8.697398591868417406e-02 4.355673587564189431e-01
-4.896571878415750811e-02 -1.106593085354290878e-01 4.716769537155829917e-01
-7.044937712563506538e-02 -1.125332163282947023e-01 4.902530218690008823e-01
-1.924569473013282989e-02 -1.220635954784362737e-01 5.178472487129068824e-01
-1.388831363075773186e-02 -5.475479118021581854e-02 4.385602206570438089e-01
-2.849628326589289523e-02 -7.727556755692717438e-02 4.398412952577235857e-01
6.540914876263983352e-03 -1.239043242276275519e-01 5.009720592331428080e-01
-8.735264196347175547e-02 -1.053422863173784779e-01 5.189244139714452864e-01
-3.912738424260136377e-02 -6.382550852875625014e-02 4.341609134276140924e-01
-3.048150416367366791e-02 -8.317445366462010437e-02 4.419254513817930663e-01
-4.182432856276441929e-02 -1.146209913786310347e-01 4.889906354512620901e-01
-8.308027466078993228e-02 -9.708584107271973906e-02 4.391432020637661138e-01
-7.406472270519550219e-03 -1.247596540637443963e-01 5.100561726045359512e-01
-8.977541271871222750e-02 -9.940929644904285267e-02 4.481275178162093531e-01
-1.831353276014789644e-02 -1.223317306129522025e-01 5.185648054198241930e-01
-6.893546846994766386e-02 -1.108942816365906386e-01 5.227301429297205315e-01
-4.365172112633003421e-02 -7.763225958240500824e-02 4.325235784747719081e-01
-2.809761953441738958e-02 -5.358139243623211145e-02 4.375393887684037586e-01
-5.643273180206444251e-02 -5.330089866799590792e-02 4.353673170030832873e-01
-1.792909131651758414e-02 -1.223449667694330861e-01 5.207472297870228140e-01
-7.524611985052370722e-02 -9.180360262708996133e-02 4.252754127708468501e-01
-4.540743212372831683e-02 -4.478794582051294493e-02 4.347608629398730384e-01
-7.221428908282408188e-02 -1.029747938987714689e-01 4.334027512274518656e-01
-6.794176104082426393e-02 -1.130006532189851420e-01 4.931077968498545627e-01
-7.338567322012755356e-02 -1.043841456359366343e-01 4.409913993560980461e-01
-5.063751773135429651e-02 -8.229108955310514284e-02 4.272978930421343358e-01
-3.728794012017982301e-02 -1.101411124482528786e-01 4.737900814228920843e-01
-6.881032582009848075e-02 -1.058290320676405494e-01 4.477912884082909661e-01
-1.279441989664880860e-02 -5.586293685715582047e-02 4.385645877685850347e-01
-1.717566290933606951e-02 -1.227676849119536118e-01 5.170478412445859151e-01
-3.620593932884282051e-03 -1.213926335094228787e-01 4.916302995716579916e-01
-1.734302874917056925e-02 -1.221929598648075488e-01 5.072049652670207465e-01
-3.224559485952974147e-02 -7.833105128650996729e-02 4.392003470328558201e-01
-1.135610764813843945e-02 -9.636525783573299253e-02 4.534948403996326705e-01
-1.044697484287399752e-01 -1.064402782726488195e-01 4.820065424104042484e-01
-8.049346772516516313e-02 -1.090095400696163702e-01 5.162576492073359669e-01
1.584095403770718457e-03 -1.128138361310793980e-01 4.724667542810763732e-01
-1.001743660088600524e-02 -9.313666005987449037e-02 4.507642175394201978e-01
-2.891602111112702087e-02 -5.592403750479671420e-02 4.369407676419591602e-01
-8.801109616551106019e-02 -1.098235463794477312e-01 4.722916693377159914e-01
-1.260276637398790277e-02 -7.846504028172159029e-02 4.433775687209685068e-01
-9.028054455148511528e-03 -9.412301911134415833e-02 4.516998703527236314e-01
-4.243930725084711642e-02 -3.478543255023715253e-02 4.352077238758857436e-01
-6.582051748757827836e-02 -1.129634137076072492e-01 5.171022910718883203e-01
2.113067593885946220e-03 -1.124905804961028599e-01 4.720148427250882572e-01
-2.863827575394966435e-02 -1.130162821543616580e-01 4.800560474837048952e-01
-9.244096275137402008e-02 -1.098720471757378414e-01 4.969709170053477343e-01
-6.256428000795047351e-02 -1.141117093753840073e-01 5.044689952987619908e-01
-1.436523860644462434e-02 -1.198305117718429375e-01 5.442434033977902041e-01
-9.024428738894428592e-02 -8.910710583760733661e-02 4.493634469723633562e-01
-7.544834618020362926e-02 -9.283874589882766537e-02 4.256383234954186912e-01
-5.185568696342648942e-02 -6.664744125840366129e-02 4.286868529615283085e-01
-3.154573543958118231e-02 -1.185876897382386330e-01 5.017642126248638146e-01
-2.308096971336913439e-02 -6.870315813345682920e-02 4.389824117079176302e-01
-9.781039413283287853e-02 -1.084883296233398187e-01 4.780926170522982188e-01
-7.664765455223690460e-02 -1.116988791349784599e-01 5.070637777318612871e-01
-2.347113384671880090e-02 -1.092693284205407955e-01 4.715297123448166094e-01
-5.555122869052394469e-02 -1.140767465920350110e-01 4.908210300215016808e-01
-6.343556707045433507e-02 -1.136209844967497190e-01 4.957807041408240356e-01
-6.453970515036827615e-02 -1.086821816990650724e-01 4.613767524253403196e-01
-4.197545821784682413e-03 -1.140051271458445703e-01 4.740847253536165096e-01
-1.567857064641623929e-02 -7.686555877678757920e-02 4.422491805335282411e-01
-1.765017965370313524e-02 -8.583077547782058669e-02 4.457649609165209581e-01
-3.596478290424925950e-02 -5.184578935689973522e-02 4.355032396895546221e-01
-3.189918987898888916e-03 -1.097492706251318589e-01 4.675353085045040324e-01
3.035947365638228673e-04 -8.269984673958229171e-02 4.470472321491699708e-01
-7.087006160005808811e-03 -1.252923292897740182e-01 5.158778917868863667e-01
1.295169589119344461e-02 -1.265500720498753950e-01 5.325918446766380043e-01
-2.135418102047218977e-02 -4.670313679457154671e-02 4.388968906835895578e-01
-2.780023866819143416e-02 -1.122404437939145128e-01 4.780342911639156034e-01
-3.383748049428481064e-03 -9.263856550257427991e-02 4.517038302016760376e-01
-3.456458525686936095e-02 -9.212396619948358401e-02 4.467010937244191293e-01
-7.377546291748950102e-02 -1.125200730988431819e-01 4.964227202932245397e-01
-1.388063713953606101e-02 -7.127244310741080724e-02 4.410930411270231888e-01
-1.186492577109154144e-02 -7.929067411602938598e-02 4.438184633910906562e-01
-4.191255319466833523e-02 -8.254203528956195746e-02 4.353471419818219501e-01
-5.854548080597035686e-02 -1.045963612194480835e-01 4.356286045668307239e-01
-7.830807976847820040e-02 -1.117267954329469598e-01 4.825444209065400947e-01
-5.548747786041810515e-02 -1.099557772599186189e-01 4.673209007732467835e-01
-6.605420244275851671e-02 -9.920625739913797869e-02 4.221327935492732997e-01
-6.940674204336219622e-02 -8.154072439528300964e-02 4.265998449318604835e-01
-2.245989798231995752e-02 -9.151779252878093629e-02 4.492459143532225863e-01
4.026333615347373746e-04 -1.194910307548920358e-01 4.858834519533255514e-01
-5.463566563227294226e-02 -1.133926183755074174e-01 4.858183721082748874e-01
-3.505969191609906860e-02 -6.398298509653170540e-02 4.355228358358578244e-01
-8.414882614331699318e-02 -1.072578818143959251e-01 5.172631088511135955e-01
-5.563542811617241263e-02 -7.163894747497105697e-02 4.265461260198051829e-01
-6.049069824909093090e-02 -1.135453978316085799e-01 4.905954632254755365e-01
-8.523877841741346606e-02 -1.095893253571688236e-01 5.077453141374551615e-01
-4.856815684061990823e-02 -1.161500848326250807e-01 5.092810099922832068e-01
-9.715474927409094297e-02 -9.898961272819672974e-02 4.561983507259952941e-01
-4.263720910255434926e-02 -1.161551109878164179e-01 4.956682211226027812e-01
-3.659077807034574054e-02 -1.128656898193335645e-01 4.815842325186130424e-01
-4.440056430291818013e-02 -7.054082917888783444e-02 4.315646713549946556e-01
-6.013669835246665540e-02 -1.071368741793129464e-01 4.552520170144501166e-01
-2.082106070392355027e-02 -9.431217437281462501e-02 4.518942679881796654e-01
-5.378518447530499652e-02 -1.058349934555728455e-01 4.534267675352275373e-01
-4.350419446912721921e-02 -1.128385465684040995e-01 4.829794992128317865e-01
-2.012912480141595614e-02 -1.180107091408971465e-01 5.452657563817763231e-01
-1.059253388814092867e-01 -9.570175659608314012e-02 4.672200619901242247e-01
-2.368318126252196010e-02 -1.114483203434258607e-01 4.759535099805105030e-01
-6.583986190670143568e-02 -9.099168619345476827e-02 4.209683483224048173e-01
-1.553786081130492484e-02 -1.215189164261422927e-01 5.361936516999648017e-01
-9.930744321690150589e-02 -1.069973225360155017e-01 5.029118933501881550e-01
-5.292135295575078890e-02 -5.041627782701824795e-02 4.348746758699440496e-01
-1.177064112946937281e-02 -1.240181534853538881e-01 5.133963686611636712e-01
-5.258459904049131439e-02 -4.207875309650606355e-02 4.367018378234291953e-01
-2.445325765938682200e-02 -5.463355827356910360e-02 4.378753266348017203e-01
-6.097126912627812839e-02 -6.443872864679781043e-02 4.319077565996884416e-01
-2.037118287858350266e-02 -1.205755996668625846e-01 5.013024296397492474e-01
-1.858480809355558816e-02 -1.131954417377478844e-01 4.779014621681159647e-01
-9.009013434417162403e-02 -1.098592715632773775e-01 4.997389785693409081e-01
-9.460306860819747699e-02 -9.518074953996351339e-02 4.530425122495779222e-01
-4.682915399878854329e-02 -9.141401415427290178e-02 4.325462704181896600e-01
-3.073180686366465408e-02 -6.058707879430880877e-02 4.366021057695807506e-01
-3.669713408316047781e-02 -1.177439439733177912e-01 5.024259950772306249e-01
-6.000663017898617141e-02 -1.046593290510631907e-01 4.280363836835235913e-01
-1.012840377729812627e-02 -6.916621303240337582e-02 4.409931684698937260e-01
-3.600660574880901882e-02 -6.001084965592046183e-02 4.353828719302541561e-01
-2.747855675987785282e-02 -8.813215801926164994e-02 4.454471238601121486e-01
-9.996286808464410756e-02 -1.015835186226062281e-01 4.608883551309110871e-01
-5.690843535461089647e-02 -1.117163967020700366e-01 5.312926641012652995e-01
7.142202537504160377e-03 -1.207702644586876595e-01 4.912285131742220035e-01
-3.568646208500562272e-02 -1.172735617142203202e-01 4.975508813511890227e-01
-5.430236771979600474e-02 -1.124538779548777956e-01 5.309623896732337256e-01
-5.489700017230867563e-02 -1.129672030160258217e-01 5.286825210728712809e-01
-4.263518955887531797e-02 -6.038740026267943456e-02 4.328710569309850431e-01
-6.564576224600440768e-02 -1.128069197270236967e-01 5.187706043804479750e-01
-1.152581639335456196e-02 -1.234489886648632573e-01 5.297667933471343904e-01
-2.025015816347319406e-02 -1.172728052900878642e-01 4.889897653639972974e-01
-5.156033846881780819e-02 -7.321086697910055008e-02 4.276380496504022521e-01
-1.010915632337009394e-02 -5.712839974344586375e-02 4.384669452288215696e-01
-5.317810195106311560e-02 -1.115245988633819518e-01 4.742221040125785270e-01
-2.495404992491785483e-03 -8.145331604886789367e-02 4.462073172855107739e-01
-1.425066544710201083e-02 -1.217796163146131344e-01 5.364744285455346207e-01
-6.400213059524472239e-03 -9.367271776193354660e-02 4.518915587855624749e-01
-2.703126711817377403e-02 -7.077204647347920541e-02 4.384037269979648155e-01
-7.874359937275106358e-02 -1.033628396608615024e-01 4.428605634651909262e-01
-8.845131037024943355e-02 -1.102405291698112244e-01 4.985999329576851213e-01
-1.594030497919421419e-02 -8.223557671790196477e-02 4.442643402469572678e-01
-8.864029891305396508e-03 -8.220892453465067362e-02 4.454844494350619355e-01
-8.450796623926903894e-02 -1.094489754293474781e-01 4.682642226022012411e-01
-3.149125540742764989e-02 -6.854725627180557890e-02 4.370296387969974661e-01
-8.155306599511664978e-02 -1.078729150053739094e-01 5.183819714846940041e-01
-4.982143004181351781e-02 -1.027479365233708031e-01 4.492190560133605959e-01
-3.431056151864121662e-02 -1.115032906852186506e-01 4.768248272856683845e-01
-3.378512854397876936e-02 -1.173386351423546109e-01 5.325423764033540008e-01
-3.476890120346024654e-02 -1.014257392233925970e-01 4.582093321987121826e-01
-4.070645386077747369e-02 -1.148519452609371161e-01 5.356267549721320798e-01
9.359496771538543258e-03 -1.264851391752178644e-01 5.167900092947629309e-01
-3.661389492065540707e-02 -1.147590447674732284e-01 4.877651265993418472e-01
-5.155289381916001307e-02 -3.426820850141294034e-02 4.385947318416539287e-01
-5.525403184952032420e-02 -1.123127273434938456e-01 5.307049814799308374e-01
-2.640802354360409845e-02 -1.126810219700107862e-01 4.787712298196660221e-01
-3.820103618830535119e-02 -8.647104244368360171e-02 4.401225305708164615e-01
3.755647247922737006e-03 -1.218634664290972752e-01 4.932719599203097549e-01
-1.760305323223413168e-02 -1.211191003460823368e-01 5.346845423769419625e-01
-3.465866608972708457e-02 -7.955023477532978393e-02 4.387084905172138893e-01
-1.440338410688650830e-03 -1.221022958628589089e-01 4.939340216591627808e-01
-8.277749985398517862e-02 -1.114347818974412985e-01 4.830531783533772994e-01
-5.032998069795766721e-02 -1.106718715447609358e-01 4.710275721913678160e-01
-1.642343674830651704e-02 -1.227743941843565667e-01 5.205313501210778737e-01
-6.026422105101086196e-02 -1.080022061316750076e-01 4.588892110066370988e-01
-6.907159409272113637e-02 -1.132163543798133248e-01 5.045967243717773831e-01
-8.219538105903816116e-02 -1.051438291615282017e-01 4.519325110968716586e-01
-6.653175125615266861e-02 -1.030788395321830808e-01 4.254712132954817094e-01
-8.020528004563165503e-02 -1.105248458754229390e-01 4.726068314454062724e-01
-2.777932553459539801e-03 -1.200600785627821965e-01 4.871393606748886662e-01
-4.105885127100002141e-02 -1.004790589056461514e-01 4.524368766651749585e-01
-4.129459527124563351e-02 -1.156706130680923289e-01 4.928447271294575383e-01
-2.775001501567038453e-02 -1.199391182502496239e-01 5.172019179344038431e-01
-6.677712460723721211e-02 -1.120697032797429438e-01 4.809695423353269605e-01
-6.107343300265048736e-02 -1.143430183299096042e-01 5.088410195663459756e-01
-3.920145105864833446e-02 -1.094526171800181136e-01 4.709696449627511772e-01
-8.052535603703542266e-02 -1.108575382225020500e-01 5.067032444621252241e-01
-1.224648139266835967e-02 -1.211974081488011723e-01 5.409125526711204834e-01
-3.804142530412330664e-02 -3.001519112519124982e-02 4.362810624578040697e-01
-7.284167758849276197e-02 -8.773550966645653204e-02 4.239185511680414464e-01
-1.951810499610463420e-02 -5.819056721615989414e-02 4.383712878469293028e-01
-9.161967710168508749e-02 -1.081900458740301246e-01 4.685325093194776525e-01
-4.968659710609647090e-02 -1.159209694928129142e-01 5.072244288043361582e-01
-1.077846744764555664e-01 -1.009180830064197870e-01 4.725311025218361105e-01
-1.471881023448281742e-02 -1.211039624208297832e-01 5.391168116339519756e-01
-1.392859412010071657e-02 -7.135584455060796361e-02 4.411034012114455893e-01
8.340333798035354934e-03 -1.231515405053725254e-01 4.990266478473019407e-01
-6.528518454876558463e-02 -1.097977963427695103e-01 4.668175631162472805e-01
-2.055478159414259043e-02 -7.210908139969934849e-02 4.402095052174019862e-01
-4.349818730326397709e-02 -7.891788793673082392e-02 4.327522024395012434e-01
-8.297023910287991411e-02 -1.104998952614304475e-01 5.051462588439182833e-01
-1.605766509275456666e-02 -1.217988333930130063e-01 5.027962543791464345e-01
-2.727318362722045558e-02 -1.014411828914446728e-01 4.601961636857308524e-01
-2.820318264813781103e-02 -1.198162857445309870e-01 5.177059743860507046e-01
-5.896322972932153093e-03 -1.254215601634980914e-01 5.219113446793212097e-01
-4.534111211091570309e-02 -1.059259425632363832e-01 4.597698610847271716e-01
-5.331141402673615637e-02 -1.147763213764059764e-01 4.953014321340842296e-01
-6.725461207342084413e-02 -1.123574078482013905e-01 4.846742219479213132e-01
-8.276760941179713005e-02 -1.110214957730148305e-01 5.008778285606340086e-01
-1.191862077174649093e-02 -1.121247000003509214e-01 4.722732443135932434e-01
-1.933320392647662825e-02 -1.125939184522644076e-01 4.767723993095593915e-01
-3.881833416555141580e-02 -1.149703674838649659e-01 5.383622748606085029e-01
-2.018372256462040715e-02 -1.192114028268738274e-01 5.405767362788984620e-01
-1.247600679615433472e-02 -9.170591552375463584e-02 4.495183521082112832e-01
-7.030462847322863258e-03 -9.375649651143955210e-02 4.518254427331726553e-01
6.816946832834797597e-03 -1.269349745700564525e-01 5.218405370770154983e-01
-8.879289424750108628e-02 -1.100609885124287229e-01 4.746015611838830806e-01
-1.908537369939249800e-02 -8.992273986522517082e-02 4.477403515834985082e-01
-3.856494975184952129e-02 -1.170704865194274469e-01 5.264560562626660056e-01
-4.739521884104920535e-02 -4.326115979602515593e-02 4.349689935692901965e-01
-5.155848974192899642e-02 -1.017729502961134264e-01 4.453180415532068115e-01
-2.009849970889803633e-02 -1.091163971139069017e-01 4.702150541805755757e-01
-4.895666298506222425e-02 -1.160702491342305714e-01 5.161254331849729482e-01
-1.494757386410558268e-02 -9.306296641104158662e-02 4.501745478984196525e-01
-5.004038258996410665e-02 -8.022325668872955229e-02 4.277350044886726876e-01
-4.611923273361324960e-02 -9.890347431294470304e-02 4.456278633344255558e-01
-1.181239968387866497e-02 -6.162812316626263553e-02 4.392094202812266146e-01
-4.675494445635698659e-02 -6.680567490537421549e-02 4.304075381194376604e-01
-1.932552365832605756e-02 -6.624627588679948831e-02 4.393750880810968207e-01
4.803710628705495748e-03 -1.210405049903415658e-01 4.911140824753376100e-01
-1.220173481135797787e-02 -1.232465433336868976e-01 5.299389993350926975e-01
-7.670779240025689394e-02 -1.122204374792750564e-01 4.963452304380012170e-01
8.528733859958054567e-03 -1.249097976898237011e-01 5.060270971383666883e-01
-3.748753536102554518e-02 -5.880725416335436800e-02 4.349936524220511802e-01
-9.544116579491537800e-02 -1.092805535236230086e-01 4.820333896003291541e-01
-2.007448076226718212e-02 -7.643268620820498072e-02 4.413119305054996055e-01
-4.026454250370831850e-02 -6.925863346682475941e-02 4.333809979002157808e-01
-1.422921688814138275e-02 -1.226734583142072010e-01 5.298397577068272302e-01
-1.029099042580404987e-02 -1.211965350828153737e-01 4.931585763747296514e-01
-5.510082195437611408e-02 -1.129280544411656595e-01 4.832877709157693547e-01
2.944878814303308542e-03 -1.224446594340900391e-01 4.949607873620524567e-01
-2.947659874828984297e-02 -9.486329479681919474e-02 4.511090759647082837e-01
-1.630778236050007407e-02 -1.223182856190678791e-01 5.065687993443501735e-01
-4.367055764172117494e-02 -1.160530129663591009e-01 5.259451117309035251e-01
-1.799359260544005495e-02 -1.153890029243711812e-01 4.826068018244663027e-01
4.665185764294935145e-03 -1.155887184172121607e-01 4.774482359824619437e-01
-8.288478295777990112e-02 -1.115571438563066342e-01 4.868123227729985736e-01
-1.622314620866010734e-02 -9.751855215777918695e-02 4.548412348291561713e-01
-4.725297579224750633e-02 -1.019746571291166720e-01 4.502321526585106315e-01
-1.031398026042016913e-01 -1.073908420773174582e-01 4.920807201962772992e-01
-6.941366383240307747e-02 -1.070245898060540185e-01 4.547683078628176334e-01
-5.566551557545736106e-02 -8.235515449183483661e-02 4.246375336237132592e-01
-4.069657799564656980e-02 -4.041215316116845979e-02 4.350131105854853075e-01
-7.592875411551562592e-02 -9.406266944144220377e-02 4.263226777658602473e-01
-5.946893333743990401e-02 -1.120029609163552264e-01 5.283660671910845874e-01
-3.372939559812260235e-02 -1.186138914683454310e-01 5.067674690629938583e-01
-9.661237050452052555e-02 -1.044089775125806308e-01 4.615825248987086571e-01
-8.553646931100071515e-02 -1.109715027356298345e-01 4.952715451710047456e-01
-3.732519265776403083e-02 -6.555755900551074600e-02 4.347525499673517424e-01
-1.113375270372703868e-01 -9.540143091211499005e-02 4.792052142896116029e-01
-5.477819687082460809e-02 -1.039256797042826946e-01 4.314220754242650835e-01
-3.875326291170064219e-02 -8.214612112409684641e-02 4.373115153202802308e-01
-4.868944247286387944e-02 -4.855132646286784703e-02 4.343991601140380632e-01
-4.554439308488476834e-02 -5.539766392847000204e-02 4.334982143467790983e-01
-4.356101800379169608e-02 -8.293882357576168318e-02 4.335579718268017246e-01
-7.793115838351666325e-02 -1.117723481270876396e-01 4.834642495066861501e-01
-1.850817628716195512e-02 -6.418556947705883475e-02 4.391409882204768134e-01
-4.473937051844288637e-02 -1.024754204373193867e-01 4.530867299480604293e-01
-6.468196424166323955e-02 -1.137077589402161748e-01 5.126087381235022722e-01
-1.013173497690031816e-01 -1.078795694226579449e-01 4.866502257016043775e-01
9.019237174763784434e-04 -8.316233173437737047e-02 4.472923517212774036e-01
-7.915443535172256295e-02 -1.113052095008475600e-01 4.786366910855414658e-01
-2.451356881050272690e-02 -1.013028277869361254e-01 4.601701513038743419e-01
-9.850952892943820594e-02 -1.021019146114994225e-01 4.600263761274757668e-01
-1.302949363197666898e-03 -1.260818814279043576e-01 5.135325880190853010e-01
-7.424177670722210964e-02 -1.033328378240777196e-01 4.375357758357324989e-01
-4.751221190685011447e-02 -1.112431322587368321e-01 4.749307401832517095e-01
-6.725333947310629945e-02 -8.470520140726600644e-02 4.233892100250852830e-01
-4.263085740525698886e-02 -1.170477443984867527e-01 5.078411448689416074e-01
-8.323525509415918844e-02 -1.071782115588804096e-01 5.185203130422250117e-01
-2.522511102167106223e-02 -1.201370104468834354e-01 5.048474139040157738e-01
-1.583878329297948306e-02 -6.474383605753726567e-02 4.395187605864404046e-01
-5.133042664566665053e-02 -1.139764996170106737e-01 5.280044513468404865e-01
-7.312393580330767140e-02 -1.081198900339487429e-01 4.596944297712844407e-01
-9.496197368095803115e-02 -1.057034102449882634e-01 4.625686211199588338e-01
-9.605686074437280730e-02 -1.087498386049178950e-01 4.754572411066569915e-01
-1.050788042797218685e-01 -9.067181817832779822e-02 4.711575011304067195e-01
-3.900508185307261649e-02 -7.780619700923759041e-02 4.351652950753828741e-01
3.082092592277825560e-03 -1.263325057997138623e-01 5.306877988536942148e-01
-4.071107667521980944e-02 -8.972726641944570036e-02 4.413520404368475591e-01
-6.024598141163271109e-02 -6.748633736425341256e-02 4.299417927607908640e-01
-6.055721137705399187e-02 -9.961271920479862485e-02 4.232215761938724619e-01
-9.332669560574931300e-02 -9.701290830687596400e-02 4.513822686022639363e-01
-7.177819791727692300e-03 -1.236190264942139683e-01 5.340783726649502849e-01
-8.744147780657163249e-02 -8.849242256074693613e-02 4.458922998095620760e-01
-6.269726309778105022e-02 -1.095550899273750045e-01 4.657766881124841274e-01
-3.170905012434761111e-02 -1.189308816336931557e-01 5.054069414805790750e-01
5.844225449347859036e-03 -1.262386550710658528e-01 5.121290487222390775e-01
-4.791107599457018057e-02 -1.152110234739115169e-01 4.935390107315317243e-01
-9.125949922677872861e-02 -9.536523306706737313e-02 4.485370368436930044e-01
-4.198033804594106244e-02 -3.551177403836846408e-02 4.351806595063397731e-01
-1.037732449222214352e-02 -1.238378597647591534e-01 5.288189860406193876e-01
-3.107195592823297492e-02 -1.082906093690398225e-01 4.702298284077839896e-01
-5.418051589109370431e-02 -1.035402998074451131e-01 4.461251493726361983e-01
-2.872430774774837811e-02 -5.591116482269398169e-02 4.370004664581811915e-01
-5.926555369749038349e-02 -1.128768191858457587e-01 4.837659999789782894e-01
-4.823130060694287569e-02 -9.684625567488193421e-02 4.387734528698559733e-01
-8.248787485758037052e-02 -1.076530907527697423e-01 4.604122335047868275e-01
-3.528904936393644637e-02 -8.130788912378113242e-02 4.392170864138333908e-01
-5.818595541609478811e-02 -1.146483506465163227e-01 5.029039558762223860e-01
-4.367652189383117167e-02 -1.072748190822351150e-01 4.636407126132181533e-01
-2.908753090589663581e-02 -1.031573825595294147e-01 4.622640340255109170e-01
-7.531971867797242204e-04 -1.255330849179516484e-01 5.322511842093395895e-01
-9.024567058221094618e-02 -1.104958978942578995e-01 4.928112488856863371e-01
-8.742566604035971467e-02 -1.076832078478266175e-01 4.634050249990848691e-01
-1.749856485693900010e-02 -1.092277458555144243e-01 4.693691073766655952e-01
-3.504799142602872675e-02 -1.147713986303672828e-01 4.870973773700186804e-01
-9.393484545372185468e-02 -8.456378611153501923e-02 4.604401050953172425e-01
-4.666261255638992633e-02 -8.729034018341925993e-02 4.305717045327195902e-01
-7.320721064189714133e-02 -1.036874799944308145e-01 4.380626035532265705e-01
-5.365118072370431840e-02 -7.570424297285374693e-02 4.265855740622129799e-01
-4.813134667452298454e-02 -1.097645167189527787e-01 4.681318138695687581e-01
-7.972030805059709957e-02 -9.009634829221660479e-02 4.320766562422647117e-01
-3.446003434059487225e-02 -1.160824200416876034e-01 4.917246148668768524e-01
-7.538059215059962626e-02 -1.122252463850606230e-01 4.925837002083131022e-01
-3.073885831531846316e-02 -9.027141508867636555e-02 4.461736220793716123e-01
-2.022467310656774278e-02 -1.156363293828810840e-01 4.842380635068939121e-01
-5.396661359197699875e-02 -9.725367959072839241e-02 4.247216752758614655e-01
-3.127292447843612461e-02 -1.062772490235434769e-01 4.667559535536665027e-01
-9.860686180242503318e-02 -1.020414620611591883e-01 4.601415271804925045e-01
-5.537109463905787177e-02 -9.237390583290654156e-02 4.236505553439525729e-01
-8.812021157945168839e-03 -1.247387749778694349e-01 5.218848818686794289e-01
-5.499009595060070504e-02 -7.748882578766748408e-02 4.257545713452225433e-01
-5.470090941588379857e-02 -6.488830271724867205e-02 4.292269271935017505e-01
-8.990962171778295320e-02 -1.027138918646171711e-01 4.531222353730647301e-01
-4.813338363979567658e-02 -1.161250544002585677e-01 5.170831934468099744e-01
-1.077771171289465535e-01 -1.029100714110010723e-01 5.034393624021794578e-01
-1.515002005055991058e-02 -1.199154444733782354e-01 4.919564643597609810e-01
-4.798715966149433299e-02 -1.161700320113677604e-01 5.168807942739781502e-01
-7.693691773371452713e-02 -8.618225232452171591e-02 4.309948437371504681e-01
1.354567696749493788e-02 -1.258226055493851248e-01 5.172305064030977562e-01
-3.526882871433610622e-02 -7.597414327776980114e-02 4.367560825384436130e-01
-1.171171224552957149e-02 -1.239299953374242425e-01 5.226361973331270505e-01
-7.389267548887927528e-02 -1.077252556298400610e-01 5.271429380101650963e-01
-3.375973725659685287e-02 -1.187459646031764904e-01 5.096985366903166170e-01
-2.403148944161408694e-03 -8.886971312550337454e-02 4.497838797886558049e-01
-3.199074758964016302e-02 -1.066374857611762095e-01 4.671757969683266176e-01
-8.314843210703692922e-02 -9.926172008281307357e-02 4.412101005182229030e-01
-2.667504733892208171e-02 -3.700376204791012286e-02 4.384644058464390870e-01
-6.788388809663356560e-02 -9.565765410074128505e-02 4.210624503345330449e-01
-3.246779451829980706e-02 -5.784593692186168479e-02 4.362323977337647651e-01
-7.892745868396387754e-02 -1.118351022962250085e-01 4.875910516183760701e-01
-1.050096906862133667e-01 -9.144587313543631191e-02 4.701655047831964085e-01
-1.101509105903720684e-02 -9.842919128118846062e-02 4.552597996954417803e-01
-9.112194574996182461e-02 -1.050987693965558661e-01 5.159096508680829363e-01
-6.974468304374334404e-02 -1.122159203165167124e-01 4.845274255858104673e-01
-4.605724040664656987e-02 -1.164401381377324907e-01 5.056192076699426163e-01
-6.729645904396004685e-02 -1.087093331841349486e-01 4.617664445762041381e-01
-5.789058689928676393e-02 -1.064019227590152356e-01 4.525526591582996749e-01
-8.065872750061787999e-02 -1.019584863353010934e-01 4.409462880604007595e-01
-4.004535627192264136e-02 -6.682723135209212018e-02 4.335233245486981302e-01
-3.597753731273774583e-03 -1.249045812751196083e-01 5.065833824051031442e-01
-3.816025008925267442e-02 -1.163334961422685665e-01 5.323643232460995023e-01
-7.551521991276828605e-02 -9.150503126234234286e-02 4.257093430413919077e-01
-8.311150797987762462e-03 -8.284812004923262918e-02 4.458451386114141157e-01
-8.740566398162046002e-02 -1.107759313742634338e-01 4.822517500779423538e-01
-5.576890309186163797e-02 -4.791739206450227467e-02 4.386159340360256120e-01
-5.618275080206640293e-02 -1.114409461452124522e-01 5.324295902486551046e-01
1.225524187608371431e-02 -1.262684347070139879e-01 5.196683744806493976e-01
-4.209457797406050694e-02 -4.171535747927124227e-02 4.348814388066510328e-01
-7.101185438809563821e-02 -1.127984518724615415e-01 5.068363258738483035e-01
-3.849536358230480626e-02 -6.622858720413328515e-02 4.342875918936467960e-01
-3.969469305991664421e-02 -4.065816517860867951e-02 4.351168501179193404e-01
-2.846089584554688592e-02 -7.858162456354793324e-02 4.402860715775754885e-01
-2.194582472597052941e-02 -1.132511217231309680e-01 4.794786509750364467e-01
-1.929564704485946074e-03 -1.251468638335985206e-01 5.070093981536593075e-01
-8.126421320501014955e-02 -1.108728908358831700e-01 5.049739611903530934e-01
-4.084825467157079254e-02 -1.156943479769997202e-01 5.318327813558838546e-01
-8.536834841608532953e-03 -1.036527120754191789e-01 4.601900594689260493e-01
-4.041013270078629149e-02 -9.874644022969410184e-02 4.504215429893165257e-01
-2.157229283599036707e-02 -1.187097340188122269e-01 5.412966207089804360e-01
-2.308256907623987969e-02 -1.210753951757790742e-01 5.118340212099257158e-01
-5.644600700196235332e-02 -9.927887870713912599e-02 4.226578324455604330e-01
-9.603735261571519355e-02 -1.089547303088216623e-01 4.968958028260967996e-01
-3.476259178602365829e-02 -1.161321199753564681e-01 4.920364669047154749e-01
-5.242674758165095233e-02 -4.793917568525390277e-02 4.353768724981991189e-01
-4.529923934568415994e-02 -1.154074017421006237e-01 5.275638944693663568e-01
-3.731552154196941112e-02 -1.168746574630952217e-01 4.964088343969382811e-01
-6.553807448288162529e-02 -1.107083893456364265e-01 5.268676033090065047e-01
-3.675448743971253263e-02 -1.009708926942503998e-01 4.563688857293179413e-01
-1.007847422560795292e-01 -9.310048059352868388e-02 4.618884365435768635e-01
-3.896682401471130916e-03 -9.063723889656875865e-02 4.504252401303956987e-01
-8.314659758158893244e-02 -1.077518271196958033e-01 4.610946297261806492e-01
-2.287424625144870993e-02 -9.525878148173450022e-02 4.530577162963811411e-01
-1.860347763388795622e-02 -1.196750462475165699e-01 5.404970472324422959e-01
-6.047750964025243314e-02 -1.144245769032251198e-01 5.089931206834086286e-01
-5.328399754092881524e-02 -2.529395151616400939e-02 4.428586151543483784e-01
-3.881215882366836900e-02 -7.671763231299381924e-02 4.348205341777244826e-01
-5.627851478274752128e-02 -6.258684753228768716e-02 4.305852217608538424e-01
-7.062936252918378122e-02 -1.051745523212334887e-01 4.433565782025759017e-01
-3.453260289546306733e-02 -1.184715420010203357e-01 5.071343721335231924e-01
-3.603180123507081917e-02 -1.173192833831681464e-01 5.286191023301817227e-01
-4.854772268838381671e-02 -9.872219955176297912e-02 4.428729151649701823e-01
-1.007141177410054433e-01 -1.014813458208122660e-01 4.612116882413964669e-01
-1.322240359200399333e-02 -1.222514661355229293e-01 5.009165413488740892e-01
-4.574232259536083894e-02 -1.149572746544567092e-01 4.917148447405108591e-01
-8.223129001033406549e-02 -9.066354525266585862e-02 4.363172845509968867e-01
-3.537107893519052249e-02 -1.055156021133526745e-01 4.644090773463982469e-01
-6.472020407960568655e-02 -9.148759875983490664e-02 4.211520518907536093e-01
-3.973603157646470041e-02 -1.171683836469820383e-01 5.233361508415416141e-01
-4.739495005574185377e-02 -9.406403450661042498e-02 4.349960799526759181e-01
-2.872339333813946419e-02 -1.190853558516163646e-01 5.018463650693620881e-01
-9.615924590258485838e-02 -8.838196301824659262e-02 4.596609783987827824e-01
-9.600453266072234149e-02 -8.564680943615705921e-02 4.628672253781157542e-01
-5.862553324086717393e-02 -1.116287763759123558e-01 5.302447281591898820e-01
-5.677040892904999109e-02 -1.046134907636123990e-01 4.463729509324705358e-01
-8.482680789883011163e-02 -9.427508646692243921e-02 4.399333370830139089e-01
2.443364767491128763e-03 -9.269240608608289578e-02 4.524889888707612773e-01
-8.681188258091954157e-02 -1.022378342007616986e-01 4.478768562521885377e-01
2.690510714580105281e-03 -1.263103079517284011e-01 5.108331535735074480e-01
-1.014709129078511518e-02 -1.160548913431368317e-01 4.789110052710421894e-01
-3.719419570431049815e-02 -1.180956998380251616e-01 5.156538703358362064e-01
-1.096379796460016098e-02 -1.043703614642253752e-01 4.611314236446217296e-01
-3.897995903635982640e-02 -1.072308491247907086e-01 4.657395224690234481e-01
-9.343315425044509959e-02 -9.369736298019103182e-02 4.518129411819950536e-01
-4.351704511755138255e-02 -7.312050302235620358e-02 4.322046809733690043e-01
-2.267408950671692333e-02 -1.199230999581021168e-01 5.328845115656507536e-01
-2.890093548370157445e-02 -1.185558300039682711e-01 5.316050717721580998e-01
-5.298388382230382471e-02 -1.041935364913167406e-01 4.499513165919612478e-01
-4.007401364071768585e-02 -9.553495445732443359e-02 4.469558389674637700e-01
1.274962845969130612e-03 -1.266027946326327425e-01 5.261261638664918028e-01
-8.053265266945235090e-02 -1.072852521907229628e-01 5.217950075500391582e-01
-4.682120875221605812e-03 -8.463911444051608335e-02 4.472398381440109150e-01
-2.969758335315120235e-02 -1.187557907893448533e-01 5.007706066698192071e-01
-7.756253819905873509e-03 -1.251047498514383516e-01 5.185772095623087941e-01
-2.352776152932468598e-02 -1.191370083424319742e-01 5.368486560542250485e-01
6.661419718943556618e-04 -9.257113081429997614e-02 4.521776180760762043e-01
