-8.353201971831017772e-03 -1.111384240566664489e-01 4.697236548560853042e-01
-4.126668590688999799e-02 -1.106997859653035265e-01 4.751264835668652098e-01
-1.845222560992702690e-03 -1.262420424820527576e-01 5.166022092819830824e-01
-2.292535894291999020e-03 -1.032290465593114076e-01 4.607599539392068788e-01
-5.272366472991796282e-02 -1.152563203603475528e-01 5.171513337634097152e-01
-9.185409151731992183e-02 -1.022007767149943486e-01 4.541698889157228525e-01
-8.530660257981922956e-02 -1.045273528867516205e-01 4.528858835760532497e-01
-3.275834262034145461e-02 -3.701787410817736212e-02 4.368952258151368451e-01
-3.228890861768441561e-02 -1.176259679422402976e-01 4.968096128890153729e-01
-5.537121725838813763e-02 -1.148568085265906369e-01 4.997079922293943266e-01
-8.329245151253145130e-02 -1.101525528098740575e-01 5.066150289487159064e-01
-3.917244806180757155e-02 -3.754928095188251463e-02 4.352261190839605831e-01
-3.437366031588857257e-02 -1.113200300277984028e-01 4.765396787214842833e-01
-5.831325323311592479e-02 -1.128290475952290761e-01 4.840218287928748087e-01
-4.496735720660476748e-02 -1.157657482574155766e-01 5.257131527263215753e-01
-3.039581757975930165e-02 -1.191050666014210335e-01 5.048600112974513943e-01
-1.431901363149132300e-02 -1.225423601010754010e-01 5.307608805435114485e-01
-9.011302350685683471e-02 -1.070906895712796236e-01 4.637723438500790385e-01
-2.151578111481072808e-02 -1.166791701995879560e-01 4.880697996063598776e-01
-7.117065125710550499e-02 -1.087785434499139448e-01 4.631697839463544408e-01
-3.066563679628505137e-02 -7.832711214171340919e-02 4.395975633008845640e-01
1.475057865371537033e-02 -1.257167269579922420e-01 5.181483138412318334e-01
-7.779775919002882012e-02 -1.116651815633186995e-01 4.849518650456720037e-01
-1.866142175507167975e-02 -1.211610646002933694e-01 5.315194477137911155e-01
-8.157999643128911738e-02 -1.072745162140482517e-01 5.200204752728769808e-01
-2.166944892480685697e-02 -1.118163712459774584e-01 4.760962671207004115e-01
-6.213310957331763529e-02 -1.047388148269104147e-01 4.331073112617474519e-01
-5.085232619122233982e-02 -1.102146790982763830e-01 4.694245936454483070e-01
-5.138890369494215904e-02 -1.003932535941538112e-01 4.401048486150970218e-01
-9.848826170501805144e-03 -7.220224650402273792e-02 4.417737619532802751e-01
-2.883049479019561545e-02 -8.107734048275286320e-02 4.414060615869569992e-01
-2.421404895393454090e-02 -1.143736351128144119e-01 4.826462679175354542e-01
-7.350748017682569649e-03 -7.178404583265247940e-02 4.418639658694208383e-01
-6.678902949805727574e-02 -1.133278493995307917e-01 4.998280014589956965e-01
-7.156066269138033897e-02 -1.123653154645028740e-01 4.912906278824086259e-01
-1.538534908019650177e-02 -1.160138876917555240e-01 4.822533806934422573e-01
-1.145606040019859877e-02 -8.592947727521990653e-02 4.466636428326747899e-01
-9.796772562569197595e-02 -1.063936442881235206e-01 5.059695887832728056e-01
-4.857865291166030275e-02 -9.814474383404153679e-02 4.413020133942727186e-01
-3.291225912645513035e-02 -1.188630381875116077e-01 5.163519331554055070e-01
-3.438483365506495026e-02 -1.181654914609026330e-01 5.031158141940874629e-01
-3.195803460324030121e-02 -8.351396643526555474e-02 4.415880858767263772e-01
-5.391855370793517503e-03 -1.078320812813301360e-01 4.651477893891517446e-01
-5.589344882101987544e-02 -1.117903154301559676e-01 4.766663198850659144e-01
-5.879410628937867256e-02 -6.670704955230287447e-02 4.299295259422103443e-01
-1.193721639178217143e-02 -1.226392886716937969e-01 5.013423294075407544e-01
-6.364532077449601422e-02 -1.047420300293707002e-01 4.330891998702366963e-01
-9.082510693722271877e-02 -9.805577047445630801e-02 4.485034280408196072e-01
-4.584396447245912831e-02 -1.008691305200131588e-01 4.496640521774545318e-01
-7.231515722922580991e-02 -1.099152428938426768e-01 4.690051299008605179e-01
-4.629582456181171451e-02 -7.048522192045127144e-02 4.303024959475063582e-01
-1.097624573374578333e-01 -1.008130566893391533e-01 4.788422742385785580e-01
-2.469768346804568360e-02 -1.193402517149528136e-01 5.333320362970903616e-01
-2.442255540970537583e-02 -1.199025422649024619e-01 5.288150204335423377e-01
-5.669349595867946567e-02 -8.689801087028117821e-02 4.234400406700188912e-01
4.730210103830008277e-03 -1.229611484943269606e-01 4.970600107789555078e-01
-5.437986713665608762e-02 -1.150894631733278412e-01 5.037528364683451221e-01
-5.754041173578700735e-02 -1.120015572885775246e-01 4.784808499591609032e-01
-6.780101935489568632e-02 -1.041672364913366483e-01 4.360377441370189011e-01
-8.370429307005100572e-02 -9.520317488085595914e-02 4.388399583023476214e-01
-1.417564693102577739e-02 -1.226647147280119643e-01 5.054322994262634428e-01
-4.678947123180248607e-02 -1.162191546082265992e-01 5.179636237440040647e-01
-6.680590712731644676e-02 -8.622521496601759372e-02 4.218825462352208677e-01
-7.771077261233426403e-02 -1.070239227103494950e-01 4.572909070515850938e-01
-6.520506532681380474e-02 -1.135988609051152842e-01 5.106958625065334267e-01
-1.980733434289587425e-02 -1.130980670310516717e-01 4.784197800326652761e-01
-1.096530060041872451e-01 -1.018419940684067992e-01 4.809860193025385366e-01
2.686591576750202610e-03 -1.028970702218200972e-01 4.609055016866152044e-01
-6.256195590130250728e-02 -1.047244219677799237e-01 4.341030910138468091e-01
-3.469334238910674190e-02 -1.183229430672109589e-01 5.055030991880971047e-01
-5.329925324093159889e-02 -1.109125709581333247e-01 4.716636732614474803e-01
-3.229072564320086686e-02 -1.189373527573807099e-01 5.082806777552173472e-01
-5.579226116924586309e-02 -1.036509041513882512e-01 4.257934106150604858e-01
-4.122512764450224354e-02 -1.169922751134643418e-01 5.026712466554279501e-01
-1.091242011033246306e-01 -1.031738756172141808e-01 5.007034406076446009e-01
-5.261742861828055257e-02 -1.014720826657646013e-01 4.340523964913100552e-01
-7.981519692783596576e-02 -1.088248600228243906e-01 4.649058397144581467e-01
6.736711651972788518e-03 -1.229651042331397492e-01 4.978074789773474507e-01
1.732981275372137003e-02 -1.248676280071962935e-01 5.380705542913228889e-01
-3.005597162713631587e-02 -1.159010348582834304e-01 5.432622345642428296e-01
-9.104063523402185221e-02 -1.043826193478361170e-01 5.173369288688299816e-01
-8.383823372334689439e-02 -1.097176793999439653e-01 4.699131821794636510e-01
-6.688811721629245310e-02 -1.119530016335598260e-01 4.813602721025802555e-01
-3.676341148919146790e-02 -4.651738261615245146e-02 4.353479303867265893e-01
-2.809226276781189718e-02 -9.311158428677350496e-02 4.499466336966685409e-01
-1.023127627467925876e-01 -1.042798796860915922e-01 4.660141740023749923e-01
-4.593856419961573484e-02 -1.108263648552070268e-01 4.744491614989905792e-01
-8.375781008526907156e-02 -1.111911837155768468e-01 4.924017037681848175e-01
7.187327738309642888e-04 -1.108386657887831112e-01 4.690935848891132909e-01
-1.413636953874413717e-02 -1.013095151513176140e-01 4.580136388078558385e-01
-6.138487104368311326e-02 -1.019975107499126038e-01 4.233869789095316416e-01
-5.378659807763720019e-02 -2.777150716938407357e-02 4.447589977891903690e-01
-4.756898476600247838e-02 -8.726849644726610011e-02 4.296209084817464441e-01
-2.806478443022480257e-02 -1.193442615142730340e-01 5.253400318842877947e-01
-7.006272576306411815e-02 -1.126811506046450084e-01 4.939738014520058118e-01
-1.426240330167150190e-03 -8.221985366616511859e-02 4.466752941895367757e-01
-1.020210593405357774e-01 -8.776894824623986124e-02 4.694769584228114523e-01
-6.748511909534393727e-02 -1.076225824927787567e-01 4.579620271754842875e-01
-2.259725232484684036e-03 -9.874182083881739846e-02 4.567377440004115607e-01
-5.754296027246921796e-02 -5.476246009493419137e-02 4.354463961108434589e-01
-1.430038380726071645e-02 -1.171808676010582667e-01 4.840916819559319406e-01
-4.172542946133780961e-02 -1.055822334403490603e-01 4.616597720631545054e-01
-2.863058418971234712e-02 -5.470585827772058568e-02 4.371536069461989804e-01
-4.319803604563773186e-02 -1.112377108718428653e-01 4.769458123375130976e-01
-6.331376257448287359e-02 -1.105595914435485716e-01 4.708022760662122774e-01
-5.519371469374877159e-02 -1.133257997799083233e-01 5.265806955679978030e-01
-4.934407750939310416e-02 -2.983058658064559679e-02 4.369331576944134321e-01
-1.936059047256812396e-02 -1.115104075843238035e-01 4.747181551693822055e-01
2.882307858241573914e-03 -1.036251197571776139e-01 4.616030488115169250e-01
-2.737790453362391047e-02 -1.178150353960765867e-01 5.384730633074047423e-01
-3.842648706362098571e-02 -4.932993198125949080e-02 4.351357932539388629e-01
-4.207966033850350958e-03 -1.257279208959103667e-01 5.149478916796550454e-01
-6.789545861536737392e-02 -1.055068619203445718e-01 4.463379410901568423e-01
-2.528717553153129668e-02 -1.169861293843994926e-01 4.914770782150815198e-01
-2.586938347275252389e-02 -3.952733327530474211e-02 4.386234373308735557e-01
-8.626987463115920463e-02 -8.935225990359040027e-02 4.436255330002730757e-01
-7.926264737297053498e-02 -1.067345613544656291e-01 4.565463078959516863e-01
-1.036251472598522655e-01 -1.050390113233788947e-01 4.707193139796372883e-01
-6.237026765161616908e-03 -1.138697306357889238e-01 4.739885471385733018e-01
-5.079787145305905693e-02 -1.156357120396679788e-01 5.053649449584527442e-01
5.489527979148411778e-03 -1.270280899551450293e-01 5.209096423445686019e-01
5.708163859673552436e-03 -1.216992304446912199e-01 4.936191273696629023e-01
-2.120687084834272512e-02 -1.213577954218117427e-01 5.218710102468083756e-01
-4.997280847059203807e-02 -9.370419847816109649e-02 4.280980897572326249e-01
5.809725215087904911e-04 -9.226070196905596099e-02 4.519471504853357358e-01
-3.277942098706818595e-03 -1.245677416200474952e-01 5.043777117882067840e-01
-8.522080189626542179e-02 -1.076276546339548085e-01 5.147008702507605005e-01
-6.315647306341436173e-02 -9.288490298969236114e-02 4.212642944613871898e-01
-5.770716455355447833e-02 -1.015446416449269917e-01 4.231349406694656090e-01
-9.817299563050861655e-02 -8.685268759428960150e-02 4.642005456418994980e-01
-7.803180349532702620e-02 -1.070031262925527776e-01 4.572878207056890187e-01
-3.337105151008693676e-02 -1.160985378090468034e-01 5.396462953312510802e-01
-6.803455653203227538e-02 -1.131209458735271817e-01 5.105235404320279669e-01
-1.664142623144810457e-02 -7.423570611351722193e-02 4.413939471604431120e-01
-5.236276638196832312e-02 -1.013313907168730543e-01 4.381026446420067111e-01
-8.331601625307719777e-03 -1.222275976873185149e-01 4.959579576111562971e-01
-8.835964088710344944e-02 -9.038954500583178120e-02 4.461622462770631348e-01
-7.083719229816035079e-02 -1.107668722166888636e-01 4.739756467834138065e-01
-7.481602495262469621e-02 -1.092109871318093367e-01 5.220962917429641248e-01
-4.398744894324912308e-02 -1.123537355247898883e-01 4.815629357687143952e-01
-7.849462933167472567e-02 -1.116640359349969913e-01 4.860739057868328494e-01
-7.778610274364494703e-02 -1.080521282541218181e-01 4.613107984337683765e-01
-2.336978759076562863e-03 -1.243215550641042916e-01 5.350490443570921073e-01
-5.442100668290767579e-02 -4.466774326826187386e-02 4.380693175310392817e-01
-9.592455691902913167e-03 -7.377633620631232625e-02 4.422910825544812963e-01
-4.800589548205880241e-02 -1.138463466128152302e-01 5.316208739803167660e-01
-5.462704356692749119e-02 -5.532707278984778931e-02 4.328181143603695435e-01
-3.161374908390970212e-02 -1.190691574181765855e-01 5.083589790144081855e-01
-1.331291491295004317e-03 -1.227371426900594753e-01 4.960041669125949126e-01
-1.852977943982751785e-02 -9.204359991569407984e-02 4.493401937638407118e-01
-1.032238099629989025e-01 -1.070984794703686710e-01 4.859065315605393676e-01
-3.839870560023674051e-02 -9.795644846951018225e-02 4.507356193985911363e-01
-2.287475989325571391e-02 -1.209938257210205065e-01 5.207506061230380290e-01
-6.178554977670511553e-04 -1.226556775350816919e-01 4.957390169505632715e-01
-9.702564507136532401e-02 -1.078312892344099327e-01 4.732442665497999523e-01
-1.798806085823339077e-02 -5.028846467660075259e-02 4.386763878831779206e-01
-9.569703743086087344e-02 -1.017268516288630936e-01 4.555693532931636702e-01
1.557570639852507918e-02 -1.255513323620398580e-01 5.361392983641830590e-01
-3.946381961070685382e-03 -1.078125448464507946e-01 4.652662349186264534e-01
-5.119785733660302263e-02 -8.954346288067106807e-02 4.268525278472199425e-01
-2.251880933707210014e-02 -7.684653353673784326e-02 4.410532714888947825e-01
-5.123415634601072993e-02 -9.487010357628310186e-02 4.269958284554404848e-01
-7.248557937949531849e-02 -1.090049329805678480e-01 4.642701375327789592e-01
-4.117689933199469854e-02 -1.127234183875382018e-01 4.824713426922300208e-01
-3.360330469595584901e-02 -7.193907100274889166e-02 4.363683579873604557e-01
1.097796899342065417e-02 -1.253843788102496637e-01 5.384810280652790881e-01
-4.103975416817785132e-02 -9.985761567338820310e-02 4.517407195867453873e-01
5.479218156586104435e-03 -1.256145245685209577e-01 5.358571920749521933e-01
-3.846991429215693148e-02 -8.930738299487407661e-02 4.424780857375696375e-01
-4.334934962420883275e-02 -8.858419183905785754e-02 4.367564593681240170e-01
-1.995085478660552775e-02 -5.917073469292306875e-02 4.384113954776723832e-01
-9.694926329166493606e-02 -1.054992411779894085e-01 5.096008076755249583e-01
-2.164830618026870532e-03 -1.261467340734134246e-01 5.160569455973280650e-01
-8.639858582352619165e-02 -1.075758923762008407e-01 4.629253281362804007e-01
-5.602308399996019928e-02 -1.114572821052111085e-01 5.322808548051886079e-01
-2.621773736419763870e-02 -8.820914375645010075e-02 4.456895303159715271e-01
3.180346494647409965e-03 -1.120676137693890351e-01 4.715103230819597813e-01
-7.663129224964849995e-03 -8.497493827359474394e-02 4.468279707192510108e-01
-6.755877417871469608e-04 -1.030953928686512006e-01 4.607691962534833374e-01
-3.249007702672327552e-02 -1.158310796398365483e-01 4.901541554516515298e-01
-2.063802497777194808e-02 -1.196089337251294710e-01 5.382264919443826567e-01
-5.761578340677148830e-02 -1.058431945779778061e-01 4.510555813569256944e-01
-5.840242212119623605e-02 -1.050695959472072449e-01 4.476794308186899940e-01
-6.428399890157837637e-02 -1.071831534624518995e-01 4.558606430114150454e-01
-1.020314781425961104e-01 -8.722647026102441081e-02 4.703024027484514757e-01
8.176093870074280581e-03 -1.256980839648136061e-01 5.101189974182226416e-01
-3.539221300524204167e-02 -1.180603652332015557e-01 5.035593773909856630e-01
-3.632739313227962511e-03 -1.221681483683463715e-01 4.942097730281392876e-01
7.684234859571943861e-03 -1.255558409951193222e-01 5.091396635711571417e-01
-5.339563985907808813e-02 -1.153448449903524270e-01 5.151111953147223810e-01
-1.073447657797966734e-02 -1.137895599645656064e-01 4.746981467618689998e-01
-3.751707605829403269e-02 -1.174822075048114756e-01 5.018133185774544813e-01
-1.873147637978248709e-02 -1.176507500591908312e-01 4.891334294735426025e-01
-8.154993228882921608e-02 -1.080003686252531125e-01 4.621017971872685703e-01
-9.180951602881950654e-03 -7.038257193572500237e-02 4.412955999401974028e-01
-2.318045240481865152e-02 -5.001615133156335491e-02 4.385394848154277603e-01
-4.750697938674413451e-02 -1.013144669979711004e-01 4.487304113691090723e-01
-7.855090850760754195e-02 -1.115134622295714251e-01 4.817297881357022193e-01
-1.325013080674140344e-02 -6.448389498351675408e-02 4.397252011030363672e-01
-8.062968896251927753e-02 -9.187058177205122134e-02 4.326421403579743807e-01
-1.549506924285837424e-02 -1.216977302903892721e-01 5.349981506948484622e-01
-1.643274342027234089e-02 -1.224755093506738890e-01 5.242997505431876704e-01
-3.145986696089442258e-02 -8.850994442930233685e-02 4.446758780314084558e-01
-9.436535769719033018e-02 -1.069307387679253041e-01 5.083707761058551267e-01
-7.730100856009525234e-02 -9.837519263841060235e-02 4.302741580672753696e-01
-5.558977792291255882e-02 -1.150762627469731902e-01 5.103586388735319446e-01
-5.575359834500672601e-02 -5.960947963745738543e-02 4.312703388326188936e-01
-1.045906594916822391e-01 -1.050681203030772448e-01 5.016161942414907315e-01
-8.429383210008495331e-02 -1.103186520421695072e-01 4.738704236537791825e-01
-2.721563912016818770e-02 -7.605771767774707759e-02 4.397190458566702098e-01
-2.993175872540639396e-02 -1.051439046801228294e-01 4.653449523696850387e-01
-3.640501784145235009e-02 -9.294025153327416244e-02 4.466388687940535673e-01
-1.932903059377103199e-03 -1.257930691970529924e-01 5.285566176458333931e-01
-6.793192940126920043e-02 -1.122715918992509554e-01 4.857617465762630871e-01
-2.373177265837175462e-02 -1.052319967098336861e-01 4.652767228947277123e-01
-4.444317764127434650e-04 -1.252257352568860727e-01 5.335153919904485065e-01
-7.827506782102770788e-02 -1.101697888155327848e-01 5.141025543452902857e-01
-2.206352363086079224e-02 -1.156191163747652267e-01 4.851984167258113212e-01
1.003369624625302312e-02 -1.226622220607756497e-01 4.980136780521103868e-01
-4.079894262721987103e-02 -1.165749320911243919e-01 4.985765738684833082e-01
-1.539390315922203184e-02 -8.120759467060473247e-02 4.438780228066182554e-01
-4.875808513812341510e-02 -9.588889434833287873e-02 4.345350357026206978e-01
-1.955606187364441334e-02 -5.096731587153797288e-02 4.385425300252303593e-01
-9.616068532510393951e-02 -1.086466103733984695e-01 4.982113289049901472e-01
-9.567934529698861323e-03 -1.236546692794635721e-01 5.051300858912307623e-01
-5.856112853180944766e-02 -7.069365947504373249e-02 4.274939543368069805e-01
-4.804290815465776798e-02 -1.108482343123654984e-01 4.734891837892623578e-01
-8.202174416828859893e-02 -9.910362552259821545e-02 4.391920132169613855e-01
9.776264931211954556e-04 -1.264667628860003945e-01 5.137181122441919490e-01
-5.845428771533887902e-02 -1.120445258488764889e-01 4.788152388505868551e-01
8.895222420987527329e-04 -1.215052517934894633e-01 4.919745246959694174e-01
-3.001992129710985557e-02 -3.871151524123218196e-02 4.376692685008892747e-01
-3.351891327677105140e-04 -1.201407172036802196e-01 4.876357434770349220e-01
-3.359948859635182583e-02 -1.024592501734246930e-01 4.601752647326557977e-01
8.347970057078334810e-03 -1.213211309567583940e-01 4.935120641695859289e-01
-2.252769395296996130e-02 -1.199617729273458611e-01 5.002789852432227846e-01
1.976951060808854709e-03 -1.237712032879339646e-01 4.992200367727383514e-01
-9.792126334446510372e-02 -9.647946268611538867e-02 4.563515173672222369e-01
-8.667714760738291779e-02 -1.097401943405201946e-01 4.718407705483436687e-01
-7.105522550964952881e-03 -9.933063455488055915e-02 4.564184667401950946e-01
7.900586446398374235e-03 -1.247220020441555527e-01 5.047951355503813575e-01
-4.344314800963919310e-02 -4.239466762392391647e-02 4.348711292135567508e-01
-1.449970043786291077e-03 -1.254324028351681830e-01 5.320533258059930715e-01
-4.548178246340821296e-02 -8.434532602711884708e-02 4.312619895534317571e-01
-2.437875805205458671e-02 -1.110328692983043597e-01 4.752589566791691755e-01
-1.023345134906470111e-01 -1.061493084868538606e-01 4.748697201150581249e-01
-8.172967328956215471e-02 -1.096515281203689351e-01 5.111205628303008286e-01
-8.358835902178768373e-02 -1.102822790214599974e-01 4.732279671499586282e-01
-9.017567958165252640e-02 -1.101210111828258287e-01 4.961795528641351760e-01
-5.751661973331245042e-02 -1.147725644910504439e-01 5.102365788823696180e-01
-4.528753712039036011e-02 -7.813526858905449346e-02 4.310038507149794307e-01
-4.792189215666663865e-02 -1.146780107009587046e-01 4.912619540707865995e-01
-7.996977841455320257e-02 -1.073675146427280902e-01 5.220089814917729942e-01
-4.047340968929075827e-02 -3.394617945808509757e-02 4.353588195204081135e-01
-8.248186974214641309e-02 -1.113649860090907828e-01 4.842706117405916055e-01
-7.795414783947439419e-02 -1.080705844836427898e-01 5.222188471389040965e-01
-5.628496466141326426e-02 -1.033376039727971207e-01 4.427138415221355539e-01
-2.784580346050633329e-02 -7.067318976117570317e-02 4.381740527439454413e-01
-7.390822121758447438e-02 -1.017473949005242573e-01 4.312727902324902662e-01
-6.482658576563789243e-02 -9.244505528288289586e-02 4.209775010681309770e-01
-2.846985483472372000e-02 -1.185503631017469917e-01 5.324643458816199493e-01
-5.668950125544804791e-02 -1.042121992806742115e-01 4.284981143297255102e-01
-1.378394026346449128e-02 -9.016039656717977913e-02 4.483879316107247659e-01
-3.878232766557688366e-02 -1.139222805928811477e-01 4.861326911404473816e-01
-2.170125400856873221e-02 -1.076867128165019671e-01 4.682812302111934444e-01
-1.647106620653977435e-02 -8.184985919511456043e-02 4.439934901637723197e-01
-1.704285979505064039e-02 -9.495217197126752662e-02 4.521410149921739063e-01
-7.891660457644296411e-02 -1.033115521460703096e-01 4.439811601321169143e-01
-3.010765032452517725e-02 -7.243195030073520946e-02 4.378037964502968227e-01
-9.240984889333335450e-02 -1.097059590525844980e-01 4.802791459087245030e-01
-2.485108876789452956e-02 -7.091370107647876342e-02 4.389423246585431593e-01
-7.267932158730315562e-02 -1.119792307887123306e-01 4.851074821778705859e-01
-3.586259141267277017e-02 -4.755929535091606153e-02 4.355371312167423126e-01
-5.058016021331999956e-02 -5.046085993358661453e-02 4.343377156625670144e-01
-7.519289974101508837e-03 -1.146384250769122981e-01 4.754664064762673115e-01
-4.254164267928498000e-02 -2.784996100864219060e-02 4.359849335758002598e-01
2.492509026144633724e-03 -1.026182819580942623e-01 4.606423983894358809e-01
-3.478936097710026015e-03 -1.258144733898278467e-01 5.249572638766084598e-01
-5.226030656338993136e-02 -5.665106065380698386e-02 4.323681423591270723e-01
-7.681194068177647771e-02 -1.099973195964865230e-01 5.170408907377962437e-01
-6.860625463988835604e-02 -9.364077095472460310e-02 4.205651060579367329e-01
-8.980435113216139742e-02 -9.189849274230353637e-02 4.471684487478977399e-01
-7.566135771825169276e-02 -9.387589578327235063e-02 4.259970939149178570e-01
5.985512680255644473e-03 -1.228906141084611381e-01 4.972750150431572425e-01
-3.979279287642523838e-02 -6.391817641908482950e-02 4.337574629665518766e-01
-6.221503433412468170e-02 -1.096691079666896051e-01 4.668858377030089546e-01
-5.799668858252736425e-02 -8.363746100684292528e-02 4.240380854020246448e-01
-9.721199969064969748e-02 -1.043657723281524036e-01 4.623346832495999204e-01
-4.363287046339224540e-02 -3.954448661636448398e-02 4.351559190817516076e-01
-4.355993601020329703e-02 -1.169205707478961492e-01 5.101793459807667519e-01
-6.281072063442798281e-02 -1.137687002795706032e-01 4.991919602871371375e-01
-9.245764439394636713e-02 -1.089204040519615585e-01 5.021115054788987120e-01
-2.628502623300411206e-02 -1.166634829528228473e-01 4.906969035746518437e-01
-6.984852415567530115e-02 -8.582172995473397181e-02 4.232289190499812781e-01
-9.397944445763865839e-02 -1.091049116650771866e-01 4.991205751906569454e-01
-3.892781165667291016e-02 -3.291235574282833781e-02 4.357029102222729211e-01
-2.134109148200096992e-02 -1.173038469550141683e-01 4.898593746080466826e-01
-4.462933495619934854e-02 -1.162713580651371648e-01 5.221837462559811849e-01
-3.492603341519451982e-02 -1.146486506102045583e-01 4.868075535682246380e-01
-6.856848439716367594e-02 -1.022096954172002498e-01 4.262609202451670964e-01
-9.614638435145007878e-02 -8.623734632488039287e-02 4.620082197861123396e-01
-4.900218451661321473e-02 -1.143109620266904991e-01 5.288906505806658664e-01
5.992093760413213718e-03 -1.227084644535480079e-01 4.967124392372486152e-01
-5.356494881197182423e-02 -1.153496039944272161e-01 5.131540552331781413e-01
-9.595822210407919939e-02 -1.057704782548707367e-01 5.099083806736767199e-01
9.109542101028484176e-03 -1.234509222567460179e-01 5.004230103198735735e-01
-4.362087902764746200e-02 -1.058366425624566037e-01 4.610249011675892628e-01
-9.638526786273880764e-02 -1.065596612236425211e-01 5.073418420598002632e-01
-7.018490858240317154e-02 -1.124224286176653959e-01 4.901751997391359805e-01
-4.346975633092987901e-02 -8.944016536807490592e-02 4.372858651463190083e-01
-4.762007945355882510e-02 -5.625074228881345173e-02 4.327362188079729166e-01
9.362309081141429595e-03 -1.221780136963688534e-01 4.963218836974427894e-01
2.316639180154674710e-04 -1.153509802771558318e-01 4.765828311322563571e-01
-5.215933506989811619e-02 -9.941602894044049288e-02 4.275251699455562271e-01
9.215397377841933260e-03 -1.267001450273575192e-01 5.211798891283410118e-01
-1.496027648192072360e-02 -1.113899974346203720e-01 4.722270118155643126e-01
1.445999330516200242e-03 -1.233649782147215324e-01 4.978596525601548528e-01
-1.387910038271451471e-02 -5.447674907492400243e-02 4.385257390520767573e-01
-1.657877262023291220e-02 -7.791881426512697884e-02 4.424169533549195399e-01
-4.978522567586576159e-02 -8.574968088615031458e-02 4.279156363176711553e-01
-7.623560429109059455e-02 -1.086788636303475802e-01 5.222711014768255389e-01
-2.243840872257394162e-02 -1.147025387007553493e-01 4.833675521499993244e-01
-1.056664025923389344e-01 -1.064095286654266892e-01 4.913013784200245260e-01
-5.407536843304656254e-02 -1.028937562408756556e-01 4.452586340718144853e-01
-6.085435031654268245e-02 -1.046441178060235067e-01 4.333196453476526600e-01
-8.930752252406053658e-04 -1.207540872325712361e-01 4.894566783236256602e-01
-6.088434016128348863e-02 -8.402099187161105043e-02 4.237599294224416169e-01
-3.486657008675965105e-03 -1.259450231838957768e-01 5.222071745906955442e-01
-1.127878062263278774e-02 -1.240526888327408012e-01 5.124894770244647901e-01
-1.009311026263850913e-01 -1.076740830663240334e-01 4.825453653836821455e-01
-3.557692233324333264e-02 -1.173998303949446154e-01 4.988158768157965883e-01
-3.766828527770209323e-02 -8.018305650658412442e-02 4.371331509731390397e-01
-4.070832114271567825e-02 -1.147508774418708327e-01 5.359456030758023015e-01
-1.984833854771866218e-02 -6.316026019540779690e-02 4.388210616908034267e-01
-3.938354934931319329e-02 -1.146793189218645315e-01 4.889087994317950492e-01
-4.006748374314324929e-02 -8.482411305416133473e-02 4.376230520548938796e-01
-1.023595184714069101e-01 -1.053474731328783720e-01 4.700184813473656242e-01
-3.472545948952072276e-02 -6.622869541080164679e-02 4.356041670670456334e-01
-8.548830284865123474e-02 -1.080833441719654953e-01 5.133618125337603422e-01
-4.549984685029319353e-02 -8.893047031740525243e-02 4.334646673117703575e-01
-8.965920916354178094e-02 -8.741943403372692822e-02 4.495347596283781333e-01
-2.322974867413570357e-02 -8.858918171884477832e-02 4.463816699694223566e-01
-9.921364204577173829e-02 -1.077519403501635276e-01 4.772739563443297861e-01
-1.080956789154334796e-01 -1.025769692247498893e-01 4.777734366373486696e-01
-1.530337718576127090e-02 -1.200041094707288841e-01 5.429625628126655279e-01
-6.411369394293529866e-02 -1.137357080042903090e-01 5.025670054448733159e-01
-6.408182841163628796e-02 -1.118271078674835939e-01 4.774961737543215179e-01
-6.312461321086632049e-02 -1.118602395977674885e-01 5.247629585727237034e-01
-1.714588828589850428e-02 -1.189037417171867617e-01 4.908321924666033120e-01
-1.097450472036134300e-02 -1.222123030244442882e-01 5.382116464979088688e-01
-1.883067095008475467e-02 -1.222111773114352151e-01 5.121218554655170285e-01
-8.757660349390619658e-02 -9.340287416964339340e-02 4.436110041898964629e-01
6.160002480521964592e-03 -1.264372377659027380e-01 5.137948420094173851e-01
-7.109927892842780872e-02 -1.096668622564243162e-01 4.674096058724881986e-01
-1.292482583065769283e-02 -7.196541348972995689e-02 4.413371716011755264e-01
-2.813445330380722267e-02 -1.111792959046431356e-01 4.759817609719739218e-01
-1.003780821479959146e-01 -1.072438808114172665e-01 4.764988743247479674e-01
-1.078450282593495721e-02 -1.243403563939024931e-01 5.191684438099745114e-01
-7.064635949706485341e-02 -1.072133536175506746e-01 4.564674118432842098e-01
-8.311402019383121176e-02 -9.165311986431254332e-02 4.373183169331452125e-01
-7.445867106652785672e-02 -1.050353182772020971e-01 4.466482699444554449e-01
-7.335587947686091070e-02 -1.056488766779889732e-01 4.498701105551709545e-01
-6.806385372486251778e-03 -7.936478740003065357e-02 4.447243972324093075e-01
-1.654237009135707537e-02 -1.146566020369781808e-01 4.799805520000912651e-01
-4.834106768707504415e-02 -6.221491960485102390e-02 4.305000501176912686e-01
7.795970653280055208e-03 -1.254789526490389939e-01 5.087832803088176981e-01
-4.710740652422747837e-02 -1.163383994003268640e-01 5.122896159952188277e-01
-5.279163574626688504e-02 -1.002616439759812517e-01 4.271843812261693629e-01
-8.957878980174693861e-02 -1.092704860518777937e-01 5.033771605677206384e-01
-4.966126251011534348e-02 -1.112150311443097783e-01 4.745359739282168365e-01
-8.390146845718986224e-02 -1.058861485283086046e-01 4.557391953335979684e-01
-6.946946389194227911e-02 -9.641629794334462267e-02 4.215005169840016497e-01
-6.053132832363185278e-02 -1.000418126918719564e-01 4.231421067460552909e-01
-3.287764042412569254e-02 -1.051402715960093187e-01 4.646017612610739977e-01
-6.960511027984088092e-03 -1.251069786696503983e-01 5.239160153265796094e-01
-5.189183236630735829e-02 -1.114776767858846190e-01 4.751695879768617625e-01
-1.249492742640057920e-02 -1.222072946527762716e-01 4.996959024139051020e-01
-4.647570177526587354e-02 -1.130109427884485873e-01 4.837801416309013836e-01
-8.922215131679324396e-02 -1.086438655905087591e-01 5.064991482078928797e-01
4.124002727580710834e-03 -1.130673905503861709e-01 4.732924269271638340e-01
-9.485281499276390638e-02 -1.093486544849607695e-01 4.920671143209728871e-01
-3.478886103892189774e-02 -8.108493476365398467e-02 4.393494496671001004e-01
-1.476887877685725999e-02 -6.974004919109526301e-02 4.406509644910278634e-01
-4.399820801217624311e-02 -8.284204038569520367e-02 4.326605871117794599e-01
-5.782336966280562235e-02 -9.056958374002586909e-02 4.224416453748880418e-01
-8.560166968053813108e-02 -1.040205733861907234e-01 4.514781873500757770e-01
-5.745666024188395699e-02 -1.056559828888655739e-01 4.503381799936760355e-01
-2.648401125946445514e-02 -3.944526582143674520e-02 4.384857759762539331e-01
-4.926927544085706392e-04 -1.248167522836791388e-01 5.042485102894131987e-01
-9.598689589624744001e-02 -1.069294638515081719e-01 4.683541011248135710e-01
-3.868748574929138651e-02 -1.157098105993946552e-01 5.350683301576645290e-01
8.068315021903384870e-03 -1.241750226426436149e-01 5.025614577539538885e-01
-1.466216802292718072e-02 -1.228450521629427666e-01 5.075064949395501346e-01
-2.826131183035354710e-02 -1.112247556376889657e-01 4.760889153524708317e-01
-4.615471937089453414e-02 -1.127449282801330499e-01 4.826116619265752861e-01
-9.083926353192152414e-02 -1.097230855354358880e-01 4.763957147885574117e-01
-2.938759876037844165e-02 -9.895704078349350230e-02 4.560709417987550141e-01
-5.587063342045434089e-02 -4.787044622241273806e-02 4.389465912107278212e-01
-5.843567380901337413e-03 -1.050083126199146816e-01 4.621190832362386258e-01
-4.281939301195879233e-02 -8.449028663608164347e-02 4.351280695696492784e-01
-5.169769838293992309e-02 -6.408391588623119084e-02 4.295650849596370224e-01
-2.327039143220861750e-02 -1.146250772066461227e-01 4.834205061338185949e-01
-3.489480959051428216e-02 -8.304846398467734259e-02 4.401588731746616800e-01
-2.496927682200773477e-02 -1.192646448999633013e-01 4.994629841485199173e-01
-4.349878413293269130e-02 -5.032711554053414388e-02 4.342838599632000141e-01
-7.303544993754940151e-02 -1.091836026158226197e-01 5.241045833162418788e-01
-4.634069828889119530e-02 -3.610370811886645659e-02 4.356359253159740041e-01
-3.094602759983750527e-03 -1.181048077812697078e-01 4.818907106801665896e-01
-1.183665258457234975e-03 -1.253464584236638757e-01 5.075025776969003255e-01
-6.704372044231128591e-02 -8.881150221697033109e-02 4.208111937379562795e-01
-8.110976242681196269e-02 -9.974663728271331020e-02 4.382517063416223047e-01
-2.440560906064959817e-02 -1.205562276097946334e-01 5.215374794496168143e-01
-8.797355527381381379e-02 -1.105778959742490380e-01 4.849199404817312042e-01
-4.706822718459426069e-02 -1.160309668276129774e-01 4.999766283995958904e-01
-4.659971130246364640e-02 -1.162881630704400426e-01 5.056113209396083663e-01
-3.855956425006888677e-02 -1.172698821308206379e-01 5.244754936767719311e-01
-2.341712495428137017e-02 -9.872977637284104102e-02 4.569298847285157561e-01
-5.439802878834062994e-02 -1.122376062714325190e-01 4.797338284398673935e-01
-4.797746346835591452e-02 -9.566436312696077748e-02 4.370259249012969360e-01
-7.167550036394432222e-02 -1.108045612583834355e-01 5.197754872611101140e-01
-5.833363211974883916e-02 -1.132380729179596202e-01 4.866552546668889145e-01
-7.256252098986849808e-02 -1.126724668166452364e-01 5.023642854624800203e-01
-5.236747451868634801e-02 -1.003152207035379467e-01 4.312190761276389339e-01
-7.046148137397129085e-02 -9.164365125671779244e-02 4.202443453659033268e-01
-7.213215486245506958e-02 -9.920048410660982363e-02 4.261532507074832776e-01
-2.029431480307645683e-02 -1.128236438396350155e-01 4.779708836524473314e-01
-6.542605934460417327e-02 -7.708729975492918662e-02 4.280139448039888550e-01
-1.677423326749434215e-02 -1.219781177737270655e-01 5.051912560516949036e-01
-1.965266656884235436e-02 -6.616603701990839137e-02 4.392630356871812802e-01
-8.295267692906396761e-02 -1.108377524296751820e-01 4.781822573923291686e-01
8.564442061542726012e-03 -1.264136318848755880e-01 5.320105588436142563e-01
-7.374393657060472618e-02 -1.041641449110843748e-01 4.414343954948835580e-01
-1.918272787033088733e-02 -9.506614813688187005e-02 4.524986717553841631e-01
-1.189767909401817127e-02 -1.159873839100237364e-01 4.798423693095829612e-01
-9.021982034145724361e-02 -1.057383124210169723e-01 4.594035002135902768e-01
-7.917767799419647701e-03 -6.006448735210104251e-02 4.387957001376069921e-01
-3.703439667515219524e-03 -1.259365543020656564e-01 5.165346473711113218e-01
1.091579845178218718e-02 -1.260559959127974250e-01 5.353672011982939516e-01
-5.884952210438642445e-02 -1.041333381674353353e-01 4.364027888132866462e-01
-4.231639897174527959e-02 -9.468862196149666066e-02 4.447592379267352181e-01
-1.107753683968503433e-01 -1.004070915931293551e-01 4.837756483978594702e-01
-5.209962552503286104e-02 -1.031472914575269351e-01 4.486811837818029391e-01
-2.953033999790099368e-02 -1.168716639385265349e-01 4.928363039441924776e-01
-5.422627992371774341e-02 -1.034535106119995884e-01 4.329035506497707075e-01
-9.667405943399265400e-03 -1.126140869177661152e-01 4.723406942916991147e-01
-5.350236222808850417e-02 -1.149098102623695022e-01 5.194385109499010111e-01
-7.637352777820166638e-02 -8.906812257133582544e-02 4.275360848823822058e-01
-1.073334266029487560e-01 -1.020114564287423614e-01 4.736100882525554057e-01
-1.710806319923369873e-02 -1.201758592021906352e-01 4.952703800164878767e-01
-2.776912852462566639e-02 -1.092972090045698785e-01 4.723666084415919508e-01
-4.122169886157793506e-02 -1.171504136837666493e-01 5.060258358912609333e-01
-2.067925052008870793e-02 -1.065428879359637260e-01 4.660717907866547827e-01
4.185045571729917833e-03 -1.087573644638331477e-01 4.673485102651788736e-01
-4.736493575434967684e-02 -8.645939318283438202e-02 4.297451334056570649e-01
-1.035861773099540223e-01 -1.060401060621920660e-01 4.779718166708036287e-01
-6.528924896925089594e-02 -1.048627859542466817e-01 4.364846293806547428e-01
-8.572711673122197784e-02 -1.102657832886705380e-01 4.749713278110099801e-01
-2.951753965515240344e-02 -1.174512402108861819e-01 5.376664986322362561e-01
-3.514670973339090176e-02 -9.078733540241419597e-02 4.453145732843094007e-01
-4.022604219801374087e-02 -1.084550905703107054e-01 4.677552406851429034e-01
8.279919124030036409e-03 -1.267627908785802504e-01 5.276153972349303389e-01
-6.787960114524850541e-02 -8.801493875662175226e-02 4.209675157096676723e-01
-2.647401014395448990e-02 -9.938555995207333515e-02 4.575741982647348882e-01
-1.007131547020342494e-01 -1.052894277088588099e-01 4.674759165049460208e-01
-1.642160592076404718e-02 -1.018515674227910006e-01 4.592342564569342755e-01
9.646038115467226934e-04 -1.250177868035550199e-01 5.352905759856511070e-01
-9.783925970437670760e-02 -1.029947951724951155e-01 4.602200275632749027e-01
-4.564560833960758929e-02 -8.694262264208749147e-02 4.320752506490534994e-01
-4.925658783058300266e-02 -1.022304100540077781e-01 4.488906366904291123e-01
-4.171365937053123085e-02 -3.411616420955090184e-02 4.352743282687387416e-01
-1.387560815894938078e-02 -1.203145057633375620e-01 4.925011878609684701e-01
-5.456732818335268548e-02 -3.840525967935741469e-02 4.426931154283484382e-01
1.529599376306156350e-03 -1.054971170214943216e-01 4.634302207377515859e-01
-3.969356958660318069e-03 -9.098316022008580417e-02 4.505743899714463319e-01
-7.905957598806137576e-02 -1.112829898296099074e-01 5.046986862657100170e-01
2.887894454240214244e-03 -1.233857031952738520e-01 4.978689561690663457e-01
-4.417319336578100913e-02 -6.419865640994101841e-02 4.317324134994011686e-01
-1.250640682644269322e-02 -1.210885105379151394e-01 4.945136832247700176e-01
-1.066820310989968421e-02 -1.214297625072464915e-01 4.942373467572671597e-01
1.121970533860636166e-03 -1.207255651501954324e-01 4.895352934372708686e-01
-7.211226548505221545e-02 -1.015245263325467717e-01 4.285863531084149747e-01
-4.513879270510737229e-02 -9.006509726337522115e-02 4.346402742388450480e-01
-5.386129101454660562e-02 -1.025921525192337869e-01 4.320723484505677447e-01
-7.365512387100114911e-02 -8.995723544894250467e-02 4.232577247007779375e-01
-3.940275487200026877e-02 -8.591939299227234483e-02 4.388694306369154141e-01
-3.363115925646153331e-02 -8.281621888106034668e-02 4.405340988493081089e-01
-7.795198430910246779e-02 -1.103390070514343180e-01 4.722446797289819864e-01
-5.786753958480523458e-02 -1.130657100757206796e-01 4.853762046326789981e-01
-7.294873629588205510e-02 -1.099037954175314524e-01 4.690678724628618568e-01
-2.932558849315696804e-03 -1.260652077026639950e-01 5.222584447247530237e-01
-8.358765457273392707e-02 -1.112377072026989877e-01 4.906196200702152566e-01
-1.085590595643856626e-01 -1.043973648581133229e-01 4.956923909935898598e-01
-5.899768060743125486e-02 -1.145181109634817868e-01 5.057648459096230065e-01
1.793883404396816620e-03 -1.269014166241975716e-01 5.206404344110067139e-01
-4.325746742339305756e-02 -3.849907622570661325e-02 4.351625595625316367e-01
5.024761434924546882e-03 -1.269188031739637568e-01 5.243787460602788997e-01
-8.297612314603061701e-02 -1.097071718036959770e-01 5.091673644594426618e-01
-5.301808955476806917e-02 -6.498822258915065708e-02 4.291343480794178045e-01
-7.292212900815123189e-02 -1.123671016007747464e-01 5.069419515858408776e-01
-5.008681972373819208e-02 -7.971285086145676879e-02 4.275722848071267790e-01
