-6.226968547306140078e-02 -7.231495331583134845e-02 4.269923949599576107e-01
-2.412298580769869222e-02 -1.193480914564588186e-01 5.346181914815744118e-01
-2.460578645200596493e-02 -9.189644884362312138e-02 4.492413793233737684e-01
-5.384170801323991118e-02 -1.014994278639756164e-01 4.372611684207755034e-01
-4.276756581553645825e-02 -8.733758375397791818e-02 4.369142607590048577e-01
-7.970790813375883133e-02 -1.023181369060806034e-01 4.425282848671016622e-01
-1.909503813907714731e-02 -5.739251448661505245e-02 4.381528455251694765e-01
1.272633940108718748e-02 -1.265830424754493810e-01 5.304529098229486817e-01
-1.010801118742786775e-01 -9.064141466467547092e-02 4.630868759506978627e-01
-4.732633897522321720e-02 -3.140766557505730860e-02 4.360293606446544179e-01
-8.190694006387860826e-02 -1.058733362481117379e-01 4.554812223291453965e-01
-6.038370566791108340e-02 -9.036187323822793271e-02 4.214887426462248232e-01
3.673130676607380511e-03 -1.268058711572155328e-01 5.176211910594601395e-01
-9.488460544236642508e-03 -1.240588894423502730e-01 5.301704076847906233e-01
-7.063483163054412595e-02 -1.113255046441444657e-01 5.181903399980912761e-01
-1.052355982714484606e-01 -1.062713184250429488e-01 4.917362622520259907e-01
-3.592686927622224663e-02 -1.181722072006880786e-01 5.187019106645297528e-01
-9.911504998276035594e-02 -1.045985473623886469e-01 5.085987214779149612e-01
-5.485844025845247607e-02 -1.065979418687074270e-01 4.577780018600106082e-01
-1.838684049187281136e-02 -5.420028807783335012e-02 4.382587600761785329e-01
-7.124543419927426013e-02 -1.105671181583014334e-01 5.202132388048780198e-01
7.519809138049371976e-03 -1.261361754304962113e-01 5.126310109880061194e-01
-9.379564892578350077e-02 -1.072901865656287063e-01 4.682780449898688580e-01
-4.636412731492941391e-02 -1.161467327981621639e-01 5.040425518233588864e-01
-4.417278544701052495e-02 -8.562572300139481563e-02 4.337418359226080100e-01
-3.378065364510419305e-02 -4.543677079681582298e-02 4.361441697261720929e-01
-5.589491915917230158e-02 -1.146269068394694390e-01 5.165782524644886298e-01
-7.848493998445760234e-02 -9.295001466966823500e-02 4.287683214685758526e-01
-4.435600847024858545e-02 -3.741362538469313048e-02 4.350738761244535846e-01
-5.383523460947523681e-02 -2.975049496957558534e-02 4.436866494133919758e-01
-8.926985744705401293e-02 -1.099727735727676070e-01 4.807770670679702429e-01
-3.893668436865439092e-02 -1.134981599133054742e-01 4.850028558440524495e-01
-7.359302336977988079e-02 -1.111546892383793173e-01 5.144129160830895886e-01
-2.794496975166857466e-03 -9.973173146589275895e-02 4.574381863246702595e-01
-7.808363530744792669e-02 -9.661802490750547034e-02 4.300968024711561699e-01
7.511173595525503371e-03 -1.264569908476698701e-01 5.308593306456779182e-01
-1.104908120992443288e-01 -1.007799018859856510e-01 4.829840160799834803e-01
-2.021921869073284132e-03 -1.261625857419533259e-01 5.156164105696847688e-01
-7.664435838853113359e-02 -1.113698263272665107e-01 4.829735960507699488e-01
-3.864634801293601735e-02 -1.107427281341607506e-01 4.759726104898065469e-01
-1.242485776031898234e-02 -1.239079242971394684e-01 5.194086211709103562e-01
-4.706173522588801700e-02 -9.507444224231040297e-02 4.395856719316833527e-01
-7.137278616057129293e-04 -1.240057315228806495e-01 5.003045753260075834e-01
-1.117689161189992092e-01 -9.913435627064977329e-02 4.851750526025130350e-01
-5.428792072444484779e-02 -1.044990970895040144e-01 4.505381070808188171e-01
-1.516725520091871497e-02 -1.190792700779371577e-01 4.890729823064741133e-01
-4.384192348517959581e-02 -1.017274382744089017e-01 4.529223147774568137e-01
-1.372339560181276563e-03 -8.279399695850130081e-02 4.468101639597396590e-01
3.275247344287778636e-03 -1.188927205078520316e-01 4.847710071214023642e-01
-1.713004368928619167e-02 -1.149932309778535777e-01 4.810216313206502337e-01
-4.813972382108115677e-02 -1.088596688942437413e-01 4.658832530325642818e-01
-6.048926698937071716e-02 -1.044395330822074086e-01 4.434709428886489113e-01
-4.451365973176979463e-02 -6.321232080436182954e-02 4.314174637576491111e-01
-3.870495400375441319e-02 -1.176815311391890412e-01 5.160490997235701593e-01
-3.728370662317433137e-02 -1.160378011688461691e-01 4.933261697902573961e-01
-1.072077998004003635e-01 -9.738856029467886366e-02 4.682633315696043130e-01
-2.285931135469723013e-02 -1.201598380734959087e-01 5.019843934647445494e-01
-8.299313257617899064e-02 -1.108655372981077469e-01 4.814055411224869019e-01
-4.593242924574836988e-02 -1.018252636520605575e-01 4.515488835875727247e-01
-1.037301795282046524e-01 -1.061542186191553605e-01 4.974541529768318204e-01
-5.890119626963585819e-02 -9.448019071588831252e-02 4.224432131163481374e-01
-7.322552565274016712e-02 -1.122810453042531742e-01 4.984960391342785346e-01
-4.533827018397823538e-02 -9.143544254431619500e-02 4.362993851409623924e-01
-6.465234840233936853e-02 -1.057281427848515420e-01 4.491875880758843254e-01
-5.672405200445079961e-03 -1.248978621266944589e-01 5.077987293526791124e-01
-2.030631652268649265e-02 -1.209566468000041473e-01 5.289849210565610305e-01
-4.304332202360786758e-02 -1.125218463209337050e-01 4.824053250066926424e-01
-9.094051116758980480e-02 -1.065409502462036084e-01 5.113745458457839010e-01
-9.496450822196171593e-02 -9.723385128523424903e-02 4.523226681237057512e-01
-9.938738188972486010e-02 -9.956613838897745983e-02 4.593453554163641206e-01
2.145207797992105658e-03 -1.217007514633556692e-01 4.926330133162654668e-01
-7.083922771562132202e-03 -1.233129854572825174e-01 4.996282994438381864e-01
-2.155558565688701911e-02 -9.874096512142659099e-02 4.567850037464231683e-01
-5.219992388581632531e-02 -8.196964298609379918e-02 4.255597776570090307e-01
-8.046200516672405434e-02 -9.576748669565549044e-02 4.334564654864097588e-01
-4.357002063306975731e-02 -7.945497368277011641e-02 4.323450521327363294e-01
-8.554429708495686277e-03 -1.065483499279177015e-01 4.633256240940952786e-01
-1.060677771135702385e-01 -1.013835374321739313e-01 4.687796645003443619e-01
-6.107206069826052325e-02 -1.124230155678287713e-01 5.241990482896440318e-01
-3.133827828407775851e-02 -3.967071106184245216e-02 4.371947901338985587e-01
-5.224825952212974051e-02 -4.777566296717274119e-02 4.350245858748680861e-01
-6.793442897748002904e-03 -1.197094854330285341e-01 4.871801217429796438e-01
-4.848447056429830079e-03 -1.243963940061342949e-01 5.042654627877362072e-01
-3.024756858524580913e-02 -5.111013481575951700e-02 4.370198850599597562e-01
-9.981251419700691574e-02 -1.058793050969011329e-01 4.692549040858877696e-01
-4.661777270483715568e-02 -1.048430072803642199e-01 4.570303205284538817e-01
-3.504367225365912636e-02 -1.045324526862684150e-01 4.630666719008464383e-01
-4.091628356088891638e-02 -1.162363306029380317e-01 4.966426858528601440e-01
-6.055285900599027132e-02 -1.063252508377797306e-01 4.527321953104663788e-01
-5.416351294003102917e-02 -3.789820934137685948e-02 4.414661487812540641e-01
-3.783085709375064859e-02 -3.864431001109103203e-02 4.351637665521616571e-01
-6.105194676813988086e-02 -6.603871139472454466e-02 4.302795825588655032e-01
-7.342349497196631880e-02 -9.779455034392313395e-02 4.256446796919775011e-01
-9.027543782208204137e-02 -1.042102675727480526e-01 5.175746868139645684e-01
-9.823720060208551708e-02 -1.062413980141591191e-01 5.050681673640501357e-01
-3.528964820042272688e-02 -9.341686362893922291e-02 4.475211760807284445e-01
-2.204881506987748166e-02 -1.180693862719788406e-01 5.433333765679237981e-01
-4.993998420016196316e-02 -1.156405311590013862e-01 5.058850117696387372e-01
-5.559540655214525832e-03 -8.900859444076952842e-02 4.491131618166019357e-01
-2.101244616802032047e-02 -6.950794151639611007e-02 4.394392480910983556e-01
-6.647810013741436985e-02 -1.132700126327846890e-01 5.054882883164437679e-01
-5.607504803087639406e-02 -1.095502764559680431e-01 4.669504648546977665e-01
-3.920103147391374582e-02 -1.161026812806904979e-01 5.313629489132065675e-01
-5.627302833417177630e-02 -1.033777010831168908e-01 4.442618680447814050e-01
-5.228092448362044176e-02 -1.002551427017955576e-01 4.421788916407300984e-01
-1.037954893427843889e-01 -1.013587355453737238e-01 4.640317114488597960e-01
-1.314566030621549392e-02 -1.074786795639448705e-01 4.647878036433785720e-01
-3.416193559907190064e-02 -1.121019686263253629e-01 4.788017549949315499e-01
-1.493958166553551251e-02 -1.208485007346211115e-01 4.958640922315480926e-01
-1.126131686229228830e-02 -7.156720224476674497e-02 4.413210836083077959e-01
-1.119474095997747415e-01 -9.868618969836069621e-02 4.824055437823277503e-01
-1.079586294970329499e-02 -1.239634025754876995e-01 5.259021558351485437e-01
1.841538635895519169e-03 -1.187325883264118281e-01 4.841529497230634416e-01
-2.749892049407507560e-02 -1.184442715065909674e-01 4.979013265637105001e-01
-4.735295143144831881e-02 -1.112316306550038408e-01 4.763075831585051323e-01
-2.683646317595042921e-02 -5.265935150193640918e-02 4.375657798122306041e-01
-5.951554956550064723e-02 -1.036006170742644894e-01 4.397101277071838177e-01
-2.240073225377565286e-02 -1.122392803549366186e-01 4.775274868024955710e-01
-1.796663637673937691e-02 -1.224952145236139350e-01 5.178084993014313575e-01
-7.436355235448362244e-02 -1.019456102817896392e-01 4.339860351425794405e-01
-4.874638283589342869e-02 -1.152874366459859801e-01 5.231995566355795990e-01
-8.937418403522109922e-02 -1.101252132306261428e-01 4.869850415418515155e-01
-4.676667068973012348e-02 -6.925190864955312053e-02 4.296629220356276146e-01
7.660629572481257241e-03 -1.259252383682573362e-01 5.112495123528605356e-01
-6.909980849050245677e-02 -1.049676060896196084e-01 4.457243277833767836e-01
-1.856421437445677364e-03 -1.262634677659645321e-01 5.243742631246498531e-01
-1.217805531631173735e-02 -9.232937612512917558e-02 4.497759293935995606e-01
-6.278314407984324219e-02 -1.138317044402536865e-01 5.101085775961994306e-01
-5.695962788630924700e-02 -1.112707958309301082e-01 5.316408653799107320e-01
-9.226192806620784953e-04 -1.264112026140715994e-01 5.246260662177353318e-01
-3.155483993700752138e-02 -9.601482847354640693e-02 4.515185804624810006e-01
-8.735211214343945041e-02 -1.054468373123826214e-01 5.174747634083739500e-01
-3.065052432719632750e-02 -9.303592508426399010e-02 4.487963946636358559e-01
-4.614628555171532143e-02 -7.069218645549486812e-02 4.300908491698477443e-01
-4.687365391957459826e-02 -1.072442056688385353e-01 4.626704278200443055e-01
-4.277117478320743155e-02 -1.165953803207229328e-01 5.015054047246392255e-01
-1.079357512942736019e-01 -1.049858963269087869e-01 4.902129021514967655e-01
-1.559246562446491013e-02 -1.224381113172393759e-01 5.283511020892245336e-01
-3.309128612312901840e-02 -9.563475139160662608e-02 4.504504238608268984e-01
-6.234562098660565571e-02 -1.059231989861274814e-01 4.497528224211314596e-01
-1.956031309584652794e-02 -1.171389390932295743e-01 4.881418609400860475e-01
-1.410069067309906686e-02 -1.224557193870572658e-01 5.323072254468982356e-01
-1.433913890318689113e-02 -1.231856147605921159e-01 5.103207406834993076e-01
-4.565223480031047748e-02 -8.692770892255240189e-02 4.320749038028527944e-01
-1.862059840158104829e-02 -1.189057332520854354e-01 4.922117790624492284e-01
-5.255050755450502847e-02 -1.062563088357426216e-01 4.579100339570172373e-01
-4.239524592276715936e-02 -1.166980466632928787e-01 5.026255480697745526e-01
7.227263047132032915e-03 -1.267683087665747999e-01 5.178410965649408171e-01
-2.963385060292026210e-02 -9.360175788482805181e-02 4.497829740704369361e-01
-2.140013097117847429e-02 -1.175164720008715219e-01 4.905020769381848167e-01
-2.517047383386013248e-02 -1.002407280725525346e-01 4.586182379248555097e-01
-5.307102761377749389e-02 -1.004544265321062474e-01 4.300955251736378049e-01
-1.765898425495558352e-02 -1.042821760263140107e-01 4.620273410269356562e-01
-6.899563614848652771e-02 -1.028005814450152350e-01 4.320785378743208782e-01
-8.496909700556390388e-02 -1.035698361000435691e-01 4.502414443986654247e-01
-1.592691234636155195e-02 -1.229686039161354549e-01 5.121258497044220981e-01
3.914070588940838334e-03 -1.262736772262403329e-01 5.116291748926263816e-01
-6.109222919872307062e-02 -8.901851219289079464e-02 4.215478540255407913e-01
-2.577647244840877011e-02 -7.281255805842035134e-02 4.388843973362374085e-01
-2.141141137603434080e-02 -4.469866512903397648e-02 4.388223942679277956e-01
-4.350464243871691311e-02 -5.616755621590972108e-02 4.330887362595621237e-01
-4.465065625695036067e-02 -1.024697099045207005e-01 4.537068621361349807e-01
-3.954243887679876474e-02 -1.063368851433258711e-01 4.642456449656223727e-01
-1.083666887023252701e-01 -1.047065292582478047e-01 4.940523935156284629e-01
-3.522611373456336313e-03 -1.244586777230056729e-01 5.336914730276473007e-01
-4.970256859526911430e-02 -1.147291307204713062e-01 4.930035794520968850e-01
-1.011952261276674453e-01 -1.067080342222204992e-01 4.766106024556095999e-01
-1.732345002483513113e-02 -9.676415099408326725e-02 4.540430826768917516e-01
-1.019598318647670643e-01 -1.040155970689547182e-01 4.650816765587229007e-01
-1.544286033503779881e-02 -9.085555397427927393e-02 4.485034139670820985e-01
-9.480880809998330772e-02 -1.089250976947527538e-01 4.960565167153990762e-01
-1.394388452625675359e-02 -1.208555194091271018e-01 5.408275605308618950e-01
-6.018621860004572804e-02 -1.141731489896225943e-01 5.050199334440215182e-01
-7.864337641871396722e-02 -9.507050582855912368e-02 4.287461512886513448e-01
-7.060828506232244561e-02 -1.025944671475521597e-01 4.329377049785719800e-01
-9.535091764416801785e-02 -1.088168369112379463e-01 4.808155865713096833e-01
-8.342200965864132733e-02 -1.076752972434311395e-01 5.157438433749389484e-01
-4.974931588717002723e-02 -6.081656985715205160e-02 4.305629485307169713e-01
-5.942524316635921372e-02 -1.136637452751634858e-01 4.933555247182547232e-01
-4.842144203549464399e-02 -1.103799783629194203e-01 4.721022101833223239e-01
-6.628981045095053148e-02 -1.105710626976581235e-01 5.255269489390471671e-01
-7.206037474618290362e-02 -1.066789164523911509e-01 4.553559363979358676e-01
-4.259590037713695265e-02 -9.848091754735130432e-02 4.484699357084159232e-01
-9.750446063862634738e-02 -1.069734084708586913e-01 4.709357487696936850e-01
-3.687213037828031975e-02 -5.917684505357782149e-02 4.348467719792090125e-01
-5.116204167971426936e-02 -3.130796069722597413e-02 4.380343004720667066e-01
-3.135177569242354051e-02 -8.388532421072943113e-02 4.418510189945192290e-01
-3.234758212937030586e-02 -9.517341501553815142e-02 4.502692419006354418e-01
-3.632219308989984713e-02 -1.181890919742723811e-01 5.109330811060197597e-01
-5.062687865313677399e-02 -1.133997655361658335e-01 5.304598157368783928e-01
-3.092456324772239855e-03 -9.211437728387025792e-02 4.512749837730634095e-01
-1.202999571842172655e-02 -1.223379073379794180e-01 4.996500845352198628e-01
-1.331808069645945558e-02 -5.457569871361456909e-02 4.383802533020766945e-01
-1.224145228801031340e-02 -1.200228571542106687e-01 4.902968852780991704e-01
-6.535408878608675587e-02 -7.457742711460504936e-02 4.286235329281219419e-01
-7.588297342927521894e-02 -1.090163727915357955e-01 4.659362335047427806e-01
-1.111492291515963071e-01 -9.982894032965849984e-02 4.828884991036052066e-01
-5.192850548978304726e-02 -1.062057910583172476e-01 4.579919706030540216e-01
8.767559380898130167e-03 -1.266473243750929900e-01 5.230709459434665920e-01
-1.883211066829182032e-02 -1.018694307289987888e-01 4.597945312014117825e-01
8.063989964265091959e-03 -1.265869720507835638e-01 5.164000830807959908e-01
-1.009172368091412197e-01 -9.144974331685826185e-02 4.619596767832269135e-01
-2.753930192549066888e-02 -9.689791105121531301e-02 4.541175963326654630e-01
-1.917392893255061639e-02 -9.395230711177597616e-02 4.512003667287416975e-01
6.640906401275379484e-03 -1.223726407117875503e-01 4.959473474275896687e-01
-4.894972886613405821e-02 -4.184508346310409493e-02 4.353233733544764616e-01
-5.803968793981820889e-02 -1.129986560134566137e-01 4.860730721224660877e-01
-8.169519348714998630e-02 -9.353181220987857869e-02 4.340414123066886343e-01
-5.618103560041227962e-02 -9.836395602215962375e-02 4.222229675999077947e-01
-6.000414524600065913e-02 -1.123966836814489639e-01 5.255560078737838703e-01
-6.701071498948146798e-02 -1.030471156246559605e-01 4.300175373407298385e-01
-3.597850208105475567e-02 -9.629290398367935933e-02 4.500063999767927592e-01
-2.033875417231595373e-02 -1.217098258698981889e-01 5.111869926713867862e-01
-9.280778146228571557e-02 -9.728018254260102637e-02 4.502929746524754751e-01
-4.801180119480052272e-02 -8.227912546955787332e-02 4.287878092448677569e-01
8.124871340120574589e-03 -1.249951955452195812e-01 5.064930868086710003e-01
-1.026533660428465417e-01 -9.437133013789154867e-02 4.623539729132850051e-01
-5.267080766852590828e-02 -9.912118307796310979e-02 4.259335863043614556e-01
-8.531071175247090244e-02 -1.063945594650472642e-01 5.172406379549522315e-01
-2.548075066028672800e-02 -7.031599412831072982e-02 4.384776479789389003e-01
-9.381149611464179028e-02 -1.055181137340656106e-01 5.115498464763238440e-01
-6.453976601055291806e-02 -9.476983344468820070e-02 4.207800217351945760e-01
-2.446580188840568465e-02 -1.080211212708501040e-01 4.695767108864199457e-01
-2.778607883876276288e-02 -1.141023370195727860e-01 4.828002005298497323e-01
6.732900194897134451e-04 -1.037140672132636637e-01 4.613667163816538297e-01
-3.237918907598451995e-02 -1.189681608331268209e-01 5.124964469866734040e-01
-6.635853188447889128e-02 -1.124728169596067029e-01 5.180087925248776370e-01
-6.394083243606103230e-03 -1.240217550576898781e-01 5.328543285515954242e-01
-4.774672994430954193e-02 -1.160955052110090729e-01 5.092924845886135365e-01
-5.762164012174205568e-02 -9.084851779096443647e-02 4.220074479945848389e-01
-6.282528087193620103e-02 -1.108827639881467958e-01 4.729889109725197160e-01
-8.146923039750970930e-02 -1.112354185201042123e-01 4.856547568218579913e-01
-4.171568433459080238e-02 -2.873064050427491176e-02 4.356970185970115428e-01
-2.461913692049808033e-02 -1.200907122149957595e-01 5.259500532238230441e-01
-2.955881571512582531e-02 -9.790666144462371878e-02 4.545518740164048443e-01
-5.058377177966734417e-02 -8.352497113998040568e-02 4.268763681928828824e-01
1.332083313862520140e-03 -1.247367940872004116e-01 5.026602009987628517e-01
-6.553664304551870545e-02 -7.196134005285700908e-02 4.296607893719154303e-01
-6.226181075946423532e-03 -7.971713752590239843e-02 4.448351134352568903e-01
1.351436244134681351e-02 -1.259952336763546232e-01 5.350748458894122317e-01
-2.667618456660325599e-02 -1.188451757888163152e-01 5.333690587754899015e-01
-6.402210581896866648e-02 -1.071846795467811947e-01 4.567537720098487908e-01
-6.080579584868216203e-02 -1.141321123008124383e-01 5.100430900981350879e-01
-8.423195621219829732e-02 -1.040547939391788246e-01 4.512028227934818392e-01
-1.779760124543327757e-02 -8.531865159874979510e-02 4.453554172678872991e-01
-5.470146053361851085e-02 -4.342276614298994086e-02 4.397075087259749715e-01
-1.263671054486358199e-02 -1.063956482596575270e-01 4.634756328751146182e-01
-3.740031693423356840e-02 -1.170300133646405838e-01 5.278095265302779060e-01
-5.923292341794859917e-02 -6.257554952639450552e-02 4.319985904950331412e-01
-9.568479928902677567e-02 -9.250035032932275858e-02 4.537786841397326021e-01
-5.237679137771867124e-03 -7.684478332763353126e-02 4.439371511111048774e-01
-4.976985199570809620e-02 -1.095178004143633060e-01 4.678165341809907840e-01
-5.360014707582147486e-02 -1.150410776031164928e-01 5.162075590503834022e-01
-9.600231817599812201e-02 -1.058143392523435145e-01 4.645020204994058655e-01
-3.277539430147678040e-02 -6.319019340451208222e-02 4.360631883738869674e-01
-2.415125405544775450e-02 -1.196500060039664831e-01 5.316517697003957377e-01
-4.222514531290973150e-02 -2.753008543333227212e-02 4.358755834421424447e-01
-4.179296457977632259e-03 -1.254160951610931996e-01 5.100844171773889490e-01
-6.377503576618196411e-03 -1.237508491448283260e-01 5.337746059682662025e-01
5.523931822367175379e-03 -1.251333959431601417e-01 5.060322981951557164e-01
-3.630991157677779246e-02 -9.515935525344071388e-02 4.485716453107214119e-01
-7.023232919584433687e-02 -1.116844034108245287e-01 5.168520377730110305e-01
-8.251131878458761726e-02 -1.104023553104187677e-01 4.759319462615158591e-01
4.399015697714492995e-03 -1.080429840316515511e-01 4.665251026785223742e-01
-3.187420489772892912e-02 -1.083000693962403171e-01 4.702433792297944226e-01
-1.791729373933247799e-02 -1.046642023053079712e-01 4.625934924920779290e-01
-6.314674237749329233e-02 -1.099351389228527265e-01 4.687672657688295441e-01
-8.520910028371177225e-02 -1.096492005883156345e-01 5.050831755776248322e-01
-6.538411404348515310e-02 -8.931109009779568397e-02 4.206482774978385630e-01
-5.505898566306099973e-02 -1.125276465950644650e-01 4.826187044539447246e-01
-9.141482951343281316e-02 -1.098477442295551776e-01 4.925879320920194537e-01
-6.927785588152060581e-02 -1.124181316626994137e-01 4.916612874455873472e-01
-7.595691184105048122e-02 -1.088730523309207887e-01 5.211568274305956594e-01
-8.783954437665458803e-02 -1.098279646387665953e-01 4.757935732108992122e-01
-2.391007015586556553e-02 -1.208219904322803406e-01 5.114034969334461112e-01
-9.044412086549630247e-02 -1.053908953817684901e-01 4.590202773934766722e-01
-2.313153579718559699e-02 -1.034636480985111490e-01 4.626768534025055279e-01
-6.498250168068771260e-02 -1.108621081781861334e-01 5.258332792534536893e-01
-3.215090144782224713e-02 -1.185265653746482711e-01 5.027931727109203885e-01
-7.600265284814425315e-02 -1.052343786403867332e-01 4.505817931385109332e-01
-6.293642195579940424e-02 -7.398253574789945275e-02 4.264955257088121066e-01
-1.628583473279116012e-02 -1.161194172012618986e-01 4.829819465971860182e-01
-4.929469341874083421e-02 -1.152663617419330128e-01 5.223236379799065521e-01
-6.463475654975044116e-02 -1.119637954219594722e-01 4.822770869700445662e-01
-5.688569732790212802e-02 -1.145119718638319267e-01 5.010404468272355860e-01
-5.943506354494659805e-02 -1.038107837004198092e-01 4.279058489557822087e-01
-3.586377547299787055e-02 -1.182224631611003829e-01 5.165118097913172779e-01
-7.014220889105239609e-02 -8.671678767408351474e-02 4.219730744439394443e-01
-5.815626773365543262e-02 -8.147727112680785977e-02 4.239457263058593606e-01
-3.112763046636685821e-02 -1.069447904755438800e-01 4.681069834903749394e-01
-2.774443459963672406e-02 -1.099492586571473723e-01 4.736345925554161784e-01
-1.934882998443069810e-02 -9.255357698463144434e-02 4.497801470776094934e-01
-1.880340242938504519e-02 -1.210003108448035047e-01 5.020119027786084098e-01
-2.895766680586503786e-02 -1.196598148384512561e-01 5.130552645401140754e-01
-6.996343714866497254e-02 -1.010171743105839903e-01 4.258322070054467723e-01
-1.794246739163988733e-02 -1.007194103293909127e-01 4.583883966431250845e-01
-3.572331088165882351e-02 -7.708249032338206075e-02 4.368701886183968264e-01
-8.555482073609591009e-02 -9.899039053566158208e-02 4.432860654722690086e-01
-6.667808650128116688e-02 -1.132537461421453534e-01 5.042289283175157566e-01
-7.009858655501188807e-02 -1.047695016943385460e-01 4.449272800923379512e-01
-4.454390654404546263e-02 -1.102638965316601466e-01 4.733743101436317380e-01
-2.130326670816130863e-02 -5.168271435262088154e-02 4.383452586725616329e-01
-5.043755322410926889e-02 -9.680982279296868054e-02 4.298050330813907860e-01
-3.470140193197948641e-02 -3.517540928637125086e-02 4.361643079252551236e-01
-3.226400269011875377e-02 -1.189435551284953319e-01 5.146118521254077205e-01
-4.940091756895823027e-02 -9.372676760338102819e-02 4.288599821423969005e-01
3.873912772578993156e-04 -1.264563848393071011e-01 5.265567807143630708e-01
-1.069889290013447264e-01 -1.056988166116953065e-01 4.905752960306827282e-01
-2.619245663140084071e-02 -8.114150061279326587e-02 4.420655621617082809e-01
-5.268236093371483214e-02 -1.122432559766893267e-01 4.804654548694039518e-01
-2.431798941202728895e-02 -7.323791530091998403e-02 4.394045332000182658e-01
-5.635779793975084773e-02 -1.131983121403698223e-01 5.253394806079466628e-01
-1.054182003053290018e-01 -9.632102120233961007e-02 4.644510540967606294e-01
-5.565707188314950732e-02 -8.445329380682339848e-02 4.236225271488592847e-01
-6.407821928076776197e-02 -1.084534000865497866e-01 4.621448865093354952e-01
-6.543294508873033488e-02 -9.379485573069966386e-02 4.203704045776814890e-01
-4.294409984305574274e-02 -5.104018015701746597e-02 4.340227434230075620e-01
-9.311548545649378505e-02 -9.036690754597874464e-02 4.517780186250012209e-01
-2.041381720237057593e-02 -1.212833518192289184e-01 5.252240176835356600e-01
-8.968346792535081269e-02 -1.101515667774587010e-01 4.908379418304319453e-01
-2.093930658181430288e-04 -8.414861581881860619e-02 4.474772441289670000e-01
-4.526939172876476292e-02 -1.129390678439401580e-01 4.842111917333701276e-01
-9.159092932294329165e-03 -1.242783839393690470e-01 5.282493305943603001e-01
-7.949260674655483916e-02 -1.020296366784002040e-01 4.406632695705200997e-01
-4.689309409416808627e-02 -3.510473015080139980e-02 4.356954912769209765e-01
-2.682133237698205996e-02 -7.292908499346059670e-02 4.386312153223342891e-01
-1.985159355637158840e-02 -1.170891688648013629e-01 4.881830085171888212e-01
-2.241650847500219895e-02 -1.093736388521361347e-01 4.715247675426428864e-01
-9.254622460824289687e-02 -1.093953983603428853e-01 4.803345882216089047e-01
-4.395663821226563489e-02 -1.091379882140995211e-01 4.691352320674315179e-01
-4.640205879762297758e-02 -1.145521510771376900e-01 5.300308059289843277e-01
-4.425165045804398123e-02 -7.002579681543329160e-02 4.312347214893805236e-01
-2.306186074121106475e-02 -6.929327446814227687e-02 4.389031552331346120e-01
-2.950570782822574054e-02 -4.512037881388304694e-02 4.375833785815320121e-01
-7.122432875250951645e-02 -1.112496887899491332e-01 4.789233489543698319e-01
-2.749981237280490348e-02 -1.199568106071071671e-01 5.168734268532233500e-01
-8.680121826007571040e-02 -1.098103494430340693e-01 5.007742164851679556e-01
-6.676490651057115366e-02 -1.104960103303665592e-01 4.721343982420638796e-01
-5.262683904928845691e-02 -1.135463108177642011e-01 4.873547918673885038e-01
-5.114964624765113571e-02 -8.538064424440564015e-02 4.264513417994797440e-01
-6.785674635717783842e-02 -1.117722430019880975e-01 4.826208230838095470e-01
-1.805934712665978326e-02 -1.211856933049116902e-01 5.332375335572256958e-01
-9.007153966541734183e-03 -1.244061220804730389e-01 5.269570873220503771e-01
-5.341431365803234882e-02 -1.148551833706781822e-01 4.983821531762128720e-01
1.061030288225155854e-02 -1.261416793368324574e-01 5.348912002415693312e-01
-6.687816398851884059e-02 -1.118245314866864043e-01 4.824514504121636960e-01
-6.360118917722960841e-02 -1.053509869517622599e-01 4.442873974894333000e-01
-2.262317016972029138e-02 -6.459439348522715008e-02 4.382697361108635614e-01
-1.946471202185684479e-02 -1.219388674503613101e-01 5.105116010909068747e-01
-4.627207138096262745e-02 -9.390028492886290379e-02 4.390892180654830668e-01
-7.526820021830137042e-02 -1.105194423423879607e-01 5.161582798011364881e-01
-7.858247093437337183e-02 -1.063376252445029924e-01 4.557354293576798554e-01
-2.324606161627358614e-02 -7.003345092512361370e-02 4.390088206423711226e-01
-3.261428265704568313e-02 -1.188003360654425467e-01 5.080919255229479070e-01
4.651538736447669541e-03 -1.262715041641532809e-01 5.313114001275576204e-01
-5.374995769954993285e-02 -5.108116584359011225e-02 4.344426339628671974e-01
-7.600841482032688612e-02 -8.804040587345035584e-02 4.270610981894326641e-01
-5.775037827048594419e-02 -1.144108413896314791e-01 5.016108147938393991e-01
-2.062057312464823239e-02 -1.191254692386700537e-01 5.403969375721737745e-01
-7.369661853202916744e-03 -1.248022638527211403e-01 5.269704764650873230e-01
-5.894796439841347435e-02 -1.066545541101806965e-01 4.553707483015703716e-01
-4.051101325373596823e-02 -1.173570596312903669e-01 5.096483327342076208e-01
-4.568279905264941571e-02 -2.827772088748169849e-02 4.360867888836118533e-01
-1.075755171156318191e-01 -9.636896472040490380e-02 4.691532891953419937e-01
-1.495936232742041405e-02 -5.486817770505238168e-02 4.385111435603726293e-01
-3.943565725091371932e-02 -4.072951013059810527e-02 4.349190312841265671e-01
-6.216984275381199666e-03 -1.122723731535030800e-01 4.712166588113225196e-01
-4.932829544259641208e-02 -9.112840245231909608e-02 4.279984838321979623e-01
-4.464340954740638606e-02 -1.151131403030712791e-01 4.925769005835484715e-01
-6.232329792960692588e-02 -1.041930988538272845e-01 4.303932632420167104e-01
-3.129825478136259026e-02 -1.028150211455342578e-01 4.613708904831385627e-01
-3.885272564388108502e-02 -1.145438010800488154e-01 4.884607989542446016e-01
-8.544557604929915728e-02 -1.106256060894904719e-01 4.933998453593266276e-01
-1.618907759698239371e-02 -8.549779296358310521e-02 4.455990683419804310e-01
-7.198201657431978207e-02 -1.124516359057468606e-01 5.034809259301195050e-01
-5.353181811510075716e-02 -4.386543173092386644e-02 4.362274231710965289e-01
-9.909121046004268352e-02 -1.048577756055065618e-01 4.646261282139261262e-01
-1.156409708355696751e-02 -5.770531398951604662e-02 4.384681167424634429e-01
-6.896627062256222018e-02 -9.485654246588921812e-02 4.205827289278381564e-01
-8.288065556105370102e-02 -9.258811213416276442e-02 4.356211349083582984e-01
-2.614080878295204843e-02 -9.885391094518923560e-02 4.569099739882944156e-01
-3.091595675148560082e-02 -1.163847434529385327e-01 4.917670588349166705e-01
-1.027204110517501434e-01 -8.959240881144554802e-02 4.669259363085636605e-01
-4.994028579606102358e-02 -1.031509517029988998e-01 4.509549480409213995e-01
-6.351866332850851504e-02 -1.115309529029949315e-01 5.248549688107030375e-01
-5.200699499393203473e-02 -7.220154914353889286e-02 4.271144316099892424e-01
-1.872180135033720688e-02 -5.181156898786660331e-02 4.383842341859608416e-01
-5.954008123459507418e-02 -1.097627781265250457e-01 4.679438860882214057e-01
-5.044873053458573398e-02 -1.146827474950409820e-01 5.245573720274596674e-01
-4.721957720265645975e-02 -1.048748480427793006e-01 4.567581165655944520e-01
-5.372663352214624571e-02 -4.001740762740996216e-02 4.386264677505526399e-01
-1.545592234006340493e-02 -6.917185439776632472e-02 4.403029189348291461e-01
-5.591889357135182426e-02 -1.116629466667595771e-01 4.774933274748116019e-01
-3.868092537934823827e-02 -1.147717423810090398e-01 4.891728195521725664e-01
-1.074920260484052564e-01 -1.024840257937655041e-01 5.033570993499877355e-01
-1.397050064653706722e-02 -1.190491653917385845e-01 4.880483848301929717e-01
-7.477342677671018623e-02 -1.101246702608037198e-01 5.180862124980883943e-01
-4.125171249003665302e-02 -1.139825561925717906e-01 5.377631489111279750e-01
-3.272988646758268061e-02 -7.689474774693105807e-02 4.382499465280890738e-01
-1.756711257504048676e-02 -1.163879015338449563e-01 4.845474805663970708e-01
-7.086502949107223448e-02 -1.063706106762630221e-01 4.539677855107004389e-01
-2.954819237289048675e-02 -1.056732064746298688e-01 4.663644705659329981e-01
-2.166294723677326603e-02 -1.020239204715809450e-01 4.606723457589032011e-01
-8.741181088903118845e-02 -8.940065833235474879e-02 4.446216281319197994e-01
-4.628778648355938441e-02 -1.069572677945983263e-01 4.623612977981864658e-01
-1.275038480044196967e-02 -1.188112922472936567e-01 4.867910520795447615e-01
-1.854573479048938307e-03 -1.255380425863875382e-01 5.086932458368699228e-01
-3.815764710819245786e-02 -8.661817628216254839e-02 4.402258452353755569e-01
-9.003622387177487307e-02 -1.087471580455599413e-01 4.707548031395401011e-01
-3.263702345683700684e-02 -9.010823709136525639e-02 4.454723163010428366e-01
-6.451010251937128182e-02 -1.087998084316178921e-01 4.640043589539860625e-01
-1.062203340382723293e-01 -1.045179696324241708e-01 5.001232660224222970e-01
-4.670660834359027791e-02 -1.160125467682268374e-01 5.190487798335043923e-01
-1.707455717582851903e-02 -1.210796227420112697e-01 4.997091928742234401e-01
-6.087653368829159389e-02 -1.040640892443668447e-01 4.296830914957527892e-01
-6.669306180087640479e-02 -1.106677713826078741e-01 5.247139734754268092e-01
-6.483536105476679634e-02 -1.082346432853432683e-01 4.612480270084381440e-01
-1.516780849120515952e-02 -1.083109862599226092e-01 4.668348276408410547e-01
-2.277443753308417904e-02 -4.178709846774469189e-02 4.388877179593149713e-01
-1.821735947046981829e-02 -1.199128312005701968e-01 5.401421488172085672e-01
-1.148617081725743574e-02 -1.056118692284668537e-01 4.624785938830497933e-01
1.927343800770586540e-03 -1.001788535080193332e-01 4.583766636852364407e-01
-7.700590064720462535e-02 -1.095590115072004739e-01 4.689336255019321831e-01
-2.345524652774550259e-02 -9.040372435096707959e-02 4.479517218660085676e-01
-7.604793893192337249e-03 -1.232921617607351528e-01 5.000756527873677637e-01
-1.623197895520907263e-02 -1.228208213376934393e-01 5.207760575606028564e-01
-3.249573029748118597e-02 -1.181756196180747676e-01 5.008345950001322766e-01
8.538121057376953094e-04 -1.217816737544103328e-01 4.929144610414640248e-01
-9.518386886248086931e-02 -1.086473248155473970e-01 4.979152925363853899e-01
-7.141214318918351345e-02 -1.104681769175364231e-01 4.737062841687688097e-01
-6.151956289349427148e-02 -1.051866266357762286e-01 4.459190724937950878e-01
-1.476356608818057276e-02 -7.363978138273721830e-02 4.413705312477992915e-01
-8.964181337544748981e-03 -1.072479542992184620e-01 4.640867550737957647e-01
1.044096928434385795e-03 -1.260616182006190911e-01 5.309673466677551357e-01
-5.953519683313539257e-02 -8.195650226308762165e-02 4.238099779095074737e-01
-9.259375676297856850e-02 -8.904162352051067653e-02 4.522651137564958068e-01
-4.372267102944633194e-02 -1.165510424134186124e-01 5.039219834406830634e-01
-2.765858998648025244e-02 -3.314985816230411192e-02 4.380474199182500805e-01
-7.049779576514771107e-02 -1.126484436396674449e-01 4.989537505607301027e-01
-3.441258206594886848e-02 -1.001638040375097127e-01 4.565356540247131334e-01
-7.865717942904186522e-02 -1.113304704109130128e-01 4.843797996567510977e-01
-5.022006450321753884e-02 -3.343680917832374949e-02 4.376503729726380909e-01
-8.654326481933855009e-02 -1.060841649762335470e-01 5.165956701376422933e-01
-4.247889865338823345e-02 -1.163594990142079871e-01 5.247290104233959251e-01
-1.513915633596114169e-04 -1.143877858222702437e-01 4.748588431440756152e-01
-1.507452385799256181e-02 -1.071887655053371385e-01 4.648737096906173094e-01
-1.101853096265737429e-02 -1.238641276669254637e-01 5.264479113768866236e-01
-8.988264423258240238e-03 -1.208233820655699037e-01 4.915566799114514107e-01
-1.282162438124830744e-02 -1.239516225772908375e-01 5.156922667130090510e-01
-3.948556417535003388e-02 -1.073825936799328029e-01 4.660584484929094495e-01
-6.023920987445501724e-02 -1.032634265273235791e-01 4.236715129817272274e-01
-2.335173335236222919e-02 -1.085176637675851485e-01 4.701529543222380814e-01
-6.922023724040378412e-02 -1.098763107467963795e-01 5.250034629380837536e-01
-3.528987991576864464e-02 -1.117917951270555460e-01 4.782671023534909582e-01
-2.982688222280652918e-02 -1.102313862210702045e-01 4.743537400606330778e-01
-5.380110969014553768e-02 -1.112255929136988924e-01 4.742479782991472215e-01
-1.191962035383788664e-02 -1.235995634045701924e-01 5.265533036403792222e-01
-1.600384055526579479e-03 -1.260678644422466854e-01 5.136149144112940323e-01
-4.718797434720507084e-02 -8.966375622370077736e-02 4.309188725865574776e-01
-5.329796918816630952e-02 -3.300375035523749057e-02 4.394915388873332773e-01
-4.778407750193244818e-02 -7.710182501245720077e-02 4.288380719056691381e-01
-7.259503172443039498e-03 -1.243987067558079279e-01 5.065132808940833176e-01
-3.265650780400761177e-02 -1.179555894999698845e-01 5.282917429196684056e-01
-1.784551853282448711e-02 -1.217180182902153074e-01 5.288463742701303705e-01
-1.102144429346210014e-01 -1.008848788304558819e-01 4.800806709537547845e-01
-8.312365939702101580e-02 -1.092177822880550514e-01 4.683494839654279152e-01
-1.520882401140307913e-02 -1.155548497149994913e-01 4.809495839748759161e-01
-4.602423973725187911e-02 -1.155311080826424003e-01 5.250220493631183594e-01
-3.017750332581477582e-02 -1.068194342003368214e-01 4.681430339064479584e-01
-3.916574203775309571e-02 -7.032807291952714035e-02 4.335503399428255467e-01
-5.388204637779076683e-02 -1.058205634865321126e-01 4.556316972066045135e-01
-5.740152779022695412e-02 -6.998974678523503523e-02 4.271097694128996869e-01
-3.872810495516187945e-02 -1.177227856135786982e-01 5.105042070945585708e-01
-2.092915870711924316e-03 -1.174100888800739817e-01 4.803104440563742417e-01
-7.823179578201475137e-02 -1.116001919737614478e-01 5.000880648796707240e-01
-3.729616080957824653e-02 -1.102481547047704236e-01 4.744045521244093511e-01
-7.490510163695413004e-02 -9.374382768718804437e-02 4.242829887598819072e-01
-7.198152030148855830e-03 -9.951893682092291527e-02 4.564861084084971821e-01
-7.043924566823245303e-02 -1.126136185768347869e-01 4.978698498135318840e-01
-2.945336658149004874e-02 -1.158237838527089308e-01 4.890810523518233088e-01
-8.548642351151052032e-02 -1.056402346591012731e-01 5.192812748317433558e-01
-1.546767870481758657e-02 -1.141093202252791428e-01 4.778917989261134980e-01
-3.470122215595192183e-02 -1.125220612204868159e-01 4.802211842241889683e-01
-4.574011257238366768e-02 -8.737809590978176666e-02 4.321801733972416293e-01
-3.483774817691653869e-02 -1.178353787835482724e-01 5.016753588717447476e-01
-1.056775554673423934e-02 -5.649284224653738223e-02 4.383087071641174615e-01
-9.845866950452740463e-02 -9.114133372269163369e-02 4.586241426153994660e-01
-8.997133757101885565e-03 -8.665146786149498237e-02 4.471725405838801182e-01
2.056551345999332696e-03 -1.267235203172740743e-01 5.169851614822268404e-01
-5.492234941578767043e-02 -1.142209779617600340e-01 4.941134356179067710e-01
-6.086429430873725038e-02 -1.131329793974267528e-01 4.898016446849952632e-01
-1.013359623213665184e-01 -9.288418456026201198e-02 4.616177105781528178e-01
-8.015198247669991227e-02 -9.520664610101547964e-02 4.325726729109216628e-01
-8.769060508963869016e-02 -1.031700688177068781e-01 4.510887104128012970e-01
-5.061869694674444448e-02 -1.139818535524959459e-01 4.888273333082993055e-01
-7.142333703397217570e-02 -1.110236630961337623e-01 5.184266885827107929e-01
-3.431064981626368027e-02 -5.842007567168201049e-02 4.355969005142180661e-01
-2.599787202063272296e-02 -1.144228405822299011e-01 4.833336637367869892e-01
-9.180558863444548967e-02 -1.097236831473550472e-01 4.883198578287696323e-01
-1.097680524217331671e-01 -1.028453292766853960e-01 4.902164665272593091e-01
