-9.081982886878230132e-02 -9.725598193265191926e-02 4.475768369051646434e-01
-5.779543481477646127e-02 -9.655950917686868806e-02 4.220244278329461363e-01
-5.479278626412367043e-02 -1.123098141769503788e-01 4.813813688826600323e-01
-1.489474392333911632e-03 -1.001783972877219459e-01 4.580044516582876812e-01
-4.246174691261740686e-02 -4.132434989727167690e-02 4.346493808772241563e-01
-6.661772330319176705e-02 -1.089521764895746980e-01 4.649547047571963576e-01
-3.597382597247537200e-02 -1.125875077055737833e-01 4.808475977984151828e-01
-3.244927446406319083e-02 -7.775718939730608126e-02 4.386707139714241532e-01
-9.611663253899381532e-02 -1.079274081882899416e-01 5.012355036184586998e-01
-1.092180714446659984e-01 -1.033763509894311261e-01 4.926195297095073422e-01
1.002220969660669141e-02 -1.254576106089610732e-01 5.379645736085020280e-01
9.154896157895053843e-03 -1.220043505404596051e-01 4.957847594224178978e-01
-4.026114635687657456e-02 -4.428325273584786392e-02 4.346406721427168995e-01
-2.366345058857571501e-02 -1.209822476806279717e-01 5.135860451297857843e-01
-3.992450386542886753e-02 -1.174494739333263177e-01 5.140847783808751847e-01
-8.928542085216951973e-02 -1.077398691480310755e-01 4.662834829684845417e-01
-3.943962438769497980e-02 -3.465636297823627282e-02 4.351776568968308001e-01
-5.183244545623641453e-02 -1.124136594277476281e-01 4.813713879143607377e-01
-5.405624577937453296e-02 -1.146700372795192019e-01 4.975652000503293926e-01
-2.999436730543734303e-03 -1.242014251769277822e-01 5.019506974387644149e-01
-3.378531495364914608e-03 -8.283687101984639478e-02 4.465376844582921168e-01
-8.410451058321244400e-02 -1.054766914013293422e-01 4.551625177357550567e-01
-4.785781575580114883e-02 -1.156209775619842367e-01 4.979231213918265953e-01
-1.017217316141137695e-01 -9.285658189223064407e-02 4.619881000360375189e-01
-6.056585293884942517e-02 -1.140118898005394038e-01 5.016807997831919108e-01
-5.249720645178717476e-02 -9.073444910265246466e-02 4.253035154284721120e-01
-7.043223058733148051e-03 -1.028785574017780091e-01 4.595936263507273134e-01
-7.745706747032486683e-02 -1.079251901407650704e-01 5.224502855342708640e-01
-2.881973770066886126e-02 -5.417619448632401968e-02 4.369201335523010821e-01
-7.815057902036759777e-03 -1.227534056899513698e-01 4.974553798127738236e-01
1.089037358118025416e-03 -9.159118169924448938e-02 4.514969304154772822e-01
-4.808660030088142412e-02 -1.092608007834677125e-01 4.674800395668283759e-01
7.575598277852948342e-04 -1.267643759240148493e-01 5.201072680288669758e-01
-5.628676992050302141e-02 -4.975087999188982507e-02 4.369111442790754585e-01
-2.603892185370035306e-02 -1.139838030849243677e-01 4.819544732128678843e-01
-5.792912413919146242e-02 -1.145550740568544307e-01 5.125220928138235488e-01
-7.495939446455499033e-02 -1.120089497280489232e-01 4.963078043773743731e-01
-7.994974471882554043e-03 -1.124951519031162361e-01 4.716968606622988780e-01
-6.046470709460385201e-02 -1.063504029239244753e-01 4.532197646808094893e-01
8.501188551366073258e-04 -1.264532270545891957e-01 5.133134429910886087e-01
-5.626358864327816317e-02 -5.712136091089983075e-02 4.321414504271894885e-01
-5.981062480799198555e-02 -1.071364563036172196e-01 4.574189905916568044e-01
-1.781404707038774030e-02 -1.082039435335730160e-01 4.675770742763479815e-01
-4.520758114354057194e-02 -1.111474801497710080e-01 4.768463829739500448e-01
-8.561521186858522814e-02 -1.078407432305510533e-01 4.644009390089037792e-01
2.103490008498432821e-03 -1.224883235977483609e-01 4.950911339720556748e-01
-1.397492516792310166e-02 -1.199530955078252498e-01 4.911566362297117849e-01
-5.197657840936619617e-02 -1.153132240458341201e-01 5.057260599488795361e-01
-9.110588179360100403e-02 -1.094213231273097747e-01 4.771187985403245735e-01
-5.022521387965996065e-02 -4.419477866972401636e-02 4.351620041367035285e-01
-3.223370834522799877e-02 -1.019124536263434910e-01 4.597564686868210737e-01
-8.301271480632314848e-02 -1.110700259413133911e-01 4.859467307813370995e-01
-3.904450527175712393e-02 -5.186710780386846048e-02 4.345121681165589611e-01
-1.004803438061348947e-01 -9.722505287471661095e-02 4.588509025837732014e-01
-5.167721081898375007e-02 -1.055378259411607761e-01 4.561959222724911722e-01
7.973819552235172567e-04 -1.199778871762244153e-01 4.872873031321007797e-01
-3.662180241924355845e-02 -1.173977774317823825e-01 5.006597104139068888e-01
-1.449441960332830195e-02 -1.154474629133337704e-01 4.801539773651345433e-01
-9.836890300757994421e-02 -8.867043286794740187e-02 4.608685264438888152e-01
-5.812422936280980945e-02 -1.141021054143251529e-01 4.967278881411563152e-01
-3.489419271525409649e-02 -1.149886978416984062e-01 5.420659395438293116e-01
-1.440001756858597104e-02 -9.397877120094805248e-02 4.510117323501727782e-01
-7.088251573558303209e-02 -1.124117456557631178e-01 5.092031721076746287e-01
-1.117833978851809212e-01 -9.823234306299782892e-02 4.783119911404234981e-01
-3.399031336090368310e-02 -1.151574495292727041e-01 4.884292734836369054e-01
-6.494450546648740386e-02 -1.048253323529192704e-01 4.404000945121138155e-01
-5.229188217908021380e-02 -7.097959413211669955e-02 4.270664348544515598e-01
-3.137547357526791064e-02 -1.127244155468324210e-01 4.800334454017549102e-01
-9.568801438287799499e-02 -1.081862737123114038e-01 4.738860051265767481e-01
-3.856172638532680969e-02 -7.429203908783009458e-02 4.342095312293879350e-01
-4.756933355010002640e-02 -6.467309619181532687e-02 4.297920497533628259e-01
-7.593662694510841527e-02 -1.114440075441810590e-01 5.078317291028042746e-01
-1.474696325219814960e-02 -1.211534717563272912e-01 5.388906916874167674e-01
-3.079353596185033237e-02 -1.183982592718735433e-01 5.281817467298296487e-01
-1.090065725953195536e-01 -1.036878176327422629e-01 4.938143411009212058e-01
-6.627784767601559157e-02 -1.132518321886208795e-01 5.075196964400937594e-01
-4.239986501102321892e-02 -3.511400439447628224e-02 4.349401508780640357e-01
-1.022477025131798972e-01 -8.853223482118860455e-02 4.672213388430864756e-01
-1.917710937128531620e-02 -5.473591575650778307e-02 4.381173847052496906e-01
-6.032132995142859555e-02 -1.140753908520541759e-01 5.028348667358436552e-01
-5.558063927670913590e-02 -6.492138238299297037e-02 4.284864629769259414e-01
-5.462499300942053743e-02 -6.205478665439604496e-02 4.296696550192235509e-01
-5.848289078563233961e-02 -1.037309714451111753e-01 4.279576341546816876e-01
-4.825344938402190836e-02 -1.156511651110052885e-01 5.196956216189765332e-01
-1.040071059783839180e-01 -1.062012478200466958e-01 4.812452329605433343e-01
-5.993747114471140169e-02 -1.115406961869227082e-01 4.764910232614079089e-01
-6.663036558296903111e-02 -9.385774654547375528e-02 4.202583887490281001e-01
-1.061092010475392783e-01 -1.056159939130635605e-01 4.948286303436115752e-01
-1.836997834374266142e-02 -1.225239892375396683e-01 5.143428492103259142e-01
-4.183961397821781003e-02 -6.193269829419443401e-02 4.326139004093702556e-01
-5.794331910812183795e-02 -9.928649199978650808e-02 4.219551465391208067e-01
-5.199741912697987412e-02 -1.153888116849638573e-01 5.081350312658945434e-01
-1.448809718174990518e-02 -9.556260062153788815e-02 4.525984800770367356e-01
-3.945346056287286907e-02 -1.117638640387578347e-01 4.793191520692481888e-01
-1.073836561123009403e-01 -9.975011695350420593e-02 4.695004676472996352e-01
-2.932100338408824211e-02 -9.083207965509706994e-02 4.470836561357413586e-01
-5.625789488721439496e-02 -5.077843934279480109e-02 4.353014417028366889e-01
-3.815132717130466367e-02 -7.740251315804579091e-02 4.353120006987217239e-01
-2.506248403883237774e-02 -1.192784216344918435e-01 5.329320506532638779e-01
-2.207811054885954350e-03 -1.097332570534770985e-01 4.674782364166382154e-01
-2.256109933456246913e-02 -1.154537718157181564e-01 4.849795070725635426e-01
-7.247779136825846513e-02 -1.092753570355404491e-01 5.234377864138386460e-01
-3.773753168436660976e-02 -7.108244156064121022e-02 4.341831452008806380e-01
-1.776416094921915226e-02 -1.114270475843067848e-01 4.737343867544867582e-01
-4.802654652669978430e-02 -5.629583770755187261e-02 4.322034704398857174e-01
-1.303568870429080637e-02 -1.201420900071479558e-01 5.439852676513433627e-01
-3.759700278463273815e-02 -1.174752451191351660e-01 5.230917401630621466e-01
-4.117894738704552804e-02 -3.840978441893580508e-02 4.347940235894250383e-01
-6.725712800524463741e-02 -1.124781914177876013e-01 4.896988824825176945e-01
-8.641379773290400190e-02 -1.078084989802911564e-01 5.119765436638683553e-01
-1.075530787582998221e-01 -1.005485646139377548e-01 4.709544098213341856e-01
-8.708928062721602026e-02 -9.313408438568393510e-02 4.421907475090135486e-01
-5.954662673399326034e-02 -7.589120839954566211e-02 4.249604693151509682e-01
-1.117463037236100937e-01 -9.895646339409128189e-02 4.833274523700951675e-01
-5.912536198310867908e-02 -1.039365674623755897e-01 4.295398492298223014e-01
-3.945796962273882130e-02 -1.172211071341855287e-01 5.215113101797225204e-01
2.834734376740890432e-03 -1.014383978985516493e-01 4.595336660206097990e-01
-3.459371904112311380e-02 -1.181187656421231191e-01 5.225223481779545098e-01
-4.461006655120950543e-02 -3.779810068670365342e-02 4.350869989287328710e-01
-1.101980002946247039e-02 -1.231692693034514424e-01 5.331796822915898515e-01
-1.074956269547848176e-01 -1.054351169679327987e-01 4.922706975191266654e-01
-4.422208147027707065e-02 -1.149012282692238873e-01 4.915077288688369239e-01
-8.399594824714261276e-02 -1.094886063976112656e-01 5.073706954648616874e-01
2.826298159574528596e-03 -1.264423584220327190e-01 5.129431601828370324e-01
-8.044782800462839389e-02 -1.113188922119449087e-01 4.900624295431760258e-01
-7.854718163471056946e-02 -8.895524116490825806e-02 4.300008072530774328e-01
-5.863953644462148451e-02 -1.035063639224995113e-01 4.409167227479254825e-01
-6.705586631713615631e-02 -1.112514484080338872e-01 4.766382413888309855e-01
-1.338766358864007869e-02 -1.102381987144770842e-01 4.695886057636623478e-01
-4.646227781040972865e-02 -3.309837227489889622e-02 4.355901448233344686e-01
-1.965689162713170346e-02 -3.907108569230452466e-02 4.385415687742749147e-01
-6.058088556993002777e-02 -7.119858956827089524e-02 4.269604118217857902e-01
-7.801975187990123350e-02 -9.339107742749500063e-02 4.279457090976722111e-01
-7.789522638244254782e-02 -1.082282217986797607e-01 4.629105813205146580e-01
-8.235556947574465547e-02 -1.088917914625344846e-01 4.667515094838558531e-01
-1.997475477871549915e-02 -1.213049206479650671e-01 5.262672032387654131e-01
-9.882754278031358197e-02 -1.074289868095675143e-01 4.998109474192711232e-01
-4.881626645880506737e-02 -9.690143316965169062e-02 4.383733613913138871e-01
-6.991643319914614407e-02 -1.075126839840685744e-01 4.587119172687502688e-01
-1.218093966623987404e-02 -7.595806900710748433e-02 4.424522470799435725e-01
-8.556066257520530960e-02 -1.097586225932410675e-01 5.028695146826747120e-01
-9.300371613704831730e-02 -1.088657778236869766e-01 4.994826433990964265e-01
-3.266887771521177763e-02 -1.184249839123016068e-01 5.234394018196278919e-01
-3.001174534686982739e-02 -1.069422834652418164e-01 4.683719117224551254e-01
-1.092929667372287833e-01 -1.025488198997347444e-01 4.818486855819871240e-01
-3.316658613692161084e-02 -5.215008158573246344e-02 4.358972925027274070e-01
-8.353115927092430448e-02 -9.926875158445412628e-02 4.417295949801239852e-01
-2.826175713091719222e-02 -1.045689625543071155e-01 4.647930779143032431e-01
-4.077149773530411303e-02 -1.161645892874673819e-01 4.960363240362175574e-01
-8.158860182738278399e-02 -1.110306566639439607e-01 4.989478836576975995e-01
-3.482665281472045044e-02 -8.784669429554295417e-02 4.429372444891495064e-01
-9.754549327699114925e-02 -1.031882028762084458e-01 4.603892436943741728e-01
-5.816644592670259378e-02 -8.687393854872313415e-02 4.227059465686099360e-01
-5.419956318352268237e-02 -3.355349610187179782e-02 4.434742490082170807e-01
-6.558202150509669093e-02 -1.024087497154338999e-01 4.242854977708860331e-01
-4.062983040908652727e-02 -2.726901171238039004e-02 4.359051341399823865e-01
-1.663874487204806268e-02 -9.767255043947424553e-02 4.549408702628947587e-01
-2.437648660801740655e-02 -1.179863766810326647e-01 5.412759355630596403e-01
-9.420413658585387318e-02 -8.755100925129996603e-02 4.558942105451921911e-01
-4.931190445078037152e-03 -1.257574827892040115e-01 5.192754584923396921e-01
-3.726561058943939769e-02 -7.601652039260094196e-02 4.352835877342556281e-01
-4.915840191139315973e-02 -9.502895355452534165e-02 4.310966310979343907e-01
-8.979780057252860492e-02 -1.100960411585837628e-01 4.914395265828205850e-01
-6.133125810881154272e-02 -1.133999153059690873e-01 5.189656306924727014e-01
-6.090916954623253748e-02 -1.033436594537147230e-01 4.240022916230802297e-01
-4.300595962255760601e-02 -4.796191906569584329e-02 4.341237337800594176e-01
-8.553568561002675846e-03 -8.212275276515808298e-02 4.453298502213240972e-01
-9.098625408383048674e-02 -1.097778131515159544e-01 4.944316930000732802e-01
-3.648577929058881286e-02 -1.151018563112217591e-01 4.893355031980279324e-01
-4.467268126965817654e-02 -3.431960083791469468e-02 4.349158135645222467e-01
-8.389489802873019431e-02 -9.464183790341450242e-02 4.383439755395576731e-01
-4.143343864826674189e-02 -1.022136016874044678e-01 4.554875892807152549e-01
-6.740093962392500193e-02 -8.271451251208131183e-02 4.237122895255363564e-01
-2.651929438422295088e-02 -7.675776744179824140e-02 4.398660781611055115e-01
-6.860766458504864718e-02 -1.124079708040356118e-01 4.906501854772745141e-01
-1.792753441666363953e-02 -4.669466372855947400e-02 4.386392195506549907e-01
-6.441487228938645726e-02 -1.110151305324215826e-01 4.739319754272134366e-01
-3.108836897796693477e-02 -9.210079144267202533e-02 4.476316837166633977e-01
-7.996158153696224236e-02 -1.094294192879582822e-01 5.140498383799065873e-01
-7.760367131638702676e-02 -1.091505364312906623e-01 4.668784265329681826e-01
-4.936581474939664288e-02 -1.158138279374609919e-01 5.106900266890157525e-01
-6.115061593888310686e-03 -1.236792605985445187e-01 5.010197801265606765e-01
-4.673306250093765823e-02 -1.029050184720360639e-01 4.529360043617346454e-01
-1.081831478611702986e-02 -7.200334606110811442e-02 4.414638086705756082e-01
3.703865603391192241e-03 -1.269496701473306066e-01 5.233309254843929725e-01
-3.802033945434943329e-02 -8.547840538356998863e-02 4.394617736465603053e-01
-2.232631569463590024e-02 -1.207487364185960282e-01 5.254363505662258405e-01
-5.331329424545763231e-03 -1.238049358095424241e-01 5.010459059743674892e-01
-7.722982298614969321e-02 -1.117317916623048191e-01 5.005183477326619057e-01
-3.764610152867309267e-02 -1.175578415688490058e-01 5.030994175913386934e-01
-8.745219261717675219e-02 -9.197206428641230280e-02 4.432568330823410951e-01
-2.681793877141579879e-03 -1.039524351199606900e-01 4.612911629453816387e-01
-1.052203913702592086e-01 -1.052486801352610635e-01 4.787894845670012667e-01
-3.106903974251492423e-02 -1.166490980831730306e-01 5.394917324300581019e-01
-3.152167410344682702e-02 -1.190217692980364561e-01 5.179585742138405058e-01
-4.354113744145869658e-02 -1.041156821302920699e-01 4.576328182111242815e-01
-4.339112629427947787e-02 -4.105020769391534707e-02 4.347439814142881054e-01
-6.243103092771781857e-04 -1.152910604934289096e-01 4.763000019739542790e-01
-2.595648673113370997e-02 -1.203250779999379266e-01 5.176140785209992767e-01
-4.824988351118538604e-02 -1.153986918842592746e-01 5.229172474742121990e-01
-6.812718930634266423e-02 -8.439305728785151395e-02 4.227405593617331037e-01
-8.195254521478520862e-03 -1.172885642260631522e-01 4.805245038219774223e-01
1.716625610177284402e-03 -1.248027270662724203e-01 5.027671152534975985e-01
8.231647341749883089e-04 -1.263698318424230638e-01 5.123526780809529724e-01
-4.724743041866327070e-02 -9.486496860956133981e-02 4.384725122610604320e-01
-4.941968720693291905e-02 -8.812344179747687301e-02 4.277508113930938993e-01
-6.968751688298020774e-02 -9.514729274626020084e-02 4.206778837733392007e-01
-1.349666903803971828e-02 -1.150488534817808439e-01 4.786280592539432499e-01
-4.199419606608589817e-02 -9.748673376018432424e-02 4.476214149607330994e-01
-2.338090140446933557e-02 -4.308018435012020420e-02 4.387942747842371038e-01
-2.569676529537118920e-02 -7.959259504520226070e-02 4.414430526480190853e-01
-3.744005408722989731e-02 -7.310793693647636704e-02 4.345322026704788732e-01
-4.463602812063575259e-02 -4.693963613792808548e-02 4.341493366914923602e-01
-1.085216072564518588e-02 -1.145193120761002215e-01 4.759774913338944424e-01
-3.555053448259616611e-02 -1.178789018176554931e-01 5.231725041503917373e-01
-6.881084265027267999e-02 -1.085546080352240012e-01 4.630842763903533221e-01
-3.923002130125785580e-02 -1.065295516783753421e-01 4.647032730545338497e-01
-1.170465668920278417e-02 -1.212169683659011371e-01 4.941938706478856691e-01
-6.644520987707416837e-02 -1.127002027138632179e-01 4.913619496150918309e-01
-5.013726962546612154e-02 -6.035504193821904922e-02 4.306279243378398625e-01
-2.821454631925391851e-02 -5.906179059964181827e-02 4.366651323325163037e-01
-7.446520833795669536e-02 -1.113958595694949094e-01 5.110233290932421069e-01
-5.035591213223303969e-02 -6.500485150556430114e-02 4.288532828464929891e-01
-9.449265809520965287e-02 -9.880609961092030880e-02 4.523637286816576397e-01
-1.026131401459697418e-01 -1.065141200611758043e-01 4.970345497865969464e-01
-2.114484663212052099e-02 -1.205680666739933210e-01 5.305693848275443436e-01
-3.568235092181782503e-02 -8.210365736703073569e-02 4.391233756299406932e-01
-4.720663535947202533e-02 -1.011269709201809558e-01 4.492685782830702079e-01
-1.605819969641140293e-02 -1.130595215822124133e-01 4.758854395446265317e-01
-3.203085891096243976e-02 -1.162639163841624607e-01 4.917838385338106355e-01
-5.657340453567445693e-02 -1.104651056577145435e-01 4.699072971159083401e-01
-5.963024567235965245e-02 -1.065600842699544887e-01 4.548884216339790787e-01
-5.720929711716626898e-02 -1.029520770235119037e-01 4.360338955526319449e-01
-7.090859932511855979e-02 -1.049363009958050458e-01 4.465138516562693893e-01
-2.324805205036649045e-02 -9.524227854454513087e-02 4.529355313968957963e-01
-8.792791086099289999e-02 -1.092911403712984453e-01 4.716569594722778702e-01
-4.307956871714931774e-02 -3.876140680415086220e-02 4.349488439193786582e-01
-5.031220844856987631e-03 -1.244435092701255408e-01 5.046374291287566427e-01
-1.379888998776151489e-02 -1.220286334405451395e-01 5.002967054489048104e-01
-4.427194560695812270e-02 -3.639764452873295308e-02 4.349632727924773179e-01
-6.703227285570785565e-02 -1.109426123123923164e-01 5.231429881210474253e-01
-4.835412938222610757e-02 -1.155278775081167580e-01 4.979924787791462082e-01
-9.138173873537845660e-02 -9.921428741352619762e-02 4.506825618036994774e-01
-1.087322903538443658e-01 -1.033472019746842080e-01 4.813843769231684333e-01
-4.312291724778693353e-02 -1.046904635976062259e-01 4.592445046500770456e-01
-2.136471518367141428e-02 -1.161880591045181821e-01 4.864159485575085262e-01
-1.380844622321738234e-02 -1.008987214704919616e-01 4.573201258331345831e-01
-3.569324193732081180e-02 -1.182578553004402372e-01 5.157224746529178727e-01
-7.932490490928778559e-02 -1.073748717273312475e-01 4.599481493074297767e-01
-1.091877728144809157e-01 -1.035866535045514153e-01 4.958763210377792330e-01
-4.894987005252195850e-02 -1.151613105094738132e-01 4.963010307653525355e-01
-1.596213034725811261e-02 -1.226451223093486670e-01 5.242925163414827727e-01
-4.167842980617977172e-02 -7.377778135385129610e-02 4.327665775740366372e-01
-9.201737071294673054e-02 -1.041617690582392619e-01 4.571650888577713512e-01
1.848091805250582200e-03 -9.963221081038180216e-02 4.578661642891483918e-01
3.547796328494282753e-03 -1.106344034125031628e-01 4.694063566297295709e-01
1.239986912691191066e-03 -1.220727936911158301e-01 4.938556934067043214e-01
-3.042424181415808934e-02 -4.020312088636064651e-02 4.374111540551495758e-01
-6.709419893913826094e-02 -1.085004187707399037e-01 4.628220861966321764e-01
-1.477557143285270630e-02 -6.678142349732063554e-02 4.398613463349264063e-01
-5.523262640243897098e-02 -1.149313916716402928e-01 5.085274586712673628e-01
-3.735496662189313755e-02 -7.570839015735675304e-02 4.350780948086059863e-01
-3.505263255681500059e-04 -1.123893053173537632e-01 4.714369888399223552e-01
-4.038771887356742279e-02 -1.136450346519309318e-01 4.857396080255357851e-01
-3.616515688744632168e-02 -7.525981581096408135e-02 4.356876737667262356e-01
-4.975792579946397565e-02 -9.218000634619430422e-02 4.276264680547940400e-01
-6.162439901329533343e-02 -1.024181005222384172e-01 4.227046236694642634e-01
-3.799660363727599272e-02 -3.186462021446206938e-02 4.358561348751314735e-01
-6.209233747692659983e-02 -1.136400225888344051e-01 4.984264466651546766e-01
-6.391262957690299618e-02 -1.061032424229994692e-01 4.515912045469308578e-01
-3.062580572455510589e-02 -4.823968569509771293e-02 4.370466254713235021e-01
-1.103718724681696101e-01 -1.018304870919817945e-01 4.870976657180950409e-01
-7.440212379543313659e-02 -1.117041823196896627e-01 4.884353691514083384e-01
-6.616979564331137986e-02 -1.129999665855325880e-01 4.957825468003262959e-01
-2.007247964125737083e-02 -1.147222280390234606e-01 4.821730249584926242e-01
-6.474312628830358740e-03 -1.108863978856706317e-01 4.689882864505867666e-01
-2.327523616077744814e-02 -5.910296776569142624e-02 4.376110716678875967e-01
-5.815112577571390773e-02 -1.091748268444997089e-01 4.656728052865180545e-01
-9.660865991087345950e-02 -1.050678775455647779e-01 4.631350848776555340e-01
-7.996093329499942559e-02 -1.064021167492103098e-01 4.563658475247392432e-01
-6.133271626378761915e-02 -1.042596866210773326e-01 4.409928763933652629e-01
-2.193684173217212707e-02 -1.165155718263815310e-01 4.877865511261871845e-01
-7.307537465624702744e-02 -1.103003712468867137e-01 5.190892183021318385e-01
-6.028162197916299772e-03 -1.244488677106415780e-01 5.055168785862933500e-01
-8.938212414639595815e-02 -1.013700434706418935e-01 4.505700528501199731e-01
1.547314395670431036e-03 -9.712681567286046702e-02 4.555955336759703322e-01
-9.542060151917353128e-02 -1.077863766207883267e-01 4.720432354632170813e-01
-2.043338359735545270e-02 -1.107613065509238520e-01 4.735356011476588023e-01
-6.166346223715108571e-02 -1.111768332649716168e-01 4.741048663818453468e-01
8.318692733431528111e-03 -1.252084516453157714e-01 5.077059395655389995e-01
-3.894913452089798778e-02 -1.176292385494583509e-01 5.095619974646490302e-01
-4.638411971596281130e-02 -4.209790759301645230e-02 4.347568403945161197e-01
-7.327599365931611319e-02 -1.083258205297123467e-01 4.624372911472000025e-01
-5.398116827181511507e-02 -1.021460794931615401e-01 4.320002451078575612e-01
-6.398937303016962591e-03 -1.157943883995928430e-01 4.773693925525481774e-01
-7.024473670947663229e-02 -1.066287970665457246e-01 4.550959859773888172e-01
-9.338411309183482223e-03 -7.216894226113212962e-02 4.416526290804466126e-01
-7.378029366270584533e-02 -1.122117926183851117e-01 5.027235004727077516e-01
-3.028491681162796476e-02 -5.493333072511859955e-02 4.363455206652603890e-01
-6.824571981918212127e-02 -1.097112712438139126e-01 4.685960602528951302e-01
-8.376699413509862413e-02 -9.700957101331006416e-02 4.401830246526174384e-01
-4.728646993361026313e-02 -1.161748687823324355e-01 5.121398828833508832e-01
-1.016269089220750155e-01 -1.060302008199051627e-01 5.012406654170782350e-01
-3.278199406848224251e-02 -5.426230342598828416e-02 4.357718823152033627e-01
6.473956528429509680e-03 -1.239417873498630668e-01 5.011999580273409638e-01
-6.491453653266110457e-02 -1.056762811442640143e-01 4.492386774492794776e-01
-4.703733005957792812e-02 -9.641083998927761634e-02 4.424288458078098896e-01
-8.283877114328667968e-02 -1.036491975408430355e-01 4.490775309081351252e-01
-2.866974997678452264e-02 -1.080646701813284122e-01 4.702521395736535825e-01
-1.479402371940691935e-02 -9.113406911458252213e-02 4.486686900298282321e-01
-9.133482678335179406e-02 -1.094956785650996606e-01 4.787245897278522011e-01
-2.634217785469978104e-02 -4.671401571471794911e-02 4.381614012049789841e-01
-1.691987239290314651e-02 -1.136362703950445641e-01 4.777233759389393208e-01
-4.226549373712672891e-02 -1.081253360925922419e-01 4.663604080790349493e-01
-1.061995840538628305e-01 -9.187616988296118392e-02 4.697497054583560372e-01
-2.335477229034046975e-02 -3.831559903487743307e-02 4.386604521972566340e-01
-1.889851339362419794e-02 -1.185173418055601724e-01 5.447166232602785874e-01
-1.633655073186145515e-02 -4.747571885082222526e-02 4.384542618075952802e-01
-7.662637721559191484e-02 -1.117722233382114211e-01 4.941080377937289714e-01
2.223631678703956970e-04 -1.087740041977170030e-01 4.666206161536320396e-01
-3.803633389147594024e-02 -1.171872711350140650e-01 5.008362565698574187e-01
-2.767590300202560707e-02 -1.199570737565913980e-01 5.138106397488221289e-01
-6.335314761716184795e-02 -8.267137506697473659e-02 4.229160952490962910e-01
-1.318687420426571666e-02 -1.186484236392141844e-01 4.865218310485855957e-01
-3.400781661050492760e-02 -1.163264311354738484e-01 5.374316241569911945e-01
-2.920653199449078224e-02 -9.317800846317782215e-02 4.494899452679102514e-01
-7.644206890712292035e-02 -1.100606643803621609e-01 4.721504512378473795e-01
-6.863914318316019503e-02 -8.949714537640272860e-02 4.200037597645694398e-01
-7.334128825395343221e-02 -1.021980435101744744e-01 4.342774894748821501e-01
-8.819638580938816974e-02 -1.061480020047019940e-01 5.146369917287277884e-01
-6.179548733423727291e-02 -1.133188190343166479e-01 4.933104049388675749e-01
1.285737850051513545e-02 -1.265967629790035465e-01 5.286647528219573511e-01
-5.546156254927644969e-02 -5.497161295177259432e-02 4.326077198121228151e-01
-6.552864076368875024e-02 -1.104614703138576126e-01 4.717871812845505497e-01
-4.287679393669859701e-02 -5.153702091618659470e-02 4.339354861842775746e-01
-7.479232042821506998e-02 -1.121193123886091159e-01 5.017303116471426572e-01
-4.081655085475195677e-02 -8.134069090865270191e-02 4.352893855583470084e-01
-3.400541148968096866e-02 -1.176074362192918166e-01 4.990037005299539641e-01
-4.997993365608496830e-02 -1.106696325788625729e-01 4.727042141798323827e-01
-2.095780796118438399e-02 -1.213177754149404319e-01 5.231663369535191066e-01
-5.073449900471398155e-02 -9.845406046258997623e-02 4.349590794946102679e-01
-5.152981657647366653e-02 -1.149020357093303996e-01 5.213504815814103965e-01
-8.933277364836215984e-02 -1.099859368050648961e-01 4.829006578172240771e-01
-6.190231632136514867e-02 -9.906551895177355405e-02 4.226349435813310240e-01
-8.657980302046551502e-02 -1.018117314326674738e-01 4.471814398378199384e-01
-5.731374217343064570e-02 -1.113541399709442742e-01 4.749264646825842040e-01
-3.293621982030961459e-02 -1.160736302593620706e-01 5.400260580441202940e-01
-6.918097326188533958e-02 -1.056772873731756102e-01 4.502397124980873633e-01
-8.947566158656083957e-02 -1.097655968666196163e-01 4.970887314982765370e-01
9.847226701089397197e-03 -1.263044971912316294e-01 5.166178106866554653e-01
-6.551311752195952687e-02 -1.026812433472569647e-01 4.254787794818589153e-01
-2.388368335950860274e-02 -3.766954251384428687e-02 4.386182623163694672e-01
-4.498969619655800861e-02 -8.937731102278793915e-02 4.344412576382624680e-01
-9.605512372582267200e-02 -8.652751672460241850e-02 4.601860121276003524e-01
-7.384465871760345981e-04 -1.156959685901150225e-01 4.769646972952988340e-01
-1.424666304127911870e-02 -1.235583306214361188e-01 5.162910052483499213e-01
-7.339313230490963902e-02 -1.121283688931212635e-01 4.946925205723497476e-01
-6.147107505503220798e-02 -1.138569166686404233e-01 5.009898426156008666e-01
-5.576803000315285613e-02 -4.938546859563605618e-02 4.354962616701458789e-01
-2.313340420410913215e-03 -8.078954955701976581e-02 4.457973180065023522e-01
-1.085452363329165032e-01 -1.024943618845511467e-01 4.786762313369882227e-01
-7.249780643637904198e-02 -1.122127009829287647e-01 5.059845504858631049e-01
-6.321638200595339208e-02 -8.141590504255584448e-02 4.233502666669459180e-01
-4.358365539957236717e-02 -8.287632410049894371e-02 4.332740473907433221e-01
-1.431998849135173932e-02 -1.221432519583900839e-01 5.343797890754541369e-01
-8.850307604816366747e-02 -8.773787263305093953e-02 4.467845276092239915e-01
-9.400049346034668185e-02 -9.646068530431980981e-02 4.512564228828706558e-01
-3.437594554196503338e-02 -7.792314075138986884e-02 4.378566283435223472e-01
-8.961536694902584588e-02 -1.082578027159449841e-01 5.060922286823625882e-01
-7.751744899668987221e-02 -9.882344489603102355e-02 4.313097970675235371e-01
-4.780616210634887342e-02 -4.483784909097358884e-02 4.344479958416398446e-01
-4.004251557881267215e-02 -1.044972081834397437e-01 4.606642737088911810e-01
-8.098700385721462058e-02 -1.111911400831308849e-01 4.846934549496351163e-01
-1.065242212564362911e-01 -9.183443856897563484e-02 4.703073789177427133e-01
-1.108056688427984521e-01 -9.993549648512642380e-02 4.794473791300096210e-01
-3.116302005562100047e-02 -4.117553028692802486e-02 4.371649989436698913e-01
-2.878563866595599402e-02 -3.834510258127840632e-02 4.377961618737903904e-01
-1.628888596233817737e-03 -1.170105737591133066e-01 4.794042336882118893e-01
-6.714370100746169800e-02 -1.131328028855794338e-01 5.069105255313294256e-01
-5.083745657392760992e-02 -2.771628202712728140e-02 4.375928025625115958e-01
-1.393103400817864712e-03 -1.259159021217876595e-01 5.288059374621535413e-01
-1.644063606454112050e-02 -7.047871448530185212e-02 4.403873905681804923e-01
-6.581499754603765961e-02 -1.128856839720275562e-01 4.927982063820752767e-01
-1.542715842460312854e-02 -9.809078187652250924e-02 4.550061360229753493e-01
-1.066728805743742542e-01 -9.958805898324775419e-02 4.680101787613385467e-01
-3.167946066261109750e-02 -9.433913119002750036e-02 4.496392138756293289e-01
-9.433021318734158278e-02 -1.068639872112960992e-01 5.071327509746125228e-01
-3.662754863311153825e-02 -5.506036193957684899e-02 4.349042486362117987e-01
-6.946451248599486150e-02 -9.489816735308727325e-02 4.204776816465761180e-01
-6.763298152639136973e-02 -1.024920702412461249e-01 4.281312590785846806e-01
-6.814763246899303850e-02 -9.182536151530959478e-02 4.199697112174649583e-01
-3.923917343023922838e-02 -1.111961229135427082e-01 4.774641876484053693e-01
-5.404645386309257088e-02 -5.974203207906877283e-02 4.306337943813853819e-01
-2.760813055870629720e-03 -1.261044679581260208e-01 5.235761578834734475e-01
-5.971248947805452706e-02 -7.732192772175651430e-02 4.246292665586029469e-01
-6.073933688007584347e-02 -1.066826667919982680e-01 4.557194487815439121e-01
1.258059219887873101e-02 -1.263051796655726144e-01 5.219264906738722010e-01
-6.864716757233174649e-02 -1.003724730914187929e-01 4.238379809297643797e-01
-7.222929265425884204e-02 -1.122418345746289958e-01 4.943762584699918361e-01
-9.701778298521351179e-03 -5.935910147148624333e-02 4.386149604659385637e-01
-7.664330308810290981e-02 -9.814260794147969258e-02 4.286357130877110899e-01
-3.473754686824318677e-03 -1.163947585762641485e-01 4.780266489118399909e-01
-1.582001745382467101e-02 -1.165610331532908606e-01 4.835866053601487469e-01
-9.149474212310138022e-02 -1.088622301868848175e-01 5.013470977512113347e-01
-8.759044366844509488e-02 -1.091421216007636280e-01 4.703748084900824522e-01
-2.889919998669300549e-02 -9.151946923648007770e-02 4.479486253326982470e-01
-5.473666526967095602e-02 -1.085074465591273074e-01 4.634508168171670994e-01
-8.247657055008263127e-02 -1.079427566630218882e-01 4.630378202163559220e-01
-4.035951690352655719e-02 -8.394372247998038716e-02 4.367970688041878935e-01
-3.765848235089390428e-02 -1.178033998708596236e-01 5.187127183258669616e-01
-9.176334640148833821e-02 -1.076395901501466662e-01 4.679265487693735071e-01
-6.280825475206597286e-02 -1.051351016006110972e-01 4.440400949495099114e-01
-8.292121569745068699e-02 -1.103811253349871180e-01 5.022337943745474043e-01
-5.807740700228676556e-02 -9.023563075541193856e-02 4.217869595934940485e-01
-7.724014666131913398e-02 -1.065836239947282327e-01 4.563968304571981438e-01
-6.716011324647193359e-02 -1.021278246635307918e-01 4.251917242245383810e-01
-4.726507906113970592e-02 -8.767548456329657403e-02 4.295323792861303058e-01
-2.249825695945494725e-02 -1.201006557867653063e-01 5.316005349316391682e-01
-4.243971986718170220e-02 -1.026853420719504445e-01 4.556145286202451516e-01
-3.311601189705172532e-02 -1.185226214582751902e-01 5.049192521698970815e-01
-4.325652480049322485e-02 -1.040335958445824105e-01 4.576792034513528784e-01
-3.545236290476656837e-02 -1.102372141789754456e-01 4.741886296362605724e-01
-1.296461778538387198e-02 -6.631914509678270286e-02 4.399780285827047943e-01
-7.119142355239070630e-02 -1.124345323599555274e-01 4.965405736746142940e-01
-7.882575339490195676e-02 -1.111118669834039868e-01 5.042084728081712708e-01
-3.236096515075490010e-02 -6.037282668185790097e-02 4.360049124674331700e-01
-8.890088513354667266e-02 -1.100528631077850039e-01 4.826278887374053084e-01
-9.474318909504491487e-03 -1.247509423953178653e-01 5.153612177452494558e-01
7.497376937139229973e-04 -1.043607763525793153e-01 4.620272817893172346e-01
-7.124219396501876855e-02 -1.124110318923818713e-01 5.071858653104118764e-01
-8.557350511326045073e-02 -1.082493993707613206e-01 4.658562554421837865e-01
-7.298024761956403705e-02 -1.123332612236831729e-01 5.025056718536811129e-01
-2.935580474490878666e-02 -1.043541577098887202e-01 4.642135964779492974e-01
-9.439048698929355941e-02 -8.419776191996131143e-02 4.600786208463497617e-01
-9.902548164669568165e-02 -1.079998382716621519e-01 4.872980027931601565e-01
-3.081957774763859764e-02 -1.185735150107848079e-01 5.263250268237820162e-01
-3.730126991582469187e-02 -1.152634207805181832e-01 5.389885602161111899e-01
-3.223208221674002394e-02 -8.946251832942438142e-02 4.450128675509857357e-01
1.114210516374705522e-02 -1.266264696601699657e-01 5.313108904596320903e-01
-8.057199589453055422e-02 -1.081292022177808981e-01 5.176583256558467960e-01
-5.985285281240924210e-02 -1.128192245234344165e-01 4.862227087686697979e-01
-3.833388262071128066e-02 -9.049829251991983736e-02 4.434302747949969703e-01
-6.175992040090011459e-02 -1.112683773126933728e-01 4.745215325000338713e-01
-3.026248729241686267e-02 -1.077678581478305336e-01 4.697059002242855441e-01
-4.282915752014358063e-02 -1.056593510248806239e-01 4.614250407673317622e-01
-1.007962893614639810e-01 -9.936873107782571990e-02 4.598116160193252422e-01
-9.114079004389977201e-02 -1.097461096440227879e-01 4.945568333618505230e-01
-4.244996469536949091e-02 -1.161341321724669723e-01 4.965076892292266675e-01
-3.691456883540187271e-04 -1.265676056605473943e-01 5.209515507946279600e-01
-2.798683760922532349e-02 -1.186564216664374866e-01 5.321760041447470835e-01
-2.826456125285739182e-02 -9.693210242613735372e-02 4.538179095952782904e-01
-5.402098986455040885e-02 -8.152004041995702943e-02 4.246685032397211623e-01
-4.035452016053084345e-02 -9.177346754103116178e-02 4.434431122721002594e-01
-4.118114454656909840e-02 -6.443740986451096386e-02 4.326828466517469995e-01
-5.713502206145440465e-02 -1.108367256208641349e-01 4.716053035361376655e-01
2.029859248278715039e-03 -9.342776381920533946e-02 4.527957439699289433e-01
-3.719466660255851820e-02 -7.309048315377952854e-02 4.346322811264725083e-01
-5.470673178657974034e-02 -1.021795875556208433e-01 4.270573331855037624e-01
-5.162635880788631754e-02 -7.479985677184267101e-02 4.268068938995987494e-01
-4.381662784022968132e-02 -3.400827048543959147e-02 4.349627422558173251e-01
-2.974427845440445403e-02 -1.149874460729377601e-01 4.861637515826996436e-01
-7.330368227870033560e-02 -1.043792568418294847e-01 4.441306596563626141e-01
-9.322109770133291118e-02 -1.082174725316604885e-01 4.715089152640507542e-01
-3.243426598048217147e-02 -9.015111175772942687e-02 4.455149437064782614e-01
-5.266455712530714733e-02 -1.147072126537727471e-01 5.211843864433692852e-01
-6.245575836566669842e-02 -1.121259339510055908e-01 4.825972252749133884e-01
-5.003327151852311055e-02 -1.113057289598247540e-01 4.759418868924996660e-01
-1.067844823116983477e-01 -1.042225574372912522e-01 4.782345162366212765e-01
-3.977576561953365814e-02 -7.938170152171843130e-02 4.351023457153541663e-01
-4.986190902290192628e-02 -1.155894915923395688e-01 5.170628904166884032e-01
-6.185184109949255077e-02 -1.110638920608132407e-01 5.282478292857620827e-01
-3.065964347775939486e-02 -1.176371542965107680e-01 4.962540711403702898e-01
-6.440678603755284337e-02 -1.031692843538834364e-01 4.263963391932620306e-01
-2.685503621623943835e-02 -1.198852608295309929e-01 5.059840289545560754e-01
-2.673032319274042806e-02 -1.200308042893955401e-01 5.204074479139718656e-01
1.592016194611641389e-03 -1.073615997934369432e-01 4.653075319703786072e-01
-3.297271850772025975e-02 -1.046161386783539121e-01 4.637629380940904711e-01
-3.986766345079360840e-02 -1.046704111293011163e-01 4.611126258549734236e-01
-1.557628086798630400e-02 -1.214648801904506109e-01 4.996599952117865007e-01
-1.184332286607574225e-02 -1.240264915346514923e-01 5.204372678974579225e-01
-4.866450669380607136e-02 -1.133651329716187650e-01 4.861184365495513360e-01
-8.900685634184654638e-03 -1.233307210574988294e-01 5.017887480413707468e-01
-1.337536515994798558e-02 -1.222170232365503567e-01 5.352818918948607507e-01
-5.054614693345545716e-03 -1.247056763761223153e-01 5.062378411388064325e-01
-4.799194424395557962e-02 -9.694836444562526800e-02 4.415162371947972120e-01
-9.273577995530293827e-02 -1.087522042312304149e-01 4.735281336821031695e-01
-2.184865497167963119e-02 -3.976294367773987315e-02 4.387374221560337295e-01
-9.324483266402228132e-02 -1.088965195736455727e-01 4.753314297475610961e-01
-5.288946501114635129e-02 -9.646329314598452165e-02 4.251342201509295537e-01
-7.271791075755121292e-02 -1.021120401871314365e-01 4.331318413052138716e-01
-3.588751369003580216e-02 -1.142735864993264377e-01 5.434827867000963098e-01
-8.715854057796797172e-02 -9.364428320060672051e-02 4.420176737502800046e-01
-8.202715561259497912e-02 -9.903728949633071321e-02 4.387756748573709564e-01
-1.068690304919799605e-01 -1.047161480408772133e-01 4.823750870597960927e-01
-8.932695182947619772e-02 -1.087091910697232239e-01 5.046796065383767349e-01
-4.295684356796040937e-02 -1.052172338439460175e-01 4.604668805140922361e-01
-1.081854253580207502e-02 -1.243602187083592686e-01 5.190519210677215778e-01
-1.016707438694511162e-01 -1.066449221888837173e-01 4.775848750836262924e-01
-2.235280389767301673e-02 -9.547398291556317973e-02 4.531785705055590419e-01
-9.319810517579217579e-02 -1.047708840830936516e-01 5.136876113719871517e-01
