-2.387566733115024931e-02 -8.588328815801510308e-02 4.447628921907886279e-01
-5.575720116513818714e-02 -7.855965254123591091e-02 4.247599644493657567e-01
-9.727487240960762394e-02 -1.082402609492476298e-01 4.786842087238997734e-01
-6.820821842209910668e-02 -1.113768569000133241e-01 5.203808645502626673e-01
3.025900618926397750e-03 -1.043299027524611927e-01 4.623220374511066155e-01
-5.440536964750006255e-02 -1.145023558432746308e-01 5.198777860886457658e-01
-2.460758853852908039e-04 -1.190796114828725216e-01 4.848241673707326949e-01
-1.037349783884648768e-01 -1.066371460470375981e-01 4.867231303971968348e-01
-4.976918427939835271e-02 -5.875542019077286543e-02 4.313509643165351903e-01
4.430869762175842878e-04 -9.110707788185380684e-02 4.511717802868339677e-01
-4.797994949034189993e-02 -1.149495977101584743e-01 4.936717815670854104e-01
-7.256198588258395282e-03 -9.857806746417963062e-02 4.556698177461006583e-01
1.570999531479988845e-02 -1.251200502524737468e-01 5.375215200771981117e-01
-6.376280565161802916e-02 -1.055070442533777159e-01 4.463955975182757885e-01
-1.521076783639373903e-02 -1.217028609215142221e-01 5.356268847439884517e-01
-2.367173528067716484e-03 -1.256912948080973480e-01 5.291122317218777127e-01
-5.572076299948400258e-02 -1.113385714089014794e-01 4.752703325717429483e-01
-1.901858161268426065e-02 -1.006320242606288939e-01 4.585674776809771647e-01
-2.712315129573348096e-02 -4.896545440437232583e-02 4.379410849730838717e-01
9.276300841451572826e-03 -1.227974588729290883e-01 4.983326096909662106e-01
-1.072960793917350358e-01 -1.042530703626272925e-01 4.991204869422345425e-01
-6.057035418748194650e-02 -1.125643356872442907e-01 4.850945543885418210e-01
-8.904321935715704683e-02 -1.051414956291901320e-01 4.575327622972993891e-01
5.582456559866222356e-03 -1.257601984100006620e-01 5.095083812923170141e-01
-2.042928868846305077e-02 -5.513381553683433661e-02 4.380125015839830827e-01
-7.065879845600017695e-02 -9.476012463678441800e-02 4.212909448799339041e-01
-8.978356204306711663e-02 -1.074240614997941656e-01 5.091124995023695865e-01
-2.688555470006415496e-02 -1.194269337555952243e-01 5.026790121888180529e-01
-8.536498395141206563e-02 -1.076370548777089708e-01 4.634998676162850884e-01
-5.877737895743877228e-02 -6.203580220876998147e-02 4.319572258873490278e-01
-6.447111683860413944e-02 -1.132662314552609351e-01 4.987508203508129734e-01
-2.949935057120885162e-02 -9.371382223737569073e-02 4.500465755948994118e-01
-6.521833735608109639e-02 -1.117809458931056099e-01 4.814502358566313811e-01
-3.619636973596732782e-02 -1.031056516092937886e-01 4.606201590097734888e-01
-7.843345185658809338e-02 -1.111596491655697377e-01 5.042389682632236747e-01
-7.811781424967084719e-02 -1.104089503863402988e-01 5.109574710522588603e-01
-4.070157703140031037e-03 -9.234610744131628579e-02 4.512797274581362705e-01
-4.980293760314530999e-02 -3.175674988814928407e-02 4.370624672224798224e-01
-8.334144889607116025e-02 -9.001951029361519863e-02 4.373099311745662354e-01
-5.279145570003000026e-02 -1.133029521394063877e-01 4.862410863951109330e-01
-1.104252321154146205e-01 -1.001880780919105346e-01 4.790079826250168149e-01
-7.297291605023126237e-03 -1.069142982674031045e-01 4.639284967999625642e-01
-7.625043344268894741e-02 -1.058712745750410439e-01 4.532624909731117757e-01
-6.675767343921394821e-03 -1.250204680527621792e-01 5.105573335524028478e-01
-4.947051882985321891e-02 -1.139174764281838531e-01 4.887771108055544711e-01
-1.545139090841932995e-02 -8.888770960267233789e-02 4.472894708518829754e-01
-1.174106672286724315e-02 -1.222824628308359918e-01 4.990857315069989752e-01
-7.870265703075718378e-02 -1.112462296024715053e-01 5.025359092282734030e-01
-7.526079890171327724e-02 -1.041980507744281886e-01 4.441071243594564288e-01
-3.876339238803064996e-02 -2.901088452306604254e-02 4.361010074971489736e-01
-8.769496918798777574e-02 -1.095708490361878007e-01 5.006628974831976997e-01
-5.178266235770809939e-02 -9.946019071031866887e-02 4.412093488692956367e-01
-1.042063905916375682e-01 -9.175605030272454554e-02 4.666900291401481771e-01
-1.425417891728848058e-02 -1.118639047330645675e-01 4.724967515582343958e-01
-7.494258410471402176e-02 -9.351869823967463857e-02 4.238327074097799629e-01
-7.916587526365530258e-02 -1.064630438109966798e-01 4.565761937136016413e-01
-2.983512415481284416e-02 -1.170783999960613719e-01 5.388449346087049729e-01
-9.215964883593669166e-02 -1.059502811854419885e-01 5.116507647336872022e-01
-6.522172231345760296e-02 -1.133938116351212999e-01 5.046594755453474024e-01
-8.086510901112625715e-02 -9.448678623695400125e-02 4.328669622133949901e-01
-5.504144571664865149e-02 -1.149321718888456356e-01 5.134661552451381672e-01
-7.649391383096414143e-02 -1.085299334603042898e-01 5.214775174454969742e-01
-1.733088007288480226e-02 -4.392710184333287193e-02 4.385134871098331222e-01
-7.530933859524112373e-02 -1.098269711710809921e-01 4.709961379957278704e-01
-2.508608566517364635e-02 -1.170330022186099050e-01 4.916803071207440645e-01
-1.228571473007919641e-02 -1.138853500742592895e-01 4.753568094582580894e-01
-8.593942830016744472e-02 -1.095183657823338569e-01 5.040963790416673751e-01
-5.117711875468960309e-02 -9.723877656190295371e-02 4.302967568906431173e-01
-5.672179196895432013e-02 -1.135852513562267962e-01 4.904475568896928261e-01
-4.997934027158936615e-02 -1.155055566542503159e-01 5.034565719250310156e-01
-4.306141270051761644e-02 -1.057121366238641114e-01 4.615933970692370769e-01
-9.361608163152200512e-02 -1.087197664697987648e-01 4.745692577376096621e-01
-4.773188497227323634e-02 -1.158830400693398877e-01 5.042781522037907971e-01
-7.605669599995554253e-02 -1.007268241004014020e-01 4.322167509248655559e-01
-7.419639340583814024e-02 -1.104868593923135772e-01 5.172015006688645000e-01
-7.586337258544519069e-02 -1.115703512065428643e-01 4.891554283105877809e-01
-4.728053586783141637e-02 -9.001259975283633363e-02 4.317675427796709431e-01
-2.208842927295411387e-02 -1.172746032832938518e-01 4.902344405932725357e-01
-4.350585809186259534e-02 -8.975774260044512565e-02 4.385482628616322320e-01
-2.013486833843083218e-02 -1.124853435027685922e-01 4.769834711275268702e-01
-5.418383108145104210e-02 -3.451147733100998899e-02 4.426781450225499848e-01
-4.072364045200115718e-02 -9.481356236081878164e-02 4.461353021154503828e-01
-6.758626585159238642e-02 -1.115783068509514087e-01 5.202594730135937651e-01
-6.514181961282099198e-02 -1.029084386667308698e-01 4.247684424170927731e-01
-2.891325165901868430e-02 -9.022610536293319827e-02 4.467854428105539344e-01
-7.368937725697749519e-02 -1.058949985816056150e-01 4.522966968231585394e-01
-7.718538614200821935e-02 -1.114434281314706371e-01 5.037595173440452267e-01
-3.454405857536085173e-02 -1.175565340815974830e-01 5.280189742268295294e-01
-9.724005414219114019e-02 -1.084113044813856119e-01 4.877824950214251776e-01
-1.929510725236057225e-02 -4.385660970508035994e-02 4.388067860701505007e-01
-3.964491252661993953e-02 -1.171058422380692882e-01 5.222122625300322785e-01
-4.692329101772071964e-02 -5.364612772468507762e-02 4.334933473058313336e-01
-2.306001480015157368e-02 -8.236082362177135630e-02 4.432341210175718693e-01
-2.413077602424537269e-02 -8.774729624104639358e-02 4.456916199969943593e-01
-3.420551104995367409e-02 -1.169564856246927409e-01 5.339633144637625506e-01
-3.281685400631861177e-02 -9.378895134049991533e-02 4.487649061075739132e-01
-8.838916480233666162e-02 -1.057866456808378985e-01 4.586466041163911322e-01
-1.442640299326025666e-02 -5.548605160791846014e-02 4.384550569554593880e-01
-3.751473521557738278e-02 -1.110573521102448391e-01 4.767800627699602112e-01
-7.550976621500249397e-02 -1.021823944940645212e-01 4.360841863862349177e-01
-3.977107758731280446e-02 -1.161343009926472103e-01 5.296897057117923024e-01
-2.779786006204174736e-02 -1.004052119675745425e-01 4.587616847412901988e-01
-1.051141918035622576e-02 -1.245334896663432278e-01 5.156170522518019883e-01
-8.907998271285332004e-02 -8.707210795608054388e-02 4.477786050119534345e-01
-9.578283620092213624e-02 -1.070547188469195277e-01 5.050844867988357745e-01
-6.328289222605905373e-02 -1.136975705417140603e-01 5.080497449350737105e-01
-6.910731308721705657e-02 -1.117964982565444743e-01 4.846446637093999588e-01
-6.008319440650760485e-02 -1.035904007420422185e-01 4.256867468773756769e-01
-9.362846330803810402e-02 -1.087378409571774646e-01 4.993551760889976543e-01
-3.857969522498560372e-02 -5.340626164321223002e-02 4.345266975794312980e-01
-8.434361273041635076e-02 -1.105640700764111972e-01 4.981129736702092359e-01
-5.853509511149961736e-02 -9.276301651674648263e-02 4.223123248591860723e-01
3.713349189179578590e-03 -1.243354665320017677e-01 5.016663769212537094e-01
-5.254199129117431005e-02 -9.823419505717213840e-02 4.264772773277188955e-01
-7.428403049405798986e-02 -1.120844062197381141e-01 5.030598532108098153e-01
-4.738848375119900092e-02 -7.103678037694075020e-02 4.294395614400755568e-01
-3.113236153388073552e-02 -1.190297318001245913e-01 5.072928320445236894e-01
-9.066559294754517051e-02 -8.592838330799563995e-02 4.515787512649067081e-01
-5.511272295415080985e-02 -1.147079724858360017e-01 5.164641116293926526e-01
-7.580858631657035052e-02 -1.044927537222104241e-01 4.464290920953248309e-01
-1.512551879522833383e-02 -5.564359114800947886e-02 4.384391525087987795e-01
-6.143278401338550521e-02 -1.117021008742478672e-01 4.784578005135908252e-01
-1.035283190498818701e-01 -1.067582173338378904e-01 4.891867387530277611e-01
-8.649597481770843199e-02 -8.976107202151555053e-02 4.427471815514200659e-01
3.473226235863259310e-03 -1.270854252297999865e-01 5.208253277467801423e-01
-4.750797191500009259e-02 -7.370286813148478611e-02 4.292302327879408685e-01
-2.655537457557699543e-02 -5.581863769167821204e-02 4.372408830510500222e-01
-1.136884325498359327e-02 -1.235053191724973243e-01 5.303198587714712531e-01
-5.766569857501662594e-02 -1.145298961292142287e-01 5.095918564234673820e-01
-2.686639664828829183e-02 -4.332082701302061856e-02 4.382330186953685702e-01
-7.223645768969427783e-02 -1.096302655403069148e-01 4.690427586502072810e-01
-1.762132001660747169e-02 -1.200690395784196202e-01 5.403690761083851379e-01
-1.777969198102982706e-02 -1.224378220602044681e-01 5.198640689747607846e-01
-6.678555775935645679e-03 -8.066388098770700676e-02 4.451077867891519713e-01
-4.433427241311528599e-02 -6.053074489990511314e-02 4.318995207698251848e-01
-6.653032985530561716e-02 -7.902211734884427574e-02 4.263768126627012212e-01
9.953603091484812884e-03 -1.266166021746970294e-01 5.245159965430453708e-01
-5.918425857169903881e-02 -1.142643325025732570e-01 5.060584221949686601e-01
-7.336886604386366750e-02 -1.069434653305599420e-01 4.568104277785113299e-01
-2.701947836713213674e-02 -1.197955637735675510e-01 5.221581526557049768e-01
-1.440530929139436679e-02 -1.234104560334800954e-01 5.186387967162334744e-01
-9.258655605158221114e-02 -1.062213975196708571e-01 4.634812612696354583e-01
-1.044630618884755460e-02 -9.427478122440308139e-02 4.515201258538704687e-01
-3.645570180854331571e-02 -1.165808339139362271e-01 5.328596038188085915e-01
-2.055490298943129721e-02 -8.060427269683040352e-02 4.428383907826500265e-01
-5.597536230861803463e-02 -9.490249709495901520e-02 4.228541772899090390e-01
-2.147087066153604770e-02 -1.047002315440437731e-01 4.637553050276985722e-01
-5.342504653183346303e-02 -4.333528585553419327e-02 4.362851895625596832e-01
-6.659777559167628924e-02 -1.032284540557332347e-01 4.295352346945487954e-01
-3.362321183424943349e-02 -1.103974959600632494e-01 4.747899314680477101e-01
-7.604423031279630707e-02 -1.033043358865504135e-01 4.407296643205521613e-01
-1.488049411761114930e-02 -8.521854534468312203e-02 4.457102652380503516e-01
-8.619199542531215397e-03 -1.243586851204154520e-01 5.083790121393735317e-01
-3.178018411869181631e-02 -4.887106226935513525e-02 4.366935923361828231e-01
-2.252560560602748924e-02 -5.032111140639655700e-02 4.384326556123457341e-01
-3.121392314737352069e-02 -7.009927396044052239e-02 4.370520780081605938e-01
-9.702238082597026969e-02 -9.287836448812458734e-02 4.550773708625144298e-01
-8.296231777622656289e-02 -1.098874062738743607e-01 5.065342335918848748e-01
-5.176130080673959494e-02 -1.151124557239110030e-01 4.993554491975332188e-01
-8.981772114661910889e-02 -1.099075233544199170e-01 4.945255392457336141e-01
3.654800890765140184e-03 -1.142199627704734710e-01 4.751057081648388247e-01
-5.479731477849793253e-02 -1.019529505351838700e-01 4.292810133106712001e-01
-2.521942588433371147e-03 -1.241384111588577921e-01 5.355897210688373988e-01
3.486076553051953471e-03 -1.191309579977228722e-01 4.854631796117391818e-01
-9.786453307439994809e-02 -1.046870567098666660e-01 5.096471684964887228e-01
-6.796712552906791771e-02 -1.111873206631172478e-01 4.772190725293084523e-01
-4.018005453038867025e-02 -8.405097635915004251e-02 4.372501688694893085e-01
-7.636068981184594706e-02 -1.109309354852438118e-01 4.783121952059405935e-01
-2.083604171321387644e-02 -1.024956884289766751e-01 4.609514027668427660e-01
-9.833327384724968243e-03 -6.046778048530278282e-02 4.388225275748102172e-01
-5.659917497053368503e-03 -1.120610602308522025e-01 4.708450549705652244e-01
-7.498804556381813424e-02 -1.069138320394202868e-01 4.571334112477122846e-01
-8.942202398619744641e-02 -1.092054456655196099e-01 5.010453329765269803e-01
-9.056626956852831256e-02 -1.095408851045203136e-01 4.782619228786970100e-01
-5.054510464238241851e-02 -1.145313085598988895e-01 4.926018823120502654e-01
-3.290174928271642762e-02 -1.071821582165904674e-01 4.681605590381378024e-01
-3.425180098622882668e-02 -1.122507337407694233e-01 4.793731018739352812e-01
-7.058438902013965122e-02 -8.570453711429372456e-02 4.226597166118057913e-01
-1.112864005845184967e-01 -9.910903998157710726e-02 4.790092397447322514e-01
-7.908889676386764416e-05 -1.264642251333588374e-01 5.152697820190186295e-01
8.331708932886214627e-03 -1.240830468784517027e-01 5.024651123628043337e-01
-6.672602436372677970e-02 -8.959396497825050654e-02 4.204087799551289306e-01
-5.687238461793034383e-02 -5.131391155746341942e-02 4.363622249357554939e-01
-7.317950298380997143e-02 -1.069632804567812318e-01 4.568763839324406217e-01
-9.097997371677717104e-02 -1.047193213904516196e-01 4.578681668370652158e-01
-5.364907754660268313e-02 -4.183454051681083363e-02 4.370613239951717244e-01
-5.137908029228560602e-02 -1.013771629426521853e-01 4.455352374138434879e-01
-1.028923946351243367e-02 -9.740130171838179418e-02 4.542697662620166499e-01
-5.591413166943245278e-02 -1.112984749429657694e-01 4.749624926520450985e-01
-1.973524419311920367e-02 -1.173343781817897113e-01 4.888549034721048625e-01
-7.985318667486217270e-02 -9.070590772326826701e-02 4.307660445574443830e-01
-1.074552695094246058e-01 -1.039118074035146611e-01 4.793506815095505136e-01
-1.102254957595966006e-01 -1.018219563325483551e-01 4.986457571608381434e-01
-5.928502501824146897e-02 -9.970967008467469805e-02 4.221833007655123593e-01
-9.738197877520461329e-03 -1.240399548803083479e-01 5.296812106203567794e-01
-3.802620294284544955e-02 -1.133646915052438087e-01 4.843139497286793049e-01
-8.147803339545273138e-02 -1.111063209601852175e-01 4.932111607354164318e-01
-3.857028533959443867e-02 -3.524983973643493890e-02 4.353296763453382012e-01
-3.237918859981626235e-02 -1.130056728732341531e-01 4.809623535405919137e-01
-1.606219745048999628e-02 -1.133946864537227761e-01 4.766278693678407397e-01
-3.716090579996752380e-02 -1.170065651810722751e-01 5.280943554807602247e-01
-3.962865709738697118e-02 -8.505518493152004755e-02 4.382497083595257581e-01
-3.608740916514904806e-02 -1.168393226547688735e-01 4.960247463662948442e-01
-6.017046718211049167e-02 -1.135061637090942349e-01 4.933567945463975812e-01
-9.804850373236402225e-03 -1.233928410952177673e-01 5.033915546841851718e-01
-2.148338251902137674e-02 -8.984854720377567772e-02 4.476742574775237626e-01
-5.657484698014036278e-02 -1.059277546079838844e-01 4.543141814565559988e-01
-9.119620235392722485e-02 -1.091883494558495427e-01 4.747350312124984373e-01
-4.782524338282456017e-02 -1.026962521225567582e-01 4.519841874345389421e-01
-7.540552243952915179e-02 -1.115556426861608885e-01 5.074638794310083467e-01
-2.938533680392493158e-02 -7.213727125067033452e-02 4.378018279545953240e-01
-7.795240369495903821e-02 -9.654808226433504725e-02 4.277492173189514357e-01
-2.633165737146268837e-02 -1.202756099789363958e-01 5.145117108394711147e-01
-4.142058911238972324e-02 -9.095118276368326093e-02 4.422539783691145088e-01
-6.790791320861222502e-02 -1.082831182927125602e-01 4.619955101949901888e-01
-2.429702609370641697e-02 -1.045069790952483924e-01 4.643104889733953855e-01
-5.328137368709198046e-02 -2.774844351151938004e-02 4.411878524645000410e-01
-5.165429874065786270e-02 -4.446458682383976069e-02 4.355316460011461888e-01
-1.894248962766774402e-02 -1.212256508777115882e-01 5.035675695081448522e-01
-1.982584110933665114e-02 -9.290443504663810359e-02 4.502082258848094098e-01
-1.830820242684521801e-02 -1.148623054703566820e-01 4.814709771463117627e-01
-1.247488077110664451e-02 -1.045935006495660596e-01 4.614386950449038682e-01
-5.503342042944800450e-02 -8.163972538277983193e-02 4.244751118034558734e-01
-4.470938113805304065e-02 -6.999227094625967704e-02 4.311312864455695282e-01
-2.118863569828185675e-02 -6.350763737132414377e-02 4.384447004995533637e-01
-3.520428310002907124e-02 -1.132668513023126766e-01 4.827914964613947979e-01
-5.988007927318083484e-02 -7.276545304929295244e-02 4.262570367729542342e-01
-5.307139046875834071e-02 -1.143665328958598515e-01 4.939323228495125506e-01
-5.811334589797885475e-03 -8.033550318389691414e-02 4.451373496381815786e-01
-1.802309648109030188e-02 -9.880464247367690134e-02 4.563909589679082113e-01
-1.794287138394814324e-02 -6.100008840242279740e-02 4.386407698646011544e-01
-6.001290211331996444e-03 -8.462414675048141044e-02 4.468715029063868305e-01
-9.007034810371183919e-02 -1.074457771219654578e-01 4.660122420118254505e-01
-2.602538778912395073e-02 -1.150791777334073118e-01 4.856102597960287315e-01
-6.487753355534156552e-02 -1.094887085716777925e-01 4.673034119047168589e-01
-5.794047343506198572e-02 -1.108513598459165972e-01 4.720596824215185783e-01
-5.599977921059900998e-02 -1.141606212503429446e-01 5.205894176368035531e-01
-7.785225324761628485e-02 -9.747251621114723374e-02 4.297611931769240168e-01
-9.379466359097254902e-03 -1.229381667966913116e-01 5.359287643079660990e-01
-6.151105667520949394e-02 -1.132295821436512251e-01 5.199651033120885613e-01
-1.489596709549967368e-02 -9.305047149801011497e-02 4.501155718945168416e-01
-7.133817528829067278e-02 -1.117307143819109283e-01 5.134553678182861569e-01
-1.451972568938502371e-02 -8.715787491269524900e-02 4.466706047170879712e-01
-9.600761361055672183e-02 -9.042958180780603927e-02 4.557087879701530175e-01
-3.580973779884646241e-02 -5.080831110412920709e-02 4.352836478076164695e-01
-4.732538732216756694e-02 -6.972315623368614823e-02 4.294594741171459673e-01
-8.035504605179558113e-02 -1.021799301905575164e-01 4.429005068945841006e-01
-5.415373668525656770e-02 -3.705539817305632949e-02 4.414548391649436021e-01
-4.668441060925309499e-02 -1.150001615984200531e-01 5.269256500949456301e-01
-6.529238680261385819e-02 -7.170234175245186747e-02 4.289047070325250899e-01
-5.125565959771897356e-02 -8.343289490855355928e-02 4.266036003589364634e-01
-6.543300047881962789e-02 -1.062635638893759948e-01 4.531269212111410649e-01
-8.721596806527029053e-03 -1.167410057734404177e-01 4.795914293927060479e-01
-3.384388538049926815e-02 -1.171620516766232467e-01 5.333052924102695824e-01
-8.420674783585584827e-03 -1.152805877623788722e-01 4.767692383319860894e-01
-9.985560980080332091e-03 -1.245531082947753665e-01 5.196829347992236725e-01
-6.586413071965381560e-02 -1.012941686551459275e-01 4.224180505762651916e-01
-1.843070798352240344e-02 -9.721095238953195161e-02 4.546646757586081389e-01
-1.072527483995853320e-01 -1.017168709132876131e-01 4.722805443351487109e-01
-7.130998580534976539e-02 -1.107216000545875739e-01 5.193928376480422271e-01
-2.165751741807315708e-02 -1.196676633315170435e-01 4.984863846625902650e-01
-2.857024853023263158e-02 -1.016084098772355171e-01 4.603535432075380740e-01
-3.777956940042943856e-02 -6.538621991961786339e-02 4.343160442866343396e-01
-1.074953966249639903e-01 -1.035238616327671252e-01 4.772636693151313114e-01
1.862584517118317379e-03 -9.486452544879858673e-02 4.537683112305643252e-01
-4.794501595870666322e-02 -6.731589462164741522e-02 4.293559778742337407e-01
-1.490198704314237704e-02 -6.227419139913090845e-02 4.390664416293527661e-01
-8.377423237181115534e-02 -1.106187121499326020e-01 4.985692106550475011e-01
-7.645335053752387588e-02 -1.110282426278580148e-01 5.097670755763225037e-01
-9.894219382180628394e-03 -1.006571952233799999e-01 4.571820389014698005e-01
-4.549581018847569797e-03 -9.284763173973777095e-02 4.515728044317859347e-01
-1.806138798568362319e-02 -5.329688662494894147e-02 4.383377088573175429e-01
-8.726620477814706067e-02 -1.102894979103518913e-01 4.822340334923788663e-01
-4.251949003684526995e-02 -4.933636097683244404e-02 4.341273196879180118e-01
-1.083636950892238326e-01 -1.038223178380872774e-01 4.831107709465265465e-01
-3.375116248489186746e-03 -1.008733814524750277e-01 4.583824726907498870e-01
-1.066851010182749415e-01 -1.011295806556426619e-01 4.697386695011381841e-01
-4.110229171962593436e-02 -1.028674187937257817e-01 4.571084449376638936e-01
-3.983447305371333458e-03 -1.121759698367153502e-01 4.709491011085588652e-01
-2.921099046752714118e-02 -1.189085679969523468e-01 5.267898270235703562e-01
-9.283808877111371372e-02 -9.146845469573143539e-02 4.504028135283746348e-01
7.713392757501650286e-03 -1.231555333241539513e-01 4.990003625915693797e-01
-7.602107389567225315e-02 -1.089612639336434569e-01 4.660363053534215538e-01
-1.289616901647193566e-02 -1.068050729946667388e-01 4.639560171090365559e-01
-1.061288683811149533e-02 -1.056392980902374074e-01 4.624164578249311819e-01
-7.364060757563989368e-02 -1.121778418377645387e-01 4.991166414298464638e-01
-1.207657640019142026e-02 -1.001730782990777613e-01 4.566794078740634699e-01
-4.272179036710210126e-02 -7.991773760467174581e-02 4.336270585670877198e-01
-1.885821307618840495e-02 -1.153551934079822677e-01 4.829256431875477151e-01
-3.999105371669342546e-02 -1.170867097306106941e-01 5.027281003571135720e-01
-3.067066207334279149e-02 -9.640764076026257789e-02 4.524253712981923803e-01
-3.795770683262691958e-02 -6.007870509825943839e-02 4.344993624897435791e-01
6.200229239425250269e-03 -1.255210155258026372e-01 5.085222247028129416e-01
-6.850101830869020914e-02 -8.529890934565417804e-02 4.222200676699071620e-01
-1.144452653045937435e-04 -9.366593325617007804e-02 4.527093665457552207e-01
-7.448200467899264779e-03 -7.166953614458393407e-02 4.417004960795836155e-01
-7.542181125015721965e-03 -8.113817923606389537e-02 4.451402049837372421e-01
-4.062527426204125616e-03 -1.207082708431224255e-01 4.895713319491217241e-01
-5.015087068957532757e-02 -6.433870980906804260e-02 4.291944071124756954e-01
-5.314503585749302123e-02 -9.636235916922515632e-02 4.255012597864190060e-01
-4.661056329387336383e-02 -1.161532325626692952e-01 5.065938916579126872e-01
-6.174379200491078579e-02 -1.092698409863975539e-01 4.663234189921477424e-01
-8.669529813416225472e-03 -1.003634872127492778e-01 4.569990028330252474e-01
-4.736739854056145477e-02 -1.037283542982256335e-01 4.542760766366334413e-01
-9.420525746953604951e-02 -1.072042221414795243e-01 4.686219151670348859e-01
-6.950359345036367931e-02 -7.915866492370278451e-02 4.274453481771814944e-01
-4.021558934029388632e-02 -1.066530326628237074e-01 4.646252911606455482e-01
-4.692935948018274461e-02 -1.000066557972172782e-01 4.473576590139133335e-01
-9.312750624000228072e-03 -1.090859403247730619e-01 4.667252206737504960e-01
-4.513449972549527997e-03 -7.992885030038660021e-02 4.451919433382126035e-01
-6.562725997378662801e-02 -9.063628991259928269e-02 4.205357727861850359e-01
-2.336304826428832471e-03 -1.246919895370919712e-01 5.338833938797301615e-01
-8.264649706031879095e-02 -1.109745864802661741e-01 4.837457060896940830e-01
1.301937926179537117e-03 -1.265829199868706290e-01 5.151101157944544262e-01
-8.679325567971701849e-02 -1.101903677087565508e-01 4.792201046035987066e-01
-8.361884436132646647e-02 -1.081415798694748825e-01 4.644579551530415573e-01
-8.535025698076308467e-03 -1.054565033056282797e-01 4.621219009650116005e-01
-7.629839793338799581e-02 -9.380855449098451926e-02 4.256505461812862268e-01
-8.924033712457571377e-02 -1.071663564222194304e-01 4.644315858296013122e-01
-1.068740885711623595e-01 -9.609971742985297383e-02 4.671406313795393728e-01
-2.744277642452800162e-02 -9.723782526637611556e-02 4.547639282565620333e-01
-2.395619533746668611e-02 -1.174112647540919568e-01 4.922368115836248115e-01
-6.422299566507824742e-02 -1.013315511973477689e-01 4.226189866183672206e-01
-7.151240267464752109e-02 -1.079266437765030034e-01 4.607683883948304748e-01
-5.640361041279225857e-02 -1.033622086943936924e-01 4.331694765969122396e-01
-1.075040150147257845e-01 -1.043252430547577103e-01 4.826579559289303489e-01
-3.539014563668917146e-02 -9.662026885167546153e-02 4.510059823598471240e-01
-7.800431849486826053e-02 -1.034404037365416890e-01 4.435320334475141846e-01
-4.503977935538294036e-02 -1.006137614263710039e-01 4.503155999529193099e-01
-1.178976930545112128e-02 -9.920622958951132164e-02 4.558284171102009452e-01
-3.323475735377184881e-02 -3.806846626450903492e-02 4.365728699677244862e-01
-3.481118040631495797e-02 -3.505960279089709308e-02 4.361597313007226639e-01
-2.626079086076113511e-02 -1.176823696541584585e-01 5.403602048963872528e-01
-5.612346917443949978e-02 -4.746600036660758581e-02 4.394970105720455988e-01
-5.913521186403002117e-02 -1.141258431075854313e-01 5.002312660424839130e-01
-4.824187185269118022e-02 -1.157255139405768685e-01 5.020994733671628740e-01
3.360649018729165195e-03 -1.230785606496712786e-01 4.971135504631709612e-01
-9.746944058845553871e-02 -1.083555353690096174e-01 4.895948985986847690e-01
-5.247071126623562703e-02 -8.393520846450246153e-02 4.256241918888010733e-01
-5.719910473809984228e-03 -1.219058134034289170e-01 4.939598693410735541e-01
-6.416208210502591380e-02 -1.095953540932167458e-01 4.676750048394133219e-01
5.933408213310595140e-04 -1.267443428506317971e-01 5.184029995628781640e-01
-2.936309867011624095e-02 -1.183683699207011553e-01 4.990491060303993698e-01
-6.534067004487188746e-02 -1.129623507251597686e-01 4.939167691651221714e-01
-2.788002259279205933e-02 -3.554134078504853772e-02 4.380279033118109622e-01
-6.708353782520773412e-02 -1.107381744860591044e-01 4.738057026615464795e-01
-7.783303955230401472e-02 -1.087199118223925176e-01 4.650329526250638335e-01
-7.598458221506369792e-02 -1.051939765521199555e-01 4.505078085996347959e-01
-5.702705930509636978e-03 -9.102128713875637378e-02 4.501652910072180824e-01
-5.860026080940083926e-02 -1.033814476252339215e-01 4.358132307358605351e-01
-7.728568871440404109e-02 -1.070455997287219768e-01 5.247432143928595361e-01
-6.868104118185887341e-02 -1.047587875792825446e-01 4.435769303925780616e-01
1.059984447791911290e-02 -1.262728898769183705e-01 5.342618899889834960e-01
4.246182926164037211e-03 -1.264744447742956468e-01 5.289128088030546904e-01
-7.829422511872623225e-02 -1.112507357968513660e-01 4.839402935628538405e-01
-5.691498396350153088e-02 -6.382391321625037472e-02 4.298465425143556118e-01
-3.121297883724452604e-02 -1.140857811851314629e-01 4.838700253644678817e-01
-3.505879915936603412e-04 -1.265751249759592134e-01 5.208840369031887407e-01
-1.352640126906604762e-02 -1.059717991642283585e-01 4.630890227173388718e-01
-1.259054127175436057e-02 -1.216052874605142164e-01 5.391083140848860200e-01
-3.640131981956831048e-02 -1.156236182639174548e-01 5.381475805549080782e-01
-1.292702149493197596e-02 -1.113387043982732028e-01 4.712148361213339687e-01
-7.036403458013687495e-02 -1.101753851861887318e-01 4.718447114273754406e-01
-7.838148734741333390e-02 -1.112423867908328562e-01 4.838188095150090517e-01
-6.156450538205385931e-02 -1.037769696206620046e-01 4.269138233599134025e-01
-5.442240843306249409e-02 -1.015126246566821766e-01 4.426493233531626492e-01
-7.276772157492855490e-04 -1.242204423614268194e-01 5.012284432000330137e-01
-4.372113751150288191e-03 -9.090887823061025164e-02 4.503568472161385006e-01
-3.387801549814248303e-02 -8.860312946281925783e-02 4.440775361496062668e-01
-1.071528189766087283e-02 -1.219474619182794872e-01 4.965567987425293373e-01
-9.339169556151150076e-02 -1.091048491324068531e-01 4.973872055409868653e-01
-3.990450286882444436e-02 -1.169051997192119968e-01 5.241542525573956723e-01
-7.518970493039794922e-02 -1.026765483396561013e-01 4.379883195486029002e-01
-8.703173341188100154e-02 -1.058485711378229915e-01 4.579098267583371906e-01
-5.488444204585835040e-02 -7.365780975525336449e-02 4.259974492064550478e-01
-1.230121226845385524e-02 -1.236160257831724063e-01 5.098521263557517225e-01
-5.061359994050165095e-02 -9.908299709556571411e-02 4.385957191885443973e-01
-6.240092785091441024e-02 -1.031872333157199950e-01 4.229049401007651809e-01
-3.209695433884025145e-02 -1.170619893672182055e-01 4.949278722128231944e-01
-1.401491941424068237e-02 -9.775748632254896431e-02 4.546161910687817609e-01
-1.489996798930565830e-02 -1.075695399912767886e-01 4.654414936670117631e-01
-5.909301232440038881e-02 -1.033769914054456091e-01 4.402626461651568679e-01
-5.834823818705630466e-02 -1.045526295702900732e-01 4.472892848396583521e-01
-4.920074045048814654e-02 -3.913594831943913166e-02 4.359726173027531071e-01
-3.734833737392719705e-02 -1.164322954679832683e-01 4.950990349662969248e-01
-2.791182272475760048e-02 -1.197918829958917325e-01 5.101860730064160521e-01
-9.267007081409063540e-02 -1.093160250671012523e-01 4.809719970429839342e-01
-1.629472851535683628e-03 -1.263502578123248399e-01 5.178704615728328964e-01
-8.415376485449461985e-02 -8.974922217216094178e-02 4.389647124015186308e-01
-8.490887226020706405e-04 -1.166344538149163973e-01 4.787138430422326341e-01
-6.558661841430900134e-03 -1.248730038973315387e-01 5.284865500923296988e-01
-6.999487030439723034e-02 -1.030168622581274229e-01 4.339045954506793312e-01
-3.684127902279261957e-02 -6.999635717884966635e-02 4.346775887300995400e-01
-2.486804827838927368e-02 -1.136884254808606248e-01 4.808644088559104746e-01
-7.803467287962406740e-02 -1.115656804320358242e-01 4.971101398546706185e-01
-4.852485545624485308e-02 -1.105943745697203495e-01 4.733184971569152077e-01
-8.193350449237692124e-02 -1.110186957152604209e-01 4.960734284878455802e-01
-7.452825147805960775e-03 -1.243849579046635706e-01 5.066060323520822362e-01
-4.840926284017253028e-02 -1.149379772790843496e-01 4.940558805364218542e-01
-8.244677212102802244e-02 -1.086085967994393359e-01 4.658889352207431500e-01
7.285031152603249453e-03 -1.266621230775502871e-01 5.165398232684154101e-01
-7.648765669187072153e-03 -1.228385763851910228e-01 4.977219124631425129e-01
-1.214546808484629099e-02 -1.163542258766473714e-01 4.805954441977859926e-01
-8.429277681852317960e-02 -8.849934325198778595e-02 4.398789147842608327e-01
-7.511665993641855610e-02 -1.118401848466289150e-01 4.929909148218036830e-01
-9.106407000181444833e-02 -1.066002712283917325e-01 4.636343300231834386e-01
-4.610742715313784906e-02 -1.111305161725341384e-01 4.767530439851537238e-01
-9.996637228508513384e-03 -1.126295799288267868e-01 4.723213972537824157e-01
-3.624339688295508816e-02 -4.401156128205882534e-02 4.354013599126685397e-01
-6.827608203192546410e-02 -1.032284467217066543e-01 4.327896571137781478e-01
-3.870681541476713589e-02 -1.171419216990841894e-01 5.242115593376974747e-01
-4.365201252290387690e-02 -1.123418284996308275e-01 4.820857932222685216e-01
-8.969968430878255683e-02 -1.098474692584101992e-01 4.956244403764808459e-01
-1.376345237330201671e-02 -1.136588537932462922e-01 4.757883934661943925e-01
-1.091492707693394459e-01 -1.032388675055245647e-01 4.847011043354048088e-01
-2.239743089580681010e-02 -4.597774971289384643e-02 4.387392302351198481e-01
-9.425027747849933080e-02 -1.081190691367005519e-01 5.023508840597795677e-01
-2.746643081486964053e-02 -6.204757513477717618e-02 4.371269937984035847e-01
-7.958164687872543164e-02 -1.072780780335167855e-01 4.598323018156529329e-01
-8.699280496802359874e-02 -1.075666816497007072e-01 4.645011233438120501e-01
-1.342275561659408631e-02 -8.446678615187305783e-02 4.456330379129545549e-01
-6.947483328763139065e-02 -1.087846149269792312e-01 4.644127066293633477e-01
-9.738891925270730388e-02 -1.067244719835207245e-01 4.701129146509184786e-01
-4.823667360142978172e-02 -3.061034120144777090e-02 4.363407989281522514e-01
-9.817056439154639436e-02 -1.009996784781044543e-01 4.582201689780808773e-01
-9.821601521102744925e-02 -1.077588040984406303e-01 4.976544385239288770e-01
-9.119611931910969957e-05 -8.812928895133900764e-02 4.494532909242092700e-01
-2.960630313126575569e-02 -7.480528379740096490e-02 4.385085413126729725e-01
-5.746887111914928542e-02 -1.145809307421779832e-01 5.132496593973061572e-01
6.564348102088756083e-03 -1.267501955313831141e-01 5.265254005082250499e-01
-2.633612079879171786e-02 -7.499302034541439899e-02 4.394297872330306109e-01
-3.369834898867612311e-02 -1.141472466437385980e-01 5.450651833327637696e-01
-5.224708333701304219e-02 -8.935043377399576325e-02 4.259553675410390206e-01
-2.809361787203143446e-02 -4.609469223912263797e-02 4.378912518720848301e-01
-2.611416960146399277e-02 -1.051884908081008596e-01 4.654548007926039288e-01
-1.230722855401682192e-02 -1.221678991348742471e-01 4.991360337463988661e-01
-5.891370344123796760e-02 -1.081275390626769001e-01 4.615973002692780325e-01
-2.210322203472076669e-02 -1.210394281457454341e-01 5.071580360300407264e-01
-6.242616707227641171e-02 -7.938704161476131671e-02 4.242459615290843367e-01
-4.579758424799010297e-02 -1.161978766063700153e-01 5.042440652191692019e-01
-6.028594723217694379e-02 -1.141086339234870101e-01 5.059365084100559962e-01
-7.193191494381186157e-02 -1.053225007621905879e-01 4.491900056742954561e-01
-1.654871327409809106e-02 -1.226957213311261202e-01 5.215290282532489829e-01
-3.676873955862621640e-02 -1.020786702944585095e-01 4.586929662346201364e-01
-9.509771224766649933e-02 -1.089567197491611017e-01 4.922025484986194410e-01
-1.228086530618959123e-02 -1.085634790416807882e-01 4.663129645104638343e-01
-3.164499625609835248e-02 -1.039501097204445640e-01 4.631502002689744657e-01
-4.341837441853538954e-02 -1.073908566684017157e-01 4.645022113597684355e-01
-1.070473621962370059e-01 -1.056028918178317511e-01 4.908784586159978258e-01
-1.105613023004598100e-01 -9.361496194976424989e-02 4.769302764706075948e-01
-5.502158439137925378e-02 -6.404495576034321958e-02 4.289409237197364111e-01
-2.332646258740600845e-02 -8.478271269560566648e-02 4.442746304743941388e-01
-1.765907986347209357e-02 -8.537575994784518674e-02 4.454005926722016673e-01
-2.927974106054758233e-02 -7.522721864594110464e-02 4.387525177473178828e-01
-6.345381051933408900e-02 -1.108690832585314534e-01 4.733267328772614579e-01
-1.064869183806251840e-01 -1.035155160317650508e-01 5.020220965011574776e-01
-1.001489079311376901e-01 -1.076623507637028687e-01 4.915793231567298638e-01
-6.511751086682301959e-02 -1.046325066683148897e-01 4.391030449696647908e-01
-1.957623442234636413e-03 -1.226411474443446642e-01 4.957588407179266410e-01
-7.420868312649286924e-02 -1.073605803369855338e-01 5.267376165751697092e-01
-5.302037529154455392e-02 -1.152238581699115416e-01 5.128692878324879745e-01
-6.170315600841699138e-02 -1.130968857585597925e-01 4.908979998566226910e-01
-8.212809480729575673e-02 -1.110636504260039958e-01 4.904703228009270610e-01
-9.657035141675228418e-02 -8.599609929102443318e-02 4.615414143630980903e-01
-1.124913796415052611e-02 -6.371321770650108240e-02 4.394831243084341699e-01
-6.226645519855951438e-02 -9.901415661458122519e-02 4.227376073097822706e-01
-6.409298427567854117e-02 -1.122811737045182473e-01 4.855905087588998081e-01
-9.251786344701203035e-02 -8.424526073303086060e-02 4.565571534325205683e-01
-5.207356126057686996e-02 -1.127069920956471488e-01 4.832367561642530451e-01
-9.267343990685730434e-03 -1.146879156167725372e-01 4.757915876739732819e-01
-1.418932838958430163e-02 -6.009011421947907383e-02 4.389289719537294299e-01
1.255766637419460617e-02 -1.265203885372031822e-01 5.246814145533923446e-01
-8.239605032174107668e-02 -1.011941477333299644e-01 4.426899810499130283e-01
-2.743127051056992033e-02 -1.198613906433910609e-01 5.201654852992740885e-01
-2.563003036367962617e-02 -1.182179296786495110e-01 4.961026686509573125e-01
-2.334186129343381391e-02 -9.643757954652033837e-02 4.542387161949494323e-01
-6.561308109033472426e-03 -1.085140077344580040e-01 4.657535013518990796e-01
-4.812122429567719517e-02 -4.310949185663476291e-02 4.347677877940832047e-01
-5.649039984211064874e-02 -9.021253607988233281e-02 4.225105407978341221e-01
-2.227228341949123377e-02 -4.255575111102671143e-02 4.388668928137099967e-01
-1.079857760780751907e-01 -1.030071085218219051e-01 4.778287650111879281e-01
-5.022587773363940133e-02 -9.549414234277096847e-02 4.294298884131789174e-01
-8.903520499996485371e-02 -1.097098822889599062e-01 4.772192020683161950e-01
1.466617238527381448e-02 -1.251626262708660509e-01 5.378471743752903933e-01
-4.882427436664731057e-02 -1.017377484837095752e-01 4.491162188517390241e-01
-2.607281980090182111e-03 -1.202305979056199209e-01 4.878293629944487897e-01
-2.119133106912336403e-02 -4.900050781968995350e-02 4.385753509788803961e-01
-2.158184166025998996e-02 -1.206312128331650524e-01 5.033606814475031221e-01
-9.486806089655701324e-02 -1.031754196762186132e-01 4.577897280631884058e-01
-8.350714058891874070e-02 -1.086448833220383520e-01 4.663571780901341057e-01
-8.429018519833847423e-02 -1.071212831623571671e-01 5.161992787716632725e-01
-6.787521412805494481e-02 -7.861338508084042553e-02 4.272472358835689987e-01
-6.179224090233927102e-02 -7.007915414229740070e-02 4.279055274923415642e-01
-3.927517299356462349e-02 -1.144025690044374599e-01 4.882788431864518719e-01
-6.046631604426137147e-02 -1.039341822961241946e-01 4.345061414001272215e-01
-9.929115922690964768e-02 -9.962016383590627244e-02 4.591944857894934007e-01
-4.378656499448752015e-02 -1.164340091617134532e-01 5.025306195019915156e-01
-4.530280694418328119e-02 -3.343822001029230634e-02 4.351890388133358156e-01
-3.558375997017397541e-02 -6.711294745806772877e-02 4.351264576665341277e-01
-7.713884720430286279e-02 -1.090978315076343158e-01 4.668707714426423849e-01
