-5.412144612445729530e-02 -1.014547163406897823e-01 4.372751745331872608e-01
-7.341462631405873407e-02 -1.018748136895982620e-01 4.305218650881520448e-01
-3.732365570889866618e-02 -4.256925618496747860e-02 4.348540603048731690e-01
-6.456508950770648014e-02 -1.121234277777016924e-01 4.832741065118387747e-01
-1.082328619504982492e-01 -1.035537214341013534e-01 4.995205554103336887e-01
-3.950222000926499610e-02 -1.172086060423430665e-01 5.214114343179450106e-01
-5.477450412307730693e-02 -1.142835754670486204e-01 5.214327102961053839e-01
-2.070250426910523467e-02 -1.217726409449336605e-01 5.130438773133335628e-01
-4.482888773373329416e-02 -4.603089515100834694e-02 4.340172719558773595e-01
-6.334111121395173682e-02 -1.117987400227678924e-01 4.784690485628358414e-01
-5.495160302806115921e-02 -1.034619749642996106e-01 4.459623669668377199e-01
-9.041785801827730007e-02 -1.053871145311856827e-01 5.141485488902028944e-01
-1.905889117338528671e-02 -1.176419716927476211e-01 4.888467618970208095e-01
-1.053357381551194363e-02 -1.243839635602938254e-01 5.134016106657348644e-01
-8.708255619308068185e-02 -1.094081912809451995e-01 5.030319206392876996e-01
-1.050924256020196457e-01 -1.007569352213513597e-01 4.646487162868845333e-01
-4.211344321915260619e-02 -1.170406758043364276e-01 5.160123112105624577e-01
-3.186056538175601610e-02 -6.588338170619725820e-02 4.361974601162409981e-01
-1.597959706359772594e-02 -1.220207858153641578e-01 5.316238968286037814e-01
-2.380773014286175632e-02 -1.190889665321947649e-01 4.978858741546670075e-01
-5.726059679534988706e-02 -1.107920915962171959e-01 5.322986299202574489e-01
-3.940265382261332744e-02 -1.175676806388102486e-01 5.130811921471777337e-01
-2.611016491267887339e-03 -1.254854508319105111e-01 5.086309303270130089e-01
-2.466666684348980260e-02 -7.089523932599453571e-02 4.385104056398207995e-01
-4.835509386580081476e-02 -1.021072042635910310e-01 4.496257646870084890e-01
-2.284600956662195120e-04 -1.172233910478222424e-01 4.799412654768695496e-01
-3.960110521660269167e-02 -1.043976441732669402e-01 4.603012793282618698e-01
-1.375875685805223736e-02 -9.361713621875547564e-02 4.504274210728507200e-01
-3.514441357194726667e-02 -3.463758608331838490e-02 4.359678912515576599e-01
-1.076883843133127037e-02 -9.122439921312062994e-02 4.491310060967797502e-01
-6.478077279603831895e-02 -1.131819041284054944e-01 5.142270942782581900e-01
-2.404011352686652794e-02 -1.151306474807340663e-01 4.846588326545716585e-01
-4.700480082176385771e-02 -1.121816853732481717e-01 4.801585465300369227e-01
-2.198274752998253395e-02 -1.149715788893197616e-01 4.832854791631311375e-01
-7.258794026342917094e-02 -9.184951785189293672e-02 4.208074480741589296e-01
-8.495472891280362454e-03 -1.231558187223398271e-01 4.998772598104478937e-01
-4.071043429230025018e-02 -5.156014944995743199e-02 4.339457506194172032e-01
-8.130927529671548581e-02 -9.420542302577852856e-02 4.327141750725352343e-01
-8.168866029303145648e-02 -1.103310668627708879e-01 5.051669935959118840e-01
-7.799095828765503086e-03 -1.187543294200241600e-01 4.839730171054856811e-01
-4.673804310524029559e-02 -1.137001928337862677e-01 4.871161886556312770e-01
-9.513058978314202496e-02 -1.049277367352114687e-01 4.606482433700530565e-01
-3.057666161249945197e-02 -5.560549142516765103e-02 4.359503181357457513e-01
-2.246758009277972229e-03 -9.508533683511107004e-02 4.533076940218356832e-01
-1.105117988831075676e-01 -1.016601447652344253e-01 4.944176005316611722e-01
-5.214112987662117976e-02 -1.126020221678663835e-01 4.819842001188915925e-01
-5.253350736938330184e-02 -9.375392426166688498e-02 4.248225442589936840e-01
-9.325951558621578541e-02 -1.013792119497082533e-01 4.530250655777327551e-01
1.172915777428019599e-02 -1.260320599726841850e-01 5.355487064978775580e-01
-6.948328947800529176e-03 -1.233234497844034883e-01 5.353251762213397935e-01
-5.800641069250071086e-02 -1.112129045237647829e-01 4.731074932253194754e-01
-9.684954916439728057e-02 -1.022416851427390416e-01 4.567251263750279899e-01
-7.834690831509914799e-02 -9.504233043286010318e-02 4.270359468447991746e-01
-2.180423686915227560e-02 -8.545799212497195985e-02 4.445231689311986978e-01
-2.184006749819067741e-02 -9.278768479477500497e-02 4.500606622010943636e-01
-2.824403753616144819e-03 -1.075949507907278252e-01 4.648502720114566222e-01
-1.177588833388657809e-03 -1.224860882545383833e-01 4.950379317270821034e-01
-4.658277501170821761e-02 -1.158862052951788041e-01 4.976134692258744052e-01
-7.887515319244896295e-02 -8.887038434421919153e-02 4.296319642210547629e-01
-1.663772433400847670e-02 -1.227511558072836712e-01 5.206218407858398400e-01
-6.072215721592002027e-03 -1.193302529184066263e-01 4.853931299398280275e-01
-1.257849482427691491e-02 -7.583100065787229394e-02 4.421489457174632154e-01
-3.446335880587617778e-02 -1.184261298701414222e-01 5.076258966056914623e-01
-5.578285743031232563e-02 -8.732002677736264151e-02 4.224165833521010827e-01
-4.491153222294266834e-02 -3.889682680506172802e-02 4.348712833207673545e-01
-1.025062177177044342e-01 -1.053708554748284260e-01 4.703578529752437953e-01
-1.074510944995189267e-02 -1.143735554463546911e-01 4.754289550564229638e-01
-2.234724869227044074e-03 -1.120767940432086107e-01 4.705312025201213166e-01
-2.103093712804758597e-02 -8.087443170113707558e-02 4.425894330717671243e-01
-4.902724513034970033e-02 -9.531373048172479823e-02 4.329154337225720184e-01
-7.995767768549044696e-02 -1.041271603822537806e-01 4.472801224796235653e-01
-2.766615908198868587e-03 -1.085837732709432069e-01 4.659798270820220689e-01
-6.917033468489661163e-02 -1.119232130666546338e-01 4.846020880439798617e-01
-5.405037787332499233e-02 -2.930131755357610196e-02 4.446154294371566507e-01
-5.115297586621971732e-02 -2.771341674675001018e-02 4.377040745162621427e-01
-5.882282686430476137e-02 -8.516675248724459024e-02 4.224918648480955885e-01
-7.438928457616740542e-02 -1.118702354871585064e-01 4.905590763549952937e-01
-1.032185359858032309e-01 -1.067747656799397787e-01 4.823702468037172619e-01
-9.738083019273782726e-02 -8.759193440632664918e-02 4.601798997939139380e-01
-2.687346089359154283e-02 -9.100267264030523218e-02 4.476226985999010588e-01
-1.027988868411411627e-01 -1.039734644747314501e-01 5.047894082784787351e-01
-3.938106477293507740e-02 -1.119553134740525757e-01 4.795346222423653160e-01
-1.219856761370024037e-02 -8.367165046325919509e-02 4.452409532393660774e-01
-7.727411041130827218e-02 -1.036948434524812002e-01 4.418834419454363283e-01
-2.456350550723855261e-02 -1.205080412358994491e-01 5.072624431163129666e-01
-9.015136105220400431e-02 -1.007061132489502076e-01 4.499074067898493068e-01
-7.654737228693345163e-02 -9.223317554726520595e-02 4.258312661278021438e-01
-1.045789301703310414e-01 -8.931616047216724141e-02 4.693918011386666311e-01
-8.794462182257253846e-03 -9.526817889073226076e-02 4.523277556589326287e-01
-3.140369059326120899e-02 -3.771084265689713527e-02 4.370464959406304972e-01
-4.749865431299241103e-02 -1.157674385009574008e-01 4.978975348942243917e-01
-3.256776445708449430e-02 -1.145198624231289902e-01 4.852799477727576249e-01
-5.659880370487645890e-02 -5.016114859177624175e-02 4.371371560291031910e-01
-9.826243326093594965e-02 -1.079150175139541035e-01 4.764672125137376923e-01
-4.597185039488591723e-02 -5.105126592469189789e-02 4.335816384029919646e-01
-4.538301525660669300e-02 -1.068928770218786212e-01 4.621680690743980024e-01
-2.549675084438161876e-02 -1.033106018248536040e-01 4.625411693240205624e-01
-7.784989772395890274e-03 -9.098815214869387935e-02 4.495171785137101472e-01
-5.668674831159555005e-02 -7.744129459950910288e-02 4.242037222985446943e-01
-7.617079117871898564e-02 -1.054436105024015996e-01 4.502694684401745140e-01
-8.457533792097510217e-02 -1.093164512971615404e-01 4.684615652708055689e-01
-2.099372885681402567e-02 -1.073825331001722339e-01 4.670595527447382600e-01
-1.224528316423308810e-02 -1.220842786531737140e-01 5.375469762039640775e-01
-3.226943087633352136e-02 -3.893973880994042180e-02 4.366974399650619953e-01
-5.535402060553590992e-02 -7.103295145316233794e-02 4.256878832321046024e-01
-1.103344647924780209e-01 -1.021596942115491069e-01 4.914487690999875258e-01
-6.709483923120239390e-02 -1.021008385497348264e-01 4.236041632921607181e-01
-5.988603947508159414e-02 -9.118578809475721969e-02 4.208019143683193186e-01
1.484405009830862092e-02 -1.256457300439819680e-01 5.356656105930254208e-01
-3.778833268782591515e-02 -6.848803501913745817e-02 4.337813001850525652e-01
-9.171016170991105887e-02 -9.696289535142089966e-02 4.477573579867999976e-01
-2.172172768764906586e-02 -9.724844255968277673e-02 4.547655428292157742e-01
-5.289534584377220822e-02 -1.057033805752245204e-01 4.551527850176464440e-01
-6.025838193263503839e-02 -1.043577656390548142e-01 4.421757789554846552e-01
-4.048460960331350111e-02 -1.169348363063870411e-01 5.224017629539721153e-01
-1.874548354100706235e-02 -4.442952321530528603e-02 4.386250351392905755e-01
-2.626149195298527195e-02 -7.767990145656081258e-02 4.400418515852584367e-01
-6.270461356471193626e-02 -1.130398161521002365e-01 4.902978137861421226e-01
-8.797063466100508988e-02 -1.104193049324616316e-01 4.879570085571934834e-01
-8.524993956954646235e-02 -1.085981077927532651e-01 4.659328307822314663e-01
-9.133615752122167808e-02 -8.857980381870281250e-02 4.498994577251293481e-01
-4.193412317867541150e-02 -1.170761574511486047e-01 5.146583974511177439e-01
-9.330500676771717739e-02 -1.088201378383335249e-01 4.991842813018269598e-01
-8.455912671304800787e-02 -1.100251528759569192e-01 4.727083609778995887e-01
-6.591442652960405324e-02 -7.389665313755829079e-02 4.286471242685760963e-01
-4.697531077312312037e-02 -6.666690595808108522e-02 4.294042444617229282e-01
-1.137564669960117458e-01 -9.629428421372672464e-02 4.843698659009810226e-01
-9.794472758002144286e-02 -8.683858298660357411e-02 4.619456620240641742e-01
-5.114304586148995385e-02 -1.149423722315378038e-01 5.214707419144476441e-01
-4.660722399128228860e-02 -9.966244640212376660e-02 4.461143069077866397e-01
-5.437527061112484156e-02 -1.018807779686469184e-01 4.290478947548319599e-01
-1.038897501155355840e-01 -8.978425620777627514e-02 4.677119190057547060e-01
-1.316770393495463563e-02 -1.227970943761634987e-01 5.040867943149180963e-01
-1.835814741787993726e-02 -5.479689700935692215e-02 4.380324824828070729e-01
-6.767229620923471967e-02 -1.068290316490725089e-01 4.546462609522906040e-01
-1.063314839124505570e-02 -9.654513621432321557e-02 4.533022278088978951e-01
-2.400068350471356443e-02 -1.041349204368766795e-01 4.634083527731654439e-01
-3.355675365257224096e-02 -8.800541871418643414e-02 4.432327844326295341e-01
-1.138754677855667065e-02 -1.239070193250859792e-01 5.102141576615771834e-01
-1.260108694358796563e-02 -9.038623365075998395e-02 4.483637518335421013e-01
-3.214158143282257185e-02 -5.618588815514151402e-02 4.356951951061532324e-01
-2.393630801817059339e-02 -4.884225867237287216e-02 4.382352456477775493e-01
-4.941300078754713027e-02 -9.884498077525677440e-02 4.427161717007913611e-01
-2.310045953565351140e-02 -4.481641582884323544e-02 4.386099289060854667e-01
-6.980929522899304886e-03 -1.051958347457543491e-01 4.618505879490170662e-01
-6.553637854264929286e-02 -1.119221030955975665e-01 4.817650432080995970e-01
-7.215678559987867557e-02 -1.117007616414890936e-01 4.831035762898166497e-01
-1.804939265526614434e-02 -1.226582362968674372e-01 5.139875076379364360e-01
-7.113942397695569020e-02 -1.101469718928020924e-01 4.705647269543214439e-01
-2.533445046749311508e-03 -1.224240874467474732e-01 4.948681755373910973e-01
-4.350122458435939921e-02 -7.922766142702115932e-02 4.320319463490012724e-01
-1.304990832606038771e-02 -1.238300260521993379e-01 5.182088445582451186e-01
-3.443819446365777026e-02 -1.185536703321499186e-01 5.130300515827372898e-01
-1.080078854626053408e-01 -1.037177075024867667e-01 4.786914595722652210e-01
4.635514129437519164e-03 -1.246458189748346629e-01 5.029252415507947660e-01
-5.968650272966019577e-02 -1.131136045214650165e-01 4.878570580502784582e-01
-9.319126738117229636e-02 -1.093669233490988241e-01 4.814470548336521882e-01
-5.768457493868951735e-02 -1.041368525009173929e-01 4.312891383633028486e-01
5.870167436102241912e-03 -1.264347628818411062e-01 5.300006220559307923e-01
-9.455631049103019325e-02 -8.519626048052683642e-02 4.585277410326514813e-01
-6.936002949675128260e-02 -1.124922498136130961e-01 4.922911516348473238e-01
-3.048308396849030294e-02 -1.086982888613092779e-01 4.709290482353247764e-01
-8.787135362569356567e-02 -1.101967395037933561e-01 4.794077541759605987e-01
-7.678067294825519258e-03 -1.252248502412290354e-01 5.174036513138674520e-01
-5.329078093130509841e-02 -4.009846794409859666e-02 4.369440585784323816e-01
-2.772067209564045218e-02 -1.162615472000686351e-01 4.896707896043880903e-01
-7.507256088344303746e-02 -1.067731402319739009e-01 4.553138691915736280e-01
-1.009877233792490225e-02 -7.564957352578184635e-02 4.424974387978925505e-01
-9.244391112282347722e-03 -1.246017973716373184e-01 5.124814163896024288e-01
-5.089170349017015788e-02 -1.152901085554300098e-01 5.180207441315606287e-01
-9.204181429876569231e-02 -1.078406675065789605e-01 5.051809355941592194e-01
-7.573049583600574564e-02 -9.171295498057868700e-02 4.244835720444259941e-01
-7.874286924159183687e-02 -9.555359969116626606e-02 4.290674935281946767e-01
-7.067421672890379647e-03 -1.244122138291606089e-01 5.060607446363697415e-01
-7.513753949549205335e-02 -1.089299041652727201e-01 5.214464535845599880e-01
-9.925174031760009008e-02 -1.080048189461981500e-01 4.835631585896257301e-01
-6.921121146479987385e-02 -1.009470134507786387e-01 4.237548306560982581e-01
-6.436907054109687609e-02 -8.450108766001043770e-02 4.216111491229589947e-01
-7.731664907318588909e-02 -9.835133780299383510e-02 4.287648054987148738e-01
3.784991118949059940e-03 -1.086286835497832504e-01 4.668977641238359899e-01
-5.234440769322638853e-02 -1.052699056281338058e-01 4.535060037697128399e-01
-4.567230715622676296e-02 -5.018566124547645807e-02 4.336432146085150707e-01
-1.290430666712727957e-04 -1.254982757809688376e-01 5.329667861955806885e-01
-3.815571581513141353e-02 -1.036357866471770278e-01 4.596528444177817585e-01
-2.965364228846649811e-02 -1.137620726247393910e-01 4.819491065725489687e-01
-6.777071364480201365e-02 -1.123328216317540651e-01 5.159785158448365605e-01
1.302032206449022650e-03 -1.151939515513741852e-01 4.762204608624364122e-01
-5.004530729345973289e-02 -1.137895020768988907e-01 4.875408816473400520e-01
-7.609659313824444771e-02 -1.048745973007549209e-01 4.476123138045213778e-01
-5.278502096400475990e-02 -1.102745344983854930e-01 4.692525120730020594e-01
-5.195671121256279640e-02 -1.005214644716905525e-01 4.374406488431936135e-01
-8.589727755209793092e-02 -9.110466025689104019e-02 4.407808921411771608e-01
-5.957877508825967783e-02 -1.043243364332782364e-01 4.297622830595832499e-01
-5.840687256780956876e-02 -1.038983120786186876e-01 4.424789433871764155e-01
-4.799424257369318964e-02 -1.160615692593404691e-01 5.120579944259099348e-01
-4.714901314937345461e-02 -9.877439737916471341e-02 4.444447222318323454e-01
-3.547628915796418453e-02 -3.132507841363185025e-02 4.363518641142310472e-01
-5.628961365300330644e-02 -5.975324095061963769e-02 4.307052074475374859e-01
-9.082803003610995241e-02 -9.195784692308572872e-02 4.468879557555622828e-01
-1.018594606488093524e-02 -1.215050315669390230e-01 4.939313399736829369e-01
-1.825193101383663918e-02 -1.044197232082115512e-01 4.620768343662817745e-01
-5.535371166842983220e-02 -5.038056913412152643e-02 4.345568704773906110e-01
-1.079595408441374610e-01 -9.693448396635905018e-02 4.689699866234440240e-01
-8.407011299488442724e-02 -8.891919314499846516e-02 4.387873923711566593e-01
-3.402337341263671211e-02 -6.514061871086293531e-02 4.352657051391801701e-01
-9.270206342636082286e-02 -1.094073696225775633e-01 4.793221377907840308e-01
-7.329135410153043984e-02 -1.043730426882180234e-01 4.422506565319496152e-01
-1.267720944562589734e-02 -1.225076020919795700e-01 5.011527854559988393e-01
-2.939940256985613259e-02 -1.175262295713058597e-01 4.950233305449300847e-01
-3.611921958061806853e-02 -1.109973981240747892e-01 4.757422458238341756e-01
-2.684782764838825747e-02 -9.157639894037157557e-02 4.482032795295737282e-01
-4.413308934106832671e-02 -1.113852184643045196e-01 4.776055653512585319e-01
-3.090819327562227548e-02 -3.377659099902143719e-02 4.371538128955835822e-01
-4.055362736474400764e-02 -8.552112574355286156e-02 4.372149554688143369e-01
-1.549670869002976910e-02 -4.857803582145753946e-02 4.382859731847006390e-01
-9.288853235179436729e-02 -9.148001888622787903e-02 4.498089846020046911e-01
-7.542405815915376177e-02 -1.120744354702172124e-01 4.992241676068038814e-01
-9.567096207046153419e-03 -1.227622496374131678e-01 5.366466516513855867e-01
-5.998529092751919700e-03 -7.821629567213163325e-02 4.441271480718149145e-01
-5.472193828640811719e-02 -8.961519774292023288e-02 4.230872603876192350e-01
-4.086112454615899864e-02 -1.061029944202569048e-01 4.627686719020194794e-01
-3.880209504427869355e-02 -8.245719971408363436e-02 4.368339759724532700e-01
-1.074840945896168437e-01 -1.055793235003959080e-01 4.897630288937802057e-01
-4.418342203093678089e-02 -8.423624968803600233e-02 4.328415753041288117e-01
-2.986324770087083955e-02 -1.137066850338226964e-01 4.818371969187209003e-01
-6.964905294268626534e-02 -9.993037384397392142e-02 4.231642817728283879e-01
4.099346378057142255e-03 -1.266061535006099414e-01 5.153456766330861694e-01
-2.732699500600967038e-04 -1.266209258987190944e-01 5.187807421674671682e-01
-6.410959816236834474e-02 -1.036985486235930815e-01 4.259407835516837437e-01
-2.984343401551463326e-02 -9.303311279075586471e-02 4.487387477193451324e-01
-2.831994451611477559e-02 -4.117621658668245421e-02 4.377660149216053842e-01
-3.751719664305080970e-02 -1.129129874555816343e-01 4.821166457480931533e-01
-3.456479083533485486e-02 -1.132861112070587262e-01 4.821417570847972844e-01
-4.010111398318622761e-02 -6.753458770433677649e-02 4.327218330357755494e-01
-3.028166890822812235e-02 -3.505325240532909670e-02 4.373079676200708477e-01
-2.909681174601951720e-02 -8.698141498167695496e-02 4.438855074931114530e-01
-8.503745488983263656e-02 -8.649009198399866538e-02 4.420423399076267579e-01
-3.978149298779980886e-02 -9.074549950030506851e-02 4.424601564316995028e-01
-1.770566258348336280e-02 -8.184855981462289820e-02 4.434162071507475877e-01
-4.024297265556192604e-02 -1.153186725032386284e-01 5.343291693257782304e-01
-5.064295554230029833e-02 -6.473086814848395820e-02 4.284680237994781260e-01
-8.837455313181526162e-02 -1.071043614066938682e-01 4.623228473804131822e-01
-9.762112104464167051e-02 -1.058453954283741227e-01 4.653644766513047593e-01
-1.081432098036790024e-01 -9.443588480891382253e-02 4.693978385819039811e-01
-3.293111692055190887e-02 -1.116408270416485299e-01 4.771242214322355402e-01
-5.467156349197953291e-02 -4.319541811652177765e-02 4.393244014479474324e-01
-7.957660435710425806e-02 -1.023670841673657156e-01 4.406009415072882351e-01
-4.844672079744449800e-02 -9.401627211448906896e-02 4.322032758276309061e-01
-4.711776237239224951e-02 -9.043058570678828845e-02 4.312984549002477630e-01
-8.906313206386162751e-02 -1.085512708882069854e-01 5.054050878130006419e-01
-1.443214055709517336e-02 -1.218125956918629654e-01 5.361762244996196580e-01
-8.418740143350279814e-02 -1.103895539724652625e-01 4.762302914883072558e-01
-2.396489490150616186e-02 -1.034240048183848043e-01 4.624329843488946823e-01
-8.917788694515654813e-02 -1.004562756932905893e-01 4.479929177751659775e-01
-8.514349551476606270e-02 -1.107898130990038199e-01 4.894469125074982774e-01
-5.363139708529179872e-02 -1.150426742176515749e-01 5.040016885884384124e-01
-8.197060864657099155e-02 -1.037451845924142468e-01 4.477692362272959747e-01
-7.314414307927336045e-02 -1.099384890449168067e-01 5.200016430954960134e-01
-3.907322570736979778e-02 -1.176153268178837114e-01 5.150216962539574395e-01
-9.906758818324540306e-02 -9.476998668569229511e-02 4.563610482513807964e-01
-2.843515573694067877e-02 -1.196987588718300827e-01 5.097855610476301758e-01
-8.786805805022274152e-02 -9.293623376940632341e-02 4.426565585457620799e-01
-7.410140127334728655e-02 -1.119130747102988349e-01 4.908167451974329576e-01
-8.207994161895659779e-02 -1.105868585938096227e-01 5.018842808206942507e-01
-5.279976696539388087e-02 -1.150983306541867174e-01 5.164237442249703935e-01
-2.868220001315540182e-02 -1.184544288855827326e-01 5.326249833892089391e-01
1.087981361684637466e-02 -1.266541952098462764e-01 5.294518779415736676e-01
-9.175636665614666718e-03 -9.844139564563367251e-02 4.549858869142939244e-01
-2.324843898269947709e-02 -4.977854752876758465e-02 4.382119517360326677e-01
-1.469116684340160232e-02 -1.111982671653249377e-01 4.712654034408139681e-01
-1.399311528967816382e-02 -1.230980868770824438e-01 5.260620413707240983e-01
-9.195450379298023003e-02 -1.097506366294145608e-01 4.891665109314644044e-01
-1.785869208982741874e-02 -5.368153837818900181e-02 4.381578038931754349e-01
-9.876025343109465227e-02 -1.070840558828740907e-01 4.724513066022213992e-01
-5.256615786520560385e-02 -6.162878001352017909e-02 4.296219564269252444e-01
-4.981949531054149366e-02 -1.059777059555237488e-01 4.576047737794182724e-01
-4.700973393613222528e-02 -9.250658130360793485e-02 4.339950265111878203e-01
-4.702716754516710063e-02 -1.155913479371586811e-01 4.961224865271031126e-01
-4.723665966195410987e-02 -7.413394680366261480e-02 4.287516717642005926e-01
-1.654550565177032376e-02 -1.212399401988814851e-01 4.994285839964643370e-01
-4.235385085505363051e-02 -1.133669398601380579e-01 4.847722009182713898e-01
-2.376384524783299330e-03 -1.223683755017180574e-01 4.946908726346834762e-01
-2.793628318758268128e-02 -5.932507416162539904e-02 4.365117822325476071e-01
7.686664932503384576e-03 -1.267522454864988268e-01 5.191210209435097589e-01
-6.453268299126943552e-02 -1.037880397621217254e-01 4.275452931296864767e-01
1.378047819249358930e-02 -1.255905307387552572e-01 5.363990952831484416e-01
-3.681920265572451167e-02 -1.107998001339930566e-01 4.753434285246050939e-01
-2.544949834255256019e-02 -1.191577747694301109e-01 5.332597230699592794e-01
-8.813349383343785370e-02 -1.057852003499307331e-01 4.574133985159629101e-01
-1.114031553209677942e-02 -1.144124799346245697e-01 4.756390359209675678e-01
-5.756307196404204102e-02 -1.126637639698630650e-01 5.261779022817593132e-01
-3.804469339873856049e-02 -1.164171586987440138e-01 5.311116861636681064e-01
-8.100007450903957962e-02 -1.112992957299838298e-01 4.896909109415246153e-01
-3.418189239404742508e-02 -1.105609360849980211e-01 4.746718886702632201e-01
-8.467263430443590366e-02 -1.009885574879760411e-01 4.431914752942596181e-01
-4.444392397595079564e-02 -6.407459116342713312e-02 4.309166339137603385e-01
-5.335506316428818147e-02 -2.504465960125747473e-02 4.427441220716734072e-01
-5.573774121707712054e-02 -1.092643215604702095e-01 4.654487987273669969e-01
-8.156694124326926976e-02 -9.346269268117460283e-02 4.326562082034406398e-01
-3.875014155109254149e-02 -1.041872524334660072e-01 4.603673701358290682e-01
-1.103115650033975881e-01 -9.385173350854461582e-02 4.753640713027409981e-01
-3.562799506709330571e-02 -5.158210507463736882e-02 4.350191733395498139e-01
-5.213444359284755136e-02 -1.041741353824730404e-01 4.509533427697777208e-01
-7.823267889194392144e-02 -1.010010146024838545e-01 4.353892937995245127e-01
-1.700916906880774182e-02 -6.712236931195869616e-02 4.394711581962700842e-01
-4.796577582942425366e-02 -1.160618580833723129e-01 5.111906717262940658e-01
-1.102664331651432850e-01 -1.019376081779742316e-01 4.846557660057143613e-01
-5.793318391479328894e-02 -1.135547884826644677e-01 4.902979529037618800e-01
-7.894305581809042682e-02 -1.114962987617234835e-01 4.944599550042169667e-01
-1.114202030016351735e-01 -9.861860425006381548e-02 4.770055993674897632e-01
-5.629262616479475956e-02 -1.130663148246622701e-01 5.255035908869569727e-01
-7.016300051412979744e-02 -1.046613327388399711e-01 4.416275822273175722e-01
-7.901714850649636801e-02 -1.095948696495183533e-01 4.682786884640981473e-01
-4.114944117598427070e-02 -9.151605805708924735e-02 4.422766059333579358e-01
-4.094027089325460306e-02 -1.154501043387148457e-01 5.324380563541755151e-01
-7.446523031926949310e-02 -1.042328800765134761e-01 4.420996056472805136e-01
-5.138534238386941594e-02 -1.093913115438224642e-01 4.662157534264305681e-01
-5.707465492617954522e-02 -9.107293380819031503e-02 4.214577019396206770e-01
-8.095063648893385810e-02 -1.111329293229221943e-01 4.816466726508407126e-01
-6.683063394731846019e-02 -1.125662250364518890e-01 5.157487934458218071e-01
-2.945922124127737379e-02 -1.190836432305922843e-01 5.239141333590343619e-01
-2.036079902813877837e-02 -4.469684126175162836e-02 4.386831496746229631e-01
-4.693847997340891420e-02 -1.156304108312157380e-01 4.962555716698830444e-01
-6.055209757133533238e-02 -1.135082142857998799e-01 5.190488203101918385e-01
1.867858065309980749e-03 -1.082215676367339757e-01 4.661097416634474300e-01
-6.153037188811124464e-02 -1.133666431663266638e-01 4.926853182778692664e-01
-4.450578654342469964e-02 -5.590711623324356311e-02 4.326728420376907969e-01
-5.566386463002252760e-02 -1.049499497376531476e-01 4.497902564330922281e-01
-2.614516436499316268e-02 -1.031779819039938123e-01 4.624715983510711004e-01
-1.982586705342472694e-02 -9.448017706572642282e-02 4.515316377575466222e-01
-1.215365802480551129e-02 -7.079302132671842773e-02 4.408396108718209416e-01
-1.466488132699066832e-02 -6.580689011052165416e-02 4.395014395871871815e-01
-6.351007719653564698e-02 -1.135032692817799643e-01 5.134763533318128514e-01
-1.062294799344707941e-01 -1.041617836393368413e-01 4.735725739065079765e-01
-8.021423792301725364e-02 -1.111948838443501952e-01 4.998768583806194044e-01
-8.414172103643612066e-02 -1.025327119600030479e-01 4.460254307786524208e-01
-7.157493737698969460e-02 -1.110091727615424850e-01 4.764190310753725899e-01
-2.060927352895332298e-02 -1.071243904694739874e-01 4.664434693238312946e-01
2.445279145082484944e-03 -1.268979926977635841e-01 5.181962931193319077e-01
-6.399097278321080884e-02 -1.114887244209346179e-01 4.755899576708069731e-01
-2.372290404439883482e-03 -1.251669486366646655e-01 5.069546850535335825e-01
-2.938852723805869191e-02 -9.551613718227325300e-02 4.515306864349064586e-01
-5.026882685883946045e-02 -1.048213167165169962e-01 4.541898825351183833e-01
-5.530437709628948512e-02 -1.136583245459006214e-01 5.237563160850314814e-01
-4.150229129341959783e-02 -1.171180687643260249e-01 5.174235954277371929e-01
-6.860407951311464636e-02 -1.066594197985413772e-01 4.539967009510447182e-01
1.728087545281084721e-03 -1.212073380574804904e-01 4.909134537808937937e-01
-1.563323954860659434e-02 -1.231416665190992743e-01 5.182282273153795416e-01
-9.257738586603886377e-02 -1.096068210101262541e-01 4.874108656653171057e-01
-6.300270826849993511e-02 -7.863037328379605950e-02 4.242323809200540530e-01
-8.316906716181416900e-03 -6.768565216071827095e-02 4.404703642909569838e-01
-7.822643785000635286e-02 -1.013169286787678897e-01 4.359317388887055111e-01
-6.432428318840253262e-03 -6.999221102612415701e-02 4.411044269491947722e-01
-3.836789190172944924e-02 -2.922432075851396152e-02 4.360127952606026036e-01
-5.013085374053505988e-02 -5.063809586555914621e-02 4.335245391244565427e-01
-8.976879566483088324e-02 -1.038878052312590394e-01 5.185720834441559512e-01
-4.754440898461093079e-02 -8.989402232692267347e-02 4.302174843991963815e-01
-3.032547949151195160e-02 -5.883390551220453457e-02 4.360685999822459524e-01
-6.382881372020964006e-02 -1.136570734539072564e-01 5.081219442900867245e-01
-7.589082905606639451e-02 -1.046554933000917453e-01 4.457344698478738487e-01
-7.196693998657315017e-02 -1.089969127098665558e-01 4.642271583699384419e-01
-5.938670769124417687e-02 -1.142545210083114882e-01 5.040517533963878583e-01
-3.268077633772353136e-02 -1.169535059700630847e-01 4.943404188005094402e-01
-4.803998020915953987e-02 -6.027855243089698389e-02 4.304737984640951698e-01
-8.787228445321794423e-02 -1.074545597291816229e-01 4.634372844329064378e-01
-6.473861782483854299e-02 -1.134866798694626616e-01 5.025640262405526304e-01
-2.797680782754629822e-02 -1.175492080451739918e-01 5.388144468876143733e-01
-3.986365546088864453e-02 -8.059664815828250506e-02 4.352693613761776104e-01
-3.320185596052890875e-03 -1.075814940980234502e-01 4.647841289209753146e-01
-3.754584838055104873e-02 -1.142301695298614944e-01 5.424301212451863030e-01
-2.346308304293046737e-02 -4.441914812089171188e-02 4.386142776789905273e-01
2.747053144593980187e-03 -1.189865761273331546e-01 4.847725291274863624e-01
-3.230151945320150486e-02 -1.100372437543826465e-01 4.736391921461396981e-01
-4.056603934650328258e-02 -5.714397101025253667e-02 4.334053336984011739e-01
-1.957225384855086972e-02 -5.639725377002948598e-02 4.378058291793191503e-01
-1.312130186460958720e-02 -9.459350463230696560e-02 4.513986085982389929e-01
-7.190006037831202235e-02 -1.124602018288348299e-01 5.028641743825051913e-01
-9.254654040094099227e-03 -5.665972779053483205e-02 4.381321619518478427e-01
-4.260770502976511664e-03 -1.254272432619753519e-01 5.099201929535860378e-01
-6.498499050752060135e-02 -7.828336908899242996e-02 4.258525490077518239e-01
-5.955821065112012341e-02 -1.137160459064589652e-01 5.188673722815861922e-01
-4.627662846773931971e-02 -7.443822041848432991e-02 4.294181582384495321e-01
-5.408674225858423751e-02 -1.128701488713386575e-01 4.837641668018367036e-01
-8.517878943002653302e-02 -1.108224457260907070e-01 4.864816590807000685e-01
-2.660791921964408922e-03 -9.588773061670567699e-02 4.538802237539760753e-01
-1.565639218658474927e-02 -6.168813993125347311e-02 4.387373216101946860e-01
-1.937134744482450419e-02 -7.919593706812737277e-02 4.421007135444578462e-01
-5.463764211365084583e-02 -4.115217509036377119e-02 4.404900881122330025e-01
-7.061017023859345043e-02 -1.025596118676480040e-01 4.306270362263808216e-01
-4.510236279236193996e-02 -1.160381375571167689e-01 5.221719412088576817e-01
-9.460432692759859763e-02 -9.339304795835498552e-02 4.516087708764010555e-01
-1.111612881195735321e-02 -1.223241262560486320e-01 4.983494852923169294e-01
-7.840926148690791075e-02 -1.054694055573130451e-01 4.515143921742009736e-01
1.981031063809323995e-03 -1.147764009857756146e-01 4.756225577688840689e-01
-1.280237514378693327e-02 -1.189479119583450872e-01 4.869087034297465144e-01
-1.107004028612328522e-01 -1.016979725696401660e-01 4.869920872141451640e-01
-2.274387389698922374e-02 -1.066134202956076915e-01 4.664628308875276574e-01
-2.321530548312758166e-02 -9.720136119046099421e-02 4.547633392850232159e-01
-1.476672138512252590e-02 -1.196465852597441287e-01 5.444686404855776374e-01
-4.373441514481393733e-02 -3.944169214804386231e-02 4.347327241568070266e-01
-7.590737115510841349e-02 -9.847525793833789010e-02 4.266620868508050335e-01
-8.794090628470296878e-02 -8.708884033891410581e-02 4.454773976156586879e-01
-3.401634375574397878e-02 -1.149853659375090209e-01 5.424832169466579090e-01
-1.001526296042008629e-01 -1.073252788905370292e-01 4.769910149401530575e-01
-6.633044181920759452e-02 -1.081989170429206865e-01 4.603475946257961637e-01
-1.049900184459302832e-01 -1.059706727088925021e-01 4.812826029165125918e-01
-7.061787044792873502e-02 -8.218418613207569001e-02 4.249326512718089588e-01
-5.859590885184215447e-02 -1.041479720399330899e-01 4.283833605721654725e-01
-1.045117347887170173e-01 -1.065453384347412602e-01 4.871625012529617327e-01
-5.049351075062118166e-02 -1.145864795601931885e-01 5.246291373678937386e-01
-8.880681956393647603e-02 -1.102870886286189817e-01 4.877510505704300003e-01
-8.236510930005692954e-02 -1.080410015061669671e-01 4.623799117082553756e-01
-8.755945875097152775e-02 -1.095873597213670031e-01 4.721741260921360483e-01
-8.832999573470301513e-02 -1.102045513516243108e-01 4.935095040448247983e-01
-9.281089461929661888e-02 -1.095074850041800191e-01 4.847504061949307053e-01
-5.747494482432245061e-02 -1.138818479855460836e-01 4.930744220103950859e-01
-5.444994902720108609e-02 -1.016082689779114895e-01 4.265875196873256670e-01
-6.950744919951307166e-02 -1.128157643712657671e-01 5.008404722299829581e-01
-3.968880066267237161e-02 -7.152074654648864216e-02 4.330614915728241976e-01
-2.558301468077508675e-02 -4.927387084273624623e-02 4.379454303184688313e-01
-6.348895681683658365e-02 -1.045429659996494481e-01 4.322722669256437444e-01
-3.209387174007698879e-02 -1.189599293167302174e-01 5.154769346169559840e-01
-5.215694901280845674e-02 -9.967197562552075618e-02 4.325992101315914717e-01
-3.092432529011822015e-02 -4.307888701810691501e-02 4.370284407642249791e-01
-2.347773975381552483e-02 -7.623004816140983853e-02 4.401729997322884058e-01
-8.457388250491437720e-02 -1.081634076801437777e-01 5.126685725766039203e-01
-9.511029652677682744e-02 -9.141872703016580559e-02 4.529634674788706739e-01
-1.205598066389941721e-02 -1.193046274351488995e-01 4.876181412354527178e-01
-3.402208762152349880e-02 -1.186546176528059521e-01 5.116167934144785212e-01
-6.510453967070871373e-02 -1.110123975112410899e-01 5.247089623921161738e-01
-3.152541172315893175e-02 -6.102844214478378437e-02 4.359298640881238973e-01
-6.533585808998354505e-02 -1.084099390415951825e-01 4.612199470190987971e-01
-4.318248545384928416e-02 -1.051261938594881262e-01 4.597048848754606842e-01
-8.164327897931669686e-02 -9.834429034878740261e-02 4.363958649405277890e-01
-2.093293453868891232e-03 -1.191761566162072711e-01 4.846863235270831849e-01
-5.079779590270396689e-02 -1.052989010544840148e-01 4.550121778753912216e-01
-7.709513904133619144e-02 -1.073488677647827794e-01 4.582306511869759236e-01
-5.781650539985105919e-02 -1.026763991524896336e-01 4.382588805059738357e-01
-5.933891646110617257e-02 -1.117772932044079903e-01 4.777599178250052092e-01
-2.903798815771128222e-02 -7.856325010507966833e-02 4.395655126921365619e-01
-4.176835731408168328e-02 -1.170663073143211746e-01 5.080514162658481547e-01
-4.436579456033813706e-02 -6.439144984155636964e-02 4.309019505482821200e-01
-8.666465926068042669e-02 -1.068622921984302004e-01 5.139828716004765097e-01
-3.893133777245972454e-02 -1.174594382064621245e-01 5.053113970951943479e-01
-5.035549714581470659e-02 -2.883615513209332112e-02 4.370282935082666631e-01
-3.790982533171953495e-02 -1.147030042080129514e-01 4.882357963373750720e-01
-5.662880107475366104e-02 -1.104052190163095637e-01 4.690160773664909244e-01
-1.930026874138426538e-02 -8.537730199870267878e-02 4.449159501089798852e-01
-5.008232099511610719e-02 -1.149953023040456157e-01 4.955826793843433609e-01
-2.752701995155183712e-02 -1.025789538912428578e-01 4.614876197684924519e-01
-1.958367067906770231e-02 -4.546741368782062503e-02 4.386504329569601013e-01
-1.073236945166789885e-01 -1.008108021613164929e-01 4.697896612990233867e-01
-3.861491762133617556e-02 -8.527158511501965743e-02 4.385042115086138503e-01
-9.074310530581039536e-02 -9.920864410690682922e-02 4.487114342171003578e-01
-5.334343596353174899e-02 -1.128523362289192838e-01 4.834535690084675874e-01
-9.838300553820852890e-02 -1.062842863299885698e-01 4.680994760902917329e-01
-7.767012425302415035e-02 -1.078699182488608577e-01 5.221145603928148970e-01
-6.269165782383558094e-02 -1.048705096932876918e-01 4.411354141595620892e-01
-9.763285566124166315e-02 -8.809410887507829191e-02 4.599150449050558587e-01
-8.641106882345013507e-02 -1.055713555385269647e-01 5.179023766260411055e-01
2.855249712550968558e-03 -1.268703069362998315e-01 5.179713445710962816e-01
-5.983632355075591686e-02 -8.998785368405022578e-02 4.209023730326668655e-01
-8.739253580183627135e-02 -8.450248451916783643e-02 4.474847429969258106e-01
-9.619016071754939862e-03 -9.176352015201372225e-02 4.496015129887417361e-01
-6.488650915222951565e-03 -9.814944464728785067e-02 4.551834873776192114e-01
-8.933314172192992342e-02 -1.023264822535221441e-01 4.508147346536870992e-01
-4.857860162567133322e-02 -9.639163196443982506e-02 4.378419514597327034e-01
-1.879544082835133550e-02 -8.727435027305818771e-02 4.458831222653337201e-01
-4.564548651501022791e-02 -7.978663979551575691e-02 4.301111039818619197e-01
-7.579196497306144031e-02 -1.119423336680561848e-01 5.014009211532790555e-01
-7.739646319969982480e-02 -1.117254498164273052e-01 5.002308216010705744e-01
-8.892476469317343868e-02 -1.102721066925924503e-01 4.897743989486222915e-01
-7.304727576559835733e-02 -1.103530970430285502e-01 4.725135736603231496e-01
-4.725555139310358421e-02 -4.645465021961599217e-02 4.339933253175544681e-01
-8.082408996668273560e-02 -8.914922603300300119e-02 4.327409347940802120e-01
-1.044512265700371922e-01 -9.032068006342874877e-02 4.680583470988901595e-01
-7.227079516775632151e-02 -1.118731129337075109e-01 4.868349662585317872e-01
-4.029016985445967730e-02 -1.147912226720964740e-01 4.894929700019997609e-01
-1.014491596333962423e-02 -1.187433878964453959e-01 4.850146564952710349e-01
-7.038830722678374174e-02 -8.528562803435237039e-02 4.223912448834897804e-01
-4.944680876652802343e-02 -8.428986842940434931e-02 4.272976920531436629e-01
-1.388524035863434973e-02 -1.208240130008282481e-01 4.942943204656854439e-01
-4.449754853723287412e-02 -8.365201546739733929e-02 4.320256899051729271e-01
-2.052605812878582903e-02 -5.571897575107118139e-02 4.377636412206099004e-01
-9.254521014983815852e-02 -1.096304106109010912e-01 4.914260709267946892e-01
-3.923320294567429756e-02 -1.059224361177341645e-01 4.632823410155407218e-01
-2.311947923995714277e-02 -5.382020723118664807e-02 4.377077550819211127e-01
-2.246093553694276934e-02 -1.207969231128011439e-01 5.246375125645296178e-01
-2.252595780001638570e-02 -1.198480666653595206e-01 4.993821546278408019e-01
-7.664379679159911973e-02 -9.916339431177438601e-02 4.285392468994805304e-01
-1.777121205681867150e-03 -1.256488074150356460e-01 5.310057486212278466e-01
-5.989779161590948892e-02 -1.142258569068802243e-01 5.072799071802847060e-01
-1.005237262081698363e-01 -1.058527768378432210e-01 4.692379997467954755e-01
-3.894595910990414356e-02 -3.288584365127526082e-02 4.353770434897916153e-01
-4.922414471719873535e-02 -9.674949086850943847e-02 4.362874911687022461e-01
-7.234297164636405153e-02 -1.123072018647965631e-01 5.045257376838374608e-01
-6.838455584993234637e-02 -1.087625692942498085e-01 4.630757497918078780e-01
1.265973793917374215e-03 -9.720846456302541239e-02 4.554897353401447524e-01
-2.126745437578921732e-02 -1.045583554198974280e-01 4.631894954051310465e-01
-1.059837956572771620e-02 -6.365412840191385369e-02 4.393061557534759798e-01
