-6.475542523196965716e-02 -1.137107149845531517e-01 5.101461907806267293e-01
-4.975135034468640416e-02 -3.905794168319906556e-02 4.360593931297651604e-01
-8.509033413817435054e-02 -1.054309549124103074e-01 4.532443553733107033e-01
-5.682508784439590371e-02 -1.005223473545516499e-01 4.212758959180595286e-01
-5.339817352356229091e-02 -2.496923486143797985e-02 4.431979272886503174e-01
-2.643879319822034762e-03 -1.262046217628819966e-01 5.177446505163193491e-01
-1.793432665501352996e-02 -7.567376116280974396e-02 4.410467750628542238e-01
-1.248218782805186541e-02 -8.273409339897477843e-02 4.446952932140907921e-01
-1.949874682755414756e-02 -6.330702293342935216e-02 4.384980093332578877e-01
-8.986160603928586288e-02 -1.098627772326736252e-01 4.985055305874646625e-01
-2.469711201892753338e-02 -1.191064580647083343e-01 4.981089079679769660e-01
-1.102317158034599592e-01 -1.025171577892636521e-01 4.920716821134245578e-01
-4.118351860357726685e-02 -1.088703232271444193e-01 4.676990024200842200e-01
-3.653209299583583258e-02 -9.193766802221239876e-02 4.447489734715379672e-01
-1.626601675680152195e-02 -1.229442270426573669e-01 5.117969182505367476e-01
-9.762919295149913301e-02 -1.088218970197855212e-01 4.904307460057884538e-01
-7.216114678373197061e-04 -1.244263057313568926e-01 5.017370927205837550e-01
8.338649222370229930e-03 -1.267720213131321438e-01 5.268650573544251259e-01
-6.386069123089357924e-02 -1.139023610427291333e-01 5.061933991910991804e-01
-6.556450922006168414e-02 -1.057424052501348549e-01 4.395096956603349314e-01
-4.564897056601412151e-02 -9.382719190621902072e-02 4.390885339301123791e-01
-8.408977080061890916e-03 -8.957178866931370109e-02 4.485582568665964498e-01
-5.007300846496099550e-02 -8.772037203809883443e-02 4.269039090726940988e-01
-2.953459511667547860e-02 -1.183768860661221084e-01 5.318169618719615910e-01
-8.581177021117929182e-02 -9.018435738720884109e-02 4.411851530377917663e-01
-4.596346956258798994e-02 -7.438994932586186215e-02 4.296271640757982624e-01
-6.896649041322976126e-02 -8.029976728253802876e-02 4.262680511668749950e-01
-3.061860089673416538e-02 -1.183035550801912195e-01 4.984905990794863961e-01
-3.747401582086096195e-02 -5.863054374762248500e-02 4.343822609622911557e-01
-5.077359449398382435e-02 -1.129691047283776090e-01 5.314461092228208727e-01
-9.172795483574859576e-02 -1.041246052420262275e-01 5.167110896463094072e-01
-9.008050993880338531e-02 -1.065099259569274454e-01 4.595115462379951721e-01
-1.948967426216354631e-02 -1.173246298843630131e-01 5.480506036923580293e-01
-8.405941672523047081e-02 -1.109577322322718301e-01 4.982835179561402317e-01
-8.322331391280349266e-02 -8.973912874988941579e-02 4.369987177960651392e-01
1.387873673506031386e-02 -1.253646866619156086e-01 5.374087402191844998e-01
-7.108171961855221099e-02 -9.063577862433319643e-02 4.196534315772706969e-01
-3.147062129201206454e-02 -1.054635926668401613e-01 4.647617113100322439e-01
1.321899762625178103e-02 -1.266146636899481981e-01 5.264326440408121366e-01
-2.967155510066323346e-03 -7.920789697513204441e-02 4.449647065147427916e-01
-7.774298617915831322e-02 -1.095100551982839537e-01 5.171132840669330211e-01
-9.505825142289690832e-02 -9.370834924850297842e-02 4.521940832984939762e-01
-5.644215205940809714e-03 -1.013266301562638916e-01 4.580731793711022015e-01
-9.436288481015663032e-02 -1.047509592953008578e-01 5.132080112365424718e-01
-1.021301522932699102e-01 -1.054716200783932106e-01 4.677748377667915181e-01
-9.690794766734085741e-02 -1.057199979713566995e-01 5.084929531768451749e-01
-1.065514001030059693e-01 -1.044092608504152142e-01 4.739302532217780639e-01
-6.087994104118651245e-02 -1.130797491927338638e-01 5.220003569056835824e-01
-9.151557382083047587e-02 -1.101511213633430547e-01 4.840311973564103143e-01
9.312958652426837902e-03 -1.267322246294174115e-01 5.275697785899855496e-01
-3.654297716287972786e-02 -1.158720703082928988e-01 4.912512134009505704e-01
-2.797070122177165372e-02 -9.173825261182488866e-02 4.478671275937032292e-01
2.145182952453584136e-03 -1.124243736796045612e-01 4.716000659593406197e-01
1.332029248971338883e-02 -1.252384161369477777e-01 5.381959578697447233e-01
-6.382693926713980948e-02 -1.138507973833299131e-01 5.111556134483147273e-01
-4.505064802799405022e-02 -9.639306186265463039e-02 4.430839074664343902e-01
-5.546366691505606739e-02 -1.045644995755475593e-01 4.305275506828422638e-01
-2.906545600180292580e-02 -9.233008382085654275e-02 4.480352936775447992e-01
-5.191684936851996557e-02 -8.751842871261129864e-02 4.253461087223834314e-01
-1.355680320234270951e-02 -6.679434842397774519e-02 4.398351142578929562e-01
-3.699877229700799380e-02 -1.129911734811573504e-01 4.815045304330065612e-01
-9.716980241680753597e-03 -6.798040427110034478e-02 4.404273808260643075e-01
-5.234048378053760692e-02 -2.562734743493435413e-02 4.395150979868480134e-01
-4.342894380169661644e-02 -7.507955930642670750e-02 4.316961521020373782e-01
-1.588773560176923519e-02 -7.648064024462598864e-02 4.416558454897535624e-01
-8.769669406236671461e-02 -1.099214988077247268e-01 4.711873961392620269e-01
-8.296279615179881495e-02 -1.026009425730577684e-01 4.439841795389719570e-01
-1.190501062061587005e-02 -1.216358563167855983e-01 4.958046930428928190e-01
-3.164403990216926171e-02 -1.167217086905807943e-01 5.385139428426658492e-01
-2.857770797630158205e-02 -1.188021235058541181e-01 5.297794490969396364e-01
-5.702581330983384766e-02 -1.045160523851479950e-01 4.249025964375013897e-01
-4.600510264741659167e-02 -1.114234540797487960e-01 4.759278930560510990e-01
-1.771004206216895277e-02 -1.057623638994368148e-01 4.634909703877755360e-01
-9.070717433876614166e-02 -1.030776390308192070e-01 5.198094927025727063e-01
-3.636376647379868654e-02 -1.177419180872829318e-01 5.015144688044882448e-01
-2.694450991787525340e-02 -1.198020411520691053e-01 5.231049678309327433e-01
3.574210979165787921e-03 -1.262924129571863785e-01 5.310415432654000956e-01
6.232729146511670204e-03 -1.265751215495553861e-01 5.285749765211334994e-01
-4.877040268753795454e-02 -1.159697966005837078e-01 5.046599394004165351e-01
-3.351140997184996057e-02 -1.164789884110713353e-01 5.373875799224394623e-01
-1.848910962951569661e-02 -1.223035746005924629e-01 5.196080854898689205e-01
-6.145998451123339812e-02 -1.070024720907407495e-01 4.521491139010895277e-01
-3.201340021195893393e-02 -1.183821968499708943e-01 5.003599258367324998e-01
-9.905692179463675487e-03 -1.246864191923700016e-01 5.171409367786898859e-01
-7.301868052335852566e-02 -1.125897858534565116e-01 4.972076082611275871e-01
-7.611638625596653385e-02 -1.071483930009850954e-01 4.548615046296549114e-01
-4.437276728024007466e-02 -1.161812307031081654e-01 5.236158786749971483e-01
-4.652226539883485418e-02 -1.162564824377049361e-01 5.024800140666914050e-01
-6.425590866241326186e-03 -1.252339861823141831e-01 5.245642600328361826e-01
-5.120046258773451597e-02 -1.119702546497087781e-01 4.765328687623930359e-01
-1.527259903670684371e-02 -1.135541775975824896e-01 4.760569280616285814e-01
-5.802353486132186267e-02 -1.140944871867259347e-01 5.195081319015779631e-01
-1.039361743300022539e-01 -1.070369261241228831e-01 4.835830728828234282e-01
-3.819853237646367869e-04 -1.261812566950524239e-01 5.119246129340875306e-01
-9.071560843394919221e-03 -7.241737815043595983e-02 4.415810799936177311e-01
-8.381908810600029180e-02 -1.101569190461520326e-01 4.700566992522439702e-01
-4.596467587438967523e-02 -7.454702257225238882e-02 4.296311829922597192e-01
-5.866451666308582918e-02 -1.140597615199529652e-01 5.187907786434997615e-01
-4.505292228411415800e-03 -1.199390289434170698e-01 4.867774487473074396e-01
-6.606574526417983984e-02 -1.002023355204755412e-01 4.210543463407046549e-01
-5.781906169084223557e-02 -1.146800800712725193e-01 5.034657400815063522e-01
-1.602699453531834101e-02 -1.120808430043022802e-01 4.735689235620291759e-01
-6.828699550464047141e-02 -1.041758398397611002e-01 4.313303568123028064e-01
-7.287869579500617923e-02 -1.076432566623948123e-01 4.560250591604277925e-01
-8.485558734026299454e-02 -9.932676918105683150e-02 4.417895430565862980e-01
-6.185571255390129308e-02 -8.449366783104268752e-02 4.223740197492458215e-01
-6.604339618294664815e-02 -1.074671188890758966e-01 4.548733803846825574e-01
-3.165827820729981423e-02 -8.491935132970941658e-02 4.416974567677263153e-01
-1.105470860804238648e-01 -1.022111987153958013e-01 4.870286211030799839e-01
-3.791107959285655582e-02 -8.029016028930938131e-02 4.362748292127786032e-01
-9.179259124756826427e-02 -9.392979513689098114e-02 4.481269703177102048e-01
-8.646964134275426928e-02 -8.486763683510648026e-02 4.463830376180928927e-01
-6.099722151919085428e-02 -8.436927893100169829e-02 4.226203969820241935e-01
-6.639662045169443874e-03 -1.183579891909601889e-01 4.820692615270798509e-01
-5.697907504906175868e-02 -1.147159041034192667e-01 4.997382972842959181e-01
-4.214365249246948553e-02 -9.476709246593451041e-02 4.440469249324431322e-01
-4.627187631224426861e-02 -1.109455731119405320e-01 4.736907516255912109e-01
-1.061408374224097201e-01 -1.049414714593707165e-01 4.753524119121224079e-01
-7.602465356535857699e-02 -1.118369349394371243e-01 4.826720380121730103e-01
-6.998210650176248104e-02 -1.123588583201001467e-01 4.858957182013299292e-01
-1.021028855704446542e-01 -8.894623336291913873e-02 4.665255261133382514e-01
-1.593849507539372642e-02 -1.229186940284858059e-01 5.214180598787150345e-01
-4.119059022158651218e-02 -1.029348150681646951e-01 4.557541295818966498e-01
-5.017331694579139911e-02 -8.879299971013046577e-02 4.268480244135032797e-01
-3.913132217036169314e-02 -1.038168528035808558e-01 4.586710335771942981e-01
-3.803324530844605367e-02 -8.882737284967220925e-02 4.414292100691571963e-01
-6.189208947112691261e-02 -9.340733648307894543e-02 4.202401873680586819e-01
-7.638232975858313435e-03 -1.252316600200079622e-01 5.176802395809757540e-01
-1.852150528027123738e-02 -1.148448482596203801e-01 4.811107672122855172e-01
-2.797346427388033158e-02 -4.489485515225082046e-02 4.377698923343208426e-01
-4.494088745299482102e-02 -1.164841428713784544e-01 5.184867273281095201e-01
-2.505515862553723411e-02 -1.178126366942942593e-01 4.936476272339168636e-01
-5.452777154015549937e-02 -4.666922372843008288e-02 4.354401461684636598e-01
-1.543647677941148780e-02 -9.993334669646675161e-02 4.565009176365227295e-01
-2.627246837705564039e-02 -8.015466803620953373e-02 4.411316927543436628e-01
-6.829997254706611509e-02 -1.124238564508719396e-01 5.158395527121140134e-01
-4.283092698155931133e-02 -1.088186053084366223e-01 4.667815115348467048e-01
-3.162544361086020578e-02 -8.068707717982295802e-02 4.394762627179816805e-01
-1.478903407753955415e-02 -8.604606708284691374e-02 4.457626973974974649e-01
-6.018968118996293609e-02 -1.048211777864493516e-01 4.252177873488180437e-01
-5.739010593432927743e-02 -6.311524179655632338e-02 4.302689911850611781e-01
-2.227770680678701348e-02 -1.207285861724611553e-01 5.263072905589695205e-01
-9.441551706060237470e-02 -1.096440157277690924e-01 4.872889381262880959e-01
-9.672287361194176203e-02 -9.625770519718929163e-02 4.537202309440706571e-01
-1.698894562984967771e-02 -7.237534412048567123e-02 4.404652077675836330e-01
-6.181985435341133539e-02 -1.141844664141562354e-01 5.066220929146465490e-01
2.259100931427104279e-03 -1.269713615874972779e-01 5.228941907818217549e-01
-1.021828226239343135e-01 -1.040401857766223154e-01 5.063919726011729683e-01
-1.571957418452923569e-02 -5.537075943158997066e-02 4.382645734860311504e-01
-3.998796370917416521e-02 -1.062680399132615305e-01 4.628803111474755205e-01
-5.939628025937497557e-02 -7.243002194063527521e-02 4.259476524431864974e-01
-1.049414072461236913e-01 -1.068387535357847029e-01 4.876207880074042711e-01
-6.516418976997442880e-02 -7.821646345895742758e-02 4.261907832505339999e-01
-2.275976853383974291e-02 -1.204101655012955602e-01 5.025822368598148460e-01
-3.493495772504286168e-02 -1.185503632322444378e-01 5.101112105883318648e-01
-2.588855411735773576e-02 -4.753225409641412963e-02 4.380530965380836084e-01
-4.402166910352691559e-02 -1.082665954399434638e-01 4.646628791637524847e-01
-1.104034394151003351e-01 -9.990239732009090212e-02 4.761571442101760754e-01
-5.401289452761723342e-02 -3.415661020906508166e-02 4.420743994107465547e-01
-1.903992761542980250e-02 -1.220883000826369497e-01 5.203434500729777756e-01
-1.730849988622622238e-02 -9.599706266710375524e-02 4.527638459098308199e-01
-9.961773839043627787e-02 -1.083007204402353513e-01 4.918233537531163657e-01
-8.680325208768650824e-02 -1.106657231107276290e-01 4.964563013433838101e-01
-3.975295409309061861e-02 -4.058536618686853920e-02 4.346726042753358832e-01
6.030432658113342535e-04 -1.251800463507510286e-01 5.050703069806631307e-01
-8.983258524307913273e-02 -1.105300644657639109e-01 4.893956383726853487e-01
-4.202672597282698652e-02 -9.394419260551487016e-02 4.434038230375826894e-01
-6.346301642674648247e-03 -1.184704835894337532e-01 4.823818774634067164e-01
-5.770571888483003176e-02 -1.144917346152841270e-01 5.161242950616019565e-01
1.327413012957298112e-02 -1.262879730914057697e-01 5.218571817756941789e-01
-5.901160440301040505e-02 -1.103714763256157805e-01 4.678670636760006163e-01
-6.011314150199736916e-02 -9.045426441931758710e-02 4.208726618594708646e-01
-9.201420330793742830e-02 -1.100642762980676287e-01 4.841045424822004728e-01
-3.045004869090315452e-02 -1.164989332234550035e-01 5.411196486653908622e-01
-7.596986688908971552e-02 -1.066037206150323852e-01 4.523220038291730916e-01
-9.430552743676259841e-02 -1.090955157229333561e-01 4.985104092791989849e-01
-4.418970304556830292e-02 -1.075606337068544111e-01 4.632295186403205811e-01
-6.565180405947355045e-03 -6.745638219158602011e-02 4.404203099221289941e-01
-5.442073927936893346e-02 -1.040305209854932578e-01 4.465590574310692729e-01
1.165633758610706144e-02 -1.264205586541859161e-01 5.207731825177218665e-01
-9.634389216387771737e-02 -1.081889189353223701e-01 4.717208043486360025e-01
-4.926988074425864977e-02 -3.805312776939547004e-02 4.361941280817218103e-01
-1.260188528555911125e-02 -9.902024692602204303e-02 4.553140623160677469e-01
-5.962550029737525431e-02 -1.118233864166914004e-01 4.745267604458737742e-01
-4.962371718030014062e-02 -9.895179086085309494e-02 4.386268015494241279e-01
-3.748317030505637915e-02 -6.094919228303797426e-02 4.342366239538604789e-01
-7.183317872685607286e-02 -1.127286468363672411e-01 4.971854462574804567e-01
-6.165645663706372653e-02 -1.114322081633282030e-01 5.274746282995675939e-01
-2.189741996521185272e-02 -3.942378151955541060e-02 4.386152291078412313e-01
-3.938329638239829872e-02 -1.049066861269635775e-01 4.607198702959062753e-01
-9.723852822699240173e-02 -1.077438009575964056e-01 4.708334537158563871e-01
-4.949826812790644043e-02 -1.053669622594531341e-01 4.549203614439496501e-01
-7.154720418268324666e-02 -1.127740802461752179e-01 5.032453685983067082e-01
-3.242858411983703254e-02 -4.812382836702599337e-02 4.362578422870029282e-01
-6.423614814267217255e-02 -1.121154065632022218e-01 4.783624191802166581e-01
-4.907668196820801770e-02 -8.671953782390967591e-02 4.276636581514750568e-01
-1.133849616546391166e-02 -9.942916327622589034e-02 4.556840614147402713e-01
-3.303140170443932128e-02 -4.069912447796844579e-02 4.363590621201538511e-01
-7.091528977761892005e-02 -1.111544676215980437e-01 4.743964054902029548e-01
-2.882148326690049320e-02 -9.356726306754380162e-02 4.493918231817114473e-01
-4.389663229204900964e-03 -1.257986805512953943e-01 5.152467563954633567e-01
-5.444854908864973919e-02 -1.062509268361763182e-01 4.538042699020324311e-01
-8.530924144107004947e-02 -9.857920476753931349e-02 4.417707540038882108e-01
-4.113835243746389106e-03 -1.150709689906202621e-01 4.754775974937245353e-01
-7.140619936518794765e-03 -7.495556315814703996e-02 4.427201648290308156e-01
-2.969464623160093103e-02 -3.369977204085040229e-02 4.374617202856886378e-01
-1.636484668698305611e-02 -1.170389712969942264e-01 4.846607462862461135e-01
-1.758688201644991074e-03 -1.260772079452720795e-01 5.134042079630267708e-01
-2.122987610183448698e-02 -1.216049034656402211e-01 5.123819916975717037e-01
-3.773817520315730922e-02 -1.047816747449773211e-01 4.614571976375740903e-01
-6.445340211204292347e-02 -1.137736774922855354e-01 5.089622012203841583e-01
-2.427297636937130257e-02 -1.104266592752541493e-01 4.734730653598108741e-01
-1.033655189156919979e-02 -9.450348573190610335e-02 4.513550146004670083e-01
-6.952150582651677596e-03 -8.405963871005579791e-02 4.462063213396709749e-01
-9.525850501230077871e-02 -1.074015634851962497e-01 4.671981313858776241e-01
-1.072566661780696533e-02 -1.230394905212982143e-01 5.344056489313885328e-01
-5.987977761853009728e-02 -1.073393815203499968e-01 4.553393905018605081e-01
-9.812400602682355699e-02 -1.060357072344088741e-01 4.647564980148343738e-01
-6.660349691425616891e-02 -1.135245337760048129e-01 5.032445415827145885e-01
-4.221251558688372818e-02 -1.157908389428311952e-01 5.287613306462106699e-01
-4.205152824591387728e-02 -1.167291257270392513e-01 5.224377502190242772e-01
-1.037756396199596837e-02 -1.195714245357670374e-01 4.874412780186351268e-01
-6.699162069203646111e-03 -8.493832310153627552e-02 4.466222589585641667e-01
-7.872352291803397240e-02 -1.118730199705901679e-01 4.943954141676006886e-01
5.456323203082143886e-03 -1.217820258368906700e-01 4.935331498451090981e-01
-3.026401384630026184e-02 -1.040853000746366497e-01 4.628339242943317888e-01
4.818435247555223969e-03 -1.244195517206646562e-01 5.019960371858620540e-01
-2.294818952733540182e-02 -1.023493311754590518e-01 4.607518144415306827e-01
-4.727727718955755665e-02 -7.586005476084883847e-02 4.286768076482814216e-01
-8.078815719471241219e-02 -9.833872545710871382e-02 4.340457744075580382e-01
-5.061752710385922921e-02 -1.002772545695443246e-01 4.382006586767356882e-01
-7.073848804711593830e-02 -1.124060993584183460e-01 4.879696160870279908e-01
-1.087286824077877134e-01 -1.041972407399703870e-01 4.846071734161163658e-01
-6.142275036654953890e-02 -1.141609424761999281e-01 5.012503011267820385e-01
-5.019045720638639491e-02 -1.034060083709451017e-01 4.494654646174899848e-01
4.709340007337295929e-03 -1.102698471641732902e-01 4.688966373651719532e-01
-6.506331872458880061e-02 -1.040826336974897820e-01 4.237786271583185993e-01
-6.212270718110461665e-02 -1.069333950817798473e-01 4.514977756331122194e-01
-5.630887964727390033e-02 -1.143760198141891143e-01 4.941746137262076344e-01
-2.761669525565373096e-02 -3.552348729709128849e-02 4.379710281474286648e-01
-1.079137150410555412e-01 -1.053128429071664429e-01 4.885584295020140577e-01
-8.603127105330715674e-02 -1.092280551077834255e-01 4.668257885626390102e-01
-3.792645318279218303e-02 -9.106083652082298807e-02 4.433189674356248777e-01
-8.115754759392104778e-02 -1.081116761291553430e-01 5.174004877413375114e-01
-3.934317858804530638e-02 -1.163370542667279822e-01 5.295978702994778020e-01
-4.966258123395049517e-02 -1.092358208239492118e-01 4.649905125340559886e-01
-2.887391977253243175e-02 -1.173832589110164887e-01 5.386808345869411596e-01
-6.038689927064424395e-02 -1.015433857219709413e-01 4.215704948843881916e-01
-5.444416225083225508e-02 -8.149708589502636935e-02 4.241503228886214782e-01
-9.972478940354725929e-02 -1.047449933681713491e-01 4.629640034789810898e-01
-1.211385357015587472e-02 -1.116361165041476478e-01 4.710684459473616359e-01
7.422710281269009717e-03 -1.262503191855048890e-01 5.329727498637049088e-01
-6.245021725106635752e-02 -1.052791589925947263e-01 4.296057050871284200e-01
-5.746086446945126991e-02 -1.116082141009603068e-01 5.304362371251296615e-01
-6.526148662999399497e-02 -1.058368542496040815e-01 4.405178239980092614e-01
-3.780548783266320101e-02 -1.172526889869096450e-01 4.995625770639463559e-01
-3.813528648528638487e-02 -9.970044329882725431e-02 4.524265037824483082e-01
-1.662887710524919849e-02 -5.333604073454048522e-02 4.383221908042334580e-01
-3.995444868524943710e-02 -9.815800534726414062e-02 4.490697747471590340e-01
-6.548023839780177380e-02 -1.136647826368152175e-01 5.043835355866722603e-01
-5.686962220874695884e-02 -8.015056870111307574e-02 4.237099064862477893e-01
-8.436544926239664122e-02 -1.110687221045886380e-01 4.957938344060017211e-01
-7.681239092408517766e-02 -1.066318683290980590e-01 4.528192980163491810e-01
-4.416800331744344908e-03 -1.245228363794800563e-01 5.327771263170605343e-01
1.141899699430187765e-02 -1.264372274208597213e-01 5.210745211768231799e-01
-2.175319877445063346e-02 -1.170163057421950842e-01 4.886180124030850003e-01
-5.711588537610689381e-02 -1.148707512803379405e-01 5.098463705513162081e-01
-7.122085251188703392e-02 -1.126072669044839297e-01 5.089316179173091204e-01
1.367513925706323984e-03 -1.234807194198136449e-01 4.979209202740897955e-01
-3.857321269322529916e-02 -1.118021821685241252e-01 4.781611399943002660e-01
-5.440488565385456082e-02 -1.100549488369517853e-01 4.667658942837946690e-01
-6.113255246770245288e-02 -1.126642083247218207e-01 4.824452113018322663e-01
-2.548045478484195492e-02 -1.140070478240601815e-01 4.811083872106485249e-01
-2.682627989119775250e-02 -9.130354831006584626e-02 4.476668539174543660e-01
-9.821734743311043292e-02 -1.058568105087833444e-01 5.066659603323756533e-01
-6.242071623855492690e-02 -7.097903966052369895e-02 4.273221428282397150e-01
-7.324575556434982648e-02 -8.799028455632189327e-02 4.226517177940058989e-01
-2.773972330616184673e-02 -7.433411597050439135e-02 4.384299922108462200e-01
-5.154871076336792202e-02 -1.146598123404100472e-01 5.237569805883602880e-01
-5.915719953822300148e-02 -6.302172889855012228e-02 4.315182889198758143e-01
-4.881618794381067938e-02 -1.134918066584418850e-01 4.849654106251683472e-01
-5.711534951289727602e-02 -1.119569279817826807e-01 4.760735958488275243e-01
-8.304226567231154377e-02 -1.107730379894100170e-01 4.742314662575976558e-01
-2.658047786356411424e-02 -7.608468522577353788e-02 4.392773245213660860e-01
-1.017590674324154870e-01 -1.014613626555138093e-01 4.603298158103041882e-01
-2.052008508813973203e-02 -1.156628633610787965e-01 4.838644729951425139e-01
-5.343145379084152102e-02 -1.016396194144832121e-01 4.305944599659010663e-01
-4.227150970258889556e-02 -1.170754155083874593e-01 5.071158989985062870e-01
-9.958961261630422390e-02 -1.053346375089459774e-01 4.640017165141333555e-01
-8.769342115668657400e-02 -8.869326478869593577e-02 4.446442295529842714e-01
-2.599800241474903642e-02 -1.196042487401130644e-01 5.016286022943331480e-01
-1.084914149786187498e-01 -1.032823715298668149e-01 5.008053909168157514e-01
7.855120494903425690e-03 -1.266874737174597809e-01 5.171976697990974259e-01
-1.034525110380399154e-01 -1.073085647898549821e-01 4.881649567992769612e-01
-4.100159119895591814e-02 -1.166524823889454471e-01 5.252246042982956498e-01
-8.119358372881628483e-03 -1.244181866832988204e-01 5.075031775488040298e-01
-5.442476375102704017e-02 -5.213805268199880188e-02 4.338290764321276471e-01
-5.213853911101302974e-02 -1.016353968449950906e-01 4.362843617684331043e-01
-2.389370553258570937e-02 -4.291590234732248210e-02 4.386864827623577767e-01
-2.848224346863589482e-02 -5.043141642931758817e-02 4.374200609581770371e-01
-3.366425989818860876e-02 -5.297893158586834683e-02 4.354296697945896355e-01
-3.613589794463184512e-02 -4.818360932232814559e-02 4.349798531382549349e-01
-5.704318810576067267e-02 -1.138990992731924445e-01 4.899729488416008083e-01
-7.981810667269566284e-02 -1.083001594560752401e-01 5.186863465426561071e-01
-3.616331028909810282e-03 -1.242054301762746948e-01 5.344790821125043889e-01
-9.617987854882617538e-02 -9.256028045414366190e-02 4.540860910105669057e-01
-1.513756934423196934e-02 -1.201942012530645837e-01 5.422921978223160799e-01
-1.317553914247661384e-02 -9.609688568100320516e-02 4.527744978694067113e-01
-7.005608306986560452e-02 -1.128756768700918262e-01 5.076922665905623244e-01
-1.591003185851499330e-02 -9.762403840398256594e-02 4.543450833658477794e-01
-3.942744336419355677e-02 -1.149520903864357929e-01 5.374427041815204031e-01
-1.979862622140145939e-02 -9.047458312007856940e-02 4.475923606016688483e-01
-9.165007302826401470e-02 -8.530093566714749831e-02 4.541556176464350281e-01
-1.047820321876761357e-01 -1.019497843612047344e-01 4.649662077932456561e-01
-3.868983908309444469e-02 -1.079464612296284071e-01 4.667265754814200474e-01
-7.838645655838258341e-02 -1.119223884335916325e-01 4.916755362749855029e-01
-5.545210945636660366e-02 -8.190393452102613658e-02 4.236783451789922772e-01
-1.005348016108433551e-01 -8.901914204909204542e-02 4.637211109293807310e-01
-2.141077821980102297e-02 -8.722617917531258480e-02 4.453753956937576697e-01
-1.828655393557280032e-02 -1.105020825858090555e-01 4.716225262686264963e-01
-2.572350475876000048e-02 -5.798917789138828549e-02 4.368742728621798355e-01
-9.480449032184948277e-02 -1.092521171048991963e-01 4.962196853042233347e-01
-6.708054046921919922e-02 -1.131291452328262725e-01 4.929949150755251197e-01
-2.032693214669582110e-02 -1.183738445452644367e-01 5.438442447197571195e-01
-1.062968902124232923e-01 -9.509880875868415018e-02 4.665890197825959818e-01
-9.028004067711788150e-02 -9.686176401956574089e-02 4.456567435225362583e-01
-1.734204433893502678e-02 -1.183293394630301754e-01 4.888326134615695318e-01
-4.234910359521791567e-02 -1.095357155671406180e-01 4.694745570134563617e-01
-3.339867380791251231e-03 -1.180572521415402115e-01 4.813923788381614943e-01
-7.999597309131559197e-02 -1.102764581738718969e-01 5.103660841817432292e-01
-6.641232923136632105e-02 -1.116966600197312337e-01 4.752969807702907556e-01
-4.754400676940916115e-02 -9.682372560630050917e-02 4.406491302794949827e-01
-3.681543637191338897e-02 -4.410485882202695718e-02 4.349543035374492939e-01
-4.604717963711419532e-02 -9.969921572286198630e-02 4.458855214783302157e-01
-2.626906502797295151e-02 -9.511252466932393346e-02 4.518914746646091052e-01
-6.841593668496653846e-02 -1.054905690654110162e-01 4.402281189790428484e-01
-2.668505392619037464e-02 -9.718767919021648050e-02 4.541959017562675061e-01
-5.803847051126113238e-02 -1.039284066093452419e-01 4.363216593373366869e-01
-6.141125912375633433e-02 -1.064329343187222082e-01 4.480819930218604141e-01
1.934817877541113043e-03 -1.265287143820660876e-01 5.283256970038008316e-01
-1.059052094762331225e-01 -9.652078184036463893e-02 4.647544706068768017e-01
-7.662950242078397922e-02 -1.063324631263127540e-01 4.515514928094424008e-01
-8.708292739936991309e-03 -1.128916986836332181e-01 4.720738323427964289e-01
-9.697532294494641547e-02 -9.570851852231510026e-02 4.540766203592106476e-01
-1.097517778419458412e-01 -1.030594428720249117e-01 4.989260602567262004e-01
-5.426480730711271544e-02 -1.147920663475383019e-01 5.188382483128419764e-01
-2.311837214749581232e-02 -1.180811330308728507e-01 5.423412528041245961e-01
-9.889196285181402202e-02 -1.056894678675757843e-01 4.644369470908856212e-01
-6.757183030201398266e-02 -9.883219502031020953e-02 4.204881986097964708e-01
-9.722341194127716302e-02 -1.050183676681799572e-01 5.099201891927734875e-01
-1.761158217570499285e-02 -1.098334697332903620e-01 4.699878874489679115e-01
-2.779581443445472769e-03 -1.235062638522922834e-01 4.985432199696702149e-01
5.593709075151382173e-03 -1.217103692127470826e-01 4.933799763082902801e-01
7.165291075734760325e-03 -1.219747226099972548e-01 4.947145706761094663e-01
-9.593884180259146244e-02 -1.076078320999298149e-01 4.688888188065236662e-01
-4.081541912117338244e-02 -7.761084900109474494e-02 4.332915840344178093e-01
-3.567954105518818253e-02 -1.090397683646980725e-01 4.706140886594247230e-01
-1.081240719484322793e-02 -1.083657248112660371e-01 4.654290794371848117e-01
-7.747936638035417267e-02 -9.790863323806539564e-02 4.262335234522162675e-01
-4.671079916310935665e-02 -1.152472135356216176e-01 4.928074999008837387e-01
-2.503640613990516101e-02 -4.865047068501700961e-02 4.381097646328896422e-01
-1.066571698620532305e-01 -1.053498337368732884e-01 4.974215826530355433e-01
4.392862299476201632e-03 -1.159583902887606904e-01 4.777141673320216553e-01
-5.614622166613336685e-02 -1.133769710406710984e-01 5.249628611610115403e-01
-5.572867118216706661e-02 -1.121639867843918503e-01 4.780348593400454704e-01
-4.792686246231725455e-02 -3.991901801038327119e-02 4.351971595525632730e-01
-1.198935490485272815e-02 -1.181811073347859703e-01 4.842054064775054290e-01
-6.204399038300679320e-02 -9.401862109321741656e-02 4.202852062486754914e-01
-1.877040202987910467e-02 -1.163976844155241996e-01 4.847803242702806159e-01
-1.077112867217518283e-01 -1.057097817076880913e-01 4.897166639633120933e-01
-3.981737370471551823e-02 -1.161779679667617610e-01 5.298507121508657658e-01
-2.544891671834401993e-03 -1.258898774343846505e-01 5.269201473819865589e-01
-8.698707607963707122e-03 -1.232902936087279244e-01 5.007541765678878987e-01
-6.157469929842328271e-02 -1.052794512657810877e-01 4.312831596859674765e-01
-4.814591176331241978e-02 -9.437980322152457469e-02 4.329216287228987436e-01
-4.557847054557974398e-02 -1.161637211907972506e-01 5.209392178692867637e-01
-6.428508074864522359e-02 -1.136013280209732246e-01 4.976165839807892843e-01
-6.439326615106534535e-02 -1.062041562330259536e-01 4.442485979158466991e-01
-9.573439413253724550e-02 -8.641788099697268744e-02 4.598167761760348360e-01
-5.416186574834334910e-02 -1.012098462925827280e-01 4.241667779533105920e-01
-9.781993906661489921e-03 -1.082371427637439515e-01 4.651349719037674579e-01
-1.858649602714768090e-02 -1.194058510034075454e-01 5.419172361409240191e-01
-2.675891474453841179e-02 -1.135147937511013505e-01 4.802069719484463595e-01
-4.245620116938615685e-02 -1.155486804581750543e-01 4.922616545020315204e-01
-2.996493102383263746e-02 -1.135903916251456286e-01 4.811461918775120639e-01
-1.303063038091242798e-02 -8.433199902829371930e-02 4.453209429971311528e-01
-3.766346827926766311e-02 -1.170728340608325480e-01 4.979420865850427980e-01
-3.678076756522851050e-03 -1.190145680377297233e-01 4.839363650376174997e-01
-7.544767977259376687e-03 -1.125095888004851580e-01 4.713406971012437108e-01
-5.316710718205866493e-02 -9.697384964369251681e-02 4.245499590729482908e-01
-7.380094815039006662e-02 -1.110958965506828183e-01 4.745023210404220038e-01
-2.567650672401710146e-02 -3.565853912303512674e-02 4.384405872332361453e-01
-2.618449579726070398e-02 -3.740784026479036101e-02 4.383252636746166053e-01
-3.798500601976163848e-02 -5.831358696569251265e-02 4.342388214047813721e-01
1.417916392622832217e-03 -1.268441206815557332e-01 5.176629484013567373e-01
-1.641125222620429952e-02 -9.438625114335484623e-02 4.509891095022862118e-01
-1.086348195956396145e-01 -1.047691484911379423e-01 4.917883898396844811e-01
-9.425757571946366542e-02 -1.096484941152296722e-01 4.911016026331023188e-01
-3.068384945062013758e-02 -5.970692234361201639e-02 4.360287175242340552e-01
-6.416177781831607085e-02 -1.046809382510894282e-01 4.263775457747097652e-01
-9.026618378087808425e-02 -9.718415293019402879e-02 4.457951114462543885e-01
-8.534245733258201405e-02 -1.024469137119626838e-01 4.450335179605307556e-01
-9.173537209465483858e-03 -1.229902908449063553e-01 5.358633114690397603e-01
-2.260671693181752831e-02 -1.170432471592882384e-01 4.892605056755219839e-01
-9.197283719152136994e-02 -1.101531164676473051e-01 4.902845970001885600e-01
-5.775589910352869200e-02 -1.049319935761382910e-01 4.272488684582587681e-01
-9.951235705510375062e-02 -1.057432212608893779e-01 4.653783761062966762e-01
-7.348797200931211915e-02 -1.094810221319360566e-01 4.643133437746317371e-01
-9.906349599385649851e-02 -1.065021258904352702e-01 5.037719246566685349e-01
-1.166091234296364430e-02 -9.804650032073015942e-02 4.544887446926703101e-01
-8.309042386937279256e-02 -1.021757997272799007e-01 4.430208231766539217e-01
4.188989733009138364e-03 -1.209451393738802810e-01 4.903752395482037230e-01
-1.070674951303936251e-01 -1.044764534178646287e-01 4.764348594696858341e-01
-5.880539219654840055e-02 -1.050864258187665795e-01 4.314773832939101661e-01
-4.633908818366019866e-02 -7.514987497920221082e-02 4.293663916545842896e-01
-4.580559863121681091e-02 -3.548975772582546595e-02 4.350896070075927491e-01
-5.402356454188961959e-02 -5.690434001166119055e-02 4.315808991586599919e-01
-4.108282245921168058e-02 -1.133217776865451387e-01 4.836393728229880784e-01
-1.093324485896160145e-02 -7.004630783711664199e-02 4.407750610595460583e-01
-8.890078842055747221e-02 -1.076460968948191321e-01 5.102943796254618691e-01
-3.708111300827658663e-02 -1.017336841209361686e-01 4.567261307549320137e-01
-7.872431767377653655e-02 -1.079216009166332063e-01 4.587136643838884420e-01
-2.401850767406944059e-02 -1.152434141678832791e-01 4.846632010061707740e-01
-7.455930150475927054e-02 -1.118019526873249431e-01 4.802023991725929419e-01
-3.308045188135419479e-02 -6.944339319726983151e-02 4.357851353927550409e-01
-1.993819073704956868e-02 -1.132883148780914895e-01 4.783492646597435893e-01
-4.592519750566069481e-02 -1.121778663413640909e-01 4.792518367160148451e-01
-9.826620872469850332e-02 -1.086592254119454204e-01 4.794490271080806276e-01
-6.909436034636551316e-02 -1.101540895130033171e-01 4.675390613951950214e-01
-8.644475227789950519e-03 -1.086449023526089852e-01 4.656185699333316164e-01
-1.091266736364662343e-01 -9.430851669167408802e-02 4.722226938420857056e-01
-8.278123111860614947e-02 -1.105658766805710930e-01 5.036315848789775229e-01
-2.628562397724682267e-02 -1.175988219416012476e-01 5.408759739732331706e-01
-1.011254735309830566e-01 -1.046339746941578053e-01 5.061812901395944531e-01
-4.236889678206924581e-02 -1.092749139486443449e-01 4.686028003421740529e-01
-2.641647852924794079e-02 -1.203178982102406785e-01 5.115204223112541637e-01
-8.274470839180246909e-03 -1.114816311030057683e-01 4.698069440721387990e-01
-3.806042703819752238e-02 -1.015516475601359603e-01 4.557050431763125520e-01
-5.421428342975138925e-02 -1.030271438951758378e-01 4.343450842785402943e-01
-8.833159519651699598e-02 -8.632631891857667217e-02 4.473547363797237275e-01
-6.640592860990708612e-02 -1.131930298672330915e-01 5.129649525875338290e-01
-9.504753506316484732e-03 -1.097176325865265867e-01 4.672880661524024259e-01
4.203741460133200193e-03 -1.102741148900310691e-01 4.687737621480723704e-01
-5.075596177722192792e-02 -8.527406653461147568e-02 4.262637379362529955e-01
-6.723501929103124775e-02 -1.132483317612045653e-01 4.963938178315785987e-01
-1.003996239080011815e-01 -1.055379757193677798e-01 4.657098891658644768e-01
-7.271179453586353036e-02 -1.125654476589559860e-01 4.945524127916001156e-01
-7.896014642717419374e-02 -1.106466304897887054e-01 5.097314450463392710e-01
-2.955137664494859873e-02 -1.167329481165464422e-01 5.410770275119147765e-01
-5.773618153724682789e-02 -1.071646477202185949e-01 4.553918286881815658e-01
-1.578150217808118802e-02 -1.224744872245646932e-01 5.277355938150111170e-01
-4.805563028562777339e-02 -6.598379802147441575e-02 4.290473428737705541e-01
-1.585880686364093961e-02 -5.401716095950796770e-02 4.383468849724613814e-01
-7.318064909399583928e-02 -1.090883354203732031e-01 5.237475978735718352e-01
-1.250344839479102573e-03 -1.203324310398591196e-01 4.877806658022562636e-01
-1.378435409367875439e-02 -9.986845681445841172e-02 4.560340118906228701e-01
-7.686176838511926679e-02 -1.053856710665861673e-01 4.472882821266501163e-01
-7.557424826992652223e-02 -1.111182939265758507e-01 4.749170030618464211e-01
-1.130770910601999052e-02 -8.967564289250994081e-02 4.481229657048729220e-01
-8.666935884327186743e-03 -8.389496641143458222e-02 4.458228739281440145e-01
-3.971647172968095774e-02 -3.581805711872501630e-02 4.348850869571924682e-01
5.123832436654958758e-03 -1.270384244879845803e-01 5.202810935985852092e-01
-2.966958836706531932e-02 -3.456287099205779256e-02 4.374711796867201685e-01
-8.179808793045985349e-02 -1.079094577090498469e-01 4.594708056477407876e-01
-8.165922367394194692e-02 -9.420359599458834332e-02 4.326616795409883309e-01
-5.278525956941033936e-02 -7.361635635122196208e-02 4.261941600596810820e-01
3.484130746662054013e-03 -1.264246834201270819e-01 5.295999384146758970e-01
-9.811322512444257959e-02 -9.655525737045188295e-02 4.552076961714712211e-01
-4.745831694015044400e-02 -1.157890850006467187e-01 5.212252549208326036e-01
-1.022169643324696148e-01 -1.061545444781264447e-01 4.713938069677981457e-01
-6.238311201808070111e-02 -1.141057688787120161e-01 5.094965631775855153e-01
-3.378961870909695520e-02 -3.856909035627909682e-02 4.361648634114156931e-01
-4.375492746379462672e-02 -8.192377582510194933e-02 4.321020687102958835e-01
-1.784320284431296574e-02 -5.473216283211020106e-02 4.381090430160644034e-01
-6.099956696692475366e-02 -1.136712227988068147e-01 5.184150565880546457e-01
-2.334230607974875291e-02 -1.090770430884648590e-01 4.705480157728886281e-01
-2.033852435869741918e-02 -1.075281571830836030e-01 4.668538829877568741e-01
-6.444187197541638434e-02 -1.118844770706436398e-01 4.754874010572581744e-01
-9.936263223007883727e-02 -1.001811095617081426e-01 4.586589870781043743e-01
-1.709878729522263177e-02 -7.980235121934904641e-02 4.425558558111145624e-01
1.238481089139709113e-04 -1.064521365909894823e-01 4.639012959317488916e-01
-2.338955186469760666e-02 -8.027165617046359836e-02 4.418407424131852168e-01
-1.059533203445802013e-01 -1.065066979383691853e-01 4.904641834183323668e-01
-7.609348165950802212e-02 -1.122892359045937344e-01 4.979486981040255333e-01
-4.223103155486335886e-02 -8.531352803595455836e-02 4.355742476062577362e-01
-8.343917379080419139e-02 -1.028318283025490831e-01 4.447994086793539692e-01
-6.460197688713131825e-02 -1.070919750799355363e-01 4.530257511988632912e-01
-4.819577775169519435e-02 -9.922001288836057586e-02 4.433501765944926065e-01
-9.493537923060177408e-02 -1.083697757808702589e-01 5.020490922910885168e-01
-5.874052466901122371e-02 -1.130344806540903996e-01 5.242376161497667164e-01
-4.357143227821848146e-03 -1.106147750930531332e-01 4.680329457178861730e-01
-2.109961385707281693e-03 -1.241097357360349679e-01 5.359964709284994466e-01
-4.905772082383970389e-02 -9.999357597551890298e-02 4.437204695140841704e-01
-4.762456669208938592e-02 -9.630358069817269995e-02 4.390336142691473320e-01
-1.965694689783219901e-02 -1.185452185235442851e-01 4.917472469135110713e-01
-1.576502370052059593e-02 -7.845050055547267420e-02 4.423130740199815447e-01
-6.442853245706134380e-02 -1.053449198704355522e-01 4.375785464630409516e-01
-1.998075642613195840e-02 -1.220163476011140724e-01 5.152270191455922133e-01
-9.835661535374820574e-02 -1.059180247223258792e-01 5.063337410447878995e-01
-5.870426833720513576e-02 -1.121408397074264429e-01 5.278120165196424907e-01
