-4.775714075689315580e-02 -2.970068160070658131e-02 4.360782231008922816e-01
-8.970694529991977972e-02 -1.051392082383520582e-01 5.148596392258532051e-01
-1.552360418269068364e-02 -4.801370237252529372e-02 4.382250730717374143e-01
-6.926833799465366426e-02 -1.030700953400181807e-01 4.339041042556736616e-01
-9.920463089038117355e-02 -9.970916621643910460e-02 4.582161973588792514e-01
-1.056079459008144456e-01 -1.030187026200625883e-01 5.030881676609390007e-01
-5.145949584010618000e-03 -1.255428171042147489e-01 5.136384047660337293e-01
-1.068963238883602340e-01 -1.005970174189264738e-01 4.684904544418506678e-01
-7.681256370553442292e-02 -1.090151329871598407e-01 5.186000281962296343e-01
-9.587538873406584172e-02 -1.079921117834532485e-01 4.994299387778045607e-01
-3.742906437756331889e-02 -8.018964661881675116e-02 4.367415345756904821e-01
-1.809924824141111860e-02 -1.221201690574637289e-01 5.233682404135236998e-01
-6.996583256652463834e-02 -1.108331993320485070e-01 4.763044656332186544e-01
-8.934834489159911020e-02 -1.099301155233281535e-01 4.864303056197913366e-01
-5.374050628111511074e-02 -9.390871102982580043e-02 4.236211573223870319e-01
-7.010170652759632748e-02 -8.267201244000656202e-02 4.238848642756049556e-01
-5.896183964621769941e-02 -1.130143120006882745e-01 4.877033960828368597e-01
-7.080145941564520984e-02 -8.322719772757378176e-02 4.237041209502043215e-01
-3.136164708819857982e-02 -1.046147775199809116e-01 4.639898879211318827e-01
-8.664270020740999501e-02 -1.101262996733376326e-01 4.962491957325776415e-01
-3.839357818213539469e-02 -1.172446886044579556e-01 5.018607103129680835e-01
-4.347747169888185187e-02 -1.075122423036988240e-01 4.643981954759098807e-01
-2.424197263446578945e-02 -1.206687834781606933e-01 5.098048131588126530e-01
-8.597184822473454002e-02 -1.027933083370706907e-01 4.482870980698642760e-01
-9.403859645953860369e-02 -1.090779162244657069e-01 4.917164749415626757e-01
-3.653907876912709102e-02 -1.037742772364839555e-01 4.611793102053222682e-01
-9.201062445481588553e-03 -1.233262308930128254e-01 5.339567763315009596e-01
-7.956135052798996021e-02 -9.919344366437400640e-02 4.348315607485070955e-01
-2.756070039680545009e-02 -7.364206827350845697e-02 4.383044328175578208e-01
-1.859022916573859277e-02 -6.730542071168975349e-02 4.392256760587181508e-01
-5.534870198831000343e-02 -9.651250201883880553e-02 4.222083852814398353e-01
-4.799024904142446674e-02 -1.128341390321253718e-01 4.837280446203087170e-01
-2.645055274257823025e-02 -7.689674569233166668e-02 4.396031972419172651e-01
-4.346457851762609848e-02 -4.134630708640157915e-02 4.344204022679484245e-01
-1.185889413834124995e-02 -1.177538052164806143e-01 4.831754487908766493e-01
-9.636889415476347642e-02 -1.075020595331721562e-01 5.016622007532094418e-01
-3.788652404941675322e-02 -6.243571652440961517e-02 4.338798050091031699e-01
-5.204763759876931961e-02 -9.782954461361480225e-02 4.264489728901292298e-01
-3.762195487604713673e-02 -1.063464918594917569e-01 4.650189542968304890e-01
-2.171364506951574402e-02 -1.106501593887902340e-01 4.734925373340510557e-01
-7.773078519067880277e-02 -9.559926107156484221e-02 4.258618880539951079e-01
4.682918279896343405e-05 -1.221860585276371425e-01 4.941231928617248470e-01
-1.398727069802474174e-02 -5.607701071894952149e-02 4.382732576579930761e-01
-6.906138131138142566e-02 -8.124776273745894228e-02 4.246566522404180422e-01
-6.228985793463486659e-02 -8.507673406408158834e-02 4.216287272345012882e-01
-1.534937576519866329e-02 -1.161568759278565760e-01 4.820357576285881351e-01
-2.880705691984679524e-03 -1.213395709101980913e-01 4.913715355522764172e-01
8.337336887356949083e-03 -1.264347944393027778e-01 5.321092974865767600e-01
-8.255021070552742701e-02 -9.171326833529062916e-02 4.341754841475895521e-01
-1.862543664369517918e-02 -1.196002066318212070e-01 5.411424449226944766e-01
-2.173620682629254924e-02 -1.160770597523480135e-01 4.860989884023007579e-01
-5.363185032194909413e-02 -8.543317479002135451e-02 4.237679846828465435e-01
-1.865363299201993480e-02 -1.127958394532306147e-01 4.766341452310852156e-01
-3.312041160517967264e-02 -1.187325624248722206e-01 5.139600833868996910e-01
-9.138179168376062839e-03 -9.654055752383255973e-02 4.532886988726159694e-01
-6.074295177479150515e-02 -1.061240168680682161e-01 4.522869046984467345e-01
-6.605008756835360761e-02 -8.065651614154958904e-02 4.239240872554843054e-01
-6.435160468637485254e-02 -1.040272299555923957e-01 4.359994299347672575e-01
-6.887556111052114960e-02 -8.660042226486450168e-02 4.204447776034265782e-01
-2.905571910162532689e-02 -1.182679959323900409e-01 5.334310839316507291e-01
-8.219762966661180170e-02 -1.109780506348267554e-01 4.866972384924873052e-01
-4.898035575341610354e-02 -1.027266541069362243e-01 4.507948173523776414e-01
-2.162227035266389014e-02 -1.154924599587692918e-01 4.842549189246571073e-01
-1.914477963859425799e-03 -8.447237145653251067e-02 4.472397594495409745e-01
-1.327571724293342970e-02 -1.236264271097172046e-01 5.217027656356894028e-01
-1.007082856366654372e-01 -9.442371389633345824e-02 4.584104967825428645e-01
-2.750131866375562714e-02 -1.099022573463311753e-01 4.732889428600281501e-01
-3.640104614595214561e-02 -1.115965307424278546e-01 4.779368377113145661e-01
-1.628672033987786649e-02 -1.230595808523568258e-01 5.135869038309738288e-01
-1.769487160656933039e-02 -1.188655700068823595e-01 4.906771624756046113e-01
-7.956002952460478062e-02 -1.050283941874170651e-01 4.514895300372107623e-01
-7.177903235478451383e-02 -8.935502447110217628e-02 4.200360069355990600e-01
-6.557153364503880144e-02 -1.031220021493963468e-01 4.279895068434320105e-01
-1.047334283416830325e-01 -9.461560775583256755e-02 4.634597236458270486e-01
-2.136744584307842532e-02 -1.010047634882174084e-01 4.591133761154960191e-01
-5.497454518595026179e-02 -1.148742347396284474e-01 5.113175573433411669e-01
-6.590025167022382779e-02 -1.132033174357622435e-01 5.034344936388449598e-01
-5.453814155224785687e-02 -1.040037216287288541e-01 4.491702510035446849e-01
6.184310590537627633e-05 -1.264255529992754923e-01 5.267545512224719451e-01
-2.974085675216324096e-02 -6.049768460466980330e-02 4.361672318497459289e-01
-9.558082218185515178e-02 -1.025233720769107293e-01 4.565161710114037374e-01
-8.161959691446961374e-02 -1.103155534928805803e-01 4.759591280220683562e-01
-2.986847030175655143e-02 -1.192696594544947475e-01 5.196117743909316466e-01
-1.747881141496031299e-02 -1.094611280866826797e-01 4.694399617417662762e-01
-6.215559405666040704e-02 -1.033981655436947422e-01 4.246664121825919347e-01
-5.384548524143357474e-03 -1.235128666141522141e-01 5.354160316142063669e-01
-4.957237917648238401e-02 -4.168700780632322855e-02 4.351464218416916108e-01
-1.043034216731806851e-01 -1.059899943602388706e-01 4.947376834988033156e-01
-6.621516526385157198e-02 -1.042790499170721252e-01 4.369834730411412682e-01
-3.495806657457945638e-02 -8.509456706197536524e-02 4.406841086358412873e-01
-4.916316147368850198e-02 -7.163568349204267605e-02 4.274243005997669376e-01
-8.122896326300878267e-02 -1.108358901180235973e-01 4.992559226071067169e-01
-1.047079860081749220e-01 -1.058421253704375647e-01 4.948954358559353728e-01
-2.396165642967632362e-02 -8.845843095818964330e-02 4.457121932104250450e-01
-2.690926961869449449e-02 -9.636719991571043864e-02 4.535221333866478188e-01
-3.577134244989692985e-02 -4.179373748596734717e-02 4.352908393858717639e-01
-5.976738637879178834e-02 -1.064223990593987090e-01 4.546053256030694323e-01
-9.693987223717176471e-02 -9.277640429330025196e-02 4.540425333752348691e-01
-6.750201356246468554e-02 -9.285375773765264240e-02 4.192860223519018215e-01
-1.854290004503697867e-02 -7.277534634745190523e-02 4.402155404982667775e-01
-4.889603887758536133e-02 -7.835197686714064080e-02 4.274271910502788763e-01
2.441696570210638399e-03 -1.015236613889728551e-01 4.594021868827264377e-01
-5.540098639784796913e-02 -7.859100924887803263e-02 4.240347679839296391e-01
9.198117211135057800e-03 -1.262691123310033248e-01 5.337366744783673678e-01
-8.533998495278478924e-02 -1.055132029912634883e-01 5.189196583814393859e-01
-7.195309595150813087e-02 -1.115041034374082002e-01 5.129385415476485077e-01
-9.091014982097378461e-02 -1.095282182171257723e-01 4.817100900868410140e-01
-5.456107583979157710e-02 -1.033035664823068744e-01 4.471815367938497543e-01
-1.482377451154213814e-02 -9.394612448719837083e-02 4.507496638207827422e-01
-7.466194348387006352e-02 -1.109596886661034648e-01 4.784538855377816202e-01
-8.474434678926061337e-02 -1.101471268491496236e-01 4.768883280079299625e-01
-9.975913085243373613e-02 -1.037025043754662007e-01 4.623513663223284831e-01
-9.621261796454727566e-02 -1.079244966270329203e-01 4.732921853798583434e-01
-6.641587438909609190e-03 -1.234743120367428754e-01 4.999741802535948576e-01
-2.065418904541250697e-02 -3.878290972042718748e-02 4.384306787461061394e-01
-5.945837400138939688e-02 -8.501816897579914101e-02 4.222650621637728530e-01
-4.089516976927413949e-02 -1.136340444941271177e-01 5.396503960785132836e-01
-8.648585088151562739e-02 -8.863180289211441965e-02 4.423378416508503275e-01
-4.992697808661282488e-02 -1.100340329409167373e-01 4.702444161792610489e-01
-4.983228581089717973e-02 -8.552845617509287346e-02 4.268751738488195113e-01
-7.139105450092970984e-02 -1.041940143199068802e-01 4.420982970404799817e-01
-6.178619544790881456e-03 -1.255645586739705666e-01 5.160613823005353318e-01
-6.660019728495959745e-02 -8.140922957606147592e-02 4.235163210264446532e-01
-1.006344186592847689e-01 -1.059012682362178437e-01 4.709588665080627345e-01
-8.430587048391581517e-02 -1.099413298522607246e-01 4.741739030206553740e-01
-4.960159704701313371e-02 -1.061103708133608325e-01 4.586885951690624075e-01
1.391651397452058504e-03 -1.168683044981452535e-01 4.794167895468341434e-01
-5.182482145394986389e-02 -1.130954672263074084e-01 5.297650014451565914e-01
-3.083491260911046597e-02 -8.139832006482573823e-02 4.403824310479548809e-01
-3.094901823559554135e-02 -1.039206981705408372e-01 4.629725494590450907e-01
-8.177897846016402017e-02 -1.097862916771537162e-01 4.717586676121968692e-01
-8.041200758350570965e-02 -1.093334076448029962e-01 5.126784592467381607e-01
-1.856569555329645044e-02 -9.800289214784176084e-02 4.552714466433024909e-01
-4.433239959084939175e-02 -1.161446822652607430e-01 5.217925459525015741e-01
-3.777846536716377573e-02 -6.738873788838373180e-02 4.337104677634356920e-01
-4.959888992234573468e-02 -2.709027989886744411e-02 4.370041621448572111e-01
-5.128917596688908898e-02 -9.618115070712682235e-02 4.263356889262169269e-01
-1.732074815928822537e-02 -1.210383363793083172e-01 4.995161962445729409e-01
-3.606841543794031546e-02 -1.016267202233793188e-01 4.580755180792495662e-01
-1.356876835064080127e-02 -1.130597096347788488e-01 4.740990407017210972e-01
-7.719970071778793630e-02 -1.076283648178357755e-01 5.228501904277289558e-01
-3.815263054891243621e-03 -1.253482424965190745e-01 5.087073580250668359e-01
-5.968404311107592536e-02 -1.088476564518874451e-01 4.644331918063794862e-01
-2.455395129978443780e-02 -6.883447141488058252e-02 4.380967906749739238e-01
-4.822041984646942975e-02 -9.911836331227687202e-02 4.443176611985822366e-01
-9.856048032639908030e-02 -1.078760435428448849e-01 4.801616352124297715e-01
-7.745116535407271796e-02 -1.083834227697252489e-01 5.200297385523130478e-01
-1.268502670619222478e-02 -1.038910809961200860e-01 4.604105140197857216e-01
-5.512451030137807684e-02 -1.018982857669003678e-01 4.350604351236931344e-01
-1.013824816567745479e-01 -9.200325417366039815e-02 4.608877202321389199e-01
-5.340248619647990774e-02 -1.150088194451402424e-01 5.058304121959844579e-01
-1.836630451646451001e-02 -1.199324618797699277e-01 4.952900952271792612e-01
-3.941546170203864136e-02 -9.057439133808067866e-02 4.426466898289065366e-01
-7.685076479472503774e-02 -1.042204484829157562e-01 4.460907191281290318e-01
-2.474011335863178160e-02 -1.205806293363495124e-01 5.104392142295652857e-01
-2.035348313006378126e-02 -1.212339725747366981e-01 5.260792260572890733e-01
-5.910978997306847588e-02 -1.083907142551127772e-01 4.625735146601157033e-01
-4.182057685418593546e-02 -8.129739823439074975e-02 4.342211689816863340e-01
-2.196255733390870685e-02 -5.338159613184780689e-02 4.378568495419250528e-01
-5.597012270134810868e-02 -1.031325307074106856e-01 4.262052144229335759e-01
-7.747442098564276403e-02 -1.070741540546707449e-01 4.582752545034237679e-01
-7.378041946922656025e-02 -1.110396743399797020e-01 5.133004227798011465e-01
-6.738818990257192110e-02 -1.047424071043931704e-01 4.433759846162721452e-01
-6.085499877737755164e-02 -7.258922401930674451e-02 4.257891789666640725e-01
-6.708825630057601436e-03 -1.235295059709970028e-01 5.343575989785450675e-01
-6.230200320053570773e-02 -7.006078444369120972e-02 4.272806818844216425e-01
-6.155561841502708853e-02 -1.123402140695815427e-01 4.845017917042370170e-01
2.706661830131074087e-04 -1.173646748093700454e-01 4.804082045902510201e-01
-2.086701735811919214e-02 -1.209188253598374174e-01 5.280176477128445400e-01
-5.292178349835034712e-02 -1.058504993406388373e-01 4.565603546996168660e-01
-2.083757899120482204e-02 -1.079376795094643127e-01 4.680616875733318305e-01
-6.529195454528192999e-02 -1.085136960620647489e-01 4.629250721074351649e-01
-9.327547471297155390e-02 -1.038033464809652445e-01 4.570224615222296394e-01
-5.063331153793529382e-02 -1.103301259686786662e-01 4.711559283124212572e-01
-7.107088554561886984e-02 -1.080134560562755613e-01 4.609825912121240932e-01
-2.514716271003955561e-02 -8.785915368500830935e-02 4.451948423938769106e-01
-9.572915333401738058e-02 -1.061256618201036617e-01 4.654845293342756984e-01
2.246551785854817261e-03 -1.255687000290287569e-01 5.069244526044577315e-01
-6.864153573011660958e-02 -1.119103746600021709e-01 5.167205914065861050e-01
-7.296693330375875197e-02 -1.100014161168427068e-01 4.717816735012936857e-01
-5.592429456288631334e-02 -9.286298075154107712e-02 4.218682203659412377e-01
5.455782806409903429e-03 -1.255713399437266009e-01 5.084113324629027098e-01
-2.397744798672354211e-02 -8.229987549757358800e-02 4.426566375482796079e-01
-5.617109142983502980e-03 -1.248839765221399639e-01 5.074850000236363901e-01
-4.783436611757882484e-02 -6.554607466299589014e-02 4.289973490262320999e-01
-4.253467652573181268e-02 -4.951665456766285445e-02 4.337031178491373429e-01
-4.602310222966402020e-02 -9.238766146581034455e-02 4.366116592783665928e-01
-5.024594871644857269e-02 -6.387336502365877078e-02 4.286230851299949740e-01
-7.746307241433616174e-03 -1.232448266568595685e-01 5.351840959956651878e-01
-1.119780167877450217e-01 -9.882057905961930122e-02 4.804819118636813879e-01
8.555777097767473024e-04 -1.237331966881986406e-01 4.989766840530946990e-01
-5.378458127576520031e-02 -1.099488638333185886e-01 4.684870108651433274e-01
-4.662485152158032248e-02 -1.148594193715419126e-01 5.272277588020716221e-01
-5.027669045304428153e-02 -9.576105096384771032e-02 4.289165000094372071e-01
-4.116664968588359952e-02 -4.584508219653238292e-02 4.341837070239203955e-01
-3.699012693060562545e-02 -3.149529033114942950e-02 4.359389043914638773e-01
-9.795943975592014130e-02 -1.059618432659318876e-01 5.050578205384054220e-01
-5.715798999933694585e-02 -1.108665303831213589e-01 4.723273960597519916e-01
-7.420120120318864088e-02 -1.105680180881860458e-01 4.754625099020668988e-01
-3.817679631693831482e-02 -6.049638865502084129e-02 4.339074325029985135e-01
-7.082917406456515352e-02 -1.108430996324850926e-01 5.187135660545030280e-01
-6.143230767704930401e-02 -1.134833922492303332e-01 4.958914345895342746e-01
-3.434508681008895115e-02 -6.890979768966200292e-02 4.351435228189982074e-01
-2.946436918412850131e-02 -5.710723880011375070e-02 4.360997280234298890e-01
-1.016507877549677613e-01 -1.054912194659965857e-01 4.706754926090202518e-01
-2.921515925780205497e-02 -1.195730679945767178e-01 5.118636126157668498e-01
-1.162830902541114701e-02 -9.929534342266456426e-02 4.556464532140471202e-01
-4.818185322486837063e-02 -3.962609941963812082e-02 4.351817611884787329e-01
-1.268084984003736704e-02 -7.536497895450362805e-02 4.419520081777477682e-01
-3.229793825273470642e-02 -1.059593233139095592e-01 4.659482565229268736e-01
-2.318599755707716897e-02 -1.185064946468245700e-01 5.401969483262544225e-01
-1.142412363544383774e-02 -9.616038032535803581e-02 4.529572088312476263e-01
-5.349604723152722591e-02 -4.979079568663191679e-02 4.342443761294071947e-01
-5.984527901607045869e-02 -1.033587850774171646e-01 4.251501130101925097e-01
-6.367126081075201449e-02 -8.735556055570391221e-02 4.205714612820564691e-01
-7.685231500000809686e-03 -1.246701244756564381e-01 5.086186102407621590e-01
-5.750232726480827145e-02 -8.716937153392272097e-02 4.218574215432412955e-01
-3.307992669732030128e-02 -9.779831757376906964e-02 4.529460114119485126e-01
-8.787807249382131869e-02 -1.045229977780390701e-01 5.186477596119400957e-01
-3.229517352258471502e-02 -1.060665416888809387e-01 4.661310768979033403e-01
-1.964310361726205600e-02 -1.056924378570203993e-01 4.641224133279734376e-01
-6.573468929672056371e-02 -1.122716383885795921e-01 4.871636997944009950e-01
-4.199960788122959060e-02 -1.082391454682834625e-01 4.669803239938668526e-01
-3.444231293141783445e-02 -1.152388263916995226e-01 5.413657794429058701e-01
-3.631804538361526474e-02 -1.167783225428243171e-01 5.309495845724092611e-01
-8.628866670151590090e-02 -8.563766652204259089e-02 4.441632852541914644e-01
-3.225399582974964457e-02 -9.009297608947748615e-02 4.452077501314734009e-01
-6.364017237086902479e-02 -7.988409843518090581e-02 4.235892086699134529e-01
-9.019764181416120574e-02 -1.009623445682307219e-01 4.504865113868986026e-01
-1.208266573161840586e-02 -7.376959512725050905e-02 4.416129035438643990e-01
-8.910848421340794578e-02 -9.400773803374032345e-02 4.434296868024016347e-01
-4.695123455714916849e-02 -9.458948857151361356e-02 4.393649700031419525e-01
-4.472074263484287354e-02 -7.414639506408945979e-02 4.304594250754307239e-01
-2.401391150931943275e-02 -8.580244574793428891e-02 4.443139666674469912e-01
-3.033432539590165747e-02 -7.318421096816657423e-02 4.372934288233082945e-01
-3.215160716438139610e-02 -3.410018251695810798e-02 4.368079101647092122e-01
-3.296365070632686911e-02 -1.024500067587567065e-01 4.601441297978807188e-01
-6.440032127428997610e-02 -7.695096865445294476e-02 4.258743595364302692e-01
-7.050015327427075484e-02 -1.067469163995375947e-01 4.556322169074610295e-01
-1.023858708415186086e-01 -9.881916684947317231e-02 4.595994619644723778e-01
-5.414677876538336737e-02 -1.111332623139696663e-01 4.742927984651709172e-01
-6.619850761213648405e-02 -7.398452893993537338e-02 4.285281824230961489e-01
-2.973195660972987805e-02 -1.193585148063495416e-01 5.180398298615552788e-01
-9.166885889699505352e-02 -1.096023209513578289e-01 4.911323112479776820e-01
-2.769972550918693016e-02 -3.677232395313632940e-02 4.378845630151263491e-01
-3.166133445216053749e-02 -8.373240195062708890e-02 4.412772388199394102e-01
-9.260200367828889945e-02 -1.093958767649004932e-01 4.913437491231325560e-01
4.886758190722375120e-03 -1.239656567875236648e-01 5.006999435133945298e-01
-9.358200392160367920e-02 -1.090373949366873763e-01 4.811289181428065054e-01
-5.216932716650850982e-02 -8.340448844166292730e-02 4.249293320503630955e-01
-8.240570172284895911e-02 -1.109459778257121526e-01 4.870155673764812176e-01
-4.223621552816683028e-02 -7.579455952239468053e-02 4.323595772917840918e-01
-6.349585994546476375e-02 -7.468110858516618933e-02 4.254902993674262168e-01
-9.659047899432243733e-02 -1.051008627372775062e-01 5.089591248953986291e-01
-5.354595649194567736e-02 -1.149115952394579171e-01 5.158798367330903467e-01
-5.623222220634125496e-02 -1.068679612942600304e-01 4.579523656198257742e-01
-6.832642233507603413e-02 -1.121575928354546087e-01 4.884020756755843573e-01
-7.367969885409186327e-03 -1.242522884876047090e-01 5.054346909211734351e-01
-1.012313220318478008e-01 -1.068005511478903879e-01 4.778454340638585429e-01
-1.061931182330901335e-01 -1.048347532336942473e-01 4.981244027898648619e-01
-6.705958015408768069e-02 -1.100720673937069516e-01 4.704890091419154929e-01
-5.937981798446394927e-02 -1.103025944941580933e-01 4.699437803525104984e-01
-6.385288544584707959e-02 -1.127386561804258058e-01 4.902431773500976475e-01
-4.327581814215009093e-02 -1.165256051544961147e-01 5.195467144507142088e-01
-2.937910163687311449e-02 -9.506434357705682847e-02 4.511455563152574899e-01
-2.270021667644967628e-02 -4.318312857383684034e-02 4.386372400284301865e-01
-9.432228400378511735e-02 -1.090232782647627546e-01 4.889624225710359484e-01
-5.546269429362885028e-02 -1.106942441406904981e-01 5.333383136617545484e-01
-8.863532423784367675e-02 -1.098547767180581280e-01 4.950270521388646650e-01
-6.092491850647069329e-02 -7.451914085346486583e-02 4.250395765243224488e-01
-5.908331316438478198e-02 -1.078657523402021812e-01 4.603884606660058609e-01
-3.295869029160736208e-02 -9.782586536325263427e-02 4.530197602693523673e-01
-5.446080194401342611e-02 -1.127682411986533212e-01 4.841400566933820593e-01
-9.247555485373082362e-02 -1.077816161536941236e-01 4.689375071000287387e-01
1.606964313613182520e-03 -1.251199253412557388e-01 5.041453831171326394e-01
-2.323505191840254461e-02 -1.095596078033855281e-01 4.718601497294289127e-01
-2.514469214743686454e-02 -1.142917721143314469e-01 4.826506772401440437e-01
-4.408916168991979662e-02 -2.758060928706607823e-02 4.358272589465450597e-01
-5.263538992715099951e-02 -1.091688671357253643e-01 4.659683154591356402e-01
2.612143539625485719e-03 -1.221839493044698521e-01 4.940194960105176447e-01
-2.748160490324462468e-02 -1.197151107745094284e-01 5.215959293136530617e-01
-1.851220118703075443e-02 -1.165344800837114086e-01 4.853516272543961230e-01
-6.437842992884852678e-02 -1.040330300015017972e-01 4.359730701164142297e-01
2.755633777925353863e-03 -1.257917397914474489e-01 5.084022388056369524e-01
-7.702869741660389735e-02 -1.116302692649828177e-01 4.973285034024792495e-01
-6.824057715187480111e-02 -8.671432910714245434e-02 4.201302743161581255e-01
-4.850373095267335177e-02 -3.115974918606434496e-02 4.361564191175074656e-01
-2.633704364835795855e-02 -8.591932755574496761e-02 4.438632444977441138e-01
-6.700647265701005495e-02 -1.130029760012976614e-01 5.076125051067739147e-01
-2.249614592264116350e-02 -1.208469314550687790e-01 5.056244861268069934e-01
2.594727513930957484e-03 -1.100516597614805553e-01 4.682643467581673602e-01
-7.338346803470364998e-02 -9.156269639892480883e-02 4.218737867929983065e-01
-9.665873361978913336e-02 -1.055404674777348506e-01 4.640515235691301532e-01
-2.353703879638454483e-02 -6.512493455252904573e-02 4.378127425388215754e-01
-2.064152559175617616e-02 -7.903313687100996243e-02 4.418256954259109914e-01
-8.082180093420693323e-02 -1.109156811415638183e-01 4.818113612613488250e-01
-3.037988920554088312e-02 -1.188780325015072192e-01 5.232423798005940707e-01
-3.610416223002863717e-02 -6.101899439727908464e-02 4.345462688773480964e-01
-4.449997763046380922e-02 -9.389126310700744715e-02 4.419573013568751096e-01
-6.709900639435070757e-02 -1.066609544302826729e-01 4.550465891495737991e-01
-8.740168683069958477e-02 -9.465934521778036903e-02 4.418097051963459920e-01
-3.421523039987124648e-02 -1.169224728745699715e-01 5.339223302819992023e-01
-5.556976807425341447e-02 -1.064139969881048864e-01 4.569030712892773738e-01
-1.578528014274363164e-02 -8.958035334084743506e-02 4.473480383824952056e-01
-7.668032473975895658e-02 -1.093879726807119313e-01 5.174301162976197022e-01
-7.905431731762953274e-02 -1.112801532466849708e-01 4.929752041811808483e-01
-8.483595685012385382e-03 -6.204854967003443911e-02 4.388856564764930801e-01
-6.830409931273233315e-02 -1.121400637383178495e-01 4.881860249499120341e-01
-8.077549619356037824e-02 -1.080329372139341992e-01 4.629222425645365679e-01
-1.652853694389149614e-03 -1.000717519070356276e-01 4.577184797597481647e-01
-5.493885759384165013e-02 -1.119792514130844435e-01 5.303792779581828487e-01
-4.794407448474258260e-02 -1.157689175142331134e-01 5.034062079517667154e-01
-2.903313866369832547e-02 -8.443234931428686418e-02 4.424755970660963489e-01
-5.662351247964030748e-02 -1.143031066223956088e-01 4.977596555576574433e-01
-1.156468901445387512e-02 -1.067642953934496708e-01 4.635218252788932403e-01
-4.919567090024505769e-03 -1.108175099770089128e-01 4.684969941077890554e-01
-3.207307835491395726e-02 -5.346040681934673133e-02 4.357157982409227692e-01
-1.807029410747219150e-02 -1.093151275865329730e-01 4.694172758132951762e-01
-4.174044402463190917e-02 -4.281920666318621282e-02 4.342259975748501422e-01
-2.162786826684335098e-02 -8.145617193513217391e-02 4.427131566692195652e-01
-8.684144556568479389e-02 -1.098888760651331870e-01 4.978411046255664663e-01
-2.149153060946847743e-02 -1.100252217494008117e-01 4.722319845901897795e-01
-1.079405404163030421e-02 -1.231364003286482267e-01 5.027331246333889281e-01
-4.769590448268055949e-02 -1.098630670435214729e-01 4.705965462000311073e-01
-1.328450311402570513e-02 -1.142321884472874277e-01 4.764553764445546014e-01
-1.026733020052245787e-01 -1.067148274440235245e-01 4.928412537595935894e-01
-5.864601539381129880e-02 -1.095266543188628122e-01 4.669126835826443167e-01
-6.878544552808924829e-03 -1.122951733279388548e-01 4.710923834741513883e-01
8.032864724879611867e-03 -1.267387471770232976e-01 5.249516831366449754e-01
-6.158578544859049861e-03 -1.231366290213410791e-01 4.981266182017786703e-01
-3.022810049972647975e-02 -1.000068415586227721e-01 4.572913449346313053e-01
-5.106006829392074897e-02 -6.333290467184014838e-02 4.287931123087773688e-01
1.022458217988917242e-02 -1.266859003756894142e-01 5.275535725707913848e-01
-1.041243899355065450e-01 -1.031024889645367482e-01 4.662188037961262355e-01
-1.863084173600412785e-02 -1.220767240670237591e-01 5.088634408677095156e-01
-7.297006715496633100e-02 -9.891693765679931971e-02 4.253628105537838322e-01
-6.290428974414667695e-02 -1.040438105824566528e-01 4.309282708028625009e-01
-4.856749685957347656e-02 -1.108575607995852808e-01 4.744780129209101305e-01
-5.336310226390871686e-02 -9.616404862391618458e-02 4.241350373652557626e-01
-8.088614711150514391e-02 -1.110121793396316725e-01 4.961119933778314062e-01
-7.978630927198884781e-02 -1.052779447193911561e-01 4.524966967324366984e-01
-2.496396068874293106e-02 -1.203712000030394969e-01 5.070703388755468666e-01
-7.498601194921784840e-02 -1.116744166124058885e-01 4.914726840383771833e-01
-9.863091828803897954e-02 -1.061222109033186090e-01 5.037914982162684518e-01
-9.754070723499494791e-03 -1.201802622272500204e-01 4.895154660760132614e-01
-3.522837484275712777e-02 -1.140049173756054468e-01 5.442523797310494516e-01
-3.043684596991750105e-02 -1.186984836531760207e-01 5.255043612188375901e-01
-4.843995894745769040e-03 -1.245279666185367118e-01 5.048767418251297601e-01
-1.018883203077903254e-01 -1.068983840199537461e-01 4.810567878570740086e-01
-3.140926393689248003e-02 -8.579241022035351272e-02 4.424025207669572413e-01
-1.018990044720234078e-01 -9.051695688024281872e-02 4.630305130303234984e-01
-3.548098333651583669e-02 -5.796416549695014575e-02 4.348732147265537695e-01
-5.588271653149193274e-02 -1.043474438080565919e-01 4.488665290850985534e-01
-2.238766476365580335e-02 -9.273981325536354015e-02 4.501064313334529610e-01
-1.407404706048023986e-02 -5.662330353596423116e-02 4.383509465469545008e-01
-4.946415625455338749e-02 -9.783805659104080621e-02 4.392160728378793899e-01
-8.152740648581127680e-02 -1.093597373516508597e-01 4.685143305076616693e-01
-7.718813620636678918e-02 -1.063811650249382734e-01 4.555534571464258664e-01
-4.424319671593939657e-02 -1.002703752831061862e-01 4.498975693771611883e-01
-4.899202899135680911e-02 -7.549272714063161305e-02 4.273273138027445794e-01
-9.122598141302576402e-02 -1.075863356617273725e-01 5.058586076400068965e-01
-3.194627382953678374e-02 -8.182959018391001982e-02 4.401529909566258003e-01
-5.481981734986005050e-02 -1.138747549661975611e-01 5.226922982641067916e-01
-4.447578747582805331e-03 -9.722818189965148905e-02 4.547374244290190992e-01
-7.114734981784941181e-02 -1.102379950893376676e-01 5.205764504523785474e-01
-4.693541811394977281e-02 -1.155586221952889653e-01 4.963741025578147781e-01
-9.899111383213109183e-02 -1.058602272266370853e-01 5.040880697731013882e-01
-7.446545233307927392e-02 -1.114470719944178068e-01 4.853841891107593121e-01
-9.477568216743660623e-02 -9.822735286033457136e-02 4.515036553259230145e-01
-2.498598557230560790e-02 -5.199044943857632911e-02 4.376034130459028892e-01
-2.979192518590844524e-02 -3.321249806419004913e-02 4.373755423318260727e-01
-2.747265076496938768e-02 -7.009796769397576288e-02 4.375845836689389867e-01
-5.855422436714476792e-02 -6.331153198416428207e-02 4.306785171064575479e-01
-3.734383533859882837e-02 -1.169173457811733957e-01 5.280377442514899711e-01
-7.745248860407136227e-02 -9.443337999996237464e-02 4.259405361974756277e-01
-5.289998654649697568e-02 -1.141732938007364861e-01 4.922274117789174341e-01
-3.398451894129649736e-02 -1.185014284728792139e-01 5.184702080567730187e-01
-5.469235955271558279e-03 -1.254240101184003198e-01 5.126514281064395995e-01
9.062044671548152158e-03 -1.266190604347575688e-01 5.205924100297764090e-01
-2.735999832791907033e-02 -3.993814556246666481e-02 4.379476082933366765e-01
-3.978747845337575473e-03 -1.243468696786251548e-01 5.032626278705683021e-01
-2.378083526341327747e-02 -1.195472995955996209e-01 5.337274816185474391e-01
-6.338512887467227797e-02 -1.132236436824418657e-01 4.960711942282733933e-01
-6.839166693079667958e-02 -1.100124443313440087e-01 5.244409010147679240e-01
-8.874305485755931699e-02 -1.033565151786555170e-01 4.523050785372277338e-01
-4.572142148545590284e-02 -1.162824669000239453e-01 5.164357608048096848e-01
-4.873550650660429806e-02 -1.059595498158280302e-01 4.587863714249493241e-01
-1.074923021309424909e-01 -9.758323137971705585e-02 4.674407246321533038e-01
-1.551463846583479161e-02 -1.151020079662187640e-01 4.798096017001933777e-01
-9.038291479998998568e-02 -1.040308340791235436e-01 4.552582337774766508e-01
-3.511464624608637980e-02 -1.145181846611260379e-01 5.428818923793820028e-01
-4.910073062167380487e-02 -8.484024265530110132e-02 4.274178420408878409e-01
-4.046270038857092965e-02 -1.113742194872695546e-01 4.782088874442114723e-01
-4.473356634450702252e-02 -8.779574113111504596e-02 4.336391785229056217e-01
-7.403758367307587684e-02 -1.119283549549540679e-01 4.953245323854802429e-01
-2.567767563518634499e-02 -1.189753990780501453e-01 4.986689255726285963e-01
-2.337484450587382773e-02 -1.126009626732498436e-01 4.781575427878511086e-01
-9.655171274750677657e-03 -1.020426402008975802e-01 4.582658372530325486e-01
-4.905902681074805760e-02 -4.222287992456367350e-02 4.348820089100265407e-01
-1.019761641707390698e-01 -1.050811485868092671e-01 4.691252630522013134e-01
-5.991689668143918707e-02 -1.038315629048145589e-01 4.294728007651346102e-01
-3.452995732992986122e-02 -1.167528354976881816e-01 5.344168767284501742e-01
-1.031692205146867158e-01 -1.055397561248433702e-01 4.749729562795142468e-01
-3.254834848047053614e-02 -1.011709517091977095e-01 4.583740411784353319e-01
-2.241548204916902348e-02 -1.189899082064084512e-01 5.388618065796584311e-01
-4.725368461417123883e-02 -9.185083790572452778e-02 4.330144366691590641e-01
-8.418038642935268823e-02 -1.062865244411524829e-01 5.179698813062083573e-01
-3.495846212463514513e-02 -9.096098506767552605e-02 4.451845500186158988e-01
-1.845459427541170858e-02 -1.222228738862891351e-01 5.208478664066935604e-01
-5.838127111366894773e-02 -1.143036750124351852e-01 5.068222076201799320e-01
-5.868547189486351262e-02 -1.140521239873491799e-01 4.985983301327684969e-01
-7.058039521617980039e-02 -1.055166681946043683e-01 4.498823317465632798e-01
-2.640624695981984987e-02 -1.201426375855388778e-01 5.196571785086737671e-01
-2.386342261076760188e-02 -1.197902575560516325e-01 5.311434450015042330e-01
-1.090551663088078077e-01 -1.035113406098529254e-01 4.864620305735086192e-01
-3.164553073179238174e-02 -9.919852837354646569e-02 4.556182004340056380e-01
-5.612011383141543575e-02 -1.109094799172154616e-01 5.323618140257884157e-01
-4.732687135861166072e-02 -1.160685606498555872e-01 5.100573153396965598e-01
-6.070629324701819207e-02 -1.131777450835714238e-01 4.909731507248913385e-01
-9.597683309299734344e-02 -8.810085812467874367e-02 4.567865598925622272e-01
-1.902284086204145824e-02 -1.153661350123417056e-01 4.827370779212343810e-01
-8.018270459001027028e-02 -1.110817862932744066e-01 4.979249034991841127e-01
-7.826838924257138730e-03 -6.586831181142341340e-02 4.399178449285015002e-01
4.062819637959195519e-03 -1.162570789664247317e-01 4.784772963951774427e-01
-5.024291957543203929e-02 -9.862343949807278465e-02 4.382839756155612054e-01
-5.994643520411190030e-02 -1.141035167276183843e-01 5.093669370202782432e-01
-5.140137883629979781e-02 -1.123392076769655079e-01 4.812244716097717756e-01
-9.351259845050030606e-03 -1.230741707840887628e-01 5.351233479633413781e-01
-8.555792801579487072e-02 -9.463632193532366121e-02 4.402643921677318328e-01
-5.611276749541765224e-02 -1.147109930231366565e-01 5.106117168115678062e-01
-2.125263181895778106e-02 -1.020884665065801139e-01 4.603515576147313992e-01
-9.196703083055925154e-02 -1.058471960291557379e-01 4.615209017404562908e-01
-5.420186588876598627e-02 -1.149871430883513262e-01 5.109420397797879154e-01
-3.488664351827465426e-02 -1.039572862306017004e-01 4.619499455536980603e-01
-7.750802992252760204e-03 -1.145045815043383569e-01 4.749665302787261512e-01
-4.720297526508596131e-02 -9.255036194177559961e-02 4.340523347962976231e-01
-1.824383347702266539e-02 -5.458772693626740696e-02 4.379950390082700817e-01
-1.791367330831864987e-02 -1.104857858441248147e-01 4.716709420537826825e-01
-3.636565083633507001e-02 -6.022689544456642785e-02 4.345112372067526096e-01
3.399478551053748687e-03 -1.222271808424430783e-01 4.943781850774545683e-01
-5.054302371043510600e-02 -1.150891699983804667e-01 5.198818488030146900e-01
-8.201580894914549391e-02 -1.017771221251048963e-01 4.437050002922472425e-01
-6.894751043368717303e-02 -9.725115618670741868e-02 4.206404821698561669e-01
-4.926401929755613862e-02 -9.165866314291784556e-02 4.280315417731188621e-01
-5.636371634065177189e-02 -1.131774969399971797e-01 4.871754932501412005e-01
-5.389633148679135594e-02 -6.353580578841314108e-02 4.285333180893695637e-01
-3.551515298419143096e-02 -8.949755920822344279e-02 4.436682736480249134e-01
-3.182992027475376601e-02 -9.465931124218496251e-02 4.496456841312876929e-01
-9.635038207003551736e-02 -1.063018498498144310e-01 4.669200389155978570e-01
-1.416770124001075389e-02 -1.228824132842091799e-01 5.286756304436430742e-01
-3.908361433188552170e-02 -1.174737379091927852e-01 5.078529597588403721e-01
-1.257512404507412501e-02 -7.074484255123278387e-02 4.407265410333811029e-01
-5.726675333639708043e-02 -1.060391414681728650e-01 4.543507297470555928e-01
-3.357305804738988653e-02 -8.897392014777555369e-02 4.439783552987585091e-01
-7.315588154280026900e-02 -1.079638384236892706e-01 4.609420966246690066e-01
-9.579283289611609242e-02 -1.086438796974080051e-01 4.853251664702530332e-01
-8.699004227139053858e-03 -5.936088368254088810e-02 4.384083405304107228e-01
-6.531679279710091157e-02 -1.132725145063184502e-01 5.074172190907539903e-01
-3.708685717876166604e-02 -9.717871510051523387e-02 4.503498634678662071e-01
-4.141462544007290525e-02 -3.093848520930339574e-02 4.352348730317811554e-01
-1.010929670852321743e-01 -1.072397809212311121e-01 4.827279408701035113e-01
-3.024049551580763884e-02 -1.017514741311198179e-01 4.598804642944021026e-01
-7.483988346280344428e-02 -1.030550336325684879e-01 4.387414782175848016e-01
-1.552295576052271225e-02 -1.208350998047501429e-01 4.961939246810109783e-01
-2.192141793190669277e-02 -8.956552917754476151e-02 4.470427917648330252e-01
-7.473527996710158106e-02 -1.101190565764559592e-01 4.728132585272651345e-01
-1.075554252627055341e-01 -9.393448394347915509e-02 4.682867713193868964e-01
-5.184604597549804378e-02 -6.312699679377575812e-02 4.288257043218757780e-01
-5.676399011378584214e-02 -7.406667434294808561e-02 4.247252496858642812e-01
-1.066965031262626373e-01 -1.021808070820620085e-01 4.706126117055926539e-01
-3.953264723968841904e-02 -1.103007733486732339e-01 4.748679664923036170e-01
-2.802233447648895190e-02 -5.378211747987104996e-02 4.369524201843918432e-01
-4.951452321321231365e-02 -7.167778177672785855e-02 4.272604204793490346e-01
-2.243183969953508466e-02 -7.664606532123813265e-02 4.404955685694832423e-01
-6.774696334743421366e-02 -1.043729077211648926e-01 4.398848324579575086e-01
7.052721798592435747e-03 -1.245552519860642499e-01 5.037078953006310922e-01
-2.705227118507493728e-02 -1.200839950015127611e-01 5.154062737106815950e-01
-2.920947375939395366e-02 -7.144201905911318207e-02 4.373429505324004651e-01
-7.399509778203329502e-02 -1.118066558381689835e-01 5.062937227900380366e-01
-2.075993674281497586e-02 -9.802310871758300459e-02 4.555438653355470824e-01
-4.228703340388606513e-02 -7.318569211737663283e-02 4.319549820332878598e-01
-5.488069407418035006e-02 -4.520891225193496288e-02 4.377291318147141230e-01
-8.942145336124501798e-02 -1.094896115740781328e-01 4.971820700329485088e-01
-8.667014447964255242e-02 -1.052039741789576183e-01 5.181574521666653110e-01
-1.422174048483724508e-02 -6.553713700135418985e-02 4.394524706711295248e-01
-8.112937054263133496e-02 -8.945896185228348341e-02 4.327827657997364574e-01
-5.057479686558778720e-02 -1.111433269827604431e-01 4.753247310903810918e-01
-9.933308609420987700e-02 -1.077566771574656468e-01 4.917885691872145859e-01
-7.258518858553359744e-03 -9.950537523004920892e-02 4.562421426210090392e-01
-4.084749328654574407e-02 -8.653189536834850204e-02 4.379977374398295042e-01
-2.191990117180500283e-02 -9.546645088652808142e-02 4.528473819346862106e-01
-4.187665961468838016e-02 -9.143690982153726554e-02 4.418719066886097613e-01
-5.310349967420957551e-02 -4.382617053851026179e-02 4.357187787759859710e-01
-8.905135974762748430e-02 -1.091716067828356479e-01 5.000064791387424101e-01
-1.296005658157239199e-02 -6.657794131065514209e-02 4.398246884847167859e-01
-4.050939815730555081e-03 -9.548582301118035964e-02 4.533107034080711695e-01
-3.208288995671072785e-02 -1.052993202765518943e-01 4.649137845870585095e-01
-7.658040427840107078e-02 -1.097853201481082258e-01 4.709569995022981903e-01
-9.705399485086142752e-02 -8.642723984893727063e-02 4.605368194979871932e-01
-4.373102460305026279e-02 -4.383687499371773100e-02 4.341632170261768842e-01
