-1.948292310475396166e-02 -6.441901155733997797e-02 4.384869200558877966e-01
-7.413163055477712225e-04 -1.217952850633573919e-01 4.929397754776200791e-01
-3.185667947450560034e-02 -1.161014369418216646e-01 5.408450300990316206e-01
-3.405472089880565156e-02 -9.587472357707350901e-02 4.502121286450437299e-01
-4.443482058727661610e-02 -3.322267709305976729e-02 4.347556087583684947e-01
-6.956384024103358377e-02 -1.047138791440606065e-01 4.470851486444210043e-01
-5.229800459108975563e-02 -9.844573943851203657e-02 4.307736190737798121e-01
-7.592813168765727427e-02 -1.108001222130007846e-01 4.795020010250380937e-01
-3.416568056424259398e-02 -9.285575660789709140e-02 4.471587792748181744e-01
-8.131292119657952677e-02 -1.108099719910267261e-01 4.858273564922633847e-01
-4.638714141175087624e-02 -9.202475397682176317e-02 4.354764206381779301e-01
-5.735179568342529954e-02 -7.312155645068549314e-02 4.247687813937852663e-01
-2.750364120438271096e-02 -1.154091110724662222e-01 4.870138902242169276e-01
-5.352688579103208333e-02 -1.138786402984978408e-01 4.914331180234544627e-01
-5.228112567995225890e-02 -8.383992572576183522e-02 4.247754234562063358e-01
-2.169554786580087449e-02 -1.105894377661044981e-01 4.734379909955573895e-01
-2.175381381544015322e-02 -1.002053273908473513e-01 4.582556148663960993e-01
-6.717644782111785451e-02 -1.007468554635378571e-01 4.227741687628574496e-01
-5.904197748823932640e-02 -1.130007082216885755e-01 5.222495066813767073e-01
-5.351760470002625558e-02 -3.287497779858625235e-02 4.399361214356005134e-01
-3.657742581738707838e-02 -5.591678153551186969e-02 4.345135187339453364e-01
-3.573344169298737355e-02 -1.181568574008801248e-01 5.147972352753411585e-01
-4.351614318881410343e-02 -1.113922951150461416e-01 4.790235626050896034e-01
-5.068641819984196634e-02 -2.560261650734746430e-02 4.375383677450326303e-01
-2.773783217712710164e-02 -1.056791008489616768e-01 4.660550910770777100e-01
-1.046653224971540175e-01 -1.036006945914557248e-01 5.021741591196627885e-01
-8.353087923359853173e-02 -9.922395922424465109e-02 4.409008629229231313e-01
-4.461319326691171733e-02 -1.053900292937542116e-01 4.600968272511916091e-01
-8.253766937156724326e-02 -1.105712497181082499e-01 4.822237049460412761e-01
-1.052981312539545272e-01 -1.058854508977498388e-01 4.903807331520911861e-01
-1.079367178607013866e-01 -1.035764129619436424e-01 4.801995530269109747e-01
-2.287338524295155339e-03 -8.037101647315915420e-02 4.454501155883226482e-01
8.415349188200757849e-03 -1.229883132801869450e-01 4.986623264779518894e-01
-4.076647724423377271e-03 -1.235448380776522220e-01 4.994462489366363056e-01
-8.758642468721430929e-02 -1.070015047797216456e-01 5.118273058046083346e-01
-6.908203926484002277e-02 -1.125476657805467018e-01 5.069086834738013581e-01
-5.997933680909207227e-02 -1.025792354039481991e-01 4.229706681372477628e-01
-6.545755016387817815e-02 -1.039952429158768482e-01 4.377587140084246986e-01
-3.874842336278980226e-02 -1.084145497735951313e-01 4.693051094945810964e-01
-2.558803401756006013e-02 -1.203861665211580778e-01 5.173869463764468879e-01
-3.281048086114486673e-02 -1.017891885582302702e-01 4.593804333370550275e-01
-6.536615932044267940e-02 -7.339102796385947591e-02 4.280941969309557393e-01
-3.638635837705306471e-03 -8.272142988817630938e-02 4.462460654625772238e-01
-8.555537423956123544e-02 -1.027818736588321097e-01 4.488043314212508128e-01
-1.010039078250002040e-02 -7.062320914127080684e-02 4.408839657644988974e-01
-4.813078311470142534e-02 -8.581360945493640702e-02 4.280770925662637505e-01
-4.896141765808990215e-02 -1.114149340720719250e-01 4.777225824225052597e-01
-8.003977423152933146e-02 -1.024353953741090895e-01 4.439130449858459948e-01
-5.064439140920595772e-02 -1.070688672812162429e-01 4.611369636033998409e-01
-4.225956142287400942e-03 -9.400690091113866886e-02 4.522263368672022055e-01
-2.989939012200422148e-03 -1.185878128473611959e-01 4.831696818594229947e-01
-9.881837645345001309e-02 -9.366868015689751303e-02 4.557475131330065987e-01
-7.708951288468872398e-02 -9.900797897174962170e-02 4.309137575129407538e-01
-1.002160299953572115e-01 -1.071748508079285039e-01 4.931514225472236057e-01
-6.967228905627359525e-02 -1.082277844179146131e-01 4.628895347841938124e-01
-5.384337922411273902e-02 -1.144461067662500275e-01 5.192673078909852968e-01
-1.369422799140059335e-02 -1.113901475471500147e-01 4.712775654571704220e-01
-1.069059450126800120e-01 -1.041319369835817937e-01 4.793584862027324145e-01
-3.996641175486986483e-03 -1.046282355436517902e-01 4.616892852265221947e-01
-5.245551726102951062e-02 -1.068833442033604725e-01 4.600587473777607017e-01
-2.614693691240261783e-02 -1.201618627805640521e-01 5.095238619757613829e-01
-7.028952657433941431e-02 -1.120319892832031539e-01 5.108708324877017093e-01
-1.052738139200892070e-01 -1.005498119076709967e-01 4.646850961159802451e-01
-6.084143125100955479e-02 -1.128687368167628630e-01 4.897114801772036730e-01
-4.881318958038530220e-02 -8.746514243529418531e-02 4.275991904946833122e-01
-8.333447034149078780e-02 -9.551909908953494510e-02 4.373299604532726037e-01
-2.796940408238826614e-02 -5.347724921152456623e-02 4.369395014185889492e-01
-1.071338731940367495e-01 -1.017239470920911215e-01 4.711528257418934884e-01
-5.149229629059991209e-02 -1.147500889285696241e-01 4.970978185710652753e-01
-1.086681875908138417e-01 -1.038682903932126728e-01 4.956654751362531419e-01
-5.790186485520484178e-03 -8.703561075947857661e-02 4.478165750090076780e-01
-2.610152008739717588e-02 -1.067934203658471859e-01 4.676341634922527302e-01
-5.582940892546162104e-02 -6.388675629803690359e-02 4.282682444322771231e-01
-3.147982483277718402e-02 -1.175338192486104216e-01 4.963478530860622739e-01
-1.785401470047327799e-02 -4.347896783728047443e-02 4.383971425796993060e-01
-4.385560058324351751e-02 -3.189697279912696165e-02 4.349486753481493495e-01
-2.676282331405035672e-02 -1.096451959407154231e-01 4.728385887781352825e-01
-1.230268639810861223e-02 -1.238982179780610676e-01 5.217568649726789243e-01
3.263827673038978243e-03 -1.269574010609904324e-01 5.223985217434170547e-01
-3.031157683733547853e-02 -4.095020014879812570e-02 4.371928804331413065e-01
-4.680347883939512538e-02 -7.151393469425884608e-02 4.289704416594855574e-01
-9.282344899523899129e-02 -1.088191266169105387e-01 4.968906887316700272e-01
-3.933817724045460956e-02 -1.161660916113458064e-01 5.297831123723986124e-01
-4.247914419950605397e-02 -1.019700172371691693e-01 4.545422318459378386e-01
-8.916766685263635694e-02 -1.096472466734183943e-01 4.934915429116258911e-01
-6.309311078847465448e-02 -8.638510392634074497e-02 4.208050008970694589e-01
-5.494516440836551968e-02 -1.136766403916594781e-01 4.911717299322085339e-01
-5.111536855263913715e-02 -1.153461916804964238e-01 5.126768191435143729e-01
-1.037675177096333314e-02 -8.333922326773592071e-02 4.452928014026401593e-01
-1.372876882243682234e-02 -7.702848477961571350e-02 4.421997834486371959e-01
-5.095186525802844479e-02 -8.361261000790301545e-02 4.258522701416025957e-01
-8.048693261543392319e-02 -1.055392381473093527e-01 4.544916389589364059e-01
-7.749314971742338187e-02 -1.066959820537012466e-01 4.578201212228022454e-01
-2.467234616603956703e-03 -1.223562114383925786e-01 4.947756454018786276e-01
-5.056324515225104482e-02 -9.704973589937244960e-02 4.340603326268406836e-01
-4.873804072533509391e-02 -3.820773671114052750e-02 4.356810061514010957e-01
-5.271049801850396371e-02 -1.039503225500472416e-01 4.512180949609804759e-01
-2.611078439555506933e-02 -3.689882742838766078e-02 4.382323984454029042e-01
-7.479297205120076508e-02 -1.092705758340636601e-01 4.690889916290382766e-01
-8.790005604751564838e-02 -1.073104191181219330e-01 4.646079120158318476e-01
-8.141211366641162850e-02 -1.102293721636527640e-01 5.031544321541170373e-01
-5.687493357065442207e-02 -1.028471003827416547e-01 4.316025119970817170e-01
-5.167579015876470894e-02 -9.763978601359564469e-02 4.308810723404267184e-01
-3.851710452864738621e-02 -7.833626025040929530e-02 4.351993118802263139e-01
-1.234459247892337290e-02 -7.008747053336097932e-02 4.405894168592784377e-01
-5.968431463008827542e-02 -1.073613792680822160e-01 4.591283646047749079e-01
4.582016021054105027e-03 -1.264307260400617805e-01 5.291931293757622390e-01
-4.591815250614451199e-02 -3.464349924795488006e-02 4.350305120608813358e-01
-3.392837890859781019e-02 -6.235459993202777801e-02 4.351345417041236896e-01
-4.629792605862310950e-02 -1.157200997951754046e-01 5.212624715912382856e-01
-8.061405353386807970e-02 -1.094321875748830580e-01 4.705703679319860888e-01
-1.025105817985824952e-01 -1.059916990828881356e-01 4.982808480020397002e-01
-7.309695728351420230e-02 -1.060397664786711935e-01 4.540432238466743375e-01
-6.975372395526358016e-02 -1.117451207702876703e-01 4.873903188333646996e-01
-3.402938562627989827e-02 -5.988941301383443605e-02 4.352115569466192269e-01
-5.808210829242257955e-02 -1.020681690695646876e-01 4.367521025449640493e-01
-2.164441245439809383e-02 -1.214526705836950493e-01 5.149356696396047983e-01
-1.366947601651306854e-02 -7.412661229735560686e-02 4.413717865724740563e-01
-1.019754293349507124e-01 -1.050183825196101955e-01 5.016917541415999438e-01
-3.365679098577883943e-02 -5.097185733449619005e-02 4.355125902384872072e-01
-2.050182314032511152e-04 -1.262046240963222987e-01 5.287902366179861868e-01
-6.342922565933310775e-02 -1.025296618898726975e-01 4.226582722389495284e-01
-2.139386354144992564e-02 -1.099746183812777417e-01 4.721737785838027723e-01
-9.746001368154337541e-02 -8.515096982206206422e-02 4.621978417147322160e-01
-6.440414753274956161e-02 -1.056913500428015296e-01 4.514066238365904704e-01
-6.094472393488918616e-03 -1.039948024048572423e-01 4.607003000121029368e-01
-5.164384841634489520e-02 -1.128141366899975406e-01 4.842802735978305462e-01
-8.983044679908196162e-02 -1.022948376176439911e-01 4.518425464346939591e-01
-8.590688270214415223e-02 -9.041158869708963708e-02 4.404663333294880356e-01
-6.621585831585088955e-02 -1.107949202545427947e-01 5.233686176830535386e-01
-5.528380508783307251e-02 -1.131104377070590306e-01 4.873249010505253387e-01
-3.024291366483331661e-02 -6.676379292080934780e-02 4.364643097304485297e-01
-3.790712405500064330e-02 -1.129367693373670573e-01 4.829155224942343061e-01
-9.738755487023181834e-02 -9.782987310775739798e-02 4.543136140026394765e-01
-4.864417561872202977e-02 -4.491271275389079054e-02 4.340916609178028240e-01
-3.919141104305728235e-02 -3.017969761047665372e-02 4.355940029164438454e-01
-1.661665766765684643e-02 -8.403961380697679007e-02 4.445597830057229638e-01
-6.310301636506762679e-02 -1.035919048864968606e-01 4.313994783088900276e-01
-6.102153728395351417e-02 -1.106913480870232169e-01 5.291717067500198990e-01
-1.026952970951744981e-01 -9.944058019070722843e-02 4.599289544108732808e-01
-2.424244330331353295e-02 -1.179943674990570346e-01 5.412815106366113405e-01
-4.439353534370116955e-02 -1.084950351258799212e-01 4.673473654985947912e-01
-8.551755107567964032e-02 -1.009315809434137012e-01 4.445599576836054556e-01
-3.112086982509872091e-02 -4.353204507988889249e-02 4.368164073273415604e-01
-2.599057786903020625e-02 -7.544529240921889202e-02 4.392397254017217922e-01
-3.856537509152747206e-02 -8.570245937879843179e-02 4.390340725070259742e-01
-1.984294030852229787e-02 -1.212320082092932794e-01 5.278431583403685456e-01
-6.745275536326814092e-02 -1.080156409348016489e-01 4.618748648973538540e-01
-8.548786625008664153e-02 -1.058960818424268535e-01 5.171356650982052994e-01
-1.005728932402774334e-01 -1.072055595657898791e-01 4.843120319846809241e-01
-2.930534159664506533e-02 -1.149477633171637897e-01 4.860334889590995355e-01
-2.089345320178330120e-02 -1.080861097241495178e-01 4.684111868405510526e-01
-9.346011067183886134e-02 -1.084104839226455730e-01 4.742906929826679052e-01
-5.622792722762570000e-02 -1.033574172956707449e-01 4.460044428243251091e-01
-2.314045775111531894e-02 -1.209750866120162943e-01 5.180513728139441998e-01
-6.636396966492530414e-02 -1.129906094384669213e-01 5.029838709045477696e-01
-8.486177107716397217e-02 -9.545581747528654459e-02 4.400673423145546881e-01
-5.267542162490559260e-02 -3.569621121200906161e-02 4.378879974505247019e-01
-1.094050497876970923e-01 -9.526574020122374753e-02 4.718799162470100339e-01
-6.765862160978455830e-02 -8.373323376563621134e-02 4.217638358785916197e-01
-7.972371845019833592e-02 -1.107336438172389220e-01 4.811406009248209714e-01
-9.318961360483871137e-02 -1.089308404917387618e-01 4.833281764975526085e-01
-8.370911425345042844e-02 -1.048562169131867228e-01 4.536657632984524846e-01
-2.774310157976295904e-02 -1.193734706659408396e-01 5.248357802724961108e-01
-6.279140108097805428e-02 -1.034903774094168977e-01 4.325278840710964356e-01
-3.523946884922346534e-02 -1.181186415075490409e-01 5.193587921951262620e-01
3.791932738759442104e-03 -1.226380779536264953e-01 4.958712717507464673e-01
-1.915496822297452217e-02 -5.601025586311131343e-02 4.377553142577085832e-01
-6.414520758505115605e-02 -9.544077193140243498e-02 4.203898532977412006e-01
-1.227330994480669082e-02 -1.236867883400697560e-01 5.248915751552736264e-01
-7.014141579167140761e-02 -1.027817094126537989e-01 4.353579950799943421e-01
-8.884944327710625478e-02 -9.417250346222001689e-02 4.428775719041663783e-01
-5.458532978452337869e-02 -1.137628523204422398e-01 4.915653086917933234e-01
-8.633619773102435557e-02 -9.746121625015097267e-02 4.423058992768483244e-01
-4.320290895144911908e-02 -5.069424248383039289e-02 4.335324311975916611e-01
-8.146643696137689794e-02 -1.108334565567765662e-01 4.877595943515889987e-01
-4.858355526185772350e-02 -1.104538994261488605e-01 4.734208136892251173e-01
-2.590891597724331863e-02 -1.194555715170756982e-01 5.290421838628430740e-01
-9.639739697402710528e-02 -9.416306726084741618e-02 4.529948819022238671e-01
-3.448449052586648883e-02 -4.826181454625057959e-02 4.353698209246340545e-01
-1.264101890300407469e-02 -7.590967059412569162e-02 4.420952768234742702e-01
-2.709700990867271869e-02 -5.637441962127642814e-02 4.367023109351889643e-01
-3.175120341064775059e-02 -9.574788228419958691e-02 4.509964350692749480e-01
-3.967112894293791520e-02 -9.933909114476778546e-02 4.520089601199308027e-01
-3.427851128923656981e-02 -9.986437802357348015e-02 4.560810552105925009e-01
-1.094008989769467144e-01 -9.599021769646544355e-02 4.718337392221758630e-01
-3.738750398081078230e-02 -3.615904569720099909e-02 4.351417406251746889e-01
-7.487724493113723234e-02 -1.072386618851089435e-01 4.592313137303393189e-01
-2.280021734321522817e-02 -1.194007224817563023e-01 4.982323525986431800e-01
-1.785525090131574386e-02 -9.938059844409635746e-02 4.566894615005357427e-01
-5.309178025972337289e-02 -1.145826826646087482e-01 5.192079013943783350e-01
-2.813632925307483351e-02 -5.835482498361143494e-02 4.363040305018544007e-01
-5.413729140820618124e-02 -1.137343544957567232e-01 4.907838155374334987e-01
-4.488930978614778106e-02 -1.067455604267628366e-01 4.627562451122314569e-01
-4.585843761845507377e-02 -1.117532048437502590e-01 4.799853981113587631e-01
-9.275088771526532327e-02 -1.015105604956245272e-01 4.530215416011708074e-01
-3.703628052078171418e-02 -9.328754642472859848e-02 4.463749643648290966e-01
-2.229467562140639153e-02 -1.122696876111669989e-01 4.774537721223260367e-01
-5.126230303850015657e-02 -8.971999832837006250e-02 4.256896865779449257e-01
-7.496995834492570752e-03 -9.897621581348044206e-02 4.557488775042131679e-01
-6.503144845720990053e-02 -1.122411818948484963e-01 4.879985708901061203e-01
-2.594794397749271633e-02 -1.198203833546531705e-01 5.247870730807064898e-01
-2.037200758060951980e-02 -6.826205819626302018e-02 4.389898534080025061e-01
-2.769373454125740458e-02 -8.939588336642215194e-02 4.460003073878343605e-01
-1.509393421025864018e-02 -9.618194815517010221e-02 4.530126667939499141e-01
-5.946233406407984423e-02 -6.291351150804233572e-02 4.308812563987409749e-01
-1.054082247297049996e-01 -1.046917173506084486e-01 4.771986972257561965e-01
-1.004146437336535524e-01 -1.040331275259903931e-01 5.067595530906370271e-01
-8.799389931863689854e-03 -5.657720230029198577e-02 4.380434640474403785e-01
-1.400850981166415661e-02 -1.210071403049932937e-01 5.401056754959733253e-01
-9.685078037895679393e-02 -9.108665933383026936e-02 4.546713415748490639e-01
-8.025532503874259482e-02 -1.097786927809837748e-01 5.092364169249659067e-01
-2.174337526456869910e-02 -1.212751905486964682e-01 5.100801628651955300e-01
-1.048658354937977294e-01 -1.057368144772039137e-01 4.819178308510314035e-01
-5.446464787593198464e-02 -4.019287189030586877e-02 4.402657789854379500e-01
-2.890331160287891096e-02 -9.577224452051041892e-02 4.522101019703790858e-01
-1.015956515601515037e-01 -1.069049618783007999e-01 4.836546010481628799e-01
-9.998399346411099287e-02 -1.068728523911424561e-01 4.975793289514507944e-01
-6.703266854513832695e-02 -1.110310111226901625e-01 4.774713559354267223e-01
-3.299389490915104889e-02 -4.087626548934383125e-02 4.362388581001476195e-01
-4.704909335419239086e-02 -5.742807335285345094e-02 4.313079650188688663e-01
-9.584992999831266902e-02 -1.070746756383619824e-01 4.704557350154517370e-01
-9.323740089284587862e-02 -1.046292154621118325e-01 5.125532723405072932e-01
-2.710138239868419702e-02 -1.181535283355703708e-01 5.366434475345192023e-01
-5.170912649137706513e-02 -1.062136679856929000e-01 4.585791447779513086e-01
-5.025120428106764903e-02 -8.814195751959970349e-02 4.264881535838130899e-01
-4.233992235444600932e-02 -3.333065493678837726e-02 4.348386634284909236e-01
-1.247896085169200586e-02 -7.475630658355905678e-02 4.417936272386792651e-01
-7.718230609828559408e-02 -1.011317347890850066e-01 4.349484016292589073e-01
-2.186342949016174125e-02 -1.172013502380904182e-01 4.896626619057773966e-01
-4.797814303493888599e-02 -6.144381030084967998e-02 4.296745921844599692e-01
-3.352629304209885086e-02 -5.122988584475884205e-02 4.355453653197385311e-01
-6.313822768674429153e-02 -9.629432102110023484e-02 4.209235290818010289e-01
-3.759156017722571630e-02 -9.850335637429187552e-02 4.521292137433593483e-01
-3.276435028471209182e-02 -1.088705692439484451e-01 4.715074050935580408e-01
-8.935534879134277020e-02 -1.051595833647699790e-01 5.146705143820718975e-01
-8.016940486437237889e-02 -1.104840154100501792e-01 5.036738792927603070e-01
-5.062262707888365992e-02 -6.210971250281647343e-02 4.291560779078292254e-01
-1.025038522466844709e-01 -9.790932651272009346e-02 4.592486290446359254e-01
-5.261069832024933141e-02 -1.117256162607881964e-01 4.788604445992680203e-01
-4.164217628503327079e-02 -1.152179331644229698e-01 5.321208247047830575e-01
-4.986910718213516391e-02 -9.537064674749443083e-02 4.316050585091751324e-01
-5.086115159575745059e-02 -1.101871642943538510e-01 4.713106537337775626e-01
-9.107813144483415876e-03 -1.088470152027843502e-01 4.661332758119703934e-01
-5.495857708348032833e-02 -1.067027559388084718e-01 4.587438768172477088e-01
2.878296670744763790e-03 -1.269936299174263261e-01 5.217473491088788773e-01
-3.836616327626049539e-02 -9.170532928236743708e-02 4.441934480096271787e-01
-9.897001166357406732e-02 -1.065646525411581280e-01 5.014584336231981965e-01
-4.606725414057092488e-02 -7.434722435586815781e-02 4.293941946680288058e-01
-6.571815060161909083e-02 -7.824936511018407148e-02 4.254232739288963394e-01
-1.101525226386284723e-01 -9.266464065581896115e-02 4.741019616177111207e-01
-6.923570858533108219e-02 -1.107597044723231949e-01 5.203402419758059727e-01
-1.057626698644169583e-01 -9.370888140594106630e-02 4.652891599660374800e-01
-4.004633353056786388e-02 -1.020312677170222559e-01 4.563906550572065512e-01
-6.056350443180857912e-02 -6.370357212578353634e-02 4.306208819175628144e-01
-1.871384652438273788e-02 -6.132295472659119590e-02 4.382862862333429810e-01
-2.051627088736832083e-02 -9.397015267364434987e-02 4.511359898267871538e-01
-9.900842269753153124e-02 -1.072514931939215349e-01 4.964268345538648819e-01
-8.032799890225574002e-03 -1.007495324404196202e-01 4.572327148831429322e-01
-2.926043454961470627e-02 -9.824834163638870854e-02 4.551330401670640180e-01
-2.180740894751420286e-02 -7.402745916397433790e-02 4.398334147009062001e-01
-4.138103995560862836e-02 -1.158082858243361518e-01 4.948602820974580263e-01
-8.736223616480217127e-03 -6.350922939332642736e-02 4.392050221290228484e-01
-8.740319598291255987e-02 -1.060157281686559122e-01 5.143840561621453311e-01
-4.651137645089506445e-02 -6.999725552956623242e-02 4.292035722987735946e-01
-4.283448012108134750e-02 -7.289856216633845698e-02 4.316077804191482126e-01
-8.624245348675840805e-02 -8.552028321228424823e-02 4.437404771059942910e-01
-1.049551367923090284e-01 -1.043122432635578273e-01 4.737600492140038866e-01
-3.711689811291992575e-02 -5.583301250834897533e-02 4.343616150291269573e-01
-5.055584865031281100e-02 -5.166710531123454991e-02 4.330394737608232458e-01
7.066941387142036506e-04 -1.268144920533437192e-01 5.207706132722466075e-01
1.092918241398298414e-02 -1.262114934683472300e-01 5.186019312051468599e-01
-5.821578329135441293e-02 -1.070523318489158965e-01 4.584700416197243777e-01
-9.111320793640854954e-02 -9.095167147823371434e-02 4.470175453870931515e-01
-9.846555315047533785e-02 -1.072574164595256896e-01 4.982414424451112045e-01
-1.109987660960263037e-02 -5.612392427569289077e-02 4.381014334669742771e-01
-3.329325270135408132e-02 -5.061963471551274296e-02 4.356612480634456941e-01
-2.597631614207914982e-02 -1.193836804142593550e-01 5.013321302058704187e-01
-1.958262048314133794e-02 -5.817064771284064656e-02 4.378688359762946680e-01
-9.105568680075667998e-02 -1.042405070512511384e-01 5.153401574103990690e-01
-2.913144269967302830e-02 -1.167138711634416876e-01 4.923897879766682140e-01
5.668518953971034106e-03 -1.218121938719953917e-01 4.940292619631056481e-01
-4.543699216066701685e-02 -8.275003125201511878e-02 4.303471782719059946e-01
-8.862885100751147216e-02 -1.091519716137773210e-01 4.991926502930140730e-01
-5.176326930916438224e-02 -8.364423511610952211e-02 4.251933706972682026e-01
-5.457008211022158772e-02 -1.006106865085578256e-01 4.401836806570660898e-01
-2.546599729026458730e-02 -9.772142667144630146e-02 4.554149475858073615e-01
-3.378696826060672426e-02 -6.634817001134783732e-02 4.352502683730059552e-01
-6.481628633449022792e-02 -1.079338196632229629e-01 4.611988404752892512e-01
-1.862663728827158860e-03 -1.263085673071447923e-01 5.162276956276442563e-01
-9.085515651191103381e-02 -1.048638414472240904e-01 5.140132863539680352e-01
-9.774077647059352392e-02 -9.618886640132499888e-02 4.541313553742603593e-01
-2.219983745026022151e-02 -5.322520584836189228e-02 4.377874669293689847e-01
-4.199001881750823867e-02 -1.153106461199712302e-01 5.308568549687452398e-01
-6.872395043569320960e-02 -9.807664125073180250e-02 4.212194936450714411e-01
-1.050671927161775376e-01 -1.059427733856588144e-01 4.880663613681270330e-01
-8.668377607505864391e-02 -1.018197849909990849e-01 4.469490761765551046e-01
-2.224182488387605253e-02 -1.123826466567469651e-01 4.777059486188834914e-01
-4.315173574329560224e-02 -1.167053605386762644e-01 5.137765085026725354e-01
-2.807140118204573889e-02 -6.683478928499562988e-02 4.369627996864703379e-01
-7.749008790312679473e-02 -9.735250449855900601e-02 4.286493442866882164e-01
-2.519592050862177329e-02 -5.566006274858813913e-02 4.370540990123629732e-01
-7.157723138407152963e-02 -1.019267310715463032e-01 4.326567772798184386e-01
-1.736311066551204929e-02 -1.209919038830699900e-01 5.365396199612713080e-01
-8.271857211786660946e-02 -1.092566114653027443e-01 4.700142953991354178e-01
-6.869556272068075287e-02 -7.871187717509588178e-02 4.262755236270889814e-01
-7.258257445326220247e-02 -9.752167615855268645e-02 4.242850553343741060e-01
-7.170778686849789418e-02 -1.036749852962579876e-01 4.412469090072194677e-01
-8.229495314262319505e-02 -1.051687314857247257e-01 4.540549285246529010e-01
-2.000938312022073479e-02 -1.102781133559981724e-01 4.722294765702667596e-01
-3.597664823301492676e-02 -1.178279836300861610e-01 5.043126492566417651e-01
-7.475543127392444975e-02 -1.013263684301604073e-01 4.332016538431564534e-01
-4.909495533631916958e-02 -1.099245787540526209e-01 4.709684169757653582e-01
-8.604795141614775614e-03 -1.206153730541971170e-01 4.906456069439577572e-01
-7.453810303836823359e-02 -1.110970646590828947e-01 4.829109250681199450e-01
-1.085812553485230453e-01 -9.920689107429866982e-02 4.705031029542640630e-01
-4.585594482132419186e-02 -1.060533224509642852e-01 4.609737260418889093e-01
-1.013802333877265038e-01 -1.070019421067956999e-01 4.866410875179096873e-01
-5.498296422159749258e-02 -1.129692288641005321e-01 5.262074195689538936e-01
-4.597583501692101282e-02 -7.637322684139929985e-02 4.295024922609779749e-01
-5.956833025436220758e-02 -1.137316555269696078e-01 4.975806837358925372e-01
-6.679041039665173374e-02 -9.657419756185407766e-02 4.202886920918639801e-01
-8.989330480701583637e-02 -1.088836653572632929e-01 4.726717987854164860e-01
-3.653580920610258187e-02 -1.124621415267358787e-01 4.808263233492124367e-01
-5.066036049663758672e-02 -4.982773967296170309e-02 4.336173551502887635e-01
-7.062400242400931893e-02 -9.804671241616805255e-02 4.229077170530928242e-01
-8.238377675157251834e-02 -8.811205752569467586e-02 4.354744550432096961e-01
-2.847005429124406257e-03 -8.522386321908534401e-02 4.475157163776664615e-01
-4.357975072994022675e-02 -9.217288302561151003e-02 4.413561128195951366e-01
-2.737538063042218445e-02 -1.093228965772703593e-01 4.723201480375140426e-01
-5.954217320777301786e-02 -7.584537269536187343e-02 4.241047799469745416e-01
-7.853890847682590270e-02 -1.098170009005434294e-01 5.119004086434368883e-01
-1.120797937339004964e-02 -1.226381228950078894e-01 5.361358975697629869e-01
-5.275439362874363713e-02 -1.084827562502490572e-01 4.642668276449841147e-01
-6.187527163982703415e-02 -1.109221886553961173e-01 4.741419221725219346e-01
-7.632012773937996153e-02 -1.094020387428393803e-01 4.700590028779526031e-01
-7.192829182425874990e-02 -1.102385525655717319e-01 4.743781269405070167e-01
1.083094134969542210e-02 -1.266679871504913235e-01 5.270477865887757130e-01
-4.281884342711501229e-02 -1.114284265118987011e-01 4.791336891467289361e-01
-7.298565348384901397e-02 -1.112976195781497368e-01 4.844222881808671333e-01
-5.568528467816839106e-02 -8.111775454746009140e-02 4.232714887772572321e-01
-1.403370725161701832e-02 -8.217651734654009277e-02 4.441649481664657895e-01
-4.254895752772783202e-04 -1.146434419503288560e-01 4.751437082627736896e-01
-3.671997837285177063e-02 -1.092049816403563162e-01 4.719184603796766631e-01
-3.005834143917868878e-02 -1.182976087534350074e-01 5.304066088741443696e-01
-9.348571896769031220e-02 -1.087472211798652666e-01 4.786316760856140218e-01
-3.330313795240369412e-02 -9.341802089667299025e-02 4.479069294884597263e-01
-4.468667725250409506e-02 -8.256723951960530383e-02 4.312442939653484131e-01
-3.537686646382897510e-02 -1.170229738227713534e-01 5.304082832037234629e-01
-7.516132862249413904e-02 -9.709589054571282629e-02 4.254392196479965249e-01
-3.623267975645317468e-02 -1.172195602896920902e-01 5.271206500835754483e-01
-1.096482760710044829e-01 -1.029361108364104660e-01 4.911400937232491271e-01
-4.800160008925679483e-02 -4.870723173508968717e-02 4.335219238276586395e-01
-4.741015401270001067e-02 -5.180819511011054701e-02 4.332996655366936345e-01
-6.392679499005032850e-02 -1.126576527790447702e-01 5.185134774073134611e-01
-5.085096016163540011e-02 -9.497813904776390703e-02 4.267105380627306266e-01
-3.725344075427784729e-02 -1.089293809161828996e-01 4.712685499226270114e-01
-1.038030467012261010e-01 -1.029732182059323181e-01 4.656286588099365908e-01
-5.882613998123603812e-03 -1.007638533346056908e-01 4.576265128516457947e-01
-3.983174903407150219e-02 -4.269099547167003184e-02 4.344075917823767563e-01
-5.600459098532913765e-02 -5.860041245842376179e-02 4.305995578850932981e-01
-1.147960095845497117e-02 -1.189119546931309696e-01 4.862248701118304650e-01
-1.088233896729597500e-01 -9.991056064757962429e-02 4.726564750606095378e-01
-1.074866311307426381e-01 -9.529954721333491752e-02 4.671022453112997352e-01
-3.027033135359631644e-02 -3.770436472962068047e-02 4.372221639286188455e-01
2.895455809979970586e-03 -1.118666394947049891e-01 4.710150316719617924e-01
-3.890840099437799932e-02 -1.174579293059528767e-01 5.082644968125762386e-01
-1.059209644646380427e-01 -1.053949447399986639e-01 4.834224813268977461e-01
-5.006058354630456980e-02 -1.154272841340252265e-01 5.160076198380317836e-01
-3.389745618459218297e-03 -8.369691697220237037e-02 4.467142661152294636e-01
6.718700226121197480e-03 -1.263239838571480755e-01 5.137408104569129996e-01
-8.106032331741430674e-02 -8.785328712434657683e-02 4.332366361450833425e-01
-9.268021021575301166e-02 -1.020252940165545935e-01 4.533586633637400332e-01
-3.711529236546786542e-02 -9.978809235254949839e-02 4.546218225604078400e-01
-7.735295141272236635e-03 -6.759599698806488532e-02 4.403863790248246368e-01
1.229409197982097787e-02 -1.258460132100091000e-01 5.168967205331076453e-01
-9.950150353823647431e-02 -1.061427782544536458e-01 5.019210325727563315e-01
-6.270559797849262207e-02 -9.441115406296038404e-02 4.205650602443994357e-01
-9.175735031556077337e-02 -1.071072357797543534e-01 5.063500821960404963e-01
-8.115871008959973931e-02 -1.070958105186727571e-01 4.603323753287456577e-01
-3.016994971827868452e-02 -7.807108473196688880e-02 4.390340367687106116e-01
-7.789051516716721801e-02 -1.104522006737046758e-01 4.773325478346700512e-01
-3.573265258141693733e-03 -1.129342974872672156e-01 4.720317445049741489e-01
3.098701506161371209e-03 -1.063787059231307841e-01 4.643310101733151285e-01
-1.688783382476650302e-02 -9.574048608183209630e-02 4.526259429403550749e-01
-1.528211481869789362e-02 -8.267378175422136766e-02 4.441545905529946658e-01
-4.360029711273624015e-02 -1.146352648463614260e-01 4.905573307271558492e-01
-7.125301226475404259e-02 -1.069593147752201517e-01 4.576523625875745238e-01
-4.760229994153201971e-02 -2.747749036486567611e-02 4.362602263430059857e-01
-6.207837531677267567e-02 -1.132630369204012527e-01 4.960589410758902695e-01
-3.798624434318632892e-02 -9.989163046012351777e-02 4.542030077652675080e-01
-9.100677103038949667e-02 -9.474508789140290155e-02 4.459769196545810832e-01
-8.417043349147179665e-02 -1.060158457243366437e-01 4.574869088788947047e-01
-2.685575920087501095e-02 -1.199744460684510489e-01 5.091245792369105683e-01
-5.987490053872668999e-02 -1.123104516554317145e-01 5.246406294769652146e-01
-2.939644110854696887e-02 -1.174714727199341752e-01 5.371517780748046311e-01
-6.953129887481254712e-02 -1.121228368943563564e-01 4.922897289081386574e-01
-4.990341214774005052e-02 -1.124084814800051235e-01 4.819980686044917362e-01
-6.900655638606771614e-02 -8.618929831821926790e-02 4.204125368622561032e-01
-3.310072071028169471e-02 -9.167416040917483744e-02 4.464329263597806574e-01
-9.939297118947167109e-02 -1.070263246693765463e-01 4.977916073558806831e-01
-7.790136880189375834e-03 -1.206416646735050668e-01 4.904539209212071538e-01
-1.026050111697940533e-02 -8.467310894937632448e-02 4.458664727183465071e-01
-4.832595714592551744e-02 -9.037363896863946644e-02 4.292880265679085428e-01
-4.679112630009427121e-02 -1.143091103573696810e-01 5.298331445952634278e-01
-6.418723022552602631e-02 -1.022672764133523149e-01 4.225511223218629264e-01
-3.855911518362273305e-02 -8.389154313716935818e-02 4.377487512838242889e-01
-7.932033475007801981e-03 -1.230172176011777307e-01 4.984348331894498663e-01
-5.326697393164667865e-02 -1.085992850988835301e-01 4.646641587162810283e-01
-8.274249828368954174e-02 -1.071667503240332497e-01 4.610627965104429626e-01
-8.665618234070902870e-02 -1.101394150514422715e-01 4.859120835198612598e-01
-6.246118809803801603e-02 -1.089757365829933655e-01 4.659037166828241538e-01
-6.715089810798051395e-02 -9.932306119832655378e-02 4.209875088073878335e-01
-3.411046670298784750e-02 -9.042082837585158073e-02 4.450592006031182657e-01
-9.563210753734652236e-02 -1.082586902082577490e-01 4.783176351967418638e-01
-6.614950615254280852e-02 -1.116884743994767115e-01 4.839075570820462469e-01
-6.165694681737202837e-02 -1.137129602107362497e-01 5.071693445337006612e-01
-3.531143174017848524e-02 -4.649794130740795423e-02 4.351809771115434655e-01
-5.427649953326727644e-02 -3.291649103986362540e-02 4.435196901083104382e-01
-9.750320002280256360e-02 -1.008429346335214943e-01 4.561855321408705977e-01
-9.932532923843227779e-02 -1.074230489798276567e-01 4.796461639037666869e-01
-4.010326317820329944e-02 -6.888346984136570206e-02 4.325009131850991451e-01
-7.545393484070592183e-02 -1.093403153353972590e-01 5.185822052292046180e-01
-1.930955706744525227e-02 -1.167888265603825720e-01 4.867218831262234424e-01
-2.921289462053019634e-02 -1.195211262272947300e-01 5.116110448060166016e-01
-7.981901715592074065e-02 -9.074668006431646505e-02 4.297011395631712416e-01
-4.975318611178548150e-02 -8.888853957345950463e-02 4.269038168003951861e-01
7.454852039847749759e-04 -1.089257782009460107e-01 4.667030838040082119e-01
-7.742627342409771907e-02 -1.111822374149722265e-01 5.023570312515934777e-01
-5.960568447565418870e-02 -1.137321111639386373e-01 4.976994618878438637e-01
-8.654318327153898149e-02 -1.095119867112029910e-01 4.749245639685615861e-01
-3.987090506359768083e-02 -8.630203490179810810e-02 4.385864411501537719e-01
-3.926944432107524335e-02 -1.174481184384733035e-01 5.150860772198860849e-01
-4.487729353245727831e-02 -1.163695601920930328e-01 5.163258108957006209e-01
-6.029571097551449793e-02 -1.116118731684102861e-01 4.798177036070837564e-01
-3.340543018756790550e-02 -6.589376285592528359e-02 4.354035944881776699e-01
-1.740927941541040372e-02 -1.188787569462189525e-01 4.903898820256684665e-01
-6.225844244562994678e-02 -8.892492105541127678e-02 4.202667271121769965e-01
-6.156945119545059047e-02 -1.127970814932677951e-01 5.206213875386215273e-01
-5.915857828376732547e-02 -9.934471622656142198e-02 4.210067937887528866e-01
-6.067484016144578107e-02 -1.104695922267909802e-01 4.718153635560958237e-01
-2.387526038676480653e-02 -1.092143803337942976e-01 4.714337915764464926e-01
-8.871743145444202505e-02 -1.061079009851468025e-01 4.605326997147053958e-01
-3.086199858983354818e-02 -1.169762645871072898e-01 4.940995872368879049e-01
-2.394707952056791128e-02 -1.031062224172268477e-01 4.620943006643108419e-01
-4.928811242107312279e-02 -9.452386874867398092e-02 4.316090895062653643e-01
-9.448256970074871142e-02 -1.087697013764417214e-01 4.878096318084317873e-01
-2.972452176362521889e-02 -5.581970984085581067e-02 4.360003004988681763e-01
-4.737053210375223589e-02 -1.089528096333763768e-01 4.676306115166892208e-01
6.343000049032676904e-03 -1.249871575274106583e-01 5.058565923325880620e-01
2.432466253423671253e-03 -1.239200165778474444e-01 4.997561604675307967e-01
-1.071411783207350532e-01 -9.504442376424897254e-02 4.662801629550348825e-01
-6.219597346712185670e-02 -1.105532104200002419e-01 4.724692533170428699e-01
-5.912669422106465837e-03 -1.245311823670466056e-01 5.315371896034103427e-01
-5.666933411185250818e-02 -1.024209816837956116e-01 4.419843097034636403e-01
-3.397740071436757686e-02 -9.902197866549616867e-02 4.548323060624300807e-01
-8.946524540504158240e-02 -1.097196290997760060e-01 4.912254781801237979e-01
5.045946561899878127e-03 -1.253637993703751174e-01 5.072784322403511847e-01
-5.864053632874969418e-02 -1.136381634102172911e-01 4.947245559514122371e-01
-1.058760251334034952e-01 -1.053393868631473662e-01 4.938949021680754115e-01
-6.277445632870089220e-02 -1.055952855674909402e-01 4.505943234246829188e-01
-2.461730842092667987e-02 -1.204255966570805247e-01 5.071892422164039349e-01
-2.057570955648388780e-02 -4.684155249572636431e-02 4.384744415284694274e-01
-2.961673695209914026e-02 -8.333354881926577362e-02 4.417600363846858613e-01
-8.267790614231375346e-02 -8.803027357918617735e-02 4.360493457755420521e-01
7.247988834428537898e-03 -1.261324500170847851e-01 5.127048034144612298e-01
-2.541906031520650006e-02 -1.161414027171650959e-01 4.888401935772687112e-01
-8.605568181586220611e-02 -1.097302181417845052e-01 4.987257095942781993e-01
-4.749639895357612995e-02 -2.874106687138863747e-02 4.360597008919487316e-01
-5.859775640121479834e-02 -1.057282872014135983e-01 4.531055709982459989e-01
-9.000892504154339724e-02 -1.096684765145594931e-01 4.894592973716250239e-01
4.317929075026562952e-03 -1.226421777880333241e-01 4.960572690851025035e-01
-3.007964416294488155e-04 -1.081179920353276674e-01 4.656957329603516604e-01
-1.039044362575337194e-01 -1.048382300284397828e-01 4.740476672161353933e-01
-4.528249304145610943e-02 -1.116775043034960585e-01 4.798422117766848460e-01
-6.503794386474225087e-02 -1.128917651268455391e-01 5.139502421573510782e-01
-5.789975373790538088e-02 -1.100014280931354838e-01 4.691922659969753884e-01
-2.189897320155078167e-02 -4.091258037584434570e-02 4.386563474459393430e-01
-5.565917595036989213e-02 -1.049517650719608008e-01 4.518767777176223022e-01
-5.860242047849521102e-02 -1.027772187388105718e-01 4.400927657946198668e-01
-7.852303231416650486e-02 -1.088502118136875640e-01 4.669590124007212406e-01
-5.274734878431816543e-02 -1.000713384587876287e-01 4.424805931000018733e-01
-4.218011914840133492e-02 -1.168830771476698088e-01 5.167522155433724729e-01
-9.228489290453679994e-02 -8.758007904042396097e-02 4.514128775071417632e-01
-8.226422021752473335e-02 -1.020059581188605402e-01 4.451158996807820234e-01
-4.959787396593708098e-02 -1.155337066575284899e-01 5.069021216728318846e-01
-3.706720892583088151e-02 -1.170967077985186622e-01 4.996685301530299217e-01
-4.105566803235707191e-02 -1.171104842823435938e-01 5.113596958734237807e-01
-3.727340341270279911e-02 -1.164571790341212970e-01 5.315380555496442838e-01
-5.402449582885364421e-02 -3.087531801499432751e-02 4.433723713144513412e-01
-2.252434969200691958e-02 -1.093446327318350758e-01 4.713338094913280818e-01
-8.949301994671050864e-02 -1.005893865345500737e-01 4.492067109873280617e-01
-2.983655060056417813e-02 -1.167965780142353333e-01 4.930012097862941922e-01
-7.048413170179744502e-02 -1.123844708093317407e-01 5.025076738863759607e-01
-7.537973015234303298e-02 -1.117378736667289374e-01 4.997488573372344534e-01
-9.053788673190744929e-02 -1.093148118792305751e-01 4.956019119987954413e-01
-8.646799519520992350e-02 -1.100343386835715975e-01 4.931988449051388779e-01
-2.781471758668598027e-02 -7.497307679602122077e-02 4.386534358177148207e-01
-9.140634509601737456e-02 -1.094228693581660861e-01 4.898019465950676499e-01
5.493270974627277072e-03 -1.260437833015203013e-01 5.333542104638492320e-01
