-4.885905044203770267e-03 -9.433859245490532064e-02 4.523260715451111746e-01
-1.082221031271778100e-01 -9.593126072490078260e-02 4.681578592587681276e-01
-6.087827284563115948e-02 -1.074290885162514919e-01 4.600367420788721851e-01
-6.182405218401687552e-02 -1.053577312433641028e-01 4.510538938388084507e-01
-9.668874412597366907e-02 -1.065411478571998694e-01 4.700995762435351555e-01
-9.674710678851754231e-02 -1.077883906984433149e-01 4.799254208364366892e-01
-3.749004841594221621e-02 -1.177153693996653566e-01 5.163227192521827602e-01
5.740693830928195879e-04 -8.978274911021122406e-02 4.501903599753540042e-01
-6.178804285117717177e-02 -7.822656890472909352e-02 4.232200995172550329e-01
-2.183465229088454168e-02 -6.526354134196707402e-02 4.380217851525404216e-01
-7.685225042161737685e-02 -1.061839173568147610e-01 4.566830723032766493e-01
-5.239738831338693927e-03 -1.063945052702762462e-01 4.633437712046359347e-01
-1.134937492609661702e-01 -9.663010289582510404e-02 4.847293661790423314e-01
-4.589532248414424781e-02 -1.160318138030567298e-01 5.067744955737418788e-01
-5.784737779655897694e-02 -1.025608477297238613e-01 4.314381258151720466e-01
-4.128877560300137778e-02 -1.087735860839982860e-01 4.699864930993841727e-01
-6.378674465522740644e-02 -1.131607496621523379e-01 5.119147993076228476e-01
-1.949860276152923233e-02 -7.985761823666299997e-02 4.422433191840129396e-01
-4.478589715004353128e-02 -8.215142551892180844e-02 4.313013061708105833e-01
-2.228499902879874789e-02 -1.209931668510449837e-01 5.077761830887597139e-01
-4.942617984236399691e-03 -1.243399049507860898e-01 5.039332732628808431e-01
-5.195586973621822702e-02 -1.009433321825045499e-01 4.452065512923158996e-01
-4.010202200925266913e-03 -8.874214717214276571e-02 4.490456953746736479e-01
-3.926646640601994843e-03 -1.093720893916483028e-01 4.667601761711484554e-01
-5.178579273831471208e-02 -1.115865613336488038e-01 4.789253442653825799e-01
-5.932580629186118976e-02 -1.134538597143381344e-01 5.179990225469829346e-01
-5.662846419866598285e-02 -5.632874663391256032e-02 4.317514461032819217e-01
-7.147587867835716868e-02 -9.743574686829212239e-02 4.230669050941581188e-01
-9.756219674646242346e-02 -1.061524062009115282e-01 4.694830236857122641e-01
-1.054437616956823559e-01 -9.885384783957461285e-02 4.634602676281213696e-01
-5.320512402455499640e-02 -9.804023938220311762e-02 4.264477375971185702e-01
-6.995182601411505108e-02 -1.007196940566074533e-01 4.259662070506145537e-01
-8.105604821405636151e-02 -1.093106591314481069e-01 4.717829983797320326e-01
-9.860851329899736339e-03 -1.210087448001466032e-01 4.923643175381630099e-01
-8.170759321974084555e-02 -1.104827519858620072e-01 4.943111249452734612e-01
-6.812220579972720624e-02 -1.053551124738208028e-01 4.517264686239134686e-01
-4.129972140752804360e-02 -1.167592028903738643e-01 5.195798853418190921e-01
-4.550994894602901353e-03 -1.242628252552209073e-01 5.032349829989595236e-01
-8.425534896138091312e-02 -1.033123954381366671e-01 4.501994527815593172e-01
-9.504696136539103613e-02 -1.022953044536208389e-01 4.563056208887307785e-01
-2.241002606962318178e-02 -4.122362648182654327e-02 4.385955758493374490e-01
-1.315332717160323447e-02 -1.127598068007232002e-01 4.732467707189395578e-01
-3.898082663677094467e-02 -1.162272429826226444e-01 5.296477594250882381e-01
-9.529214730104899542e-03 -1.247499744574585567e-01 5.143928544226942234e-01
-5.889290686996330459e-02 -9.686581109380648646e-02 4.206151566855796942e-01
-2.874217566515410716e-02 -1.193842199716793340e-01 5.208602688387775626e-01
-4.742667677585762909e-02 -7.234833564194395605e-02 4.284119805394443481e-01
-2.740995497487860172e-02 -9.482763830477845823e-02 4.518490550511369830e-01
-7.072859477374006387e-02 -1.010997041493095217e-01 4.291571123542466393e-01
1.065123755508145913e-03 -1.255796756458082697e-01 5.068566665915051894e-01
-9.031748347005121025e-02 -1.087783646673862598e-01 4.753584338681289267e-01
-7.649760356907965575e-02 -1.087256199209339497e-01 5.189076608790200718e-01
-4.779303107996226568e-02 -9.337580548182289331e-02 4.360724435270469379e-01
-5.317023189040661485e-02 -1.112228264522437809e-01 4.771847538379924147e-01
-4.465011704926002967e-02 -9.053621877713560751e-02 4.384780513102974897e-01
-3.654225298144400669e-02 -9.962722078923436086e-02 4.550615368577421438e-01
-9.871662805058430135e-02 -9.143678940783749043e-02 4.563530834418965121e-01
-4.119302150278939673e-02 -1.039882406156872191e-01 4.596439906220866622e-01
-5.129312418114623934e-02 -5.836694724647619598e-02 4.304294006191103361e-01
-1.034099003577922116e-01 -8.900182198660425148e-02 4.656986118578668177e-01
-3.238161795949429100e-02 -7.036993061470486754e-02 4.359820380739919399e-01
-3.404683383686698400e-02 -7.601254129885166855e-02 4.368385448804046889e-01
-9.377708334447780458e-02 -1.040808534191830503e-01 5.127577987552515149e-01
-2.744144173930814293e-02 -1.186508635541961981e-01 4.990560856622358044e-01
-9.545074959686572491e-02 -1.077115550935869859e-01 4.985848519493507602e-01
-3.074992212683650902e-02 -8.955295326497858532e-02 4.453040564260102308e-01
-1.897119149044223380e-02 -1.212376361519211659e-01 5.034717106748962667e-01
-4.730842116901097516e-02 -7.620579227852219972e-02 4.284644112221114298e-01
-4.417437318791612305e-02 -1.068386999575075963e-01 4.634953519099566099e-01
-1.684046401974621798e-02 -5.340681558648283783e-02 4.380894210711067105e-01
-8.054718210059005901e-02 -1.106513758712544537e-01 4.908395468034051912e-01
-6.826303933372643296e-02 -8.252396555485919105e-02 4.223245714562262609e-01
-8.453274059870792556e-02 -1.094914577974342579e-01 4.750855820216984826e-01
-6.385322289139781782e-02 -1.118643042991463443e-01 4.854905867959701249e-01
-1.932898235682603896e-02 -1.219710561427257978e-01 5.208872790030951716e-01
-3.934255066132252149e-02 -8.613974394736576001e-02 4.389683243180623751e-01
-7.577747503331314083e-02 -1.016657945936114693e-01 4.369030387486663725e-01
-4.800731645311387408e-02 -9.106818942080885382e-02 4.309379130584039541e-01
-8.897472333543475498e-02 -9.002667012627098286e-02 4.442565225468749768e-01
-4.317068211902674174e-02 -1.164051718448247952e-01 5.191729925071931762e-01
-2.145471522304516140e-02 -1.213483706897393599e-01 5.209264248649279061e-01
-7.285430753494454015e-02 -1.064407213465287660e-01 4.567350574812565900e-01
-1.838795758065666849e-02 -1.211996126903713694e-01 5.329642041030715482e-01
-4.234677505381078538e-02 -1.066124692055923917e-01 4.637544014876180398e-01
-1.814164231504582572e-02 -8.700605552745288573e-02 4.457301598812068444e-01
-7.097765603765240905e-02 -1.112150955831051891e-01 5.149548296275490156e-01
-2.229256183953049961e-02 -5.798454568131451714e-02 4.373231859914120112e-01
-5.407802475927632468e-02 -4.827767484214336852e-02 4.344214194131507667e-01
-6.520196464230312849e-02 -1.038676777410502267e-01 4.394339631134256963e-01
-4.592752914140375148e-02 -1.114008053552986294e-01 4.792558367157983557e-01
-5.301103570129066245e-02 -1.088931049900775244e-01 4.662730879812837514e-01
-1.677702857136505188e-02 -1.219969667469511521e-01 5.048403543359379908e-01
-6.645758370480053800e-02 -1.109267429137499178e-01 4.784514911241674606e-01
-9.291825723451756225e-02 -9.176092682126431310e-02 4.489146141865131279e-01
-6.592816291890458980e-02 -1.103168363652841238e-01 4.731030428895302009e-01
-9.641425696983110805e-02 -1.002482457185746995e-01 4.539449607919944785e-01
-7.419657728666223528e-02 -1.103952297314362424e-01 4.776254802000665101e-01
-2.954226712772601085e-02 -9.431898743809882801e-02 4.505041502380188745e-01
-3.785573288514298279e-02 -9.577835261887025775e-02 4.484286091523261297e-01
-7.820369428516621424e-02 -1.094519347205192145e-01 5.138379272800943642e-01
-5.198087788448844948e-02 -2.637718171245441098e-02 4.382402517367139372e-01
-3.280464251563175448e-02 -1.182623065710122490e-01 5.230824246417842271e-01
-5.512548877338002001e-02 -5.157256834861748129e-02 4.333622846742513079e-01
-3.317692856052113087e-02 -1.177526715501227284e-01 5.278327687666033441e-01
-1.357315498718093469e-02 -7.987423344469887776e-02 4.432128029293302962e-01
-7.431641768137714141e-03 -1.113411376818592285e-01 4.696268831368072272e-01
-3.959171452716637313e-02 -4.051186995066485830e-02 4.344389389947744817e-01
-7.766856091604218068e-03 -1.239670884864308709e-01 5.319077257184533503e-01
-4.296788601904399929e-02 -9.098913831434456145e-02 4.410176499777074821e-01
-3.793792737870373133e-02 -1.132067023183061377e-01 4.840599328986122107e-01
1.839384132548320741e-04 -1.262196669747269184e-01 5.294599623648322817e-01
-4.694072186284296150e-02 -8.347342956710254724e-02 4.290766570482945630e-01
-4.693251274458958011e-02 -5.515844629894157969e-02 4.320246123123476778e-01
-3.575957023015329667e-02 -1.179194171754814613e-01 5.067104183011904572e-01
-2.077785046275023792e-02 -6.212243901039406907e-02 4.379588062879626875e-01
-7.620637665321416954e-02 -9.769774563229255415e-02 4.268406618081704851e-01
-6.442246424630952706e-02 -1.128613606586030688e-01 4.983912081006574568e-01
-3.531702156893718608e-02 -9.871162404044399319e-02 4.541136391577451636e-01
-2.193290406415927818e-02 -8.732285069920227294e-02 4.453881468709970370e-01
-7.764160856246399289e-03 -6.557065746156734432e-02 4.397405925317053321e-01
-1.888507702873805372e-02 -1.059312120817761382e-01 4.641415565184603964e-01
-9.456954430515774127e-03 -1.126675975325857892e-01 4.719503531771316873e-01
-4.083144451655088686e-02 -1.096877844391344059e-01 4.733970254909261599e-01
-5.329363678853728248e-02 -7.199320892019932250e-02 4.257478939954673081e-01
-5.386451917965954378e-02 -3.630496046604287513e-02 4.396960714670455350e-01
-1.934374426161909136e-03 -1.197962051293559316e-01 4.866239408462101346e-01
-7.482550250578577124e-03 -1.157637446185886820e-01 4.773085221767599529e-01
-7.661060648606720334e-03 -1.110253049701966921e-01 4.691635489388759628e-01
-6.419165181107751306e-02 -1.055603375870030614e-01 4.525521075285789396e-01
-1.947399776801704910e-02 -1.120424566539201944e-01 4.754970780352296145e-01
-1.921792245375882231e-03 -1.071920508602064864e-01 4.644798975479956238e-01
-9.708132345664084728e-02 -1.078796925056290240e-01 4.910584265469972731e-01
-3.639978171808644358e-02 -5.854451439680146557e-02 4.344267104129760360e-01
-9.764973781122703034e-02 -9.273727632258478570e-02 4.541164274204213536e-01
-3.610471471578426128e-02 -1.098690399121261541e-01 4.736697057991577919e-01
-1.384740196785148349e-02 -1.217901063671948392e-01 4.987564929052064611e-01
-9.518008642033570776e-02 -1.081122794469434878e-01 4.789922141393036514e-01
-1.132364026062121281e-03 -9.515118379000718496e-02 4.533928324221657147e-01
-2.711472446987139504e-02 -6.562763794986549437e-02 4.369927452952936942e-01
-9.732255608588197271e-02 -1.076781864872524697e-01 4.940604957404421405e-01
-1.023993500042504751e-01 -1.009049386080129590e-01 4.609721921268227218e-01
-5.722039507977265405e-02 -1.102037146813957119e-01 4.708983800600637926e-01
-5.106150501993535207e-02 -1.103961814359188942e-01 4.733726407984177320e-01
-8.988416769060543488e-02 -9.884660356399289916e-02 4.472798562853480542e-01
-4.806113093375698891e-02 -1.079599291909582176e-01 4.644342106589264829e-01
-2.768695475353594518e-02 -1.198673600184562843e-01 5.146900624231904864e-01
-6.020219080614459817e-02 -1.072346051479589613e-01 4.594634488994110422e-01
-3.187179434409904977e-02 -1.049939197438130301e-01 4.648096891529301389e-01
-4.098178011164980983e-02 -1.005295313907380583e-01 4.535016404741675777e-01
-8.465788873167230666e-02 -1.008965157410000035e-01 4.442839148828503504e-01
-8.692092920935179379e-02 -1.081772902756948790e-01 4.676946915852828179e-01
-6.210040423059984271e-02 -1.046950452680566884e-01 4.470535383023766518e-01
-1.713843414095544623e-02 -5.161246594587476366e-02 4.381931811951081390e-01
-2.509315281959880253e-02 -9.031116618471655977e-02 4.474073166770713983e-01
-9.293258101167582719e-02 -1.000348023068993453e-01 4.520103391692783523e-01
-8.246802952171461421e-02 -1.104424581564931729e-01 4.878254742162803081e-01
-9.282964641259200400e-02 -1.042312089837902495e-01 4.587262390918763200e-01
-2.692155041872984142e-03 -9.187193433395367259e-02 4.509069503829230552e-01
-9.416633863751468214e-02 -1.085018155942826523e-01 4.839560812170694559e-01
-2.728314875620491825e-02 -1.138180942693472752e-01 4.820815957448103539e-01
-5.990007172035165250e-02 -1.109989176765870528e-01 4.765223100718734006e-01
-7.699554282501482050e-02 -1.005209205715424936e-01 4.336841642253488893e-01
-3.945693008416989445e-02 -1.130917244827298745e-01 4.843937690028781717e-01
-6.468810018900961190e-02 -1.101520857280176707e-01 4.721472769904073719e-01
-3.314099812595780459e-02 -4.317233321217223835e-02 4.360485880431485550e-01
-4.257732260459204388e-02 -1.148146147116728272e-01 4.913356752719498788e-01
-1.946999398066959555e-02 -1.090614458829178846e-01 4.695688074559952185e-01
-8.325398377871340294e-02 -1.043345983445051472e-01 4.525996670294171187e-01
-2.033717745342451116e-02 -8.011171473969828927e-02 4.422481265214013857e-01
-2.741729051492973468e-02 -7.588496042032530364e-02 4.389760150159795482e-01
-3.868494649429647658e-02 -9.974928131269379661e-02 4.538165163119318724e-01
-8.862710577258332834e-02 -8.466697706224866893e-02 4.471573333629330071e-01
-3.558840003733828444e-02 -8.811271918894943156e-02 4.427042007952945446e-01
-5.396714927849466034e-03 -1.249675287536044094e-01 5.304995369828273688e-01
-1.058561046690733864e-01 -1.050682479934724745e-01 4.939286017349754365e-01
-2.571575885074074350e-02 -1.203252447434802197e-01 5.174068531440291219e-01
-6.173364981577013355e-02 -1.129930094618566278e-01 4.943016534989160271e-01
-7.712242387140655353e-02 -1.102773895760521539e-01 4.776579963354338210e-01
-5.763554670534828950e-02 -9.164313439275657835e-02 4.207842186810149543e-01
-4.869601823273030788e-02 -7.786194865605547411e-02 4.274541466576249338e-01
-7.993618717109610139e-02 -1.107167332315924929e-01 4.928488811651090540e-01
-1.458201539361742016e-04 -1.165812032695795614e-01 4.786690656767835783e-01
-5.146032008409270192e-02 -1.013724419760997364e-01 4.469412531648758735e-01
-4.207699514849413264e-02 -1.036941998129305570e-01 4.585768736858729655e-01
-5.624358040955287907e-02 -1.144312144329503456e-01 5.109586045406752097e-01
-3.949333339294400225e-02 -1.161233477611760545e-01 5.293362399857162170e-01
-2.408915239524094670e-02 -1.086676453797487119e-01 4.704696728764998226e-01
-9.514656976773341879e-02 -9.005723846480229167e-02 4.524495418581725437e-01
-3.033311060296201359e-02 -1.037946520541631473e-01 4.632443750976132923e-01
-5.371540203120037105e-02 -7.214961490752466733e-02 4.255971091629132119e-01
-6.596251661272346800e-02 -1.057337031644275810e-01 4.533076486028723151e-01
-3.382208412103847317e-02 -1.178462772403528064e-01 5.256775349347563298e-01
-1.092913621971876720e-01 -9.967124417234009270e-02 4.736386172283077456e-01
-4.898093359684700665e-02 -5.083841285469369031e-02 4.331476164065332091e-01
-4.063404060999547401e-02 -1.009477590718352163e-01 4.544920202167971879e-01
8.261947879805942030e-03 -1.258411696517955647e-01 5.357554311432357608e-01
-3.813377018561223825e-02 -1.011056495573638830e-01 4.564671322163822986e-01
-4.749103818534342047e-02 -8.111487167135604526e-02 4.284445416016440245e-01
-5.155165237692982405e-02 -1.151232320540641202e-01 5.147385841497745806e-01
4.003269577214429303e-03 -1.255387794027037207e-01 5.079401123886311264e-01
-1.538591686571804014e-02 -1.228819649976971018e-01 5.241733878527148338e-01
-6.607023062973914340e-02 -1.123854392645425304e-01 5.150282829575322241e-01
-6.543860180956247163e-02 -1.117377253651091057e-01 5.199007444910451747e-01
-2.280633383589179483e-02 -1.032894830199603126e-01 4.620479698788856338e-01
-9.874929533746737431e-02 -8.873888393060624935e-02 4.585713239981542011e-01
-9.189373043642125316e-03 -1.243174089234672930e-01 5.085051879256655694e-01
-5.882263484239648454e-02 -1.138195557258291218e-01 5.013451695020116894e-01
-1.507621129677163413e-02 -1.228121039434305756e-01 5.076200485807110807e-01
3.076931222487987866e-03 -1.202783434257534007e-01 4.884636930703867286e-01
-9.591484847455591933e-02 -8.640035914144021667e-02 4.574057608869734892e-01
-8.517143961723501466e-02 -1.100818599119993690e-01 4.885776034326075878e-01
-2.801390209904659409e-02 -1.119715389994929144e-01 4.776593220219614300e-01
-7.140363645746937438e-02 -1.109293612587000655e-01 4.816644204189650114e-01
-6.629105517634921452e-02 -1.034525389337494772e-01 4.362729773793935784e-01
-4.100698054138755821e-02 -1.150859744595727208e-01 5.336248432697655586e-01
-7.856611346100819682e-02 -1.107472809381115086e-01 5.021575135548980162e-01
-1.034756409885593809e-01 -1.055151118266446086e-01 4.972990433128091636e-01
-1.437567855935334427e-02 -1.030488861742181184e-01 4.596013701512961513e-01
-3.420379710895592867e-02 -1.151194312160216809e-01 4.889482262807370860e-01
-7.958091416103658944e-02 -1.101427219477231906e-01 4.777293558689234554e-01
-2.901289446944865791e-02 -5.572425542189812092e-02 4.361401016321970192e-01
-3.775839807479089427e-02 -1.142606319019399130e-01 4.874474160112416965e-01
-1.083443667036393110e-01 -9.713546345538440208e-02 4.684304295250601435e-01
-5.395109298029564238e-02 -8.787149255389416214e-02 4.234574105307170599e-01
-5.326163151249852651e-02 -2.516397760807620801e-02 4.413924748395444131e-01
-5.371252873768569969e-02 -2.621140655817884649e-02 4.439239923366278817e-01
-3.903108141540775206e-02 -1.126913796941631379e-01 4.829128756550279955e-01
-2.895716140765119614e-02 -5.109796194471107750e-02 4.369456557985317291e-01
-9.298952349950935503e-02 -1.079611095103963636e-01 5.003017307560834182e-01
-2.697292276915825779e-02 -9.102837213462389165e-02 4.478114177660883488e-01
-6.162830063378372213e-03 -1.243520292684436451e-01 5.047619530193837578e-01
-5.360924724766011340e-02 -1.023838833520587521e-01 4.475432632937108579e-01
-3.900155668844130369e-02 -8.172042676175758635e-02 4.364862369166358502e-01
-9.332081234606454806e-03 -1.105410025500985910e-01 4.686196973261575471e-01
-1.996148307925580886e-02 -1.130276159660495439e-01 4.780665382559674548e-01
-7.452439134174022872e-02 -9.498320490998836407e-02 4.236064993468307560e-01
-5.998434482480027863e-02 -1.122490864567286944e-01 4.851246848446115201e-01
-1.039153028092614783e-01 -1.043376918289764255e-01 5.005540807697358430e-01
-1.012350101842741795e-01 -1.067329628638140765e-01 4.828716374402670097e-01
-8.349967195598249209e-03 -8.652420914576955391e-02 4.469516508104118824e-01
-1.104906671689959291e-01 -1.014949833192396039e-01 4.844730072201486326e-01
-9.039048740566935081e-02 -1.062966043052980813e-01 4.634048286022817709e-01
-5.066777743107250126e-02 -1.044240806760235035e-01 4.547549475115303941e-01
-8.478919149005700873e-02 -8.934082844852377081e-02 4.385023836468937009e-01
-4.689250492121552899e-02 -7.206089441042735910e-02 4.288004709699276273e-01
-1.552750114183123337e-02 -1.231383246297766132e-01 5.187983701951566218e-01
-8.415895911122366416e-03 -1.234030841616362978e-01 5.337943805400195973e-01
-4.143371766148488955e-02 -5.514592154924833484e-02 4.330165209186380704e-01
-1.009570891482910668e-02 -7.662775260293235025e-02 4.427312188254013958e-01
-4.304425312026205486e-02 -1.165421857125981120e-01 5.176324622132473241e-01
-3.669659563833493898e-02 -1.146749105181001371e-01 5.410831501136329491e-01
-6.841821263314444568e-02 -1.124430233075311980e-01 5.088112473761516874e-01
-4.229117969448379505e-02 -3.258909520865096998e-02 4.348362279016519394e-01
-5.990511483295905132e-02 -6.088108125734355280e-02 4.318918259376975932e-01
-1.274969020834303482e-02 -1.234771489619526236e-01 5.264891135483633633e-01
-5.367172914258976774e-02 -8.934339867376221711e-02 4.237160128885210097e-01
-4.169953354480780000e-02 -9.108650623132670543e-02 4.420177376631742594e-01
-2.973043187643458277e-02 -1.173192301021611789e-01 5.373352811101708149e-01
-8.560360170529694723e-02 -9.217235955540456493e-02 4.384868180695335460e-01
2.924947826460858307e-03 -1.144769438778454052e-01 4.752836838964840660e-01
-7.088904930690444195e-02 -1.121215784632673407e-01 5.030213565166573586e-01
-3.140028670683162222e-03 -9.267259516706756461e-02 4.514222910477188599e-01
-1.015854971297015658e-01 -1.064364645969465284e-01 4.796941823154279305e-01
-5.799351909316313031e-02 -1.106360659828380805e-01 4.734723470519361932e-01
-4.335063821458863542e-02 -1.024880650329519360e-01 4.553095244840109079e-01
-3.277678617666249933e-02 -4.927384677120102974e-02 4.358290274855292634e-01
2.390916703957777795e-03 -9.071435070048505800e-02 4.509564564416790877e-01
-2.814373139571576046e-02 -3.305749820527664057e-02 4.376905124045747941e-01
-5.900749224623501321e-02 -8.501349644308865694e-02 4.217573211471752903e-01
-6.715995264205656956e-02 -1.119895478776133935e-01 5.164288898226648827e-01
7.121896615817043582e-04 -1.239101387443580782e-01 4.996450476757708925e-01
-2.717081193497062133e-02 -3.701234659327453519e-02 4.379159665232666976e-01
-7.602802157311096265e-02 -1.110013402006964078e-01 4.891533505547187022e-01
-2.745095274438184504e-02 -1.174739777529582307e-01 4.945188952376106672e-01
-2.761578754727303520e-02 -1.197161764327193539e-01 5.203873092231051656e-01
-4.387123383135937971e-02 -1.139485824483104925e-01 4.884354829030396195e-01
-8.830475548463204150e-02 -8.774954174591893807e-02 4.445645393032529036e-01
-9.912903807339140672e-02 -1.061896028530708441e-01 5.015356304477762706e-01
-5.778335967100844267e-02 -1.139318723880148460e-01 5.002607039076860662e-01
-7.574861817305812706e-02 -1.097356319018778920e-01 5.161027188421701828e-01
-5.764360434506969610e-02 -9.975046132246463693e-02 4.208668058595256278e-01
-2.769107020011095030e-02 -1.029080071814905267e-01 4.623076066242793325e-01
-7.903426487813730583e-02 -1.108450396874241101e-01 4.996203687798905224e-01
-3.390603570188445437e-02 -1.180858283817719651e-01 5.031269163429713531e-01
-1.737424273805363018e-02 -4.965236978815117802e-02 4.383155218103490514e-01
-8.463967909228935216e-02 -1.072328571390947366e-01 5.135132033583044153e-01
-1.925164670258321456e-02 -1.187216213114644509e-01 4.917841467867342109e-01
-6.307488248531378794e-02 -1.061615226494471986e-01 4.551307943936939715e-01
-5.968385373455383641e-02 -1.130769987823976724e-01 4.921209220157672370e-01
-7.822482085841381272e-02 -8.845850697319095068e-02 4.278691718615345585e-01
-7.430481840884062272e-02 -1.090419474617720791e-01 4.691227029411355054e-01
-8.363348067351675241e-02 -1.071319277765571815e-01 4.622307929335571774e-01
-1.331161212447712350e-02 -9.072485890023276878e-02 4.483729385170945880e-01
-3.343458588594473008e-02 -7.844376377253321764e-02 4.382206368275723407e-01
-3.752453392515452818e-02 -1.010167331230374804e-01 4.567258218377026058e-01
-6.645750187240744011e-02 -1.085129962189059355e-01 4.651559588342840668e-01
-6.792421985520177494e-03 -1.253657904893196451e-01 5.207739923003367188e-01
-4.129482825597741158e-02 -8.055449985601229046e-02 4.343863991060455398e-01
-1.269210258666557400e-02 -1.003772772095103405e-01 4.565452189996521137e-01
-6.357026748795752136e-02 -1.129358079661086228e-01 4.973305009240510666e-01
-2.729899683422755061e-02 -1.059979787665165651e-01 4.665705607510438613e-01
-1.084019169394127430e-01 -1.025130849417373036e-01 4.998472467406087638e-01
-6.614590478351697889e-02 -7.602638249422556671e-02 4.267308853197582241e-01
-6.711731169508443340e-02 -8.792940307128742361e-02 4.193034541833791651e-01
-1.493651974626322362e-02 -9.356015217803148598e-02 4.503760335566978079e-01
-9.376276002998565340e-02 -9.868325955278846318e-02 4.513474106444381184e-01
-5.639410009639072435e-02 -7.399929330802723637e-02 4.243333215015035464e-01
-6.454006131339791452e-02 -1.125989811962416209e-01 4.939730809352793628e-01
-5.429756852222689806e-02 -1.143663240341770415e-01 4.981219998262610416e-01
-9.764219955837928622e-02 -1.043516550189211578e-01 5.085233202408150355e-01
-1.148585157221246149e-02 -1.106701180793199513e-01 4.694298548609524557e-01
1.660098173062113727e-05 -1.167385206040815609e-01 4.790436296678561301e-01
-8.557470019571233877e-02 -1.099565008227404023e-01 4.919103234766653565e-01
-6.426783924617036903e-02 -1.122729370728274140e-01 4.896125198273066914e-01
-3.956923912533558824e-02 -1.173153846505913117e-01 5.122005634213422365e-01
-6.542139725845136367e-02 -1.050891848079056057e-01 4.498566604178816375e-01
-7.278509571505639708e-02 -1.072082559647619393e-01 4.598520741601604955e-01
-4.972911129083073395e-02 -9.800103470509100023e-02 4.424088464664813758e-01
-1.033027906911095917e-01 -1.040283544943163413e-01 4.685535018318746636e-01
-8.157151418938358989e-02 -1.073832369413653814e-01 4.625462872260014957e-01
-4.957017357143755736e-03 -1.242964869264881062e-01 5.036857344120426738e-01
-1.379389250403464592e-02 -1.169365869958618048e-01 4.825286798189712401e-01
-7.905758112001570748e-02 -9.760386286617812879e-02 4.319441500520384558e-01
-5.380051607292660187e-02 -1.147987340836997827e-01 5.131404500662049006e-01
-1.252295348698353669e-02 -8.862044450154102360e-02 4.473137245829882924e-01
-1.377180475269424408e-02 -1.192236442644636074e-01 4.883861353560586260e-01
-8.183523494087862477e-03 -1.061772775570488103e-01 4.628196109926967505e-01
-4.366988244183713647e-02 -1.079316826792217215e-01 4.664846392005987386e-01
1.133383932079648319e-02 -1.262834789169418603e-01 5.196226079991668190e-01
-1.045893985871853560e-01 -9.757082903658566286e-02 4.604026659465290106e-01
-7.464894404909692971e-02 -9.440018457037130384e-02 4.232333690897001621e-01
-1.845782470170049400e-02 -1.145773878027410292e-01 4.805851388083586251e-01
-1.070904981861576649e-01 -1.028101075931057706e-01 4.730630340332458994e-01
-4.341791585642829771e-02 -6.899285149128907280e-02 4.308633762765803898e-01
-6.949274479007258587e-02 -1.117003521350605627e-01 5.138540763929875244e-01
-3.312462020303362509e-02 -5.297090415047230744e-02 4.352794719363893283e-01
-8.055828267937092946e-02 -1.089653982785951936e-01 5.125412354561563744e-01
4.249360835951051206e-04 -1.104199681206137623e-01 4.682895629552760175e-01
-1.752931217067076053e-02 -1.215972789774737439e-01 5.035625483298118432e-01
3.143372763606155484e-03 -1.159683398960269923e-01 4.778006989806464766e-01
-4.565445898284192783e-02 -1.072065685595854356e-01 4.636978389485832963e-01
-1.195457884381403470e-02 -1.191373646223526511e-01 4.871804424395226873e-01
-6.448615636761950709e-02 -1.129961801265780830e-01 5.011057160848899628e-01
5.430970277468141587e-04 -8.827502930545470805e-02 4.493522791719889997e-01
-5.458533233001769402e-02 -1.145426463818967761e-01 5.048405640661804972e-01
-1.764295282461723858e-03 -1.129514951498061248e-01 4.721188998011057736e-01
-1.109402332818905379e-02 -1.198352526954660074e-01 4.889718153981295057e-01
-3.407034872201045866e-02 -4.474610375776504056e-02 4.356287612169134627e-01
-4.494356678026328183e-02 -1.046269782697697021e-01 4.586285109573903229e-01
-1.062818557114487417e-01 -1.048191531389708053e-01 4.823702594884269890e-01
-5.805956541447992308e-02 -1.111613788160428218e-01 5.297142540314861980e-01
-4.672270748465680301e-02 -4.327519729537672444e-02 4.340747909321275300e-01
-6.718740607453604907e-02 -1.014221460266003377e-01 4.247382418328952691e-01
3.019982527080728937e-03 -1.261837133001904310e-01 5.111708477997468636e-01
-6.034492233359334962e-02 -1.071178457834670722e-01 4.589554305256558497e-01
-7.854626641282864974e-02 -1.050048076319256146e-01 4.528117984773687987e-01
-5.617302093158577092e-02 -1.123386604650028764e-01 5.271677493163744455e-01
1.832242746588379212e-03 -1.263508898301048400e-01 5.125154328822852934e-01
-7.838034100937064930e-02 -8.960613622981718207e-02 4.278303220039232913e-01
-3.361029360602448696e-02 -9.879938442782144892e-02 4.548032457460310374e-01
-1.745448470284721720e-02 -9.318705859412365622e-02 4.499497558840452327e-01
-2.862136845508360047e-02 -1.183898246696181711e-01 5.327700388921475794e-01
-4.286805078656918261e-02 -1.159118936151865425e-01 4.977843925808441150e-01
-7.912723484254800821e-02 -1.086286967807382209e-01 5.159036845085734901e-01
-5.239193265041160869e-02 -7.270352887816439180e-02 4.259296741467731851e-01
-9.479960740951880183e-02 -1.077393405253267988e-01 4.993402369841736244e-01
-2.844428590164100809e-02 -1.196714046848205981e-01 5.144148531575583050e-01
-4.938335697733900465e-02 -6.340073043389464480e-02 4.286334577626564890e-01
-3.534773603714540247e-02 -7.625810363989315999e-02 4.363097183702324133e-01
-2.903908388587947420e-02 -8.032103874065590898e-02 4.404268811328181377e-01
-7.587140426051652842e-02 -8.825944393479169536e-02 4.240679823122883718e-01
-1.312745303664280931e-04 -1.266889366341929501e-01 5.183695087259091450e-01
-2.113501518688957331e-02 -1.214851783216949616e-01 5.197124253524855186e-01
-6.516902483749438535e-02 -1.040368274792828479e-01 4.411606142536246833e-01
-1.037914835030058630e-01 -1.060265431861625446e-01 4.858088405036561364e-01
-7.059259499411485450e-02 -8.190396820983035509e-02 4.237578120027886142e-01
-2.728140695621840417e-02 -1.054336398398396241e-01 4.656395109038031777e-01
-3.851097313897184488e-02 -9.384834084075693861e-02 4.462958756835813112e-01
-1.155388635261607455e-02 -1.237009899532250518e-01 5.081529932165872454e-01
-3.910018404752382826e-02 -1.155887499373497440e-01 4.931360031892372819e-01
-7.606160627353940329e-02 -1.034601003624535387e-01 4.443175691373398850e-01
-6.376185210768262057e-02 -7.793440896139393337e-02 4.241813304980334709e-01
-3.159989737338131377e-02 -5.371565539306892567e-02 4.356456402744728340e-01
-3.588333412086856106e-02 -1.133434938482806575e-01 4.835566988690441770e-01
-6.649547592431144516e-02 -7.564819140614792436e-02 4.271573135389375997e-01
-4.374379436226144557e-02 -1.093936254658005175e-01 4.715662908293384858e-01
-2.187205542531508659e-02 -7.872466596271142369e-02 4.414292752380791218e-01
-4.772200018049576470e-02 -4.901860500758736805e-02 4.333190653052704233e-01
9.092807694627258984e-05 -1.082195637439486574e-01 4.658446289487656600e-01
-7.820697584866019569e-02 -1.067875507420615461e-01 4.593103063661557184e-01
-2.866357439065151877e-02 -9.637123136893016584e-02 4.530387311990001220e-01
-5.795514428524078249e-02 -1.132224719773579219e-01 4.917215133447103148e-01
-9.022765159651613409e-02 -1.089968776480847723e-01 4.781533881294355859e-01
-5.532712536630948058e-02 -1.140752735770763776e-01 5.189671980313744770e-01
2.513061853893705337e-03 -1.050449088770434580e-01 4.628290914282056079e-01
-6.406689382508849728e-02 -1.129587293698321171e-01 4.991933184647944222e-01
-1.120634024121442730e-02 -1.168834520629827289e-01 4.807831064400936438e-01
-2.368894309140714971e-02 -8.060551369247405396e-02 4.419387349522624353e-01
-6.197274202670643994e-02 -1.124418299282337330e-01 4.887161276846923030e-01
-2.475044705574267877e-03 -1.262762049889734617e-01 5.222357462395108563e-01
-1.497028724783200371e-02 -9.152501184201486395e-02 4.486298120237662834e-01
-4.354471744857172505e-02 -2.840934179433723603e-02 4.354769723799916115e-01
-4.995308736355064116e-03 -1.165394523207064770e-01 4.783603244486231976e-01
-7.529496424403136871e-03 -8.861973138632411873e-02 4.482068434054629624e-01
-4.295784419159883599e-02 -3.303304469028603418e-02 4.347377859800862776e-01
-9.344499740675495103e-02 -8.634155364962348145e-02 4.535308278537418247e-01
-3.243639904856178424e-02 -1.187297568193813185e-01 5.151147229209757095e-01
-2.150010889994466434e-02 -1.207639426681358652e-01 5.277558557730487321e-01
-7.521167228606705224e-02 -1.113653720404026437e-01 4.943465304490863854e-01
-6.353699573800183908e-02 -1.125245401866929590e-01 4.910541009224203002e-01
-8.365387177860106327e-02 -1.086085015845380808e-01 5.088009590803118654e-01
-5.353884185454570177e-02 -2.715472240098119189e-02 4.424019928847663929e-01
-4.087071500559601167e-02 -9.248234054382416247e-02 4.437279401995109507e-01
-9.591926150565080467e-02 -1.048005743237791082e-01 5.091528607984366905e-01
-7.971064935551823438e-03 -1.250482389489217805e-01 5.224860083382188991e-01
-5.639125499452352780e-02 -1.040573567004647454e-01 4.491518948609192763e-01
-1.465075303444855238e-02 -1.163848873218564506e-01 4.819265196548015440e-01
-5.093544029730135564e-02 -1.125982120484593785e-01 4.841337478504515457e-01
-7.176280092093184626e-02 -1.050327138822605560e-01 4.505232645177446038e-01
-9.425324641943015613e-02 -1.063670916437618741e-01 5.058889886075725872e-01
-5.938016244857246412e-02 -8.171849149200789697e-02 4.224952095790674433e-01
-1.034546441990575882e-01 -8.829311671319760302e-02 4.665446344814613844e-01
-6.574193343408658852e-02 -1.121093744217114690e-01 4.894614875437234836e-01
1.321881540377473681e-03 -1.159734437277957497e-01 4.775376552974888722e-01
-1.030818381934979489e-01 -1.054619295948207164e-01 4.767451465771859187e-01
-1.778544005413687165e-02 -1.227232638673956822e-01 5.137969920846340299e-01
-3.544857552862681199e-02 -1.168008123861919711e-01 5.321495681669689004e-01
-4.530429639562467276e-02 -1.098012454672541993e-01 4.729441827414407884e-01
-6.029068740134879700e-02 -1.028776697488206077e-01 4.284414997233801925e-01
-4.713125821705216323e-02 -1.139151503533392257e-01 4.896509444660581689e-01
-1.074861436834302630e-01 -1.033089141350167911e-01 4.774176651966476892e-01
-1.043735941524112920e-01 -1.056188121577409794e-01 4.813635368373640477e-01
-7.062662486126630723e-02 -9.050677938558283897e-02 4.187751116950645391e-01
-1.221214657330322792e-02 -9.979700752740938707e-02 4.560470129386149929e-01
-1.020815931079645938e-01 -9.426077603611349165e-02 4.591223150986065704e-01
-6.472075113984951389e-02 -1.002154901635819162e-01 4.211740531827438128e-01
-8.719575757440046690e-03 -9.829710735247802755e-02 4.549239896280167228e-01
3.129174803924680490e-03 -1.222295479121501549e-01 4.945145557996667440e-01
-5.229896667760730589e-02 -9.932554029825595154e-02 4.354228124514525344e-01
-2.692047041305219504e-02 -1.198527857692873316e-01 5.076036365755202118e-01
-5.362586237752442475e-02 -1.144695421029709170e-01 5.178452109914402079e-01
-1.395112286100063347e-03 -1.171935161273465753e-01 4.799324087065583999e-01
-4.939884366038262836e-02 -9.323532072241041968e-02 4.300140824144952356e-01
-1.097109530780162462e-02 -1.081745580511569438e-01 4.653503305615120933e-01
-4.896043752991035419e-02 -1.037672584639359463e-01 4.542172967765406577e-01
-3.930051096350161560e-02 -8.450093193767294064e-02 4.377819874811723078e-01
-9.021513384927712376e-02 -1.066762425783149004e-01 4.646670349094670360e-01
-4.415151910301441662e-02 -3.653801902964486092e-02 4.345628658055223914e-01
-9.471717746861546550e-02 -8.505642996569606762e-02 4.569521319452127806e-01
-8.115502140304557688e-02 -1.071320812496845548e-01 4.614533203775438297e-01
5.118312807017898550e-03 -1.239889435970504272e-01 5.010754155133705368e-01
3.226671804831174762e-03 -1.111030367740935831e-01 4.699885574035916891e-01
-3.761542034139013502e-02 -8.134038020076823916e-02 4.372474857340546417e-01
-8.251956115635013245e-02 -1.080164413190601858e-01 4.652815264672157114e-01
-2.066542650646401719e-02 -1.201092271900139480e-01 5.358874626694495324e-01
-4.900973285776829419e-02 -8.835324040188784200e-02 4.275273015034930513e-01
-4.971329058095669967e-02 -9.023192860724710274e-02 4.272448124382552948e-01
-3.508047636240198969e-02 -4.239748214236505053e-02 4.354086596759814687e-01
-2.280674866595749570e-02 -6.105410760081867588e-02 4.374713855736454549e-01
-6.242727901856619938e-02 -1.131713059052058823e-01 5.146873872063196798e-01
-4.367097616603629606e-02 -6.144657446513303312e-02 4.311994394553363419e-01
-1.431922932300025084e-02 -1.235230222316271720e-01 5.175064943331715295e-01
-7.791257371063109449e-02 -1.021210090158284900e-01 4.400154045138748860e-01
-9.188376545785431615e-02 -1.001419365432272279e-01 4.517329947551453340e-01
-5.895770975685131476e-02 -1.096342251481815105e-01 4.687891887077084152e-01
-9.376993725383149514e-02 -1.086759304538315873e-01 4.916419400287631580e-01
-9.206304350799870972e-02 -1.044851708291023862e-01 5.131684136645959793e-01
-9.780386809323251066e-03 -5.455676092140000072e-02 4.378157404913202155e-01
-9.366538624366248580e-03 -9.257334378228482263e-02 4.500972906178828947e-01
-7.118691536937162001e-02 -1.098031641784809054e-01 4.729327213951893816e-01
-5.320168485574666706e-02 -2.915585639068070389e-02 4.396960317266827567e-01
-6.906657553803231819e-02 -8.076432156378708649e-02 4.240912925622492002e-01
-6.415675034388623743e-02 -9.831421108089580252e-02 4.212489754677987697e-01
-4.756795497596385397e-02 -7.438982806138202952e-02 4.282242084905800161e-01
-6.067345407420629555e-02 -6.303546121272349256e-02 4.306988256740750254e-01
-6.094186751524834772e-02 -8.077693866192761640e-02 4.226647855517038921e-01
-4.005070610901536460e-02 -4.552029861458070648e-02 4.341800278164524851e-01
-4.180457567013165510e-02 -1.165361558850678964e-01 5.212381352553082658e-01
-3.941372385878983559e-03 -7.952409045754904593e-02 4.448387622704902400e-01
-3.879402995169239921e-02 -9.641070592096424863e-02 4.487465972895717803e-01
-4.798642850347317745e-02 -7.418248717696111771e-02 4.279228618476723089e-01
-2.244846578447513147e-02 -1.208710148262687467e-01 5.234540516175333336e-01
-6.142574101785729795e-02 -1.136312440114721767e-01 5.112250174124643998e-01
-6.551210974100278583e-02 -1.102630321685683923e-01 4.727885558345634176e-01
-8.913970908752835709e-02 -8.611636018298632345e-02 4.465018921341128433e-01
2.452378993513517833e-03 -1.267300471941199824e-01 5.251605143236606210e-01
-2.859789269841948867e-02 -9.152650685892939342e-02 4.480084255907439972e-01
-3.265853580247666393e-02 -6.216679450292689896e-02 4.355587126235112572e-01
-6.966325813763113439e-02 -9.343165723875353212e-02 4.193967355968408195e-01
-6.256398521223420495e-02 -1.025490545194512049e-01 4.245759393221561484e-01
-9.278662435073789516e-02 -9.132950300224046414e-02 4.488103499941436536e-01
-4.283343349812839679e-02 -1.158809426815291671e-01 5.253149811331003782e-01
-1.001061217836304341e-02 -8.746350407745981381e-02 4.471010853075619851e-01
-5.080650846333290699e-02 -1.142726611944113319e-01 4.933932380356797487e-01
-1.260611914140010760e-02 -1.143571829555395380e-01 4.762350746732718076e-01
-6.457754082554008346e-02 -1.124792788681611422e-01 4.918632437938232349e-01
-1.820546192677495803e-02 -1.195557088264360412e-01 4.934307871666152034e-01
-1.691082364984770187e-02 -5.153121940169594351e-02 4.382220634785415347e-01
-8.691522679516575089e-02 -1.084129429443645570e-01 5.056374752561284547e-01
-1.054811450213052615e-01 -1.053227939595336449e-01 4.824098387575695979e-01
