-8.019396212576730687e-02 -1.089470760671335525e-01 5.144499768167336562e-01
-1.541132557044587459e-02 -1.018206477135918109e-01 4.582510943524912839e-01
-1.209117674602225127e-02 -1.144589602966969016e-01 4.760066800038201817e-01
-1.893647826936862080e-02 -1.196049850544591703e-01 5.407436324918801773e-01
-7.495717779485949750e-02 -1.116739697855979735e-01 4.907685341542378787e-01
-5.357400419941087816e-02 -4.118031443434701233e-02 4.367494534843424647e-01
-7.538385100133403183e-02 -1.066318392883682936e-01 4.552283273339144398e-01
-2.662747453310093659e-02 -1.042552109932578797e-01 4.637335224339038664e-01
-1.154284309667010650e-02 -1.227643935439703959e-01 5.349790494421118314e-01
-9.896768790168591901e-02 -1.073008638711744900e-01 4.743861769474156942e-01
-6.225767623835875425e-02 -1.135450292794045052e-01 4.985715052207028708e-01
-3.972546626192200586e-02 -8.498855778357679303e-02 4.371344026025822393e-01
-7.787651890672141197e-02 -1.090112784232483006e-01 4.657379672465234433e-01
-4.395595611401928449e-02 -5.294955813317257787e-02 4.331954293206583539e-01
-2.146466063569317517e-02 -1.107965896518951915e-01 4.734683332467917172e-01
-7.935168408987852695e-02 -1.112577824780627556e-01 4.920519068183459299e-01
-9.308909032606188516e-02 -1.067399117625592309e-01 5.069723552720331039e-01
-2.229741186862825575e-02 -1.167058977816452792e-01 5.474651762847680958e-01
-6.123391999073962005e-02 -6.516559007934706604e-02 4.297619975070398057e-01
-1.205872560281272092e-02 -7.172498005344574157e-02 4.408677130207881434e-01
-5.745565959786506915e-02 -1.125380332653795057e-01 4.832784949866917867e-01
-4.152991108976010481e-02 -6.068094440285751873e-02 4.321604184511026459e-01
-6.158253128632673601e-02 -1.119662750447912164e-01 4.807806496762219717e-01
-5.312387169093822636e-02 -1.151383337320300432e-01 5.118077737499346913e-01
-8.214775154742173791e-02 -9.441368921533034586e-02 4.337591993264758861e-01
5.203952910683803078e-03 -1.269450849411167814e-01 5.206319186423871148e-01
-6.465347279959864080e-02 -1.126471514176739103e-01 4.896628952655676659e-01
-5.332286575359901359e-02 -1.050826111976909949e-01 4.524820683378167896e-01
-4.389174070581530751e-02 -1.137212575230092670e-01 4.864092928923095527e-01
-5.602660359577191912e-02 -5.546341823605250437e-02 4.321158158871949984e-01
-6.961200309242729367e-03 -1.124187252725394187e-01 4.711418736619102932e-01
-5.343010007162635883e-02 -2.592247966245056837e-02 4.426254627083725524e-01
-7.305269940049968769e-02 -1.085999189886992511e-01 4.630187956024586216e-01
-1.726627835399827463e-02 -6.093731613100270700e-02 4.382872591345504665e-01
-4.559586319053553216e-02 -4.050540036694869062e-02 4.344497587542346384e-01
-1.579477857303654420e-02 -1.153606924691112090e-01 4.803715502650609537e-01
-1.088470060562226754e-01 -1.006040753235210028e-01 4.732845400578090667e-01
-9.791435533270863301e-02 -1.047843174775744124e-01 5.080741473245448114e-01
-5.035632213395440510e-02 -5.779299298725244782e-02 4.307831909891266520e-01
-2.906585736375557824e-02 -9.065330628275541924e-02 4.464482037222318733e-01
-3.140834926284748890e-02 -1.132496469000416478e-01 4.809208640233872400e-01
-7.183013609129824083e-03 -8.224452522538945598e-02 4.452684224048562567e-01
-3.361928703401426827e-02 -1.152788201695849196e-01 4.884452536844549053e-01
-9.523606325119131355e-02 -1.087607298526463012e-01 4.822696909336186555e-01
-7.188353445419508325e-02 -1.119215114172882886e-01 5.099346817276509958e-01
-2.649173693715101835e-02 -1.163442790768825785e-01 4.894509304768185354e-01
-9.643690149039101100e-02 -1.084878702211981572e-01 4.822760139461551576e-01
-4.222294093465982917e-02 -8.986746982713893217e-02 4.397726376512794966e-01
-7.604961467092877236e-02 -1.115445331742720564e-01 4.903600799460438586e-01
-1.986978917154833685e-02 -1.125836182124134444e-01 4.765956141229813481e-01
-7.428040671208166468e-02 -1.072976774157082536e-01 4.575521549255712195e-01
-3.036093549687783697e-03 -8.115967670022644631e-02 4.455391172885767581e-01
-4.638901511483654178e-02 -1.158471470224614469e-01 4.985830700153428552e-01
-5.584039184363152192e-02 -1.027586504110951510e-01 4.430939229696301829e-01
-8.460339633282011607e-02 -8.747069348027181057e-02 4.394587163959776110e-01
-8.841498167317246581e-02 -1.101337804471350934e-01 4.893154981956678307e-01
-3.211178930540175419e-02 -1.162784806148869504e-01 5.397780953801359916e-01
-4.049149805964137594e-02 -3.360971570653736862e-02 4.348358256421513413e-01
-2.940613142552787190e-02 -1.119636084967680079e-01 4.774715506828798861e-01
-6.236959391983837309e-02 -7.873729921357797146e-02 4.232260730766974621e-01
-1.138968783706590104e-01 -9.614349659313513319e-02 4.832592282674880724e-01
-5.447302791037203495e-02 -7.189650015456608423e-02 4.252787462079616332e-01
-5.418307468897085033e-02 -3.215212218530741350e-02 4.434745187100112007e-01
-3.207471848727476427e-02 -3.355328261046497396e-02 4.367199297538408298e-01
-2.078091147604014047e-02 -1.169718422461102497e-01 4.879441662298926730e-01
-1.555796318964822525e-02 -1.016122745308599418e-01 4.580828089050664742e-01
-2.628418319621930732e-02 -1.064095254805560720e-01 4.666594171935313784e-01
-3.915250935019978090e-02 -6.565066140995522159e-02 4.328068849096291526e-01
-2.173533602936624995e-02 -8.624419824743972951e-02 4.446784379285686484e-01
-1.042717514501585382e-02 -1.240393240068112107e-01 5.280315029478459543e-01
-3.989241338422445937e-02 -6.372248719766285263e-02 4.326296728961894211e-01
-6.665391082508138887e-02 -1.130592714833593693e-01 5.009139759707419426e-01
-1.045827161524166965e-01 -9.739733516444265549e-02 4.606551184777548102e-01
-6.800817464737904383e-02 -1.121624003656151725e-01 4.875553726741884142e-01
-8.728933415397084616e-02 -1.003047594522093744e-01 4.444513966006539696e-01
-2.175462512225272496e-02 -7.346786024001940307e-02 4.395233112114139695e-01
-4.552994362391356298e-02 -1.154214120018725587e-01 5.252591871723050199e-01
-4.815102805743286252e-02 -6.717612157576159648e-02 4.281624359847087113e-01
-8.774056099164427580e-02 -1.101443648769809547e-01 4.822810271499611834e-01
-8.921495284284158833e-02 -9.991662542010167070e-02 4.468325980829571109e-01
-4.725811689844294783e-02 -3.347830648685326538e-02 4.354681571454878108e-01
-2.859983572933773310e-02 -9.413397991994068570e-02 4.501761453181857275e-01
-4.216286810912073246e-02 -1.169688763330104936e-01 5.125685262173812484e-01
-4.368845529603505862e-02 -1.153376261590996210e-01 4.928903610773920363e-01
-3.042387128084153569e-02 -1.166756001434317014e-01 5.399596073207595381e-01
-6.750006609462876062e-02 -1.077424369068588905e-01 4.588676831578740734e-01
-1.392948233162817975e-02 -1.233992561001795579e-01 5.107455411938441880e-01
-1.288449093673343926e-02 -9.387714314806454297e-02 4.505038409718458703e-01
-8.906699599141817969e-02 -1.098937098509764204e-01 4.815062419202661981e-01
-9.347830111275981513e-02 -1.091574942606450688e-01 4.832430930046001105e-01
-5.761645544228635729e-02 -1.132503736740065048e-01 4.880955294658659849e-01
-5.046949811043537071e-02 -9.576677404249892001e-02 4.272894520586262845e-01
-5.599973255812931705e-02 -9.416907357671286394e-02 4.212010361156598437e-01
-5.405367688693284156e-02 -1.124407018389512875e-01 4.819906522983696262e-01
-3.601159457308093087e-02 -1.176147460821987123e-01 5.244710582757763362e-01
-4.009484425404588950e-03 -1.018860357730883986e-01 4.588417894380883988e-01
-3.800894065838967412e-02 -1.177886668630523936e-01 5.119391570305845685e-01
-5.339545156692003525e-02 -3.525570724338318584e-02 4.384211308601924095e-01
1.083817431334751710e-02 -1.263267517911943472e-01 5.340565700000639016e-01
-8.863495886741751262e-02 -1.084961568566922829e-01 5.050462891419466027e-01
-9.598957391448036114e-02 -9.522237379370311616e-02 4.521077371495360597e-01
-1.967517116623880222e-02 -1.189209725903798837e-01 5.426172257778079100e-01
-4.790943865153694803e-02 -3.902249122197751913e-02 4.350580970379580581e-01
-3.100244062994624017e-02 -1.171871524816466698e-01 5.365922689491037234e-01
-2.908676237551305332e-02 -1.194213201055394774e-01 5.066254387303164020e-01
-5.113283325106103561e-02 -3.423843173611409302e-02 4.377280229106446097e-01
-1.912216896694167792e-02 -8.605201337319423605e-02 4.450347639819986489e-01
-5.416651458717433587e-02 -2.934918086676951976e-02 4.448608128737413514e-01
-4.366284095788906111e-03 -1.235625742250013454e-01 4.994048061220905943e-01
-4.278092125967293546e-02 -1.049033181856546121e-01 4.594633595548655580e-01
-1.431372859032450234e-02 -1.200135953250938692e-01 4.911852542952262479e-01
-9.571814045253042302e-02 -1.074357827525066894e-01 5.021773246206238106e-01
-4.149890999710326850e-02 -1.080734979345538971e-01 4.662392561941193225e-01
-7.188154595757817455e-02 -1.121537701461605835e-01 5.068562221398495993e-01
-6.546427162701787261e-02 -1.042846733881862276e-01 4.362484890326151499e-01
-1.551431973794254425e-02 -8.722883906846645719e-02 4.460157422077632439e-01
-2.300846899422836003e-02 -9.395110290083483195e-02 4.511233017581883775e-01
-6.110769509797133597e-02 -1.036502534023757416e-01 4.257084599286451998e-01
-8.372932451127687581e-02 -1.008126752307915569e-01 4.416800959583582209e-01
-9.465649959186066276e-02 -1.056347199196834147e-01 4.619906047653122849e-01
-7.791850075005543608e-02 -9.579338579290438971e-02 4.255213090176915847e-01
-1.612383675382062648e-02 -1.223089835505753731e-01 5.290190895412625327e-01
-1.098327434761228738e-01 -1.029923488658254782e-01 4.902960738182093881e-01
-5.409317232079048632e-02 -8.353507693721874683e-02 4.230936377535173820e-01
-2.593735533051068354e-02 -1.196505038193163284e-01 5.024772464116674664e-01
-4.847235551645228541e-02 -1.106906376075084408e-01 4.733259530359588685e-01
-3.611794095089765257e-03 -9.698627144872648542e-02 4.545223910703165004e-01
-6.996194515457553054e-02 -1.072175126253625127e-01 4.568432380991611086e-01
-3.065732177665907512e-02 -7.938693239510417887e-02 4.390751839717283445e-01
-7.512385050885764248e-02 -9.704821909483668518e-02 4.245384943148610146e-01
-1.087548702097838049e-01 -9.493760196972654553e-02 4.697623952536067460e-01
-3.479859458895472046e-02 -1.145533251088996923e-01 5.428283073155169003e-01
-8.476345856573083704e-02 -9.406154805197172730e-02 4.379197913497338002e-01
-1.549898955205936298e-02 -9.231386887083371795e-02 4.489958334339353430e-01
-4.595660398396322899e-02 -9.851251862272360216e-02 4.449694669228709820e-01
-7.599028473337971976e-03 -1.057863490643863452e-01 4.622598793795983929e-01
-7.611866201153603961e-02 -1.117496101053799679e-01 4.959965482189204744e-01
-5.183340194033923820e-02 -6.815064862920941491e-02 4.267973376649496497e-01
-2.397665312342502422e-02 -7.466591179909518039e-02 4.392987620767629942e-01
-1.966354789453284360e-02 -1.135177552079632696e-01 4.787831454791058317e-01
-3.392860833086973338e-02 -1.119452116170981532e-01 4.778456804420646575e-01
-2.588759925343436796e-02 -4.530045590506106418e-02 4.379838716110985852e-01
-1.051116852028515930e-01 -1.057689866540811457e-01 4.942581371577157157e-01
-5.658854634022560115e-02 -1.145405209432826532e-01 5.048848431180381624e-01
-5.968108537603042385e-02 -7.488675974631503474e-02 4.242419947654191281e-01
-5.349090785363957816e-04 -1.264735318235568062e-01 5.251224225376217580e-01
-5.802494074405027680e-02 -8.666647709127899002e-02 4.214549091027502414e-01
-6.006519184920709742e-02 -1.031785527105612416e-01 4.223624734673991354e-01
-8.144665865194945786e-02 -1.090495806707912491e-01 4.664892253848975656e-01
-4.928121432991554307e-02 -1.092241293400491448e-01 4.666333732427668246e-01
-9.222174739080081507e-02 -1.047676629339774068e-01 4.576724901263358736e-01
-2.107584558014932719e-02 -1.211780119527516020e-01 5.247053913652801604e-01
-7.082038210215776952e-02 -1.068127827835882032e-01 4.552081272573520465e-01
-4.535421833329840446e-02 -6.393168963831054319e-02 4.301131024720898921e-01
-9.292974099543181710e-02 -1.043568345437010936e-01 4.572158795279104848e-01
-8.069740974434568004e-02 -1.093532089406884927e-01 4.677026598019045078e-01
-4.571132694615964720e-02 -1.005763878685110857e-01 4.489391519873613956e-01
-5.765609899008540540e-02 -7.126623920769102616e-02 4.252969310528039726e-01
-2.580855579468808829e-04 -9.845204411056729388e-02 4.562854027070189500e-01
-9.343174079985037961e-02 -9.307886574700975635e-02 4.495010828496526778e-01
-5.861380117097801656e-02 -1.141466508306142463e-01 5.005715732398215989e-01
-8.483315120341142213e-02 -1.061998065496363025e-01 4.568210786319267802e-01
-2.071524266736226097e-02 -1.146266498211859219e-01 4.817901353763772154e-01
5.123265000617090691e-03 -1.215638848488926615e-01 4.929324102385000961e-01
-4.642501614441041369e-02 -9.638424048246192755e-02 4.421811763324443589e-01
-5.352036813446154478e-02 -6.572573884576009273e-02 4.273030391309119436e-01
-3.119965883705543008e-02 -6.304094034444177042e-02 4.358199176954233867e-01
-6.771966990844123513e-02 -1.103665239880775445e-01 4.716355347811985732e-01
-3.307855590070638008e-02 -1.088563852209737670e-01 4.709456902940110656e-01
-5.099420384947743468e-02 -1.126107858580246285e-01 4.820926411875691153e-01
-5.356430902975469269e-03 -1.249664467099798060e-01 5.305320078911257564e-01
1.264740065448557906e-03 -1.123458431289580950e-01 4.713451855583418726e-01
-1.205329167994014655e-02 -1.241650343433939874e-01 5.170616765037626683e-01
-2.022577253664534572e-02 -7.605050406199703739e-02 4.404570041229251554e-01
-9.254873259127435747e-02 -9.019393662479875673e-02 4.492910698169452210e-01
-3.000475875654504479e-02 -9.308764312527711970e-02 4.485094957789840797e-01
-8.927788653469175342e-03 -1.232192608846438137e-01 5.006045857342849015e-01
-7.505418846654665632e-02 -1.112103411901017164e-01 4.809142068160200401e-01
-1.818935858010251039e-02 -1.026870800597485256e-01 4.598977678089002930e-01
-1.029165408411844562e-01 -1.055142995399622058e-01 4.729141930234923574e-01
-9.139595221310897050e-03 -6.186030959548689118e-02 4.387523292508498929e-01
-7.071783733898664992e-02 -1.052243065516215853e-01 4.476405726946546815e-01
-5.478240778171357406e-02 -9.544426388105317627e-02 4.221589277922103700e-01
-7.264183399565553312e-02 -9.876335925320868514e-02 4.244349057715030016e-01
-6.969088917646122650e-02 -1.024522993611009097e-01 4.300552970009800524e-01
-2.686234445173511093e-02 -5.081916172484762101e-02 4.373268069209391151e-01
-4.823407948952358054e-02 -9.554231238870651566e-02 4.371138366352966820e-01
-4.713768741643564741e-02 -8.226748290812103959e-02 4.283806053223525590e-01
-2.391574430054509148e-02 -9.219057532108249076e-02 4.491336546239766969e-01
-3.447724050790280936e-02 -1.176687846619433042e-01 5.267733780115870790e-01
-6.369029473045696721e-02 -1.110602663597288486e-01 4.735931039020942479e-01
-6.623712465843355213e-02 -1.033372438097230339e-01 4.295795290983965842e-01
-2.668088075287260511e-02 -9.738742441766888580e-02 4.546574523029431325e-01
-1.381290986065045884e-03 -1.108042576300905108e-01 4.684785955300376226e-01
7.529447698593801606e-03 -1.245660531218139855e-01 5.039172822014418296e-01
-1.563942047929112178e-02 -1.000131357015062450e-01 4.565022117106664612e-01
-1.637842605677900659e-03 -1.264115937344620633e-01 5.234436081344474578e-01
-1.151369271722181044e-02 -6.314701461062213750e-02 4.389932168089241138e-01
-1.103691754270880523e-02 -1.179574232317125160e-01 4.830918506698849146e-01
-8.185947635444459913e-02 -9.075447172144746055e-02 4.329322774815355657e-01
-2.444080075335310076e-02 -1.171756187445122110e-01 4.912195640398872021e-01
-4.639989860195248977e-02 -5.734769165922707496e-02 4.313128496206555251e-01
-1.063881540954921684e-01 -9.344329924702871049e-02 4.663949934166601863e-01
-6.754569024390551235e-02 -1.058817211454085305e-01 4.505713347707629990e-01
-8.751749291041108214e-02 -1.092834409482328628e-01 5.012966473673422518e-01
-6.129702519780266812e-02 -6.901332825312209152e-02 4.273688699758881326e-01
-3.903472182300613685e-02 -1.145957435864682350e-01 4.883524190942897247e-01
-2.420592232690024423e-03 -1.262754393966282196e-01 5.230254032981622725e-01
-1.016242386180505330e-01 -9.124836349280492087e-02 4.612640187906345557e-01
-3.277606553664277802e-03 -1.035161624212272008e-01 4.604763148683718166e-01
-1.634505572514088206e-02 -1.164272612939531992e-01 4.831319968385759944e-01
-5.370710000173669479e-02 -1.135602726063896506e-01 4.881340031218697750e-01
-5.507895527250138146e-02 -5.242314820561123218e-02 4.331026632698042889e-01
-7.715121109861242110e-02 -1.102350999566726747e-01 5.124985915782178658e-01
-9.206244841272345769e-02 -1.095473015863602656e-01 4.909906373874074470e-01
-6.327411385872195974e-03 -1.053176907507601540e-01 4.619671901155352756e-01
-5.569156140468307231e-02 -7.074464093886306815e-02 4.251213676328076674e-01
-1.024213938742032648e-01 -9.165569921264216102e-02 4.621125375208866570e-01
-1.613010403788191216e-02 -1.216249021180343670e-01 5.010284379436126256e-01
-3.403891921526298880e-02 -1.145179184508588882e-01 4.857588075004510286e-01
-7.607811574826633949e-02 -1.113304471237038518e-01 4.843993949196312987e-01
-7.915880375163715510e-02 -1.112786330784153177e-01 4.974736554413371481e-01
-2.750366241163462733e-02 -1.186425870801011140e-01 5.333963196434238219e-01
-6.809556072269355720e-02 -9.626411338245863258e-02 4.195734349741482849e-01
-5.237533021460772514e-02 -1.143232019516410708e-01 4.926476752326513497e-01
-6.255760587373254689e-02 -1.037677169100337526e-01 4.363102551539185248e-01
-4.693440160881470584e-03 -9.813511291632408262e-02 4.553366650096135615e-01
-2.134411604787632422e-02 -7.036903345919051644e-02 4.389958627434937810e-01
-5.245035643143475951e-02 -1.150723232831089571e-01 5.159223789046728514e-01
-2.657919802923711106e-02 -1.166663432314631599e-01 4.906745736725471874e-01
-1.099226799933215731e-01 -1.029849432338099113e-01 4.954210447409073681e-01
-7.604588011534485492e-02 -9.015502225779807588e-02 4.243548087587560302e-01
-8.808697739776996660e-02 -1.101796094864651715e-01 4.891669279848488427e-01
3.486606539833630655e-03 -1.102899635070971746e-01 4.686312878110832081e-01
-6.616732709008350810e-02 -1.009356205083254826e-01 4.209047828834076022e-01
-2.935131794928861823e-02 -1.191528759396066339e-01 5.032191063869202452e-01
-3.222969445796221299e-02 -1.163339421508389343e-01 5.393408344736488891e-01
-2.657101762769494696e-02 -9.363978209222174887e-02 4.501716162260464560e-01
-7.425141231371286399e-02 -1.046571485507835353e-01 4.455153909423763547e-01
-2.363828010143902841e-02 -7.609466177683026078e-02 4.398264838291217615e-01
-1.816273934274651586e-02 -1.130217287162531697e-01 4.766126415221437207e-01
-1.044380278621654667e-01 -1.016671729406622565e-01 4.640439245749203301e-01
-8.476459609090178371e-02 -1.070523317480125136e-01 4.599375666774743743e-01
-3.146112190743657888e-02 -1.166166544911780845e-01 5.389035377817702477e-01
-6.406387091382570453e-02 -7.076427663476068941e-02 4.268488311940105695e-01
-3.325802755566887453e-02 -4.782126810867720623e-02 4.356864923063997752e-01
-5.209649853471810810e-02 -9.980851162799583842e-02 4.384690232216718608e-01
1.467982661585202908e-03 -1.203056952335594815e-01 4.880668925240136402e-01
-3.942192621349193543e-02 -6.435032761382095123e-02 4.327905622646113226e-01
-4.297460473592614599e-02 -1.152040501719778925e-01 5.302319676302182927e-01
-8.951966342720107939e-03 -1.247257290164029420e-01 5.238230197684589085e-01
-1.440113304648541967e-02 -1.122158651311131877e-01 4.727544836058769073e-01
-5.643530629175839974e-02 -1.002719531597667940e-01 4.209217525743300659e-01
4.279295887084867602e-04 -9.887552751886802271e-02 4.567435318245003928e-01
-1.063074703537349869e-01 -1.054398515665708330e-01 4.831365518970821560e-01
-3.643177956341005219e-02 -1.038152245259418155e-01 4.609715819594633612e-01
-4.946099551610683154e-02 -1.157050192394672994e-01 5.091284598137855166e-01
-1.847055892904327437e-02 -9.667752343415367267e-02 4.535780008804989327e-01
-3.759848711563914397e-02 -3.243461039272102497e-02 4.355466873783635506e-01
-1.077296067189849327e-01 -1.042891902838536528e-01 4.816859330940630457e-01
-2.927001612002715081e-02 -3.486297897736437973e-02 4.373983408714698373e-01
-6.506592449458549476e-02 -8.997976424538089990e-02 4.192621990307801583e-01
-7.117196836337752637e-03 -1.238898676448966785e-01 5.327180985122480505e-01
-1.091074067939732870e-02 -1.243509201496618283e-01 5.205031170544437424e-01
-4.345839895069613518e-02 -7.195122938546848201e-02 4.308311171797286621e-01
-7.011347616067710453e-02 -1.073462870588428736e-01 4.573954349975794531e-01
-7.767408955019279582e-02 -9.197459952862835353e-02 4.265192252804238526e-01
-2.821120854734932015e-02 -9.278609176960891936e-02 4.489265424428720008e-01
-4.263247532501496240e-02 -1.164464528111207181e-01 5.221941862729309047e-01
-5.809491688510790008e-02 -1.133597100867516222e-01 5.217662173261609082e-01
-4.504411888123054097e-02 -4.186862598841637612e-02 4.342624062297840704e-01
-4.070554085668496441e-02 -1.154682166524250153e-01 5.323768585191962499e-01
-1.145459833188118386e-02 -7.662862168597728285e-02 4.424121958024269108e-01
-7.175454860735086537e-02 -9.097355185706865188e-02 4.185692950610208074e-01
-4.829713212688971358e-02 -1.122396236014719245e-01 4.802919532359127830e-01
-3.614628612669226054e-02 -1.073651480056505986e-01 4.673656075381219521e-01
-1.580480805434111499e-02 -8.788409227077739749e-02 4.462640001693688463e-01
-9.715896611835077301e-03 -6.175453371513050377e-02 4.387372415639529399e-01
-3.304358781650004045e-02 -1.023896286616878260e-01 4.597296976655363410e-01
-1.082666462169751785e-02 -1.244457467353060759e-01 5.143584785680314075e-01
-5.948095215626090365e-02 -1.130044196710702775e-01 4.876454636806624721e-01
-2.222703752935548116e-02 -1.176771750871105637e-01 4.911280679047682618e-01
-8.554908184146890401e-03 -7.091378748575694058e-02 4.410098901735899357e-01
-5.502740460273541911e-02 -5.840365624184382098e-02 4.302725813989785042e-01
-4.725512697863890749e-02 -1.155791324105376050e-01 4.965636419731476736e-01
-1.898310517189241708e-02 -4.144105892530308699e-02 4.384405857949152940e-01
-4.476519576644049508e-02 -1.086410994435172001e-01 4.665274115476481520e-01
-4.637473543325106029e-02 -1.151075801461565185e-01 5.259657362526259927e-01
-2.842671760575454440e-02 -9.997686121758443678e-02 4.574917460705400507e-01
-6.023484666282252070e-02 -1.036679026216496269e-01 4.391392936521509860e-01
-3.141912177548862595e-02 -1.005371073050970038e-01 4.574575040087653366e-01
-4.168936558261031322e-02 -1.128289288478296626e-01 4.828910891154638008e-01
-9.412414280603680072e-02 -1.033128597150145683e-01 4.560816757887755646e-01
-1.635540715867358011e-02 -1.165835051423722568e-01 4.834864632108062943e-01
-5.226906875303221484e-02 -1.150279881810618576e-01 5.167875248522999510e-01
-1.073959439735422960e-01 -9.331854625412901172e-02 4.680002423518471732e-01
-3.364060068276916032e-02 -9.837289345373195770e-02 4.533421306065788525e-01
-3.471847139963615044e-03 -1.108766730963302027e-01 4.683977544677686566e-01
-2.163557974878985504e-02 -1.180896178333823571e-01 4.922598704644330914e-01
-9.304679303588146710e-02 -1.061416860137050500e-01 5.090957930988007085e-01
-3.890713610254693117e-02 -8.101029508634438603e-02 4.357282744061813373e-01
-5.857128801292657561e-02 -1.064489120389780219e-01 4.545299957994145545e-01
-3.713814139605161463e-02 -9.036952856917881971e-02 4.432209861981366017e-01
-2.077515202581224629e-02 -1.105732588874785011e-01 4.728286665418193202e-01
-2.081151558249859021e-02 -9.495946891729543926e-02 4.519490585623760492e-01
-2.403631382490806212e-02 -1.207469833486015803e-01 5.097969120490178918e-01
-3.976452415732611295e-02 -8.121422012822843151e-02 4.352303473958977764e-01
-1.039949597504733897e-01 -1.043587791011766630e-01 5.013489053742089530e-01
-1.012062102304440991e-02 -1.238490227917707492e-01 5.065016536031740069e-01
-5.182164587557257229e-02 -9.374931124219929024e-02 4.247933161805511615e-01
-9.032780573473824653e-03 -6.665999834060820639e-02 4.400205330762617106e-01
-3.926642397230269144e-02 -5.752100671994414549e-02 4.334727022720167855e-01
-2.868623229822913831e-02 -9.188925065974240525e-02 4.478578270815019025e-01
-9.388270869145741437e-02 -1.018559769561582923e-01 4.530221134341882450e-01
-3.086625842260585367e-02 -1.181693551291006089e-01 5.300533950009989059e-01
-6.590039486533896818e-02 -1.112173873343663133e-01 4.754338278678206242e-01
-4.295721618728916974e-02 -1.008818674039626689e-01 4.514615861479752135e-01
-3.589352223730972458e-02 -9.123460589499807205e-02 4.446122756268761633e-01
9.000335922037449796e-03 -1.267355721185565443e-01 5.253075610061662681e-01
3.235522934862920807e-03 -9.795331253148896467e-02 4.562397568025327588e-01
-6.381809098775326206e-02 -9.873703897252007755e-02 4.208583096703529813e-01
-8.969192549302430761e-02 -1.069710722914467282e-01 4.629715632568840444e-01
-7.721028446551400637e-02 -9.457847167939878452e-02 4.251276579381268461e-01
-7.766365181542246587e-02 -1.112280944693214424e-01 4.850006677325239823e-01
-4.893187384464674911e-02 -1.015335762280530907e-01 4.476516682910601230e-01
-1.077220458007362575e-01 -9.741848157810771569e-02 4.673104746931699971e-01
-7.256809575731226758e-02 -1.100871229596513678e-01 4.715424038504467119e-01
-6.246111590333552205e-02 -1.110959361276539492e-01 5.266730902463888642e-01
-1.420457930702366880e-02 -1.165942977414161918e-01 4.819823531447890996e-01
-7.994675998738326461e-02 -9.471432185263116421e-02 4.302795447939768980e-01
-5.281609678842749678e-02 -1.148162895910707221e-01 4.977415747983110483e-01
-8.544181807978253052e-02 -8.956985393831870534e-02 4.398955437609622376e-01
-8.989326254081660833e-04 -1.262666073128469457e-01 5.268534693292040716e-01
-1.184468620386081202e-02 -7.620609161772481932e-02 4.422069070913708932e-01
-2.115548023984775358e-02 -1.170803971482171080e-01 5.472777437145639468e-01
-3.557157207465411631e-04 -1.020968818051400523e-01 4.594766717917907473e-01
-2.421290703827876090e-02 -1.202379755440271258e-01 5.254875137799979168e-01
-9.917804088645858218e-02 -1.073825918838123561e-01 4.967467219396633493e-01
-6.859226450627939342e-02 -1.123691241032761523e-01 4.910489933234662985e-01
-4.094850920334804772e-02 -1.104513812510008602e-01 4.746519845901068235e-01
-8.057503665195550613e-02 -1.027363846446179840e-01 4.439092124681324192e-01
-1.055212108624876688e-01 -1.012119678276408308e-01 4.654098607640953511e-01
-3.902862675002254089e-02 -1.175670778490227608e-01 5.149909525824629686e-01
-1.737271669900057255e-02 -8.762781322780571758e-02 4.459679987719790684e-01
-5.113837016945282921e-02 -1.017085535038818045e-01 4.461162965192067564e-01
-7.476197402392768809e-02 -1.112622853672769196e-01 5.099207772728092669e-01
-5.621365824158585517e-02 -5.336383579210528250e-02 4.335784349744047361e-01
-5.975392298455894924e-02 -6.576563074439023548e-02 4.290792137682981067e-01
-4.740018770922133778e-02 -1.160612689508049022e-01 5.095662984672757467e-01
-1.089263032427854466e-01 -1.042091708074622119e-01 4.908518611387738817e-01
-1.583109712009356587e-02 -1.197066139365131204e-01 4.912359553908425269e-01
-8.784424327680244449e-02 -1.069137540254328778e-01 4.614247867961638327e-01
-1.288457884369793860e-02 -8.014881167275221541e-02 4.433422035985044030e-01
-5.111930008402508496e-02 -1.139086381778456614e-01 4.887056924203189712e-01
-5.390874706587627657e-02 -1.113779535880730226e-01 4.756642383305312305e-01
-9.516787219669740894e-02 -1.068208621383721357e-01 5.049609486600945552e-01
-1.109995146295141705e-01 -9.756386362778911303e-02 4.744386112134523770e-01
-5.039391649627511516e-02 -2.761767715923134706e-02 4.370550947668833119e-01
-2.653723843987269501e-02 -6.791367946370599484e-02 4.372180809716951222e-01
-4.833776908719504550e-02 -1.156808550843303196e-01 5.175903017560151698e-01
-9.740909257283160427e-02 -1.081268724523858915e-01 4.940446790683649669e-01
-4.581810089517217993e-02 -4.483985394784396894e-02 4.338713327664021624e-01
-8.073881105146710202e-02 -9.003409355581880325e-02 4.312967371580205822e-01
-2.706949804975921844e-02 -1.188658828597307787e-01 5.321686867811196153e-01
-3.741757787864848778e-02 -8.246639667703377363e-02 4.374130087201799078e-01
-8.065312030432955637e-02 -1.055320907656690788e-01 4.530212147735632744e-01
-4.380663426585992837e-02 -1.121407173693643178e-01 4.809111889167526632e-01
-8.528063188065443390e-02 -1.100584192510158377e-01 4.757020556589761084e-01
4.564608180539313047e-03 -1.258994610681111181e-01 5.337861847311182739e-01
-9.982007267507012060e-02 -1.066255782783972761e-01 4.724098647862846057e-01
-7.624039683261076006e-02 -1.114339347055509633e-01 5.044545112055137670e-01
-4.444486997603067091e-03 -1.026338257245102414e-01 4.594635876650859929e-01
-9.268359533808782913e-02 -1.038973404395582001e-01 4.560566283054983128e-01
-2.220006101130765283e-02 -6.000779568385255364e-02 4.374518520021398738e-01
1.327604289465605155e-03 -1.205884943312705987e-01 4.889186554785822647e-01
-3.850637790276176947e-02 -9.186316809884659262e-02 4.437599150081794064e-01
-4.091249882824936346e-02 -8.733854332869071813e-02 4.383071989130178370e-01
-3.886685665143210094e-02 -1.002845892983727505e-01 4.535338311018925483e-01
-2.926894602241669752e-02 -1.186197562881747131e-01 5.292961896698394897e-01
-3.233019546552852452e-02 -1.186603652611060017e-01 5.048050993713067980e-01
-1.335707307245271799e-02 -8.550773888962322211e-02 4.456519013140651242e-01
-5.939402504423545170e-02 -1.124916889973318485e-01 5.245134725067451820e-01
-4.282741953165104115e-02 -1.129505890620595282e-01 4.834945845147105015e-01
-8.858406829288556494e-02 -8.980990395191225384e-02 4.443294047312052464e-01
-2.964448845811992750e-02 -1.194927663722866046e-01 5.123979948239888449e-01
-2.560883490660247411e-02 -1.021470959936577189e-01 4.609138971914209515e-01
-3.131987332178461092e-02 -3.834529397800482547e-02 4.368774208116030233e-01
-3.695035972032329613e-02 -1.110823489597638214e-01 4.762349462770132935e-01
-1.406835455539566689e-02 -1.132349849029139210e-01 4.745843103609723723e-01
-4.900247938888988020e-02 -1.155420040894327149e-01 5.010176331800444416e-01
-8.330270018551458322e-02 -9.452361716677659675e-02 4.357627554397237590e-01
-4.106293702159009157e-02 -1.171950198861034936e-01 5.106587391982869706e-01
8.182103357515305153e-03 -1.224388765736945522e-01 4.965348829790406926e-01
-5.323973354017423609e-02 -1.142084940385373476e-01 4.925409719073202686e-01
-4.927627388683421261e-02 -9.809426717487673697e-02 4.409092424200673488e-01
-4.387526444352403410e-02 -1.166539550248276991e-01 5.085714633687918873e-01
-8.166717603297361794e-02 -9.352758161714551377e-02 4.323741507385944205e-01
1.492436985704419412e-02 -1.254383414656468632e-01 5.362692938778098606e-01
-7.236134523947920782e-02 -1.025587970837882612e-01 4.337358130361806952e-01
-3.260564011615129515e-02 -8.992149673445169744e-02 4.446316717483319580e-01
-4.768619652803253450e-02 -9.587973528303724013e-02 4.397740138969150614e-01
-5.375925555579702184e-05 -1.145198680293286198e-01 4.748091040996659240e-01
-1.064651665414650672e-01 -1.051720805922368163e-01 4.821946073818719758e-01
-1.000095895466418805e-01 -1.058038204677035493e-01 4.684604501258952669e-01
-5.776528424450672744e-02 -1.104034988179467547e-01 4.694803531443946798e-01
-1.889991363641702754e-02 -9.116131718337282253e-02 4.480001020142184154e-01
-1.012654407640993237e-01 -1.053943078243699816e-01 5.019020092890996709e-01
-7.083497209237070436e-02 -1.101501463893554827e-01 5.210276576328388698e-01
-1.744965367800297568e-02 -1.214252429883524026e-01 5.333543166630004828e-01
-3.229164288544865424e-02 -3.365481675043206083e-02 4.366664692312232088e-01
-6.857853341191492980e-02 -1.044537729518659336e-01 4.403344944176322828e-01
-2.347425455123240690e-02 -1.128416447822240820e-01 4.784319225382550056e-01
-6.602167801783632994e-02 -9.402030544275126467e-02 4.190166230226216593e-01
-1.398603804523310991e-02 -6.433966924977166379e-02 4.390928128545397158e-01
-8.944685625343819224e-02 -1.099441845337160717e-01 4.859305493260717701e-01
-1.147127262913507847e-02 -1.148889633561846618e-01 4.765524062284172135e-01
-5.898646940404064093e-02 -1.036940328324278543e-01 4.270484553209845102e-01
-2.019286670543921774e-02 -1.215102937773817754e-01 5.063750782466808209e-01
-7.751587898942548238e-02 -1.015037062435538706e-01 4.349337692437532654e-01
-3.846451831341637928e-02 -1.177095246191725009e-01 5.104040560323621634e-01
-3.571808541136332199e-02 -1.170088138947146805e-01 5.300407023235587101e-01
-1.195222416300828309e-02 -5.477601348644896284e-02 4.380299714749665285e-01
-1.192781455662428325e-02 -1.087874374107179049e-01 4.661526359665703612e-01
8.172776759560447177e-03 -1.233565716326847916e-01 4.996845780981891139e-01
-5.344859987313674288e-02 -4.280190395543152782e-02 4.358408281250497618e-01
-4.110590276748308375e-02 -9.178837579725664109e-02 4.422819895181830385e-01
-9.628219548721873855e-04 -9.158078434515955213e-02 4.509008432198073346e-01
-1.028256820540794231e-01 -1.047140686896892020e-01 4.679060048878834754e-01
-9.562410140404986603e-02 -1.087425899761519515e-01 4.884752243636403812e-01
-3.817180333325165265e-02 -3.644846841861709014e-02 4.348299520545162999e-01
-3.617451554330296942e-02 -1.161905886344450217e-01 5.352053623577492925e-01
-6.390300093806458581e-02 -1.132210408951279806e-01 4.969497603258594132e-01
-4.862346720333017569e-02 -1.152835793449195206e-01 5.219535107201831448e-01
-3.974665459657793914e-02 -1.090418037530357098e-01 4.699639035732474102e-01
-5.706906233704100995e-02 -1.133008930423596988e-01 5.229844532833224369e-01
2.077942195730257680e-03 -1.063260735618971609e-01 4.639926456770723240e-01
-7.091828924630468045e-02 -8.641487268422705370e-02 4.209768767071568329e-01
-1.187507387860921131e-02 -1.191424006279694914e-01 4.868670588686445644e-01
-4.043849634892270062e-02 -5.830482684777421598e-02 4.329395913564617615e-01
-7.590170203661281145e-02 -1.110567687194750630e-01 4.791433888051118695e-01
-8.385435650140632413e-02 -1.107215621857570997e-01 4.905325119346453100e-01
-7.900079754431643675e-02 -9.160934549530586057e-02 4.281644495198446698e-01
-1.114969594524095331e-01 -9.419771049703541677e-02 4.763741707467519793e-01
-1.367706629570636205e-02 -1.230524135729745006e-01 5.287230417581256781e-01
-2.984359436927840059e-02 -7.686575088599237326e-02 4.384305806742571643e-01
-8.129134753968704497e-02 -1.095520031177026066e-01 5.096208025040203093e-01
-8.745754109273302934e-02 -1.059656588209288708e-01 4.572907097903413098e-01
-9.683794471510781543e-02 -8.891863253466232575e-02 4.565280382571439421e-01
-6.648879841138884139e-02 -1.128641805510116058e-01 4.958323200495416416e-01
-6.884484289991217587e-02 -1.107274890669418671e-01 5.210708003728050652e-01
-2.563171648034119968e-02 -1.204627154098749653e-01 5.117925031810117709e-01
-2.356883181152787804e-02 -1.158241707502149498e-01 4.863065530455957797e-01
-1.370952804093103841e-02 -7.571101464632402911e-02 4.416656606415402808e-01
1.114052232059231130e-04 -9.784638758321155538e-02 4.557852700924533429e-01
-1.969001478123265717e-02 -9.180397066011093676e-02 4.486122811789085008e-01
-1.033741213685168969e-01 -1.066825417417681249e-01 4.852811182907143528e-01
-5.595251342670388289e-02 -1.145879200133131520e-01 5.033143916592416334e-01
-4.279008463737393048e-02 -1.164415822115124066e-01 5.001437905568972830e-01
-1.010623143007289837e-01 -8.953241150517589342e-02 4.621730733486074105e-01
-4.764938206807004667e-02 -1.157712717907624783e-01 5.016835253877734990e-01
-2.239248120948567067e-02 -5.082282044646602853e-02 4.379871369843750806e-01
-9.379817619050710709e-02 -8.436281761686148517e-02 4.570673474301070183e-01
-1.295986174695227394e-02 -1.017352900258705756e-01 4.577642478219002276e-01
5.693070359097113751e-03 -1.262702592447353667e-01 5.320719913591107630e-01
-6.386507782405223543e-02 -8.381945675046406641e-02 4.212100832231873149e-01
-7.074953047164092568e-02 -1.047232201956956876e-01 4.444862799114031038e-01
-2.226263124255527769e-03 -8.002415992820967328e-02 4.452319202416682997e-01
-3.657064538790290829e-03 -1.135582199449784446e-01 4.728979160571664675e-01
-5.291257820111306548e-02 -1.056649275671319027e-01 4.554760160240727274e-01
-3.367670280065033356e-02 -5.247204113053488550e-02 4.351537040511944676e-01
-4.199033466031170531e-02 -1.066505432106971685e-01 4.630640362211792538e-01
1.763941956234758249e-03 -1.259442701969132883e-01 5.321582550221709562e-01
-5.724535719092695846e-02 -6.824321159944583826e-02 4.270085484045237356e-01
-5.145799691882792237e-02 -6.240133415045800991e-02 4.288259222795616221e-01
-5.655336144317052449e-02 -1.069592017298995890e-01 4.575285634659347345e-01
7.908549280128683232e-03 -1.227013684386187437e-01 4.972924002685416012e-01
-6.146493360489937996e-02 -7.095776636459606712e-02 4.261877774264864471e-01
-5.478181668456524878e-02 -4.484455956091660395e-02 4.377801942196428708e-01
-8.863015657732814523e-02 -9.266296890742843628e-02 4.429281723134878557e-01
-3.340764019233309623e-02 -1.164953266322645009e-01 4.929250367032870228e-01
-7.732750220709325162e-02 -1.073941070391450925e-01 4.587707638705049162e-01
-7.643835091961825867e-02 -1.024731120604627232e-01 4.372733040799341442e-01
-7.184190808144479135e-02 -1.112713929171955107e-01 5.150546701636635749e-01
-9.217966560504360640e-02 -8.369399634501888119e-02 4.550344498499868107e-01
-7.623340559411936890e-02 -1.099563953228030605e-01 4.713158083374597851e-01
-5.041129202685128152e-02 -1.143938195697281196e-01 4.913145112629860312e-01
-3.677574484180945458e-02 -9.734513588403184703e-02 4.504111352539924007e-01
-8.678699492930615211e-02 -1.100995451591916252e-01 4.960331622082865266e-01
-6.614131773603895703e-02 -7.409988958413743498e-02 4.280331206396449373e-01
-5.916753352890059825e-02 -1.029710876449824175e-01 4.215615914468068826e-01
-5.267730718380894683e-02 -2.815005655486774866e-02 4.391846339059796711e-01
-7.071808145604308732e-03 -8.078873139001893633e-02 4.446962719476539871e-01
-7.081095742517387603e-02 -1.118667870117354274e-01 4.875585838203775890e-01
-3.495684406532523214e-02 -1.149184686685798817e-01 5.417318279535821013e-01
-9.838217617910417767e-02 -1.008682778151010623e-01 4.570043646757850908e-01
-6.008237085615656531e-02 -8.267567694156517655e-02 4.222797637494904444e-01
-4.206860377194564932e-02 -5.976821907248765914e-02 4.319967400762476095e-01
-8.115495467458887918e-03 -1.171433421325694391e-01 4.798644263758116146e-01
-6.342950908529004783e-02 -1.135671571414471337e-01 5.034390544366932341e-01
-1.019755248224331057e-01 -1.033967042924582996e-01 4.626822427940178173e-01
