-3.874091078994774950e-02 -3.339302951320194390e-02 4.351184328477928354e-01
-3.367475323935192888e-02 -1.102585309716467982e-01 4.741038864887989757e-01
-6.349875035727994832e-02 -1.099309983095095034e-01 4.692498544887082068e-01
-9.305887564274031853e-02 -9.832172580913235704e-02 4.503357004989381185e-01
-1.435186555357941332e-02 -1.222442370488514563e-01 5.020776004327831554e-01
-4.302162815909615912e-03 -1.257455705071757746e-01 5.141347922451789954e-01
-1.370368552901520855e-03 -1.264490679944260676e-01 5.166187917178060029e-01
-4.088449191167636138e-02 -9.948655724099718378e-02 4.510138691959935109e-01
-6.171647817929887259e-02 -7.496372122973511687e-02 4.245006030070535008e-01
-1.664014557969716382e-02 -1.225393675503428093e-01 5.238993577375616884e-01
-1.081647454351116339e-01 -1.027649363803001259e-01 4.761304345055277221e-01
-6.325288543412080355e-02 -1.036176254222091891e-01 4.353452035394319575e-01
-3.364783590332887098e-02 -8.979577883586875586e-02 4.443055544279284619e-01
-4.856335486244155175e-02 -7.121487647168718571e-02 4.273782492932903798e-01
-2.144876985987157619e-02 -1.150822995779084840e-01 4.831071850244853527e-01
-3.148152421494690434e-02 -6.966690136484177120e-02 4.361397068406260291e-01
-1.078312508391755103e-01 -1.043654063069517635e-01 4.832883077438733799e-01
-1.261232448496985882e-02 -1.201418057557211705e-01 4.905008223343801377e-01
3.700090393683408418e-03 -1.224186670102652974e-01 4.950301833291244069e-01
-8.530940704034324640e-03 -1.249701567642767241e-01 5.205151894483781572e-01
-8.513771771220554618e-02 -1.055706494238942972e-01 4.556079485171730670e-01
-5.696918159006456039e-02 -1.130719552000814948e-01 4.870810421413785396e-01
-2.388744833854170371e-02 -7.529579273295469721e-02 4.394911742345503081e-01
-3.294624835202582258e-02 -1.182063787168512320e-01 5.243734670271689158e-01
-4.683062967601020476e-02 -9.062881390318308639e-02 4.319699298800797616e-01
-3.589833914040940072e-02 -1.045375822758685819e-01 4.624848652902878166e-01
-5.539051227869161431e-02 -1.041786058071170057e-01 4.488214083359982620e-01
-2.107551749536451524e-02 -1.215834718854203328e-01 5.172574530897467993e-01
-2.286274854751252014e-02 -1.176677597435165229e-01 4.918272540060783515e-01
-1.037217848528467976e-02 -7.459671234148271268e-02 4.419473205803587379e-01
-3.668708947723500063e-02 -1.145439413113789606e-01 4.872953093269887237e-01
-8.302585430154926782e-02 -9.069560891044134432e-02 4.349880409304717754e-01
-1.038658894395484145e-01 -1.053369371838425161e-01 4.988981970991817061e-01
-4.957875957631399655e-02 -1.110842808605781162e-01 4.755576217955868601e-01
-6.746445824447687423e-02 -1.109186584719965424e-01 5.214403119933986863e-01
-4.407967199472925118e-02 -1.149037417109781828e-01 5.302235484699753254e-01
8.474354989115072748e-04 -1.169028881037308260e-01 4.793186241929145996e-01
-7.814235470072826428e-02 -1.038755125309812760e-01 4.456465417552535335e-01
-9.792559928820979143e-02 -1.034866112059324578e-01 4.604682361017657932e-01
-9.664282584523750663e-02 -1.083404622045930632e-01 4.917652121868748560e-01
-4.950748667814403037e-02 -1.110032605538196770e-01 4.751661316788289291e-01
-6.428740317603036381e-02 -1.132865900429633615e-01 5.014829441455498360e-01
-9.957202917967034050e-02 -1.075773498656016208e-01 4.870550568596373475e-01
-7.656173456045546610e-02 -1.106950782469938582e-01 4.775981352020130521e-01
-6.416289293419343009e-02 -1.133833616861680132e-01 5.077774881963115217e-01
-9.387488253951903339e-02 -8.549554563800840223e-02 4.555799368659355641e-01
-4.268530477123602673e-02 -1.157186971877888493e-01 5.271752854582795189e-01
-1.754229205668554961e-02 -1.211783360040206287e-01 5.353738441843713947e-01
-7.351859467646949808e-02 -1.117617819715575334e-01 5.060728667389441382e-01
-4.042465673508950641e-02 -8.818577397310790877e-02 4.395686033090921430e-01
-9.643099030534920540e-03 -1.244737517072610905e-01 5.248014921986452475e-01
-4.700068985507744462e-02 -1.041718027693024351e-01 4.550844906081152885e-01
-1.627826394430907653e-02 -1.184356946002609878e-01 4.878272286546483372e-01
-7.024252476623178698e-02 -1.123750681534884110e-01 4.973475915925372193e-01
-2.284574347357253704e-02 -6.818167113348866382e-02 4.381788085972123659e-01
-2.532180751278910805e-03 -1.253145560092548960e-01 5.075354495848690695e-01
-5.648588943198567386e-02 -1.143299700258625512e-01 4.999137251696999518e-01
-3.692387591360243165e-02 -1.170994109270356853e-01 4.990695814184308299e-01
-2.578005989504221149e-02 -1.202154615927544107e-01 5.207153858266692081e-01
-1.502378540593081804e-02 -1.172076225680329375e-01 4.839478109997995547e-01
-8.086106628448293254e-02 -1.106364276168687599e-01 4.794426068134627350e-01
-6.571492007220322562e-02 -1.028472277854421135e-01 4.273660171426352239e-01
-7.321604668079302602e-02 -1.118375531285831920e-01 5.055041086017455498e-01
-1.080454521981359800e-01 -1.011794861449473865e-01 4.720259505334135630e-01
-2.481775575254206376e-02 -1.115606781914191686e-01 4.760549656921116979e-01
-2.705660865117426317e-02 -6.813586903144051854e-02 4.371080364080507374e-01
-7.798438536053335646e-02 -1.024175874807621012e-01 4.392371249707391345e-01
-4.962294174096304467e-02 -5.969293964463431162e-02 4.299976585959408570e-01
-2.955377114238370156e-02 -7.028379517146279842e-02 4.368512393275878480e-01
-7.977500344228684315e-02 -1.110879257602554182e-01 4.901355775337744580e-01
-3.392058534822113558e-02 -1.121531958093913289e-01 4.786456161317157454e-01
-8.884491452103554510e-02 -1.010373731296116268e-01 4.482631156200336253e-01
-3.145773453139044662e-02 -8.214861894895857108e-02 4.402606015925457639e-01
-5.528680071254450656e-02 -1.137149767790794352e-01 4.911194538294771927e-01
-4.483680116792690407e-02 -3.885806473863863408e-02 4.345833966011093952e-01
-6.512658810914509488e-02 -1.112659888063626118e-01 4.771984010350376892e-01
-1.412709847820979581e-02 -1.226107398140267868e-01 5.317127646443742250e-01
-8.826057116861138821e-03 -1.184098940766303287e-01 4.832156317987898464e-01
-5.610726536371962725e-02 -1.131648089937598023e-01 4.873716029970243113e-01
-2.759894177062069409e-02 -4.086907577676050785e-02 4.377312418606584266e-01
-4.976293972892621709e-02 -5.860472306167898576e-02 4.304335941664224063e-01
-8.051864636570904565e-02 -1.110191293961920178e-01 4.885069018502425919e-01
-5.075727277341081367e-02 -2.730725452415335916e-02 4.372014760620011042e-01
-6.598111527323322414e-03 -9.436281092659110081e-02 4.519397691732057187e-01
-3.471777003083548890e-02 -1.179809215172353265e-01 5.027906807907780440e-01
-8.656870248360088241e-03 -1.235202616486288929e-01 5.023703936219385824e-01
-8.529474563261874032e-02 -1.061662555392904050e-01 4.576213595923128152e-01
-2.751910209315937966e-02 -3.666688840197905586e-02 4.378003525358338810e-01
-8.565268147397726850e-02 -1.103530442960918012e-01 4.831892649850922372e-01
-2.811670671461024076e-02 -8.362219337497114879e-02 4.421003409201216261e-01
-5.247745198574320369e-02 -1.049662849670046361e-01 4.535834629701533949e-01
-9.726829831909597490e-02 -8.496992800024180670e-02 4.618522014586739499e-01
-9.897774982390265819e-02 -9.959155269964843626e-02 4.572369413520207537e-01
-8.732699702967967881e-02 -1.089557880807699025e-01 5.035010345375880991e-01
-6.908695331462359757e-02 -1.123356901628801141e-01 4.933776442486866309e-01
-7.790844065664009888e-02 -1.062594384824843835e-01 4.553199634356957515e-01
-1.098777869237630711e-01 -1.028117104519621489e-01 4.935178941380054529e-01
-5.687128514191861633e-02 -9.474913129179900195e-02 4.203616727306591638e-01
-2.783894776803521806e-02 -1.177353599270143103e-01 4.951765000725109611e-01
-6.919819760030408717e-02 -7.841113008495793901e-02 4.264938597452487823e-01
-9.062568219919750478e-02 -1.084669372773746365e-01 5.020057069092273005e-01
-9.622989831772128799e-02 -1.070770911014679583e-01 4.699396680637276669e-01
-4.049029644827176894e-02 -1.020445498430523068e-01 4.556594037132153385e-01
-6.131697327242974227e-03 -7.853861939612230558e-02 4.440448164600047098e-01
-3.756983069397482056e-02 -1.165407843742094635e-01 5.301866285016075819e-01
-9.704469547107401339e-02 -8.608254271378625033e-02 4.601090114454472468e-01
8.782886337076892605e-04 -1.148759749243724315e-01 4.755672368025144481e-01
-1.118260622474400584e-02 -9.800409329019038607e-02 4.543592481910900815e-01
-5.009214495031846792e-02 -1.150983807131698428e-01 5.199928946489935644e-01
-2.251848619395320494e-02 -1.107816475718341187e-01 4.738348377449431159e-01
-3.196638238208631549e-02 -5.843670315729234538e-02 4.354498676807325164e-01
-5.454999487406707315e-02 -5.650315682483283281e-02 4.310026532566175184e-01
-3.638892944896783554e-02 -1.178511727713579399e-01 5.200063091255203718e-01
-8.033578792241416119e-03 -1.247879708940864002e-01 5.261103974059297972e-01
-4.788015512175280292e-02 -8.942307653848037552e-02 4.289544635858162369e-01
-7.505652197986623086e-02 -1.021114749531938509e-01 4.357217253264928369e-01
-5.495702582391424201e-02 -1.114242102382228816e-01 4.769013964046586729e-01
-1.432311855311194961e-02 -7.889741187733549654e-02 4.425926467104148165e-01
-1.493128623060175492e-02 -8.376946612312029250e-02 4.445492433442158053e-01
-6.976707252571226481e-02 -1.104471661069324900e-01 5.208551101201833733e-01
-9.851075409449264186e-02 -1.070449463577632793e-01 4.730294106802340193e-01
-8.942583947337215400e-02 -1.004249763238882348e-01 4.483127294975401411e-01
1.327222956732870308e-03 -9.058290325400472631e-02 4.506721727338542371e-01
-2.983865942582748440e-02 -7.841775364423528294e-02 4.389793360179081727e-01
-1.011446499997594155e-03 -1.248216898031652283e-01 5.346366692562274370e-01
-9.209870033397453415e-02 -1.015804355342410509e-01 4.523132138061520813e-01
-3.600093653116488712e-02 -7.901404484927118665e-02 4.368542431857179720e-01
-1.022178711291638342e-01 -1.021061867895438485e-01 4.615636758016964381e-01
-1.389243001563190971e-02 -1.232893623473878542e-01 5.243908233361985749e-01
-5.121708491189866375e-02 -7.469591029295714890e-02 4.258459896500263464e-01
-2.088260554278571421e-02 -1.177955266063146905e-01 5.451762477213085711e-01
-4.903247758864035660e-02 -5.138349444836116942e-02 4.330495468793076341e-01
-3.240307113430053454e-02 -7.866160655089798892e-02 4.383480963919207385e-01
-2.646821559727262352e-02 -8.273848909068184931e-02 4.420769193238529571e-01
-7.151312684949812093e-03 -1.246426141016533234e-01 5.072317999336349859e-01
-1.364223932479163501e-02 -8.760120696882109370e-02 4.464949546325279739e-01
-4.897948316513491690e-02 -1.106863566857666931e-01 4.737101002392336002e-01
-6.578764099946352029e-02 -9.569911403812465800e-02 4.195405731250230752e-01
-5.941667436355361348e-02 -1.140595534203698719e-01 5.047563076403799309e-01
-4.772914578200165847e-02 -6.609070287872322036e-02 4.285040777335539230e-01
-3.994168085504017085e-02 -1.152763648857127871e-01 4.913344736561248705e-01
-3.715463453706675800e-02 -1.133872834554707637e-01 4.836764816052853688e-01
-2.326365060052132394e-02 -1.169864105472466637e-01 5.456542100734862455e-01
-6.746217750221907006e-02 -9.647799499788521638e-02 4.197110759545950032e-01
-1.191538307609303106e-02 -9.229372996135362661e-02 4.493497213222601983e-01
-5.180445430835185078e-02 -3.103039560163555616e-02 4.380703725838255291e-01
-7.041671007984864894e-02 -1.064940852054530041e-01 4.547250735626114371e-01
-4.677116573574841007e-02 -3.089612990471742732e-02 4.355028959058880322e-01
-7.889586557931820010e-02 -1.013928247745642108e-01 4.373317295763444745e-01
-1.149163824872702008e-02 -9.868980516701365835e-02 4.549514090518349541e-01
5.603963776221992932e-03 -1.266391389461963279e-01 5.160404237270750372e-01
-3.131853745883182022e-02 -1.112848920446085632e-01 4.764050980976766159e-01
-9.581073904764553228e-02 -8.797978242792990622e-02 4.558589827002274553e-01
-8.396556562689898306e-02 -8.759341111858123807e-02 4.383320175157761067e-01
-6.896142331691765270e-02 -1.046886445090474543e-01 4.452669392718922037e-01
-3.560635335636317712e-03 -1.246754348143523095e-01 5.048471915566918877e-01
-2.523641943252390510e-02 -1.204886518445342364e-01 5.108240094203947423e-01
4.443770437189176886e-03 -1.242045263417293072e-01 5.013550126887077463e-01
-5.872047571263220439e-02 -1.139692339910676200e-01 5.154769509543999373e-01
-8.197004429679360937e-02 -1.074227880584235212e-01 4.608994069101502999e-01
-9.923395715007587992e-02 -9.322733023690005227e-02 4.563086497139099973e-01
-4.562049318316981072e-02 -1.162745279256707648e-01 5.077311657746990115e-01
-1.925593400679487255e-02 -1.136239502957784447e-01 4.788095319431326935e-01
-3.484127791493338983e-02 -1.183241115411767241e-01 5.175817098946013939e-01
-7.160445259180667210e-02 -1.032823977123639159e-01 4.379781092365757078e-01
-5.086577952129966995e-02 -2.997415884175768513e-02 4.372757340759187428e-01
5.370059549355114294e-03 -1.257341858911818766e-01 5.351966844172297844e-01
-7.509546130877690906e-02 -1.049525559954653658e-01 4.490875358586958743e-01
-9.132250092185853485e-02 -1.008306447562079267e-01 4.515261173549723894e-01
-3.888135694568271156e-02 -1.172672444581363965e-01 5.033051142157559665e-01
-3.082393684858360933e-02 -1.185155538152226906e-01 5.264097991569710588e-01
-3.577559592797056875e-02 -1.180856250662708773e-01 5.077291048590397704e-01
-1.541287369301781209e-02 -6.509096976416589575e-02 4.390440514642911518e-01
-7.509406701316330424e-02 -1.040770057693890943e-01 4.440319941128964554e-01
-3.998553236794828714e-02 -9.583349503464118346e-02 4.467829144487839299e-01
2.065805148912220647e-03 -9.810069351946885952e-02 4.562448741652547213e-01
-2.934105401645841979e-02 -1.194347013607410662e-01 5.188652596611794676e-01
-7.066656226564713150e-02 -1.122520683054449159e-01 5.080256988578866206e-01
-4.779286106871126483e-02 -1.128087300037669272e-01 4.838568850734987770e-01
-1.150397193843975645e-02 -1.191786229484562837e-01 4.868595116827989511e-01
-1.253446126725088483e-02 -1.237302548137513558e-01 5.108593395072449361e-01
-2.566229548410084438e-02 -6.286048792295284571e-02 4.369807636072013945e-01
-6.906665252229375607e-02 -1.120341513615321083e-01 4.888485441744503945e-01
-1.917988562171060729e-02 -1.217022754589879574e-01 5.247407994672643738e-01
-4.705233796010972053e-02 -1.139554744540142717e-01 4.888344846232163809e-01
-4.624415676039717732e-02 -1.049802639958623274e-01 4.575950425945638500e-01
-9.187621203269027981e-02 -1.092954347919599112e-01 4.838290954347437833e-01
-9.756462938123521000e-02 -9.531146452593675100e-02 4.536731474555159571e-01
-3.971601506499434359e-03 -8.646450019726911740e-02 4.477944180671387109e-01
-5.722113254405505889e-02 -8.104215960842212074e-02 4.226443872089418741e-01
-3.882939342766100754e-02 -9.713510347710925530e-02 4.490148182954367684e-01
-1.046988892616730754e-01 -1.060937097657748962e-01 4.908857801177725078e-01
-5.241718847578726026e-02 -1.072144702110667813e-01 4.603537344767736905e-01
-6.094397574472650014e-02 -1.136295971040253011e-01 4.982923744862395310e-01
-2.011909042683191276e-02 -1.186245319895356393e-01 4.924381414581249783e-01
-1.578447230527951772e-02 -1.219285212860731632e-01 5.333736349531986720e-01
-1.025753836270182698e-02 -1.227376510711447183e-01 5.361690106453669280e-01
-5.346927382704413922e-02 -1.008155023797270428e-01 4.352220057979286350e-01
-4.939730369232032264e-02 -1.071935965952556941e-01 4.611646259467744313e-01
-9.810117652139427324e-02 -1.079302850533832014e-01 4.837737454425114492e-01
-8.018709589531695936e-02 -9.811987146932933668e-02 4.335751185874364699e-01
-4.978992212556420521e-02 -3.872837867410400953e-02 4.357694046693592060e-01
-8.204012370250834962e-02 -1.095216905902877402e-01 5.077752912436487298e-01
-5.529963916704024735e-02 -1.143700237048661250e-01 5.175589615822409062e-01
-8.114145659150428375e-03 -6.746806103586489023e-02 4.402484838329688843e-01
-1.385804483192596553e-02 -1.093167854646439341e-01 4.677471693136242559e-01
-7.134385075047770808e-02 -1.031045443449091076e-01 4.368469672122167191e-01
-4.831356513932271585e-02 -1.146016240628927318e-01 5.261481923241474457e-01
-8.224603072622753766e-03 -9.121023598666892773e-02 4.493694787552869330e-01
-3.144478581966302089e-02 -1.183031092977413629e-01 5.270060543278682896e-01
-3.128539069692180818e-02 -5.694194341443979679e-02 4.355418738235051768e-01
-2.667217839130040652e-02 -9.220488748267843815e-02 4.487034893343539999e-01
-1.563891710351453246e-02 -1.144883634557368468e-01 4.783499850497924810e-01
-3.117910932014622809e-03 -1.261476119292937181e-01 5.202095527217358573e-01
-8.822167545261274182e-03 -1.246204915429488663e-01 5.109083350062131323e-01
-6.364596659265202294e-02 -1.038497058339542117e-01 4.318855038370916777e-01
-1.053915335370094880e-01 -1.040581238118738899e-01 4.718622874484635354e-01
-4.281238358642122654e-02 -1.165373840957539403e-01 5.034554904231752781e-01
-4.090885970273443889e-02 -9.680536316814644660e-02 4.471329107623951971e-01
-1.644267428508775983e-02 -7.388358425682853281e-02 4.406950587756097715e-01
-9.057309860081337594e-02 -9.492776478609667168e-02 4.449106875987482446e-01
-2.947166859538240258e-02 -1.175949113055494433e-01 5.364196879941789398e-01
-2.760407643487122059e-02 -9.455320827932528482e-02 4.510893632395152619e-01
-8.856577324201447832e-02 -1.013293419524774475e-01 4.482363595936257883e-01
-1.976637287924071229e-02 -6.876515077153536049e-02 4.390369287610929594e-01
-4.928230431736566053e-02 -9.573976908697401367e-02 4.344120418101516390e-01
-9.576109025507911071e-03 -1.232554764421976562e-01 5.339792555290394649e-01
-2.174726455132433220e-02 -1.211713991353819131e-01 5.075820573672549241e-01
-7.629331362297249453e-02 -9.919100059162440364e-02 4.287911413671933181e-01
-9.447281071332927493e-02 -8.396289892024914880e-02 4.584036145806200668e-01
-1.487701718981182704e-02 -1.219884992401599477e-01 5.013126647218686394e-01
-3.086765302209985851e-02 -4.283954667596386046e-02 4.368090667616503775e-01
-8.336991903891760591e-02 -1.102424962887329635e-01 4.992374727970012027e-01
-5.917825399726031610e-02 -1.132408558464274295e-01 4.906155243144520450e-01
-7.097111404924977274e-02 -1.102249655544031842e-01 5.202757755920419669e-01
-2.335160899110766755e-02 -1.136611219773018128e-01 4.802983256562752268e-01
-1.391165594824317862e-02 -5.653469318568526969e-02 4.382010903831716209e-01
-5.173520920623068259e-02 -1.150522331854518521e-01 5.004426195527549304e-01
-7.644130890982155091e-02 -1.042376661084526979e-01 4.465049789060447916e-01
-2.998822767482409862e-02 -7.763179702189303144e-02 4.386653721232485759e-01
-2.547476820591582786e-02 -7.175936828340602480e-02 4.381402403425677661e-01
-6.987597714337499821e-02 -8.791139249400342637e-02 4.193764266322622669e-01
-1.360461243592979257e-02 -9.403552442333744377e-02 4.506899440644887012e-01
-1.764132837649289368e-02 -1.222846721917243001e-01 5.082403725716405640e-01
-1.040409043220683338e-01 -9.766864738603935059e-02 4.594902565451878806e-01
4.200781895178154479e-06 -9.092329996897839661e-02 4.506728593439646713e-01
-7.023800612181130276e-02 -1.046039943621770996e-01 4.452004850614559306e-01
-3.660833819725034521e-02 -1.086152818319424257e-01 4.702763534032424753e-01
-2.426607130322739128e-02 -8.411429125262839812e-02 4.431416639616773123e-01
-9.822117346308838204e-02 -1.042252039043637668e-01 4.618993535998184852e-01
-4.024458604330636430e-02 -8.888613233496381327e-02 4.403236364732789898e-01
-6.091018116399280619e-02 -1.072017611087450334e-01 4.574311281488910863e-01
-1.267487953354175245e-02 -1.121128035859553784e-01 4.719407304788029167e-01
-1.101770756042700361e-01 -1.014643171070504502e-01 4.795759878620852734e-01
-2.150358361930078746e-02 -5.839684075672405689e-02 4.374430851125271080e-01
-5.534370120250289848e-02 -1.014642946088474273e-01 4.356498691823632585e-01
-3.753185756611668311e-02 -1.160923331718740487e-01 4.935839663674675970e-01
-1.110924857961779616e-01 -9.993384997801654790e-02 4.786827950031465329e-01
-1.097327625723675537e-01 -1.021070236401735859e-01 4.803734899839979811e-01
-8.080232279804828999e-02 -9.534061107339891761e-02 4.323067898907142492e-01
-9.934356848393135347e-03 -8.296381287143154981e-02 4.450551323305089180e-01
-2.393085209797883584e-02 -6.988497179824729177e-02 4.382353389851320058e-01
-3.432595213340802753e-02 -1.184768523870028678e-01 5.136156558914957149e-01
-4.931754904896840097e-02 -7.575913188239652429e-02 4.265818680967434773e-01
-5.566800967989776749e-02 -7.734998361833175795e-02 4.236356499650089091e-01
-3.390672792077266406e-02 -1.182960564836163242e-01 5.045181781886570738e-01
-2.761194482688726290e-02 -7.898801543712673234e-02 4.399837945330626887e-01
-5.499668079929300596e-02 -1.139728967884500038e-01 5.215325256416443178e-01
-1.493215085904119055e-02 -6.880308802775615684e-02 4.398529342381197194e-01
9.621304339816037082e-03 -1.264048613729706061e-01 5.187444398544558410e-01
-2.575819818629419139e-02 -3.573717238375258287e-02 4.382374239331103816e-01
-3.211436053414862962e-02 -7.296263307179487456e-02 4.360989782494738565e-01
-7.176308250485857743e-02 -1.083807647934940388e-01 4.627414402575641406e-01
-1.715876857761222674e-02 -7.709431363454610775e-02 4.413759025239238354e-01
-8.903336844593859323e-02 -9.358874700090939747e-02 4.428107043225699146e-01
-4.711443889928328133e-02 -1.147382556136853360e-01 4.921793497233252768e-01
-4.807401090980119307e-02 -6.292171054429489263e-02 4.290248918614947837e-01
-2.747051444018148644e-02 -1.160101347969660496e-01 4.888058142171498033e-01
-1.223579294773073645e-02 -9.805002136123312784e-02 4.544036446814056496e-01
-8.967216789720194869e-02 -9.619654948693430463e-02 4.443282964572132787e-01
-4.441405431203779286e-02 -4.846116667681725498e-02 4.334335504623162416e-01
-3.249789759038646669e-02 -1.187200192538539201e-01 5.070308580145563848e-01
-1.081821579745353423e-01 -9.766980928959288766e-02 4.682416710204803101e-01
-2.012968300985404357e-02 -6.776402173585542588e-02 4.387815927408074135e-01
-6.649041522367335477e-02 -1.075986417955486912e-01 4.589912970593204578e-01
-9.301643653535590639e-02 -1.087721554136114044e-01 4.756745424807750644e-01
-2.330487612798472132e-03 -1.262849244956906480e-01 5.175941669782367915e-01
-1.034925369615349033e-01 -9.346339368095640809e-02 4.619263557244752683e-01
-2.479545521773384147e-03 -1.171801065685033477e-01 4.795135338052552987e-01
-2.674546957043764939e-02 -1.201755025574257618e-01 5.118996021205566294e-01
-1.112416096361379669e-01 -1.006859764576804178e-01 4.957475302903383008e-01
-9.197668319742384468e-03 -8.056658109032384385e-02 4.442193708321054979e-01
-2.493476560690791738e-02 -1.168409719474231417e-01 4.904468267172226170e-01
-2.023742011042461986e-02 -7.835108292439087185e-02 4.413902904518644532e-01
-4.594752730497600468e-02 -6.514834979230672840e-02 4.296085580280558647e-01
-3.680792618478804373e-02 -1.020343937580865112e-01 4.581034202118806076e-01
-6.815659392678286022e-02 -9.795523194647602627e-02 4.201343251751716301e-01
-3.374178621577341580e-02 -1.156637746372644188e-01 5.405617159413381723e-01
-6.079406468795233581e-02 -1.125959435969368649e-01 4.863940954498850999e-01
6.887906644970704512e-03 -1.267643674558611988e-01 5.223488661263046007e-01
-4.282185001628288634e-02 -1.139532435185264120e-01 4.873396428425866844e-01
-3.578971787223459572e-02 -1.110457240202278595e-01 4.760258751769788632e-01
-3.387443061164150532e-03 -1.135941819192120422e-01 4.729701224299660001e-01
-7.265837413417099155e-02 -1.098148031667706970e-01 4.708847441416945112e-01
-1.824622985937691261e-02 -1.210178563731252877e-01 5.349252019634764821e-01
-9.827106268008309331e-02 -1.037676712956841357e-01 4.611604937137279703e-01
-2.454490014380685675e-02 -7.555686261331050202e-02 4.394010471474916191e-01
-4.489004205511937934e-02 -6.555891907657714068e-02 4.299953658423014691e-01
7.083640603749139647e-03 -1.262397054474444225e-01 5.329571530990966366e-01
-7.663594656854032239e-02 -9.896174511817817931e-02 4.289568334709538688e-01
-2.619415938216973494e-02 -1.196348410546503455e-01 5.029059973887137769e-01
-9.025007751735367179e-02 -1.028294227269239969e-01 5.193565353790208228e-01
-4.401800405368140601e-02 -8.163383945311798728e-02 4.313228929604382422e-01
-1.686884586450107266e-03 -1.195655543726921316e-01 4.857724418231184615e-01
-3.676067438171671392e-02 -1.105969826958900087e-01 4.749387738551880123e-01
-8.200425998061643129e-02 -1.097240898894009109e-01 5.066960358393760577e-01
-3.754897030427548077e-02 -7.323934728598167909e-02 4.337424980423488785e-01
-5.784078933108625920e-02 -9.037184227070611808e-02 4.205241145614308507e-01
-1.443644467845908198e-02 -1.146680078665887337e-01 4.779284900896955679e-01
-1.985498988719878316e-02 -1.210824181208652039e-01 5.296309173175702822e-01
-8.193143779630081280e-02 -1.090813085704226554e-01 5.104760131905331511e-01
-5.073615594620817237e-02 -1.144790875661022833e-01 5.238821955083303727e-01
-6.972948206838120062e-03 -9.131330892198193105e-02 4.496749897736237456e-01
-5.441221003080480567e-02 -1.061985714659930274e-01 4.568740986264678838e-01
-1.992673733428917265e-02 -5.783108613551085631e-02 4.376647642390790738e-01
-1.722010859825099521e-02 -1.083215260522583379e-01 4.671502858799331803e-01
-3.625605614891872289e-03 -1.021872754141741196e-01 4.592128011575777879e-01
-1.306465135373616193e-02 -1.236978599769135989e-01 5.220561249794060110e-01
-7.949097007527838876e-02 -9.085840051649587967e-02 4.289237289205447001e-01
-4.285735467644907759e-02 -1.166637379018934523e-01 5.062421654598276977e-01
-2.492993211607397522e-02 -1.176435909581574346e-01 4.933615042448779020e-01
-3.450945250175961598e-02 -1.011692015195488903e-01 4.576473480165089702e-01
-3.741870645457957140e-02 -9.190296660057641065e-02 4.444927311637472678e-01
-8.046604154211603466e-02 -1.101473440522203334e-01 4.746420459840382522e-01
-1.579018747834844139e-02 -1.196743586331871362e-01 5.435504952633481990e-01
-2.807703127375266172e-02 -3.781536932086709824e-02 4.376549015945967458e-01
-6.165955770980401096e-02 -1.030201862098939630e-01 4.228780422920059290e-01
-5.017656631681095825e-02 -1.139888862046742612e-01 4.892090774777065887e-01
-2.136500392346287955e-02 -8.651409654526454052e-02 4.448970894447035196e-01
-7.699682409809657790e-02 -9.847366623014092157e-02 4.285149976828677709e-01
-3.865780504044704496e-02 -1.173190993822682271e-01 5.207970875651810605e-01
-1.350141096321044731e-02 -1.036624976211062699e-01 4.600679514727051278e-01
-5.920183158700879911e-02 -1.138062869082584194e-01 4.967325096626282188e-01
-2.997087515975541822e-02 -1.161331831358605599e-01 5.421014153164858129e-01
-6.466020036705714957e-02 -1.015796919376817237e-01 4.211056815589048208e-01
-3.307848277264665432e-02 -1.016907843663772404e-01 4.588246576038993441e-01
-7.313037868536455266e-02 -1.022913186158598414e-01 4.347039828606154011e-01
-4.697590918314657055e-02 -9.414925853517551457e-02 4.381221439841274656e-01
-4.523567400534283384e-02 -1.126315925125379591e-01 4.831205858534646236e-01
-1.092031368947289222e-01 -9.920075979754987283e-02 4.715315098297532814e-01
-5.163628114827789606e-03 -1.187927178750509960e-01 4.835041661989989970e-01
-5.520559691097945421e-02 -1.139645870448171838e-01 4.933917106080960568e-01
-7.767282121195685785e-02 -8.751392081074066409e-02 4.278336054064642013e-01
-5.205236960197508894e-02 -1.061908343614239164e-01 4.578065754812900567e-01
-3.515233315844091405e-02 -1.081772873799473622e-01 4.694398260914729448e-01
-5.602789624064416496e-02 -1.024134648164012756e-01 4.327039259987334741e-01
-3.740800243760385169e-02 -1.138575458818259639e-01 4.853129648157373799e-01
-2.204045950741824814e-02 -7.058654361301011648e-02 4.388646546422754202e-01
-1.125972021481361045e-02 -1.243662397823622340e-01 5.169497730673203728e-01
-1.656571220004581305e-02 -1.208173556600464632e-01 5.383887108294141965e-01
-9.922191370514606146e-02 -1.053962376293151038e-01 4.663153073674062288e-01
-8.341565194922491780e-03 -7.748355904473409883e-02 4.432663873487260875e-01
-1.130891199772929463e-02 -1.089462469819631740e-01 4.663480040001374283e-01
-3.251338455781840886e-02 -5.658092365185435346e-02 4.353178131870067413e-01
-3.922950039778336229e-02 -1.102545970869125702e-01 4.745792646525320291e-01
-5.478887575088702000e-02 -9.605734434907350905e-02 4.220134587885817079e-01
-3.751439827167474955e-02 -1.156620769638029150e-01 5.361618560026627511e-01
-4.579936652453928808e-02 -3.909474811962816709e-02 4.346061684189951313e-01
-7.638837628955041925e-02 -1.098945613476889627e-01 5.154360310613856910e-01
-4.603919553345352939e-02 -1.077040367190746639e-01 4.637351701705595408e-01
-4.316533750364125871e-02 -6.052119364552130398e-02 4.313849461833943466e-01
-1.002551553089748720e-01 -1.059759128638205483e-01 5.012343136288111012e-01
-9.210155873460615372e-02 -8.752505934291934797e-02 4.509236825738266452e-01
-4.280017711536069323e-03 -1.256962007073587628e-01 5.135097254922071919e-01
-4.706193893327096506e-02 -7.983715850216102639e-02 4.283297821036454733e-01
-7.318366317764569973e-02 -9.864665234299239971e-02 4.248673387685247271e-01
-7.717625459021550116e-02 -1.111327546800061628e-01 4.856322142877975145e-01
-5.571136670952825387e-02 -1.145723889525330358e-01 5.045399224794716586e-01
-7.632194224471612609e-02 -1.095010731602817089e-01 5.169402725397496123e-01
-1.116372329860414875e-01 -9.965562389418003431e-02 4.835652863261256651e-01
-4.291861471261246980e-02 -4.104255170599574454e-02 4.342060442002710907e-01
-2.361816113949492466e-02 -7.900644789988750527e-02 4.410913528563052410e-01
-4.654263137809677708e-02 -1.104567377502290310e-01 4.738033281342537983e-01
-5.443115260789725685e-02 -1.141104586203801480e-01 4.938828201495156223e-01
-2.208133680441669300e-02 -1.169553377086330753e-01 5.468406743448599450e-01
-3.420240579942326886e-02 -3.603346903348032815e-02 4.358576215859448211e-01
-8.508496482071539746e-02 -8.729884305017658608e-02 4.401487046833914563e-01
-1.930579499173161809e-02 -1.222294530848243160e-01 5.127263625590887663e-01
-2.866087008514532630e-02 -5.574258057520330156e-02 4.361771517945052801e-01
-6.632723813610674757e-02 -1.006017954529318109e-01 4.210870942267316286e-01
-3.162647885369747336e-02 -1.186779471286261711e-01 5.218353675539209036e-01
-6.216315540835158637e-02 -1.124480657026747515e-01 4.864884942947321766e-01
-6.034920313962102711e-02 -1.118092980762581123e-01 4.802591783224660071e-01
-5.694886620277365280e-02 -1.124887171234270622e-01 4.835982279937122152e-01
-1.002507696304564405e-01 -1.074038169797152248e-01 4.910085650894795428e-01
-3.336090555104898742e-02 -1.185672177388581577e-01 5.074673398570469507e-01
-5.370316894376000322e-02 -1.149763061533723152e-01 5.080508732762707425e-01
-7.367673959758078150e-02 -1.058192144105141175e-01 4.521078671739071630e-01
-2.889377290929984882e-02 -1.050589298913341407e-01 4.650476380660458209e-01
-6.469370085998010778e-02 -1.067134298561935035e-01 4.551649604356287626e-01
-8.027455267922270488e-02 -1.108348782930896476e-01 4.817161719179153812e-01
-4.219173319559827579e-02 -3.814994952870060657e-02 4.343735585990280423e-01
-9.861356974332695369e-02 -1.068907416064484306e-01 5.008564232731897992e-01
-4.463155857434051438e-02 -1.011659323059928839e-01 4.510290128822654898e-01
-1.781144524932023673e-02 -8.969371346712860793e-02 4.470792658330104974e-01
9.667676717975601762e-04 -1.182792023124821928e-01 4.826840756849635761e-01
-2.949008476959474184e-02 -7.002417600472804482e-02 4.368444370307782987e-01
-7.033596677186032542e-02 -9.263162097031556186e-02 4.187312611135673435e-01
-4.518639241501179807e-03 -1.248435373822279482e-01 5.064383158714942379e-01
-1.942442410175411124e-02 -1.017140190661194044e-01 4.592780731126734906e-01
-4.119538034144013677e-02 -9.892793358748043497e-02 4.500369133586901160e-01
-3.084788528969270929e-02 -1.190795136994806103e-01 5.185240206837206101e-01
-2.454362479382830517e-02 -9.630219242611610941e-02 4.535563216530301145e-01
-4.986037154962156409e-03 -8.825370581779330703e-02 4.484769248415064746e-01
2.143170440659441893e-03 -1.247372633471798553e-01 5.024069527102107413e-01
-7.502769187334996925e-02 -1.113351007625142802e-01 4.867699284882185395e-01
-1.068442962821439662e-01 -1.054320448878329625e-01 4.904873758732092859e-01
-9.199572112233603272e-02 -8.394623036097614843e-02 4.542216240579410869e-01
-8.323127633809782044e-02 -1.105786707995626006e-01 4.813221902960451715e-01
-3.317754600251754393e-02 -7.127795237032050202e-02 4.355068075018708185e-01
-4.988792337234367047e-02 -1.083613792551829380e-01 4.641049153730771870e-01
-1.103421543463585786e-01 -1.019982578791559513e-01 4.923563554478185833e-01
-7.008310601327738705e-03 -8.952189707192668988e-02 4.486899069801025819e-01
-2.488143186414666641e-02 -9.199851704706528410e-02 4.488028522166804257e-01
-4.763508332431671405e-02 -7.924859349627166871e-02 4.278867333483298840e-01
-3.411415644199684155e-02 -4.440269862299494469e-02 4.355616195714162031e-01
-9.883088250496048499e-02 -1.077598947939517882e-01 4.849766150376547680e-01
-5.104897802888358482e-02 -5.516060211542847536e-02 4.315967498773781719e-01
-5.120000624574482656e-02 -9.848125549228750608e-02 4.342652063596622036e-01
-4.817561645922648766e-02 -3.992566789957068679e-02 4.348965595175815491e-01
-7.512661508197236715e-02 -1.022369499501742107e-01 4.363642825134729786e-01
-1.845035050638585764e-02 -9.076082931806640774e-02 4.477713373620999526e-01
-6.091675224525114167e-03 -1.220506100733317750e-01 4.942102833311381449e-01
-3.733529215174032773e-02 -8.865293242284069675e-02 4.418262403906377256e-01
-4.946452345927173505e-02 -9.535437711018851514e-02 4.326852474688313022e-01
-1.035513894248235589e-01 -1.044904274946351214e-01 4.690265305610987201e-01
-1.363818317011106229e-02 -7.218094033761832118e-02 4.407126738356043072e-01
-5.160967816276807590e-02 -3.969203630154347073e-02 4.361165065753754844e-01
-2.454217310474743341e-02 -8.777191980583133601e-02 4.450442662297625640e-01
-1.699763484904875596e-02 -5.971599099849925207e-02 4.381751796960663414e-01
-3.579981712451681813e-02 -6.220348469051650842e-02 4.342612781444085135e-01
-4.410225145274113828e-02 -8.799429364092151151e-02 4.345779894845137603e-01
-3.360702300667142706e-02 -9.770067890139036426e-02 4.524707791192903450e-01
-6.727508294785719545e-02 -1.034433472517296421e-01 4.343371578530120791e-01
-7.249586745489720874e-02 -1.108516518561975528e-01 4.777621532539665927e-01
-9.709927927883344953e-03 -1.208316538421119329e-01 4.915329107202358050e-01
-3.988818128898716925e-02 -2.705373550075480457e-02 4.358070329818389266e-01
-6.334014807457945262e-02 -1.134708551770834822e-01 5.029763157046380773e-01
-2.729514604049989787e-02 -8.099926606912298543e-02 4.410914821393923102e-01
-3.200483800351446723e-02 -7.856094397132540319e-02 4.384243738411362501e-01
-6.947870849881250532e-02 -1.124427819086050995e-01 5.092770327043734113e-01
-5.058364233974203122e-02 -9.790646542118867923e-02 4.351224220660881437e-01
-4.820314308121496916e-02 -1.046081373525884622e-01 4.554907046098065071e-01
-2.997931710932067589e-02 -1.192035177986248140e-01 5.065237860641219614e-01
-8.523120781271352475e-02 -1.102878339634166122e-01 4.799867554162737249e-01
-1.408399411672180482e-02 -6.935896674425889863e-02 4.400805947415440955e-01
-3.049253016631532642e-02 -1.170936552176882889e-01 4.940683231276423726e-01
-2.932430484900978504e-02 -7.236883582187027264e-02 4.371280966929934619e-01
-2.191600061711234879e-02 -1.203935252789658239e-01 5.304918491503348710e-01
-1.129469499274239272e-02 -1.241706478682069320e-01 5.223830105419066117e-01
-7.183884339677239217e-02 -1.015821026774975377e-01 4.298220956791791725e-01
-7.858455964202232247e-02 -9.128056783333127200e-02 4.277004833823253027e-01
-6.562886837403258955e-02 -1.103472302169483388e-01 5.257199559294806201e-01
-1.510999515135182450e-02 -1.224524411111068689e-01 5.304895133968171583e-01
-1.184862806527246792e-02 -9.289812931542675012e-02 4.497761792139439163e-01
8.629526395594220786e-03 -1.222257181014840960e-01 4.961288499440358879e-01
-4.214878077647444404e-02 -1.105522258799460367e-01 4.752273352218077673e-01
8.171807083727035403e-03 -1.266142947595966239e-01 5.233860994543638734e-01
-8.374040559187595489e-02 -1.062446516239339556e-01 4.571852036105438222e-01
-4.809597810896125425e-02 -1.142410730040263889e-01 4.902746891432056553e-01
-7.094221636257976027e-02 -1.115776085015421082e-01 4.850042970174219814e-01
-1.261366199900651290e-02 -6.239679228953277229e-02 4.388356434453332677e-01
-4.671933092179963304e-02 -6.237429893958915117e-02 4.297073307869161973e-01
-5.568973849025518619e-02 -8.544307145488730382e-02 4.219793808734149665e-01
-9.829267383065187769e-02 -1.078297894675626228e-01 4.806543616846890576e-01
-3.077513804016749829e-02 -8.496379693032471425e-02 4.419098375844740523e-01
-3.121200144581097805e-02 -9.295431161887937610e-02 4.479640795585565494e-01
-5.164616843538201441e-02 -1.134624341606702835e-01 5.279662222107737168e-01
-6.935843719860559919e-02 -1.022781471454761865e-01 4.304794273362862467e-01
-5.691964264312806415e-02 -1.056294875892474366e-01 4.530154377195915738e-01
1.883884059895901773e-03 -1.249310271228612906e-01 5.032774869594824896e-01
4.762280824906333157e-03 -1.239171436628040551e-01 5.004546216131974257e-01
-3.231677801178462622e-02 -1.168391316045319234e-01 5.365591399275750906e-01
-1.319341562125728173e-02 -1.227295820285201344e-01 5.034642956951365100e-01
-8.292884258298677258e-02 -9.279945083957852336e-02 4.341903031581207384e-01
-6.018562920422447504e-02 -1.031741931898386838e-01 4.249935141985227149e-01
-2.274209726390222230e-02 -1.177634214252268191e-01 5.435756283750957651e-01
-1.438819221950242725e-03 -9.343260482724220772e-02 4.520481578791331057e-01
-5.432640187457379172e-02 -6.894153206471673179e-02 4.257970884940845968e-01
-5.420338225572665647e-02 -1.082191377880577093e-01 4.625653298465753349e-01
-9.187504497326616504e-02 -1.030686220069299691e-01 4.540502111834828769e-01
-3.315505531585955651e-02 -9.090885018865772771e-02 4.454184583956590782e-01
-1.106636675205700665e-01 -1.017076491725215220e-01 4.956910318032488605e-01
-4.711012970636432179e-02 -5.615490089875831148e-02 4.315753420442728361e-01
-2.495017905038281886e-02 -5.416197870494320749e-02 4.371339875272574060e-01
-5.388054328754370709e-02 -1.140617102777822522e-01 4.927870274106139759e-01
-4.399594474461461513e-02 -8.885778497833854428e-02 4.355588199441442487e-01
-4.859011066279735752e-02 -9.306507581939003904e-02 4.298705212844224910e-01
-1.109921849911651853e-01 -1.005695082385916206e-01 4.829315630364845457e-01
-6.510057962665025122e-02 -1.132203318840593748e-01 5.088680333412709533e-01
