-8.056918361757432756e-02 -1.104973541992210484e-01 5.038994014479741823e-01
-5.485780359234183196e-02 -7.751805583804187438e-02 4.244846998030721852e-01
-1.211094195899024839e-02 -1.231434101564201355e-01 5.049771578399999683e-01
-1.045878443118771345e-01 -1.034301024181565054e-01 5.031102377144230919e-01
-6.425192976525413713e-02 -7.566654506648837208e-02 4.261304406571053138e-01
-7.161009258377733222e-02 -1.115542934733563391e-01 4.844669265937869840e-01
-4.063608460017430896e-02 -4.476133368152240832e-02 4.342651764725489749e-01
-7.237068456235139224e-02 -1.104310519417724401e-01 4.745716068879753391e-01
-8.566726853804862429e-02 -1.093835193894003299e-01 5.038324919978532934e-01
-7.619328772613367939e-02 -1.073854863790054404e-01 4.593094998993880740e-01
-5.623798873227957122e-03 -1.246627658105693010e-01 5.061799315945718636e-01
-3.537108699626752978e-02 -1.182271932486485821e-01 5.180671518419469601e-01
-4.301576197121536466e-02 -9.581251117605082968e-02 4.452178212286361791e-01
-5.506198438305848208e-02 -4.241671459151558771e-02 4.406492832721431441e-01
-9.874044347108251740e-02 -1.072972853563519124e-01 4.987359044652266427e-01
-6.341885463910176823e-02 -1.115314025789091029e-01 4.783086080550181807e-01
-3.527649238016924288e-02 -8.760563964713052876e-02 4.422851624921899649e-01
-7.269526459739462931e-02 -1.111683821728175064e-01 4.800518508222023084e-01
-4.281620720112825490e-02 -1.099297715799090330e-01 4.726919418311399945e-01
-5.781475182555994435e-02 -1.067416921932363566e-01 4.568907645249056237e-01
-3.511075460646998631e-03 -1.181388448849133160e-01 4.818754207658598188e-01
-4.369808932942098600e-02 -3.158116308938051231e-02 4.350377323823065301e-01
-1.003800625607369906e-01 -1.073240817468509717e-01 4.929395611912246178e-01
-3.811569885685003878e-02 -4.040786483429732040e-02 4.347649792006871294e-01
-2.743919694621470631e-02 -6.758648814442441699e-02 4.372203641597096069e-01
-4.529502528684922757e-02 -1.079600734608234663e-01 4.647097402012875800e-01
-2.495095656239112655e-02 -1.157199190100446778e-01 4.871659259074544446e-01
-4.393992747219964412e-02 -8.769525358671535764e-02 4.352821971847889437e-01
-2.199799853206307193e-02 -4.655548924220009877e-02 4.385104763712420195e-01
-2.299119184468853896e-02 -4.913688627831985095e-02 4.382593004911813361e-01
-4.689997457441594936e-02 -4.151614463994903609e-02 4.345045969520977547e-01
-8.642596432256538508e-02 -1.086622672591130573e-01 5.070189410761823945e-01
1.106823814615070373e-02 -1.266655616557699204e-01 5.266821166744762861e-01
-9.053651739279307276e-02 -1.004670962245321070e-01 4.502804449456689340e-01
-2.901944280025114953e-02 -7.366866324522568232e-02 4.378835780776518249e-01
-5.415524393890627786e-02 -3.256684592770892755e-02 4.431160595693970361e-01
-1.053571367194869185e-01 -1.053747696617870350e-01 4.969137251629328622e-01
-6.171183660028403684e-02 -1.114718703002140765e-01 5.262086745943077570e-01
-2.383253703668465270e-02 -1.063533249365119088e-01 4.664389677149348712e-01
-9.485098590715899947e-02 -1.088574727697963068e-01 4.890647154532504204e-01
3.305398416382007189e-03 -1.134977209875865506e-01 4.737327478798216696e-01
-3.878410816291898849e-02 -8.520770875560405855e-02 4.385065623922072553e-01
-6.932913081440852943e-02 -1.005464535228264567e-01 4.236185570544107604e-01
-9.079313996412777255e-02 -9.484744955178101011e-02 4.457310211778132136e-01
-8.829099668476950852e-03 -1.103646903416133501e-01 4.683035457917976707e-01
-2.673796417042328261e-02 -4.535015145192022867e-02 4.379597818333799131e-01
-1.763482785711113082e-02 -6.133197208269537681e-02 4.384366374297336555e-01
-6.550960976883735132e-02 -1.056910525177207488e-01 4.501526824747137945e-01
-3.100135958866913344e-02 -4.895836125946169404e-02 4.366317203226008914e-01
-9.464934107552346737e-03 -1.196988476750120434e-01 4.878597066911879443e-01
-9.023424576423882959e-03 -9.935051016344742525e-02 4.558012119757121061e-01
-8.927983620274040910e-02 -1.002168200802983911e-01 4.480172125528453231e-01
-5.026789824810613816e-02 -3.564430098834781013e-02 4.370957748506131280e-01
-6.650387082721202769e-02 -1.025933435870593213e-01 4.259022901802892447e-01
-1.972030724983631425e-02 -9.889690267650677602e-02 4.564003899717475887e-01
-3.560739429866704997e-02 -1.028085407204336332e-01 4.600392834205869197e-01
-7.271846780841011160e-02 -1.114700542015382989e-01 4.843122938025231083e-01
-2.586179175621661219e-02 -1.200919118728239338e-01 5.057407832049981566e-01
-1.004610380313703810e-01 -9.144071767416077356e-02 4.598219549465256684e-01
-5.432418581904131794e-02 -3.642448251839683349e-02 4.421422805859358540e-01
-5.953299339084295455e-02 -1.129795982143090016e-01 5.222661629393964278e-01
-3.834626098960620781e-03 -9.543550650736104535e-02 4.533168393746699887e-01
-9.159588057658842042e-02 -9.264443418082460302e-02 4.474983959469588379e-01
-4.161699873588387000e-02 -1.077820329967965896e-01 4.657705890826834838e-01
-7.158024252340301763e-02 -9.062489608244228556e-02 4.190560966753532068e-01
-3.389347719204672399e-02 -1.149109337977528567e-01 4.874986566296115043e-01
-6.271189322631269547e-02 -1.126588747039409810e-01 4.886527699477788977e-01
-5.148507886121983512e-02 -1.145629773676123953e-01 4.946263211139744209e-01
-8.586096919833458019e-02 -1.054437011683766051e-01 4.558046306752339683e-01
1.209071641651497924e-03 -9.949895161810416722e-02 4.575230679337341511e-01
-7.062673758234194396e-03 -7.880283775475636909e-02 4.441274233165407037e-01
-3.818489239051687384e-02 -1.128898971336293883e-01 4.826795453817894765e-01
-1.009692328946702466e-01 -8.990232850148074939e-02 4.620178510867483657e-01
-5.677421835685682316e-02 -8.176259772014607408e-02 4.230321818737707296e-01
-1.240463116123582260e-02 -9.217567942207210985e-02 4.493881825292270760e-01
-1.918861390349218404e-02 -1.216557112973211119e-01 5.061261545647373072e-01
-5.498346781641377801e-02 -9.662093116187489561e-02 4.227338753005575045e-01
-7.280042514674914256e-02 -1.070793212802183814e-01 4.573623437874627662e-01
-4.575916411356710511e-02 -7.757686906056070197e-02 4.298637130421786301e-01
-6.142088595604204559e-02 -7.807866307904591519e-02 4.236871661822337320e-01
-3.786455551684572707e-02 -8.150278506283788194e-02 4.371264699404191489e-01
-4.485398191243396976e-02 -1.021955733491274748e-01 4.530667099048912294e-01
-8.864539287073308627e-02 -1.100268732526243909e-01 4.902514592522814185e-01
-3.888966602757423091e-02 -9.038390940365925719e-02 4.428105066877279783e-01
-5.893610764181800299e-02 -6.094272593763477158e-02 4.319005496393335530e-01
-4.837546132465180698e-02 -9.901467974418109996e-02 4.441884540463132969e-01
-4.691139277975101690e-02 -7.198621385163073150e-02 4.290236093438444809e-01
8.367073689608631529e-03 -1.264452134314305864e-01 5.163389822455439759e-01
-1.103023117786441909e-02 -1.230201342529360642e-01 5.341828589109698378e-01
-7.459685300583713055e-03 -1.250504840827088016e-01 5.240292471217161685e-01
-9.759234645522955887e-02 -1.080834134762310716e-01 4.807756190756711789e-01
-1.284430344954630432e-02 -1.180192508567588644e-01 4.844012366302156702e-01
-7.003205763431402664e-02 -1.124417253067871991e-01 4.971283307967945819e-01
-7.554408505696592543e-03 -1.229389914289446273e-01 4.978007704307415571e-01
-4.261021928647086565e-02 -1.167236692096797201e-01 5.063013514468834853e-01
-2.568559827707337512e-02 -1.204552532396199888e-01 5.125566739337787947e-01
-1.651191033636380560e-03 -1.251259012824307570e-01 5.062455150742368737e-01
-5.831876382275205141e-03 -1.060926951185788558e-01 4.629985053467935430e-01
-5.736636698710835536e-02 -6.391093893581388519e-02 4.295020427415360831e-01
-2.374870401902091227e-02 -9.674891739211753661e-02 4.542899660662717554e-01
-6.702886676407301611e-03 -8.135121673176934354e-02 4.451386384712291422e-01
-3.480274001660885186e-02 -1.180295379448864784e-01 5.033371606331111803e-01
-7.623043896989768753e-02 -9.672854171356767838e-02 4.254991989315677348e-01
-5.880342195305458819e-02 -1.095786278650873607e-01 4.672622524702016444e-01
-8.528182870287119577e-02 -1.068547680243851217e-01 5.148652705085755565e-01
-6.757145615841535224e-02 -8.012066389541519507e-02 4.249074227547492422e-01
-1.049470933926622586e-02 -1.191369730730468118e-01 4.863620897327902148e-01
-5.779597917150412073e-03 -1.255048114022034034e-01 5.229893979163472428e-01
-5.387570018709547659e-02 -1.021575580753155826e-01 4.444724503803013094e-01
-1.909964044010447129e-02 -4.898496626255759157e-02 4.383501485588687796e-01
-5.501214547441250075e-02 -1.142395286180623859e-01 4.956106465470139777e-01
-2.166842864097050930e-02 -4.769170947350685752e-02 4.384544612276772280e-01
-4.428174107410936394e-02 -1.129310683452194319e-01 4.840992369108181315e-01
-8.087248986608386314e-02 -1.104811845140588888e-01 4.774849402959205902e-01
-3.634426837450654285e-02 -8.054202746684423209e-02 4.377184678245082949e-01
-9.842202550771493585e-02 -1.079477401212488863e-01 4.912355785765023519e-01
-6.581498339605922065e-02 -7.743411726326018818e-02 4.264016589846565397e-01
-7.117537724285698253e-02 -1.081361561276289601e-01 4.616886934327599779e-01
-5.668678411368587022e-02 -1.126475110233861460e-01 4.844363859149282137e-01
-1.980187521847219523e-05 -9.636382110865258921e-02 4.545860568300212901e-01
-8.530025818624639711e-02 -1.098077457469182894e-01 5.005839737013377810e-01
-7.263847225272020147e-02 -9.932713003340573610e-02 4.254101175018994985e-01
-9.867134219067104361e-02 -1.078790733931290075e-01 4.851954921741808979e-01
-1.829261261399123479e-04 -1.264503038995573314e-01 5.146306950302103056e-01
-8.411949930479147020e-02 -8.992827296762112566e-02 4.377817081203655980e-01
-7.589130533773197351e-02 -1.104216636310212801e-01 5.137581466145114684e-01
-6.231581870670990092e-02 -1.122841129297674767e-01 4.850610733369475347e-01
-6.630460631893671242e-02 -1.039419422889272387e-01 4.348826413186224205e-01
-3.489163856618053561e-02 -3.349352913848260144e-02 4.361172247573748550e-01
-4.428020615619147893e-02 -7.508230007803312622e-02 4.310337846361518288e-01
-3.345117813457729183e-02 -7.769641493682297173e-02 4.379242033940887180e-01
-2.665824153572895691e-02 -1.193416016927096451e-01 5.017010087440560984e-01
-2.794848220544194836e-03 -1.256503637392838157e-01 5.098826010956839516e-01
-4.677095510000138512e-02 -1.161339568972900166e-01 5.095653028739789425e-01
-5.654258865698440911e-02 -1.051498288690228544e-01 4.509856354744237183e-01
-9.615874605267911435e-02 -1.052224567502233060e-01 4.625925657446061656e-01
5.031099237723647005e-03 -1.261624466642018438e-01 5.116897749534967677e-01
-9.419365824373995139e-04 -1.225111765843189121e-01 4.951815025727027697e-01
-6.683086163066759289e-02 -1.124468908951721524e-01 4.905742189284473809e-01
-3.095501238859971888e-02 -5.799460710331528351e-02 4.358631093536297074e-01
-3.524079335120216400e-02 -1.176060136848985360e-01 5.260182337125229868e-01
-6.433641243077063698e-02 -8.606703601634807521e-02 4.208474081495727215e-01
-5.381197761424885706e-02 -9.646152163291908666e-02 4.239447209369268665e-01
-8.803759910092680274e-02 -1.098621079984852533e-01 4.958088671840759631e-01
-2.186446107165349734e-02 -4.482736820407914879e-02 4.385898464983143397e-01
-2.968132422358781344e-02 -1.185106900391850460e-01 5.292758057220119383e-01
-9.523804447956354946e-02 -8.581415265483031962e-02 4.582138527059003152e-01
-6.651163166519120928e-02 -1.083677545764891031e-01 4.625343365773083026e-01
-7.467162192453477565e-02 -1.099577641621485025e-01 5.176303038160033898e-01
1.701986086828402708e-03 -1.248905920057247904e-01 5.030103735097460893e-01
-7.393129934622348284e-03 -1.205789595329016251e-01 4.900764449250273325e-01
-8.022227049658901821e-02 -1.099358017985382491e-01 4.726827269904930739e-01
-1.029190837066771835e-01 -9.166492567229932165e-02 4.632965824203912342e-01
-1.033507996809874541e-01 -9.061158686759875069e-02 4.651409767073669821e-01
-9.064941958105110498e-02 -8.528002350208714610e-02 4.509737431088676196e-01
-3.335544242530017606e-02 -7.139921046776735725e-02 4.357927851956307497e-01
-5.089087004101224693e-02 -1.154300927675997457e-01 5.101864637703149574e-01
-2.775366291674255526e-02 -1.075511137292356062e-01 4.691768079946140868e-01
-6.714769321855042217e-02 -7.991508298472356497e-02 4.249079102438809152e-01
-2.742277233774599240e-02 -1.197288275573279853e-01 5.059477632638430533e-01
-2.256398509508982658e-02 -1.071517432358484595e-01 4.672883419450832299e-01
-4.581842231819734795e-02 -6.036434357772042097e-02 4.307943477962133949e-01
-6.277865451919935336e-02 -1.078666225696465336e-01 4.596218232945692983e-01
-9.723726856218849190e-02 -1.055662416460708131e-01 5.069575391023691813e-01
-1.069898695550165618e-01 -9.588906512422869233e-02 4.660846029596951712e-01
-4.292677839634036902e-02 -9.169976381636846252e-02 4.413841856733708990e-01
-4.424841643639523814e-02 -1.156640016062421561e-01 4.950172545314701633e-01
-3.912891421810522213e-03 -9.353847532730594216e-02 4.519518850967390589e-01
-1.038590230024267896e-01 -1.054596950627274266e-01 4.765595932762117792e-01
-3.780110177594179360e-02 -5.180499094484897205e-02 4.344414188055285009e-01
-3.259831464576338350e-02 -1.089711054782237371e-01 4.715853359088356678e-01
-6.431236319183401828e-02 -1.056476451403782352e-01 4.495476800004435947e-01
-6.101861303098839867e-02 -7.790687687061771671e-02 4.237372776202844027e-01
-1.072349271947125315e-01 -1.036405695752276868e-01 4.760058198740144686e-01
-8.288134824264259404e-02 -1.074742005912378839e-01 5.158696829127172867e-01
-4.105516538640690410e-02 -9.306893453533311711e-02 4.439395703441732510e-01
-1.528418807727125947e-02 -6.087705012884184197e-02 4.386384191601789273e-01
-9.865577013505215376e-02 -1.063844653348470781e-01 4.699721074225071127e-01
-1.057065367636207676e-01 -1.047185810008117723e-01 4.771201952817474279e-01
-5.088403428538638973e-02 -1.152326214735155396e-01 5.172301494355328044e-01
-1.656571082104782780e-02 -1.067634009408579276e-01 4.644916855045082560e-01
-1.458191259346433392e-02 -1.228921700923826799e-01 5.072216128046739270e-01
-9.780670331220965574e-02 -9.206128713422143117e-02 4.555838530781640694e-01
-1.981736535151141284e-03 -1.258090798573432423e-01 5.292194068004585361e-01
-5.042825428456268466e-02 -9.737112506027076342e-02 4.350806621589207723e-01
-2.117284366174727872e-02 -1.206176580633035317e-01 5.301498151407341153e-01
-5.975158671067443833e-02 -1.034923594126285901e-01 4.265550151945797785e-01
-1.658058535517474563e-02 -1.229904617819004842e-01 5.159568912959072717e-01
-7.112376681651967625e-02 -1.100923874110934370e-01 5.210230987730770646e-01
-1.069909861220249281e-01 -9.197676468485999068e-02 4.693329954812051064e-01
-4.594211998506737837e-02 -1.125644555406203201e-01 4.831571582241830920e-01
-6.180772442063247295e-03 -1.253708313873144742e-01 5.134870872773641404e-01
-6.702843377949128933e-02 -1.031887425825903093e-01 4.311906984554551570e-01
-2.615525589294603534e-02 -1.025189089718618191e-01 4.616978027066885870e-01
-1.016820034947423790e-01 -1.047022326836245937e-01 5.035002548158086233e-01
-6.026789560342225849e-02 -1.041856807498035276e-01 4.438535805601332429e-01
-1.527073911065074396e-03 -1.213945700300472497e-01 4.915692575095277350e-01
-2.170834265122406972e-02 -5.496684488944853647e-02 4.376808147248215652e-01
-3.045133645108360695e-02 -3.729677677836550076e-02 4.372222668015720570e-01
2.595288019852828865e-03 -1.026929896512019658e-01 4.604373634909333379e-01
-6.010853424058974770e-02 -9.816728964177547090e-02 4.213237799742714507e-01
-1.906930657257076972e-02 -9.876830688914113587e-02 4.561762891848832879e-01
-1.021268851081911233e-01 -1.036359934058429244e-01 5.059440271392134925e-01
-3.582121188616002594e-02 -3.221730811141618883e-02 4.360930346403368851e-01
-1.894423568726348248e-03 -1.227023209157710043e-01 4.958012615396659162e-01
-5.438939759587999023e-02 -3.866548056537603278e-02 4.410142315167527305e-01
7.088246917610067227e-03 -1.212982935289357439e-01 4.930330280887396666e-01
-2.440992188932170071e-02 -1.021317550867449492e-01 4.609393127034756010e-01
-4.056024861283802352e-02 -1.105088714533862815e-01 4.754642016360770551e-01
-1.758377357944215097e-02 -1.133597615796333169e-01 4.772302072088752123e-01
-3.418409397549034001e-02 -1.004857060463260482e-01 4.569352646632818815e-01
-1.080482333550322575e-02 -1.064708780936524241e-01 4.631176470610380846e-01
-4.222206417550515914e-03 -1.257892997201714991e-01 5.148111665680915605e-01
-7.953594103553364436e-02 -1.018745630836741661e-01 4.396753507406236383e-01
-8.238787690939208819e-02 -1.107885554976888870e-01 4.826719855826385186e-01
-8.448104041262545494e-02 -1.035844286346669502e-01 4.497491363838706513e-01
-8.142980044129274897e-02 -1.088566528091382268e-01 5.132582980876839729e-01
4.957893467616512895e-03 -1.262171347182721171e-01 5.320410355408881076e-01
-1.195568186040240483e-02 -1.232588946752490450e-01 5.314719667775569256e-01
-1.573046334719616079e-02 -1.102000766280740313e-01 4.700171240854612020e-01
-1.527494935092713231e-02 -1.230133348645547908e-01 5.103160567636448874e-01
-5.745460172825497813e-02 -1.144367928515008792e-01 5.135732964729170513e-01
-2.800758963607640623e-02 -1.177352594554240683e-01 5.376799568127745843e-01
-5.572675431416569680e-02 -9.503434006174611703e-02 4.221093569440567683e-01
-2.811716988275185167e-02 -1.140441432254840626e-01 4.826472646312867654e-01
-5.431549036724463153e-02 -1.086548015051354010e-01 4.642198338284491133e-01
1.042380801116322237e-03 -8.490164323642372668e-02 4.477004108629184520e-01
-1.254500149266166500e-02 -8.654979698936704491e-02 4.463783389009728930e-01
-4.037250705988509880e-02 -1.172872798178626330e-01 5.093134860898936855e-01
-3.278573648418679765e-02 -3.991755191198290142e-02 4.364010626674473814e-01
-6.494778141526225124e-02 -1.065901113390793076e-01 4.546849114479236675e-01
-1.000674156138615239e-02 -1.106735753262292898e-01 4.690197401115490106e-01
-1.042966426465252033e-01 -1.023223232935345367e-01 4.653846110400879366e-01
-1.694669263591458072e-02 -9.147450695415275390e-02 4.485800814730841468e-01
-2.690999144407652671e-02 -1.065088307522243788e-01 4.672336506818872137e-01
-3.826092336651616688e-02 -7.882874998981473369e-02 4.356497760523721507e-01
-6.279909517496665150e-02 -1.050681940278443416e-01 4.447197570546220780e-01
-3.585222827567541293e-02 -5.669893315316926197e-02 4.347841582853764764e-01
-5.409948066142064582e-02 -3.696140897114572055e-02 4.408793136996938533e-01
-5.191717151527627111e-02 -9.979175168539355933e-02 4.357024845471149099e-01
-4.991832400016340404e-02 -1.014300377450228080e-01 4.471748134267352071e-01
-6.951064039926684035e-02 -1.006091651416015087e-01 4.238569713133972794e-01
-4.098157252372761072e-02 -1.011340859371020334e-01 4.539431114004272017e-01
-3.858579884529213244e-02 -1.176466794755734874e-01 5.098920736860949043e-01
-5.153851395635377503e-02 -9.961212294783801380e-02 4.366628072118589610e-01
-8.838730923259834060e-02 -1.089134803142273178e-01 4.703031595482600746e-01
-7.484020058856968860e-02 -1.017343366375746544e-01 4.334708966321776380e-01
1.057719443627434981e-02 -1.261145867911517282e-01 5.349965078809214569e-01
-6.162429031427810872e-02 -1.113306987998753106e-01 4.761582986230874504e-01
-6.043759416140404017e-02 -1.087746469809340727e-01 4.642838193026720406e-01
-2.006766087729771469e-02 -9.236864173252934407e-02 4.493967326921398664e-01
-7.779119431780914806e-02 -1.101072231938276108e-01 4.733102212122433095e-01
-3.464987771156589208e-02 -9.246046653505075874e-02 4.466160764242471104e-01
-1.129167083712397102e-01 -9.770721859022983569e-02 4.851501993094066156e-01
-9.728237083759759540e-02 -1.060690009119239913e-01 4.671478178620741550e-01
-5.255722548932686977e-02 -1.044818502315286862e-01 4.521711848083562746e-01
-8.301824076053732071e-02 -1.009178484222234273e-01 4.423548467775805793e-01
-2.311277156156399393e-02 -6.689043187572123184e-02 4.380826586141177148e-01
-1.027112720010562169e-01 -9.888760730906932805e-02 4.597883402889496041e-01
-1.441672069057226696e-02 -8.176140789473282378e-02 4.439162996761487623e-01
-7.042731730451282091e-02 -1.042164527126970414e-01 4.414358988245793980e-01
-3.422063220256770649e-02 -1.071575631959751501e-01 4.675324968959428951e-01
-7.216350609822892725e-02 -1.121572139443533234e-01 5.038852880902304765e-01
-3.653818836259139363e-02 -1.159704905318544865e-01 4.926618147861707153e-01
-1.048464889517951165e-01 -1.002470408426727466e-01 4.633588599283772202e-01
-8.205864873781346103e-02 -1.101630852158777957e-01 5.037615472328913491e-01
-5.308676982486122686e-02 -1.002747368787198778e-01 4.379489352503553867e-01
-3.072934091622506192e-02 -1.191458614481351597e-01 5.167957181906901454e-01
-2.581277846199676873e-02 -3.566040100733928325e-02 4.383402223062657366e-01
-4.878137879921795594e-02 -1.006201030935135049e-01 4.464024101038223669e-01
-4.605981144176542544e-03 -9.136588060553442470e-02 4.503273868494144239e-01
-2.281089130419708920e-03 -1.153539265384077861e-01 4.760498991274028646e-01
-4.654054288721095473e-02 -1.149631612685793058e-01 5.266119916544670376e-01
-6.665079927218976741e-02 -1.118006141656664176e-01 4.839890739406018660e-01
-9.588524747943499849e-02 -1.066940823300266822e-01 5.049635027660897002e-01
-3.634190516836546033e-03 -8.711477155119509708e-02 4.483503769530474692e-01
-5.907507672255346565e-02 -8.080080060147538934e-02 4.231687953583032624e-01
-9.079225889881996359e-02 -1.096430540513178703e-01 4.870632843755610675e-01
-5.335766484290398876e-02 -3.035414556666169578e-02 4.403413597004325331e-01
-5.290709502712364481e-02 -1.059779473644898301e-01 4.571210003995734850e-01
-7.192308653404620722e-02 -9.794551499902201530e-02 4.235912218125963413e-01
-4.449957966160949380e-02 -1.095125809085352453e-01 4.707278665087935021e-01
-5.333288970267433676e-02 -8.805704039461974275e-02 4.241837345087049460e-01
-3.607255459122389596e-02 -8.119590439341839438e-02 4.381975699829755433e-01
-2.040518931461424851e-02 -1.090035291551392643e-01 4.698002127085068036e-01
-1.103358129600853776e-02 -8.528555107266393154e-02 4.460422169470370513e-01
-1.019810174010645776e-01 -1.029835954611039300e-01 4.628494076399332080e-01
-5.352451272694117718e-02 -1.141444013522093098e-01 4.929824725425837051e-01
-7.434748261369681678e-03 -1.243240327595798722e-01 5.058981669047616370e-01
-8.089375569584097980e-02 -1.099119841752702470e-01 4.727361194669409405e-01
-7.021339793925697459e-03 -9.608994081480613791e-02 4.532828350797913908e-01
-2.250739381008035750e-03 -1.062488083557740215e-01 4.634942953970693225e-01
-8.502137418340174890e-02 -1.060288653472054865e-01 5.176717636327692329e-01
-6.274463721926633319e-02 -1.135986754825759337e-01 5.122805586295643421e-01
-8.911243589251299779e-03 -1.191196285851531117e-01 4.857493008844013249e-01
-3.933263754313288951e-02 -9.336974286208198082e-02 4.451290967920052410e-01
-6.901103133867743378e-02 -1.051237883533089612e-01 4.476788521108890362e-01
-5.281511708380384057e-02 -7.585005681987624926e-02 4.256059837693677017e-01
-6.410226268207397252e-05 -1.265250459375899805e-01 5.152813918223067002e-01
-6.708277906527800039e-02 -1.016313404476393567e-01 4.232839033824248309e-01
-2.214559146430715095e-02 -1.115714090727038116e-01 4.754726270883676831e-01
-3.703600887811209219e-02 -1.035313520008296073e-01 4.605618982806644057e-01
-6.291889721941497371e-02 -1.131797455330607882e-01 5.161982490597394335e-01
-2.351718104498066314e-02 -9.448934580905557490e-02 4.519133029027309623e-01
-1.322227721249862389e-02 -1.090864344523062163e-01 4.672885825227207079e-01
-3.307620436822361620e-02 -1.176340314399454828e-01 4.979822593891736204e-01
-6.410263149825731754e-02 -7.535616264651144591e-02 4.259564636943460880e-01
-4.492731438297314223e-02 -7.479065956057100173e-02 4.304147617818695482e-01
-2.114579062922780986e-02 -7.491848832858982732e-02 4.402148131798769848e-01
-4.793345102164016380e-02 -7.912591242689639981e-02 4.282676228124880913e-01
-4.650619155894591267e-02 -7.438924936523269582e-02 4.292138026538039330e-01
-5.893811535607375307e-02 -8.030544976720305206e-02 4.232809499981778911e-01
4.333425468522844777e-03 -1.224481944348169149e-01 4.954153684236596300e-01
-5.694614176482989260e-02 -1.133081597684977432e-01 4.887830135364876205e-01
-9.424636493591218023e-02 -1.089881180536104444e-01 4.913225215944315716e-01
-9.583168513141452488e-03 -9.738154211826587081e-02 4.540236794328233461e-01
-7.817272232520533493e-02 -9.612766677548154060e-02 4.279843802034276612e-01
-5.289640053771429117e-03 -1.233449817540641646e-01 4.988657211422293236e-01
-2.257438935326381083e-02 -7.333188847459365389e-02 4.395455587289348598e-01
-3.489729843092145845e-02 -4.431645513445502810e-02 4.355124137193888689e-01
-7.851834175810941396e-02 -1.059818604161594235e-01 4.544948649696368137e-01
-3.140790632552423189e-02 -1.185706104139810230e-01 5.239394392052636462e-01
-1.126473322893275716e-02 -7.988361000225314978e-02 4.437449808167259757e-01
-2.795950716156723678e-02 -8.244444200493947217e-02 4.418643459575337107e-01
-6.422197977410444569e-02 -1.073569547021798187e-01 4.577164214979339008e-01
-1.065076604456467319e-01 -1.022186723033809558e-01 5.039024437573093040e-01
-4.975887981234787538e-02 -9.124636860709467445e-02 4.273631037193562632e-01
-2.759630737793079130e-02 -6.449248334149286499e-02 4.369304321475536712e-01
-2.771602928494255880e-02 -1.181228561469947480e-01 5.360639647099501026e-01
-9.810248486406165924e-02 -1.006135932650675108e-01 4.569621477908477059e-01
-2.194771475816653314e-02 -1.192916111334489937e-01 5.379981190519411705e-01
-3.044138017169702864e-02 -3.639075354523695072e-02 4.372231336747084418e-01
-2.934397062144386906e-03 -8.802049467714859188e-02 4.489513782801689556e-01
-9.140717726726750592e-02 -1.049216400995693910e-01 5.137515176630834679e-01
-6.075158381109185823e-02 -8.512078462829521242e-02 4.219644739256696031e-01
-6.230625780569389732e-02 -9.733218516540996512e-02 4.214977440936656383e-01
-3.700814255854589091e-02 -1.140569791095365770e-01 4.859244895009078302e-01
-3.294382050265062811e-02 -1.137900217603115133e-01 4.834043259651905622e-01
-3.982572342234685925e-02 -1.121771137592780382e-01 4.807961460691153599e-01
-4.754090585376753025e-02 -7.292888137145159266e-02 4.285385166581311966e-01
-8.840084639644846254e-02 -1.054079991934619709e-01 5.153052520096533806e-01
-5.292037056761168118e-02 -8.644692614011900700e-02 4.244881950943899529e-01
-8.081892244298527483e-02 -1.087225518812697661e-01 4.658451651417102601e-01
-2.330317019017447838e-02 -1.152907263209104333e-01 4.847704871764891288e-01
-7.513829645607175700e-02 -1.065386518029628887e-01 4.556386977535064609e-01
-7.639901420207857730e-02 -1.035567030559997603e-01 4.416394767108848818e-01
-4.884562406980531846e-02 -9.510769797593758568e-02 4.352138357264921376e-01
-6.979439483125823851e-02 -1.024071106167932926e-01 4.309574295272325939e-01
-9.013093980110256642e-02 -1.043945809095400135e-01 5.161745879977654994e-01
-3.703687186098238854e-02 -7.064286336696401492e-02 4.341194101681050688e-01
-7.169419687031231003e-02 -1.103720863142965969e-01 5.193374825625541868e-01
-7.561257765543283327e-02 -1.087703302736528765e-01 4.652036987931427725e-01
-7.593507262555757031e-02 -1.090687332869581666e-01 4.669243771074639837e-01
-3.269804368921116339e-02 -1.125140101602496029e-01 4.794699485229679814e-01
-5.416827825945906560e-02 -1.123044324637290092e-01 4.818488499352212018e-01
-1.356716849620596792e-02 -1.183115883469633145e-01 4.855631096757356269e-01
-1.042951129984272390e-01 -1.048155654417159965e-01 4.737594923785181100e-01
-4.200316522792604118e-02 -1.138161329554514684e-01 5.370426378709287629e-01
-8.037805381525259252e-02 -1.076106377091663874e-01 4.613051225057313576e-01
-9.281672717924152605e-02 -8.381172070124957851e-02 4.563223025776161346e-01
-1.941551892000455137e-02 -1.154331025509898190e-01 4.830497568091100535e-01
-6.186225015847260367e-02 -9.604022393830144444e-02 4.212901825840684733e-01
-5.043950035649277103e-03 -8.597138836089476821e-02 4.474538095814728500e-01
-4.611876221812918897e-02 -6.979429266699699319e-02 4.295818050397831600e-01
-4.936192018321535618e-02 -8.120592374280422021e-02 4.272480157979727799e-01
-5.961228367903735614e-02 -7.561665643695593408e-02 4.242942342903548436e-01
-9.238126734168210230e-02 -9.062936601148724458e-02 4.489695835232369037e-01
-1.018072710817060494e-01 -9.390400922779708337e-02 4.601026716376239167e-01
-4.523494853289588419e-02 -8.366214855764299296e-02 4.311061637859415763e-01
-2.412180269679694081e-02 -1.200890552998380711e-01 5.274180764324788440e-01
-2.836877004932465002e-02 -9.418954584398538110e-02 4.506716761144030081e-01
1.476902817392029919e-03 -1.250116360935840942e-01 5.036937783765096377e-01
-9.171828466157389004e-02 -9.410582587298446655e-02 4.473582348365932604e-01
-2.363367131295700252e-02 -1.140593816756151069e-01 4.817799207098605874e-01
-2.425410110713917961e-02 -5.647415798485402177e-02 4.371401960195596126e-01
-9.755427042019561290e-02 -9.570435896189032066e-02 4.541725077582988712e-01
-4.565041131524905094e-02 -5.070789180974634436e-02 4.335014254281287505e-01
-4.619979103191471093e-02 -1.154261746798966315e-01 4.948541371209171924e-01
7.105066950673345760e-03 -1.264499377960524307e-01 5.309219771974650337e-01
-3.532422189643381200e-02 -8.332171943163675654e-02 4.395961983994715605e-01
-1.969214943803253293e-02 -1.216429832268825645e-01 5.235328285407181426e-01
-4.938501539360943410e-02 -5.980896348383280686e-02 4.303620466064336791e-01
-3.472264687680892692e-02 -9.665323784622920078e-02 4.509474531973403644e-01
-2.319107208106185869e-02 -9.585957372880735128e-02 4.533116859230193474e-01
-1.020355000838845186e-02 -6.995468237391000432e-02 4.407618700144109170e-01
-9.216599022407066799e-02 -1.030611072602046763e-01 4.546003579708129405e-01
-4.420798427093693139e-02 -5.845984220658272112e-02 4.316657876291686291e-01
-2.377929843139349811e-02 -1.066931220158612303e-01 4.668825137686569704e-01
-1.692589693490316460e-02 -9.138419863363891893e-02 4.485203231343273811e-01
-5.645282197626615150e-02 -6.408941002203587256e-02 4.287482598657950672e-01
-5.391932564699147140e-02 -4.342188977535683253e-02 4.364941749854875375e-01
-6.747467259295762687e-02 -1.124220473236823975e-01 4.909584226241607285e-01
-1.881576258773962149e-03 -1.194938016296122618e-01 4.856782551781689272e-01
3.013462487085200904e-03 -1.058924887537725235e-01 4.638089392293224811e-01
-6.779115104656338597e-02 -1.041250034875198377e-01 4.377404352490468775e-01
-8.925315655208282406e-02 -1.076355841913217704e-01 5.077839502377154979e-01
-3.920957506564028833e-02 -1.137497460017075496e-01 5.421019193206643161e-01
-9.505373799107866284e-02 -1.079030586059444158e-01 4.721886119059434672e-01
-3.376819615205941399e-02 -1.131782650597889101e-01 4.818100839894787768e-01
-1.624646873027305385e-02 -8.440224104686033790e-02 4.447825296964368347e-01
-6.166036698189610032e-02 -7.973591633437354664e-02 4.233188555531990915e-01
-9.463738317915697858e-04 -1.257352765153069429e-01 5.086864077806990680e-01
-6.557794534647973239e-02 -7.710843788989388270e-02 4.264218665892275384e-01
-7.244347016123013627e-02 -1.122289191246550744e-01 5.003970946274930442e-01
-8.731712397281823912e-02 -9.145644238970944417e-02 4.421786640889327491e-01
-1.579806682775932586e-02 -1.183127462255095241e-01 4.872282809208922094e-01
-7.661208648340300797e-03 -1.252150340308022525e-01 5.183140808072805861e-01
-9.876802782870855446e-02 -9.106815820199259948e-02 4.576575387375261261e-01
-4.266012222621153038e-02 -1.147447992854747495e-01 4.904221069559685509e-01
-1.862374703701204226e-02 -1.221141015533488000e-01 5.092787209986685548e-01
-5.294475373610768587e-02 -1.000591043223706678e-01 4.386173437849322232e-01
-1.039974868787976875e-01 -9.535946767280677194e-02 4.618516692671948976e-01
-8.058985648779530553e-02 -1.032579799945560206e-01 4.463111151727159887e-01
-6.450936196841884629e-02 -1.118522793150696082e-01 5.214982809167429956e-01
-6.428873648229817273e-02 -1.128836048869724523e-01 4.927189382233961856e-01
-1.139956425356641358e-02 -1.138837425299923795e-01 4.747364063230665732e-01
-3.563566597372830325e-02 -4.891704051144492998e-02 4.349980655985928868e-01
-9.179363083952024605e-02 -8.694141509343156216e-02 4.516192401283025681e-01
-1.495943712023014953e-02 -8.974685551438474351e-02 4.475501095924845352e-01
-7.888180655346063719e-03 -1.230055144838235609e-01 4.982685329055343004e-01
-7.105156936738366014e-02 -1.103940543570277322e-01 4.740338777571215800e-01
-9.242225220882425984e-02 -8.656586944086128166e-02 4.529047143857460322e-01
-5.039753211121804355e-02 -1.095321067637474999e-01 4.680596999202444319e-01
-4.600851148612557576e-03 -1.241302130150007538e-01 5.023646606410964166e-01
-3.535449447486131019e-02 -5.184211885225039479e-02 4.349656476886191170e-01
-4.612666904061576978e-04 -1.094723201509664456e-01 4.671245624655254169e-01
-4.130545506149165685e-02 -4.148390181711603814e-02 4.343371860732151424e-01
-1.738397068681171373e-02 -5.672731857076944439e-02 4.380254071124816684e-01
-2.747350972823963539e-02 -1.199857342339714222e-01 5.139934713831374458e-01
-8.132340454088282655e-02 -1.101915490668765041e-01 5.052113661417388935e-01
-2.732424728581559631e-02 -1.186722260996722483e-01 5.333955631979250267e-01
-5.106204318260803426e-02 -1.083605284321248474e-01 4.640179708115577673e-01
-8.106884008137917041e-02 -1.007745083750195003e-01 4.391472985699163001e-01
-9.200333949577065018e-02 -8.749988574391384666e-02 4.513862045197041262e-01
-8.348361489143166225e-02 -1.104676934021374957e-01 4.982547106057385600e-01
-1.205305376226694508e-02 -1.136484206531037933e-01 4.745245405160059549e-01
-9.776331006040607507e-02 -1.059027405319754866e-01 5.053629242463792970e-01
-3.012364283958156308e-02 -1.191000589102068630e-01 5.209129402923505792e-01
-4.431006887732112653e-02 -7.426974678941197783e-02 4.309435148940908844e-01
-3.422013536873726169e-02 -4.015075848856963087e-02 4.358525983447515406e-01
-6.230691404724439386e-02 -1.123126109407207723e-01 5.222270279258451886e-01
-7.143888903073988828e-02 -1.116690247147163195e-01 4.865308007715952177e-01
2.212847260833934737e-03 -1.266207957158525521e-01 5.158062915227711320e-01
-6.144088199820194746e-02 -9.746445465507831696e-02 4.216561983930147139e-01
-5.535840316454715415e-02 -1.105951524310825052e-01 5.335869202640762810e-01
-2.450058607164228366e-02 -1.073066734577232256e-01 4.681063156659219793e-01
-2.974595911738761589e-02 -6.806881506908619983e-02 4.367380304553457049e-01
-9.438905731940294003e-03 -1.232184939795570033e-01 5.343184613086859880e-01
-5.570835133122941513e-02 -5.810141316095859126e-02 4.306764630011377659e-01
-4.402745237543825851e-02 -1.163681266807895659e-01 5.034436913665346625e-01
-5.119034061724331286e-02 -9.672551154399315620e-02 4.285107048048850675e-01
-4.599746828300002588e-02 -6.184745054088671562e-02 4.305214645401739815e-01
-3.255430926080273707e-02 -1.174774474275883246e-01 5.330132223346736309e-01
-1.262392954509207292e-02 -1.158130144961532215e-01 4.794253686988595997e-01
-8.773525994251402116e-02 -1.101043266565477768e-01 4.912549945434134258e-01
-2.503805603606366892e-02 -5.824850625862406511e-02 4.369349807252625451e-01
-4.005073827891152127e-02 -3.977950138827536508e-02 4.345667979041754059e-01
-4.475698954575564603e-02 -4.806154964491073794e-02 4.336943552732362428e-01
-5.991675313149412430e-02 -1.036094819641498466e-01 4.408231918493905055e-01
-1.487784995062130244e-02 -7.711622232265222254e-02 4.420151571757224840e-01
-5.776725206969515747e-02 -1.033629371521844198e-01 4.265003374648905776e-01
-7.346651292170106040e-02 -1.110032485553220510e-01 4.789504639277814002e-01
-8.405019900597625326e-02 -8.804198762616803620e-02 4.386431859559177804e-01
-8.596241843842342134e-02 -1.104220538504400856e-01 4.860155274348669785e-01
-1.233064860932953088e-02 -1.218032759547079819e-01 4.972013437188386731e-01
-7.328171223586879557e-03 -9.996523260447164050e-02 4.566466530322771389e-01
-7.778559548506759624e-02 -9.821659022840642517e-02 4.293846868862641886e-01
-9.424287818671496855e-03 -1.160443252511752649e-01 4.781424010957955884e-01
-8.634148049012850545e-02 -1.092393638614870127e-01 5.038308659117520794e-01
-2.071900834326864324e-02 -1.188204779631053670e-01 5.416768157601986600e-01
-2.047932424963560399e-02 -1.202740981859760638e-01 5.353359196135567544e-01
-2.695521393209802594e-02 -1.143550202438607249e-01 4.833087665417807322e-01
-8.000161684109732829e-02 -1.111333037103948151e-01 4.891110681714024300e-01
-7.873249657191858097e-02 -1.078652656351177241e-01 5.200725183681133013e-01
-5.013097485822100297e-02 -8.993912262378325750e-02 4.268669550737832497e-01
-9.549432571586138896e-02 -9.058375908690100009e-02 4.536008225300143804e-01
-5.086577026447754862e-02 -9.899225962410507229e-02 4.395569710579256828e-01
-1.975108896987259194e-02 -9.924918428385878788e-02 4.568099190471383020e-01
-5.214834732874850526e-02 -1.152285411452631247e-01 5.077470373493435662e-01
-2.899133079293322521e-02 -1.183883494586768365e-01 5.322582603726013772e-01
3.713655840626332166e-03 -1.127694911751766366e-01 4.725737148623437855e-01
-7.298191138720958038e-02 -1.096698787106545891e-01 4.698735986856396596e-01
-1.006841438463241672e-01 -1.072778920364522992e-01 4.816781834871785573e-01
-6.737360111742377033e-02 -1.077131557739931522e-01 4.595538000773801701e-01
-1.594008193823302777e-02 -1.224854545175703413e-01 5.271284021902595818e-01
5.610438556704799157e-03 -1.229274708228917934e-01 4.973735740072951494e-01
7.810655967768564620e-03 -1.264768634807325598e-01 5.311815270589980154e-01
-4.579577839819201635e-02 -2.734865070516265609e-02 4.360188410880887488e-01
-1.035342007619115268e-02 -8.010324276278292521e-02 4.440077532442029962e-01
-5.220984548770123135e-02 -3.027272491907096602e-02 4.384637470086754640e-01
-2.540627983692859623e-02 -4.300046463288506593e-02 4.383414542470787101e-01
-3.778543307202669038e-02 -1.171654914204295350e-01 5.006767858733607302e-01
-9.280156719784764252e-02 -1.038398865117550890e-01 4.567448536808355053e-01
-4.111952366353322647e-02 -8.445362632973248129e-02 4.362631462608275723e-01
-3.718328814409702782e-02 -9.883938876568214293e-02 4.527499036914453545e-01
-1.591694858979379387e-02 -1.205959382402867208e-01 4.955048421386491486e-01
-9.641970898488591568e-02 -1.083716511003166988e-01 4.813921781495953400e-01
-5.703070308884772982e-02 -1.109184812316164059e-01 4.729317328255321362e-01
-3.887485496600358997e-02 -1.170845489972665021e-01 5.236658229057620240e-01
-2.769924720650273828e-02 -9.600179842030130695e-02 4.528651271763682873e-01
