-3.781912916563599444e-03 -8.517961555996700351e-02 4.473287687434895910e-01
-6.593160989647134373e-02 -1.130139163180158557e-01 5.143703527992092850e-01
-4.595223757090281108e-02 -1.032907643534418385e-01 4.533589157602070929e-01
-4.751134865845439009e-02 -1.142289146307209208e-01 5.303708038496107724e-01
-5.071309371132811522e-02 -9.696429581753739091e-02 4.280787454343953913e-01
-3.084557691698629200e-02 -1.191971194070091805e-01 5.175843543920077838e-01
-2.294503372279148648e-02 -1.197029850652649025e-01 4.991532522331592614e-01
-3.131492819712062420e-02 -8.224836993760414883e-02 4.405575822850792966e-01
-7.882127122366234390e-03 -1.218059158746707948e-01 4.940494326921219259e-01
-5.213845485753260123e-02 -5.817732043658346147e-02 4.311389149188226133e-01
-4.396564156352565384e-04 -1.263108764321051181e-01 5.136764518013547942e-01
-7.251763407226924363e-02 -1.075036763800592959e-01 4.568017202997686765e-01
-5.422313406611004201e-03 -1.252651638799720801e-01 5.100157341284811130e-01
-3.967708275471661106e-02 -7.938000935138804504e-02 4.347473949240633906e-01
-4.273967253901885671e-02 -6.684703854942393442e-02 4.314156243136883506e-01
-4.742341753758386874e-02 -9.427999719233280673e-02 4.353482448739698363e-01
-6.234920215239853070e-02 -1.135276082890496196e-01 4.946369286996590287e-01
-8.402153409219330349e-02 -1.107731826868986191e-01 4.982655026019213729e-01
-5.011627463474781913e-02 -9.911724027122273406e-02 4.412078131390903546e-01
-5.001239000751839942e-02 -7.809945194755751885e-02 4.266931013810513762e-01
-3.509442072042112063e-03 -1.173167831970295116e-01 4.797394621530540193e-01
-6.338940077307879395e-02 -1.094127145530849471e-01 4.650895560747084212e-01
-1.054012471772162035e-01 -1.063035501892554829e-01 4.923863172776252184e-01
-1.076825043348824881e-02 -1.233230883906851205e-01 5.327505971404462581e-01
-4.310566743978586773e-02 -6.300886121509396975e-02 4.316255535265421939e-01
-6.017911991730592880e-02 -1.044019875759893135e-01 4.404039527747803384e-01
-1.653149064261211221e-02 -1.225976713462398476e-01 5.231582637244249767e-01
-4.586153819335420101e-02 -3.242598234592623113e-02 4.353051083005406441e-01
-6.851195670483506417e-02 -7.652604274045948785e-02 4.289631534949435165e-01
-7.535705077073147351e-02 -1.118424062613288389e-01 4.880446200454769401e-01
-3.246087766190445395e-02 -1.167317046598050495e-01 4.931798181648386903e-01
-3.291779106930607657e-02 -8.007135589154495969e-02 4.389747491661524781e-01
-8.321681437260333714e-02 -1.089646161855043760e-01 4.654320529865624834e-01
-1.053423049739656836e-01 -1.029536585334381027e-01 5.045507739072603304e-01
-3.911519488430782732e-02 -6.318977872384218264e-02 4.335048975137001381e-01
-6.331771713602482587e-02 -1.124224066289756796e-01 5.215501908769129003e-01
-2.541891761951143441e-02 -3.658260261557977344e-02 4.384952650591147916e-01
-3.467892683017020916e-02 -1.135250599982389474e-01 4.826860288310900193e-01
-5.924415417456694449e-02 -7.932866817414950533e-02 4.237574735509281321e-01
-4.602927464207105107e-02 -7.051317752461162824e-02 4.296965871864441566e-01
-1.684321554530369969e-02 -1.225769076123725543e-01 5.223968513531960234e-01
-6.869115985896884213e-02 -1.066439400965633610e-01 4.526571460532817226e-01
-8.240395887293676391e-02 -1.050273972779897369e-01 4.510305934564721730e-01
-4.575474206810004052e-02 -9.400103056655172151e-02 4.400728454771130060e-01
-7.484901910133606728e-02 -1.106788721022663041e-01 4.736268716891671171e-01
-1.019948881372508831e-01 -1.054272834869539321e-01 5.022895192060455871e-01
-7.577537335750860782e-03 -9.781118968868621200e-02 4.546441199672610067e-01
-9.364237406339259717e-02 -1.052686604908076723e-01 4.595221096133344507e-01
-8.507151445817072444e-02 -1.011144209865765947e-01 4.433778682421224415e-01
-6.293029137166698816e-02 -9.555518565146919885e-02 4.206190013699219743e-01
-7.678944799894697748e-02 -1.046375822861370930e-01 4.443698413205069975e-01
-4.028498380532028779e-03 -1.202507088373372252e-01 4.877708990481418039e-01
2.126336034834243501e-03 -9.804291890980612600e-02 4.563122458911554880e-01
-3.026600392993509386e-02 -1.043453294327707226e-01 4.634990569181350883e-01
-6.578726554102748425e-02 -8.557371129554042222e-02 4.210031052119058703e-01
-7.204926234956009201e-02 -1.008325243123874698e-01 4.257779054905199145e-01
-6.976238009492470582e-02 -1.101391622801963927e-01 4.689829463608681803e-01
-9.429384201077832192e-03 -1.077917051359460754e-01 4.645241759830090467e-01
-5.239621918707202536e-02 -8.432181566295671171e-02 4.248747678384925952e-01
-3.093356163321628674e-02 -6.861786836529530642e-02 4.365877882111587893e-01
-4.587539351776702239e-03 -1.168667842970536330e-01 4.788739541564501212e-01
-5.503681667116337717e-02 -4.361303274026199356e-02 4.401944623857458327e-01
-8.635692860568171259e-02 -1.100680806152670582e-01 5.001141672335334132e-01
-1.012144481927539259e-02 -6.274973443165444975e-02 4.390655312446222203e-01
-4.956370633055681013e-02 -1.046975182950850014e-01 4.539258959649608571e-01
-2.259489811915600319e-02 -9.797170005612602928e-02 4.555808005479102252e-01
-2.855986601159756291e-02 -1.186584451358485420e-01 5.310071081509305513e-01
-1.074803295422917387e-01 -1.053892617134737364e-01 4.937789511642322604e-01
-4.711134741209825616e-02 -1.119174485978733091e-01 4.784839646626344867e-01
-1.213756004427139421e-02 -1.135366367753727485e-01 4.742853428593522547e-01
-1.641152026150097601e-02 -4.990811955851780224e-02 4.384337873756454229e-01
-2.723823054375810321e-02 -8.194148985328925106e-02 4.417759735219523587e-01
-8.037446113451292284e-02 -1.106761893812488740e-01 5.061260671145456636e-01
-5.879251632886982326e-02 -1.138045138591109590e-01 4.924287935193251142e-01
2.183464171554310232e-03 -1.085956454710374913e-01 4.665254237768397538e-01
-1.987364853055585343e-02 -1.133471029457064766e-01 4.786269218223284660e-01
-6.672616046788563959e-02 -1.132841835080580506e-01 5.088704043143706945e-01
-7.175368789863332403e-03 -1.234191018891920288e-01 5.347777537479569965e-01
-1.036103443234523691e-01 -1.034885911573346223e-01 5.054511951653832824e-01
-8.625584188628191568e-03 -1.248196406581129625e-01 5.133098368142223755e-01
-3.458031059636407917e-02 -1.183092887714285446e-01 5.048627716930197407e-01
-7.005248969972890927e-02 -1.022233356898936407e-01 4.257478193424043544e-01
-5.728503697180057502e-02 -1.145297671905984166e-01 4.993666499729210173e-01
-8.372843451323197517e-02 -1.111375740563625009e-01 4.894101432484743719e-01
-1.471751369076257886e-02 -6.405480086311149401e-02 4.391333278857666444e-01
-5.078846019212507334e-02 -3.143938535810416463e-02 4.375733816806493537e-01
-1.516275268322917272e-02 -5.842799191089105559e-02 4.384953608667030989e-01
-3.190726277832758861e-02 -1.190434947130078330e-01 5.150135807397846488e-01
-4.128025599435487109e-02 -1.160662651700234832e-01 4.947738633325035051e-01
-2.310010703188591225e-02 -1.177160881895135264e-01 4.921249328082359931e-01
-1.065088490644107155e-01 -9.551052656936905028e-02 4.662113095579362709e-01
-7.883675105975732067e-02 -1.046419194832162169e-01 4.467181424104023635e-01
-4.268461646717854746e-02 -8.736680497374121890e-02 4.365990480519330585e-01
-6.159640288557459431e-02 -1.137701477825334290e-01 5.153761606754384550e-01
-5.271466496589818224e-02 -7.263330022803671238e-02 4.263253206213905022e-01
-5.629068014190828639e-02 -1.033710538707840187e-01 4.224617199814938440e-01
-1.950377331749294021e-02 -1.123002049391134127e-01 4.758186548238932390e-01
4.199652368103147689e-03 -1.270530314024799490e-01 5.194954290776720995e-01
-6.055064052573289057e-02 -1.100541442643962892e-01 4.677744808508305097e-01
-5.861762307208352035e-02 -9.912873834369695381e-02 4.212966103740470314e-01
-2.673869062418491108e-02 -1.201233239173483403e-01 5.192225643629991838e-01
-5.095669958497660995e-02 -9.802301634420479415e-02 4.315392008804880830e-01
-2.885435421513944665e-02 -1.186478073054449550e-01 5.304212645664749815e-01
-6.289281170585257763e-02 -8.818062414157909479e-02 4.208405952129543603e-01
-5.049788133715239768e-02 -3.270643964182916308e-02 4.375266093464912909e-01
-6.873131374096175250e-02 -1.016290973800960534e-01 4.236527762502427796e-01
-1.046158696901828278e-01 -1.038058607301964587e-01 4.677289916662250024e-01
-7.798905736373101805e-02 -1.114731180892662155e-01 5.034527828346070377e-01
-5.230518404267933685e-02 -3.912123806110915508e-02 4.369270297017402438e-01
-2.189863160715045665e-02 -1.091680397873636688e-01 4.705499370375685886e-01
-2.091298921281687859e-02 -1.020371872407936503e-01 4.601861503570454648e-01
-2.079569037709206800e-02 -7.248107652290587677e-02 4.397396224366990625e-01
-2.705910498590189533e-02 -9.695661179299429333e-02 4.539089555711954271e-01
3.661206234392836052e-03 -1.172814724176830525e-01 4.805925053422344106e-01
-1.659042175452953710e-02 -1.225859604455728918e-01 5.087675071647153047e-01
-4.913434129054299049e-02 -1.028999050062192055e-01 4.499472829747367397e-01
-4.067704101576338771e-02 -1.173370356702315570e-01 5.173845959134891759e-01
-4.773544681372037662e-02 -1.159130424849176833e-01 5.008219830428841668e-01
-7.424525959597937097e-02 -1.123525145415726068e-01 5.014312792795508900e-01
-2.287171949748811189e-02 -1.212176953847935168e-01 5.130930166231874034e-01
-4.670052324487966589e-02 -1.082309826230336419e-01 4.639106807500669172e-01
-7.647711876793683583e-02 -1.042502534827805805e-01 4.419192147523143266e-01
-7.905395327863358815e-03 -1.198128534878706714e-01 4.875457274449088163e-01
-5.207002938070789261e-02 -8.290869042446580295e-02 4.251139663008152714e-01
-5.572012359492264921e-02 -1.086605125296912500e-01 4.625244621296079051e-01
-2.284152390932489562e-02 -1.189263326125848258e-01 4.965637998281136056e-01
-9.389074477671562058e-02 -1.010855414986859269e-01 4.528749384414380574e-01
-4.209309544702755784e-02 -5.805139983783211971e-02 4.326537971800051841e-01
-6.539442861232083737e-02 -1.118220030277245619e-01 4.784406331556181891e-01
-3.220914969169264702e-02 -1.172982957193514503e-01 4.952100627397824639e-01
-4.768240969330087703e-02 -9.770506354468853905e-02 4.423724067285893513e-01
-1.244106306015001738e-02 -1.226307310272552464e-01 5.014894532272078376e-01
-2.757562107600126239e-02 -1.199879353578915814e-01 5.111806354188327406e-01
-5.419672522110104834e-02 -1.062362053063166112e-01 4.555175084850306977e-01
-4.986822734991704087e-02 -1.133333264644516142e-01 5.309885516505505887e-01
-3.265632646856346522e-02 -5.591325231982269967e-02 4.356040266136018690e-01
-5.324046630549612164e-02 -1.045689802432565457e-01 4.503466223026282300e-01
-1.014424207567534986e-01 -1.038709335495045655e-01 4.630696522515403979e-01
-4.340479678041558875e-02 -3.035824922152900729e-02 4.353373463478608096e-01
-4.503422643558665367e-02 -1.124545244038761826e-01 4.814889185402572713e-01
-7.897485285160861512e-02 -1.073114353029881729e-01 4.576069957009556433e-01
-5.235023313206717266e-02 -1.131859157268650662e-01 4.841795897168160168e-01
-3.884049992555665964e-02 -1.080013052685397379e-01 4.672032934367991719e-01
-3.990529879070080221e-02 -7.284930338888170875e-02 4.331214640198238208e-01
-4.243412868424423223e-02 -1.147932756577763891e-01 4.897119620040004118e-01
-3.901696584827579750e-02 -3.924264688638421511e-02 4.347966120243211274e-01
-8.862554272433789682e-02 -1.046854502319176095e-01 5.180316156370029512e-01
8.870808032731833728e-03 -1.267013500347395627e-01 5.247838306049383839e-01
-1.482671710561738951e-02 -9.038331261284297813e-02 4.479079590910009512e-01
-1.020313206411284923e-01 -1.052925728267348204e-01 5.025512334832850092e-01
-8.192800340259570602e-02 -1.062973643927873912e-01 4.550305487809788718e-01
-3.002812195885283530e-02 -1.176857041489382666e-01 5.355949119198594177e-01
-5.293294295405434613e-02 -1.150566809962074860e-01 4.984130209964332536e-01
-2.730107879611597121e-02 -9.823785757399704222e-02 4.555801056619879774e-01
-3.499988577616364172e-02 -7.512395179579500759e-02 4.358529480514029553e-01
1.052896214371832999e-03 -1.264238169627115993e-01 5.121436984222228483e-01
-1.016672983731811974e-01 -9.971632385922611641e-02 4.596688713728424580e-01
-4.889333703775555762e-02 -3.779331161711051157e-02 4.361020143242780867e-01
-8.472869122722546942e-02 -1.098761251905156083e-01 5.046442614580515240e-01
-9.745425712747110558e-02 -1.017361079572921823e-01 4.567323013174681701e-01
-3.198912655596420490e-02 -3.307156171094001451e-02 4.369002894889954525e-01
-3.616559160843595827e-02 -1.144814515383012488e-01 5.426237796943889080e-01
-2.384364825127538098e-02 -1.208038610453271017e-01 5.199684844785694704e-01
-1.075706413100222109e-01 -9.635086179339116819e-02 4.681397128316189815e-01
-8.939591230224476492e-02 -1.101617922306389746e-01 4.948359760093871684e-01
-1.331025891807190165e-02 -1.215850360768113564e-01 4.970911851780475676e-01
-3.502821621080901004e-02 -1.157224783828089132e-01 4.904252580532834638e-01
-8.179687711616372148e-02 -1.009356221075309867e-01 4.394674316829487726e-01
-9.785582397946125666e-02 -9.081268474697309911e-02 4.573929697338693368e-01
-1.453196649381877439e-02 -1.145266418952339271e-01 4.778163938619680029e-01
-1.968508035201100084e-02 -1.202479278297264864e-01 4.983755821189009838e-01
2.576565383086894517e-03 -1.056188594603949954e-01 4.634275453337987072e-01
-9.203659269064967674e-03 -1.221220241693033032e-01 4.955611928104859953e-01
-5.349349682821970264e-02 -2.674264504927944749e-02 4.430579654239423792e-01
-3.186076824938044449e-02 -1.190985399289882368e-01 5.132036627510747628e-01
-7.065582760981835297e-02 -1.125839630027006127e-01 5.087406701722130276e-01
-3.573954340936276453e-02 -1.122516948579066476e-01 4.791424846664359971e-01
-4.092688580872524268e-02 -1.052089150609715890e-01 4.608461369101505833e-01
-8.949847072466760034e-02 -1.102750521755645474e-01 4.847124278184810620e-01
-1.265574049252933195e-02 -1.234440575006167384e-01 5.081412221108790872e-01
-3.157273288598013566e-02 -1.189585497121429664e-01 5.199730357754445143e-01
-4.335318332587725920e-02 -1.113374431370346695e-01 4.770160638207603943e-01
-6.907578758035076705e-02 -1.062299281735129136e-01 4.502241019253161447e-01
-2.685238837577450313e-02 -8.632031793162585342e-02 4.439119168171266061e-01
-1.120067005348810915e-02 -1.078316268323648852e-01 4.647685025169078776e-01
-8.204137252488444276e-02 -9.286184566594346546e-02 4.331238067875689546e-01
-1.488460012858709713e-02 -6.839235058606010775e-02 4.400044050448850275e-01
-5.629408186537306069e-02 -6.967559182174429266e-02 4.267145528343411764e-01
-2.124957201837911203e-02 -1.061243720497484777e-01 4.652092824664780246e-01
-6.176622578342658154e-02 -1.048058940331486888e-01 4.301120237378865396e-01
-4.254272146611140504e-02 -1.038598794522574559e-01 4.569925748924212883e-01
-7.813285232622714516e-02 -9.666137627399681853e-02 4.268419218663297987e-01
-4.838150578171530186e-02 -1.158353052377349146e-01 5.016070239144349019e-01
-5.441426845532966461e-02 -4.492688046624996462e-02 4.368549476403204013e-01
-1.037107545287817290e-01 -1.063371948425998054e-01 4.788631865844515390e-01
-3.677350682048428215e-02 -4.904921371405532304e-02 4.348792409640203638e-01
-3.424250082625859837e-02 -8.665330360762138473e-02 4.417263387807136010e-01
-8.198758263917517441e-02 -1.083514567845965115e-01 4.626047459756590929e-01
-3.159495830746926470e-02 -1.170520357384106369e-01 5.368086767357738154e-01
-5.187255353904397098e-02 -1.143711992346312795e-01 4.909321180495404557e-01
-2.444397751850307249e-02 -8.743624893056975433e-02 4.450660178082140317e-01
-7.993664878376786909e-02 -1.072889777423967905e-01 5.215425095737969974e-01
-2.568084588334551902e-02 -1.193752222607086799e-01 5.308128714685271810e-01
-7.128050647946111706e-02 -1.072958293935472041e-01 4.558156856972646054e-01
-5.291563875284421847e-02 -1.141275798360557869e-01 4.900149396014777392e-01
8.966953655445549995e-05 -9.044907065676731361e-02 4.505691532266458132e-01
-8.277156045665561013e-02 -1.112274002319866978e-01 4.826965215266688092e-01
-1.061772854138062772e-01 -9.177646688138832443e-02 4.694520271884887186e-01
-2.759198732452045055e-02 -1.065455524994228104e-01 4.672050835777151190e-01
-2.132102855181393017e-02 -9.847503482607150582e-02 4.560508361441819036e-01
-8.773983895163765812e-02 -8.567716493181709581e-02 4.469371493213555868e-01
-1.936237227244140893e-02 -1.197066039832625772e-01 4.956810333080819420e-01
-1.113588000341744350e-01 -1.004636987575040774e-01 4.956566596401076330e-01
-7.206796512462099180e-02 -8.700789891816311517e-02 4.221048171865722787e-01
-4.133102947010527939e-02 -8.560338677346691905e-02 4.365348210602474910e-01
-1.085916894443084493e-02 -1.135461701077506574e-01 4.738638513516847950e-01
-1.702841389830591495e-02 -1.223667491535632285e-01 5.241322690020867592e-01
-1.101736872152045271e-01 -1.012384721379026853e-01 4.791972650114230126e-01
-2.940063444818167421e-02 -5.598836216927942366e-02 4.362572968107517046e-01
-6.080017759256291232e-02 -1.140801343410963176e-01 5.138389578797053492e-01
-7.602556044846987826e-02 -1.105124058910524898e-01 5.149229150171773517e-01
-1.383651910824543890e-03 -1.168543187255746685e-01 4.788153026118112110e-01
-1.105145909314831643e-01 -1.019531384981399308e-01 4.862335696736365676e-01
-5.534330751467857884e-02 -9.684027629636308976e-02 4.224415000247158103e-01
-1.996238615420513340e-02 -1.214586614706497925e-01 5.058051762799552487e-01
-3.144899676453837695e-02 -5.916580916113881733e-02 4.358862973299917898e-01
-3.939442394630601751e-02 -1.120101015944481582e-01 4.793955265078234107e-01
-5.635284468478263947e-03 -1.252961168451325047e-01 5.109609304908925287e-01
-5.915941511797387364e-02 -9.579444877480235154e-02 4.216002946254200356e-01
-1.052613628906587523e-01 -1.062861297521136839e-01 4.929585195604678227e-01
-2.132638562547017544e-02 -8.331711033513930498e-02 4.435207812583309983e-01
-7.909054801746702446e-02 -9.686762024169967567e-02 4.305040269448550672e-01
-7.089995888115306621e-02 -1.029160205984328419e-01 4.309441718413484779e-01
-8.430913501490871348e-03 -5.792234071883336360e-02 4.382684445826500186e-01
-8.355311024015903143e-02 -1.091581263043803485e-01 4.664016595005003873e-01
-4.934637202026272151e-02 -1.088323989436971173e-01 4.645903697075925987e-01
-5.499059795029851566e-02 -4.781290728441299487e-02 4.351921388759408815e-01
-3.070793043862049543e-02 -9.979532728054918422e-02 4.564603563635558081e-01
-2.385386646744079575e-02 -4.776295778682836113e-02 4.383438836912676995e-01
-2.799171123482808998e-02 -9.357363592481732217e-02 4.498671019833799800e-01
-8.796067384338045192e-02 -1.054662309559658839e-01 5.165507911614078962e-01
-3.220462411048217490e-04 -1.236879453219522224e-01 4.987836171901234850e-01
-6.456218920197570599e-02 -1.065051508568374827e-01 4.512118933071841975e-01
-9.195648709902666529e-02 -1.056551925737863190e-01 4.594715065105978158e-01
-7.850225131801215339e-02 -1.115271150437053549e-01 4.835635982386377041e-01
-2.298037471236287488e-02 -1.003091561165566220e-01 4.584016392871609891e-01
-1.072052178305475112e-01 -9.453334386509304466e-02 4.681192954434283959e-01
-3.041356848927507725e-02 -1.119872585691182448e-01 4.777159128747892614e-01
-6.132343283149967184e-02 -7.610292670885111799e-02 4.248364547459287377e-01
-8.406926566404646084e-02 -1.019928693023483962e-01 4.440368466976177264e-01
-5.397048461783105627e-02 -1.016840618486042347e-01 4.289798952715389024e-01
-2.346667093522350131e-02 -4.475255575258353657e-02 4.386129905138570484e-01
-4.184696599609449841e-02 -1.163752809229401941e-01 4.973938419919324283e-01
-2.496635527967157320e-02 -5.535094960095689881e-02 4.372810798984636538e-01
-5.589287791793379201e-02 -1.052159103242387567e-01 4.496108319204462078e-01
-9.578108267645425722e-02 -1.070066590719372934e-01 5.055502479167665042e-01
-3.252668043840930417e-02 -4.416410878818465002e-02 4.364246282417139633e-01
-7.359653030495692805e-02 -1.051794793878889772e-01 4.455135924577233730e-01
-2.005554840632447350e-02 -1.108380364905429821e-01 4.731823938181944356e-01
-7.732197048218836244e-02 -1.040912344956082813e-01 4.425130946328933446e-01
-2.550545126075068336e-02 -9.084888521936765327e-02 4.476096409220582939e-01
-1.234499186300225433e-02 -1.229437395916059828e-01 5.037185697212658297e-01
-4.721620631050388317e-02 -6.609748987002049547e-02 4.294100106339688860e-01
-1.036482075983965051e-01 -1.002046484078259608e-01 4.608432210811125862e-01
-2.488886365986635665e-02 -7.515574660155388553e-02 4.394404072543708351e-01
-3.282801062818980348e-02 -1.140515872031322292e-01 4.836658609778275442e-01
-6.793048110190010036e-02 -1.054234517531130594e-01 4.440068583645053746e-01
-9.137224347222164256e-02 -1.098760967961383006e-01 4.812055328938352194e-01
-6.852277995400468669e-02 -1.033776601250819549e-01 4.298582726352168093e-01
-6.943318772150276763e-02 -1.128265500362571200e-01 5.084470473172107985e-01
-9.805467340230331064e-02 -8.746954036291762491e-02 4.616372964250028410e-01
-4.114210430893314868e-02 -1.065934996546788471e-01 4.632025235672687646e-01
-2.571502637753832199e-02 -9.816499436757639141e-02 4.556870292267310996e-01
-6.248643729022199111e-02 -1.138851502349714773e-01 5.016502473460304756e-01
-1.106049027811106672e-01 -9.258689629764406404e-02 4.763721632292498009e-01
-7.695802908968862877e-02 -1.071277378816591908e-01 4.563960847106974250e-01
-1.092296311600922387e-02 -1.187708111737232064e-01 4.854366344420777968e-01
-6.627787721003890187e-02 -1.120774831267224575e-01 4.822790186210050845e-01
-1.077019690960487330e-01 -1.048490451013128072e-01 4.962425276414329511e-01
-7.641271876979430222e-02 -1.073477411925005814e-01 4.571311121363956786e-01
-5.265446971791027525e-02 -1.152971727253826600e-01 5.050047966824967594e-01
-5.306370069904577796e-02 -1.031338006457998280e-01 4.467762527681939932e-01
-6.949849521508744132e-02 -1.054400452484058892e-01 4.456658713431899121e-01
-8.472598480269796783e-02 -1.061238851547139928e-01 5.186556867117432246e-01
-5.267583689463655600e-02 -8.096491703243402505e-02 4.248910264336353548e-01
-4.055644732063303642e-02 -8.080584978884876313e-02 4.347880322666639596e-01
-4.545343836777888252e-02 -9.408701059368367037e-02 4.409613735854815419e-01
-3.911998253232477907e-02 -3.330475427134385602e-02 4.352961670819065487e-01
-1.024733289340500481e-01 -1.072027303830173084e-01 4.823453615284601925e-01
-7.603545184630636222e-02 -1.095290077766251924e-01 5.186665809059550769e-01
-3.987269984559489028e-02 -4.422354359872138901e-02 4.344840614781997346e-01
-5.253640804845759182e-02 -1.122955316818498861e-01 4.794138684928587191e-01
-6.286512510774043549e-02 -1.074303525443468799e-01 4.560920344557269912e-01
-2.624928988870499705e-02 -1.120674631598397725e-01 4.771417136205128307e-01
6.640201141494923506e-03 -1.268369626981324660e-01 5.238320784323641233e-01
-7.148537180463385154e-02 -1.054883546545276052e-01 4.465631482984607770e-01
-6.323174500929498731e-02 -1.138600749444350774e-01 5.077280352258485285e-01
-2.381781903360503938e-02 -1.206681075859436236e-01 5.061047404376239900e-01
-5.424708593688677694e-02 -1.151126781706948154e-01 5.064338992191264044e-01
-2.619737764066234695e-02 -4.612644186627951753e-02 4.380881678233165544e-01
-4.259632202848750993e-02 -1.157627619693799431e-01 5.280680992243727001e-01
-3.981560193565418515e-02 -1.168529542845656993e-01 4.996016189744219016e-01
-2.691065341918577256e-02 -1.194823326473431757e-01 5.269808332855004940e-01
-4.171513392350643251e-03 -1.255502852275195702e-01 5.114052710180867489e-01
-4.634109527149753854e-02 -9.471117390774488887e-02 4.400075863051199909e-01
-6.543190370957277513e-02 -1.035474081046699885e-01 4.247641787537942415e-01
-8.054796478299632023e-02 -1.114813081798555344e-01 4.914814859446039463e-01
-7.445747371711683438e-02 -1.055012330614399363e-01 4.484362901502467746e-01
-6.754169291180253665e-02 -9.468231475556029841e-02 4.195838806414448618e-01
-3.823628325978992160e-02 -1.100280431283218174e-01 4.733572658479687778e-01
-9.561726029958078632e-02 -1.070318421628760341e-01 4.672569917503928139e-01
-6.442747449797999598e-03 -1.232263718280920684e-01 4.984031506280580115e-01
-1.348517444915875267e-02 -1.131356695374560739e-01 4.741543113894126638e-01
-6.656102452786187562e-03 -1.252731269077504150e-01 5.233435766754412910e-01
-6.161944335283273122e-02 -1.112965705368869490e-01 4.731569763298301146e-01
-1.234958087951549752e-02 -7.816185807217382320e-02 4.429253667799596950e-01
1.623489372128448377e-03 -8.240246009261727178e-02 4.466374627210391024e-01
-2.831175444056484997e-02 -7.998778677429754791e-02 4.404513727312522331e-01
-9.925818535184760538e-03 -9.821351093532026955e-02 4.547171314322432933e-01
-3.753269241360718267e-02 -1.179618939735660177e-01 5.148780981356707587e-01
-4.147879025854726148e-02 -8.291032765481717859e-02 4.351119891102654957e-01
-1.030180115569812906e-02 -6.419528557583972783e-02 4.394640285153871284e-01
-6.794272104707479998e-02 -1.116635560338733596e-01 4.786527238388719740e-01
-4.674933168038544057e-02 -1.101427017446335171e-01 4.708016101964911937e-01
-8.153456397686930160e-03 -1.201603911006237507e-01 4.887750420308208388e-01
-5.574542596834340669e-02 -7.347834740704528578e-02 4.251201008308390650e-01
-4.243493378597061605e-02 -1.164176747511439514e-01 4.980653017115145298e-01
-1.978245060895478247e-02 -1.071941784856201008e-01 4.661667187317781180e-01
-1.566621979826424843e-02 -1.146348667399080951e-01 4.788416672735689161e-01
-1.004290105280984946e-01 -1.078444573610659180e-01 4.820686748769327234e-01
-1.148051323660759931e-02 -5.557353849774995802e-02 4.381954770912628305e-01
-3.713201650157478551e-02 -5.609966268083903251e-02 4.345170591141281347e-01
-2.659021102004451020e-02 -7.570231102748722907e-02 4.392028379536612182e-01
-1.625939672619807277e-02 -1.225991027003399680e-01 5.241639370523618613e-01
-1.005878548973059422e-01 -1.048422186093364433e-01 4.645109184220731491e-01
-3.271027430346295194e-03 -1.186901922745020876e-01 4.831815808409593571e-01
-6.862156566051386131e-02 -1.033678164691941154e-01 4.299937057397756890e-01
-4.043757228066784115e-02 -6.458249473214688896e-02 4.327359647720657732e-01
-4.510099778416945537e-02 -1.117943424991465762e-01 4.786309396249402437e-01
-3.100356247141973151e-02 -6.857107611439947070e-02 4.365638777413277105e-01
-4.925620002961525468e-03 -8.017592640304840867e-02 4.450260926161986319e-01
-9.790854090158354617e-02 -1.079925334968096923e-01 4.983453785858865670e-01
2.926765819445112035e-05 -9.573702661435300187e-02 4.540130196712561794e-01
-4.738437329582440710e-02 -1.155180188085450504e-01 4.955953140188651407e-01
-4.475977015940733883e-02 -1.166479982934159887e-01 5.128012787174414111e-01
-5.502839980073308268e-02 -1.098279086684508660e-01 4.667286237634916124e-01
-8.941992967461734332e-02 -1.011690303704689264e-01 4.491459524338883846e-01
3.838245266004381828e-03 -1.009667335968602725e-01 4.590654888319722904e-01
-7.878367386371601389e-02 -1.048634470572354510e-01 4.483774453299637641e-01
-2.811085681137831527e-02 -1.198614704288557403e-01 5.158788566146617072e-01
-3.802603406346494880e-02 -1.106720503970757274e-01 4.750060235828942323e-01
-5.424325754865273741e-02 -4.519628718517260807e-02 4.357980419949480377e-01
-3.922574068777151535e-02 -1.104098865132409624e-01 4.744221014105803325e-01
-8.688077190665703664e-02 -1.012927687374022001e-01 4.454399464801270803e-01
-5.679369920836708358e-02 -1.117589710469139574e-01 5.302241291518972055e-01
-4.037703528158130550e-02 -1.046909498459170362e-01 4.601143270777904859e-01
-1.141174112394267859e-02 -1.236827368797542709e-01 5.077560682502619827e-01
-8.186706752749135785e-03 -1.212989384406156501e-01 4.925125279126756905e-01
-5.429282995205494261e-02 -1.138848828235091565e-01 5.239426005477133552e-01
5.349809856860456361e-03 -1.269903441588189907e-01 5.207360591364502689e-01
-4.073086548359369785e-02 -1.171761139662488155e-01 5.192950784364238626e-01
-6.312866063568060848e-02 -9.802167088496306635e-02 4.212410008677621165e-01
-6.328286987079678738e-02 -1.086607531348093431e-01 4.611130979352905945e-01
-7.022698253301623561e-02 -1.116127248364685853e-01 5.175317887721986310e-01
-9.838055438444731626e-02 -1.083873660725635790e-01 4.813243833549799011e-01
-5.399581346738803467e-02 -1.088821941760362150e-01 4.634882777814442467e-01
-1.364516271241962911e-02 -1.064232372173756352e-01 4.632962576068648808e-01
-7.737960854549068290e-02 -1.118601977436730621e-01 4.928871462752347221e-01
-9.760082124006239090e-03 -1.194237866438905282e-01 4.868410566525979699e-01
-7.894895423437443827e-02 -1.114409915247065869e-01 4.812711165627254206e-01
-6.488823942803105538e-02 -1.135820107767673698e-01 5.082039991023845626e-01
-8.723872337527370513e-02 -1.081235564169761298e-01 4.646685161145130971e-01
-3.924244165868246564e-02 -7.696769466034787677e-02 4.339384173738571882e-01
-5.802802809165647641e-02 -1.053707279196885171e-01 4.482059634569787177e-01
-2.277186191355984671e-02 -1.199935081925715130e-01 5.003261493919675118e-01
-3.363225635107386369e-02 -1.162605774307017004e-01 4.918841758266582764e-01
-3.920290225980412047e-02 -9.742923515118252775e-02 4.488813773085553738e-01
-2.996365688343452516e-02 -1.099551285821541574e-01 4.733098900502128448e-01
-2.306386436883032728e-02 -1.201200608621563193e-01 5.014438781598842265e-01
-8.477318531559686898e-02 -1.106533344835862187e-01 4.776434422637132471e-01
2.042630969781164801e-03 -1.256961029165404031e-01 5.072006979321187492e-01
-3.168999027803623414e-02 -1.182714904844677645e-01 5.275613465192175999e-01
-2.135272348344351145e-02 -8.519476116330905457e-02 4.444270497583095447e-01
-4.655860490280296776e-02 -1.163314609067206407e-01 5.159641297130314053e-01
-3.509406996628466890e-02 -5.527568166988538340e-02 4.350847674944950394e-01
-2.109450766603924651e-02 -1.216431946552440357e-01 5.127734080462449384e-01
-7.840011765602868110e-02 -1.004471272790699032e-01 4.341179602271023064e-01
-6.071206164355770485e-02 -1.116177548844753536e-01 4.748144389500275064e-01
-2.772624647844114734e-02 -4.653932699675750184e-02 4.377676974455592673e-01
-5.125555474207300899e-02 -1.126751671109468694e-01 5.316856435105806744e-01
1.301108686965748648e-02 -1.261846480368682411e-01 5.343810546099753145e-01
-9.268429221162594045e-02 -1.096914558523535421e-01 4.835052999868051371e-01
-4.103085899940454168e-02 -4.033708211426517698e-02 4.345201566582038155e-01
-3.446226007748678238e-02 -1.142544015861671758e-01 4.848965280786015630e-01
-5.464135428909318998e-02 -1.018418454135308626e-01 4.237467795719060404e-01
-2.805782001701453282e-02 -4.199253703288573919e-02 4.378234756087107105e-01
-4.196097146628139513e-02 -1.171081751776294338e-01 5.083812488094529014e-01
-5.234704432284652265e-02 -1.147667461055665306e-01 4.950145583635877644e-01
-6.157250037681560872e-02 -1.140935227628275817e-01 5.074506831663364581e-01
-6.114230617682953062e-02 -9.532342070768801134e-02 4.211610949472704424e-01
3.156528062151268965e-03 -1.254549757794652942e-01 5.064301395384742666e-01
-3.485049014883845331e-02 -1.123696874621633174e-01 4.792018208253763789e-01
-7.671102713943407647e-02 -9.769509929975900286e-02 4.260061897453993884e-01
-8.299104996887814167e-02 -1.106261944869709468e-01 4.754385624882874195e-01
-6.772218362928038304e-02 -1.108461867157344571e-01 4.727172898119481048e-01
-5.278440185866117851e-02 -7.159794564830940233e-02 4.264344524376713630e-01
-5.576056371452835225e-02 -9.968903486990179919e-02 4.222838925003581934e-01
-3.434688416224913193e-02 -1.065721811190481622e-01 4.660661003769500654e-01
-7.043707175170800527e-02 -8.884468832784445103e-02 4.202559801006409690e-01
-3.344634650129136438e-02 -5.286167412776370672e-02 4.354967291220012138e-01
-6.350057675822465796e-04 -8.767716977795679545e-02 4.490007856557741706e-01
-9.259160951235814729e-02 -1.092533437335060503e-01 4.739284484961645560e-01
-3.167958846204466800e-02 -1.183898679689459055e-01 5.003532444790563805e-01
-7.569264374214294822e-02 -1.120466551810181954e-01 4.934128159830051263e-01
-3.891567148828775635e-02 -8.771082726586214295e-02 4.400609434428491840e-01
-6.462909303852326648e-02 -1.049955451293233394e-01 4.340431003120856501e-01
-1.125417125525245664e-03 -1.028767526222020556e-01 4.602287351731928489e-01
-5.321991510232604999e-02 -1.153078660043471149e-01 5.080877760443437419e-01
-4.020553246236399821e-03 -1.115931268959289707e-01 4.696592564350375310e-01
-1.234789089565592121e-02 -1.205057191252360965e-01 4.915692538954860025e-01
-9.587047956176170116e-02 -8.753903325315634532e-02 4.583297122000234425e-01
-2.938734341074479908e-02 -8.482650492331943182e-02 4.424955456254835440e-01
-2.071638170559267009e-03 -1.259837677574485171e-01 5.129488493303357988e-01
-4.307185518595653233e-03 -8.937947105453938890e-02 4.493557521568136148e-01
-4.849634448229855899e-02 -5.642914785663969562e-02 4.318523255533989191e-01
-8.722427545591661391e-02 -9.971185773225059445e-02 4.438637054101228219e-01
-6.566950301732840667e-02 -1.061273710226541406e-01 4.490812646501577965e-01
4.900122624075355440e-04 -1.028004347422848130e-01 4.603020918751527524e-01
-7.103177476202401919e-02 -8.599052221079264702e-02 4.222851587853031496e-01
-3.651006443464650808e-02 -8.824390793861146276e-02 4.419325120124506512e-01
-3.869463523085447249e-02 -9.066054121746169869e-02 4.428201803390470204e-01
-6.912873273314758260e-02 -1.129413817740829440e-01 4.988404654790121739e-01
-3.144646414025616121e-02 -8.138038096213033590e-02 4.400319646315836719e-01
-1.795662603167481192e-02 -7.684484419358282581e-02 4.413477311443499973e-01
-4.646368246140555880e-02 -9.146496978426907343e-02 4.333501717540115261e-01
-1.003492877694110892e-02 -7.386038315011572708e-02 4.419440272402281322e-01
-8.606458533947404510e-03 -8.616727688778397232e-02 4.468001971184302756e-01
-5.386236454622429087e-02 -3.984447652709097870e-02 4.389505030548211395e-01
-5.316335584793440566e-02 -5.231194054114886999e-02 4.334601230034659247e-01
-6.387907560909682203e-02 -1.136551256851362907e-01 5.010604697438488797e-01
-1.541470892006687431e-02 -1.007420059659398653e-01 4.573514888379954235e-01
-4.209776873888435023e-02 -1.022535915547726354e-01 4.542705800797378624e-01
-2.677876115666830842e-02 -1.132575351716490625e-01 4.798108268276452537e-01
-1.001824870767181602e-01 -1.052681560702303093e-01 4.655383156066442152e-01
-2.297879514905537199e-02 -1.107243017676197427e-01 4.738709147909469510e-01
-8.294249532890258028e-03 -1.142597895297530475e-01 4.745089891454795650e-01
-6.952000514653207397e-02 -1.128299741344140905e-01 5.079137209033702804e-01
-2.794950954141142002e-02 -1.145839015398662786e-01 4.837854928436800539e-01
-9.765270987437783823e-02 -8.595344789042413947e-02 4.629562572246155860e-01
-2.001563862298821883e-02 -1.046112965677742090e-01 4.628094491380725928e-01
-1.565010647729914509e-02 -1.185600137885331889e-01 4.877963830459641215e-01
-8.308553439776071581e-02 -1.091011139066003777e-01 5.107210570087701296e-01
-5.039961316320126783e-02 -9.756787252042259384e-02 4.330267010996837196e-01
-1.820835702763152694e-02 -1.225248774386052675e-01 5.165879582486938570e-01
-7.222280675394031346e-02 -1.093574345835546663e-01 4.650814077007656699e-01
-4.057201347767697142e-02 -1.043155585971366345e-01 4.592338627996623845e-01
-3.700446133166680751e-02 -3.576323761002841994e-02 4.354235142588837038e-01
-7.621845057716439276e-02 -9.128813103442977306e-02 4.251969213599806618e-01
-9.141425232556417424e-02 -8.557836181725518576e-02 4.531697619247830877e-01
-2.799639633578591968e-03 -1.239563248481702212e-01 5.359832407978198932e-01
-9.920841789971091007e-02 -9.382900740317798305e-02 4.573464024657544202e-01
-3.625426276434372957e-02 -9.159318482910096260e-02 4.448135466008530936e-01
-1.968684878891291401e-02 -1.023607427936053527e-01 4.601739691312559666e-01
-7.818680102215265493e-02 -1.109088575341325433e-01 5.084235132909705746e-01
-2.499943016830630249e-02 -5.993553805405891360e-02 4.371496158929694675e-01
-7.621974188113381232e-02 -1.109604737081842513e-01 4.755812117951990770e-01
-5.669752558037401136e-02 -9.702672303167610146e-02 4.213116849442232748e-01
-3.905314926996106273e-02 -1.138776887612650557e-01 5.419068912907013535e-01
-3.614594322809925979e-03 -1.087733636179414459e-01 4.660692100588830211e-01
-4.120209397560432169e-02 -1.052356413711643124e-01 4.607382891877876419e-01
-1.043314080082507478e-01 -1.057052554476291401e-01 4.766572392850271234e-01
5.074504834221666219e-03 -1.242156198255235239e-01 5.014773198496450535e-01
-2.352539903687404094e-02 -5.321916713279398886e-02 4.377440048908522452e-01
-8.461155668262808349e-02 -9.994040779633608929e-02 4.420827536146909043e-01
-1.771283506618639633e-02 -1.188212991114445255e-01 5.448747905652814305e-01
-7.326530026715807019e-03 -1.242395664369194269e-01 5.313807280798021893e-01
-5.092026162288475558e-03 -1.246574141819175724e-01 5.056510398617725111e-01
-5.239626516368331433e-02 -1.123620270974878543e-01 5.316734199516627291e-01
-4.991094495707117107e-02 -9.927825659061816077e-02 4.402405300527184595e-01
-9.669348901185031986e-02 -1.086751738534484646e-01 4.775979416785189891e-01
-8.304948089798303013e-02 -1.063483002007898082e-01 5.202193683633976606e-01
-3.085341528355368956e-02 -4.563479705885069293e-02 4.369332609863633698e-01
-4.801064940153578625e-02 -3.543478405419010074e-02 4.361068232555674329e-01
-3.592666883606573242e-02 -1.179168497190747067e-01 5.221391038828212539e-01
-1.083242524062545120e-01 -1.003395928039044621e-01 4.712597688416707564e-01
1.394567278538201820e-03 -1.060196743970053396e-01 4.636780749606712604e-01
-7.485905709158721666e-02 -1.050227337048675047e-01 4.452719127834397495e-01
-1.040051495172098460e-02 -9.278820843522697648e-02 4.500573545292019806e-01
-3.868082041865530951e-02 -1.173232564979196507e-01 5.017979906082477015e-01
3.946069654480241669e-03 -1.142791041152291381e-01 4.750005638343064995e-01
-8.819070800032596802e-02 -1.013756613579370330e-01 4.473466109418725023e-01
-5.685576842546528550e-03 -1.252127288537618899e-01 5.271262413890790421e-01
-9.693590654909481005e-03 -9.028509377205709563e-02 4.487517701668468084e-01
-2.328229606181305214e-02 -1.165940561099346323e-01 4.884915488806108597e-01
-7.895925988760127412e-02 -1.116382021693730631e-01 4.950560466293651984e-01
-5.278756766803336525e-02 -1.129666864480615152e-01 4.832607344555508999e-01
-5.913964118870865955e-02 -1.047423772640878881e-01 4.445625953315084922e-01
-6.011948144108320014e-02 -1.138079684080140347e-01 5.177223809511291019e-01
-6.229149669240543336e-02 -1.116869991223209263e-01 5.254956158381307585e-01
-4.732995741523481070e-02 -5.479167852784811582e-02 4.326881953993190755e-01
