-5.515847979823533878e-03 -8.305299072513462610e-02 4.460337144561518086e-01
-8.318819809057730053e-02 -1.066532429968042456e-01 4.552245677184362238e-01
-4.735341839284182286e-02 -1.126409567550481217e-01 4.803439824440552952e-01
-9.453898840381270985e-02 -1.019870944575180516e-01 4.533786613731336512e-01
-7.102886405767742939e-02 -1.098114602267791784e-01 4.651948682762223064e-01
-3.918741564085106294e-02 -6.510369627214203370e-02 4.332340216241656328e-01
-5.521948087924075099e-02 -1.035827947441076008e-01 4.436164669208452205e-01
-5.959244392967505584e-03 -7.870498018091762193e-02 4.442665165272739469e-01
-2.576111197187064272e-02 -8.394630214381935962e-02 4.428476202636681403e-01
-6.285228432808205590e-02 -1.053014680912729290e-01 4.343387119907293759e-01
-7.741455871494383467e-02 -1.108426717807369649e-01 4.724068537400346046e-01
-5.208923879876187907e-02 -9.557899617207585297e-02 4.251648890064712583e-01
8.314357992537785985e-03 -1.245289493060670327e-01 5.036591547411224390e-01
-1.866645544458354206e-02 -1.224628899926565456e-01 5.150111563369096368e-01
-4.170241959496245876e-02 -2.772526556716435608e-02 4.356750059567426336e-01
-2.856818725430147407e-02 -1.143404280378321480e-01 4.827862717136295889e-01
-4.481790230895953131e-02 -6.553144999902030254e-02 4.305650962033739093e-01
-4.960855249403655493e-02 -9.730227306253645680e-02 4.334297343556510196e-01
-4.955288322822318930e-02 -5.135269459415515991e-02 4.334310982786955257e-01
-3.038668200535677918e-02 -1.031995051134657199e-01 4.613065057477362951e-01
-9.520819355981553767e-02 -9.201122989684464015e-02 4.532911315502510252e-01
-5.423505939395098507e-03 -1.060735205195794256e-01 4.628841006383497825e-01
-3.773549965533666561e-02 -3.063253808530801842e-02 4.359737422822311803e-01
-8.096717086192961599e-02 -1.102527543156166523e-01 4.685418185733537522e-01
-1.836212137035654959e-02 -1.223603166230380762e-01 5.193217099729832142e-01
-2.344498123646433438e-02 -8.406406058585834395e-02 4.434000665328347024e-01
-6.266030236783233509e-02 -1.047425182337542726e-01 4.226062781218813957e-01
-5.661651086816399392e-02 -1.149614915710779617e-01 5.137912215654704129e-01
-1.024470508842560135e-01 -1.029082120216595758e-01 4.623849189419581007e-01
-5.129664817214395212e-02 -7.812170478732888279e-02 4.259486413529400273e-01
-4.533969329387420311e-02 -7.432310715672681145e-02 4.299673799336558577e-01
-6.016688213258587770e-02 -1.140110374840761498e-01 4.941394203923509254e-01
-5.688210625368857187e-02 -1.108116986164717627e-01 4.687598703296431690e-01
-3.906872050953345832e-02 -1.147130600926692112e-01 4.879415779067396985e-01
-8.902281100118739077e-02 -1.104893669065813433e-01 4.951595908535990631e-01
-6.174697805113182197e-02 -1.142485627304155454e-01 5.044371421339260975e-01
-7.663868779011752397e-02 -8.858757278351779563e-02 4.272104071039355411e-01
-9.727713565014539654e-02 -1.074127002534289721e-01 4.690266410992790513e-01
-6.764631281327625201e-02 -1.031071642337040850e-01 4.239245911332952810e-01
-6.438525093763732519e-03 -8.114038485670059531e-02 4.450680359004212105e-01
-1.411412449482566875e-02 -1.219526327761573520e-01 4.997044768942080495e-01
-1.016607332783757423e-01 -1.048372499590533996e-01 5.050258268169600662e-01
-5.654547791903501153e-02 -1.128872993684070791e-01 5.269147110726914995e-01
-2.752333435694000532e-02 -8.986843935425303798e-02 4.459831665655545896e-01
-6.959633650900777513e-02 -1.120388133878451736e-01 5.169263020584832224e-01
-1.719120084301281950e-02 -1.209477416474245420e-01 5.369227289554830973e-01
-1.031404704050501164e-01 -1.075135489070348782e-01 4.901454542563477013e-01
-5.434956903786168636e-02 -1.083556772966923903e-01 4.606538627567276500e-01
-4.313473878265953326e-02 -4.728363580358551505e-02 4.339133264689107317e-01
-1.545938242256160271e-02 -1.011468855708817088e-01 4.577020343482329223e-01
-1.002806352905445397e-01 -1.060214375240941392e-01 5.035977531589866940e-01
-9.089970601464646138e-02 -8.936533068403496038e-02 4.490320029573318661e-01
-4.712578736934331519e-03 -1.198284727792347099e-01 4.863879708686670300e-01
8.553285011879996000e-03 -1.266879396992875439e-01 5.289593448880749449e-01
-7.257822678834702224e-02 -9.591432404943629753e-02 4.216341867222930806e-01
-4.560703084167961469e-02 -1.161036593370586151e-01 4.960351324209373303e-01
-5.355839124768196208e-02 -2.750171075235407353e-02 4.433812454224656530e-01
-6.011591816724314030e-02 -1.123127214537052027e-01 4.782932768329988260e-01
-2.993061556511291202e-02 -1.115668114729068128e-01 4.762649897679966937e-01
-1.037780981581968610e-02 -8.627053620466636208e-02 4.465045541218348180e-01
-9.369467901652536734e-02 -1.098814287380241589e-01 4.893335271952687915e-01
-8.008361532337344990e-02 -1.118391498929248440e-01 4.861079269805865799e-01
-7.274894282574438653e-02 -1.026407867185956807e-01 4.284949513286396838e-01
-8.208737148176022125e-02 -8.890744416948974382e-02 4.355192534416358896e-01
-8.651662200647826373e-02 -1.104160041341533394e-01 4.992826578856990327e-01
-2.632940273862114516e-02 -5.485442106623465014e-02 4.371573282310450281e-01
-7.399250010378334574e-02 -1.032876793187283565e-01 4.336570215022497177e-01
-1.100115367084340962e-01 -1.022650120975011762e-01 4.825310699449893992e-01
-4.676174116452082308e-02 -6.106497143594755844e-02 4.304635888687123879e-01
-7.435385273933366179e-02 -1.121249116408808283e-01 4.846702476094911782e-01
-5.583694562242656236e-03 -1.239413073513184610e-01 5.016444117583667150e-01
-5.481123032673827777e-02 -1.089671677906615399e-01 4.624064665474866276e-01
-1.956432594216465232e-02 -9.869728414675529860e-02 4.559250683144516203e-01
7.398284005501208627e-03 -1.264537813464781668e-01 5.143883778089144432e-01
-3.387891392843858651e-02 -1.117267856336468523e-01 4.766413125636189685e-01
-1.748824136674763732e-02 -1.104829951411175071e-01 4.711918358071995327e-01
-5.280128990027263547e-02 -1.019365691808256646e-01 4.329723050839703880e-01
9.754258777567586733e-03 -1.267150047678157754e-01 5.282919384694897413e-01
-9.899544880859451057e-02 -1.085473058544782071e-01 4.797024421144860384e-01
-3.474995567219901077e-02 -5.293996929042346644e-02 4.351483014101284463e-01
-9.249716777283482905e-02 -1.044694758052720912e-01 5.154278568655545900e-01
-1.044080356918864610e-01 -1.052456683363583306e-01 4.705428299378390244e-01
-9.467201812714987064e-02 -9.481442263239873991e-02 4.516730598752297654e-01
-5.010776978077247784e-02 -3.899033028003594248e-02 4.362226010524539177e-01
-8.590510591174625732e-02 -9.120886135584718724e-02 4.410409562711041787e-01
-2.815918560863657841e-02 -1.170746558206653826e-01 5.411509081095472462e-01
-3.803038924684890715e-02 -8.056141755146187244e-02 4.361661767648649657e-01
-2.445062448532696331e-02 -1.208697008572834214e-01 5.139571026412274035e-01
-6.775272629156040005e-02 -1.123572832309585184e-01 5.180237443862675262e-01
-5.747406716154341427e-02 -9.607451708364959930e-02 4.212275060949898786e-01
-9.530017055509842905e-02 -9.641243303235001727e-02 4.521847138996771820e-01
-3.728508997886524623e-02 -7.456206602877640810e-02 4.343381389499653689e-01
-1.085600155844161294e-02 -1.244715996487370802e-01 5.165592017100294475e-01
-9.295158198374041392e-02 -9.128097690341209491e-02 4.506042440098810831e-01
-7.982545155168542517e-02 -1.029835750322496968e-01 4.401773565964714474e-01
-4.540646442659621029e-02 -5.234466809534391030e-02 4.335313621857692645e-01
-3.018247264270958186e-02 -6.494639575206273552e-02 4.364115440204093810e-01
-3.650779768489989530e-02 -6.131743685336216859e-02 4.344806567684866283e-01
-4.967005824083646492e-02 -1.146127698686098262e-01 4.897966878666989987e-01
-6.307386341311899125e-02 -1.132370983932942526e-01 5.191720636042440606e-01
-4.462387066498191279e-02 -1.159594791949767750e-01 4.948169237201645032e-01
-7.083761258808935271e-03 -1.251102459157678870e-01 5.122762006106870158e-01
-8.738557790227650945e-02 -1.107631998414521507e-01 4.939226479865481689e-01
-1.229893189629474061e-02 -1.160342238033070517e-01 4.796192452379094417e-01
-4.339388708555097507e-02 -1.105351924170740185e-01 4.726513814272876313e-01
-5.293800969459155903e-02 -1.148175600123054613e-01 4.941977013840597732e-01
-4.290261056070018147e-02 -1.014592879789394109e-01 4.514991591767408274e-01
-4.798782005221077784e-02 -1.161372675068175347e-01 5.044849488246219149e-01
-7.636190325012638669e-02 -1.074057924012981613e-01 4.555468350572252079e-01
-7.010801261214380520e-02 -1.082002127789316731e-01 4.577665804666966598e-01
-5.411647341440783965e-03 -7.817177868094715709e-02 4.441666630303431340e-01
-4.815223203277575054e-02 -6.992940363747729426e-02 4.282347030676981192e-01
-2.389941025089210511e-02 -7.003141854998523597e-02 4.384794621553495531e-01
-6.970585132463411049e-02 -8.005917967210302022e-02 4.268161638376979372e-01
-9.320405779965941495e-02 -1.099700921114752233e-01 4.852894778398726960e-01
-7.809044253707200789e-02 -1.034685356845755494e-01 4.388069338483858162e-01
-5.733236823647524377e-03 -1.163315887861205294e-01 4.779126031181997192e-01
-3.336373053562104174e-02 -1.167788648850092287e-01 5.361474529560577018e-01
-9.730393889908683924e-02 -1.089895847160342324e-01 4.909451333125594008e-01
-1.507369074255328172e-02 -1.198127687822649889e-01 5.436987032188302926e-01
-1.712414177567803814e-02 -6.140835595848947309e-02 4.385473363165244276e-01
-2.387156297247546716e-02 -1.040610438752837125e-01 4.630092131585991644e-01
-5.958139575132811311e-02 -1.053391833991059734e-01 4.441081969917560213e-01
-6.428280755370374688e-02 -9.559367856854417145e-02 4.197978126683258870e-01
-3.660011943064969686e-02 -1.174108201482595704e-01 5.267246401715875992e-01
-5.889412318219341969e-02 -1.142199236451699462e-01 5.173164010503835675e-01
6.082447888642483758e-03 -1.269772624027485919e-01 5.194510723726329937e-01
-2.717878361233791451e-02 -1.016929577432566512e-01 4.598520557888509663e-01
-5.210561949219034983e-02 -1.017430902497199890e-01 4.365231767167612742e-01
-6.888207505433610253e-03 -1.235448419175521340e-01 5.003396003770168576e-01
-1.245270968396266706e-02 -9.144466950582275100e-02 4.488785610022472117e-01
-6.236038906352308481e-02 -8.452524086362044053e-02 4.221997995002402249e-01
-5.730624655605482537e-02 -1.037533644511963865e-01 4.397270376881493581e-01
6.768882709417963113e-03 -1.261232625444793365e-01 5.334398654330991807e-01
-5.702431340328715723e-03 -1.226613677076756614e-01 4.960110350550201996e-01
-7.144313585668102262e-02 -1.123690787343859937e-01 5.109878547387435299e-01
-9.832429352396102051e-02 -1.045205346349950409e-01 4.614311993568954162e-01
-1.342020478473969491e-02 -1.198192773453559817e-01 4.896772108540237145e-01
-1.017010761742412894e-01 -9.784160798573994511e-02 4.587672813665875093e-01
-6.329321752505630283e-02 -1.055248286245429878e-01 4.321040793195857765e-01
-3.754363605505800505e-02 -1.141630560497605695e-01 4.854423393069592363e-01
7.945146949628729971e-03 -1.268487798247630305e-01 5.198484119977020423e-01
-1.030249467262446122e-01 -1.075387426746192560e-01 4.905588097819669757e-01
-5.697295369218421252e-02 -1.038271841670149465e-01 4.360891020500842763e-01
-4.626881189501372976e-02 -1.111445907780140019e-01 4.741589456247244927e-01
-3.691563643931571048e-02 -1.143581191959539417e-01 4.858107288696423276e-01
-1.407664959750166457e-02 -6.521434701491908570e-02 4.394284500750760269e-01
-1.106102050793937586e-01 -9.976778930761569242e-02 4.762447483900021372e-01
-8.279363965907077932e-03 -7.103158952341626087e-02 4.412163587611508953e-01
-4.323443713497245044e-02 -7.958601626069976287e-02 4.321126244836416830e-01
-3.057366899181048966e-02 -4.825604051463518174e-02 4.368825146288965455e-01
-6.663559454564169093e-02 -1.130814824478796610e-01 4.905132034322963741e-01
-1.525288839067385355e-02 -1.114757183482027181e-01 4.719690659938410304e-01
-2.016794406994485214e-02 -4.516635181128896698e-02 4.386805514890630975e-01
-8.851047028395062077e-02 -1.105932725210396900e-01 4.785184292361087666e-01
-6.426784520717175597e-02 -1.130241252424739051e-01 4.875286105492215305e-01
-5.784127604472185519e-02 -1.048194961585569712e-01 4.440045442631384010e-01
-2.617584338515988734e-02 -3.852095800995852803e-02 4.383070569123414528e-01
-4.852770399495601877e-02 -7.314443839535179903e-02 4.278224790505039676e-01
-4.999334298552840505e-02 -1.157992353438421912e-01 5.030222800388136628e-01
-3.783022968748687986e-02 -6.027269407123773959e-02 4.341229208604709400e-01
1.413420523491253468e-03 -8.891590946301231035e-02 4.498674944081061944e-01
-9.075687350803791908e-02 -1.091915924555383194e-01 4.697526803965851872e-01
-2.079193307102847506e-03 -8.661594156394999966e-02 4.482986841042599924e-01
-1.736627004072921823e-02 -7.255121367835420942e-02 4.404214080538269016e-01
-5.876783039386583585e-02 -1.075504017457335759e-01 4.560686210138498731e-01
-3.080911246001376974e-02 -1.192959901722920601e-01 5.166418935544049296e-01
-4.973762632971494291e-02 -3.560894968978511876e-02 4.371283303193365666e-01
-8.667778181452735764e-02 -8.537241214279085721e-02 4.462797003763337433e-01
-7.979986035619668350e-02 -1.114353768527881067e-01 4.780548973337307439e-01
-4.736557316519359601e-02 -9.713992864593688770e-02 4.412884586309867019e-01
-2.324694166717621892e-03 -1.116482378222622002e-01 4.696645094903197371e-01
-4.491033259887452361e-02 -9.823200981288005007e-02 4.448966982866582875e-01
-5.853177067188330279e-02 -6.098849139371086830e-02 4.320164292834053343e-01
-6.849891124151576138e-02 -1.133079141784399946e-01 5.042539099496403665e-01
-1.082699531582501790e-01 -1.003630526924561978e-01 4.706925556288657497e-01
-3.526018918956489584e-02 -1.159607525873324468e-01 4.908900794820449387e-01
-9.352406146354236283e-02 -1.098030653182269223e-01 4.792329279774608097e-01
-8.387311673253224076e-02 -1.090838950930104467e-01 5.109431930009394884e-01
-3.437821077652191554e-02 -9.002186765722966499e-02 4.440985471390969108e-01
-2.732553694752552428e-02 -8.757463050714303643e-02 4.443904207859584732e-01
-2.971256137804235975e-02 -8.421830420609267842e-02 4.419150029701952032e-01
-7.536086954064638577e-02 -1.068271105204609689e-01 5.272712126411817080e-01
-2.855601509069368230e-02 -1.194993147790288784e-01 5.222392104414331770e-01
-4.401640599959796146e-02 -1.120082936161190812e-01 4.787585857067315209e-01
-6.728412549691992206e-02 -1.131020757363991741e-01 4.916926463807320125e-01
-7.191432410202293346e-02 -1.098324226239694723e-01 4.654825496236657534e-01
-4.159628108633525029e-02 -5.817061076816256587e-02 4.328046443596212933e-01
-5.080895126621294555e-02 -1.157943969583531685e-01 5.089699356003372088e-01
-5.319240993669966874e-03 -1.252822948031186157e-01 5.096896002108072254e-01
-2.603388790498474201e-02 -3.742779594766184464e-02 4.383495360569806265e-01
-5.529138550989216166e-02 -1.086352965365003642e-01 4.610882618842207514e-01
-5.824211145944504370e-02 -1.142946580205215917e-01 4.946016218316949820e-01
-4.423016226172889892e-02 -1.019275491249179988e-01 4.513249658483142190e-01
2.025328880747502124e-03 -1.195050494271790581e-01 4.857544756908759864e-01
-5.549864987956570211e-02 -1.144047937810427767e-01 4.929321206152564860e-01
-2.842452517059092937e-02 -1.187480531239188675e-01 5.307821564948692616e-01
-7.745701713461196347e-02 -1.092560787769513986e-01 5.184073392999660745e-01
-4.970436833690294876e-02 -9.964694276366765913e-02 4.405603164734335775e-01
-3.780188314377008751e-02 -1.136743645675762637e-01 4.839412333050199799e-01
-3.991432348203989566e-02 -8.454642740652350275e-02 4.366550258086530634e-01
-1.075997914312284837e-01 -1.052408592814600558e-01 4.844523132425972434e-01
-1.676515861176390565e-02 -1.230009369545808084e-01 5.158940189949237087e-01
-4.783587233973173036e-02 -7.400835982852461969e-02 4.282477564474276854e-01
-9.457857245878381613e-02 -1.096379030621991019e-01 4.825847805244676270e-01
2.552516669793042110e-04 -1.262921600654533794e-01 5.283024287649022988e-01
-1.066876262330335445e-01 -1.027981448838898998e-01 4.708011565254415776e-01
-6.198253190411859986e-02 -1.063236194871042678e-01 4.457106012023530628e-01
-1.437259437315681170e-02 -7.151560598861506080e-02 4.406443562428025706e-01
-1.691325018032016972e-02 -1.064212953515416421e-01 4.640525977661250634e-01
-5.522699772818986941e-02 -7.585065391206555208e-02 4.248402264039493059e-01
-6.336408882648554564e-02 -9.096473185278840246e-02 4.200505149935995219e-01
-9.124830642363354616e-02 -9.037840820114903528e-02 4.487716057596523589e-01
-1.000943665830083817e-01 -9.309635860230072724e-02 4.593880290978541447e-01
-6.763931482622030644e-02 -7.774183620718691512e-02 4.279187875121178708e-01
-4.880076961750177272e-02 -1.065458762695170869e-01 4.581960476134481208e-01
-4.222883189257452957e-02 -4.275971227217348347e-02 4.342980567555456695e-01
-7.451485032850929321e-03 -1.251500863827992582e-01 5.217597499925945570e-01
-3.499382737817961775e-02 -1.176550241727439966e-01 4.988717232302181670e-01
-4.126101960430632321e-02 -8.025672490485781518e-02 4.337633961120089809e-01
-2.799559553730539968e-02 -1.158941938831244828e-01 4.877799063313109640e-01
-4.192708068342011762e-02 -1.119742908200841852e-01 4.790089727538420217e-01
-2.576473432875957953e-02 -1.014066297182854570e-01 4.595435004050499317e-01
-9.418662461252241824e-02 -9.206722759343113904e-02 4.517213597611713927e-01
-6.861799150582942319e-02 -1.083844100527906473e-01 4.584886359736671801e-01
-8.285405031523696007e-02 -1.095693597820169146e-01 4.661221273700122403e-01
-1.290036911890171320e-02 -1.238215882548934499e-01 5.196315212435466124e-01
-7.738937076209610744e-02 -1.053799086876575225e-01 4.469147270217331269e-01
-9.007571988725431023e-02 -8.759864750300937197e-02 4.490591974538472031e-01
-4.669144353306108747e-02 -9.772262318181827723e-02 4.426800517453539641e-01
2.419357400313007153e-03 -1.265169039517521909e-01 5.285818669726883856e-01
-3.957693210584629917e-02 -8.193587525182083331e-02 4.357192741727698992e-01
-4.773507455044929959e-02 -9.816597276585431464e-02 4.422027934809598659e-01
-5.166096848877006070e-02 -1.131299615516573459e-01 5.304840873060608919e-01
-1.073928752503492401e-01 -1.045448021626592117e-01 4.991583435169401617e-01
-6.009994244771485472e-02 -7.977906495705369694e-02 4.236317242908840264e-01
-2.366347451147450889e-02 -1.204163312083214726e-01 5.037396444215604951e-01
-1.392155153489328494e-02 -1.221980199083311097e-01 5.347211329663994483e-01
-5.539129714191694254e-02 -1.036465075237296835e-01 4.229679356097936216e-01
1.078663382638932362e-03 -1.268487619600190686e-01 5.193167088803668507e-01
-5.555479551787691206e-02 -1.117967431507718989e-01 4.741072426058033362e-01
1.884766779080547430e-03 -1.176472651486481918e-01 4.810090685804143118e-01
-6.060762928833256236e-02 -1.108422765254517411e-01 4.696344923958007955e-01
-1.894827234406010197e-02 -1.210420980436128641e-01 5.016516481385734361e-01
-5.822942309415039819e-02 -1.054848443919976370e-01 4.466750761830239336e-01
-1.190306306814648343e-02 -1.149911572159848377e-01 4.771171296540768214e-01
-2.748068594508893542e-02 -1.199696127825031627e-01 5.084710989905550926e-01
-3.893984248846037860e-02 -1.172461382647244643e-01 5.005928098930173542e-01
-7.413414516824541611e-02 -1.093041943250748216e-01 4.630317345727885670e-01
-4.754441921921363085e-02 -1.144757032499286314e-01 5.294874558163962242e-01
-4.331948244031772616e-02 -6.433069844840476337e-02 4.313430135520695541e-01
-3.383164812623473683e-02 -1.137899796636376720e-01 4.827310459754305949e-01
-5.121605758739238012e-02 -1.099016629355366315e-01 4.662706963261423199e-01
-1.044381342998807194e-01 -9.991694179667308384e-02 4.622682618637184992e-01
6.970416404077824264e-03 -1.249107925374352973e-01 5.050899615974256962e-01
-5.396192120037975742e-02 -1.153736648573118057e-01 5.110671759088974975e-01
-5.794334131442536312e-02 -1.140643726413088227e-01 5.203919773898105783e-01
-2.357780820726934276e-02 -1.208194681015109795e-01 5.212946727833608351e-01
-1.115875333457081592e-02 -1.234099555824007266e-01 5.051172625286923790e-01
-4.628838154204577282e-02 -1.129857020351685282e-01 4.823784213783037789e-01
-4.937769944331581173e-02 -1.085787631091720967e-01 4.630286430551892596e-01
-2.690465343408536547e-02 -3.743721404207314002e-02 4.381391075949529479e-01
-3.954221826646566601e-02 -9.954218824065401428e-02 4.510796362750195132e-01
-4.073447991104223176e-02 -1.174402103343732962e-01 5.162957232486857784e-01
-2.486868686213298749e-02 -5.864854383602676607e-02 4.370362987195734461e-01
-6.523989174803497548e-02 -1.132821391110752363e-01 4.915511429589032311e-01
-4.220477059317991747e-02 -1.040882573308921782e-01 4.569424252746231430e-01
-1.759103049886611564e-02 -1.211424816937893001e-01 5.001831206244550243e-01
-1.160004862287956906e-02 -1.183765075695418917e-01 4.845133218778915896e-01
-1.846641937081696175e-02 -1.225502092868609866e-01 5.139979966276979617e-01
-8.206892463848682040e-03 -1.243367452639578402e-01 5.303755410357628985e-01
-8.689853955731246735e-03 -8.599349485460923426e-02 4.466563552218977828e-01
-9.341606365274487955e-02 -1.070599431285915448e-01 4.636027593787296341e-01
-9.919809692788002231e-02 -9.411596340407252237e-02 4.574891299856248539e-01
-1.977518487660806859e-02 -1.085178330187019230e-01 4.683935162681645559e-01
-4.966799185731143179e-02 -7.141135018864711026e-02 4.273984177710321575e-01
-2.011355661857457469e-02 -1.204074562346886534e-01 5.350497071934068316e-01
-7.139757897503101747e-02 -1.108547491596594686e-01 4.717002186475237058e-01
-1.167887895572528728e-02 -1.063590496888451725e-01 4.629391113506495792e-01
-1.012022643159801172e-01 -1.080450331437737277e-01 4.863267726669322499e-01
-4.679886580730215073e-02 -8.591324844114643644e-02 4.293138520694320115e-01
-9.066912249880977603e-02 -1.101229154182527259e-01 4.760544545640639225e-01
-9.431563681788814046e-02 -1.028107617651372319e-01 4.539540287607852775e-01
-1.337632306660318723e-02 -6.453334774768330895e-02 4.393775327209335502e-01
-5.328505970245685924e-02 -5.353835463537780920e-02 4.329601666283429684e-01
-2.919360338590155229e-02 -1.195150290838353779e-01 5.201240940372109378e-01
-3.804578190273760763e-02 -1.112340874704323690e-01 4.759793392348780627e-01
1.050906940887070618e-03 -1.267992504202993531e-01 5.228760153565163993e-01
-9.093294046337757619e-02 -1.035339655668580938e-01 5.187472228787595174e-01
-4.040642975730406039e-02 -3.513102945245355491e-02 4.348941785476248545e-01
-5.749032098603085866e-02 -1.045798728443445569e-01 4.429964523375277130e-01
-5.359812146987251447e-02 -3.835351823240398805e-02 4.385603403244942577e-01
-6.257584169636729032e-02 -8.840363855757946143e-02 4.208935120031255250e-01
-2.923899835874235742e-02 -3.676249577319314066e-02 4.375710405105366907e-01
-1.133982780265911927e-01 -9.720696747442482410e-02 4.842566909691682353e-01
-2.689695556331851006e-02 -1.187017678296052037e-01 4.977642361715220454e-01
-1.171724296823184290e-02 -1.228951045552442722e-01 5.338424368408591913e-01
-1.061199798665832805e-01 -9.953565076549394930e-02 4.658659534885897791e-01
-8.865975831262443152e-02 -1.107420120163176425e-01 4.843528513040404881e-01
-1.028084990192218787e-02 -6.482334927395926039e-02 4.396308418081452118e-01
-4.922445031004940574e-02 -5.654243374807724209e-02 4.318359645550451376e-01
-3.680817034346881012e-02 -1.100160621990701887e-01 4.725278071480662478e-01
-5.245966319141441569e-02 -1.060593220293854222e-01 4.540661499191060990e-01
-3.474908074968260929e-02 -1.179896322084635352e-01 5.011323270583615264e-01
-1.266286919448679840e-02 -1.238386625474294234e-01 5.206596830757920236e-01
-8.849174444481258672e-02 -8.968010541177220962e-02 4.454890542620170701e-01
-1.046200970676566949e-01 -1.070096910128974649e-01 4.860052900428070144e-01
-7.593279221405395407e-02 -1.071024807897411751e-01 5.261420388558964989e-01
3.908426224736720120e-03 -1.210202662560146969e-01 4.904025932830777257e-01
-7.443968554144292371e-02 -1.052819515339520201e-01 4.433379529565623089e-01
-3.542337282296212017e-03 -1.230359058406017142e-01 4.967694505378321135e-01
4.969397168915153096e-03 -1.215401057675713076e-01 4.924940006189911790e-01
-6.675195540735547051e-02 -1.134684233194845349e-01 5.093626366789535398e-01
-9.205500121639853539e-02 -1.092352473475913799e-01 5.008048670259418467e-01
-5.562275384550158241e-02 -1.099476944414110868e-01 4.659802722278957310e-01
-8.091551208378202492e-03 -7.412714753997588779e-02 4.422312214703862376e-01
-5.834151950159340017e-02 -1.047333524337185490e-01 4.423643295508688511e-01
-5.062479832136269203e-02 -1.000993066381466318e-01 4.403274587028623843e-01
-1.250153471791139170e-02 -1.028984635193909564e-01 4.590847169702098052e-01
-6.273755140468720293e-02 -1.066908177558897747e-01 4.483675535757435382e-01
-6.265494211962606419e-02 -1.119052640400299142e-01 4.746539137858304946e-01
-7.596218651634802609e-03 -1.088864436887772152e-01 4.658157466332876195e-01
-3.536964278569132425e-02 -1.160598463444068446e-01 5.374387890528482536e-01
-4.766977441987280129e-02 -9.402499614838326358e-02 4.331544518999215776e-01
2.644339442109969185e-03 -1.196505749148640968e-01 4.862263859046716541e-01
-6.052745099456009054e-02 -1.042757201431537967e-01 4.220279604287117126e-01
-7.384595014975584015e-02 -1.123905659384430572e-01 4.912086349419237941e-01
-8.106065069592470473e-02 -9.071449964932475074e-02 4.326991293586756049e-01
-1.039791559578740199e-01 -1.055014686118194850e-01 5.007758292369187680e-01
-2.938895920755500712e-02 -9.977783364313269621e-02 4.564407583608989794e-01
-4.944558214117786288e-02 -8.584903149207215312e-02 4.271856039355132473e-01
-6.016778978431207292e-02 -1.127903044571735292e-01 4.821145076262833840e-01
-1.004646141432883888e-01 -1.056436057144568980e-01 4.657308954985502902e-01
-3.379719463414278952e-02 -1.178137159927322014e-01 4.986154131139552970e-01
-4.291280399874616847e-02 -9.006561282363803600e-02 4.379614288755322438e-01
1.412641381174984702e-02 -1.260173624733412767e-01 5.196157042510813895e-01
-3.845831529415253552e-02 -1.083844490531321453e-01 4.676730600754478995e-01
-5.998658474762987025e-02 -9.434395132694584074e-02 4.209362298419788151e-01
-4.663855923336255455e-02 -6.993712214763980750e-02 4.291674344757149262e-01
-4.578388795229165753e-02 -9.227474552845671418e-02 4.348879019564259596e-01
-1.150881488655138354e-03 -1.264279555319827164e-01 5.243361529338907978e-01
-7.171976201820223773e-02 -1.088265144199229706e-01 4.606554014837214717e-01
-1.072638541155822821e-02 -1.241220709765622349e-01 5.106664978324102488e-01
-5.560595342014991449e-02 -1.058590915486458534e-01 4.502110533784516866e-01
-5.365422690507127418e-02 -1.127871653163573656e-01 5.299518956631761313e-01
-5.665153915574708959e-02 -1.048391035868699167e-01 4.262635888173253451e-01
-9.674845221677708107e-02 -8.638605928229481368e-02 4.616391802861292137e-01
-3.025916293311854688e-02 -1.172200259338344597e-01 5.378148457027384088e-01
-7.813199840402777763e-02 -1.034253906448194676e-01 4.386945486027083452e-01
-4.456017486251328749e-03 -8.192373197788350991e-02 4.457628302525067365e-01
-8.462551541595515758e-02 -1.110435865206848699e-01 4.973836305650407574e-01
-1.248380549697696539e-02 -1.133983297118109496e-01 4.740195150412816472e-01
-9.919991614436600436e-02 -1.078499426164227226e-01 4.743418350396990113e-01
-1.972891005648831284e-02 -8.025849455197234250e-02 4.423867575772100214e-01
4.709375019756282567e-03 -1.265477975674040578e-01 5.284770738882864638e-01
-3.654205288216417352e-02 -1.182083235923612752e-01 5.173555598442939329e-01
-1.621285724761015873e-02 -9.560236699797979021e-02 4.521876431429163734e-01
-3.641454269924642578e-02 -6.691816262642456825e-02 4.343378040980090393e-01
-3.518773749248484128e-02 -9.643486993878681857e-02 4.495117627833647989e-01
-3.778565307634970671e-02 -1.149897792770868399e-01 4.883929492575279641e-01
-2.024185969522518044e-02 -9.835571693192098064e-02 4.556166949215780249e-01
-1.080854975827675105e-02 -1.039865642843756932e-01 4.601831279854433077e-01
-5.360085142212840659e-02 -1.077957420127317600e-01 4.594283251802743218e-01
-4.914773515618440364e-02 -9.269207897015110942e-02 4.280670186644555120e-01
-1.892397201889102487e-02 -1.018541249929410114e-01 4.593719998282401185e-01
-7.788326502525355632e-02 -9.966501600868660216e-02 4.302122036040401110e-01
-2.040091167986263221e-02 -1.162665585112226535e-01 4.853685649727668139e-01
-3.507835266217233794e-02 -7.200357345585187141e-02 4.350703271920651205e-01
-6.665904786420510930e-02 -1.134962514686298635e-01 4.996218713321860516e-01
-8.328698803376525725e-03 -8.216518661091185005e-02 4.451438356422024456e-01
-6.776825761043003826e-02 -8.028805814970155219e-02 4.259005334940139109e-01
-2.227302174106076532e-02 -1.213750654099678555e-01 5.125124103189874214e-01
-4.264195082313446128e-02 -8.625560830367481890e-02 4.352178272961546579e-01
-8.051015179498430263e-02 -1.081419372817521568e-01 4.595689924298904661e-01
-2.659745506252499114e-02 -4.056514912279979984e-02 4.381835438324324095e-01
-2.621945435815064077e-02 -7.450606107274174161e-02 4.388191148665621655e-01
-5.475412690539627897e-02 -8.403545148988611491e-02 4.234711933528597094e-01
-5.786535872100644073e-02 -1.126025712541160323e-01 5.270480524420650958e-01
-4.340408756968847787e-02 -1.139450699948428153e-01 4.859265806009004929e-01
-3.309613776766933552e-02 -3.866596854974866521e-02 4.364002984391299744e-01
-3.477252817447515354e-02 -1.179748527918021012e-01 5.250379056965235325e-01
-4.546357514965296970e-02 -1.160125562178301178e-01 5.234743598332318726e-01
-6.417322187762274088e-02 -7.543501577502446931e-02 4.262623565633157363e-01
-5.307999873934380469e-02 -8.517810177995528698e-02 4.241378227054434791e-01
-7.951562738381846851e-02 -1.119097036860980943e-01 4.910199489292089159e-01
-5.039555382239988002e-02 -7.956579824863338479e-02 4.262628518361548657e-01
-6.978508007855653561e-02 -9.806330108047270344e-02 4.207359219580961152e-01
-6.923299786482513263e-02 -1.121437416093040151e-01 4.814628524001621224e-01
-9.297153100876794085e-02 -1.099898748290364103e-01 4.929235971723243126e-01
-9.068263820613062243e-02 -9.369478089056762493e-02 4.464972577255045816e-01
-5.838536312125292005e-02 -9.842356795825857319e-02 4.212724571137491658e-01
-1.073742743150291334e-01 -1.056545885770388687e-01 4.873120260802382142e-01
-6.741285393155813099e-02 -7.868985912087593515e-02 4.270639543800013871e-01
-1.035748043043838579e-01 -9.677291430823847795e-02 4.615657677565761507e-01
-1.096835269911453636e-01 -1.034095786863080402e-01 4.963434272687771154e-01
-4.720978570769385207e-02 -8.911443250479959832e-02 4.296585804339753123e-01
-8.320193831296687770e-02 -1.094108360978575251e-01 5.101496702407001260e-01
-1.207566752109193002e-02 -7.347862117928273540e-02 4.415163567572159553e-01
-3.030093680794635966e-02 -9.563727009017496117e-02 4.507769041766002127e-01
-3.034552079903300031e-02 -1.188702704451595066e-01 5.248833374507669847e-01
-5.018862984950162032e-02 -3.741597227236531653e-02 4.367359434053550427e-01
-4.941239094662723021e-03 -1.248172333976356324e-01 5.063402602017635923e-01
-9.946373304846899133e-02 -1.081460842465980232e-01 4.950590001208513558e-01
-3.500629486248328648e-02 -3.605368244238610353e-02 4.358274848739877583e-01
-1.707293421375098708e-02 -1.214762722395383715e-01 5.334919230253822864e-01
-9.674982023610027501e-03 -1.238680629091077068e-01 5.311921370375577434e-01
-6.916376118701171583e-02 -1.089919369878454281e-01 4.612388623249019659e-01
-6.394608003031619636e-02 -1.136456979457512728e-01 4.958838886717502059e-01
-3.816142070111302326e-02 -5.377029218365755869e-02 4.342555210150377265e-01
-1.723914582941383014e-02 -4.483642449323660406e-02 4.384528017209056161e-01
6.038029689370240025e-03 -1.250282393353027155e-01 5.052558429627608261e-01
-1.369875300102130732e-02 -1.118682772166426365e-01 4.718649389989384435e-01
-6.934784994092688115e-02 -9.686177896286118916e-02 4.197732585616628098e-01
-1.256185099092050825e-02 -6.424376540102702537e-02 4.394071473829762042e-01
-3.415780101520275031e-02 -1.134169121605407005e-01 4.816662822643053010e-01
-6.078846956818918790e-02 -1.049687856775985140e-01 4.389829186017725204e-01
-9.719354489288624388e-02 -1.002959926903251725e-01 4.554364455879593709e-01
-4.769662673914362716e-02 -6.949249225343354097e-02 4.285414597944409709e-01
-4.749087575795832294e-02 -1.161033053341714444e-01 5.004126358201617109e-01
-6.007411849012740668e-02 -1.141206475099516976e-01 4.954743690866700301e-01
-7.976217191546135232e-02 -1.054442953496140672e-01 4.492530724258755881e-01
-6.036211428151234265e-02 -1.052759175728215368e-01 4.285529226392772451e-01
-3.183938881239425228e-02 -6.606354245198556296e-02 4.361449585516389837e-01
-5.515049221470507551e-02 -9.780176809595003684e-02 4.224296127801351886e-01
9.512081073011992641e-03 -1.218337934775485798e-01 4.951389145239880052e-01
-5.696838963539914424e-02 -1.085590467962916778e-01 4.605423586293740934e-01
-9.332784699798819805e-02 -1.087531093322422343e-01 4.704055985942451890e-01
-2.844731362563672136e-02 -1.117708693677882670e-01 4.764652226807521984e-01
-6.133862734912451375e-02 -7.558868163153988073e-02 4.251257563854569654e-01
-1.287160696077863618e-03 -1.085053549056901323e-01 4.658937081491403287e-01
-7.032558630334184539e-03 -1.229193174714559855e-01 4.973298026829074958e-01
-9.704689874113923975e-02 -1.076513463690975808e-01 5.030345228041981365e-01
-2.729514126748980307e-02 -7.547224834247900915e-02 4.388593549650824932e-01
-6.137719994947047480e-02 -1.063020635785013462e-01 4.465437556579887057e-01
-2.927433120639958905e-02 -1.196571678863581484e-01 5.147775983755288332e-01
-2.715702269592093487e-02 -9.468835445403299411e-02 4.510352065571197056e-01
-4.631326527332702003e-02 -1.138300191094950425e-01 4.862068923606661652e-01
-5.379476235025230230e-02 -4.061922436180686463e-02 4.385001721053657375e-01
-9.641595745057965350e-02 -1.077676935928312818e-01 5.031796977488208755e-01
-1.043787397260102917e-01 -1.057031626809893238e-01 4.744732043882867178e-01
-2.151599758346326233e-02 -1.215543324344248582e-01 5.155491583752388474e-01
-5.540267482526363418e-02 -1.036832687909115952e-01 4.231191175621881739e-01
-3.623011236392693901e-02 -9.201933216115815162e-02 4.448436816805329541e-01
-6.872110677931968226e-02 -1.121852513089457576e-01 4.818531866265327035e-01
-4.691389264194946451e-02 -8.757801837002443524e-02 4.293302179095338511e-01
-5.608770898251416726e-02 -1.149501126618684144e-01 5.147599106451106188e-01
-1.221463312553725152e-02 -1.236216778187876897e-01 5.087657762650427129e-01
-2.995855544765969533e-02 -1.194642825765133143e-01 5.167786868228512187e-01
-1.074846306796885115e-01 -1.037769662825394762e-01 4.757123499224457652e-01
-5.348862213941495830e-02 -5.504120100770940743e-02 4.322208906656967997e-01
6.118275224753434022e-03 -1.258591817456534978e-01 5.097863316699202674e-01
-7.450236146948745197e-02 -1.125627852666384043e-01 4.993791375589868298e-01
-7.565469751006603794e-02 -1.124161571506549356e-01 5.004120475347176855e-01
-1.769969634095043196e-02 -7.209864030658710843e-02 4.402735483390575189e-01
-9.578460271376619539e-02 -1.091184326645852493e-01 4.752440160318068263e-01
-3.783426953052958230e-02 -6.497588112179208952e-02 4.338265586709368904e-01
-2.417061787311117899e-02 -5.826681394354985000e-02 4.371408296182677233e-01
-2.231747004375846111e-02 -7.104164270009072357e-02 4.390868901247794165e-01
-3.674459154386582049e-02 -1.182237768796519928e-01 5.132102409948245958e-01
-1.070791399892168927e-01 -1.027276704421841852e-01 4.718402355896517686e-01
-7.948245927351300921e-02 -1.030190428301994143e-01 4.395189519715370641e-01
-4.987199368611495293e-02 -1.151691114727540488e-01 4.942436350584281102e-01
-5.470365595962174698e-02 -6.082866282659329243e-02 4.299852787162290468e-01
-5.118533208016849689e-02 -9.361882422028862394e-02 4.258312554941371952e-01
-8.287587652809329936e-03 -1.246493845933459715e-01 5.100856448071957594e-01
-7.448213382275840899e-02 -1.124538084038278346e-01 4.939078446587487070e-01
-1.837680757063964165e-02 -5.274480291178244157e-02 4.381897737001855253e-01
-7.199628538911946596e-02 -1.127091570292676759e-01 5.044706868615866924e-01
-2.513294241148437969e-02 -1.205384741169502338e-01 5.197573326870863486e-01
-9.208287672605824925e-02 -1.081067649604675884e-01 4.665983764605168282e-01
-5.915551431870751803e-02 -1.127071873131923474e-01 4.814202900284343944e-01
-1.791838440015641049e-02 -1.097611398430447111e-01 4.699189207645107502e-01
-4.439983427836977081e-02 -1.033014882774744292e-01 4.538103452908707203e-01
-9.694532077021292271e-02 -9.291446476119306908e-02 4.549102438620096778e-01
-3.485189553756321001e-02 -1.185429889895912581e-01 5.167154906574803475e-01
4.134676930467985970e-04 -1.003581930018605378e-01 4.581177388138186202e-01
-8.049752599743680015e-02 -1.117787054288960358e-01 4.916162269290551556e-01
-1.053485433935243271e-01 -9.619637105628593698e-02 4.643323926051912687e-01
-1.043099672698645647e-01 -1.070282566163815452e-01 4.838938329874309940e-01
-7.403305958246192420e-02 -1.108277746317711254e-01 4.721096606661350781e-01
-4.492859667231837578e-02 -7.104704120868601813e-02 4.303085688798219954e-01
-6.986726407299424790e-02 -9.858934759331366982e-02 4.211666309851126444e-01
-7.122114598072015745e-02 -1.065127993027284170e-01 4.496798395788508818e-01
-5.430381393420188885e-02 -1.152943156123172747e-01 5.073380574077234195e-01
-3.817410998785504550e-02 -1.175097828701055919e-01 5.225661606601200715e-01
-3.828962561074468474e-02 -1.069240769691069681e-01 4.647074818285557574e-01
-6.137907865541711999e-02 -1.142963635419489560e-01 5.044376833472495880e-01
-6.169606333120564168e-02 -7.456781047279791019e-02 4.255808099531327993e-01
-2.324094573160243385e-02 -1.189209289710958239e-01 5.383795248746755524e-01
-9.753296677704291484e-02 -1.089529695859877551e-01 4.884077516828270737e-01
-8.806238364599344726e-02 -1.082888541204375388e-01 4.642581211820965281e-01
-7.974568859125188980e-02 -1.086020814870384127e-01 5.179218153295456206e-01
-6.584346905061089217e-02 -1.136158563260851323e-01 5.081823654903072640e-01
-1.513114839016029174e-02 -5.566879134277555319e-02 4.382909732135053527e-01
-6.635185471006634084e-02 -8.513211606842059631e-02 4.216235706646005443e-01
-3.445461265951474394e-02 -6.634387387682473547e-02 4.350604335764718389e-01
-1.041371551616738535e-02 -1.059074154646122978e-01 4.623185515021568937e-01
-4.636742847259964911e-02 -7.348985868530710786e-02 4.292855107990853902e-01
-3.982152565010982359e-02 -1.154617754085897480e-01 4.908134470419951434e-01
-5.763126612347327371e-02 -1.051585362150954800e-01 4.313791850634979275e-01
