-5.942452385526309638e-03 -1.231199593947805843e-01 4.975915375762732240e-01
1.306745835435298847e-02 -1.266224607284066050e-01 5.260462673544415990e-01
-4.552775508406541050e-03 -9.090364631586807243e-02 4.499863250310386364e-01
-1.039388121689445721e-01 -1.074299838671180646e-01 4.901141285147440074e-01
-7.337380284366046279e-02 -1.099460611918604697e-01 4.653178707022670446e-01
-2.667080961817161477e-02 -1.179652474846487054e-01 5.386024509349021105e-01
-7.352696309817284559e-02 -9.435830211568094206e-02 4.219576388460863914e-01
-6.227454630043602335e-02 -1.068537234630528854e-01 4.474732646537471492e-01
-3.489916095609964242e-02 -1.128541177067137330e-01 4.799323179303585096e-01
-3.472255565617151513e-02 -9.752488321987756725e-02 4.510661064389687724e-01
-4.251320297705474260e-02 -9.056533294622638730e-02 4.392569041226093707e-01
4.502948674982531346e-03 -1.249581845916937772e-01 5.038743823465299254e-01
-2.065003611285412891e-02 -1.187578548803810280e-01 5.421234423356595666e-01
-4.609878893379297515e-02 -1.160163208288158415e-01 5.226013345578287561e-01
-6.073264003390606292e-02 -1.140331965067974962e-01 4.940249847040208420e-01
-4.864824822716175973e-02 -4.613007783664106048e-02 4.341286149180721976e-01
-7.715593882214352717e-02 -1.053345365690118579e-01 4.445537707507283831e-01
-7.594121141795859287e-02 -1.101648197696886711e-01 4.669251677099013342e-01
-3.764782617496333778e-02 -6.451598734389167589e-02 4.338661211635433390e-01
-5.996509908708059881e-03 -1.115151512938043210e-01 4.695082464032304115e-01
-1.503287142674481630e-02 -1.215689636706862170e-01 4.988345089700998436e-01
-4.974972970285087420e-02 -8.470086739990204117e-02 4.267285177703372678e-01
-3.778995465177353852e-02 -1.032019012039814415e-01 4.581142347848072283e-01
-2.783322525770576261e-02 -1.014770656164177970e-01 4.592630619366146472e-01
-9.792672617307672522e-02 -1.060694817036225562e-01 5.068450645877632388e-01
-3.617982055401749303e-02 -1.174098836042495042e-01 4.979488586509751014e-01
-7.093883299708386714e-02 -8.513044183572118784e-02 4.233068379135475623e-01
-2.952727627155424250e-02 -8.420190810225917921e-02 4.418656904125528029e-01
-5.433405897432482673e-02 -1.126516090851586854e-01 4.794993286439445668e-01
-4.109199659971437407e-02 -9.504754458910372183e-02 4.446312310701738268e-01
-6.231574536801913478e-02 -8.032293024644195090e-02 4.235563609510218930e-01
-1.474135852357046778e-02 -8.694519278867587908e-02 4.460947433518100413e-01
-1.823634529044378116e-02 -5.245868589446334163e-02 4.382182835600796356e-01
-9.401429368108470130e-02 -1.064657572699232724e-01 4.614524855434119499e-01
-5.153335012100283136e-02 -6.387343249762308939e-02 4.289394070375671664e-01
-4.305752011113199440e-02 -1.147152350256889497e-01 4.884813348119434462e-01
-5.156062937942400282e-02 -9.038043968628280134e-02 4.253176422026054282e-01
-1.082835578464664411e-01 -1.053852558258238925e-01 4.923922433232475471e-01
-4.549745925159562332e-02 -1.151474015121418809e-01 5.284669450572269112e-01
-4.870671387183099846e-03 -1.258178509661306010e-01 5.188723185043381259e-01
-9.341957648822413196e-02 -1.056843008167121234e-01 5.120647806436370297e-01
-8.917569815984193599e-03 -1.237863616100570024e-01 5.041221319218762709e-01
-3.326628245961554819e-02 -1.034759840731048347e-01 4.606815781020373590e-01
-9.713698452663961647e-02 -1.091472827406552992e-01 4.928862366388204186e-01
-6.002040012766119911e-03 -1.255229368272054447e-01 5.147820514577449158e-01
-6.768795433001210948e-02 -7.993198774555548836e-02 4.262934484697501469e-01
-5.010460497695760212e-02 -1.051844937387926837e-01 4.530010839982755999e-01
-5.627914343468548575e-02 -9.459948436803072847e-02 4.213343965632078691e-01
-6.661340807871822534e-02 -1.065549544300496559e-01 4.468809265446330170e-01
-2.053601331797150903e-02 -9.034212402103308781e-02 4.474447860217924400e-01
-4.059795814081502974e-02 -9.936837599098441443e-02 4.498331105320956258e-01
-9.899575368322752200e-02 -1.080129247894043021e-01 4.992173671893720410e-01
-6.015899494456689034e-02 -1.117947241789574164e-01 5.279458485649842769e-01
-3.371504032510560384e-02 -1.178742835049167298e-01 4.985370272999783414e-01
-2.255654191418763124e-02 -1.151580768897219748e-01 4.836312930708625002e-01
3.575518299197241387e-03 -9.225966267197270587e-02 4.520066771452000975e-01
-1.027148366138053333e-03 -1.264893273237568394e-01 5.178156976742417372e-01
-6.092215330755444691e-02 -1.050393492583423100e-01 4.370608608538407158e-01
-1.933975330013541424e-02 -7.520186012973814615e-02 4.405735431303433036e-01
-3.870931683473226304e-02 -1.179025652890211828e-01 5.131584120273487981e-01
-5.663351931527044192e-02 -1.143735503291013755e-01 4.926576535610609486e-01
-8.848789874015090470e-03 -1.230776399232561408e-01 4.993737895777054514e-01
-7.843931945744321566e-02 -1.090765007143825877e-01 4.620973244964579063e-01
-6.483112466655895079e-02 -1.051131796340402796e-01 4.291812496334315163e-01
-8.650516415224873690e-02 -1.108766201966679132e-01 4.763462925153287841e-01
7.101776749713594773e-03 -1.261511524757369662e-01 5.334212683429353508e-01
-4.443800216835205874e-02 -9.966989977017276514e-02 4.466141326247516363e-01
-3.422653673885055897e-02 -1.106173019810780672e-01 4.739050207593190622e-01
-5.193914086089030518e-02 -1.009972138704414713e-01 4.407384229144810095e-01
-3.515297046371081147e-02 -1.087177377734383221e-01 4.695405363349338668e-01
-9.548562139322390452e-03 -1.207808648497322446e-01 4.909724280948061237e-01
-3.121370759499197955e-02 -1.168949647584484053e-01 5.383313545947014944e-01
-6.190627974451828192e-02 -1.064741751409028769e-01 4.452235722625293435e-01
-6.359008517246939052e-02 -9.234509191743521528e-02 4.198162444533133364e-01
-4.958292279366361549e-02 -1.157024340419202380e-01 5.188114001196665326e-01
-2.811083843471159568e-02 -1.198686780052654194e-01 5.085644547453738173e-01
-2.013861896637102536e-02 -1.208459531391805064e-01 5.308625965247650846e-01
-1.031395621155049569e-01 -1.060601849993936668e-01 4.711567152682681336e-01
-1.070463345599728250e-01 -1.023171027105967967e-01 4.706518418810479165e-01
-6.606874554159700152e-02 -1.105231350711332328e-01 4.679595590698544250e-01
-2.788764935155694201e-03 -1.220914007391805944e-01 4.934143125009737840e-01
-5.479625083325299212e-02 -1.033252792580116319e-01 4.424508679017222224e-01
-4.893794577521550643e-02 -9.605184389434352765e-02 4.306588731822504346e-01
-6.710980606111804914e-02 -1.123899798180865023e-01 4.813854558472787093e-01
-3.893191067916245557e-02 -5.149609637062823458e-02 4.343202929548455327e-01
-9.848588421860894615e-02 -9.914126368264775113e-02 4.567120746439393697e-01
-8.139561745891260580e-02 -1.094592673154920343e-01 5.132382985714777357e-01
-8.552466444028297698e-02 -8.860229074734349286e-02 4.415837566111144863e-01
6.320054947777311791e-03 -1.264341817824929104e-01 5.134869963402266535e-01
-5.377863222795752768e-02 -5.233732334041701906e-02 4.336932007756703067e-01
-6.620203297174738445e-04 -1.040253820669088253e-01 4.612288776713489025e-01
-4.072089920771864574e-02 -9.667482271776069169e-02 4.463881049454543892e-01
-9.088401928591395562e-02 -9.561109988473555366e-02 4.465390760371276135e-01
-6.238149397956166409e-02 -9.781034725595326440e-02 4.208700926853294333e-01
-7.128444114949401833e-02 -1.106089061307218291e-01 4.688728364001755744e-01
-7.281657789630632815e-02 -1.059694499390906874e-01 4.454665048901124691e-01
-4.414377963540510458e-02 -6.159967249606586315e-02 4.313190073870945551e-01
-4.722377586149536371e-02 -5.725603560307720996e-02 4.318051340533035631e-01
-8.616727734446835707e-02 -9.318962681974451989e-02 4.408450535504326306e-01
-9.055377944832175563e-02 -1.074618900194785898e-01 5.095651728413821413e-01
-5.933814147330752908e-02 -1.125617452807481100e-01 4.794378013417889273e-01
-3.975395747639291766e-02 -8.957153797659732353e-02 4.405421569730888498e-01
-2.674543094880572555e-02 -8.912457111107853491e-02 4.453533535458004677e-01
-2.311769612476692604e-02 -4.974336737380469914e-02 4.382509834531878590e-01
-7.503731658329372556e-02 -1.094697966944788992e-01 5.208449248762788697e-01
-6.197783929436936901e-02 -1.076577922741136784e-01 4.549263117325166861e-01
-1.609222271754224415e-02 -1.200175971177848827e-01 5.422799842486768496e-01
-1.449437565428466669e-02 -1.196240080031367725e-01 4.896735048744078056e-01
-6.832026915988699545e-02 -8.228228641564208634e-02 4.246305831547648180e-01
-2.736904350629293468e-03 -1.184170266453462572e-01 4.821518281315727572e-01
-1.101166185219516758e-02 -1.238962220652607832e-01 5.264511868160647312e-01
-1.054194389775188895e-01 -9.660308307796106053e-02 4.643018633306776333e-01
-8.693824538206330887e-02 -1.051265719646159585e-01 4.527019799553512192e-01
-6.324779030990064499e-02 -1.141316224703360499e-01 5.033383597551737143e-01
-7.201637976439798083e-02 -1.071599160551086061e-01 4.520337861235816934e-01
-8.979818884666358053e-03 -1.108095781385613904e-01 4.687450048403270508e-01
-3.073500139601403197e-02 -1.139917802322510942e-01 4.820522413552209562e-01
-1.724704334908739450e-02 -1.215950550095262345e-01 5.025418745660749087e-01
-8.916584476194150399e-02 -1.107397780369217960e-01 4.802609216725242658e-01
-6.507938284118973404e-02 -1.135411380643340795e-01 4.930527463102059582e-01
-8.911651594811542676e-02 -9.119138406528692897e-02 4.456612366394352986e-01
-4.474645751880081124e-02 -8.624503684990303398e-02 4.319649101232905797e-01
-5.198547113269511022e-02 -5.167209140556180275e-02 4.337457048751915956e-01
-4.528426549963182612e-02 -8.067816889456615181e-02 4.301180031479747146e-01
-5.131258828288386836e-02 -1.002624872200123946e-01 4.330607339488797281e-01
-9.732298375247751265e-02 -1.060569451282830644e-01 4.630937193091134163e-01
-1.238147965942501191e-02 -1.040810091631075990e-01 4.603873860222116310e-01
-3.106576934945546806e-02 -1.187537774007933755e-01 5.247018130344619502e-01
-6.794306999245514067e-02 -1.051599189106530580e-01 4.353233346341656151e-01
-9.690007687876528442e-02 -1.087222424175062763e-01 4.737498589993501819e-01
-8.433430438583938704e-02 -1.068827844635815011e-01 4.557915718505153868e-01
-9.635789557951739137e-02 -1.066562133839047688e-01 4.638144741509497848e-01
-3.065130146091885402e-02 -1.144507875541579262e-01 4.835017158149614858e-01
-6.188312891914729552e-02 -1.073862872848321270e-01 4.528922895427727191e-01
-2.058572742062440147e-02 -1.186702265360816688e-01 4.932370587007579577e-01
-6.283903925206187069e-02 -8.443743495721381387e-02 4.220889105182700218e-01
-6.093466850990018197e-02 -1.112895646418391726e-01 4.708685137037887380e-01
-4.632814909138453091e-02 -6.768826138609079779e-02 4.294775959713191815e-01
-8.451191209484608391e-02 -8.802011353702227092e-02 4.406887399400008509e-01
-1.944999089288166477e-02 -1.199963230376828449e-01 5.380512630033111865e-01
-9.898518915892721981e-02 -1.059073760344150378e-01 4.642189174985069111e-01
-1.090004657941133145e-02 -1.240420279677701965e-01 5.248692808907190477e-01
-1.207457528028136468e-02 -8.944886175199076583e-02 4.477528460100958507e-01
-3.307635614724416251e-02 -1.189034718596249512e-01 5.079322416095378712e-01
-7.444158497766912956e-03 -1.191775571428016350e-01 4.848836151414961937e-01
-8.272737502765746542e-02 -1.100103800514917601e-01 5.083188886476014412e-01
-1.025536159679112103e-01 -9.459364171463700843e-02 4.619975241401117483e-01
-3.395085027730081195e-02 -8.010685800779378252e-02 4.383331601968701863e-01
-4.249652130869693151e-02 -1.129764908827243924e-01 4.820914727980918912e-01
2.778160482490202310e-03 -9.172719457310163360e-02 4.515972924152698575e-01
-4.594011433313838905e-02 -3.866997874475282260e-02 4.349894639805675922e-01
-1.556886676976260153e-02 -9.014881895730333938e-02 4.475723273734462659e-01
-3.757135341434213183e-02 -1.181519805634793918e-01 5.105718671580751211e-01
-1.418102296736903356e-02 -1.148677638112632210e-01 4.781929189377491229e-01
-6.083405850221747929e-02 -1.115173989562053269e-01 4.718972086108702002e-01
-1.221329609003953508e-02 -1.224250779040667175e-01 4.996703000105600090e-01
-5.547104150372347831e-02 -1.032014383616681186e-01 4.374882280673412227e-01
-6.025721609965915826e-03 -1.201059763187009716e-01 4.876479431927694397e-01
-3.231720841576322945e-02 -1.185677281410272843e-01 5.240148180064885253e-01
-1.558078793711417144e-02 -1.197502274614922757e-01 5.435806545197910955e-01
-8.207510527783672127e-03 -1.093527518753161648e-01 4.665136438836246513e-01
-4.209887802664994544e-02 -1.111368350866919208e-01 4.749357789785206285e-01
-4.673844234410753223e-02 -1.013928043184490896e-01 4.475695498065837552e-01
-1.116724520712030280e-02 -6.891000551460670087e-02 4.404894539620624050e-01
-1.037759554128027673e-01 -1.062469241760362337e-01 4.995697865293855511e-01
-5.110098307494188169e-02 -1.066795184272569114e-01 4.568845830452764600e-01
-4.152279161878574126e-02 -3.425651916881126968e-02 4.349240882683347298e-01
-9.145248250360618614e-02 -9.519741392389660661e-02 4.475214215177563126e-01
-2.459111085206193079e-02 -1.178652519276138927e-01 5.416980835530594840e-01
-5.101564194765992322e-02 -1.011157869485311972e-01 4.365285206142578422e-01
-1.729525596255323400e-02 -1.228432131214787504e-01 5.163156628120568747e-01
-5.175817978980588180e-02 -1.015848581865806399e-01 4.347824411785307097e-01
-5.398601668140561027e-02 -1.061644447106223077e-01 4.520083885970731519e-01
-9.539336769577404229e-02 -1.071818640290251312e-01 5.066177901341893941e-01
-8.579764057001013078e-02 -1.106863521411212831e-01 4.730694225049977275e-01
-2.404808207746783957e-02 -5.240961571543668179e-02 4.377701969471128884e-01
-9.402189563811649831e-02 -1.096318313803615468e-01 4.750903982911325873e-01
-9.459888737869223685e-03 -1.241123342421972253e-01 5.297966366947306494e-01
-6.256256004108261271e-02 -1.136821645415747872e-01 5.167355573547174341e-01
-4.257764307656552311e-02 -5.351488899223307005e-02 4.335564645093501479e-01
-9.082957611223614613e-02 -1.079601435455818104e-01 5.074769617851604409e-01
-6.044100971424370972e-02 -9.213766947907284233e-02 4.204496255008836059e-01
-3.329630800680631608e-02 -7.219720588414220430e-02 4.357501324981309931e-01
-3.607726599239249876e-02 -1.143426651881700729e-01 5.432871134230179422e-01
-3.098166131362739897e-02 -6.435779459505723554e-02 4.361764678487209390e-01
-8.279143971291504089e-02 -1.090408925552706354e-01 4.631368203490524027e-01
-4.770304939689314766e-02 -1.116322799019474482e-01 4.749477864378756631e-01
-5.147892447357446666e-02 -3.977251592333934382e-02 4.365038432307045135e-01
-1.404200791330312108e-02 -1.230530711190113008e-01 5.264785726214277206e-01
-7.706788636063706399e-02 -9.685550046041588312e-02 4.253512423747825566e-01
-4.713040675684062458e-02 -1.128765440674701220e-01 4.808768959448594393e-01
-8.940024142569483537e-03 -8.459179008552374091e-02 4.459976072649180501e-01
-2.951854635874045368e-02 -1.010413143527875562e-01 4.581702695600189390e-01
-1.064459672799962092e-01 -1.031281102265399902e-01 5.037570787447621656e-01
-8.284707935647750432e-02 -1.117439312642189292e-01 4.877472562157553759e-01
-1.051997124101462441e-02 -8.350235258128173299e-02 4.452940861841210296e-01
-1.083339345426399258e-01 -1.050304472426767249e-01 4.958240725691965278e-01
-3.031637440506944337e-02 -7.159121155961367666e-02 4.369603139565479966e-01
-9.416658240066960728e-02 -1.096990112472098350e-01 4.763208426827097997e-01
-2.686316102724403340e-02 -9.941882153258864430e-02 4.567230828013354449e-01
-5.636668889074394201e-02 -1.149580886551952591e-01 5.000857572187489275e-01
-3.659575482591450463e-02 -1.152176436762222117e-01 4.884057447673362806e-01
-1.829911985945571057e-02 -4.761351974275579435e-02 4.385712001475281507e-01
-6.495580273522007231e-02 -1.125167274113239441e-01 4.813052389171048606e-01
-4.850420225546786535e-02 -1.145040858875816803e-01 5.285139520718067363e-01
-5.365007133461291433e-02 -5.507701043776956629e-02 4.322577558959037058e-01
-8.993578184974225509e-02 -1.066804674714725981e-01 5.125229639935883208e-01
-3.649811862014733926e-02 -8.372800307110553342e-02 4.384581247165531548e-01
-3.617955563014826903e-02 -4.564146075181848422e-02 4.350342480272595402e-01
-2.549246356421602799e-02 -1.179621890341483459e-01 4.941567109407217218e-01
3.340488728831333791e-03 -1.267690099794477054e-01 5.261700763209177234e-01
-1.491221256808189684e-02 -1.097877305984124030e-01 4.687658676885412268e-01
-3.859210087667392514e-02 -1.158801473483830752e-01 4.916197746409339264e-01
-8.578400680506151343e-02 -1.073098203935252126e-01 5.146655808918491060e-01
-5.846396123646572379e-02 -1.071815913672154313e-01 4.529426655347027486e-01
-7.742897391110400984e-02 -9.907767010204457381e-02 4.287763392774559534e-01
-4.803856624776284279e-02 -1.161470144164447466e-01 5.024610881765699810e-01
-7.751633859011353156e-02 -1.041573939745517874e-01 4.399323225003028970e-01
-5.240485913118834993e-02 -8.936655323066247658e-02 4.245933032142067409e-01
-7.278459266045586573e-02 -1.127590897483573273e-01 4.943561165215838438e-01
-4.749168050929927776e-02 -8.423574411199050149e-02 4.284420251154267834e-01
-3.097414031163540221e-02 -1.137692246975435251e-01 4.814461434023638020e-01
-2.470759151364385411e-02 -9.157668747077141180e-02 4.481268395161913665e-01
-1.085580570857991173e-01 -1.034722177310345159e-01 4.787146610759867582e-01
-9.369679615024074926e-02 -8.981665338457718584e-02 4.532864056900122174e-01
-4.114324363955441238e-02 -3.935035761855540382e-02 4.345576857711583307e-01
-9.107044984770232277e-02 -1.058243670629167438e-01 4.574031500546152929e-01
-4.974537173573452542e-02 -9.840891176072269486e-02 4.344483883966125948e-01
-7.672048946095826050e-02 -1.121547393930582004e-01 4.864272835037259379e-01
-5.136247440394078878e-02 -1.116510631854751301e-01 4.736292191559201004e-01
-7.721843368482889103e-02 -1.040048442664716355e-01 4.391475569193726280e-01
-6.170638485456214628e-02 -1.143541770601992358e-01 5.099462623028715447e-01
-1.055838593864705383e-01 -1.066664009250083145e-01 4.840694389728832370e-01
-5.432814113242174364e-02 -1.130774366552222687e-01 4.821524866173834134e-01
-1.967672096600219314e-02 -1.216986371104748776e-01 5.235556789444374415e-01
-6.532596218363848073e-02 -1.074314826322291111e-01 4.533325351860669761e-01
-1.125686175698970143e-01 -9.878185783891950400e-02 4.853710818120142156e-01
-1.066983599182370207e-01 -1.040104298976249758e-01 5.014966785265831950e-01
-3.215356816011880059e-02 -1.128468341276735454e-01 4.791765108605343659e-01
-7.704432667468378952e-03 -1.230302464655557287e-01 4.980380269833101226e-01
-5.772562990879423483e-02 -8.111098961105896177e-02 4.234279082244184478e-01
-4.497660940694207798e-02 -1.168207454618336860e-01 5.101482565427120086e-01
-1.359856593188434222e-02 -5.794828507929482286e-02 4.385360270646814773e-01
-5.825133552632314610e-02 -9.179524872247384060e-02 4.209044934116381587e-01
-2.796230619402932660e-02 -1.197783953587569783e-01 5.209163000127992049e-01
-7.774959930198712885e-03 -1.091147516247546745e-01 4.661149213381144962e-01
-3.176780591835080131e-02 -7.100025259323661242e-02 4.363134801637508220e-01
-3.965656465795340535e-02 -1.162787646781040796e-01 4.940149453680285907e-01
-8.863942619529494027e-02 -1.103611670514938331e-01 4.976808502162519687e-01
-3.161484567613565694e-02 -1.190051770764919276e-01 5.045518396339562228e-01
4.800045334753974720e-03 -1.264494457830520335e-01 5.127100147895706783e-01
-5.332797818227510284e-02 -4.585174125827268937e-02 4.354591598412363429e-01
-6.292192685960069920e-02 -1.082851740937843948e-01 4.568632008847708925e-01
-1.561479497725518778e-02 -7.597945811807166328e-02 4.415262784790074391e-01
-1.807740346245063912e-02 -6.482805515447134792e-02 4.388203707132258269e-01
-9.881973845727048955e-02 -1.081654526317289422e-01 4.981488563900770550e-01
-7.997615410090981591e-02 -1.092448659771375480e-01 4.632087027811981339e-01
-1.749853432357178704e-02 -1.156884470835018719e-01 4.822967429604144707e-01
-5.483758760465662352e-02 -4.930756973221107897e-02 4.348429717183621146e-01
-5.473499843462251852e-02 -1.037821538945680883e-01 4.265209681343015147e-01
-3.341859483389485880e-02 -1.163865776337245223e-01 4.915183002977157600e-01
-2.713328756245632356e-02 -3.699020612146413506e-02 4.380731853582733870e-01
-4.429973601491274393e-02 -9.487183401248035219e-02 4.418213325033281680e-01
-2.177275706404875610e-02 -1.171578584942433859e-01 5.465198956452311796e-01
-2.130706178079022281e-02 -9.213166149448369369e-02 4.490191524193175576e-01
-5.390905133770877017e-02 -1.110849622804627040e-01 4.695227737759430919e-01
-2.969228388375312958e-02 -1.182113853852927443e-01 5.334248217267324454e-01
-4.547469099588922342e-02 -8.534893971163463877e-02 4.302636646740704562e-01
-2.793691664545787379e-02 -6.584188912454969067e-02 4.369382481141874663e-01
-6.052502738171564034e-02 -6.349169006520562208e-02 4.316018410438642317e-01
-5.591279526949376882e-02 -8.092328943639025274e-02 4.235388954601148059e-01
-2.133786894800162801e-02 -1.180550587691166636e-01 4.913958946178959009e-01
-4.105467032709864128e-02 -1.076527761506544528e-01 4.642495323340639080e-01
-6.883716827615124489e-02 -8.092607809261495588e-02 4.259192305068948414e-01
-7.582415670660352935e-02 -1.006876115258533849e-01 4.278914846430366126e-01
-1.171790930042445819e-02 -8.231563163672638017e-02 4.445747573287512355e-01
-4.008213596358857489e-02 -1.138692313121598132e-01 5.402815370425094743e-01
-7.165714730696468027e-02 -1.100460381741562438e-01 4.656554284322497184e-01
-8.591032637840342878e-02 -1.083901641699232671e-01 5.117401278740276727e-01
-5.737415559036183887e-02 -1.119088237293495020e-01 4.735658766469251213e-01
-9.983354861518191348e-02 -1.072888349454267365e-01 5.010966532120463279e-01
-9.385301320145775748e-04 -1.223017674207958899e-01 4.941404220207066822e-01
-6.474960554378381139e-02 -9.624336616416641343e-02 4.196334032118062551e-01
-3.143868177966280958e-02 -1.154350502275313523e-01 4.871102094247728997e-01
-5.837826597416125723e-02 -5.787487866889156479e-02 4.337306316459815791e-01
-2.654036530635746696e-02 -1.182987874018376073e-01 5.370922744688906292e-01
-1.671689750177974068e-02 -1.191080924922209017e-01 4.902782112049441920e-01
-5.224915314923207071e-02 -1.126964150164242590e-01 5.312992383588227563e-01
-6.983745176622851991e-02 -1.034526293574856148e-01 4.276366035475126504e-01
-4.868882139607720594e-02 -2.771763069067509355e-02 4.367356016264053453e-01
-3.557233711255843728e-02 -1.178537221079008629e-01 5.250765467930578190e-01
-4.596659077383942471e-02 -1.022686719217119761e-01 4.502035354565785408e-01
-2.124009027936305666e-03 -1.052241386900662629e-01 4.623107099125946529e-01
1.533148758162607150e-03 -1.087220717074252885e-01 4.664458871587923716e-01
-3.470547728706316337e-02 -1.118429945200362791e-01 4.768339652772785042e-01
-5.396347304853098964e-02 -1.027110889130490867e-01 4.267112694387613647e-01
-3.126082287578174634e-02 -1.186141431633110643e-01 5.258733203609204931e-01
-7.934568171880508614e-02 -1.055058683962022820e-01 4.484591617586868861e-01
-2.958649968397889657e-02 -3.307870101118639411e-02 4.374657365080329430e-01
4.156628990381565705e-03 -1.091089913817516466e-01 4.673538950002774639e-01
-5.416891691015390808e-02 -3.173289346572560204e-02 4.443049869649942640e-01
-4.273544052098964680e-02 -1.171394985753137497e-01 5.162215916516696979e-01
-1.331101613473992598e-02 -6.397423164541816976e-02 4.392529593959733636e-01
-7.734693910235176939e-02 -1.107591756816264233e-01 4.706763294709135348e-01
-9.241475083655192879e-02 -1.080812972718487308e-01 5.058753240088171843e-01
-8.216887264383572476e-02 -9.425858289034037829e-02 4.335021285315622253e-01
-5.099364455875896041e-02 -1.148368336343350837e-01 4.914203824685641209e-01
-1.422678616918041095e-02 -1.229584192187797159e-01 5.270217377231829481e-01
-4.923624545125166937e-03 -1.096448472201249774e-01 4.667667063822510398e-01
-6.190766938892544591e-02 -1.142278841601618994e-01 5.006293939094844658e-01
-6.708786557306289922e-02 -7.699558659388522353e-02 4.280801114912038408e-01
4.746254311236606464e-04 -1.022822056100692600e-01 4.597577852729831105e-01
-5.635157871929290935e-02 -7.086882693177649906e-02 4.262566104140211309e-01
-6.709900991208214704e-02 -1.133137298724674336e-01 4.928795157295610685e-01
-5.036561765000074908e-02 -1.158380821963418961e-01 5.035189108623616683e-01
-6.342804172694221920e-02 -1.131581047877100038e-01 4.869776863981989390e-01
-5.381635814873761414e-02 -1.001757780322079794e-01 4.238128759884729480e-01
-3.355988562889044256e-03 -1.203325126624797264e-01 4.875908270549476620e-01
-1.581134758372543594e-02 -8.314628961879692859e-02 4.441397195711865309e-01
-1.057601559244492756e-02 -1.203597156895940407e-01 4.899534302393104834e-01
-6.136491099572687069e-02 -1.134467470722708704e-01 4.880020793216491293e-01
7.953983575912273573e-04 -1.264293842494301212e-01 5.278925572225779961e-01
-3.860602381447494208e-02 -1.085124457135524106e-01 4.675080107194137247e-01
-5.152213335230218516e-02 -9.441050751886610748e-02 4.253158975131685615e-01
-1.923551183084929589e-02 -1.077295876330569141e-01 4.666739214634384458e-01
-4.474662396324965985e-02 -1.168586070091329754e-01 5.097021744979741698e-01
-5.938535718703804450e-02 -8.396391985404567937e-02 4.227694784194913069e-01
-3.552038212042912119e-02 -1.183183001589844657e-01 5.054704273028335360e-01
-1.024981832585983854e-01 -1.057110301969098470e-01 4.680321301403975731e-01
-3.192293786840041947e-02 -8.673999125471919258e-02 4.423317970891212925e-01
-5.405770919791125922e-02 -6.641927373938807944e-02 4.277549680278244781e-01
-7.176343608266567975e-02 -1.122006213000892039e-01 4.809907080402825441e-01
-9.533474392643592754e-02 -1.070760552584619357e-01 4.645155084560561587e-01
-5.341264731678328770e-02 -1.127813282090722874e-01 5.302675428362237930e-01
-5.159032495347633251e-02 -5.696741309150283455e-02 4.316322965508626597e-01
-3.535008316839529513e-02 -1.173728688122240710e-01 5.290900700042575622e-01
-6.115968964463779078e-02 -1.108629462310699171e-01 4.690373450174672998e-01
-1.049889897351876655e-01 -9.976485412578446621e-02 4.635731260670143405e-01
-3.240466042194650037e-02 -1.188447439877297895e-01 5.042903791832309413e-01
-8.249974399989365437e-02 -1.107340334825793748e-01 4.713060620867136064e-01
-5.501750251830572758e-02 -6.800485995291542796e-02 4.270552746809896938e-01
-1.069251842955878593e-02 -6.010796266337534860e-02 4.386270690315484666e-01
-1.340185676656889882e-02 -6.331621210988312709e-02 4.391209178186548656e-01
-3.587797965328018424e-02 -8.064975832354601137e-02 4.375114032982510004e-01
-6.576400192846994230e-02 -1.094690677882620422e-01 4.626475334328571942e-01
-7.518458172925571170e-02 -1.114543285756031815e-01 4.752671984468304078e-01
-2.348411246578005138e-02 -9.477636155447430322e-02 4.518063489390725662e-01
-4.814752912303579130e-02 -9.724123310061091874e-02 4.377845254616796189e-01
-3.895995882294264051e-02 -1.176220613248885327e-01 5.036636069318625175e-01
-2.150904733910661767e-03 -1.063440561574397619e-01 4.634481199226368475e-01
-4.995432428310522636e-03 -1.249637830371154862e-01 5.308458248238385746e-01
-4.166518013568867862e-02 -9.123816718313866592e-02 4.407762756955058148e-01
-6.608060598375790559e-03 -9.120244518068908179e-02 4.497345100680084085e-01
-2.763903019304185874e-02 -1.191031674304151577e-01 5.293879335150294407e-01
-6.613781042703681390e-02 -1.042090026424677685e-01 4.249550738789529269e-01
-5.784612435644580913e-03 -1.161980399130763675e-01 4.776119231781774110e-01
-7.014203229058801892e-02 -1.112354535098811353e-01 4.728667635460190311e-01
-4.320860533162507178e-02 -1.165621346541788061e-01 4.972308788268189339e-01
-1.042532738422288358e-01 -1.072631663327865553e-01 4.854477540170345495e-01
-3.596476778138098240e-02 -7.693025948677474635e-02 4.357881910621839716e-01
-7.394936196485571434e-02 -9.816577775438187214e-02 4.240359873942678992e-01
-8.036909133036074238e-02 -1.106338937792707283e-01 4.698296750709317626e-01
-6.234598354231764283e-02 -1.126254260802915796e-01 5.225911127074607254e-01
-4.970367639561236450e-02 -1.089157321862803257e-01 4.634189279528151406e-01
-6.887791980765371747e-02 -1.111160670891665758e-01 4.715963621921436810e-01
-3.108093946541238412e-02 -6.448280041736731416e-02 4.361650783290279554e-01
-5.790958830084472209e-02 -1.143558333676986255e-01 4.937772046665207526e-01
-3.807527771305080355e-02 -4.764321223827315543e-02 4.346644427631866647e-01
-2.422809603450846658e-02 -1.209573488845053640e-01 5.135007772790035618e-01
-9.681956574987710118e-02 -1.092357325577012761e-01 4.786860887976761014e-01
-8.314376344325906387e-03 -1.251033302596930019e-01 5.164742360396172849e-01
-1.454455447164241383e-02 -1.090739922955443197e-01 4.673861520241653356e-01
-3.961565791289729105e-02 -1.148213702330502239e-01 4.881739697879472484e-01
-1.031666034597923942e-01 -1.052189328082538955e-01 4.670583483869921171e-01
-1.551158582465989901e-02 -1.101910560081683227e-01 4.696880743805184055e-01
-3.011941377843532081e-02 -1.079008177220502906e-01 4.689364054823104699e-01
-7.294450350991327214e-02 -1.119274930376269878e-01 4.786226025806486484e-01
-4.617425342012042994e-02 -4.620963654127407949e-02 4.340349294822700710e-01
-2.854715983637576976e-02 -1.169480074658182378e-01 4.917097008964971261e-01
-4.791510044764371590e-02 -1.108310127175957949e-01 4.712199505119010756e-01
1.699536201825316197e-03 -1.049717720739458265e-01 4.624954934453479605e-01
-8.293754911739104063e-02 -1.029260032659886220e-01 4.438709672993736421e-01
-8.772836589210508684e-02 -1.110268181929120190e-01 4.829546364588441221e-01
-2.377309976808872696e-02 -1.199659425669243051e-01 5.007169203750762021e-01
-1.025457559359674586e-01 -1.078149220600061187e-01 4.901429804386434608e-01
-5.091290242563984575e-02 -1.115461353836824376e-01 4.732309167587940291e-01
4.833484331658930225e-03 -1.215960895532403052e-01 4.924938687902942758e-01
-3.324981701585111998e-02 -1.168096309017851164e-01 5.362420457640036942e-01
-4.553475979929146739e-02 -6.064295441030737727e-02 4.309340106184513797e-01
-6.405441340148237961e-02 -8.453553330250128395e-02 4.217610755508893750e-01
-7.546342954954651794e-02 -1.120425330865727626e-01 5.069513123243083452e-01
-3.206711426247290525e-02 -7.673211614963226790e-02 4.377449358594072137e-01
-5.634937423792951011e-02 -1.005318149838707875e-01 4.211704016161812447e-01
-4.669972515084341858e-02 -7.936373277283806371e-02 4.289205762220562046e-01
-8.640104430506190258e-02 -1.103830493313490285e-01 4.713461835843857917e-01
-4.980098419139075000e-02 -6.136279250655771178e-02 4.300762185903076462e-01
-1.053237458782039643e-01 -1.029415500771226205e-01 4.673724900954354666e-01
-1.319692901401188501e-02 -7.101131394426909993e-02 4.406926944002863555e-01
-7.279908925719782986e-02 -1.122045653649227925e-01 4.813737710969386296e-01
-2.511846993533690953e-02 -8.993921345986678750e-02 4.464269934292910968e-01
-7.396392227554718368e-02 -9.959335908644802171e-02 4.251248443249852627e-01
-1.916847992613215576e-02 -9.459936480731344355e-02 4.513056611539926211e-01
-7.218202936794822222e-02 -1.043157095980014742e-01 4.357854434969036794e-01
-4.839897359538024302e-02 -9.709977652543755333e-02 4.363942417692587838e-01
-6.496980855500625492e-03 -6.069764210102064628e-02 4.386140467355318373e-01
-2.298537765901139535e-02 -5.509902604896752681e-02 4.375716816678372756e-01
8.140781576607858828e-04 -1.263637114126675565e-01 5.117603254669478297e-01
-3.666993845862030754e-02 -3.563656570498491272e-02 4.355089059290647158e-01
-8.912785604668373163e-02 -1.088940857253239830e-01 5.058500155686356248e-01
-8.184784421158351753e-02 -1.061529643826204100e-01 4.521918632584619457e-01
-3.721076730243311897e-02 -1.159348573323465831e-01 5.360099101320575654e-01
-2.083214295332606533e-02 -9.966149879606141238e-02 4.571291453017624073e-01
-6.309105338621856518e-02 -9.733228158293706633e-02 4.204871919322026863e-01
-1.056963352350910740e-01 -9.398427492723307464e-02 4.670199773422816780e-01
-2.146154644978703202e-02 -1.208918707867022435e-01 5.036729986203829501e-01
-6.666529275051912007e-02 -1.101397004048078609e-01 4.661194735617352758e-01
-3.421531768991750017e-02 -4.974373141698558431e-02 4.354801768547845731e-01
-1.577138394676629377e-02 -5.017581059361302803e-02 4.383886025218373117e-01
-4.744100172399970394e-02 -3.744010048767355131e-02 4.357575122236146403e-01
3.153482728386990033e-03 -1.195522295099293864e-01 4.859697173532416814e-01
-2.920134544153298387e-02 -1.196584560487083670e-01 5.084992495150238989e-01
-3.516422260559287638e-02 -1.107772076232629299e-01 4.741569853312475047e-01
-2.903085515436323958e-03 -1.261528889164427736e-01 5.208997617885205988e-01
-4.210446532860634417e-02 -9.852650468684649721e-02 4.471982393562427549e-01
-1.835721248107713768e-02 -1.132523079619432438e-01 4.771771507022196657e-01
-5.472798668827868335e-02 -7.048522767238001030e-02 4.260589593223362836e-01
-3.118340108790856879e-02 -1.191782924663404436e-01 5.061428975184151247e-01
-5.627105716280300651e-02 -1.069619032812939990e-01 4.539829417970231429e-01
-4.574300776063307955e-02 -1.136378868923591107e-01 4.848703347974627209e-01
-6.444176493024721120e-02 -1.058980942545292431e-01 4.382436171754526821e-01
-4.742822054619418026e-02 -3.302887795090601875e-02 4.357845902192861720e-01
-5.384916429932704030e-02 -1.131770050678280182e-01 5.284926773264956301e-01
1.187834624600112108e-03 -1.209566552616337942e-01 4.897496367562756414e-01
-5.959335533613035335e-02 -1.106553210283106881e-01 4.681247405484129653e-01
-1.020503558429671775e-01 -1.059574193466715775e-01 4.683638585326013182e-01
-2.176231724139968821e-02 -1.213752462583915781e-01 5.095322111997245829e-01
-7.515667457158886448e-03 -1.079025834915882665e-01 4.644924498884877018e-01
-6.792839081282962821e-02 -1.070291063497839784e-01 4.508717516909018785e-01
-8.781562542534414317e-02 -1.073961084654228987e-01 4.593612495863357847e-01
-3.104850875058178666e-02 -7.161216439525604216e-02 4.366633471607118677e-01
-5.934194851593698611e-03 -1.187417977733381813e-01 4.829325396291858086e-01
-6.028584728529343129e-02 -1.142707650736509428e-01 4.965114352703092759e-01
-2.102767716570400069e-02 -7.470804330083265221e-02 4.401089106595190148e-01
-5.889218258865271116e-02 -9.806437039557024116e-02 4.213879906810365505e-01
-6.279412997815878028e-02 -1.126742684715508341e-01 4.816068173403266761e-01
-8.175234470604746118e-02 -9.341701296149648726e-02 4.328240553067014829e-01
2.472332765910266461e-03 -1.174609936247930225e-01 4.805600597579082756e-01
-1.449814042227592220e-02 -1.201438860489709437e-01 4.916096744634153581e-01
-3.437522010910496612e-02 -1.175202211191370277e-01 4.965749516684508924e-01
-1.155940263996348139e-02 -1.242718830924680051e-01 5.176336388134860078e-01
-8.931194280785151318e-02 -1.092531904340017512e-01 4.680783910198950126e-01
-5.685295169157026512e-02 -1.145423379097300631e-01 4.946753708719180409e-01
-5.475281550966012295e-02 -1.026753071512567228e-01 4.399771538986173014e-01
-9.259751846785047036e-02 -1.083211791163255083e-01 4.671410319543049527e-01
-2.188098996201417665e-02 -5.540168630910437958e-02 4.376884500326906902e-01
-5.429722770533308707e-02 -3.718027274048441716e-02 4.423082636993235783e-01
-8.958528645193383419e-03 -1.113689932761276619e-01 4.696480559808579591e-01
-5.863063253681995851e-02 -6.267219605347332245e-02 4.314756472582176317e-01
-3.441508443546621027e-02 -1.178990247244572492e-01 4.995889260947324884e-01
-2.182461733314596669e-02 -3.964085667394667140e-02 4.386288669239024607e-01
-3.191660058797862048e-02 -1.174567407916023709e-01 4.950045896129179890e-01
-5.219155264267975880e-02 -1.155808040815499010e-01 5.031376859346151642e-01
-2.554131460917882790e-02 -1.163505521406113935e-01 4.884578479599755996e-01
-9.593600215665618047e-02 -1.055912184672515852e-01 5.101454116116295179e-01
-3.742528556889619662e-02 -1.177286125885046442e-01 5.019738126264364775e-01
-4.322825172345082234e-02 -5.202177640925688407e-02 4.336188465313188800e-01
-1.102331840831027032e-01 -1.019685196559951684e-01 4.804199940505073929e-01
-5.372108555509116923e-02 -3.406380496083788456e-02 4.410750760553081018e-01
-4.850849406234595401e-02 -5.465913883386495226e-02 4.326030537621947669e-01
-1.030732651469204453e-01 -1.056803857968726945e-01 4.687856367024562099e-01
-1.566377689873042767e-02 -1.186675048255309006e-01 4.880365998540271422e-01
-8.699875737665387077e-02 -1.095629681755868612e-01 5.055621976791183636e-01
-1.894784868402049974e-02 -1.093901949663356465e-01 4.695660961486783358e-01
-4.096018220678859095e-02 -5.721650189109801776e-02 4.331436572321732403e-01
-8.977686888933655851e-02 -1.107580114471301419e-01 4.878325732680655613e-01
-1.075054001558059524e-01 -1.027375201574185354e-01 4.729800236026232563e-01
-2.020102217853215337e-02 -1.208595016855047583e-01 5.305891461541731857e-01
2.318018503192048607e-03 -1.259128934188781523e-01 5.327688448002552146e-01
-1.626685560812560910e-02 -1.126991235158087828e-01 4.747986001591559257e-01
-7.495843937577884031e-02 -1.034217913391713567e-01 4.342556312502512950e-01
-1.094614613300118056e-01 -1.034069781430021623e-01 4.996060887786861193e-01
-1.577353624409312885e-02 -1.224320577403966437e-01 5.282995943977365494e-01
-3.071890799299058575e-02 -4.550368068924313947e-02 4.369511326087454628e-01
-1.758836887835349763e-02 -9.909924184882736020e-02 4.561220414007433610e-01
-8.515412857851144268e-02 -9.008953675657341287e-02 4.404596613344066158e-01
1.339297760318665376e-02 -1.260637795594332644e-01 5.349168655160687624e-01
-2.416561126240247132e-02 -1.198223479363960675e-01 5.304849209680432276e-01
-3.486338246743553391e-03 -1.042284189381720017e-01 4.611588136639357405e-01
-8.857042135094378432e-02 -1.099476980224256689e-01 5.006836544704994507e-01
-5.949003101066025617e-02 -1.122589909310905826e-01 4.764274971589780305e-01
-5.181665093103243053e-02 -1.060640355767000220e-01 4.536633583273209647e-01
-6.661902162026221708e-02 -9.714738840645588402e-02 4.197522493988907755e-01
-6.892111869288743142e-02 -1.062819532820986901e-01 4.463658645475938602e-01
-4.558107200866207825e-02 -8.196905577120633390e-02 4.299350348061395932e-01
-6.286216684910736485e-02 -1.083705911293474933e-01 4.571768794923156132e-01
-5.320698829656077961e-02 -1.075016524565180626e-01 4.582870721099542854e-01
-8.004217694679777173e-02 -1.119649413365182283e-01 4.917568795999259224e-01
-5.089235825921516188e-02 -1.120087680837967975e-01 4.757648073019836166e-01
-5.875879789298366768e-02 -7.705555179575403202e-02 4.242299296241338613e-01
-1.611817609030846699e-02 -1.229152343689814408e-01 5.207452991329959424e-01
