-4.588583354408257153e-02 -1.117105482668368094e-01 4.747553493633969168e-01
-2.169279163206921240e-02 -9.424973154649157747e-02 4.511453288587380372e-01
-4.848993981777254686e-02 -9.073469346396090263e-02 4.278308117994127358e-01
-4.637067674274538559e-02 -9.977710372841050446e-02 4.442472795304744371e-01
-2.377903204612715274e-02 -1.177592644563581065e-01 4.921590038778732024e-01
-9.923695104068099015e-02 -1.076014779224995777e-01 4.695546573610485108e-01
-8.878649496698648447e-02 -1.099537258675524487e-01 5.029456679725404777e-01
1.050619569742362262e-03 -1.145253393190242136e-01 4.747340447023728482e-01
-6.355364722285899992e-02 -9.859775046954132038e-02 4.204235283396576817e-01
-8.518495903287422177e-02 -1.109598585901611506e-01 4.711133016091327841e-01
-1.043668986590865627e-01 -1.017594658177174149e-01 4.634786088996100117e-01
-2.270746090184673147e-02 -1.212049411218296124e-01 5.192333583223882609e-01
-5.252777723581091712e-02 -2.905495862364887438e-02 4.391950998740774548e-01
-8.505307113397483909e-02 -1.108509240807168672e-01 5.016671915611207178e-01
-1.634824642564932859e-02 -1.116882958632738621e-01 4.729034128404854265e-01
-1.693137021249473129e-02 -1.028626605473841882e-01 4.597876606112166198e-01
-5.160216886234904494e-03 -1.219471119456695812e-01 4.932694097049029058e-01
-3.032494794838658941e-02 -8.279524792138308331e-02 4.407788009100660487e-01
-5.460301004191858015e-02 -4.777074813361607136e-02 4.353302915905771786e-01
-3.985852299410894833e-02 -1.171314327201107147e-01 5.249647204338210305e-01
-8.991530096411314010e-02 -1.025446880384856124e-01 4.504297362811427452e-01
-9.097642563955438133e-02 -1.102216343361346884e-01 4.719721744409360320e-01
-3.347836618240294937e-02 -1.156241202695322268e-01 4.879403360678498114e-01
-4.690962745174986209e-02 -1.154696273711931787e-01 5.258729770442851503e-01
-1.637993035373740830e-02 -1.195244643441253501e-01 5.437519969822517396e-01
-3.611822375523936202e-02 -8.201497233568745548e-02 4.377655162268780931e-01
-4.051269684806185073e-02 -4.305880650565405143e-02 4.344964497820814064e-01
-5.915148245701359886e-02 -1.061351023853359943e-01 4.262805519382947272e-01
-3.806820042802083054e-02 -1.162233621912131115e-01 5.335754935834271517e-01
-4.133365549981678905e-02 -1.162696096875769775e-01 5.281424492420558892e-01
-3.592193682525643417e-02 -7.480956450030790128e-02 4.348288732573016846e-01
-4.837974744716799780e-02 -3.571835602739101972e-02 4.364512503620827655e-01
-7.997695059752280011e-02 -1.036875302121708087e-01 4.401286972554515065e-01
-5.111439791748573908e-02 -1.159160349850994337e-01 4.998503005042265190e-01
-5.340870894273739428e-03 -7.166271243080464537e-02 4.418071481611632878e-01
-4.348259193880642248e-02 -1.143408061835584633e-01 4.862193763594405138e-01
-2.829238029868967087e-03 -9.960286178054457429e-02 4.568922306555945334e-01
-6.604734586558520804e-02 -1.121871819931122977e-01 5.212532315942759453e-01
-6.803269504389267142e-02 -7.978022861380175412e-02 4.270657263616076116e-01
-8.502440023879029307e-02 -1.074823284334765344e-01 5.158636760729367055e-01
-2.044856735688457133e-02 -1.217589110087418519e-01 5.100220496258888181e-01
5.053855279123861503e-03 -1.221465152035619145e-01 4.940358413395324888e-01
-2.794454291144674030e-02 -1.189580459007611862e-01 4.990302085531733156e-01
-3.836770191747346237e-02 -1.119050188184843031e-01 4.771778726887458411e-01
-4.884253439788596024e-02 -3.669632931315959523e-02 4.366128053882157856e-01
-2.791986473481249467e-02 -9.544271950114095737e-02 4.511669150617257373e-01
-2.399092710416014101e-02 -9.718305793624378019e-02 4.541215661859652752e-01
-3.441306825939235980e-02 -1.111843606505851650e-01 4.746563471978553772e-01
-1.121551188318219705e-01 -9.759932722812536543e-02 4.787431427238402759e-01
-1.735445060142225965e-02 -4.274663286975065313e-02 4.384206835582556971e-01
-4.061251618590475121e-02 -9.173957918397486477e-02 4.415193051873391727e-01
-7.844100836306126465e-03 -1.162756397261881514e-01 4.779609720776704096e-01
-2.288860263147124083e-03 -1.252498085807363937e-01 5.071440188805714788e-01
-5.053139043151828186e-02 -4.766332897217336745e-02 4.344792179624034634e-01
-5.114544432036045168e-02 -1.084265341098809565e-01 4.604707214596463483e-01
-4.983804724887462567e-02 -3.826716042772047854e-02 4.364959207887170733e-01
-8.561012442926067140e-04 -1.126693787200891833e-01 4.712621458505190097e-01
-6.406352578489800907e-04 -1.236656748918734949e-01 4.983443234512029418e-01
-2.376804465097064750e-04 -1.261929531766650958e-01 5.117132964066146705e-01
-2.458224143344284879e-02 -4.211533372905842953e-02 4.386556274107707432e-01
-9.701013158863866503e-02 -9.469496374234387392e-02 4.546870132275865339e-01
-1.000506776101907219e-01 -1.084415551054162818e-01 4.957445366937636155e-01
-2.491441078178405211e-02 -6.682761546504084604e-02 4.377135136529245463e-01
-9.919994356174097194e-02 -9.832431222718437946e-02 4.573302071663067347e-01
-1.039243721132233345e-01 -9.887412957721228302e-02 4.613773258487104956e-01
-4.968345995442733504e-02 -8.270610334213193693e-02 4.267098916697497635e-01
-4.706980988840570729e-02 -1.122552150060104476e-01 4.768100538749118211e-01
-7.857186076186585544e-02 -9.718297517092629179e-02 4.274332278099199356e-01
-1.178846566477859820e-02 -6.837547778742808502e-02 4.403541992200598054e-01
-1.092781043283999748e-01 -1.043906142540164395e-01 4.874169439235824797e-01
-1.255321678242516358e-02 -7.966587027382135422e-02 4.433087561667551912e-01
-5.739020360137755961e-02 -1.151039043211290747e-01 5.014817475473553054e-01
-2.608112197956279771e-02 -9.259617162994997208e-02 4.486748736961618245e-01
-4.123124675253810739e-02 -1.176027447102220430e-01 5.094065947707607789e-01
-2.029752568609941368e-03 -1.259303903403554969e-01 5.117261447343043335e-01
-5.746066313397166919e-02 -1.095128016920545178e-01 4.617306229156055153e-01
-2.356697204431565471e-03 -1.065373992549415172e-01 4.635701949459656301e-01
-1.047776637758787432e-01 -9.732960733295355216e-02 4.635470294976037353e-01
-5.145284522966451363e-02 -1.158524998086928604e-01 4.995728109919827520e-01
-3.562157146503307226e-02 -1.154138806181178589e-01 4.880687155976913827e-01
1.920595323079731572e-04 -1.015309992928487837e-01 4.590437357405261487e-01
6.398333206987253698e-03 -1.269779726793270058e-01 5.231118512459212999e-01
-6.559635410323905180e-02 -7.388241393307085070e-02 4.285844181167540734e-01
-1.916014572677811334e-02 -1.111582388941189242e-01 4.730227491383707239e-01
-5.292224337942326440e-02 -1.141193319846190851e-01 5.258946507103218204e-01
-3.115410240398355790e-02 -8.066768790131709221e-02 4.393793926797561755e-01
-3.633166312669804717e-03 -1.241893018828877371e-01 5.014955129785816368e-01
-6.547496153912785166e-02 -9.461897375104866281e-02 4.193077757275499029e-01
-5.884129738858721696e-03 -1.046012906518916930e-01 4.610147400466592660e-01
-1.737674476066023571e-02 -4.362810184390722434e-02 4.384646310202421349e-01
-4.970665949178015158e-02 -1.120178152374460001e-01 4.743406916251998728e-01
-5.126865011957516989e-03 -1.079680320692125856e-01 4.647517135547127864e-01
-3.780474921849857894e-02 -1.181425593608151636e-01 5.166385657376076912e-01
-3.230552502968998124e-02 -6.595315731360472389e-02 4.358999643895343779e-01
-1.638076356331445022e-02 -1.061567171002447685e-01 4.634502566877705121e-01
-7.002266902367561274e-02 -1.134512213991736157e-01 4.969781605806997682e-01
-8.666227630556001815e-02 -1.091485852645694143e-01 5.091266292408621608e-01
-7.515845903778184400e-02 -1.071568027577256277e-01 4.505735154030671707e-01
-2.534317390582535405e-03 -1.246189501562219859e-01 5.339130295689762384e-01
-5.113181772281457510e-02 -1.013099467674390824e-01 4.340533204107587251e-01
-1.638852510141938085e-02 -1.199087791512905288e-01 4.922844760497340766e-01
-1.557593044326401055e-02 -1.198172927645591579e-01 4.911741140789885329e-01
-7.377287548248084859e-02 -1.127633128313623445e-01 4.874674827643920572e-01
-5.850841890650392008e-02 -1.011900477994690378e-01 4.213399945630942334e-01
-1.266289921102111381e-02 -1.207975274779734681e-01 5.419911371139179979e-01
-3.977610916103612587e-02 -3.647692935335821590e-02 4.348787086391371348e-01
-4.518805953312497042e-02 -6.637754870670799223e-02 4.303307101993415484e-01
-4.608233420184398160e-02 -1.168000869112583717e-01 5.121297584921874479e-01
-2.466770662571966984e-03 -8.538094333738018016e-02 4.476120433387765774e-01
-1.078632317599312190e-01 -1.040956906652264757e-01 4.771814820482034314e-01
-2.781871035781940601e-02 -8.536882706125688280e-02 4.428593495546836456e-01
-1.481353994755228200e-02 -1.071273478907890930e-01 4.642110264607731684e-01
-1.207390477603080374e-03 -9.254670622369517985e-02 4.514991477770458617e-01
-3.667234462375394688e-02 -1.032311554525758984e-01 4.583617556727755948e-01
-5.154447453340425811e-02 -1.026862145600511006e-01 4.360382606363848446e-01
-4.413079828747568795e-02 -1.163909497608126703e-01 4.952890678401633551e-01
-3.293101466496336366e-02 -1.191493163382798398e-01 5.120331366926557104e-01
-4.627295832514501800e-02 -7.458624583368052285e-02 4.291825215552733663e-01
-4.859614760054048466e-02 -1.153771135778748069e-01 5.245362096610256541e-01
-6.402821458827970269e-02 -1.065512605983946759e-01 4.333978309643463089e-01
-7.843897111337981565e-02 -1.090070037560672556e-01 5.192367123736508772e-01
-5.309120176868750013e-02 -7.736981410171117624e-02 4.254444210681232463e-01
-4.996219905835409814e-02 -9.148576396978799763e-02 4.266406985345965741e-01
2.710952959093937496e-03 -1.229923267804604592e-01 4.961035249876453723e-01
-4.212523023417478335e-02 -1.142537096754902004e-01 4.857024957923077313e-01
-4.906516229393345641e-02 -1.150398524133333100e-01 4.899559268775370291e-01
-3.883169553916864664e-02 -1.087374241068188030e-01 4.670654199514881477e-01
-9.170005124674475427e-02 -1.091941613883593842e-01 5.038683205536673704e-01
-4.363862908070707120e-02 -1.169667765825604389e-01 5.017447271869989178e-01
-5.095023110959520651e-02 -4.892542637456364502e-02 4.343398967672884026e-01
-4.189777573774620956e-02 -9.606476148472067877e-02 4.444704898836143725e-01
-3.763400617029169504e-02 -7.263268720416257707e-02 4.338413863371806678e-01
3.919512693872692806e-03 -1.206743888777297991e-01 4.889760638558335315e-01
-7.537660811167742891e-02 -1.069129876731458872e-01 4.496942100118159757e-01
-4.921106360533304691e-02 -1.107465644719987791e-01 4.683232397856323947e-01
-2.261174950530643254e-02 -3.833245623572156119e-02 4.385658186791208113e-01
-3.200040519211302253e-02 -8.530496112466728897e-02 4.414137972808787058e-01
-9.004962525495527337e-02 -1.049083699840791806e-01 5.173050235314172740e-01
-6.618969694393517234e-02 -8.678202886137459382e-02 4.210875126212467179e-01
-7.206839576215730292e-02 -1.110199686363853439e-01 4.687849955149417935e-01
-5.249768477337315997e-02 -2.975362224358683513e-02 4.389596450037909769e-01
-4.048863855944391521e-02 -1.170020501036975191e-01 4.985292347622016784e-01
-6.974776040107517894e-02 -1.120628855715857797e-01 5.181368818524584308e-01
-3.989402037508752580e-02 -1.177931201132989270e-01 5.143802291927173087e-01
-4.004426512539856209e-02 -5.878405859408834810e-02 4.334797878525167847e-01
-1.094288559325926752e-01 -1.027918163609846253e-01 4.791590479150921178e-01
-7.844353831600635665e-04 -1.209332538499841986e-01 4.892963673022788229e-01
-7.251200931669235517e-02 -8.959817047252720268e-02 4.217881483471165316e-01
-1.368758779433101869e-02 -6.006058040729571335e-02 4.388243509679836118e-01
-6.242107987506131939e-02 -1.137478237268563230e-01 5.183677085657015793e-01
-1.283261877929460200e-03 -1.263335611744750564e-01 5.156762640545160536e-01
-8.124284363557562373e-04 -1.236705707353765310e-01 4.983652012644412266e-01
-1.036546787573962847e-01 -1.060624053794336080e-01 4.694050167078439029e-01
-4.735803300590724074e-02 -3.584679238958395769e-02 4.357490827383219689e-01
-7.813111790970704573e-02 -1.062670967202625077e-01 4.485585126560658331e-01
-4.799060974409433133e-02 -9.556230224178911825e-02 4.315984269196774248e-01
-2.924363764162655338e-02 -1.071187200109073173e-01 4.674566443721226427e-01
-5.208841805588368401e-02 -7.896052066553901905e-02 4.255402784851456954e-01
-2.180336676597661311e-02 -1.019939119425326002e-01 4.599035335887591835e-01
-2.689269002276597695e-02 -1.177686127240195890e-01 5.394875298897210403e-01
-6.878223548706585699e-02 -1.122530180255310317e-01 4.766703187515531348e-01
-1.305027328783946172e-02 -6.682211491303402529e-02 4.398903401860668194e-01
-2.428983144228611182e-02 -8.704857595682226334e-02 4.445634377006388860e-01
-4.930109596945050909e-02 -1.135577356874908211e-01 4.823046309180937796e-01
-1.949631771008091333e-02 -1.125784320807657612e-01 4.759233712899603175e-01
-4.537556819252389073e-02 -1.161004407354160467e-01 4.944784828850964375e-01
-8.334799559255019405e-03 -1.246674032222843398e-01 5.258970121240692519e-01
-7.121053689974121692e-02 -1.128732617672811162e-01 4.852944731820005297e-01
-4.354723509744542337e-02 -1.171078642860651775e-01 5.055930469996756660e-01
-9.406003867545906227e-02 -1.103607215301338207e-01 4.842821719672835701e-01
-5.187081139276204095e-02 -3.495429783913148875e-02 4.382421050585860178e-01
-4.681092391635290062e-02 -1.156147936146895566e-01 5.252099578481844722e-01
-1.017160658452967437e-01 -9.658151404458439893e-02 4.601552815513711980e-01
-1.107355850748914100e-01 -9.821533598058646009e-02 4.760578066953695675e-01
-5.556076343942564777e-02 -1.024622402545341399e-01 4.221050889003647999e-01
-4.447606121511429866e-02 -1.169801041364145616e-01 5.057682957467662943e-01
-4.250195800268994489e-02 -8.975300501017979826e-02 4.372070096015157059e-01
-1.268030044918726056e-02 -1.023036903256786395e-01 4.582750191326225297e-01
-8.155621988786959653e-02 -1.106929753371971720e-01 5.079366873710379204e-01
-4.567718192993141385e-02 -1.162099695862415655e-01 5.228723456114660051e-01
-2.154343220026503497e-02 -1.118958123112468450e-01 4.752017887581935773e-01
4.471659281418656831e-03 -1.036968083510547700e-01 4.614434442477962639e-01
-2.942660493810319092e-02 -1.147045734383191767e-01 4.834292295207218149e-01
-5.360189800806906824e-02 -1.152258375189905842e-01 4.955949780765016577e-01
-3.314881133189735707e-02 -9.414119752903481186e-02 4.475695972870908923e-01
-5.969396364898729712e-02 -1.054870975791492443e-01 4.221950558420415334e-01
-9.976872540752187990e-02 -1.090055934322832071e-01 4.852586624619484312e-01
-1.004453287232273534e-01 -1.088005858082758681e-01 4.874767385601070924e-01
-8.438589566334431247e-02 -1.067184094044739129e-01 4.540108495598534355e-01
-7.812379070723794727e-02 -1.044107443579096600e-01 4.393605639869800350e-01
-5.698017571464478181e-02 -6.625210168931439103e-02 4.290887999393344643e-01
-5.492105229010171841e-02 -4.128434767554278045e-02 4.418446550728479805e-01
-9.081350500688936678e-02 -1.106734945029674705e-01 4.750362239042882906e-01
-2.619557908480553421e-02 -4.136169261768977284e-02 4.382957115415563876e-01
-1.729622846026409103e-02 -8.911848585959551705e-02 4.467152323442749040e-01
-3.690061764635901159e-02 -1.182705977323354612e-01 5.071694528132540958e-01
-1.071004473780860083e-01 -1.028079352045662698e-01 4.713284070179318275e-01
2.749679072642043087e-03 -1.090225143645956740e-01 4.669031567141745387e-01
-8.435642247606192634e-02 -1.114867908866201823e-01 4.752740760891802640e-01
-5.872731780190679207e-02 -1.066631232186908279e-01 4.475097224724535194e-01
-2.346169546349279739e-02 -1.201744483448393824e-01 5.291680991236998866e-01
-8.217597441360566246e-02 -1.106890595037212238e-01 5.072512815032221845e-01
-2.751251987001387261e-02 -1.107815231286380514e-01 4.739926249342223952e-01
-4.993228877948984595e-02 -1.007498676441122426e-01 4.405422575617533587e-01
-1.985227294622154623e-02 -7.370266061787562883e-02 4.401079226882549378e-01
-8.397206311145721802e-02 -9.810815083598982411e-02 4.394490185371213165e-01
-6.575983382932252402e-03 -1.238106499765883328e-01 5.015261070583162395e-01
-2.473044517088401201e-02 -1.155412904785485667e-01 4.851794284301889082e-01
-3.639543538764906938e-02 -1.152974130913295425e-01 4.879865777987034137e-01
-6.485627655458374441e-02 -1.092351319038377816e-01 4.590534824727173779e-01
-3.662467590579017440e-02 -1.145986299282566595e-01 5.425341215654980731e-01
-9.664023156066507692e-03 -1.134381278811998489e-01 4.730526963408768215e-01
6.627444754192185830e-03 -1.262704844605263832e-01 5.324740360426992725e-01
-5.942800740170850471e-02 -7.343718537653237677e-02 4.258469136407769251e-01
-1.020460467171708657e-01 -1.083564089804120445e-01 4.900870803105365492e-01
-5.341210914562922324e-02 -5.689536483792981963e-02 4.317908377215539106e-01
-9.192195092223864189e-03 -8.108611208060825803e-02 4.445031449600568285e-01
-8.469963462095707329e-02 -1.084477607738126154e-01 4.597101894906330255e-01
-5.483634035616559432e-02 -1.057027510696435524e-01 4.305524487777228071e-01
-3.073295405427996230e-02 -6.664259387107698829e-02 4.364023051110491047e-01
-3.392252145051457418e-02 -1.132713205795496253e-01 4.803458880531459307e-01
-3.235862341485146176e-02 -8.629717996022845394e-02 4.417897772482179408e-01
-7.114762357302882589e-02 -1.132005749222706192e-01 4.930754873236402047e-01
-9.031858948262605491e-02 -1.042617111563908655e-01 5.185994879428718063e-01
-6.242267211920749653e-02 -7.496198564270854792e-02 4.258380912815903918e-01
-9.531364777402620558e-02 -1.100159723190540090e-01 4.915293845506709669e-01
-7.403306542932379386e-02 -1.091590435729805214e-01 4.593003915616872268e-01
-8.202711148491664828e-02 -1.114966464624701642e-01 5.013366635371663271e-01
-9.668686296270959102e-02 -1.072868418528255680e-01 4.648338141674360213e-01
-9.914538303486385151e-02 -1.059136081049616290e-01 5.066911529349201748e-01
-2.537255611541017544e-02 -9.221249850172559548e-02 4.484303217708479061e-01
-8.123070830316300728e-02 -1.121510511310279262e-01 4.941798557679228932e-01
-1.022313389481771251e-01 -1.027060561464896576e-01 4.613002244574263555e-01
-7.350453711159757320e-02 -1.106286297607226715e-01 4.666305769043929685e-01
-4.892238719457817075e-02 -9.926220274371186369e-02 4.376734041824337229e-01
-7.535854534785965328e-03 -7.410911616106061195e-02 4.422949010941035208e-01
-6.224423279114958685e-02 -1.075215840405701478e-01 4.484820352746048400e-01
1.455334142514463219e-02 -1.250579564193288751e-01 5.386377129975852274e-01
-4.235606932966531901e-02 -1.167752584468682298e-01 5.235938011355221189e-01
-2.029198394561453414e-02 -8.201021769451843912e-02 4.429523638206488978e-01
-9.374113261723772406e-02 -1.101514944661482892e-01 4.751322006171475598e-01
-1.608983105167848329e-02 -1.189521295865766798e-01 5.459291212253207792e-01
-3.153798134343627126e-03 -1.066665004410062706e-01 4.636157318746947920e-01
-5.306212313525690560e-02 -1.124621706841898716e-01 5.317404641237581941e-01
-6.902639302773243279e-02 -1.111370704571703338e-01 4.689689453467081881e-01
-6.529224239078909586e-03 -1.235287348087985293e-01 5.348885694293370463e-01
-1.084403421949927879e-02 -1.244216858927711944e-01 5.186609856830424192e-01
-8.955869158584887912e-02 -1.112131640855472114e-01 4.896472590530481228e-01
-8.330822472231555476e-02 -1.119804905446994542e-01 4.915410313934611697e-01
-1.114556459338273894e-02 -8.992451043266043442e-02 4.481626880632713639e-01
-7.946394907476149461e-02 -1.077015074489667407e-01 4.547919455158405122e-01
-4.836003412999779344e-02 -1.124883925007878344e-01 4.773999155041984688e-01
5.404052381551087934e-04 -1.144145359614093804e-01 4.744582370876074262e-01
-4.273490789249383831e-02 -8.292577130318075362e-02 4.331037906760808465e-01
-5.246607802674602486e-03 -1.172184463661495868e-01 4.794112123407608395e-01
-5.117411377101484943e-02 -1.018469996618006357e-01 4.432057256898011000e-01
-3.563047448985096066e-02 -1.155390164926815844e-01 4.885384035582575057e-01
-1.028634696023040807e-01 -1.022655904911259211e-01 4.613492129050287827e-01
-5.464619315583791465e-02 -1.149194114765930835e-01 4.934856412304811091e-01
-6.769478058978209423e-02 -8.188091862978236213e-02 4.252785029198541955e-01
-9.864882395186072572e-02 -8.901183970137362123e-02 4.622585380208123484e-01
2.498661874200109115e-03 -1.260169197613184577e-01 5.323408336844797084e-01
-5.431969940183881129e-02 -4.490855884611291704e-02 4.378080248875298452e-01
-5.173255952361570376e-02 -4.108545061262341286e-02 4.363255621405456308e-01
-3.607564343822720898e-02 -5.457692691149499536e-02 4.347911607748777274e-01
-7.503391273211647283e-02 -1.117604656845066491e-01 5.117515964797678674e-01
-8.343846730833258396e-02 -1.116778891903769111e-01 4.980119411606134250e-01
-9.364677547559017989e-02 -1.101945279160940205e-01 4.754983661014917651e-01
-3.852886835499361173e-02 -7.421347925669385948e-02 4.336407526026663239e-01
-4.979350470158858816e-02 -1.085322236720412253e-01 4.613045014474378425e-01
-3.712335647115627690e-02 -9.369256104291388831e-02 4.452998472018663834e-01
-6.440772975720011721e-03 -1.250859595789928502e-01 5.262572542067387449e-01
-3.728987103075191017e-02 -6.897762375337189444e-02 4.338909228016018527e-01
-5.342074181022223034e-02 -1.118498866499875732e-01 4.716529423695912659e-01
-1.509923420034407424e-02 -9.170580773826070287e-02 4.485896483970470694e-01
-1.247501304431189624e-02 -1.212665928387150205e-01 5.404874905808757513e-01
-4.155152090323265685e-02 -3.292870907721031498e-02 4.351353654417237093e-01
-6.726124431851279728e-02 -1.081291092949727278e-01 4.541667569993692033e-01
-4.599013056331824334e-02 -8.263542745057902983e-02 4.295373688810297796e-01
-7.642534573000869802e-02 -1.101575568354322271e-01 5.176933361740514439e-01
-4.387528879126408737e-03 -9.288603555134748724e-02 4.511766393187576218e-01
-5.324967866039379688e-02 -5.609645754739967655e-02 4.320638464614302010e-01
-1.331674321120377390e-02 -1.123818852727637430e-01 4.724505726069594402e-01
-3.389234939813408343e-02 -6.861979847210120109e-02 4.352821373881307077e-01
-1.487439059654202880e-02 -9.458811644622709680e-02 4.510170487771180681e-01
-3.246027707820849789e-02 -7.623351255503786617e-02 4.371796963221990517e-01
-2.653278675960694596e-02 -1.019296365473950222e-01 4.598183117821277310e-01
-3.474567990860377709e-02 -1.181911637215783406e-01 5.012025513105667907e-01
-3.315228349545191328e-02 -1.181306151242949437e-01 5.274451717893183789e-01
-5.582839489268610206e-02 -1.135845578517020449e-01 4.835684519064771258e-01
-3.556069159432326265e-02 -1.175915684680224477e-01 4.973995945227867588e-01
-8.716418333837741561e-02 -9.691155699033912607e-02 4.420581421196938532e-01
-5.380581769358304400e-02 -1.034260668717314618e-01 4.371057727253166991e-01
8.489647182910663517e-03 -1.240166033463890455e-01 5.016309165255334879e-01
-9.645687036518053870e-02 -1.055188984586041684e-01 5.106609500866104989e-01
-4.716148748562729726e-02 -9.762453273116812602e-02 4.400916358294918451e-01
-2.711475074393336973e-02 -1.202605315090346100e-01 5.154765483283361149e-01
-3.046912069611577845e-02 -1.183095422840640953e-01 5.312426740341045228e-01
-9.103524442741148248e-02 -1.109543963711955572e-01 4.890340319344413933e-01
-5.354949153144416413e-02 -3.835080872494519427e-02 4.388107483934232111e-01
-8.053028500039115245e-02 -1.103534831457751858e-01 5.114353776331892476e-01
-1.959301468903696525e-02 -1.053195880050592226e-01 4.633300130363040559e-01
-6.742970095815413803e-03 -1.243325461743024080e-01 5.315965083996238016e-01
-6.956722988428258592e-02 -9.490879110383763917e-02 4.188036290518223348e-01
-9.940413890438421288e-03 -9.125300727368682030e-02 4.491026571749847651e-01
-2.038183956420880349e-02 -1.217244431085894724e-01 5.213271702996499224e-01
-4.781464871246705189e-02 -1.164944442813782149e-01 5.149127037459151346e-01
-2.240923042266814574e-02 -5.299915919363038658e-02 4.379863111464734060e-01
-3.420814689828081262e-02 -1.188892045801566849e-01 5.127845433750161108e-01
1.402713113746825203e-02 -1.258254826197377774e-01 5.177950022965096544e-01
9.972906102611391738e-03 -1.266982533411355749e-01 5.205247681074668398e-01
-6.192156741741229944e-03 -8.202388861907788931e-02 4.454386964178138064e-01
-7.140432587733981651e-02 -1.044497080631566210e-01 4.314555279383242015e-01
-9.660308496621181074e-02 -1.054106013763190242e-01 4.604934206245274164e-01
-5.436473343671655023e-02 -1.092673092250942973e-01 4.614558289904731048e-01
-1.082654555584543071e-01 -9.838671174096888516e-02 4.705956844258238903e-01
-6.983328293114267338e-02 -1.128444832983581531e-01 4.839429382419139225e-01
-5.001987313252750228e-02 -1.013094097818989375e-01 4.433453711631922256e-01
-8.520369232856465913e-02 -1.111836069498575164e-01 4.991116685987129209e-01
-2.180240809126294046e-02 -9.153023410884980615e-02 4.484256249332473909e-01
-2.461787948115303284e-02 -1.191331182496514624e-01 5.355083000726020837e-01
-8.597749520201516948e-02 -1.055241174374779156e-01 4.514121852326746787e-01
-7.998544666685568350e-02 -9.477486682847950650e-02 4.297303441226620890e-01
-8.737188820364358288e-02 -9.064389201897245230e-02 4.440457532962315823e-01
-1.868047216372009656e-02 -9.401908646857499996e-02 4.505319180874651774e-01
-4.569268848418252260e-02 -8.032616807423569039e-02 4.296809132537126041e-01
-2.572365634609097979e-02 -3.885785965846666468e-02 4.384389366135822974e-01
-1.097148278590285020e-01 -9.536106674040875641e-02 4.746240632747441568e-01
-1.004398129224241404e-01 -9.462830063495646093e-02 4.597099361382319671e-01
-8.693082036387034250e-02 -1.115973439850858617e-01 4.840889926221642603e-01
-8.280514074463334040e-02 -1.110383648086617076e-01 4.702707518440008005e-01
-4.847452884778850890e-02 -4.249279059401551983e-02 4.349510756035793180e-01
-7.759606414908030991e-02 -9.863405378779237231e-02 4.264876494174624222e-01
-7.721590066746503167e-02 -1.117377272119686876e-01 4.741865851933641518e-01
-8.927812087633389682e-02 -1.046895617694884595e-01 4.523797554692657319e-01
-3.807336458944973051e-02 -1.033982267025967822e-01 4.576190819194062009e-01
-1.840957255150833111e-02 -6.228857534354226289e-02 4.385274783403568244e-01
-6.507235298655879296e-02 -1.061869717478630959e-01 4.326325855139544485e-01
-9.781663350363793002e-03 -1.245102369223936578e-01 5.125932092546533481e-01
-2.155397641817745347e-02 -1.213720947085684676e-01 5.216557788661035922e-01
-4.582032659616319670e-02 -9.516314520707995495e-02 4.381697886373605577e-01
3.160951628835049956e-03 -1.262047868595480571e-01 5.315290277624813431e-01
-7.754039728727142589e-02 -9.904648540296079329e-02 4.286268312847448803e-01
-2.207023689132290786e-02 -9.066794177371317875e-02 4.475068154307594304e-01
-4.617492278063246164e-02 -6.760736802965595926e-02 4.296580020302175895e-01
-4.353752074286219159e-02 -5.401413085270191650e-02 4.335668289507557116e-01
-1.107687359653043713e-01 -9.484632927151050164e-02 4.770900808071854016e-01
-9.332961965369242219e-02 -1.105028638573522654e-01 4.896776741332621308e-01
-1.623523489391859309e-02 -1.218576994523428575e-01 5.322230852251595978e-01
-8.380537607990792837e-02 -1.091012608438298170e-01 5.127369873516210985e-01
8.371261656940130400e-03 -1.255956727119015570e-01 5.090738375551447925e-01
-4.635262476016847877e-02 -3.239246660783195314e-02 4.355470396394409693e-01
-2.736406362125579431e-02 -8.227889378818213639e-02 4.415396844947289123e-01
-1.041007277690840088e-01 -1.065196123484493523e-01 4.751204547041743553e-01
-1.496294638093447447e-02 -7.146952012847471170e-02 4.405495219526724404e-01
-1.413114009921224642e-02 -1.019865533483704234e-01 4.581305623053449350e-01
-4.883941981864441118e-02 -3.374412801065273387e-02 4.365308479899022154e-01
-3.859470558385787869e-02 -1.156132300837986321e-01 4.900212124233669919e-01
-3.662820119243253431e-02 -9.093452533698077878e-02 4.432101123724478398e-01
-5.398241763650158537e-02 -1.047056835817347653e-01 4.456955581431521485e-01
-4.346542865526734772e-02 -1.154568447400292353e-01 5.300659137168500790e-01
5.882512431708106660e-04 -1.260039965748604995e-01 5.090718083446443831e-01
-1.191036329646790251e-02 -1.049649037975198262e-01 4.612779249598020215e-01
-3.500494137836815400e-02 -1.163586972487749560e-01 4.914295508127043410e-01
-2.794696793268531404e-02 -9.797282968646395251e-02 4.538963412817277887e-01
-1.070934901605837819e-01 -1.017461179131948779e-01 4.694495600076493691e-01
-3.838205771394777310e-02 -9.533236497114737362e-02 4.461152131209471516e-01
-4.791150966721792470e-02 -5.270599752590333920e-02 4.334726127311751553e-01
-1.008657271178756004e-01 -1.079864706630812993e-01 4.976288610384436706e-01
-5.485868057375511281e-02 -1.038876062033963488e-01 4.370929742217261049e-01
-8.283652851281145257e-02 -9.061093422910339312e-02 4.366981949012933573e-01
-1.061204356389345432e-01 -9.474749335782649273e-02 4.677535012747897625e-01
-6.992852382037427483e-02 -1.009518457483052356e-01 4.224096891550442323e-01
-2.846304298833526175e-02 -3.502118464572163969e-02 4.377766760320697670e-01
-1.072735942254500474e-01 -1.057081117122448816e-01 4.969681852814205603e-01
-5.190083309155963526e-02 -1.152132869096477163e-01 4.934689421987623614e-01
-1.294491992538923490e-02 -8.682723042487448806e-02 4.463406120458114357e-01
-5.331999685853491822e-02 -1.143256063053008365e-01 4.874798924380787102e-01
-9.065567515985238634e-02 -1.110299505573310447e-01 4.906893681476213742e-01
-5.412364739114620960e-02 -1.152727141521056875e-01 5.173681526237625672e-01
-6.382242907392121634e-02 -1.140612958798505466e-01 4.955548138949849579e-01
-5.386979740992113574e-02 -6.628169282573839749e-02 4.280596347663071510e-01
-1.005769335984072269e-03 -1.222961330141999203e-01 4.939298840050975192e-01
-3.717672813972632689e-02 -8.602210344922746332e-02 4.390853389924069261e-01
3.087938605932931142e-03 -1.005060555861297528e-01 4.584754676724986933e-01
-8.419951478944069645e-02 -1.080264087504441139e-01 4.578127066911382159e-01
-5.987008721930792143e-02 -9.331170415425933673e-02 4.205457294680298719e-01
-5.594342516035275686e-02 -1.070828304300765338e-01 4.519465209009781437e-01
-9.931805988409193181e-03 -7.765774499746726234e-02 4.431451933015264633e-01
-1.042878609711426485e-01 -1.059273687903473926e-01 4.705676795198379114e-01
-1.510268567216195394e-02 -6.625863227834229152e-02 4.395137076315847602e-01
-8.161856050998980705e-02 -1.118573089329377435e-01 4.771696581769499512e-01
-2.508954201565108399e-02 -9.625318261935582320e-02 4.530692819174653163e-01
-6.018404386192006267e-02 -1.134282616103558794e-01 4.836532924199767325e-01
-4.471621906534545970e-02 -1.087086086443894567e-01 4.640485543549392466e-01
-3.239788988541369985e-02 -1.180428636025810246e-01 5.295471765148577203e-01
-4.671921494277261888e-02 -9.090670853722128408e-02 4.305145884726404581e-01
-1.135463222338367779e-02 -9.426354457374420959e-02 4.508040484700512884e-01
-4.692523638063673952e-02 -1.160334548077384814e-01 5.222933758467827037e-01
-6.754446898087818063e-02 -1.138214776776381304e-01 5.009342817623948507e-01
-7.227031911483795812e-02 -9.342127506433614559e-02 4.195329824250569883e-01
-5.201602272776601615e-02 -3.371377172210929946e-02 4.386724301509051238e-01
-3.216572133626617591e-02 -1.141620138583818167e-01 4.825708902941939216e-01
-7.874785864384749312e-02 -1.048099724526835724e-01 4.428665963578916065e-01
-9.379125351551169387e-02 -1.090384775832668046e-01 5.027444773064962957e-01
-4.910126986841555768e-02 -7.071719761122714776e-02 4.277658128151742289e-01
-9.284228901484901930e-02 -1.094193089372463706e-01 5.017798558368020689e-01
-5.486930241521071477e-02 -4.986154784734053019e-02 4.348528830264856704e-01
-2.534399568666788338e-02 -1.171696142647153382e-01 4.907986460525310957e-01
-1.025339510176603713e-01 -1.073930643610465224e-01 4.981841859101800996e-01
-4.986877698984826940e-02 -1.009949040986477392e-01 4.395975022773709884e-01
-8.490263388350782758e-02 -1.104909316285450499e-01 4.681714431874303139e-01
-3.417437470037099079e-02 -7.817499622555823535e-02 4.371850821566960477e-01
-4.683565595954040928e-02 -1.157436728792231029e-01 4.933967148163634353e-01
-5.084741029436906645e-02 -1.087195096572395603e-01 4.614048523212629371e-01
-1.523909747623753384e-02 -9.059249127799240409e-02 4.478328753890835623e-01
-5.971342983525431553e-02 -9.355598763875795643e-02 4.205608486283598513e-01
-7.700366700284694277e-02 -1.070165558172822828e-01 4.510108344585495588e-01
-5.409759030350402148e-02 -3.439850885687360110e-02 4.429043924517653275e-01
-2.283843982059267572e-02 -8.758523057937195322e-02 4.451429289771812736e-01
-5.931575015327365114e-02 -1.141012369074509564e-01 5.203052060551767166e-01
-3.238607207414765515e-02 -1.045023209774213618e-01 4.621202456472840447e-01
-9.129903824869382845e-02 -1.062745881494257805e-01 4.574712583132223287e-01
-4.352559937001249102e-02 -1.009111535339520249e-01 4.487668953573656916e-01
-4.941105806487396807e-02 -1.154651557969873787e-01 4.932945820899755085e-01
-6.096896484243448378e-02 -1.146052815283169907e-01 5.001867805727441274e-01
-8.389078195104514302e-02 -9.174020871146462697e-02 4.381220027439939324e-01
-5.182561801663981838e-02 -5.879696052136222650e-02 4.311921900483697279e-01
-9.926994798298452438e-02 -9.100527279427300664e-02 4.607687739397876570e-01
-3.755433999109156380e-03 -1.153137690295007456e-01 4.756914196152559615e-01
-8.914773491783409276e-02 -1.070833838609523414e-01 5.130292322505793923e-01
-1.995726494200147569e-02 -1.201794303608944570e-01 5.365282058273957988e-01
-5.493604772862594604e-02 -1.056009930995044921e-01 4.475347517719054924e-01
-9.724559894602816112e-02 -1.090135214711282635e-01 4.978655625023333808e-01
-1.619598677669858641e-02 -1.217844548785668168e-01 5.329239173254430861e-01
2.739650162426787890e-03 -1.145964773946981652e-01 4.751330698523179574e-01
-1.437328523729795296e-03 -1.078787275630458675e-01 4.650773150339225226e-01
-4.511054863173519919e-02 -3.860615604317634703e-02 4.350188840875238161e-01
-4.738085283070179315e-02 -7.987157188822537057e-02 4.283879631497315432e-01
-4.210533463860421238e-03 -9.618574905977536615e-02 4.536181289967277652e-01
-8.557009496354989198e-03 -1.250122489441879148e-01 5.153566519248640176e-01
1.101278050843563540e-03 -1.154368458954843080e-01 4.762893290643499533e-01
-2.215046635136012562e-02 -1.174071576194205269e-01 5.454392824914426896e-01
-2.319398146856015488e-04 -8.836968132379000029e-02 4.493462399572779042e-01
9.467980479901834390e-03 -1.266106690974681259e-01 5.304201901952461107e-01
-4.954833961555665106e-02 -1.161892940703611043e-01 5.047801166795580219e-01
2.562064616983160056e-04 -8.887515685729202586e-02 4.496496461460576244e-01
-4.892983436872439668e-02 -1.109559545512685402e-01 4.694862106787928702e-01
-5.476387730076016924e-02 -9.058584031847279061e-02 4.225733203250678360e-01
-2.574720391707670253e-02 -1.201337803443499330e-01 5.040784231780549574e-01
-2.810000061258699500e-02 -1.002468867650719991e-01 4.570153184853265604e-01
-4.162802160185734290e-02 -1.165372545033157153e-01 5.261445647345278642e-01
-4.383938279462538945e-02 -1.167045989956307928e-01 4.966540639006377655e-01
-8.936255113953221751e-02 -1.087693423394476278e-01 5.073070912992476700e-01
-2.068736037218600957e-02 -1.205925580529716989e-01 5.004772152915463179e-01
-6.927794478997527372e-02 -1.118351681393759400e-01 4.738955175218705351e-01
-6.187334865607239248e-02 -8.852883474265429986e-02 4.212422958053114175e-01
-6.124971472396253253e-02 -1.064057368593996494e-01 4.318301567233901461e-01
-3.971211459328614912e-02 -1.011063731297214829e-01 4.522951069487252118e-01
-9.026836369405535909e-02 -1.110885446519259828e-01 4.893113256918047993e-01
-2.863403883338775519e-02 -1.185381856848276572e-01 5.330284856109855918e-01
-8.293288219978778297e-02 -1.121946910272549197e-01 4.857160677523505443e-01
-9.676241557788844982e-02 -1.080591713899325956e-01 5.036605795130790764e-01
-9.727579498893115795e-02 -1.089761312688075356e-01 4.981525725346239719e-01
-2.149177678668616476e-02 -1.066333620371535118e-01 4.657195751805512929e-01
-1.240398458000960616e-02 -1.237252754896688567e-01 5.101602892895438224e-01
-2.648709527975193906e-02 -3.321137068107005846e-02 4.382479527103010364e-01
-2.696874776186877071e-02 -8.343392832164464590e-02 4.422216896419907672e-01
-4.856600453113414650e-02 -9.985527646326242124e-02 4.424275051675253811e-01
-9.992121061956946160e-02 -1.088712367055573588e-01 4.911828403243441166e-01
-7.556002694502063355e-02 -1.088772637345977179e-01 4.584939190124806552e-01
-9.268324728729920858e-02 -1.045091103228692059e-01 4.546987460646925161e-01
-4.027815157218655323e-03 -1.247838784808864288e-01 5.052927301676549687e-01
-1.104939921495375482e-01 -1.021840396008484170e-01 4.965885115479238276e-01
-8.882615793661145787e-02 -1.013548739817272809e-01 4.467158355431756211e-01
-6.819597553898935557e-03 -8.160224163931587005e-02 4.451476673961451413e-01
-6.720309855458139747e-02 -1.024233167040719816e-01 4.212541510875758011e-01
-5.012400453649267645e-02 -9.944099237872613961e-02 4.332012818775811125e-01
-4.876412144717388354e-03 -1.258343160880812106e-01 5.170230856231372574e-01
1.001341904715748708e-03 -8.646849116902589893e-02 4.484866357948693039e-01
-6.684105537155411725e-02 -8.051419200096729401e-02 4.260575362180440973e-01
-2.922934856972793372e-02 -7.912898660188959210e-02 4.393944107753673389e-01
-2.720089479044927872e-02 -1.145284902480244726e-01 4.823483895206597261e-01
-3.422263828216944026e-02 -9.408965202593311261e-02 4.471860954233417562e-01
1.787584114920080878e-03 -1.262778129100088076e-01 5.096760632621912812e-01
-1.088210099385930885e-01 -1.039914517445744424e-01 4.802963488135324477e-01
-3.598489435027566602e-02 -1.183392466011276012e-01 5.046363986264046364e-01
-2.913224285805500122e-02 -1.181582978283195196e-01 5.348703590212455783e-01
-5.529954058626895125e-02 -1.143292467238848642e-01 4.882828989938922670e-01
-3.812894058794551871e-02 -6.753903487835549724e-02 4.335932895420478439e-01
-8.352071326359626624e-02 -1.040364163978940160e-01 4.455152284967295317e-01
-3.288656467331146915e-02 -1.171793913453839653e-01 5.352122713015531330e-01
-2.286103511866050333e-02 -1.175365626649786666e-01 4.905357788428253984e-01
-5.296211028522255365e-02 -1.024959201809086395e-01 4.280688231530907495e-01
-1.037391576610558197e-01 -1.075177564158636551e-01 4.939457120864352846e-01
-5.859061903851050385e-02 -1.116164983535102295e-01 4.701995202621438441e-01
-4.015072987848804925e-02 -1.154018737731545285e-01 5.347254036434415658e-01
-9.247940715879354994e-04 -1.264850187546513183e-01 5.169010215417220167e-01
-1.590152168869954363e-02 -1.064245671481638678e-01 4.636460009399094861e-01
-7.425478076592799924e-03 -1.253035165145791885e-01 5.170381428248962408e-01
