-1.094801941462736905e-01 -1.038332283054698990e-01 4.921065609333616364e-01
-2.102728428053004042e-02 -5.050965320114091106e-02 4.383297307865726133e-01
-1.717078989464472863e-02 -1.227983931371165460e-01 5.180219485270232127e-01
-5.037678108049182396e-02 -4.849284025771505302e-02 4.342175861863521447e-01
-1.449001444878095929e-02 -1.205702344800776288e-01 5.415134498957199227e-01
-9.706252764825441803e-02 -9.484807698169686607e-02 4.545473134760533163e-01
-2.107452850575590106e-03 -1.245229799092873874e-01 5.025816182476456895e-01
-3.147338225104392984e-02 -1.163423564584992881e-01 5.409146002434833678e-01
-9.185282688003534868e-02 -1.106779078784313752e-01 4.831791803728985868e-01
-5.143711423032037815e-03 -1.138574683229098133e-01 4.733017284086964982e-01
-3.993963294708990919e-02 -8.106446082345022952e-02 4.346634632553467714e-01
-3.219477257137073195e-02 -1.165170370418124185e-01 5.391847817299947332e-01
-7.969796146520385927e-02 -1.123308227308219553e-01 4.909448784331311155e-01
-4.068873905828566256e-02 -1.176001361916617499e-01 5.165973311050182648e-01
-5.492078236061635754e-02 -1.094244070962258619e-01 4.621869951551726419e-01
-6.333658416195257768e-02 -1.120348190533311805e-01 4.732013720411817337e-01
-3.390203654564601099e-02 -1.145664705324759280e-01 5.440767017926962934e-01
-3.543631823029663036e-02 -1.148929336488966196e-01 5.423227514988850917e-01
-6.130715221879231430e-02 -1.129200187996160509e-01 4.798657584784305485e-01
-4.596859148386876759e-02 -1.084782554892975287e-01 4.630663998873185139e-01
-3.955961338359174212e-02 -4.877418977531008948e-02 4.344624278479459201e-01
-3.069607128136023558e-02 -9.731446582986834348e-02 4.519439468185497688e-01
-2.222581933613651528e-02 -5.946271524035063455e-02 4.376039606684833383e-01
-9.914861208926421809e-03 -6.385387985143754774e-02 4.393516981060766047e-01
-1.128599492651258529e-01 -9.831443005499027055e-02 4.836860734205500889e-01
-4.277053981834937069e-02 -7.795718790659483810e-02 4.321254021998747197e-01
-3.580734113312499661e-02 -1.185115404719629117e-01 5.151693659074663145e-01
-1.941872909757678609e-02 -1.188231355535404460e-01 5.432305243211673629e-01
-4.139529953181730199e-02 -1.158341857372155864e-01 4.918520250891128542e-01
-8.958002483910275371e-02 -1.071851630100899844e-01 4.588943503850727024e-01
-1.130116216358047904e-02 -6.226530397261895167e-02 4.390045402012561215e-01
-9.563074976623854584e-02 -1.046659551731516646e-01 4.580821791085608052e-01
-3.445468731029186632e-02 -3.391202369317666832e-02 4.362535922444090719e-01
-7.418621629271554552e-02 -1.093064741890362734e-01 5.229109404540224215e-01
-7.088762784401955730e-02 -9.970727428422075656e-02 4.221411353892758345e-01
-2.947711075783683923e-02 -1.167912526152139752e-01 4.910436618717651247e-01
-9.055594315105344738e-02 -1.074181207920641978e-01 4.606450016713286577e-01
-1.334455567952406822e-02 -7.529804893386758680e-02 4.417205211036129286e-01
-4.422486902679076404e-02 -1.024224329147979257e-01 4.511009484233935996e-01
-7.868168014779590783e-03 -9.725386334035965308e-02 4.538496885738497744e-01
-1.006468124717487256e-01 -1.085234584770506661e-01 4.801028030222884713e-01
-9.457048147493231360e-02 -9.066300708811209086e-02 4.543510870284872549e-01
-7.292839574537024472e-02 -1.033443067005399146e-01 4.286059922224746965e-01
-2.229655100440980711e-02 -1.132166372077483690e-01 4.784919206364990352e-01
-1.516635498593349278e-02 -1.224931884517903996e-01 5.049102837101948626e-01
-3.242013655206676948e-02 -1.022699991273618714e-01 4.587634097756853602e-01
-6.559529583123163698e-02 -1.129064533845485913e-01 4.829882756725488724e-01
-6.685548595275989103e-02 -8.266682754205598171e-02 4.242017933059800683e-01
-7.458130544300105302e-02 -1.095935552900480503e-01 5.215177061221816235e-01
-9.087660749966748608e-02 -1.107503337424184664e-01 4.942693485803662523e-01
-5.487535398013274057e-02 -1.153750467941442315e-01 5.014797958232888320e-01
-3.173081974464196740e-03 -1.255244307371011503e-01 5.090285169349678673e-01
-1.242541011850277488e-02 -1.239846284559047718e-01 5.190598180444662146e-01
-1.047885110087229954e-01 -9.966290582069441129e-02 4.629961696098025548e-01
-1.094800808062563330e-01 -9.482039776394970976e-02 4.737753572847997474e-01
-5.216610713684570466e-02 -2.476439277510013304e-02 4.396130355374179843e-01
-7.141534444232761070e-02 -1.080524480594282216e-01 4.543631551406943081e-01
-3.243393586641632638e-03 -9.287185671596646930e-02 4.514182928080027746e-01
-5.746371387877134695e-02 -1.127931481411832554e-01 5.274516011894926359e-01
-9.546349639992132707e-02 -8.669553177954157641e-02 4.600784829441151857e-01
-1.463727993569698647e-02 -6.395744606680422994e-02 4.390850188461569159e-01
-5.426611505004125258e-02 -7.221903477488607337e-02 4.257961913278136001e-01
-3.378291266429598455e-02 -1.158569824343785026e-01 4.890943890224467294e-01
-3.798149755173677034e-02 -9.482816415887651562e-02 4.459212961894943317e-01
-9.477640839305789822e-02 -1.080702087787759752e-01 5.050297543164484759e-01
-3.752788796394185278e-02 -1.162914156911477592e-01 5.338898917957223267e-01
-2.083500779947963441e-02 -1.076392678237478445e-01 4.669258529576771344e-01
-2.458481874526221092e-02 -9.543113255324592314e-02 4.522556925566668107e-01
-4.867965199163982321e-02 -1.077781564200638587e-01 4.601641948733417586e-01
-5.659684246200023805e-02 -8.605444345916127280e-02 4.225626691886968378e-01
-2.363715260850189279e-02 -1.210330443598843370e-01 5.107174263972119599e-01
-5.208211344677950855e-02 -5.696192601221512775e-02 4.317400096635995999e-01
-8.013849349507923270e-02 -9.244092650251881094e-02 4.307148565043029120e-01
-1.753481617104232088e-02 -1.052535271708314735e-01 4.626352689425222153e-01
-3.940254937382467459e-02 -7.620915954524994096e-02 4.334690190381061403e-01
-1.012284046432968682e-02 -1.063239662019474507e-01 4.626573150778087173e-01
-3.837593256547552553e-03 -8.426614635311013846e-02 4.468168690471605031e-01
-2.159222466083714903e-02 -1.201157366314641456e-01 5.341659631711026535e-01
-8.823166480126740097e-02 -8.748978605408408438e-02 4.469524455327053558e-01
-2.818929380077154351e-02 -1.169203477114227480e-01 5.418127727767965141e-01
-7.145083366376224487e-02 -1.077322531916177495e-01 4.525276496671161719e-01
4.318825103573740824e-03 -1.176771308773290753e-01 4.812488996555148169e-01
-6.386430280601539111e-02 -1.112310294749968426e-01 4.694133714692728665e-01
-9.400183961296160184e-02 -1.087249596483108455e-01 4.686175743466778343e-01
-4.647455400643502738e-02 -1.161769795521842008e-01 5.212186609192946962e-01
-7.674149037271082996e-02 -1.091970103805312009e-01 5.203866247164582459e-01
-4.267563044696424251e-02 -1.164278473424921051e-01 4.950688651314977817e-01
-7.027104206717070534e-02 -1.114793380584726407e-01 4.721376567392677748e-01
-7.624091426414136841e-02 -1.069601171561038733e-01 4.507581291214460828e-01
-1.762806410649927352e-02 -9.808484200949972587e-02 4.548876486500956218e-01
-6.398533416517969419e-02 -1.133159142505078959e-01 5.188638002568778385e-01
-3.544159429953830376e-02 -6.895881606191005264e-02 4.346375943357486671e-01
-3.028442306290262537e-02 -1.179845839979318384e-01 4.958866872843830653e-01
-5.695823279429280267e-02 -1.136831448120440985e-01 4.847648767718650276e-01
-5.505467206504340016e-02 -1.120225257063888757e-01 5.313859491943363489e-01
8.636116672393775312e-03 -1.267940363401341697e-01 5.269675170253115271e-01
-1.012802017324722220e-01 -9.210306006155713487e-02 4.626775588235436110e-01
-1.337109658741876886e-02 -8.451255563874027210e-02 4.452083792054513656e-01
-3.168077233012988464e-02 -7.212818479143463801e-02 4.363935927009923721e-01
-6.972376716480170600e-02 -8.651152186355984264e-02 4.222533025093898051e-01
-4.442911160857665465e-02 -8.861038323698815222e-02 4.331671746345553964e-01
-1.013353544672977585e-01 -9.471540591309866863e-02 4.607483979648356320e-01
-6.368233622887874146e-02 -8.530457994555734613e-02 4.217392908869958545e-01
-9.150819406908060338e-02 -1.105162008032275905e-01 4.959933266705759958e-01
-5.262217998648011097e-02 -3.061992177615490557e-02 4.389803910403278220e-01
-5.087075660377766984e-02 -1.160254587508514068e-01 5.077256521723745308e-01
-1.677891055149805313e-02 -1.230529719456117527e-01 5.140107786663052902e-01
-3.016496527220996135e-02 -3.846434713659677151e-02 4.373536566844748452e-01
-5.822414663448483713e-02 -1.056171452413269540e-01 4.240015987394563091e-01
-3.869114130206180793e-03 -1.254497279465729975e-01 5.283794629413192112e-01
-1.909858629465743113e-02 -7.897731215023677531e-02 4.418584040672240421e-01
-5.840418638017175895e-02 -1.094436051852133301e-01 4.613596940628048038e-01
-6.970302477438523880e-02 -1.132972922440586144e-01 5.080080314583934609e-01
-2.705490174923955160e-02 -1.203179377742915612e-01 5.129066366836695368e-01
-2.264579098374416496e-02 -5.850364704409597577e-02 4.374414944486991197e-01
-7.588418374141159273e-02 -1.087586395539421602e-01 4.584437511456166403e-01
-9.266363511810088438e-02 -1.098007400353390173e-01 4.993520605672099877e-01
-5.313831366939564260e-02 -1.087374188709395312e-01 4.607018720100543585e-01
-8.552243571424507362e-02 -1.073670216412561940e-01 5.154011007384051712e-01
-5.361525342154115775e-02 -1.042079051953715974e-01 4.448514581799073997e-01
-2.732504977995550699e-02 -1.051789201293588522e-01 4.646140619022152141e-01
-8.601180332469740564e-02 -1.056189957328469431e-01 4.520864629589920192e-01
-5.534380203312731783e-02 -1.054731454620475989e-01 4.467413749957194757e-01
-4.194689313126360314e-02 -7.573341619768485244e-02 4.322204238845697155e-01
-3.892958804151280903e-03 -1.194339415939913718e-01 4.847195506940791265e-01
-1.996651099303137916e-02 -9.887498441542878769e-02 4.559971338321877621e-01
-3.368262842579686223e-02 -8.126070859863307461e-02 4.388494554722458529e-01
-1.317954712766321659e-02 -7.471542644329030869e-02 4.415916983111105032e-01
-1.034394048281668532e-01 -1.066286369401545364e-01 4.997524341328853370e-01
-4.191326399711459844e-02 -9.206999736418859659e-02 4.408973690884441798e-01
-4.704440324531929118e-02 -3.557417092260018593e-02 4.355681748344449322e-01
-1.033291373732530757e-02 -1.193648895860501685e-01 4.864898253058526079e-01
-9.079278782871673392e-03 -1.194624318435297955e-01 4.862090747499782650e-01
-6.543021246467338459e-02 -1.079139336926567133e-01 4.535653833895377796e-01
-6.746482916562038246e-02 -1.127472395761346391e-01 4.823356410313914822e-01
-2.911689897483057954e-02 -1.100103872222687879e-01 4.725706400765090631e-01
-2.748915782297354712e-02 -1.198097954801149584e-01 5.224268804951195388e-01
-8.384962417193349282e-02 -1.065374868202128844e-01 5.198539901522737372e-01
-1.226546133050554488e-02 -1.099618808919977792e-01 4.681479190544199920e-01
-8.021311171438894050e-02 -1.121580974424196964e-01 4.955757314382854273e-01
-9.038129994949178903e-02 -8.648345155453127098e-02 4.515075573289793476e-01
-3.705569135691127308e-02 -1.180712996251014058e-01 5.200289205919185198e-01
-6.767855044419905652e-02 -7.952918867841157757e-02 4.269982275453677589e-01
-2.466846845570032712e-02 -1.199172962906481649e-01 5.287833888990466358e-01
-4.597388026866484900e-02 -1.011547366221020872e-01 4.468341669190091792e-01
-1.727432187470909555e-02 -4.927307092706512820e-02 4.385409274361886656e-01
-7.810358131445981067e-02 -9.090333440991971159e-02 4.283036676612609894e-01
-2.554878741446292567e-02 -1.184261045410887336e-01 5.378085130662010327e-01
-1.196729877972159406e-02 -1.224238495421673262e-01 4.992623500530863345e-01
-6.308787296033256664e-02 -1.141920782902457049e-01 4.984221956984302704e-01
-5.085539953392682194e-02 -1.015523396335444722e-01 4.431645381593944388e-01
-8.150358658241507737e-02 -1.098906901865565749e-01 4.646399334775303536e-01
2.385526783009159256e-04 -1.266969455495679797e-01 5.197590919570590495e-01
-4.273674005421852773e-02 -3.431724678351820434e-02 4.348790139141225364e-01
-7.809438321780012848e-02 -1.014703479208433484e-01 4.332884360805590029e-01
-8.418749127021726841e-02 -1.050513526647289531e-01 4.487502271578497348e-01
5.780056454604647759e-03 -1.253198660586305191e-01 5.063144300908484219e-01
-1.793558702834883653e-02 -1.223863146288680925e-01 5.091853329563710284e-01
-4.100258665535808783e-02 -1.175674956193666909e-01 5.144043668412403569e-01
-4.053515079103341828e-02 -1.176196344880021949e-01 5.173157415811344695e-01
-7.496959504863358326e-02 -1.086341069185625258e-01 4.577010324083647386e-01
-6.214141431117197606e-02 -1.075308773521971434e-01 4.497578740768459760e-01
-8.574805696490276491e-03 -1.247593909085048941e-01 5.237508472868050990e-01
-2.590146895833942906e-02 -9.022994883164643654e-02 4.463524754633972913e-01
-9.540079433740582260e-02 -1.099269587315830216e-01 4.906151076605153594e-01
-4.581135504166140154e-02 -1.098894348103957863e-01 4.666934478512115292e-01
-2.982789331686475434e-02 -1.130588508936294784e-01 4.792830418226373679e-01
-3.562305320436011391e-02 -7.399563244797381645e-02 4.348704104902882950e-01
-6.202546883344717960e-02 -1.144093196325094569e-01 5.125854672088394626e-01
-6.685397351778556152e-02 -1.120488212742580258e-01 5.208172299225725110e-01
-2.904764775710925312e-02 -4.707521702517759865e-02 4.374405156547080398e-01
-4.980608114156638566e-02 -1.005168171346678685e-01 4.378265719228522368e-01
-7.570950183046322446e-02 -9.556667974799863685e-02 4.244498040197236532e-01
-4.160074015847257251e-02 -1.173995838350212900e-01 5.066385968731275113e-01
-5.654373970522239695e-02 -1.055827644751505673e-01 4.248286047937378518e-01
-5.652864569105502807e-02 -6.506210835945679116e-02 4.291629152825829907e-01
-5.767897752464052480e-02 -7.358472986726369292e-02 4.253865983918181937e-01
-2.548422436033292993e-02 -1.131912591165880472e-01 4.786971530179594536e-01
-1.843646155403205408e-02 -1.165400821258121139e-01 4.846366130941710537e-01
-7.407870685146203393e-02 -1.129047772060342986e-01 4.941913581701002922e-01
-4.239799360889825661e-03 -1.259269141783647683e-01 5.196654977891510541e-01
-4.569330485592915797e-02 -9.351359610043855075e-02 4.351784595747965056e-01
-8.943673861339584974e-02 -1.110610607663265886e-01 4.811665168052809416e-01
-2.085874233475348838e-02 -1.169671740060202608e-01 5.479371648174217180e-01
-5.699599999110477322e-02 -8.009435684113727638e-02 4.237639036045555696e-01
-6.423918947033514792e-02 -1.063211622839360659e-01 4.361840312205692016e-01
-7.132983623978114696e-02 -1.107747861585086091e-01 4.676752697411646897e-01
-7.645157197724167242e-02 -1.061326365579306069e-01 4.462368416201709653e-01
-5.256768817582339187e-02 -5.693800164038698847e-02 4.317351932173889018e-01
-7.121841141219238669e-02 -1.068530906066312708e-01 4.475123363299748913e-01
3.621513951067395444e-04 -1.094846766722230164e-01 4.670256118830602432e-01
-9.041090763016301768e-02 -1.109525766412457481e-01 4.857596103574025048e-01
-1.072884141218781173e-01 -1.059695152746637919e-01 4.858227468804170446e-01
-7.467216775988372301e-02 -1.121096366395664262e-01 5.097536899195537208e-01
-9.673641735896641725e-02 -1.096024990297889551e-01 4.903710796618520051e-01
-2.792877004443230365e-02 -1.164196686516774937e-01 4.890433777537397386e-01
-9.588756886792542539e-03 -8.199537739476943365e-02 4.447812570190312620e-01
-2.748898304605960907e-02 -1.180681713194057375e-01 4.950469364716569287e-01
-2.968725848745665946e-02 -1.163259664366767115e-01 4.893520190015798188e-01
-9.659225885921518540e-02 -9.237713655599245899e-02 4.555942671517113074e-01
8.655738852630934232e-05 -1.265758481261591573e-01 5.159603989322222306e-01
-9.648965313731047017e-03 -6.796419298842630574e-02 4.404138430975867990e-01
-7.455897227952672235e-02 -1.080781066454489375e-01 5.256242722528405853e-01
-1.604142986140019017e-02 -1.140531065074759237e-01 4.774563021955116060e-01
-8.494195875426061026e-02 -1.118213003067359546e-01 4.820990125644405988e-01
-6.233694249153862166e-02 -1.140625567914392707e-01 4.937568515687938975e-01
-2.179775022105265650e-03 -1.262953670486182400e-01 5.171784008961324286e-01
-8.128430715526874240e-02 -1.119196934905659635e-01 4.986257876672808842e-01
-5.846809436217743905e-02 -1.139914092706576232e-01 5.214555413497754532e-01
-5.147199212018199743e-02 -1.127969740218117967e-01 4.783045971068064506e-01
-2.113817229160047315e-02 -4.263072727311367077e-02 4.388074249353789424e-01
-1.098475394888853568e-01 -1.030339501829757032e-01 4.989944820566824535e-01
-1.015664458715282228e-02 -7.195695995028981995e-02 4.412904693521183530e-01
-4.357232704163151865e-02 -1.002633734619889916e-01 4.476955781199072892e-01
-5.575319046337853801e-02 -1.151285334405112021e-01 5.158612205128230155e-01
-1.054485648833853456e-01 -1.072620262165899369e-01 4.882845828305862890e-01
-1.307912941375444921e-02 -1.239906223083376280e-01 5.152184810414512928e-01
2.240712853779961832e-03 -1.261949948944993127e-01 5.311912347631778664e-01
-8.934919206177675127e-03 -1.248102340038582531e-01 5.210289257300699806e-01
-5.342992133350177308e-02 -1.142198050691655281e-01 4.871108575987830314e-01
-1.455085714303889534e-02 -1.234993842393941610e-01 5.132748990033457748e-01
-7.310030662600289220e-02 -1.110244013276403402e-01 4.696340740143736259e-01
-5.460250945927951072e-02 -1.145560092082024140e-01 4.902949443452018774e-01
-8.962844006875000935e-02 -9.120516127889725932e-02 4.466072230091685524e-01
-9.178692541323373033e-02 -8.673642696485975301e-02 4.538799154893781163e-01
-1.692484704968365977e-02 -9.878448060587144419e-02 4.556114371386517092e-01
-9.019310983482403676e-02 -1.034842739420761965e-01 5.201371600306281540e-01
-6.187058139632091967e-03 -1.248107955886394171e-01 5.299461686828585982e-01
-5.330250247374765382e-02 -1.024965042199010717e-01 4.389806963932060269e-01
-1.220207227570510068e-02 -7.422184295490782957e-02 4.416566840653693427e-01
-5.134347013185797115e-02 -1.150078344597571245e-01 4.914010594492674300e-01
-9.491350481046817791e-03 -5.545742621166516867e-02 4.380522331098511968e-01
-5.754454567607839022e-02 -1.150487055880684839e-01 5.025055272974592313e-01
-1.092606034560598960e-01 -1.040068716516621833e-01 4.933117488552893337e-01
-6.650988607794608432e-02 -1.138951305689576837e-01 5.049198969920820623e-01
-1.516330344443008946e-02 -1.210134532355987280e-01 4.960137454096942844e-01
-8.504042477215299767e-02 -1.065764377205155461e-01 5.182945095215387710e-01
-1.437367404129614307e-02 -1.229763046274102017e-01 5.068697411537090858e-01
-4.202096349817057569e-02 -1.171601318938889219e-01 5.194752682491744489e-01
-8.774510150466832692e-02 -1.087361126402410644e-01 4.635596176450443862e-01
-4.992182866331515423e-02 -9.858436882289717262e-02 4.314490302491867935e-01
-3.151821533015439214e-02 -1.170810567271670793e-01 4.929598772164905385e-01
-5.118816607519487139e-02 -1.158825809872903456e-01 5.019271547479726703e-01
-9.887008165049102071e-02 -1.084154122321165092e-01 4.985082820628909950e-01
-9.207026107422622285e-02 -1.101059176552492552e-01 4.982809253379226200e-01
-5.939231338853430409e-02 -9.362861603174538194e-02 4.205588346919970077e-01
-4.088603236802860336e-02 -1.136299665236566309e-01 5.398681658546207185e-01
-4.246485935456233846e-02 -1.043145624621265311e-01 4.560551382477408544e-01
-3.230153790323723323e-02 -1.149257077065496402e-01 4.851434012462376155e-01
-5.468754553507469696e-02 -1.128233500412419155e-01 4.789275827965825960e-01
-2.682566938012381427e-02 -4.227048620301308846e-02 4.381076751765489163e-01
-8.227967951883975728e-02 -1.062564567111087127e-01 4.512979467502727937e-01
-3.291745548892303572e-03 -1.231936515654775272e-01 4.970770173431022787e-01
-1.364289240258392995e-02 -1.230024364648894392e-01 5.058061215748848038e-01
-5.621233650491053863e-02 -1.152732897011690821e-01 5.061173519599930781e-01
-5.437003760492323950e-02 -5.608635011709450086e-02 4.320225579934460214e-01
-4.707321918922055537e-02 -4.454110005426623053e-02 4.343081260250789555e-01
-3.209602513484369896e-02 -5.691690242960537743e-02 4.356796532605049510e-01
-5.987362290731228220e-02 -7.468423997077827670e-02 4.253858627002993220e-01
-1.097595471209406037e-02 -6.187793097524750541e-02 4.389384249118928882e-01
-3.012728410395593831e-02 -1.195901321255382621e-01 5.149586505381129609e-01
-6.718995077945527639e-02 -1.060500204021321002e-01 4.363380723647370951e-01
-2.493470507413823867e-02 -9.901154654985640235e-02 4.561933219677813400e-01
-1.195899350871581016e-02 -6.414887536203156548e-02 4.394212791328926948e-01
-8.537224678351458540e-02 -1.061308539090159569e-01 5.191831955987238345e-01
-1.061709916396839648e-01 -1.045415215417238308e-01 5.015670063914734467e-01
-4.250903672107679554e-02 -1.137980644499593241e-01 4.842896766546688214e-01
-7.364415740476741579e-03 -6.854652434411043216e-02 4.407129995095706021e-01
-6.614142244270090898e-02 -1.066573574598008167e-01 4.412408150043568567e-01
-7.587347180808159952e-02 -8.940268047012425723e-02 4.262458236705025660e-01
-1.223164619349813645e-02 -8.968817667673377458e-02 4.478022942375116111e-01
-6.822637405044186532e-02 -1.135969353841544127e-01 5.073651651880581870e-01
-7.181278924657161222e-02 -9.335560714155882733e-02 4.190279299509434008e-01
-6.272095482209502637e-02 -1.063753683689373924e-01 4.317709149141051306e-01
-8.445354781855902992e-02 -1.116370401607263002e-01 4.785048054405930951e-01
-1.015674960048289499e-01 -1.075810546443425608e-01 4.752393175146626958e-01
-4.619898207377747673e-03 -1.029540844418112000e-01 4.596180783722527141e-01
-1.063000380574002576e-02 -1.020773720970865606e-01 4.579919841794342084e-01
-1.693325302979226121e-02 -1.134807667001048598e-01 4.766839194361135457e-01
-2.232814932141524711e-02 -1.214464822539679800e-01 5.148564748871935493e-01
-6.420860336111286482e-02 -1.116033558771201278e-01 4.713617946924306690e-01
-4.017890352574713525e-02 -1.175057970389912915e-01 5.030577951719849006e-01
-7.883664515652737126e-02 -1.121472743441080389e-01 5.009048879964834722e-01
-3.159931023428564495e-02 -1.055127739086475225e-01 4.641238323578985581e-01
-2.060163653319193461e-02 -1.218756585104421725e-01 5.133325797473488050e-01
-4.543525906158144001e-02 -1.037081595873681067e-01 4.525496911337232309e-01
-3.743629062093827703e-02 -1.141693290440309455e-01 5.431898242298085488e-01
-4.351675579413367967e-02 -8.612495259173051643e-02 4.333760292492735422e-01
-2.684249499989275686e-02 -7.953218994068805836e-02 4.403617037757956987e-01
-5.245670372621570599e-02 -1.014730599461583505e-01 4.273604085946464126e-01
-4.186621033676099501e-02 -1.174538192880062726e-01 5.091430820924738310e-01
-5.931820536062045596e-02 -7.913257839441120711e-02 4.238609592499137935e-01
-5.248253456284207585e-02 -6.564765184088047767e-02 4.283141293590520537e-01
-7.765588955268036553e-02 -1.072300388052238179e-01 4.526282240814202273e-01
-4.433822658816104212e-02 -1.170570445247824526e-01 5.102408773294878630e-01
-9.737744558570710085e-02 -1.094859371065763781e-01 4.787708087009447944e-01
-1.081539324354695991e-01 -1.052100612600049279e-01 4.856109633468837505e-01
-1.090065986788464475e-01 -1.045879525033332064e-01 4.954985600096227238e-01
-1.569201877694966635e-02 -7.836553440125662573e-02 4.421848612563507031e-01
-8.951466568094142151e-02 -1.098900783109377916e-01 5.021719667160210454e-01
-6.961833294984669240e-02 -1.019585036793807242e-01 4.232673972845705235e-01
-6.213954457794552966e-02 -8.831871107107583385e-02 4.211489269157251969e-01
-1.054225657249613507e-01 -9.961746277209526657e-02 4.644952079188017224e-01
-6.498456125760561364e-02 -1.130392806697744085e-01 4.842045813770692875e-01
-8.054065582378372445e-02 -1.114838856703213865e-01 5.035315614196685940e-01
-1.404177154290050557e-02 -1.071277347093166216e-01 4.639697064846208252e-01
-4.114238105874111484e-02 -8.777204181155147389e-02 4.375257359581453676e-01
-4.827617280324068838e-02 -9.130110071667099647e-02 4.280057790613251978e-01
-5.327842729734154348e-02 -2.881944342697002545e-02 4.415141870829387694e-01
-9.548297201457418837e-02 -1.099295564544429532e-01 4.886643909794829987e-01
-5.865291589610874962e-02 -1.085205647070888596e-01 4.574789644483721607e-01
-4.104487368532101083e-02 -1.175418595860801829e-01 5.162464068722680821e-01
-2.162144613565252643e-02 -6.677709373062873377e-02 4.383640445908749128e-01
-9.200087328632474554e-03 -8.753779734301703197e-02 4.471671238352173394e-01
-2.084333163403606984e-02 -1.209701586777002652e-01 5.030892494013380345e-01
-8.292081358750545694e-02 -1.114797183275463843e-01 4.746530944009346720e-01
-1.954433594293811943e-02 -1.173337627578218550e-01 4.878009825832173019e-01
-4.434244664283207814e-03 -1.169972718815468909e-01 4.788640102368036389e-01
-4.519963433071431252e-02 -6.399612367377313649e-02 4.306191393768178943e-01
-4.061950990037216380e-02 -4.418618678781967984e-02 4.344010568553179907e-01
-9.319755468968675405e-02 -1.087517661723663986e-01 4.678240158902099433e-01
-4.551137589906846526e-02 -1.031442911565478571e-01 4.513933885641581711e-01
-1.439471712448036830e-02 -1.069041878275899110e-01 4.637925321038878224e-01
-8.298039104024025614e-02 -1.070638755625525768e-01 4.543810504578728593e-01
-7.189572947993719265e-02 -1.119312225549115164e-01 5.153485673039146509e-01
-3.888571100674668296e-02 -1.179653068737317040e-01 5.089810447695688467e-01
-2.933850784416739202e-02 -4.434218512400951023e-02 4.374566302442046140e-01
-8.091650042473641502e-02 -1.122561644482731047e-01 4.889248897115668346e-01
-5.527829337091090534e-02 -1.052997866095891216e-01 4.254564407816140426e-01
-7.446240325931385851e-02 -1.106128745435508709e-01 5.181900514113209066e-01
-8.486134521250607299e-02 -1.101498142091371230e-01 4.670311035940569178e-01
-9.334028691863310856e-02 -9.073514278369708419e-02 4.524635887120287414e-01
-9.893187733732558553e-02 -8.970210985074336674e-02 4.615942320384061048e-01
-3.038412889304547074e-02 -6.295545585271206113e-02 4.362034044183113468e-01
-4.883806012186399370e-02 -1.161721798998055638e-01 4.999772822297934849e-01
-1.086041336162796855e-01 -9.515192528426325014e-02 4.712705877602554327e-01
4.058663734749568160e-03 -1.091895037343371538e-01 4.673617510931324381e-01
-2.049473955502478795e-02 -1.182056327523065276e-01 5.442859245190092565e-01
-7.330032543897760378e-02 -1.130363735447059981e-01 4.977880866129240633e-01
-6.305928586853300211e-02 -1.125368571270600193e-01 4.761549714237386377e-01
-3.121517450508794200e-02 -1.152726547177009425e-01 4.859172008847963409e-01
-7.433472284710140876e-02 -1.049093924554583973e-01 4.379571088246063670e-01
-1.502125581253226094e-03 -1.259227093205989301e-01 5.103791005947817538e-01
5.651532888136715990e-03 -1.224898908627032879e-01 4.953366077923782029e-01
-4.997246338870130894e-02 -1.139028089346411643e-01 5.300981106272464327e-01
-1.404189459291495246e-02 -1.235590834659220927e-01 5.125860822816630247e-01
-5.661791713839233603e-02 -6.036161925035495729e-02 4.311206199321901411e-01
-9.256047053569131655e-02 -1.089532284758843173e-01 5.037156167622335312e-01
-1.109243433196651502e-01 -1.015672491848477049e-01 4.853053455686063278e-01
-6.511251888932648169e-02 -1.067430966176184937e-01 4.408211299651236814e-01
-6.781492708470755748e-02 -9.364497898765192230e-02 4.189680314751757506e-01
-4.980240962322661502e-02 -9.960314891184639252e-02 4.353953967782843160e-01
-2.934715494840164571e-02 -7.549066138061918951e-02 4.380980763712298276e-01
-2.515982036986708081e-02 -1.194966705648975586e-01 5.314984277608080232e-01
-1.206003062541606899e-02 -1.240545934459381383e-01 5.196189512257455290e-01
-7.832602943375270577e-02 -9.160256710162882621e-02 4.285627358774197759e-01
-9.865574904311823212e-02 -1.073355677051905654e-01 4.677272142300891722e-01
-5.102120337600184186e-02 -1.141936530404665390e-01 4.861258330572495456e-01
4.217214152982980829e-03 -1.260333477335358332e-01 5.329191141800905251e-01
-7.219056081686980875e-02 -1.122568814979599677e-01 4.784404201912038634e-01
-3.481732984099766143e-02 -1.057754628327265273e-01 4.635822563308096278e-01
-7.145811128565496273e-02 -1.098579246386482827e-01 5.238835829895231999e-01
-5.307670030851852766e-02 -1.139790927472950910e-01 4.854023354421195813e-01
-1.036346477398469995e-01 -1.077910229711486756e-01 4.852597366131002898e-01
-3.635300037982684696e-02 -1.182080454568937289e-01 5.036053771256232547e-01
-1.038408904253433213e-01 -9.093659001343336323e-02 4.680651951390941701e-01
-6.270808013657340474e-02 -1.143860015297603339e-01 5.021860816431797936e-01
-3.334659881229481287e-02 -1.183445288856226352e-01 5.008832991869840434e-01
-5.442254267145632540e-02 -5.320305943495563794e-02 4.335144975433640191e-01
-5.680918688288760093e-02 -9.197770738210070407e-02 4.212973591504264870e-01
-9.322411791210864773e-02 -1.043055296289240597e-01 4.548837486364945004e-01
-9.508560341947303041e-02 -8.723511903416603097e-02 4.588127176029219711e-01
-3.207013237405557243e-02 -5.243377549309481689e-02 4.360092461952355114e-01
-6.426499010321960748e-02 -7.941545770845537255e-02 4.254745151122083513e-01
-4.503697216337450293e-02 -1.142730676913054494e-01 4.864154132843904188e-01
-2.698274600794282885e-02 -1.202775702882949993e-01 5.156473212515274573e-01
-2.651376851283108321e-02 -9.847880001838824060e-02 4.554286202998574229e-01
-2.255420064184029960e-02 -1.211650493999518879e-01 5.077704614228284452e-01
-7.100361554236175876e-02 -1.132179701740413658e-01 5.044601134525633634e-01
-6.848422567424820862e-02 -8.051570422522287551e-02 4.265029712989206745e-01
-5.566847474386046879e-02 -1.100442944718880434e-01 4.645495407976540925e-01
-4.746761896688981436e-02 -2.863068520328807334e-02 4.362582200428787860e-01
-7.673761130563609700e-02 -1.124416127617812455e-01 4.846427927364457822e-01
2.402094787306145642e-03 -1.269033695257889283e-01 5.249078520210567200e-01
-2.825483396327442553e-02 -3.991531292775504086e-02 4.378081753709269774e-01
-3.781370183101441518e-02 -1.170969017394767331e-01 5.277388173792456616e-01
-2.080172138732455656e-02 -1.033946755549648294e-01 4.613391732283161351e-01
-5.733326266803156351e-02 -1.092779893356779497e-01 4.610954637062606443e-01
-5.123301117128364890e-02 -1.154138859132136513e-01 5.201506791467770396e-01
-1.877973410870930129e-02 -1.217604292768129648e-01 5.255899986792711420e-01
-6.862129504032750404e-02 -1.126266195149343147e-01 4.814922231769251382e-01
-4.908817156937191062e-02 -5.324299310117462658e-02 4.331760912486425918e-01
-5.229837736013434601e-02 -1.155940131240356661e-01 5.166085134135850465e-01
-1.181815351568876390e-02 -1.130093896236341322e-01 4.730271113860673449e-01
-3.382164595892329234e-02 -1.187172181776887936e-01 5.050404463314894787e-01
-9.692922546403623385e-02 -1.054799736011566014e-01 5.100941460346158918e-01
-2.163056963898125559e-02 -7.456546869712561698e-02 4.399256577400325607e-01
-6.538757976357810475e-02 -8.556256987531477010e-02 4.215455657618960017e-01
-2.768204370045626930e-02 -1.111601825114872794e-01 4.747547287954026474e-01
-4.466937361706081050e-02 -1.156716473503877213e-01 5.271347888837464302e-01
-5.680655160241507989e-02 -6.311825486406753838e-02 4.301459921163542366e-01
-1.052214203887167493e-01 -9.847207621072978645e-02 4.632512869300208225e-01
-1.066885192159998386e-02 -8.646811478262854400e-02 4.464909648226834671e-01
-5.475922196196111175e-02 -1.043329856948234935e-01 4.237555301817934050e-01
-6.789577899508805747e-02 -8.223143645195345186e-02 4.249239012621759959e-01
-3.951745426022498786e-02 -1.124221529484076970e-01 4.791864068546450306e-01
-8.264120510836199529e-02 -9.461354059434745611e-02 4.342745255935763216e-01
-7.852980461879641161e-03 -1.231800933788735619e-01 5.358554903834090721e-01
-7.279538337279679860e-02 -1.086019972813638268e-01 5.258347223101559331e-01
-6.890392221375368775e-02 -1.105563807921990521e-01 5.240918873778254161e-01
2.825485982353687087e-03 -1.267481243319255046e-01 5.158887985788681574e-01
-4.940829262794505655e-02 -1.161378555527343842e-01 5.033466303282173593e-01
-3.899835215977941194e-02 -1.162016553394453339e-01 5.321659171485606521e-01
-5.229197923482793026e-02 -9.124723999163746047e-02 4.246323865479816884e-01
-5.288566648908312601e-02 -1.032613897637385536e-01 4.356652659292036267e-01
-9.010663958007826546e-02 -1.050006937290627884e-01 5.168662259923623159e-01
-6.881279339662134398e-02 -1.080606209592332723e-01 4.543241332093070906e-01
-1.821530657326859287e-02 -1.087786720948624442e-01 4.680494428556489228e-01
-8.918324042593529788e-02 -9.402898549006406814e-02 4.446733745890734668e-01
-4.149017813580216374e-02 -1.167028591422673706e-01 4.961859683230728790e-01
-9.125203326469427667e-02 -1.096142208299223098e-01 5.019479576844139146e-01
-4.120151593395539324e-02 -1.120036594191554796e-01 4.778936184375061624e-01
-5.431358705512862733e-02 -4.799351470692933552e-02 4.351749297230222968e-01
-5.498406091227720643e-02 -1.116396085683104833e-01 4.701009746922381050e-01
-5.416864153696007711e-02 -1.148945435567995110e-01 4.932067106595114381e-01
-1.053608916904800602e-01 -1.067934496383983189e-01 4.949888766345572066e-01
-3.637671563349382381e-02 -9.889049839978715506e-02 4.514878939065359864e-01
-9.975899219257200468e-02 -1.075916341305832025e-01 4.709985428798809104e-01
-3.460650085064166659e-02 -1.187894699711055796e-01 5.103003505232646120e-01
-1.653931400347802283e-02 -1.223672822017774220e-01 5.260733022957166938e-01
-4.668786799049273739e-02 -8.828944318724255003e-02 4.292516906814878852e-01
-9.758077232403715440e-02 -9.475560986695112653e-02 4.553221783380782539e-01
-5.997000379041734358e-03 -1.255859742991300709e-01 5.155250239269425494e-01
-3.664357764980766263e-02 -1.143711167554714997e-01 4.850069744153606699e-01
-3.859733034546009023e-02 -1.165957487483144095e-01 4.943228900082441424e-01
3.487484405857407040e-03 -1.012711382795239423e-01 4.591794611335859311e-01
-5.140071564740623586e-03 -1.128429785266675256e-01 4.715699063443538064e-01
-1.816547617349575060e-03 -1.184368762496845751e-01 4.821097190446425040e-01
-5.333519017520144123e-02 -6.060263105602600731e-02 4.303231884434582377e-01
-4.090558405239265970e-03 -1.081130056605851264e-01 4.650390829980869389e-01
1.304032360919939008e-03 -1.266194062108966789e-01 5.264306536254186319e-01
-4.217452160759223995e-02 -7.534956773297149524e-02 4.320524441342712407e-01
-6.086092238481177058e-02 -1.063316059639139582e-01 4.428437909662161220e-01
2.210873433116540381e-03 -1.006239688858915626e-01 4.584743333159811418e-01
-8.105174792695110653e-02 -1.120319688572910533e-01 4.968288415162069871e-01
-1.015934182060496266e-01 -1.057994730661825089e-01 5.034773109995848150e-01
-4.147060507659155321e-02 -4.853752286425762341e-02 4.341472337993488861e-01
-3.662906731697052748e-02 -1.177367957680879040e-01 5.001310156234320958e-01
-6.885424779099683090e-02 -8.169064809047146825e-02 4.257004553354421517e-01
-1.807155262141260654e-02 -1.210920589810939307e-01 5.002838815579386811e-01
-5.976090470747946748e-02 -9.667562025920375945e-02 4.212312561929761889e-01
3.434007912190894206e-03 -1.240302189385800169e-01 4.996789094997615699e-01
-6.238445154356186961e-02 -1.056096246430433677e-01 4.221582282091825289e-01
-4.521251098145427638e-02 -1.168181975125628658e-01 5.053036689672995019e-01
-5.230704171267708258e-02 -1.030473426830157829e-01 4.441159411666338319e-01
-5.375308847051767092e-02 -1.033094209914023481e-01 4.271094667455866412e-01
-7.404198850818197175e-02 -1.091131036461757131e-01 4.594884354343035104e-01
-7.205203643812833902e-02 -1.110545238011796526e-01 4.695293280018991156e-01
-5.094774132240915965e-02 -1.152792694164416765e-01 5.221717996321211253e-01
-1.661128062627102719e-02 -7.683588735826848981e-02 4.415062762160457677e-01
-6.861619142971614460e-02 -1.009586793389019299e-01 4.213035189323506846e-01
-6.299190131000123594e-02 -1.143855076592517200e-01 5.060505834755146815e-01
-1.105113303097937372e-01 -9.356934454452128791e-02 4.767216752671522007e-01
-1.002854630550807785e-01 -9.568870854012331839e-02 4.586840106427269026e-01
-1.253213935962025748e-03 -1.224811173937789127e-01 4.945631948590547000e-01
-2.375428011990143515e-02 -1.204066995037901405e-01 5.259881659031830914e-01
-3.181607185188393278e-02 -7.988502446355147391e-02 4.389079379454239316e-01
-4.487898174523529543e-02 -3.061510395581464039e-02 4.355011508782816732e-01
1.064034085579597562e-02 -1.267111175032490378e-01 5.275662450638874956e-01
-9.173710449313902948e-02 -9.390282603466663935e-02 4.484768447996250740e-01
-8.584935501758614307e-02 -1.068322558738165201e-01 4.553916692976229252e-01
-1.594048577347523254e-02 -1.220585699092951032e-01 5.032538565386418528e-01
-7.932861558116077738e-02 -1.107023467634576513e-01 5.111287779082381855e-01
-2.339510362228653263e-03 -9.276859140884113897e-02 4.514965857997898513e-01
-1.176101135868270336e-02 -1.110408789645856709e-01 4.698609123753058059e-01
-2.579004879243423920e-02 -9.453235978220707325e-02 4.508289194669907185e-01
-7.527218982826883176e-02 -1.128630162325692243e-01 4.988835263916484575e-01
-1.871879750062399247e-02 -1.105762084898689879e-01 4.716724550426935059e-01
-4.448041674796300582e-02 -1.052129706891950511e-01 4.562277708848032631e-01
-2.617277612359394934e-02 -1.200926390535401178e-01 5.228775235484179884e-01
-1.071171013894667290e-01 -1.020304416439869466e-01 4.699756456965545892e-01
-7.185722301034322412e-02 -1.020831615774741019e-01 4.254047460370669054e-01
-5.487769545308704422e-02 -1.053124352457657092e-01 4.298152745991228318e-01
-4.799649491824146963e-02 -5.305824300403500643e-02 4.334104885947949737e-01
-9.372197583896969830e-02 -1.074340105581839538e-01 4.629968929444723269e-01
-5.189831996643852474e-02 -4.288454231964300423e-02 4.358234835414428465e-01
-1.079608871197601690e-02 -6.270804388128246865e-02 4.390738267218164403e-01
-8.877591146199521888e-02 -1.110300644089590866e-01 4.776448380139114436e-01
-8.545314804964357358e-02 -1.047990355337198726e-01 4.488293138940599447e-01
-2.800893035792267199e-02 -1.011142989965699152e-01 4.584253288964689754e-01
-9.665531431288169883e-02 -1.033134900900789105e-01 4.561748785490004066e-01
-7.554422869614461911e-02 -1.122102471453192835e-01 5.074246805212019318e-01
-6.299855061787369703e-02 -1.140875220246970745e-01 4.958269015114639133e-01
-3.073178556506322989e-02 -7.490153966575788247e-02 4.374585977378320223e-01
-5.366876251340391146e-02 -7.169300157823087216e-02 4.260933558027448220e-01
-1.740509969534422344e-02 -1.197180830763063808e-01 4.928387270455856228e-01
-1.423798848451416320e-02 -7.073959890797956729e-02 4.404958560588956851e-01
-4.770037268497143851e-02 -4.832480842129625864e-02 4.338385013985961991e-01
-7.631139993114263720e-02 -1.099427360210108590e-01 4.635208856345353068e-01
-1.399978166767737800e-02 -1.224097919854002098e-01 5.330329749825613028e-01
