-3.424541501583493186e-02 -1.173077467746402314e-01 5.325521595878217607e-01
-2.933559901990660194e-03 -1.236573635030756152e-01 5.367751946308774169e-01
-5.026578448798457721e-02 -4.913215177931719302e-02 4.341054749949762592e-01
-7.617328559141592348e-02 -1.059102420027226016e-01 4.438258432340850823e-01
-2.500442096891260929e-02 -1.193042906783252088e-01 5.335923972229392742e-01
-3.895261969058625567e-02 -1.145764083785687920e-01 4.864592282978026927e-01
-5.199456914317885509e-02 -1.132749797635603933e-01 4.812086273744021758e-01
-6.779627456080868086e-02 -9.876119957933320037e-02 4.199584912709739548e-01
-4.000706411056032669e-02 -1.171828821662740661e-01 5.240234490775650400e-01
-5.347325074705727710e-02 -1.115115952565882140e-01 4.699569133160072520e-01
-6.356038937544204737e-02 -1.065749426514195769e-01 4.394786917351594657e-01
-4.806876495401995325e-03 -1.115455755856046005e-01 4.693621498332133379e-01
-8.223082288464472756e-02 -1.008113664088616385e-01 4.389326581505098579e-01
-4.615217091141816247e-02 -1.160799606600233652e-01 5.233465378618401553e-01
-8.083200117723662870e-02 -8.997004891629022116e-02 4.335052700591021657e-01
-2.391012277304040146e-02 -9.438820858507809830e-02 4.511798185163136132e-01
-7.985532418574467495e-02 -9.278113514518690486e-02 4.303209726625145115e-01
-1.216269677103103825e-02 -8.133838005154941930e-02 4.440093612716808913e-01
-6.078274631386765617e-03 -1.238690281261713017e-01 5.014103788623546221e-01
-5.296928631709911517e-02 -1.034798107290139935e-01 4.319082110578468248e-01
-8.523321055422289350e-02 -1.071570186066541919e-01 4.557992678692003308e-01
-4.849519954240759378e-02 -9.070164945154582381e-02 4.276895543253067533e-01
-1.750163881985006276e-02 -1.021759563423841333e-01 4.592718949356107139e-01
-2.240357520874983448e-03 -1.248978403451290603e-01 5.332163353457984867e-01
-5.638843435915290303e-02 -8.893288783428797417e-02 4.220545579050631879e-01
-5.502778701283962681e-02 -1.139280822388153980e-01 4.856404763605988162e-01
-2.997197650144215256e-02 -7.611908674501513539e-02 4.381379758207825104e-01
-3.940426563613586008e-02 -1.175355232126736038e-01 5.212010216716500555e-01
-4.593835865400109492e-02 -8.807134408268235681e-02 4.300951036766140212e-01
-4.251768732662326855e-02 -6.090023700587988281e-02 4.320740917196633779e-01
-1.652109851016124800e-02 -1.060145788330942584e-01 4.633370031047932547e-01
-3.495900527292018084e-02 -9.122650752600411361e-02 4.443100734320928336e-01
-4.607802017664814308e-03 -7.640156239945364303e-02 4.436446697678998463e-01
-9.889337267637170192e-02 -1.091069491916146078e-01 4.902944335411732468e-01
-3.800132948780872433e-02 -6.085782949477737402e-02 4.340208889775802881e-01
-2.089323845417802306e-03 -1.196916851655528830e-01 4.855081654509091904e-01
-3.989694621558983328e-02 -1.105857051174107125e-01 4.723915426588060629e-01
-3.640641117080321842e-02 -7.127819832689041846e-02 4.342638703253278720e-01
-3.426920654531671884e-02 -1.060210231487917626e-01 4.641409078263136201e-01
-3.662204663457911680e-02 -7.610879400503754721e-02 4.347290552158920574e-01
-4.712097757497166195e-02 -1.039458396113694116e-01 4.514915529449876064e-01
-4.603460764781762415e-02 -5.565864227930551050e-02 4.327715283900911980e-01
-7.154023145640406312e-02 -1.132062041737122854e-01 4.950887486728250408e-01
-4.075326743697357812e-02 -1.148849427590564465e-01 5.355743524295637492e-01
-5.870517033439272975e-02 -1.134798197602065462e-01 5.236528944215760317e-01
-7.760508248723559099e-02 -1.124141533338095383e-01 5.010082700063719363e-01
-4.527903031683244706e-02 -1.102381237117737861e-01 4.685149602081652986e-01
-7.674355896632768792e-02 -1.083010941758959095e-01 4.566414827833266132e-01
-2.832798970784295572e-02 -7.826475582981751167e-02 4.393665455133501374e-01
-5.502935759807017768e-02 -9.788190024348866758e-02 4.221484213559635879e-01
-6.518989383052208042e-02 -7.879042169188900380e-02 4.264534236765662456e-01
-9.406715484888762691e-02 -9.315490638605639084e-02 4.515749872471251924e-01
-3.263698661788556887e-02 -8.269723472775163120e-02 4.397323620708842307e-01
-5.454881286380040828e-02 -9.620731176622765446e-02 4.225898577450898919e-01
-1.253377025622682238e-02 -1.238461843949621721e-01 5.120441317423095606e-01
-3.717991750742403317e-02 -8.202900121175961401e-02 4.369860398527439238e-01
3.459598591728114785e-03 -1.266987263335535019e-01 5.151039024646091313e-01
-8.919253750073907749e-02 -1.109369458695834559e-01 4.762876771516360019e-01
-4.708948850464405450e-02 -1.165059199431031089e-01 5.035325126946315066e-01
-7.124831628596815791e-02 -1.096534649215348406e-01 5.247883272572400060e-01
-7.045290161058387346e-02 -1.106341713317104680e-01 5.223457774461415237e-01
-8.810366953995499295e-02 -1.089885090834898790e-01 5.078949640993212222e-01
-7.814380767481521328e-02 -1.124801799146260828e-01 4.886654562560398540e-01
-4.878820345202939529e-02 -4.744551950992888234e-02 4.340246491986142763e-01
-8.692166387358238322e-02 -1.102126850549676462e-01 5.035661779649790448e-01
-7.336014977319138541e-02 -1.128334503793709254e-01 5.059263730738684517e-01
-1.032397615996424878e-01 -1.076502195397528311e-01 4.804575423173425008e-01
-3.827789775735181838e-02 -8.710152222397987698e-02 4.389378390769925753e-01
-2.187309151150887768e-02 -4.827508239454170180e-02 4.385584900446472534e-01
-3.314175475112062647e-02 -1.072980644806830475e-01 4.666214040673377084e-01
-4.504121066140218815e-02 -1.165589016174052583e-01 5.201372062133046148e-01
-3.508429243743585446e-02 -7.408850712350714685e-02 4.350948683775250903e-01
-7.735818763928034580e-02 -1.093296645156075636e-01 4.610795781152227102e-01
-6.233735441778374270e-02 -8.713072765827332977e-02 4.215276155582102224e-01
-5.295397712439908061e-02 -1.042107401136295186e-01 4.457560082181236116e-01
-1.114000762074110994e-02 -1.074474546626147664e-01 4.640364231099750603e-01
-3.482548119513009105e-03 -1.246364940157135143e-01 5.040734961051631657e-01
-7.072380179199289074e-02 -1.056413747421193899e-01 4.385200459272046158e-01
-4.900377071317649907e-02 -9.792050256237989914e-02 4.333847928638356883e-01
-4.728062655232401906e-02 -1.155434566716782435e-01 4.924955994979093865e-01
-6.619784828450531178e-02 -1.119935743502031983e-01 4.736063255723974019e-01
-1.048261296043311724e-01 -1.016615942986654059e-01 4.647059015736709764e-01
4.438472188570663154e-03 -1.264975684383550791e-01 5.294082041584979859e-01
-2.773863395733103601e-02 -3.779362358194851557e-02 4.379563788106345390e-01
-4.201736142065280039e-02 -1.126521468402913867e-01 4.801839696949712355e-01
-8.405122269598191975e-02 -9.798683836954563686e-02 4.397295772507878731e-01
-4.856478248570312434e-02 -1.142072653246306024e-01 4.862501262716673045e-01
-3.173021234332060875e-02 -1.183364840383654276e-01 4.982766242641442633e-01
-3.241642535211993609e-02 -3.475334920885848888e-02 4.368115454404746800e-01
-6.206924401924005658e-02 -1.054215400904182781e-01 4.220152226656463945e-01
-1.029023375006270086e-01 -9.692588722278774882e-02 4.614420113430289794e-01
-1.045868853874060839e-01 -9.438538837859601627e-02 4.657490415434540898e-01
-4.380505803412509946e-02 -4.972812412234256518e-02 4.338008647071816548e-01
-7.417036455335246359e-02 -1.116071688938610335e-01 4.735298183229166846e-01
-1.515080873889295028e-02 -1.194223045917249398e-01 4.896065223733597205e-01
-3.653859637462696097e-03 -1.231330954112165171e-01 4.969340484053094142e-01
4.089543894070711734e-03 -1.250334658466117910e-01 5.036669562129519884e-01
-5.420078955441487434e-02 -3.362386884046322799e-02 4.438704853946354167e-01
-6.285495654424859413e-02 -1.106042527187884872e-01 4.662528636976480678e-01
-2.607896290286875959e-02 -1.190499096563087389e-01 4.981604036103073896e-01
-1.658780986296629761e-02 -6.924148956461283200e-02 4.398964785907570341e-01
-9.230670547001812443e-02 -1.104613033056358884e-01 4.765286089949941073e-01
-6.115559977095042649e-02 -1.118537287842779615e-01 4.718953535454153414e-01
-1.043570220500909806e-01 -9.522339699579199235e-02 4.646858285711572001e-01
-6.116413767802348495e-02 -1.115738851442454188e-01 4.705656389494611291e-01
-5.135200815531119900e-02 -1.021754638243754926e-01 4.376019685127288117e-01
-3.280597476430258813e-02 -1.188702917010469734e-01 5.205173159186998744e-01
-4.080775282841946766e-02 -1.156103819749268319e-01 4.907654725077897906e-01
-1.794141001443837202e-02 -6.928450766020910478e-02 4.397029798203684892e-01
-5.213353553381006728e-02 -1.144896840421663897e-01 4.881823848720699965e-01
-1.993269887004638780e-02 -8.476940155474985139e-02 4.442404787497646890e-01
-6.740641629675214741e-02 -1.112345709249870085e-01 5.232658705518757891e-01
-8.270634913272524591e-02 -9.001362927839370864e-02 4.368850168897733255e-01
-1.745345004710477377e-02 -1.188392207778905252e-01 5.450123053808128004e-01
-8.456800182619923778e-02 -9.681229060459946301e-02 4.396058274187229498e-01
-5.906957203043271265e-02 -1.062426602198328351e-01 4.294014706423769923e-01
-9.987665439547023516e-03 -1.168241169797170076e-01 4.799078255495350942e-01
-8.784295848629412873e-02 -1.101829440753194223e-01 5.024177829810839713e-01
-2.120707655450045429e-02 -1.092315476694600412e-01 4.700078615919638936e-01
-5.946778390591419411e-02 -1.137095087216388745e-01 4.859217534130187421e-01
-8.304481856361936587e-02 -1.121223188443302987e-01 4.867034858656390517e-01
-6.754453971557990849e-03 -1.147390501189043954e-01 4.748948378268916248e-01
-1.593608674665693975e-02 -4.830731352942982393e-02 4.383917735672643312e-01
-7.286097310540361194e-02 -1.109778969833106893e-01 4.689609287827497530e-01
-8.566047474614200963e-02 -1.047216846415993524e-01 4.487026664542418941e-01
-1.303864329063107556e-02 -1.227845070653893200e-01 5.032585102546892619e-01
-5.461310359178904450e-02 -1.150782832904815728e-01 5.184193112288145722e-01
-5.395250575415685285e-02 -3.970208386903669590e-02 4.401162974761273494e-01
-1.113117779935954427e-01 -1.005563977801573194e-01 4.820684105614946313e-01
-2.645547589883736131e-02 -1.195272758379077038e-01 5.285307442078914786e-01
-4.316624365222754972e-02 -7.195155870219335781e-02 4.311481040254317443e-01
-3.567598807111116432e-02 -1.168664641672243487e-01 4.938138598808168300e-01
-8.683808919815683147e-02 -1.114228507229381299e-01 4.925189295038729376e-01
-3.824859949794946062e-02 -9.055109825429635828e-02 4.420342976481486663e-01
-8.767750415913767859e-02 -1.057282664639235537e-01 4.537826235644122352e-01
-3.792637948204465037e-02 -1.147846500380991369e-01 5.406017476375293285e-01
-5.015009840227321186e-02 -8.929654759992784741e-02 4.263096965907750557e-01
-8.509486058351491133e-02 -1.056400717241972875e-01 4.513452991755496635e-01
-1.259508153416580983e-02 -1.167437149844864769e-01 4.812933922637603334e-01
-4.678803827511729407e-02 -9.573454918831328375e-02 4.360776563768292702e-01
-7.358288754730887837e-02 -1.022489151279227376e-01 4.272513045801969445e-01
-3.869417650802909475e-02 -1.055851048906887996e-01 4.612774135967256939e-01
-9.569945554351048933e-02 -1.086604108154089615e-01 5.023338005393460648e-01
8.928398064062086081e-03 -1.265340890468615032e-01 5.309430288847581947e-01
-5.406078481526957469e-02 -1.151402677752573350e-01 5.186748606430993114e-01
-2.484739727095896730e-02 -9.714716724656209668e-02 4.540629050792422405e-01
-6.969892862909951581e-02 -1.114991238743926194e-01 4.718522173390063412e-01
-6.805138116075223724e-03 -8.471667524618084477e-02 4.464389674486497483e-01
-3.660770283856476515e-02 -1.154147735623538978e-01 4.885707669960800414e-01
8.321834827594640563e-03 -1.222120899937575167e-01 4.955009579678422704e-01
-5.414044436136625227e-02 -4.090067789089869149e-02 4.399285432232603599e-01
-2.144246830434857684e-02 -1.204128952413531933e-01 5.318403081348440642e-01
-5.790239431679859022e-02 -5.885847375479062726e-02 4.330025989133096109e-01
-5.805117466386325309e-02 -1.059766973804231877e-01 4.328277598256642378e-01
-2.803128213835512708e-02 -6.033889506177104317e-02 4.365180452163254232e-01
-6.327675686569526892e-02 -1.115707060103150738e-01 5.262663833736486163e-01
-5.203691348470456529e-02 -1.113316928985923493e-01 4.697219102374479149e-01
-5.533997341220726895e-02 -1.056478575811723997e-01 4.315059530415700229e-01
-5.720102734754532736e-02 -5.674138566215986695e-02 4.336988531275495773e-01
-6.441630719435241514e-02 -1.076808067138705360e-01 4.515384504751204786e-01
-6.538239584548939665e-02 -1.057111145656999540e-01 4.308216016630202483e-01
-4.098260796992050925e-02 -6.208018774308469295e-02 4.326455112453647112e-01
-4.954929342928178493e-02 -1.108278645365501081e-01 4.686401549159983637e-01
-5.035747883882962794e-02 -1.043813043114681927e-01 4.494897972796561003e-01
-9.207479855965443327e-02 -1.106317128716033799e-01 4.786528835089249867e-01
-3.083302979144866146e-02 -1.161368567675271635e-01 4.890279203708738920e-01
-2.037949667306476753e-02 -9.387102382258290245e-02 4.506125474151587151e-01
-8.745580099060543816e-03 -1.248152571976825359e-01 5.219044341189527092e-01
-6.951926000561772789e-02 -1.119799770808008604e-01 5.185948286696543397e-01
-2.703263087221425415e-02 -1.122164053481682772e-01 4.768085017561963790e-01
-5.515519661302759058e-02 -1.053616605226663505e-01 4.244175573302669813e-01
-7.100136235212120561e-02 -1.123536553244204594e-01 4.786743207240183873e-01
-2.284248727655096428e-02 -7.864435062633018392e-02 4.410843046756172670e-01
-5.690676614135858208e-02 -1.148957653180337490e-01 4.958479913584678545e-01
-3.862368660340987324e-03 -1.200305782035124835e-01 4.865562475246214547e-01
-1.991597856491873070e-02 -5.989938827294156304e-02 4.381121954994799950e-01
-5.547739784030744636e-02 -9.412134775370130380e-02 4.218669872636383045e-01
-6.402472828720820464e-02 -7.433144600641108934e-02 4.265094551052070471e-01
-4.539716670984941804e-02 -1.146141286632815642e-01 4.879222947194397086e-01
3.044747411740876195e-03 -9.701756769875413688e-02 4.553788099239701737e-01
-2.809961975866486633e-02 -6.441870751473945111e-02 4.368018087666188376e-01
-2.699022825774239839e-02 -1.160786117265024120e-01 4.873794062881333100e-01
-5.252747266252061342e-02 -1.137811138840028186e-01 5.278882880079492912e-01
-6.396191332651220141e-02 -1.017556594340753018e-01 4.214197311060431383e-01
-4.377512342005419194e-02 -4.137748245683343928e-02 4.346303206403790975e-01
-2.863377343408413794e-02 -1.075537248557932590e-01 4.683234971504686706e-01
-9.567368254601450739e-02 -1.098397638347797245e-01 4.776119687237965206e-01
-6.050389025276598637e-02 -1.059218378523761606e-01 4.397704451244403012e-01
-5.585016056760333525e-02 -1.121023148659519852e-01 4.727408133401484469e-01
-6.102972864504178224e-02 -7.224607005739208665e-02 4.267077138140262793e-01
-1.767105944281177968e-02 -1.116439437505822446e-01 4.734203908624800006e-01
-2.205811886682004785e-02 -1.202239195703304897e-01 4.998375211182846667e-01
-3.568374068511287814e-04 -1.248476424440921606e-01 5.348241477526850529e-01
-2.801051071165693018e-02 -1.025858565334486633e-01 4.605042348741668068e-01
-5.799770049814041012e-02 -1.047599514131438148e-01 4.376099665411361528e-01
-2.605398943555266300e-02 -8.731653959595479797e-02 4.442984922256393299e-01
-1.821561136236798245e-02 -1.222690061562103636e-01 5.218957847589177357e-01
-1.833490244215882359e-02 -1.213054871474206625e-01 5.020326579758409569e-01
-2.809873803375521895e-02 -7.736842487739846452e-02 4.391439524988397514e-01
-9.068471977709709198e-02 -1.109318377540152306e-01 4.930405091682343866e-01
-8.338547861261813576e-02 -1.033129355365737662e-01 4.438646768807865128e-01
-4.127134908535678992e-02 -1.154598585071998224e-01 5.326331069789962402e-01
-4.948607243698673053e-02 -9.909834448562714060e-02 4.345730332815524455e-01
-9.111986422367877522e-03 -1.236659652284519267e-01 5.034857342383349810e-01
-8.567588836871721514e-02 -1.114973794363744442e-01 4.941043973476170748e-01
-6.380660642442900765e-02 -1.054145002215720883e-01 4.244796288808349582e-01
-3.150052375169948293e-02 -1.193630429068191501e-01 5.097496297581736169e-01
-8.689759464474545655e-03 -9.806635152338087635e-02 4.544520350053942170e-01
-3.680667508371535807e-02 -6.335210357891582489e-02 4.342425614891686214e-01
-6.543263985300674934e-02 -1.136339458965218430e-01 5.140458076582715696e-01
-3.262681804349729792e-02 -1.062382452829306739e-01 4.649919073793585267e-01
-9.890098736158535464e-02 -1.076045003301580455e-01 5.022262356051093724e-01
-1.095615192439085006e-01 -1.035269421743717638e-01 4.844414493940010780e-01
-4.056151543404108717e-02 -1.152159137713837933e-01 5.346999417359986628e-01
-7.928492996495950518e-02 -9.018805200201641947e-02 4.305881038617427325e-01
-8.684604357836779587e-02 -1.050052240127936909e-01 4.506445982627879654e-01
-1.609271725212685356e-02 -6.716456629864585304e-02 4.395717849047084957e-01
-6.019293769863100912e-02 -1.135538177954514560e-01 5.219501352262427840e-01
-3.050949003109066499e-02 -1.011321598613811462e-01 4.576215222308430697e-01
-4.345520830263695233e-02 -1.170976423504921510e-01 5.051730399578895359e-01
-8.986308000063461532e-02 -1.088886975842956184e-01 4.654638093528557508e-01
-6.749751039255538765e-02 -1.130877618264809620e-01 5.147708589413083624e-01
-7.743226567826567985e-02 -1.126165945931226486e-01 4.936405461246853310e-01
-9.567773114654665872e-03 -1.245853478271160275e-01 5.129705031454968589e-01
-3.120954919408120906e-02 -1.187113586903048579e-01 5.002323078106076792e-01
-7.080748178061938014e-02 -1.062342323613308104e-01 4.422236532235126472e-01
-9.958953642510635917e-02 -1.084128158019467270e-01 4.752039230709869666e-01
-3.903176863754948683e-02 -3.764158260761089198e-02 4.349051913800692781e-01
-1.083917257326593026e-01 -1.012659542241493987e-01 4.722165412266008944e-01
-7.545431930053823899e-02 -1.111645805897278488e-01 5.149827298113586194e-01
-8.291507217817907505e-02 -1.006653868659145717e-01 4.400920504323733162e-01
-9.967040074926303284e-02 -9.896606638616303742e-02 4.580804802277751997e-01
-4.623755585112371974e-03 -1.112755632374132359e-01 4.689158740919177060e-01
-5.585226739029693771e-02 -1.048159932645561510e-01 4.350463244897679327e-01
-5.843418728553313735e-02 -1.114377727044868205e-01 4.696288987136058579e-01
-7.677797270488134762e-02 -1.055273814250222292e-01 4.427842276435324798e-01
-3.261813374034828843e-03 -8.475778438844450147e-02 4.471463464360507234e-01
-2.350668448917276471e-02 -6.770080425695762516e-02 4.380641004127979743e-01
-7.374697226525739335e-02 -1.129093311131723759e-01 4.922176011297877962e-01
-4.975841149404291834e-03 -8.482989485857611589e-02 4.468426297140593029e-01
-3.028960648741873055e-02 -9.121273864691219202e-02 4.459266523087551115e-01
-5.124697920087820796e-02 -5.768623371874077171e-02 4.315631943838365014e-01
-8.838655297076762618e-02 -1.105685857249650017e-01 4.989839853103119616e-01
-4.123700668310420481e-02 -4.584072605727373961e-02 4.342729812335258677e-01
-3.583506932960410507e-02 -1.151379293834937367e-01 5.413539698055109817e-01
-1.654914822070352454e-02 -1.213798484087111607e-01 5.354147001884143053e-01
-6.465789374142671964e-02 -1.137459416278358976e-01 4.915562069839860548e-01
-8.493947309744490082e-02 -1.117492644950827119e-01 4.907890558322486885e-01
-6.583856565077560175e-02 -1.138304176827245329e-01 5.117317962902948603e-01
-7.829283613984938661e-02 -1.124642164645922177e-01 4.946751344104444725e-01
-5.669686319173953409e-02 -1.097918204666141484e-01 4.633205248123836162e-01
-1.707632351674395060e-02 -7.196422600618533616e-02 4.403422211797663466e-01
-2.090163333768660370e-02 -1.041513187647039179e-01 4.622497781493039581e-01
-5.056459430537305066e-02 -1.156379354636735829e-01 4.966037305392936863e-01
-2.886205082340585065e-02 -1.013632812617142748e-01 4.585031034892971813e-01
-5.567595187458009021e-02 -1.035537433884319986e-01 4.219409926695809609e-01
-8.196104613876781242e-02 -1.120659870439853628e-01 4.930379845256667171e-01
-3.553102917753356293e-02 -1.072082372170315434e-01 4.657587594834170508e-01
-1.103778585454357059e-01 -1.023803664457624274e-01 4.958856162853466087e-01
-7.815903957011038905e-02 -1.035419070332094377e-01 4.374306293077864782e-01
-1.096885427475000202e-01 -1.036239480791234513e-01 4.911825427831948976e-01
-2.637932825334776687e-02 -5.122448217541582249e-02 4.376477266817720979e-01
2.803931415966603568e-03 -1.264767676926297213e-01 5.295392324058083577e-01
-6.720022689430746321e-02 -1.137312924021497557e-01 5.094032308909507423e-01
-3.541834231575428926e-02 -4.287956405165468943e-02 4.354758557699121013e-01
-6.560106964274117769e-02 -1.139388069952654708e-01 4.980167678763556260e-01
-3.477146977310474618e-02 -8.347933097482194975e-02 4.392855318298265477e-01
-5.237528818157011906e-02 -9.984055287355532438e-02 4.249597522648980719e-01
-1.322098958878220078e-02 -1.227720744095974065e-01 5.318204704431263030e-01
-9.091921443555163462e-02 -1.107269379718823499e-01 4.771841096131873572e-01
-9.064136919027340755e-03 -1.182662067773500580e-01 4.827678252738821785e-01
-1.857366842035772236e-02 -6.362459582683606396e-02 4.386508215745986150e-01
-3.783620359453336579e-02 -1.180715806986316341e-01 5.064760566898440786e-01
-1.904329777496990492e-02 -7.098592336286113635e-02 4.397656825358839949e-01
-7.049285056402951333e-02 -8.756122051669056050e-02 4.218790708481084950e-01
-7.153368789027017560e-02 -1.056203693312492142e-01 4.393122240090522879e-01
-6.755199972242532935e-02 -1.138280076109784017e-01 5.025935396471558070e-01
5.681412137199735347e-03 -1.265001784852713140e-01 5.132193972758756217e-01
9.965166780116340578e-05 -1.266734662084931518e-01 5.185886911078670947e-01
-2.576484608835862694e-02 -8.352087162891753958e-02 4.425308965876398326e-01
-4.334217538420242349e-02 -1.115314761325712917e-01 4.751255834995973815e-01
-7.514978204900506220e-02 -9.805285592210905010e-02 4.241967517758895578e-01
-1.257361563051747830e-02 -1.220385662853780001e-01 4.980797821243007628e-01
-4.321920496469252443e-02 -4.785917414643637430e-02 4.339322173392170523e-01
-3.421047601673548461e-02 -5.114226598725525597e-02 4.354329477481560517e-01
-2.204790885850138604e-02 -8.537765538289758538e-02 4.441572601575183299e-01
8.085853826828619945e-03 -1.245338258184355007e-01 5.033161710185027893e-01
-5.693996602363970289e-02 -9.295406759030726274e-02 4.212038062440582875e-01
-4.363737263684602796e-02 -1.092957216439490453e-01 4.656774289082655782e-01
-1.013442538610989235e-01 -1.079251204412237652e-01 4.767329529540894617e-01
-1.059871602449459077e-01 -9.895530821956695366e-02 4.653519531781733498e-01
-3.778034891154143787e-02 -9.097686018160877630e-02 4.426569622784854996e-01
-5.052198713194593765e-02 -1.066803898720659338e-01 4.558781377528495771e-01
-6.561194656629773525e-02 -1.053747135140027241e-01 4.281687521981054623e-01
-6.409343832657028034e-03 -1.099922903963448245e-01 4.671966437771238878e-01
-6.085026138912309063e-02 -1.141937250608754395e-01 5.168800846381967906e-01
-2.539817762263898906e-03 -9.267784359386609105e-02 4.514109613344063354e-01
-1.782858762973680081e-02 -1.186385382865130372e-01 5.453099162416341628e-01
-5.174498873002366522e-02 -1.119651084834655946e-01 4.733253920733812015e-01
-1.006635152343726552e-01 -1.061391126173728827e-01 5.039140216255639793e-01
-8.484311603965628834e-02 -9.990988445527820838e-02 4.418508943506991860e-01
-5.975527303315023714e-02 -1.114690663613087523e-01 5.298313062375327176e-01
-2.761648163775700521e-02 -1.127329236504163446e-01 4.779999664041229002e-01
-9.338848291497443832e-02 -8.645898097099982693e-02 4.569493291289152270e-01
-2.098054837885999016e-02 -7.647755325439911656e-02 4.405273389485134805e-01
-5.467422576071494927e-02 -6.197020182593888232e-02 4.297388289232767500e-01
-2.338322008368605605e-03 -1.246076223665799620e-01 5.340987089361810547e-01
6.048800401353604007e-03 -1.268649101165655324e-01 5.256773726961027071e-01
-5.611641425851069537e-02 -1.043877418939216234e-01 4.368622008312049720e-01
-6.608763397632338998e-02 -1.137364068819022161e-01 5.120662683680953231e-01
-2.331462820456615265e-02 -1.170698769840476106e-01 5.455261228401754314e-01
-2.017283414161453320e-02 -6.825640984688714774e-02 4.390448931635115848e-01
-4.082763985735322898e-02 -8.598660220415801914e-02 4.361919150741377371e-01
-6.380074287925298349e-02 -8.472794680537205914e-02 4.219413877432480198e-01
-2.619534069879048133e-02 -9.238697669209866570e-02 4.484620569004025836e-01
-3.461769080641190904e-02 -1.188079006977383889e-01 5.126383632593393136e-01
-8.452131490533837388e-02 -1.113859767099960318e-01 4.748283959547802136e-01
-5.722696088693696864e-02 -1.122036524996841284e-01 4.731720300655158362e-01
-5.391242098597903709e-02 -1.088886984271129343e-01 4.607093315254484067e-01
-2.215598861606743464e-02 -1.178030058085640097e-01 5.441708030712399946e-01
-5.654776873727784120e-02 -1.048435729653593995e-01 4.357145149570662013e-01
-1.617715583018112559e-03 -1.174164574171035480e-01 4.796412005218528840e-01
-1.675863946243612290e-02 -7.294483308308483127e-02 4.405729121034772100e-01
-5.467514386123454445e-02 -1.150704199562448821e-01 5.183985198152734064e-01
-3.708195653576003281e-02 -1.178158724957965447e-01 5.232311341876565436e-01
-8.704750112573012011e-02 -1.112564930143267461e-01 4.949129491399468228e-01
-4.594326472267810935e-02 -9.251211461908345757e-02 4.329192580958053926e-01
-1.239118702829353040e-02 -9.084084701589201227e-02 4.484434452112155411e-01
-1.107367210061834667e-01 -1.003594103919939057e-01 4.772328820066927269e-01
-9.469103091665055649e-02 -1.099533688321400193e-01 4.755531197881216476e-01
-4.030681267225107861e-03 -1.229728185226464238e-01 4.964312188960206540e-01
-3.963074289657861349e-02 -8.403416061701073081e-02 4.361608776573588919e-01
-4.689071856868917698e-02 -1.027859947714934025e-01 4.494819535382653664e-01
-7.615250657715365301e-02 -1.057291941563523047e-01 4.425152574060813304e-01
7.727240889215381252e-04 -9.560036851175246486e-02 4.538743362194823661e-01
-9.161485881567803247e-02 -1.073899662680368322e-01 5.099418773383965764e-01
-4.178058367774290655e-02 -7.440812346070704852e-02 4.320961749416298847e-01
-3.479319950670461264e-02 -1.182672072314110978e-01 5.019289928918706511e-01
-4.952744337761227911e-02 -3.342017265983775881e-02 4.369983251072162567e-01
-1.968023244379500658e-02 -5.920300933280854550e-02 4.380672576127762063e-01
-2.956826841394992467e-02 -3.783598737926827105e-02 4.375126420663544846e-01
-3.363315294835426961e-02 -1.088298820367051695e-01 4.694757425514904936e-01
-6.694092175068129535e-02 -8.036792033715058070e-02 4.261842313935958471e-01
-2.198474178266665580e-02 -1.197542675094064729e-01 4.982335379534454378e-01
-2.940403937750166868e-02 -1.120155086418555962e-01 4.766948601332260949e-01
-3.071087893330514199e-02 -8.913169442394663911e-02 4.441601435911235463e-01
-1.924853988997164353e-02 -8.567017076401220455e-02 4.448176093909541051e-01
-3.879319418842468864e-02 -9.561475593292514952e-02 4.461437735860088183e-01
-2.517214781728758372e-02 -1.169007897233872162e-01 4.897908254677406092e-01
-2.289533828570336146e-02 -9.764053932304056493e-02 4.547274544690507736e-01
-7.397813180198595240e-02 -1.061861300612704367e-01 4.441189567050292664e-01
-1.624488910099146019e-02 -1.060447464796540618e-01 4.632914337780895675e-01
-8.426850916188292906e-02 -1.119034275843550502e-01 4.890665981280895025e-01
-3.426115670056008485e-03 -1.200762393466002775e-01 4.865798696274568069e-01
-2.718640333548818372e-03 -1.259889436758585557e-01 5.253500476136229169e-01
-4.893339814084833421e-03 -7.548513260724289131e-02 4.432631602179493147e-01
-2.080360274552325861e-02 -1.093896169419965730e-01 4.701674408303246899e-01
-4.362227832524218085e-02 -9.575602637913802062e-02 4.426775272754021051e-01
-2.179941784398811352e-02 -1.166025413615428274e-01 4.869874362063479900e-01
-2.081260455217855132e-02 -1.211749556744581291e-01 5.043105035056623109e-01
-1.705373233051396195e-02 -1.101494694101213673e-01 4.701302928130195458e-01
-8.846976775495220269e-02 -1.067894858562377786e-01 5.142319574844893548e-01
-6.155374119574918979e-02 -1.130542140339876461e-01 4.813207610057015917e-01
-7.906978602298114778e-02 -9.922389269834905323e-02 4.316488148212358489e-01
-1.362690234444286635e-02 -8.867590320822571481e-02 4.470248971877177624e-01
-1.357714019765880915e-02 -1.236030202706543263e-01 5.205507804214311030e-01
-7.549965771231355316e-03 -1.239719179952303157e-01 5.036325859449665154e-01
3.158846976263037301e-04 -1.058076522255964602e-01 4.631108899905705401e-01
-2.964126335737264986e-02 -1.197041861682145436e-01 5.096219420781201714e-01
-3.317694491229024323e-02 -1.149932364238223370e-01 5.434540553576407973e-01
-8.580287693366099588e-02 -1.101674669128414746e-01 5.055470056077175922e-01
-1.140496063646822753e-02 -1.243830464600717833e-01 5.156251459129831405e-01
-7.495804692199047048e-02 -1.117875814847849453e-01 5.115888328957293174e-01
-4.514696350927041579e-02 -1.134453524140277836e-01 4.831745053204257179e-01
-2.631017287768842861e-02 -1.199497091325887194e-01 5.035564727306333088e-01
-8.109029837169837163e-02 -9.744196501070896688e-02 4.338384869143965816e-01
-6.661917336281067414e-02 -1.071951475866863429e-01 4.484776137442020860e-01
-2.684453505457130504e-02 -1.188780404353887710e-01 5.336295009841579562e-01
-4.298646137214510304e-02 -1.172261995421149949e-01 5.165015308349999446e-01
-1.275235811625732157e-02 -1.209989046767443455e-01 4.934001694296218932e-01
-1.553070622279100615e-02 -1.218189249741191277e-01 5.342036025642272756e-01
-2.448610988567944020e-03 -1.260954895555541355e-01 5.150071693017085339e-01
-3.557255510872043419e-02 -1.186259397217876710e-01 5.102241345182773058e-01
-6.902044519691433178e-02 -1.134056382261006968e-01 5.092409109574096426e-01
-6.831951183419342211e-02 -8.253765487687063362e-02 4.249576737250347347e-01
-2.851852792862524452e-02 -3.820911613495352882e-02 4.377649261297440475e-01
-2.349108279904107976e-02 -1.087822449936570873e-01 4.697250756226281632e-01
-7.083750229463703016e-03 -1.036807406544579396e-01 4.598708957715344492e-01
-3.933388897152929886e-02 -3.762865055113480406e-02 4.348719009369353405e-01
-6.513198661114353791e-03 -6.802802565780717570e-02 4.405976594393082868e-01
-2.018948861963222249e-02 -1.197318414538206394e-01 5.382873419881325505e-01
-8.751417044900533515e-02 -1.076424314596898940e-01 4.584604661933798231e-01
-9.344486993206299608e-02 -1.093275012515695088e-01 5.014714953185128721e-01
-4.112062342520610841e-02 -1.134722348889399407e-01 4.828903495819392155e-01
-3.422690164158604526e-02 -3.286619552852528686e-02 4.364590638700133751e-01
-5.359928363496668791e-02 -1.028059186492210758e-01 4.406865816700237803e-01
-5.253713871123494306e-02 -9.489504006486747245e-02 4.242984750998367027e-01
-3.615643371067531892e-02 -4.342191139102891811e-02 4.352049156554642639e-01
-1.290855407193353468e-02 -1.238169497437611177e-01 5.126994874072688946e-01
-7.943752160702355347e-02 -9.569234445670224409e-02 4.295080413806535158e-01
-2.210850852270905206e-02 -1.175501679852276327e-01 4.901263599764108525e-01
-3.368467850174883260e-02 -4.019045607302836054e-02 4.361198689769253956e-01
-8.579692331714360021e-02 -1.097531089594643294e-01 4.660480827470451781e-01
-9.122557213297437240e-02 -1.099599253038039542e-01 5.003257264046313546e-01
-9.828394522546962664e-02 -1.069270782336627229e-01 5.049428485001649092e-01
-2.781582333233447932e-02 -1.199050498572187262e-01 5.053380436881582671e-01
-4.393508561571689286e-02 -1.171362026280691887e-01 5.086993121111628158e-01
-8.685626339040408705e-02 -8.868990289118382220e-02 4.440465008961126947e-01
-9.896049755411878701e-02 -1.091640395807992603e-01 4.849501670076953319e-01
-6.232709951482474225e-02 -1.102058456613181220e-01 4.644801641981315399e-01
-3.287244174066872304e-02 -7.293226816556523662e-02 4.359467963838217774e-01
-1.050372369448244469e-01 -1.063605566897163068e-01 4.771636395242547790e-01
-1.277770077980321453e-02 -1.238540844420150111e-01 5.128001734774570997e-01
-6.820476995075355764e-02 -1.106543351890705434e-01 4.666100917315724739e-01
-4.961230385278712907e-02 -1.162335755832918371e-01 5.076259633775236368e-01
-6.740739261792877413e-02 -1.012399858596941538e-01 4.207806224557076313e-01
-3.959766960396358254e-02 -1.173100585414894176e-01 5.234496060299316245e-01
-4.992659267445950788e-02 -1.117957220376031291e-01 4.731528055289865309e-01
-1.021465043324298189e-02 -1.086095108695271233e-01 4.655267385395573942e-01
-3.022246967996711914e-02 -1.190438185027849344e-01 5.012052540740047357e-01
-9.292895039208613761e-02 -1.104940691744228931e-01 4.930195923447650008e-01
-5.537051078504159202e-02 -5.764894742445961923e-02 4.314584444690726661e-01
-3.591943301867444455e-02 -1.142413648597896680e-01 4.842226565543687467e-01
-5.133397635372264831e-03 -1.114322431206864611e-01 4.692169611748649993e-01
-3.991813055966111218e-02 -1.134894472434840318e-01 4.828048642040748684e-01
-6.145991014108747458e-02 -1.126745743811242706e-01 5.240816062496992389e-01
-7.983094351777600406e-02 -1.123868323800260444e-01 4.863192579624635026e-01
-4.210010812285868570e-02 -1.171453694280006758e-01 5.007170996883161251e-01
-5.580597434622983771e-02 -7.753813599755909891e-02 4.243958824686620002e-01
-4.595546929925287127e-02 -1.103981324256519819e-01 4.688509581431783979e-01
-8.475511391502862923e-02 -1.048984665821190432e-01 4.486376831649688812e-01
9.500240608507359158e-03 -1.266560998777800928e-01 5.299051218106717309e-01
-4.240264023277264677e-02 -1.108977143300394763e-01 4.726635689637483928e-01
-2.040561324242188418e-03 -1.203952367168270587e-01 4.874757299497688989e-01
-9.207236944248726671e-03 -1.138770151960971366e-01 4.737108607684052397e-01
-8.220219812496137174e-03 -1.220389621726411244e-01 4.945577370584985366e-01
1.138134980785490431e-04 -1.263854506714893466e-01 5.135434054284371275e-01
-9.242812912869489972e-02 -1.100896033338320673e-01 4.730621162679847780e-01
-1.046837619920354262e-01 -1.036367978033608667e-01 5.054294794767426602e-01
-1.903194207614035752e-02 -5.676596289479107077e-02 4.378997371838396213e-01
-4.154326218817654126e-02 -5.896762784557298825e-02 4.327143536495362541e-01
-2.827541271336110607e-02 -1.193740759448463501e-01 5.015308854654803028e-01
-5.895201635054801020e-02 -8.552045415997096278e-02 4.226424906858794461e-01
-1.651845827655601048e-02 -1.098619589022628990e-01 4.693799429275610779e-01
-9.250748742253299406e-02 -1.106121958193236610e-01 4.835363968090547471e-01
-5.622441864712336701e-02 -5.670829780943499598e-02 4.327809852964930593e-01
-7.887259203525906828e-03 -1.227226433589433258e-01 4.967623472533275186e-01
-7.403401850435775700e-02 -1.094572682862277047e-01 4.608294803969526510e-01
-5.418431403218812448e-02 -3.221918120138225761e-02 4.444889251268835384e-01
1.451551004433695308e-02 -1.262655301286562670e-01 5.221495473386801311e-01
-4.315919491613672693e-02 -6.617764803699208165e-02 4.311716454474984750e-01
-8.109733992890566512e-02 -1.114472445138094958e-01 4.732571040358627412e-01
-2.815299805081311613e-02 -9.238224493040324281e-02 4.479216825847589512e-01
-5.156568332983412807e-03 -1.158812302936855915e-01 4.768417712673844178e-01
-3.140480314818909491e-02 -5.498378597690267017e-02 4.358051656983056299e-01
-1.252803031060932722e-02 -1.121903689617418376e-01 4.719422541379419411e-01
-3.361510711978599880e-02 -1.172121450870788617e-01 4.942275747203004332e-01
-6.906384728179121302e-02 -1.136123145519378069e-01 5.010031093295096438e-01
-5.630792799655252867e-02 -6.554626189231654854e-02 4.289234886365639321e-01
-2.628404214261768901e-02 -1.145581951396603543e-01 4.822584670529874717e-01
-6.583954678137914074e-02 -1.140176596013447452e-01 5.012991723341740924e-01
-8.598723831199037160e-02 -1.117111938650168362e-01 4.839647693960696384e-01
-8.389519906628484236e-02 -8.919543876924394821e-02 4.394023597377411661e-01
-3.327667547424209560e-02 -7.343573983488180246e-02 4.358126375657399576e-01
-3.817662586596834440e-02 -1.102148232987999049e-01 4.716808946844615047e-01
-5.033536908190711090e-02 -4.081881448299563842e-02 4.359052482236941417e-01
-3.539051148625351612e-02 -9.635042652887121362e-02 4.486255457914820610e-01
-9.576379447767950637e-02 -9.361852773824477780e-02 4.536734308631171775e-01
-8.046116692628563216e-02 -1.078419942349264082e-01 4.558761627260840554e-01
-3.266541887565976854e-02 -5.695990082776399011e-02 4.356029610138030250e-01
-5.852514781999290649e-02 -1.065716669868550792e-01 4.475605677908905400e-01
-6.032095536144695125e-02 -1.121351169815560378e-01 4.730945320007510224e-01
-4.616514012669061667e-02 -1.070061640240708434e-01 4.595228872234374262e-01
-3.176568700318757685e-03 -1.227780038993155354e-01 4.955079137369426956e-01
-9.553000061444510971e-02 -1.099316603108560220e-01 4.912020306958220228e-01
-4.050584408246662993e-02 -7.549741395394940491e-02 4.328837831938310288e-01
-4.326498455936438059e-02 -1.172340766768754788e-01 5.115919346394387501e-01
-4.691283723753150031e-02 -9.007498636837052430e-02 4.294464544593369904e-01
-8.377884261135684629e-02 -1.112967826370325625e-01 5.000450008957609827e-01
-4.183997734762519988e-02 -1.159849398488996541e-01 4.925163295978484124e-01
-3.031162059010060819e-02 -5.316919555210400383e-02 4.364563534049716309e-01
-3.327886421408227102e-02 -1.190030291300588627e-01 5.154607940200992555e-01
-4.456683823095846514e-02 -9.401528503659310754e-02 4.393045169033608643e-01
-1.058895614963950293e-01 -9.895829552816907959e-02 4.651608112248976634e-01
-1.657483868019087037e-02 -9.413426816340397796e-02 4.504879255877726751e-01
-9.793671267763458255e-02 -1.090719884484360747e-01 4.950095382812700895e-01
-2.832220802592615508e-02 -1.129756903897535664e-01 4.787340774561979484e-01
-3.600640568341625242e-02 -9.230178154205556651e-02 4.446484466895068155e-01
-6.563735075515890471e-02 -9.643791079986899217e-02 4.193992590546690713e-01
-7.393674868376389278e-03 -1.252433911778828568e-01 5.150472078941814580e-01
-5.497731029016417886e-02 -4.640003305043466364e-02 4.382306221018700820e-01
-3.306038327453207637e-02 -5.426139466651272447e-02 4.354793295511154572e-01
-1.065774577595350880e-01 -1.051424557268995780e-01 4.998951922477223864e-01
-5.618295312319325496e-02 -1.119305740096074309e-01 5.310819730964844165e-01
-5.174335286104273651e-02 -1.090878261949266015e-01 4.621534459335014389e-01
-5.494304469093398008e-03 -1.119006361324845350e-01 4.699956362698010648e-01
-7.808382528523711771e-03 -1.230523969163354603e-01 5.365334677079922621e-01
-1.043587958842537716e-01 -9.138934274366596056e-02 4.686581413566253129e-01
-5.880101771327374272e-02 -1.143750601376961884e-01 4.920637475463640054e-01
-7.994434589979819428e-02 -1.102339604474451423e-01 5.129526264324195672e-01
