-3.978504526027097643e-03 -7.917250487828952910e-02 4.446731950691765745e-01
-8.625694014417654987e-02 -1.116303449838870893e-01 4.964699434012506685e-01
-6.849493396990583016e-02 -1.046182931390973458e-01 4.245342868879392051e-01
-6.829361225376370803e-02 -1.109458907964520902e-01 5.239523144484162787e-01
-1.625639789041714509e-02 -4.932267970428694248e-02 4.384366988747351868e-01
-3.528515092095008132e-02 -6.047341235862289249e-02 4.347754867049790639e-01
-1.081561505332468733e-02 -1.227895597691540802e-01 5.356126564268119949e-01
-8.351758126163315310e-02 -1.122684015864737900e-01 4.795292346154525487e-01
-6.443675690029332555e-03 -1.251108241384428499e-01 5.101910393495722174e-01
-8.105571286152504773e-02 -9.751934131017139795e-02 4.332559893441114696e-01
-5.724996397202269244e-02 -1.127291290137620861e-01 5.283415773771041879e-01
-8.232966539161842845e-02 -1.099146433333656470e-01 4.625624326851733858e-01
9.077939712564925615e-03 -1.219799012365564150e-01 4.949187190114195944e-01
-1.101036401050529273e-01 -1.028368858299687355e-01 4.835685184539105785e-01
1.100789705732487878e-03 -1.264090990318264274e-01 5.116270772820176171e-01
-2.205627244897601785e-02 -8.649027228173190862e-02 4.444958872405637695e-01
-1.798518619353771039e-02 -1.224607992737625078e-01 5.202284175540982103e-01
-7.361106929476471383e-02 -1.125787239229333464e-01 5.101674093681918265e-01
-5.939532205222856215e-02 -1.025662560632872450e-01 4.212639764855024560e-01
-5.290930308450594172e-03 -1.191532419655938757e-01 4.835613865874026640e-01
-6.996546361849367845e-02 -1.136602694810157355e-01 4.944441572375186666e-01
-3.988612220575963457e-02 -5.814119112735360168e-02 4.334295201164760081e-01
-3.047891324471421054e-02 -1.013286241835168328e-01 4.573536791051525108e-01
-7.595753187356009406e-02 -1.123992804109481963e-01 4.759837977397361475e-01
-4.834483071460929718e-03 -1.247930948520804550e-01 5.056061868169215989e-01
-6.115767368956919608e-02 -1.135536922877998095e-01 5.216489811777684782e-01
-8.211986166200753445e-02 -1.087136486964403875e-01 5.160792543563830215e-01
-3.558283720241516013e-02 -1.103180885618077894e-01 4.719002673260518366e-01
-1.777346863579658959e-02 -1.197574564358162286e-01 5.413653250850642973e-01
-2.068887561344188303e-02 -1.044938530856691916e-01 4.623986363514025477e-01
-5.942292726145302628e-02 -1.063876046004026271e-01 4.225495679499375878e-01
-4.539670008831164782e-02 -5.786999033858496178e-02 4.319699266250754954e-01
-6.413316521021328320e-02 -9.938010983411800503e-02 4.198823016801561114e-01
-1.396638366878838987e-02 -1.201348226622233756e-01 5.434362689617573405e-01
-4.984044672697903605e-02 -5.817911084033431518e-02 4.313873656012391922e-01
-5.086602135059110907e-02 -1.162024354124099185e-01 5.055435192236850117e-01
-5.857803236602142360e-02 -1.143102565178460983e-01 5.207734520140843149e-01
-3.969397977081020462e-02 -1.027083206152043376e-01 4.542407798574321642e-01
-5.053614546390855500e-02 -9.303161680347764306e-02 4.255792207056025012e-01
-6.904309317991932926e-02 -1.119901833292858556e-01 4.720738302666585562e-01
-8.853371766298753776e-02 -9.299578768422513131e-02 4.446853984973628826e-01
-1.794265150019561626e-03 -1.165588434728826311e-01 4.775568692778014435e-01
-4.473789902754016223e-02 -6.527653218796485024e-02 4.304431522361828466e-01
-5.319153668980017291e-02 -3.437182200145635219e-02 4.391642857518983645e-01
-8.738429730682437113e-02 -1.070293130697524686e-01 4.553109812783648902e-01
-9.670234361527127454e-02 -9.587734489377797154e-02 4.540550775334435962e-01
-7.228430743626362842e-02 -8.858343988961563109e-02 4.222766214886158886e-01
-3.391276263879467595e-02 -8.131881031484947120e-02 4.383561804546479701e-01
-5.481825252902022133e-02 -9.294948704150279850e-02 4.219746163429639041e-01
-8.018349736893420898e-02 -1.083743867557514506e-01 4.555927676783603775e-01
-1.082455440677386749e-01 -1.032651168452220630e-01 4.756614284791286784e-01
-4.793947342241571680e-02 -1.088914057394866214e-01 4.618231915331090232e-01
-4.298565393477753876e-02 -1.078026037262736492e-01 4.621230069802247931e-01
-7.291517475035205753e-02 -1.072670929584162575e-01 4.466685047921782337e-01
-2.089569915526775026e-02 -1.097995965176459116e-01 4.706558165427528473e-01
-1.334893451382431449e-02 -6.825717408547293807e-02 4.400590306917099293e-01
-2.667353407350820174e-02 -1.203779615187163948e-01 5.177628410647664436e-01
-5.332693055078049221e-02 -2.474772078027032488e-02 4.436756624386932746e-01
-8.747958859192418724e-03 -1.084019981567302116e-01 4.648703633645567823e-01
-2.238112502256274158e-02 -7.311433760518797065e-02 4.392551170268161331e-01
-9.972098341988724912e-02 -1.077040966139250905e-01 5.015675790077194218e-01
-6.353415507306213808e-03 -1.137185493322441926e-01 4.729086951459220423e-01
-4.318544468069644704e-02 -7.150992188774793479e-02 4.308283775680145644e-01
-2.611186254672638249e-02 -7.024843804764245581e-02 4.376893775380001905e-01
-9.113836709275670300e-02 -1.078490180509109053e-01 4.606978661294779953e-01
-3.724479205850581010e-02 -1.183752308391529257e-01 5.153062202069472741e-01
-8.191075763089504524e-02 -9.512125963257417327e-02 4.331765546801255029e-01
-7.555554817126643175e-03 -1.086442614367471027e-01 4.651216388946195490e-01
-4.715600971053684337e-02 -4.311148245614398328e-02 4.344617603962025454e-01
-4.230325443548960118e-02 -1.171959292600100871e-01 4.991294894849615527e-01
-1.041231710156648345e-02 -1.188573100263760618e-01 4.848640617706701517e-01
-5.304832974709457888e-02 -1.131236615534676887e-01 5.303077773797397754e-01
-3.525095078556420014e-02 -6.985395567259650162e-02 4.344821199191727379e-01
-1.195600948003675001e-02 -9.964797458740108638e-02 4.555599636747286740e-01
5.124152680304000507e-03 -1.209589209181122504e-01 4.900118634503848325e-01
1.973802779245118714e-03 -1.265610773207646311e-01 5.118463510300238495e-01
-1.066839016629437392e-01 -1.046898995608109700e-01 4.734037990927016937e-01
-2.505655544593937689e-02 -5.253858879862029901e-02 4.376073323466087017e-01
-6.452916523702745266e-02 -9.968820128190936103e-02 4.198849549294014771e-01
-7.048021944580991349e-02 -1.112963407474485411e-01 4.676380269464411876e-01
-1.089334856490088294e-01 -1.047934933038534855e-01 4.939630923502450477e-01
-5.544260470042807615e-02 -4.481285991504174726e-02 4.414253430783052767e-01
-6.579347116505551013e-04 -1.216280457046163554e-01 4.913787196153079906e-01
-2.034128720813225058e-02 -1.166709500443904451e-01 4.859055059533742282e-01
-3.299507412886003993e-02 -1.099136996855267223e-01 4.713397135464633125e-01
-4.749594230598352951e-02 -1.166734469525245177e-01 5.053177312828686096e-01
2.295593305227282103e-03 -1.222750230621202361e-01 4.936847203884143775e-01
-6.504493896776779305e-02 -8.193777480967498472e-02 4.244830498084885551e-01
-8.062310042121934028e-02 -1.124112387931171519e-01 4.977168211242697926e-01
-3.973591418383064927e-02 -1.129704244890069459e-01 4.800702223589094486e-01
-2.779173073822564788e-02 -5.604956893016155989e-02 4.366784408644817650e-01
-4.657600834487640035e-02 -1.140755330584109772e-01 4.841866050009530631e-01
-4.105115894742478871e-02 -1.166760995702917358e-01 4.945666854872447504e-01
-4.333064548078886108e-02 -1.136896428371391154e-01 4.829892976079788736e-01
-8.319328286319882526e-02 -1.081449215675135966e-01 4.560416601190441233e-01
-2.049935828018390263e-02 -1.130091175202218301e-01 4.771648762230847884e-01
-5.190092037401531494e-02 -1.154184885256236137e-01 5.206570260950126317e-01
-2.551066191474505793e-02 -1.195800184386554554e-01 5.304135813649891729e-01
-5.421589354843728281e-02 -6.895465017040922073e-02 4.268797172439857124e-01
-3.630676011333511255e-02 -1.178604779997968199e-01 4.993231086679198460e-01
-9.118363788648715940e-02 -9.325068617840236163e-02 4.478995694570764852e-01
-3.128153829367436023e-02 -1.192038673006450139e-01 5.031673310921830344e-01
-1.347680026120081850e-02 -1.216442709683260709e-01 4.968613137773887911e-01
-3.273517475660309844e-02 -7.263010092063611201e-02 4.357583271591748408e-01
3.791205327614910643e-03 -1.145533689204057959e-01 4.750351551565152319e-01
-1.044140796083420537e-02 -1.206316352230547700e-01 4.903685058099504501e-01
-2.360034691817514130e-02 -3.999741766267635862e-02 4.386875430499191375e-01
-9.122747626971582785e-03 -8.366352182087775924e-02 4.454412456024540168e-01
-1.055957286180407434e-01 -1.073628306648438946e-01 4.840314983165497909e-01
-5.515326873570373933e-02 -5.055421551663903668e-02 4.346927815060417366e-01
-1.063003317226453998e-01 -1.017438295455753150e-01 4.673463705673800983e-01
-6.316646606741201098e-02 -1.130210866021551935e-01 4.766621158799116409e-01
-9.532582392071667354e-02 -9.941874837155431632e-02 4.521276559954126584e-01
-9.038734845886882419e-02 -1.008182605569046819e-01 4.478481971680716711e-01
-5.531218828158403211e-02 -7.663726015124912305e-02 4.244456088809826499e-01
-6.037154063920165126e-02 -1.070314448432072157e-01 4.293174738885713881e-01
-8.572556174363604731e-02 -1.112507834820950364e-01 4.705048925441576158e-01
-4.655391351075793133e-02 -9.344131922327451878e-02 4.308936016155709425e-01
-3.169779359094140880e-02 -1.190056971837684524e-01 5.022972018424508578e-01
8.946146671374041737e-03 -1.264298748743326317e-01 5.321414597012804615e-01
-5.914202654373223317e-02 -1.085906854247511016e-01 4.554650212586631719e-01
-5.151111850601335085e-02 -2.613238344795143150e-02 4.381894592224906959e-01
-4.815603235775119118e-02 -9.675187297568352274e-02 4.302664395348057558e-01
-1.610526246276975174e-02 -1.141379816286277465e-01 4.774868093475000408e-01
-2.345528103401119113e-02 -4.905840052067583085e-02 4.382970289732399105e-01
-1.461036162053286000e-02 -1.107960145305598304e-01 4.700823935168120249e-01
-6.970764469892809512e-02 -1.134767460766654829e-01 4.900837136756973078e-01
-9.728561273311409074e-02 -1.082206495560840698e-01 4.676501645185122125e-01
-1.073815536435903176e-02 -1.228046260446349902e-01 5.356315783978702338e-01
-3.645529606601664516e-03 -1.193231840181027958e-01 4.841058942008374388e-01
-2.309827179667006333e-02 -1.151773086208038588e-01 4.831758967451636466e-01
-4.303259080435906103e-02 -7.111772969616075857e-02 4.308761501764180046e-01
-2.569872886730358019e-02 -8.780692815698545872e-02 4.443691992739686736e-01
-1.133922141525831734e-02 -1.211436499680591944e-01 4.925679226175475045e-01
-3.236125440851348595e-02 -1.006323913599608544e-01 4.555952693564739864e-01
-3.545333383301553509e-02 -4.317181263555543158e-02 4.353667712126501610e-01
-4.414061099507266689e-02 -9.408088575803286169e-02 4.386503248414406197e-01
-1.042222221543619570e-01 -9.171852721414175402e-02 4.684385838278248837e-01
-4.291374911963007771e-02 -4.231960416658794855e-02 4.344153477992785950e-01
-1.100648548619084233e-01 -9.780196855714776150e-02 4.750270692526763483e-01
-5.456734904147790555e-02 -1.056940759102362876e-01 4.459419227117861761e-01
-2.482502105894707212e-02 -6.904444839867877881e-02 4.378173484843478347e-01
-8.672726669030268731e-02 -1.035429851176370014e-01 4.460715046402431994e-01
-6.790131148701306074e-02 -9.273050802431481721e-02 4.186381047315174131e-01
-5.096123308958625669e-02 -1.013362103822759985e-01 4.310459275666264078e-01
6.956831454593762065e-03 -1.252157694536361610e-01 5.059384760974079409e-01
-4.280401866016372847e-02 -3.775727571027354817e-02 4.346432453693389042e-01
-4.824205500951126574e-02 -1.102124254522813956e-01 4.652148478229048423e-01
-8.314617426775926246e-02 -1.124734597697584493e-01 4.868433455008556732e-01
1.433569032565805076e-05 -1.266737718155796499e-01 5.179046704531922174e-01
-1.097587220695035309e-01 -9.478537830456029711e-02 4.747539009426705592e-01
-5.533466699523905546e-02 -1.143810921574234252e-01 4.865028590559867805e-01
-3.266485276570890023e-02 -1.033628683146028127e-01 4.597226001966786546e-01
-6.433847087667456111e-02 -1.116864286010829238e-01 4.694270369745234817e-01
-7.244095688231130814e-02 -1.134860998451806269e-01 4.988454753089079929e-01
-6.575230866800060858e-02 -1.123655472291917451e-01 5.213819620296670232e-01
-1.271746742921473113e-02 -1.230488860678570912e-01 5.042402675570175630e-01
-6.230924383722283300e-02 -1.103456284863019582e-01 4.624324771134348255e-01
-2.132660437722331409e-02 -8.630540020724140893e-02 4.445340550107256816e-01
-1.648551916144694665e-02 -1.226891774393670254e-01 5.228153303037212929e-01
-1.734024224727434907e-02 -8.886578275820858352e-02 4.464242746332563461e-01
-7.024269161734005007e-02 -1.131359812260681053e-01 4.832487537112337139e-01
-8.830151456144433308e-02 -1.116096569420351597e-01 4.784079472387754994e-01
-4.158334467423251135e-02 -1.166570834417939573e-01 4.946470267879702343e-01
-8.317728442279241630e-02 -1.098713871521155572e-01 5.109399309776122555e-01
-3.458757803093820415e-05 -1.248491492968517580e-01 5.031328851208585196e-01
-1.655033481441288423e-02 -6.979846775628789635e-02 4.399038771057908748e-01
-5.436670938446609008e-02 -1.156547978791370029e-01 4.986432530493276616e-01
-3.316935838554970623e-02 -1.188870400754739043e-01 5.205161192065768105e-01
-4.682617897282356778e-02 -1.167550715712802056e-01 5.045523354800780513e-01
-2.360122337070445081e-02 -1.197916763571594823e-01 5.326166533526343061e-01
-4.068721515825707291e-02 -8.395924584369530985e-02 4.348649781530342096e-01
-3.847727919319519213e-02 -5.831011013551964245e-02 4.338920051713331949e-01
-8.696440647469075302e-02 -1.109553639389420643e-01 5.002055692037850054e-01
-5.885463637308255280e-02 -1.134384421961808220e-01 5.242888040743852729e-01
-9.711879805299596102e-02 -9.432472198693847565e-02 4.552983954096613273e-01
-6.219492837030637239e-02 -6.990914246190974013e-02 4.284257977180038202e-01
-5.668526692886332458e-02 -9.628934851323496524e-02 4.210475489401873106e-01
-7.085615988869232995e-02 -1.107377572577720182e-01 4.642632247692290992e-01
-3.039283116382981292e-02 -1.164848213778695157e-01 4.895018910176026639e-01
-7.741228881443860954e-02 -1.065784136063430421e-01 4.458928028324535831e-01
-8.127162238965145169e-02 -1.110009525431385757e-01 4.669873318243393800e-01
6.787139361391923524e-03 -1.246170537702592646e-01 5.028463072120138433e-01
-9.632403228161177944e-02 -1.101934316905790884e-01 4.846215772635330543e-01
-6.949337559419895005e-02 -1.129999581849307627e-01 5.131362670830635908e-01
-6.002954131430805751e-02 -1.067787038719042320e-01 4.328854819480748017e-01
-9.098468202716732123e-02 -1.112820874308717567e-01 4.917119691002011517e-01
-4.716511120015202257e-02 -1.105361991249085574e-01 4.668013849052390363e-01
-8.161904147539375542e-02 -1.076072426229475187e-01 4.535758509307665776e-01
-7.859827850609714395e-02 -1.127273876990382145e-01 4.948289186042096888e-01
-2.812382457710369162e-03 -1.128120942046688668e-01 4.712451826636542829e-01
-6.104402081309091149e-02 -1.131190998799751213e-01 4.777039187812241461e-01
-4.425322183052689956e-02 -1.143957019778563261e-01 4.856100816411875742e-01
-2.626155288208549543e-02 -5.182080727276782567e-02 4.375291682192032350e-01
-4.756219451779728630e-02 -1.100630685379863499e-01 4.650002587006033528e-01
-5.833082515478252295e-02 -1.082834339527723871e-01 4.531832372335418690e-01
-5.568876776502112297e-02 -1.155272247171590383e-01 5.013009186469685741e-01
-5.756630365082295031e-02 -1.137429713175178575e-01 5.240582419708332829e-01
-1.744547313799333504e-02 -9.640460581567278364e-02 4.527836363122095809e-01
-3.629199861778978353e-02 -1.185154309492766206e-01 5.075026735955788793e-01
-8.692017937475472050e-03 -9.493279981305473292e-02 4.516313354440146810e-01
-8.501558930547933879e-02 -1.040132776215670074e-01 4.450406118043459536e-01
-4.544732865038650371e-02 -6.426785845454389967e-02 4.303266439674915955e-01
-4.895524133479860207e-02 -1.159939092017053669e-01 4.960740600617902230e-01
-3.965997887889113199e-02 -9.907039579415796715e-02 4.485678638997364631e-01
4.601583772427125102e-03 -1.246815276052278543e-01 5.021720109367312501e-01
-5.708044629302312656e-02 -1.154094234265577584e-01 5.095407036886666630e-01
-7.659182315190121715e-02 -9.239346738290843408e-02 4.258958711681706255e-01
3.110221567709011998e-03 -1.114689198916811730e-01 4.698410811927846709e-01
-3.580663997162054912e-02 -4.845179223151844378e-02 4.349337328274039960e-01
-2.499000832250850707e-02 -1.206412984612810629e-01 5.058973750450741491e-01
-6.045929862602310301e-02 -1.147276783433493902e-01 4.959906958607664951e-01
-2.925721591644163053e-02 -1.197673453227236645e-01 5.178490091713294774e-01
-9.735773946373647847e-02 -1.015714746809169289e-01 4.560516703307809783e-01
-4.248600545496483000e-02 -1.175299350888319994e-01 5.096230063462531268e-01
-5.526154806452066720e-02 -7.771668641693757484e-02 4.242597785215938555e-01
-6.280510435683106518e-02 -1.068313778477680276e-01 4.374108440851682267e-01
-2.460054846147435512e-02 -1.198515037434853825e-01 5.299117339081683697e-01
-3.037660726493190272e-02 -1.086785044954649559e-01 4.692786013184987448e-01
-4.153242099346170224e-02 -8.339422047392572312e-02 4.339909252036190379e-01
-7.302391909146870030e-02 -1.066380961058489424e-01 4.422095497696804656e-01
-1.094611303031803491e-02 -1.109704598645640666e-01 4.693443868805635688e-01
-1.119970148406109270e-02 -1.237428091100592348e-01 5.072517001373857415e-01
-2.513930104542898281e-02 -1.178700875330209868e-01 4.928076249971218292e-01
-7.220953013209187310e-02 -1.106120685340986620e-01 5.210975552042313996e-01
-4.472531096505132087e-02 -1.116237646409553308e-01 4.735305077331913304e-01
-6.632094096161648966e-02 -9.457208366193803339e-02 4.188003881034750298e-01
-7.254383949818939137e-02 -1.045265071775732524e-01 4.299938579239373504e-01
-5.330712921318139785e-02 -1.158623553892900865e-01 5.042315867827140696e-01
-6.459957359169544999e-02 -1.075452285262511465e-01 4.430332037933666922e-01
-2.668840446082679230e-02 -7.318633189474292589e-02 4.380194170495859685e-01
-8.344547936373931940e-02 -9.510303077909353087e-02 4.360351853934506527e-01
-1.103993921465437761e-01 -1.025345186285667315e-01 4.944302022936810093e-01
-1.091559767909444922e-01 -1.040888443187016205e-01 4.822013262854147331e-01
-1.686303177060023695e-02 -1.205888720156963190e-01 4.955719278092142743e-01
-1.308563471750515475e-02 -5.894107368456436014e-02 4.386283567478697076e-01
-3.292993381863962288e-02 -1.182724725925545645e-01 5.272390938282441875e-01
-7.958852531310102452e-03 -7.914305144397124070e-02 4.439335883536587590e-01
-5.563792940227882226e-03 -7.498647265339150603e-02 4.428718115808949474e-01
-9.963314268660422579e-02 -1.093719854719376328e-01 4.864422698911255449e-01
-5.912842013160531096e-02 -1.129542038558063177e-01 4.760334954940092511e-01
-6.045824790554940945e-03 -1.155420006189986915e-01 4.761182255832091537e-01
-2.400959261171914383e-02 -1.026655604872311195e-01 4.607797377131799821e-01
-2.368232879554913774e-03 -1.261975522315360865e-01 5.231995034628585950e-01
-8.601110483632950013e-03 -6.881974726058237568e-02 4.406294489922253921e-01
-9.994533439178807099e-02 -1.092400297988157659e-01 4.892295425786722940e-01
-3.726327197036655853e-02 -1.152386139171152207e-01 5.397747348022655656e-01
-3.526461900213863354e-02 -3.174274767049229534e-02 4.363532550073638827e-01
-6.806115675185199498e-02 -1.138145545773519285e-01 4.931807294463967928e-01
-1.274915600641038892e-02 -1.065467304074245725e-01 4.629635090024806776e-01
-2.685095886411578703e-02 -1.202282070065771730e-01 5.203105589198694370e-01
-3.368331684412327609e-02 -1.094165516536554222e-01 4.701177173231192441e-01
-4.182911684480544040e-02 -1.175394131734862346e-01 5.171091460484961155e-01
-1.818140439458885635e-02 -4.129780477922888327e-02 4.384723521065602703e-01
-7.962504084747543120e-02 -9.609551232585583636e-02 4.297263956857513834e-01
-3.133614493255668099e-02 -1.141985065228086349e-01 4.817997986455173076e-01
7.427990922268316821e-04 -1.048099671154746615e-01 4.619891033782750900e-01
-3.480556662759152348e-02 -9.536239134461742262e-02 4.475130925681459759e-01
-7.644679067842323483e-03 -1.119071474104688102e-01 4.700309540984054513e-01
2.604893700558468493e-03 -1.090324721654684220e-01 4.667572049659425848e-01
-1.488919865034189424e-02 -1.194855931153460671e-01 5.450710888438119461e-01
-7.127473153361571501e-02 -1.081524239489484174e-01 4.514962358166484391e-01
-5.647127503311642066e-02 -1.118405257453019275e-01 5.314102835319607365e-01
2.238080469712956828e-03 -1.105118677069624883e-01 4.683047208091372093e-01
-4.632563518711361322e-02 -7.730618979130093882e-02 4.286793259445500492e-01
-4.400152084380868495e-02 -1.164167649872109300e-01 4.943944766527829104e-01
-7.307665702739116198e-02 -1.118227341623843629e-01 4.717837956016819878e-01
-2.938643742999772629e-02 -1.188092169259473974e-01 5.292538034466723884e-01
-2.825507517389162782e-02 -1.157765564189290608e-01 4.860668641464691020e-01
-5.636637541858571798e-02 -6.661816830834123293e-02 4.285753584965155683e-01
-6.177884800179721247e-02 -1.111238284743688853e-01 4.665706137247629393e-01
-1.828885043564460258e-02 -1.129160427714665516e-01 4.759675402745235373e-01
-2.326981920941720988e-02 -1.213046767270675730e-01 5.137521784104756017e-01
-1.206579185080669005e-02 -1.236839096726677911e-01 5.253618695270719785e-01
-5.506804509743463971e-02 -9.476493583866454906e-02 4.217267526514661413e-01
-7.464701542678139901e-02 -1.121483706318512769e-01 4.741994698120903240e-01
-3.576603223877877075e-02 -1.183620159036905262e-01 5.027086817774780725e-01
-7.650953022296637374e-02 -1.107381568249670989e-01 4.647186323605581593e-01
-4.688400439887200483e-02 -8.763178426875967153e-02 4.284539364786862925e-01
-1.040801501510229821e-01 -1.075626108485810140e-01 4.793924816624215435e-01
-3.629407547948645951e-02 -1.051238137005740952e-01 4.609731608427861671e-01
-4.329867928242852639e-03 -1.220444232003144863e-01 4.931201423713169052e-01
-3.936322301767544718e-02 -1.180602909205423906e-01 5.114960328914706089e-01
-9.590576687145087320e-02 -8.836030201683237051e-02 4.595217201197617785e-01
-2.906601962677075879e-02 -4.668025508353454422e-02 4.373900176839959353e-01
-5.890492868740930532e-02 -7.369408762333502783e-02 4.256014684678854354e-01
-3.536834347197411604e-02 -4.064665336301653137e-02 4.354147345963298443e-01
-4.127353937594099853e-02 -7.874604153913375426e-02 4.326236381607175274e-01
-9.617979166935178292e-02 -1.022122954556887869e-01 4.546393272780526185e-01
-6.914751991987366786e-02 -1.138196514910472523e-01 4.968824344341896682e-01
-7.623646289880976756e-02 -1.092736918225485909e-01 5.214262936831096651e-01
-5.609008808245631583e-02 -5.861552194258006637e-02 4.315846461437542469e-01
-5.884276035224406121e-02 -1.144363055594606327e-01 5.194453957142071143e-01
-9.256883938293695990e-02 -1.110252169126046962e-01 4.866414198291014181e-01
5.168812325513171164e-03 -1.257205052147109259e-01 5.078016541834147191e-01
-9.739580996719601758e-02 -9.773715830458000464e-02 4.545890798995649851e-01
-4.718421755449911381e-02 -1.137382959361776524e-01 4.820294457734555782e-01
-4.715903270198069930e-02 -9.442807297646457765e-02 4.302094231559077109e-01
-7.646968857355572469e-02 -1.129204180058557272e-01 4.878871633759173099e-01
-5.311772666761097050e-02 -7.625584375135821547e-02 4.253829961482367694e-01
-7.810873129112527735e-02 -1.113005275556387119e-01 5.109758529648171788e-01
-7.747389849927052707e-02 -1.128547449331979424e-01 4.978838676495142557e-01
-8.685487254263604684e-02 -1.084443652477619785e-01 4.587844040707004800e-01
-8.977577362318008014e-02 -1.080818661093925076e-01 5.101489629481206212e-01
-7.005626874365458723e-02 -1.071445182944675556e-01 4.445941667750240578e-01
-8.270913701042728605e-03 -1.108987105009683338e-01 4.685381067913712005e-01
-4.446741639110471378e-02 -1.170168260243214520e-01 5.174973527262768380e-01
-1.490295922438914129e-02 -1.224717838691561089e-01 5.303381638826000222e-01
-4.481563199924352286e-02 -5.620938959967318460e-02 4.327152053683479549e-01
-1.666559412147358699e-02 -4.411707513759110383e-02 4.383568393144666175e-01
-6.906583196538917946e-02 -1.137614893861189219e-01 4.945797586582769134e-01
-5.830763394195823124e-02 -1.085694007717630666e-01 4.552276613155175067e-01
-6.776782703989650547e-02 -1.059473234958508009e-01 4.319606222125998429e-01
-5.556816025400863890e-02 -4.979974028443318046e-02 4.360575983014657875e-01
-4.319887636507076939e-02 -1.155427480179035821e-01 4.900895106607763285e-01
-5.743316429765998876e-02 -5.592934043703367414e-02 4.345856229092864842e-01
-3.088764305594345755e-02 -1.195601077956121860e-01 5.089433538944457824e-01
-4.612763977036560964e-02 -9.200327317675638383e-02 4.309851109013350667e-01
-3.405192528311363348e-02 -1.171898270246853335e-01 4.936141067253550507e-01
-3.771040444471018133e-02 -1.037349911339975478e-01 4.576479126918996942e-01
-4.496214503481614500e-02 -1.169089471070043629e-01 5.000630009300517376e-01
-4.607509482695229530e-02 -5.917746706955376995e-02 4.313468648127055660e-01
-3.399541224586463684e-02 -3.308173987500781510e-02 4.364409915690984354e-01
-5.353754702693479944e-02 -3.786269427324879394e-02 4.392932358972307383e-01
-9.745412630754907157e-02 -1.098168807035819483e-01 4.913497164898507075e-01
-7.303343593456641802e-02 -1.056293359378209368e-01 4.369583690502120144e-01
-1.698932463329660969e-02 -8.950245710264111143e-02 4.467646702331954378e-01
-5.165019569924127196e-02 -3.834431367761911152e-02 4.371366837955278917e-01
-2.223498908762826243e-02 -1.207125812086063954e-01 5.025291371637712334e-01
-6.094100520749335531e-02 -1.037734714537236203e-01 4.215603296820362167e-01
-5.267029637740931747e-02 -1.144595477102445386e-01 5.251153161887748277e-01
-5.378556938654441982e-02 -1.151678311622502671e-01 4.925641871319372811e-01
1.159003079785402707e-02 -1.263979758489899019e-01 5.192760361431214555e-01
-4.460854799704373763e-02 -1.171197121884454406e-01 5.058016380331634698e-01
-7.001239149288171482e-02 -1.136335180685387192e-01 5.055110031735375875e-01
-6.560167769678990068e-02 -7.723262860888635561e-02 4.274512998411341136e-01
-1.830875199744825751e-02 -5.477283069235865109e-02 4.380453433210886871e-01
-9.533655302509189133e-02 -9.677338704482464637e-02 4.524637812722517305e-01
-1.820759398802715813e-03 -1.058284920459050538e-01 4.627612372857083378e-01
-4.472244090314899528e-02 -6.212081679706588089e-02 4.309156686554088678e-01
-5.032229297406426438e-02 -1.092408161044932102e-01 4.618561551541031651e-01
-5.542089600855645837e-02 -1.132400973275042855e-01 4.792640964533793069e-01
-5.572373791007177724e-02 -6.834832890638771474e-02 4.274240388477459351e-01
-1.827229584762696257e-02 -5.458590851193961813e-02 4.380623549521887594e-01
-6.011166432216981381e-02 -1.119352951288807435e-01 5.284481840553804100e-01
-5.498436557468236452e-02 -4.363533232605548012e-02 4.408399553536727078e-01
-6.187107296583740229e-02 -1.108605835485103608e-01 4.653954076533099449e-01
-5.698712911158533567e-02 -1.144101655530819911e-01 4.873291293996277473e-01
-6.195117573687403123e-02 -1.066709314827762739e-01 4.374781875251295693e-01
-4.672096960094559992e-02 -1.149749495247996550e-01 4.886529671693008448e-01
-9.221420906599575931e-03 -6.779199915041241031e-02 4.403631813164545217e-01
-4.912344968684997926e-02 -8.771468079941302509e-02 4.267166587723944526e-01
-4.919820968689304908e-02 -1.141935188176950999e-01 4.844036186353963269e-01
-4.476879926886283279e-02 -1.016797016256249242e-01 4.480196583275653510e-01
6.326004934480742442e-03 -1.271035982966080558e-01 5.201864522785811795e-01
-6.280995918187662341e-02 -1.144350451120786649e-01 4.960841553201847942e-01
-3.659137421964876041e-02 -1.184635803674897458e-01 5.075126402280990545e-01
-3.002574956733809058e-02 -1.191864920658438354e-01 5.237754459825104680e-01
-1.056745476273429213e-01 -1.001945733840890057e-01 4.651289742671921856e-01
-5.971853914490124482e-02 -1.038356736340246417e-01 4.213564881067872192e-01
-1.604369094093286222e-02 -1.224739319451779718e-01 5.266694174844152032e-01
-3.071866229988378175e-02 -1.171290712692842628e-01 5.382040315920237905e-01
7.277493532438574463e-03 -1.266543413008842933e-01 5.285121883463050896e-01
-3.006305392793576226e-02 -1.130255911131387569e-01 4.786897316963183435e-01
-5.598863127269833317e-02 -8.840192887292139257e-02 4.220202515090851758e-01
-1.089829069115334503e-01 -1.039790793959340653e-01 4.798243371177756678e-01
-2.303578210074027494e-02 -7.069665988872667062e-02 4.386165453380282409e-01
-6.790863416898203220e-02 -1.124717593812383232e-01 4.750283530977379431e-01
-6.646946236473127989e-02 -1.139544655164810155e-01 4.924087508858845386e-01
-4.637286769194962077e-03 -1.234766354859340998e-01 4.981869941421787629e-01
-5.722694610630097573e-02 -1.124076798597429400e-01 4.719498506858673115e-01
-6.984567913883987789e-02 -1.121755745094581147e-01 5.181618095802393853e-01
-2.673016296360557903e-02 -1.197163923764384269e-01 5.012305874442535281e-01
-4.972472892258888305e-02 -6.933958263173482794e-02 4.276761152530891841e-01
-8.093004419219558543e-02 -1.124453435651740774e-01 4.957225444813101456e-01
6.733923345577813059e-03 -1.270288844374518333e-01 5.193124405350478812e-01
-3.486322654571719776e-02 -5.646239576384918385e-02 4.349701173423334288e-01
-3.682517407163084233e-02 -1.000409702461495659e-01 4.519963305847048973e-01
-5.652818238198666773e-02 -1.058278555201366683e-01 4.426692520033743694e-01
-5.577575776255591644e-02 -7.544038777897896231e-02 4.246660322688655675e-01
-2.610408812238485324e-02 -1.018757351424057767e-01 4.593642554145677681e-01
-6.041158035218812533e-02 -1.115649968177639673e-01 4.686180027639507140e-01
-6.419145574272472343e-02 -1.065918005335680790e-01 4.296537697370155229e-01
-7.036639092421188846e-02 -8.585344982416470705e-02 4.232625241739106370e-01
-4.481427330944841303e-02 -1.170704526982125487e-01 5.161150735505271037e-01
-5.132396723506176678e-02 -1.147715313110124619e-01 4.877323726644106627e-01
-9.072654150116983562e-02 -9.041381853270413771e-02 4.492390779063258344e-01
-9.375472596116350699e-02 -1.099568980093345583e-01 4.992550473603912242e-01
-9.691675493134405128e-03 -1.144091573873890072e-01 4.746882062217402942e-01
-8.082038701001506564e-02 -1.126291163890217467e-01 4.819886768498187202e-01
-8.371756982035628847e-02 -1.096529316576219937e-01 5.113618960676998837e-01
-5.345673904360410955e-02 -8.370531268721767559e-02 4.238292357258410803e-01
-1.073648423715875717e-02 -9.039605520541101058e-02 4.483519607481057934e-01
-1.921563146060353486e-02 -9.622579089672375630e-02 4.527263425815571396e-01
-9.788163779866828132e-03 -8.033166150951902285e-02 4.440050881408689198e-01
-5.197643552937081246e-02 -2.502941945308978164e-02 4.393191576477085136e-01
-9.580035600014904715e-03 -8.637548722610641216e-02 4.464955675514037381e-01
-9.484111359681633366e-03 -1.130561896526858373e-01 4.722657772520233443e-01
-5.150920253200239746e-02 -1.125022124060848783e-01 5.329073963753028220e-01
-8.006634880594540316e-02 -1.078437741625373480e-01 4.537663310264169469e-01
-1.222781063740098831e-02 -1.073572528641034002e-01 4.638369624460362273e-01
-1.389746984197573563e-03 -1.246476817220112665e-01 5.026277699948497046e-01
-3.748959587794872816e-02 -6.287163466958642366e-02 4.339004311663097746e-01
-7.081307068671778560e-02 -1.115086916758862290e-01 5.194535693118366160e-01
-7.447175588898934280e-03 -1.101264027133729839e-01 4.673117554974300369e-01
-5.578547586307709000e-02 -1.059541834431816099e-01 4.334218551624215432e-01
-5.135402585627592970e-02 -1.154779557139225810e-01 4.931999180920531578e-01
-2.957430169825287294e-02 -3.631316107042929786e-02 4.374559290062532413e-01
-6.073493638967698144e-02 -1.097762161224645344e-01 4.593299831691889934e-01
-5.404041977852977463e-02 -5.492021068939306055e-02 4.326718182317156880e-01
-9.003835205257688934e-02 -1.114523571185404849e-01 4.865545657233473764e-01
-6.127482329696304353e-02 -1.140177980892389531e-01 5.192755559167391288e-01
9.542044172952429681e-03 -1.267567699214462718e-01 5.217542628270963601e-01
-7.938293032131839289e-02 -1.111487593511858857e-01 5.100071055593418112e-01
-4.354255146088432948e-02 -1.173383556783104270e-01 5.081406420556183745e-01
-2.208408014497563812e-02 -1.195962636772935211e-01 5.367547205294933566e-01
-1.584138926164308306e-02 -5.590686347332683021e-02 4.382037575452740752e-01
-4.381771124186854827e-02 -1.034379490196910001e-01 4.521469924246689365e-01
-4.601072586246844620e-02 -7.341740279030155303e-02 4.290695494112231057e-01
-3.530206531793323929e-03 -1.210433971668836844e-01 4.895969000168221008e-01
-4.508003492428767217e-02 -1.168448771572911243e-01 4.980284500333226894e-01
-5.733344851395578631e-03 -1.215909947140822595e-01 4.920572810960393562e-01
-2.530768002050975789e-04 -1.121996757828833263e-01 4.703882888694588815e-01
-2.116365733105958144e-02 -1.213914599695625485e-01 5.056862859260664589e-01
6.979336189482809698e-03 -1.261090431441415083e-01 5.108706023666989005e-01
-2.087399542769127411e-02 -1.197956718314288488e-01 5.373235513986441836e-01
7.035976434144527829e-03 -1.263962642768458045e-01 5.313109746184642157e-01
-8.622236068086990002e-02 -1.075148652524528792e-01 4.558101582734490065e-01
-1.430618983764819253e-02 -1.194827672132815211e-01 4.887631221430107087e-01
-5.405559031011749477e-02 -1.035820710788334653e-01 4.393214317504546829e-01
-1.112096428030168865e-01 -9.556513059879000183e-02 4.776598647814949139e-01
-2.051794348772602826e-03 -1.252122453211943764e-01 5.065695779062210358e-01
-5.642225657388512394e-02 -1.135139422081226229e-01 4.811686607836976326e-01
-5.734157454402981358e-02 -8.266320747553926318e-02 4.231259022343838994e-01
-9.013383243629408126e-02 -1.091058129616659794e-01 5.061301667746166411e-01
-6.195256093680991116e-02 -8.764244238894761119e-02 4.213186102836211089e-01
-4.702494258610668415e-02 -6.056951190204571539e-02 4.306467742681649447e-01
-5.573688365363350244e-02 -6.036932493893897023e-02 4.306301894381675543e-01
-5.685048369662125400e-02 -1.079330795329327963e-01 4.528479068636953597e-01
-6.283864929083207707e-02 -1.113987652676601547e-01 4.677237715202936519e-01
8.439468275639020606e-03 -1.268197323560718848e-01 5.178904794937053691e-01
-2.721622763145817997e-02 -5.378898766056842973e-02 4.371466599493745164e-01
-1.019397238575542736e-01 -9.305122693078697604e-02 4.633726139426865287e-01
-8.753950092505129177e-02 -1.113636965523033817e-01 4.729832708202366121e-01
-4.056501298664577995e-03 -1.254641389196299028e-01 5.091357220699304076e-01
-4.641793560219479448e-02 -9.300831237399288798e-02 4.309595275858456032e-01
-4.402709757250675149e-02 -6.881925922107874627e-02 4.302840210469970339e-01
-3.426072535126396118e-02 -1.130992001726384005e-01 4.792859631562550460e-01
-7.025265059636960630e-02 -1.107956050174845747e-01 4.646178381281820813e-01
-3.248538298894029092e-02 -4.161233152647565714e-02 4.364467910343065582e-01
-6.373700915249429569e-03 -6.832414690190480311e-02 4.406302253660079327e-01
-6.134669883584516203e-02 -1.140502964938282099e-01 4.880823558463997514e-01
-4.954864898237050508e-02 -3.455226269714835319e-02 4.371086050904716691e-01
-2.052242536060345721e-02 -6.051273796075909428e-02 4.379475528152940722e-01
-8.167137701957305485e-02 -1.080857582061634931e-01 5.184615203731816058e-01
-9.858273050699259410e-02 -1.096059708933056487e-01 4.878091483239042070e-01
-6.214437399478499324e-02 -1.103337810447019840e-01 4.623635869317587188e-01
-6.762788533394287205e-02 -1.131191148315058015e-01 4.819990747890749994e-01
-1.076168603998977832e-02 -1.068671783120233726e-01 4.631673330114729481e-01
-3.154328604393837054e-02 -1.181091460801007437e-01 5.313365448320941375e-01
-1.773514640926062563e-02 -1.155622750034863144e-01 4.818806193410641869e-01
-2.697070920229195992e-02 -1.195342831225228858e-01 5.006106219775239285e-01
-1.723490685494917518e-02 -1.083375530499607053e-01 4.666293177782088741e-01
-5.712238018273954956e-03 -1.139776089459736963e-01 4.733259356129660422e-01
-5.231792912936156226e-02 -2.474441905095649610e-02 4.400138849398014806e-01
-8.458744785033549263e-02 -1.098635691097544498e-01 5.094431358955543443e-01
3.458963289794382730e-03 -1.166709107367076004e-01 4.785708678691761309e-01
-8.607507334182197545e-02 -9.385915163918225057e-02 4.410602930096854668e-01
-5.450433646692076639e-02 -7.941167606801047274e-02 4.242350029577646731e-01
-5.363907579132393133e-02 -1.157497419111437470e-01 4.988039325008171709e-01
-6.314358182393688124e-02 -7.118804675979414909e-02 4.278399365854475001e-01
1.791923148013559695e-03 -1.179240281331521700e-01 4.811549165110759474e-01
-5.681202497326820477e-02 -1.118217550123550286e-01 4.692272143119036731e-01
-4.166290305045720899e-02 -1.175488585970481947e-01 5.062811584144000232e-01
-1.096874132950708125e-01 -1.008078779347643394e-01 4.739999965673964977e-01
-1.558729038384420659e-02 -5.267207869110085428e-02 4.384288724110269042e-01
-7.596082279188347275e-02 -1.112512332698239598e-01 5.147857875964937380e-01
-6.166959644722574962e-02 -1.071225601248850245e-01 4.301557983293356480e-01
-4.108389234409640101e-02 -1.175728350516059839e-01 5.183272611156813925e-01
-4.908499315073747843e-02 -1.052233403445886062e-01 4.512464035682302588e-01
-4.728640644994482056e-02 -9.395050175537661419e-02 4.297805635410859582e-01
-2.714227514259939800e-03 -1.052250802297511750e-01 4.620454480573440437e-01
-9.278320381299334785e-02 -9.440602937263326000e-02 4.497247320105088320e-01
-8.210258457283809569e-03 -1.240545932939229046e-01 5.046385376613038432e-01
-7.945958345756409802e-02 -1.110968039156964571e-01 4.669528283301821459e-01
-9.647136751292276213e-02 -1.101541348331883940e-01 4.856388448876630126e-01
-7.587399615555494303e-02 -1.128486384079568916e-01 4.817238312737847639e-01
-5.635365686035182647e-02 -6.105909795690590142e-02 4.307935268581162269e-01
-4.543628083878875623e-02 -9.874279828657196723e-02 4.430400290610696512e-01
-5.147547708135353367e-02 -6.170131939193252563e-02 4.299986367013415300e-01
-8.916076139429272851e-02 -1.081026400509190744e-01 4.597095641920301290e-01
-4.528312756147472029e-02 -4.251710260326421742e-02 4.345145236352955798e-01
-8.372931766521685137e-02 -9.387321508903827272e-02 4.371285927995198772e-01
-7.224131897341003195e-02 -1.120083883573654987e-01 5.159875598093071059e-01
-4.900409003573989730e-03 -1.167800685728034582e-01 4.783286429624420966e-01
-2.878031516157972952e-02 -1.178012040440083591e-01 4.939999815298631858e-01
-8.734962263953247041e-02 -9.472265701847230879e-02 4.423492121453511117e-01
-4.188752198916267933e-02 -5.794557627140402289e-02 4.325948945275495117e-01
-1.158524666946651044e-02 -5.447635334166456289e-02 4.381633474582746768e-01
-2.925352122004575700e-02 -8.118591100930011573e-02 4.400408033920477080e-01
