-4.308787031724188588e-02 -6.911705296162849732e-02 4.307840146185535346e-01
-1.039088366644956157e-01 -1.055528484523374083e-01 5.022575148117905952e-01
-8.267748000138790132e-02 -1.123404899824576031e-01 4.800735726983109131e-01
-3.191790264838442748e-02 -1.156653323057255933e-01 4.868877731823191279e-01
-7.132886565684992686e-02 -9.865305779603508740e-02 4.212442401271216386e-01
-2.867396763564330001e-02 -1.093583303800568785e-01 4.709205973083555041e-01
-9.044348078760032494e-02 -1.058805981522425860e-01 4.547572043257443464e-01
-3.643178317805201294e-02 -9.628379534300392228e-02 4.475575809914676961e-01
-8.026625383614224840e-02 -1.021841246091577116e-01 4.368575581614451142e-01
-3.794613133600599833e-03 -1.260171089648340070e-01 5.193250558226186753e-01
-5.435070365585103341e-02 -1.128134362411472025e-01 4.759146160223671762e-01
-5.260972166882195433e-02 -8.536057136762910391e-02 4.238914866797188208e-01
-5.247569302494654170e-02 -1.073915540634808596e-01 4.550309393875409114e-01
-5.039682657653561659e-02 -1.149747224932236994e-01 4.887278839224747928e-01
-8.048072481615743679e-02 -1.098154665531166085e-01 5.147565630610738685e-01
-5.488614494798989274e-02 -1.062960939278557726e-01 4.480134910128750203e-01
-7.732490765354910200e-02 -1.128815557074825948e-01 4.903403070383424711e-01
-2.191037449534510850e-02 -5.594113011602296071e-02 4.376345660062775922e-01
-9.623861788581163090e-03 -1.239511156933656016e-01 5.305431800791605701e-01
-1.069216628506368533e-01 -1.069091779534610820e-01 4.884191467415679444e-01
-5.043721470785134109e-02 -8.611312197344497821e-02 4.256048823503522094e-01
-6.923039399342767464e-02 -1.134339419786319358e-01 4.886213281246397644e-01
-3.491598637818925377e-02 -9.679036117333532363e-02 4.487764260112864778e-01
-6.045207707044098627e-02 -1.082728467596566768e-01 4.520552615905063520e-01
-2.887660609950699897e-02 -1.198978690094099214e-01 5.079392832544546987e-01
-5.674025271634124123e-02 -5.584830393197594278e-02 4.340399721837337466e-01
6.649782228716996646e-03 -1.248379537226705777e-01 5.035969072162825855e-01
-2.959298712440899815e-02 -1.128186461983535782e-01 4.782055589722434275e-01
-9.204730162720235753e-02 -1.110609402041208976e-01 4.907233838293311168e-01
-6.652139551590270650e-02 -8.110112162756606680e-02 4.257165463816443562e-01
-2.919324543124135821e-02 -8.924423320474422772e-02 4.443477377064604106e-01
-2.725986610652915768e-02 -1.188309171047666479e-01 4.972408757532070234e-01
-9.195184149876130253e-02 -9.222245365019568486e-02 4.497410668648164078e-01
-1.038391940015976483e-01 -1.031070310935993106e-01 4.636596777407554493e-01
-7.068980043358329829e-03 -1.000371455099598322e-01 4.563078206663215286e-01
-2.472884119236073985e-02 -1.199814586345527706e-01 5.285033016263208649e-01
-4.530994777785631034e-02 -1.125239085510552906e-01 4.774418487904922848e-01
-6.489823687989192125e-02 -1.133889426866074440e-01 4.840116832620935394e-01
-3.282226373798059066e-02 -1.189469329892969829e-01 5.205970590929475117e-01
9.560392944569741022e-03 -1.216418674608427397e-01 4.941624355708034155e-01
-1.554623395167533707e-02 -1.181495972129960464e-01 4.865563350110068686e-01
8.182261346559378118e-03 -1.263250677537464395e-01 5.328431365469038505e-01
-3.946999743468484340e-02 -1.179612721023470950e-01 5.074754330624350329e-01
-4.310443675817219461e-02 -7.562393422261612375e-02 4.312095111083418253e-01
-2.037178673054746911e-02 -1.096081258050499302e-01 4.701726468827223671e-01
-6.952676843391210337e-02 -1.074996484688618692e-01 4.477646749577126606e-01
-3.125101771462418521e-02 -1.195012834806969820e-01 5.141670598800739400e-01
-8.968758285052137735e-02 -1.078629562695598704e-01 4.596235292672418704e-01
-1.048559861939199478e-01 -1.065605629433736129e-01 4.752030320303453070e-01
-4.645377546159129567e-02 -9.964105426846073255e-02 4.430720669814245394e-01
-1.971856791402915726e-02 -9.849497336352641685e-02 4.553415888382454368e-01
-5.497365361904172146e-03 -8.895082706223751690e-02 4.486311805887269188e-01
-6.025361533201663983e-02 -1.149885911969516228e-01 5.036907882757546417e-01
-1.149666296327107699e-02 -1.218413207823111494e-01 4.958622553941462452e-01
-4.300702507255699941e-02 -7.919533037461395919e-02 4.314936160571319901e-01
-4.649731065746161296e-02 -1.027125601606018596e-01 4.482831043685492345e-01
-5.110745921452492652e-02 -1.018584979227271092e-01 4.406079578757532977e-01
-7.492085437010480298e-02 -9.197658870624944583e-02 4.236172144072868351e-01
-1.695460116262446221e-02 -6.657988446779089520e-02 4.392706693165028820e-01
-3.934477547494657362e-02 -1.178941356893970921e-01 5.050985660939952826e-01
-1.080673754116520668e-01 -1.059618731350177867e-01 4.918631281552086620e-01
-7.241943567690488359e-02 -9.863384284838566662e-02 4.220482157579510951e-01
-8.848324153162839475e-03 -6.221325271827132797e-02 4.389747439400689677e-01
-6.939665322163450500e-02 -1.117507924688962984e-01 4.706302281494817996e-01
-6.325093225437361522e-02 -1.134562462715006381e-01 4.835537315478566356e-01
-3.114497258391706047e-02 -3.927255674666045582e-02 4.370668675627498168e-01
-7.665283985446191828e-02 -9.695524470409271067e-02 4.254884543805193542e-01
-1.036656300381320478e-01 -9.887735681225992557e-02 4.613731888095095046e-01
-1.410023233857824777e-02 -8.758363853412874656e-02 4.463427954905047623e-01
-2.346169420261105809e-02 -1.162809383290440285e-01 4.867223656965509737e-01
-1.068565517740992649e-01 -1.005306444742734145e-01 4.678426477291428021e-01
-5.210672424882603626e-02 -2.820051715184873631e-02 4.387814581806546155e-01
-3.273357355543687203e-02 -1.191826584239365355e-01 5.078899045280330649e-01
-1.395110548299051574e-02 -1.164796764493195858e-01 4.815334838039631582e-01
-5.171709748539883578e-02 -1.082092043374625057e-01 4.584803575760121874e-01
-4.754781163864580523e-02 -1.158155581390680477e-01 4.928729708357618144e-01
6.289735823788208079e-03 -1.269956224663516819e-01 5.183092902900736654e-01
4.323019439347186230e-03 -1.243905986511362749e-01 5.010108234990565679e-01
-5.533954410136348451e-02 -1.129600816143362801e-01 5.291563291732374053e-01
-8.897762253705970847e-02 -9.574215286014083059e-02 4.441168997209015146e-01
-1.121875247900843975e-01 -9.965151948642873847e-02 4.797430784994802799e-01
-4.769614832153799833e-02 -3.078630134526406242e-02 4.361249392772388322e-01
-5.457933609858341834e-02 -1.060701049213998992e-01 4.267122224982115020e-01
-2.928475339344141504e-02 -3.744017900912965241e-02 4.375448820582888976e-01
-2.103530335313129676e-02 -6.319223557283398796e-02 4.380899702692676034e-01
-2.032684871560255097e-02 -1.010085123589205963e-01 4.583506054924696427e-01
-3.546575325092145292e-02 -6.921027788839977102e-02 4.344440911855590448e-01
-9.188443183556248284e-02 -9.700844192707547275e-02 4.484565005480501410e-01
-8.247487957880778042e-02 -1.105649314076210116e-01 5.085134241477915484e-01
-5.091306523385846078e-02 -4.762317559005228157e-02 4.346150516904161432e-01
-3.782167124583403484e-02 -1.182210275145647027e-01 5.068505905808338152e-01
-8.785788262460707265e-02 -1.078375237901333245e-01 4.579030400361775999e-01
-7.414487538692253119e-04 -1.168064974032307635e-01 4.781221978903999470e-01
-5.084139858897199216e-02 -1.145749476309463749e-01 5.266577592924251983e-01
-3.787246204856726389e-02 -1.178750817800007511e-01 5.014407842751548161e-01
-9.201760972602457400e-02 -9.725441326688812060e-02 4.486208077578078823e-01
3.691970594597720600e-03 -1.142255156192813065e-01 4.745081846217334420e-01
-1.052321420768350252e-01 -1.061513780419611197e-01 4.734638170002914426e-01
-1.585177699017898539e-02 -6.765185810247963116e-02 4.396323127305475920e-01
-7.447476772162256453e-02 -9.162077656552869431e-02 4.233200102193505621e-01
-8.420118080215626549e-03 -1.184110320233940361e-01 4.826683587119085517e-01
-2.970196024706893423e-02 -1.172909637513805947e-01 5.386375050368670259e-01
-6.033046687997322549e-02 -9.896687139510436382e-02 4.211345676051488351e-01
-1.095622495671956867e-02 -7.043250110347636095e-02 4.408076267386216163e-01
-5.243803334677267503e-02 -1.159573433352355937e-01 5.030649875054402642e-01
-1.887113330368372574e-02 -1.187624194841414571e-01 4.914026824175701802e-01
-5.521939417411259043e-02 -1.028968110587685919e-01 4.216391776072569986e-01
-8.395526453442835740e-03 -1.060990800581572552e-01 4.621521641730154673e-01
-1.085696657682485022e-01 -1.022309467807737265e-01 4.744145123536805952e-01
-3.890626428238645046e-02 -9.623825422172035959e-02 4.460894956069549333e-01
-9.600109923707564330e-02 -1.083435591926479036e-01 5.041565370077935038e-01
-4.589270743773261191e-02 -7.050082402325012765e-02 4.292093418986313580e-01
-2.850792002233776962e-02 -1.092303853723369800e-01 4.707063859269991490e-01
-1.669052659497834504e-02 -1.231510427824691195e-01 5.146086274053490728e-01
-5.604999932210415897e-02 -7.440425759280522300e-02 4.249295354423306970e-01
-8.788160598884421637e-02 -1.091288883509263924e-01 4.631913624675241814e-01
-3.830639321572535533e-02 -1.014322377838257905e-01 4.531622790949676460e-01
-3.295590919284901998e-02 -1.138790480164653673e-01 4.813686009602201610e-01
-3.026737481513931682e-02 -1.177536499585986468e-01 4.944386584147626995e-01
-3.491783277545670167e-02 -8.170389256328967897e-02 4.380241106285789887e-01
-6.043879560839814785e-02 -1.068016584670048730e-01 4.276938177566506627e-01
-5.163725627117394384e-02 -1.028149689507882047e-01 4.380773839466011177e-01
-1.055041342077026913e-02 -6.045887138992868393e-02 4.386957003849080161e-01
-3.622867707698022854e-02 -7.902671395353222383e-02 4.358957960963659728e-01
-9.206923965263173748e-02 -1.068658959173901662e-01 4.583976861958228288e-01
8.131494872429737356e-03 -1.245552392968207467e-01 5.031887973093978061e-01
-2.076927583554972340e-02 -8.002359116687314533e-02 4.418879883400770314e-01
-5.474430240741296610e-02 -8.287430718491171910e-02 4.235261291060736233e-01
6.542637074907613551e-03 -1.267395673447896387e-01 5.158095899891430580e-01
-4.430325225292030406e-02 -7.935281930182842836e-02 4.303236963676103644e-01
-3.075041146572502979e-02 -9.347732684884005327e-02 4.473958297760840530e-01
-2.573030209558494277e-02 -1.181136109655188948e-01 5.393080330365498387e-01
-6.705033325240578046e-02 -1.089090644204917802e-01 4.557917325277875409e-01
-1.042936461745153504e-01 -1.080263385249263658e-01 4.900915396028540649e-01
-3.460354850218483325e-02 -5.870336940906265705e-02 4.350521789688729934e-01
-6.154263417693584676e-02 -1.057898853373516884e-01 4.218043432903066936e-01
-4.881035361748912310e-02 -6.379152266972169805e-02 4.293301017884413873e-01
-1.953487525936367999e-02 -4.792341098487636758e-02 4.385775297839368259e-01
-3.002225755895744641e-02 -9.002312223121469725e-02 4.446761580389396173e-01
-5.431833423391129595e-02 -7.189178540482954460e-02 4.257454029634981096e-01
-5.485370088007292949e-02 -1.091177792574947042e-01 4.596685833804115551e-01
-7.288179663136187814e-02 -1.029230830390088641e-01 4.264569158187563325e-01
-8.817778910565343686e-03 -1.249487349963199073e-01 5.151937737331659939e-01
-1.195540799509983709e-02 -8.261622959135303534e-02 4.445151152849425857e-01
-3.590221938031348120e-02 -3.248449743821868463e-02 4.361258637971187624e-01
-5.116606283896719953e-02 -1.157093648217742271e-01 4.957238353195720926e-01
-2.879751387290060971e-02 -1.190991636048862462e-01 5.278470917371208548e-01
-3.254491636797591375e-02 -3.354372070500968167e-02 4.367425864092627785e-01
-4.524571911340268676e-02 -1.108471469938314830e-01 4.697370749729222195e-01
-6.436989452267020961e-02 -9.961389370740283966e-02 4.200090755178408908e-01
-1.566831997494733814e-02 -1.105932748503850732e-01 4.702399120241093078e-01
-3.172248623836358694e-02 -1.182106982388981542e-01 5.299720941132294305e-01
-3.112941273534981096e-02 -7.968332824057000607e-02 4.388176748483845757e-01
1.129988550415617771e-02 -1.266878318067520270e-01 5.287311966270672459e-01
-7.182229184314573023e-02 -1.135717387006089096e-01 5.005203952680417068e-01
-1.609365001677485682e-02 -1.214776059172684580e-01 4.992844173680051623e-01
-3.914114893041138743e-02 -1.171722469557676116e-01 4.971112025148735625e-01
-7.036132291472335654e-02 -1.135678404226091731e-01 4.935790846194401671e-01
-5.502239656521912270e-02 -1.134854927132857572e-01 4.809802222619623535e-01
-1.704402180184574900e-02 -1.223337097442829674e-01 5.248329513202321106e-01
-5.348208530539563105e-02 -7.854406767023992819e-02 4.248472105851137659e-01
-3.559437628852896336e-03 -1.235416211569618228e-01 5.366509410867660312e-01
-8.931371641879738699e-02 -1.082093365892151243e-01 4.604863893012584586e-01
-3.241301954030392091e-02 -1.181131761629371779e-01 5.293854071028738506e-01
-8.811870424739054464e-02 -8.884977428037829639e-02 4.460877764561568259e-01
-1.053489496902403205e-01 -1.044765224260852249e-01 5.032166212174102871e-01
-5.323248870736625726e-02 -2.493227239105900300e-02 4.430944524553307451e-01
-4.924128678151849792e-02 -7.655728060036874616e-02 4.267092729061259249e-01
-1.398886773682772935e-02 -1.231211523205211766e-01 5.258609667418610023e-01
-5.983544886256042528e-02 -1.126058578438257907e-01 5.266117928417620719e-01
-7.384031990176027904e-02 -1.100632194179771151e-01 4.614299485718433291e-01
-4.810142034059902011e-02 -4.128049883257277342e-02 4.351111507351297925e-01
-2.455771559621369032e-02 -1.187169052918509299e-01 4.956331253311899721e-01
-7.972021164831537277e-02 -1.039105599578024064e-01 4.391986418829365579e-01
-4.262140253558143604e-02 -9.638900032256686456e-02 4.434044819073525989e-01
-1.877962938470942658e-02 -1.059314507172380154e-01 4.637453225920639688e-01
-3.231213865620301273e-02 -9.446425453222140334e-02 4.477400026810008926e-01
-6.386298210408579423e-02 -1.143620448656712807e-01 4.976046405972954778e-01
-1.015552006669795670e-01 -1.087417357072235358e-01 4.816348837937514671e-01
-3.307958798751374496e-02 -8.828773864861666487e-02 4.424004705420255257e-01
-1.468536102558856866e-02 -1.233464234714906765e-01 5.204314672174218392e-01
-9.838556551372408532e-02 -1.089408507244322422e-01 4.981663957563349787e-01
-4.670253818272045165e-02 -6.984953313586167445e-02 4.287675386485528262e-01
-6.845523830415825572e-02 -1.117490968889427172e-01 4.703934154932971068e-01
-1.633602661560535838e-02 -1.075420058317232974e-01 4.650944241555862169e-01
-2.209059761911318087e-02 -1.167012903525265072e-01 4.871611321748018364e-01
4.104873065022938625e-03 -1.267574908082491902e-01 5.270415575784939133e-01
-2.587694481454471188e-02 -1.204080323690701892e-01 5.209165746518875650e-01
-4.197573680162699356e-02 -9.733280656622353422e-02 4.449660599896438362e-01
-4.498868585765572470e-02 -1.171268922941333113e-01 5.108895587640200908e-01
-5.246349463193765439e-02 -2.886292743532151150e-02 4.392627523488294439e-01
-8.507689849425006945e-02 -9.337105108046366009e-02 4.398556693838003850e-01
-6.234630418398864199e-02 -1.067545712193561230e-01 4.352943602064501816e-01
-8.567784766833751176e-02 -1.031518080415174954e-01 4.446238728520379158e-01
-7.875281809076095652e-02 -1.084542837548144040e-01 5.211796412924845079e-01
-5.407177716699154701e-02 -8.095227011690186991e-02 4.241566392899495663e-01
-4.332009248653170136e-02 -6.874681782030482580e-02 4.306783184126670161e-01
-2.080073271281765446e-02 -1.058351039341545174e-01 4.642704342331406275e-01
-4.129528063457376524e-02 -1.177134724060702464e-01 5.110846173442550322e-01
-5.465607322774476001e-02 -1.156382552757565657e-01 5.003586104556250191e-01
-6.489557933454845329e-02 -1.139055602242397686e-01 5.143044351946131076e-01
-3.330812070137348369e-02 -3.923210192287427539e-02 4.362499914088592279e-01
-4.423081496066424284e-02 -9.065487809708797085e-02 4.332969831589699727e-01
-8.634993482809319443e-02 -1.112235464084250919e-01 4.991162423233488354e-01
-4.719020010106055735e-02 -1.117225047996405485e-01 4.725282102491987213e-01
-2.863753667988310977e-02 -1.089917472737429172e-01 4.703172926506234419e-01
-8.013635563835551368e-02 -1.127485093883125455e-01 4.874606046594048836e-01
-6.892934765434975686e-02 -1.055150068866115842e-01 4.317591531908535063e-01
-1.309623854133199622e-02 -1.235507176480590830e-01 5.236190619510716626e-01
-1.176943169447662238e-02 -1.129812669793791163e-01 4.728581257582973874e-01
-1.035048094968987198e-01 -1.050730844783751838e-01 4.660791270018880827e-01
-7.983431748841328390e-02 -1.121868382152455546e-01 4.757768791193168201e-01
-2.420156961162082607e-02 -1.106351373398973548e-01 4.731081715203487859e-01
-5.150340399814487546e-02 -9.341402067934756470e-02 4.247471790414514281e-01
-5.998190737536716194e-02 -1.132220550769761080e-01 5.241854775672429856e-01
-1.310576323230205724e-02 -1.036059349774627325e-01 4.596780551506993162e-01
1.502617458433700218e-02 -1.255407324249845913e-01 5.366196898264011805e-01
-1.280547370350438446e-02 -1.181300657971268570e-01 4.844965706624989599e-01
-7.447813922774303153e-02 -1.004561005569745702e-01 4.250196014925406995e-01
-4.783737269362587502e-02 -1.156907414077153889e-01 5.243083114943131173e-01
-6.408672754300691159e-03 -1.249423790536981355e-01 5.280759294670909210e-01
-8.922758403700559171e-02 -1.016613657987355396e-01 4.474641341832500951e-01
-5.661667866114587604e-03 -8.770197856789579971e-02 4.479554807389164450e-01
8.213518712402213123e-03 -1.266860577164493074e-01 5.287369970511373030e-01
-1.045891753184281618e-04 -1.147593807654939541e-01 4.747538641336219167e-01
-2.328611110600671552e-02 -8.380368035086925571e-02 4.430181808072937710e-01
-3.190016826108727638e-02 -6.181393559400617105e-02 4.357403349528931047e-01
-5.704877922757875877e-03 -1.017310287364763116e-01 4.581038943082817450e-01
-4.902848002451771006e-04 -1.261257076472822869e-01 5.109616820562369321e-01
-5.926552289213273678e-02 -1.125292021911877272e-01 4.730915128090600885e-01
-7.850539479029450263e-02 -1.091758441746550484e-01 4.586135873499241344e-01
-8.861180682314942492e-02 -1.114122920641516246e-01 4.947031371728707883e-01
-5.070014409058381209e-03 -1.138346973759343933e-01 4.730990271197463848e-01
-4.231533307188749954e-02 -1.174321149699954908e-01 5.173258953146578909e-01
-3.382259218107832449e-02 -1.182782090413682236e-01 4.997218452775907260e-01
-1.624209193797046709e-03 -1.208173359853390305e-01 4.885962867289728173e-01
-7.005437723800644889e-02 -1.128341316685385898e-01 4.793065683961317824e-01
-5.574615509379914069e-02 -4.804866773294726862e-02 4.393412532800181070e-01
-4.123713631235428889e-02 -1.117728606481215026e-01 4.754362528023886036e-01
6.114314845195346904e-05 -1.197638142992403648e-01 4.856980479457891908e-01
-3.752080478467850061e-02 -1.110145249547622587e-01 4.738831984617067894e-01
-3.263050907619050207e-03 -1.204096741413020477e-01 4.874535957346586290e-01
-7.926693979810385537e-02 -1.104521077426544873e-01 5.140124554329427164e-01
-8.610400048003802320e-02 -1.100721018018214203e-01 5.068393750209164716e-01
-6.857238706996496291e-02 -1.083471688238224484e-01 4.530544863846530101e-01
-7.736082571725358403e-02 -1.124732345290014451e-01 4.776960444449773191e-01
-3.291384419051410909e-02 -7.349205931768208744e-02 4.357683079902294199e-01
-2.502145526889238900e-02 -7.017991499491610385e-02 4.379919173305700797e-01
-2.408049104019699058e-02 -9.822251530735322256e-02 4.550638028745739860e-01
-8.655824356865465807e-02 -1.114733174362678159e-01 4.971056805512497068e-01
-7.926979604084496978e-02 -1.126462171427413117e-01 4.807099824861222892e-01
-3.024167892314669551e-02 -8.807896198838480184e-02 4.432412919450006705e-01
-3.445976248371757089e-03 -1.161176574715768045e-01 4.769026592917783858e-01
-6.673275843535665663e-02 -9.664118717173504625e-02 4.189403165547582186e-01
-6.062779473022820997e-02 -1.147956096394203707e-01 5.134665550215062879e-01
-9.886649618194129352e-02 -9.201743213158593282e-02 4.595821276982240966e-01
-1.067817784926580749e-01 -1.043220531916173449e-01 5.020282123608263980e-01
-6.275351813302526560e-02 -1.097334693636569519e-01 4.593207518480306728e-01
-7.759522699240785359e-02 -1.044118324007793225e-01 4.372165227980394087e-01
-6.025151853622230658e-02 -1.146002301764069697e-01 4.938336267189982753e-01
-5.195106100547983163e-02 -3.483283580800797946e-02 4.383492316001398326e-01
-7.014802526520019788e-02 -1.131230074996706497e-01 4.833709303279356551e-01
-1.080293446886578107e-01 -1.022596844825007650e-01 4.725510762513646656e-01
-4.405457772305331615e-02 -1.172640253952650924e-01 5.083817402228443250e-01
-1.564380263295140835e-02 -1.167717345546354368e-01 4.833710440524754404e-01
-8.588225464691937039e-02 -8.616155133875336158e-02 4.458420492549691194e-01
-8.621523598922282983e-02 -1.074740041060061879e-01 5.150162423916188059e-01
-7.237768879174530379e-02 -1.132758704382336307e-01 4.908879210029124529e-01
-5.847704345911243495e-02 -1.125423556745576564e-01 4.730203672389659553e-01
-7.527180424213121557e-02 -1.009529639638692688e-01 4.260500698220907601e-01
-1.901758683243191805e-02 -9.608531646289221462e-02 4.526065804605390874e-01
-1.074332659199153661e-01 -1.047573196378583649e-01 5.003629197239751747e-01
-8.224288786076440483e-02 -1.103062089101863735e-01 4.644309271544015405e-01
-4.797126298251891408e-02 -1.166137614471044331e-01 5.149523133166984401e-01
-3.925723763082382411e-02 -1.162539196425081134e-01 5.318641879800263261e-01
-5.455178988391706785e-02 -1.006357486616653585e-01 4.220221033936819022e-01
-2.052850528209282377e-02 -1.218852715847591334e-01 5.121945258410197654e-01
-8.557206072105671968e-02 -9.068618325292984728e-02 4.415528630534237275e-01
-3.117758863108040235e-02 -3.740902324609091806e-02 4.370804648827272265e-01
-3.967066583945575917e-03 -1.246159414414181738e-01 5.328107229901863917e-01
-5.714187962256915554e-02 -5.476754326693455965e-02 4.351196671904076219e-01
-5.612668820813171422e-02 -1.062118698053062665e-01 4.458276063070464867e-01
-5.777521018596885882e-02 -5.946035595292126913e-02 4.327029635669621954e-01
-9.042262240229685666e-03 -1.245990518333629921e-01 5.240464405148480553e-01
-8.670073955171641797e-03 -6.738868525036921520e-02 4.403439539739418818e-01
-5.839555730404667050e-02 -6.074972420767524306e-02 4.324654437119044292e-01
-3.500876032740592864e-02 -1.174837892113326510e-01 5.299428030467527861e-01
-3.469528236785112546e-02 -1.188568745539088367e-01 5.090624861631874998e-01
-9.845238676527862109e-02 -9.528423651140131845e-02 4.567941234080544199e-01
-1.656915854620511983e-02 -1.030164401336258057e-01 4.597653233933842731e-01
-8.695998982223363330e-04 -1.228494615518972988e-01 4.955058977379102614e-01
-6.090194021816937309e-02 -1.142222067435565841e-01 4.896443570992942140e-01
-3.211645136235481007e-02 -1.008257353695707625e-01 4.560538515844836938e-01
1.251081931141757170e-02 -1.264086770291139028e-01 5.340407651950301871e-01
-1.369704030643978387e-02 -1.233666996971903435e-01 5.088478366071718106e-01
-1.461736728379079212e-02 -1.122579017347370006e-01 4.728730082367315624e-01
-4.971318032237779377e-02 -6.795854208046961387e-02 4.280203920178551891e-01
-9.125150458980094137e-02 -1.090712031260226422e-01 4.654679748876046630e-01
-4.358219699453130813e-02 -1.038157325872489378e-01 4.531844997222851945e-01
-1.179955677347047614e-02 -1.082782968555077302e-01 4.649907811312168904e-01
-8.236395793020857836e-02 -1.113656471580080631e-01 4.695940809319122944e-01
-4.041135007549791040e-03 -1.132163957141458233e-01 4.720119160454927520e-01
-8.456134017063167418e-02 -1.065547092276770275e-01 5.195518733375115161e-01
-5.653048735304663786e-02 -1.067602356812158010e-01 4.283065532302063327e-01
-4.464330661808350170e-02 -8.819001169109427773e-02 4.315079556544982875e-01
-8.780174162456239051e-02 -9.604489019704946784e-02 4.424344301292374437e-01
-3.215186322223886201e-02 -1.163968887073758285e-01 4.898740114415440217e-01
-1.270033993633770501e-02 -7.463884514598578823e-02 4.415889577644746544e-01
-2.618040038689273957e-02 -1.190034254949589587e-01 5.342098134714393654e-01
-2.768020398767042506e-02 -1.193249825552241961e-01 5.281716891760902532e-01
-4.519871586477031133e-02 -9.143864454402134134e-02 4.322760127287462728e-01
-1.185186138556363136e-02 -1.236622041741186478e-01 5.262221960830600898e-01
-6.478631271085852350e-02 -1.056775525268742744e-01 4.242229912061020181e-01
-1.090046437258532508e-01 -9.882445664570702060e-02 4.728659748502540006e-01
1.500298832620109747e-03 -1.140369165908456522e-01 4.737992217783798532e-01
-4.541602033481660639e-02 -9.467887491541805700e-02 4.355313786067050996e-01
-6.180508649659086778e-02 -1.145044510643815350e-01 4.953976604170605702e-01
-2.284556096433624367e-02 -1.001656739153163611e-01 4.573800571484634148e-01
-9.110564705125802354e-02 -1.046487644756863150e-01 4.532299055105849517e-01
-3.576287198420527447e-05 -1.020334861411581057e-01 4.593588064326895037e-01
-2.782419434793100346e-03 -8.253335695626601298e-02 4.461965560994875513e-01
-1.384821769763612889e-02 -7.399166154171646359e-02 4.412187531109261207e-01
-1.827459438833079972e-02 -5.066660116991635737e-02 4.383626830667980978e-01
-9.751767862250491914e-02 -1.086898935022926616e-01 5.016475433135170192e-01
-9.007998364105442024e-02 -9.766976413389640010e-02 4.454968320412480143e-01
-4.072087371615343288e-02 -1.133247407668444146e-01 4.814843432914327481e-01
-6.649622953977402107e-02 -1.125762125482950848e-01 5.200419411598331543e-01
-4.751455076800784744e-02 -1.061125239926578173e-01 4.548746622401364514e-01
-1.575624588902134124e-02 -1.226255641232250754e-01 5.257740635790875139e-01
-7.686315593935066914e-03 -1.249005389327052656e-01 5.113386730852874651e-01
-5.416274575199889890e-02 -4.574907420036426753e-02 4.366359382557670199e-01
-6.215847806494546185e-02 -1.069367058423688482e-01 4.294703610903937707e-01
-1.070422411874071868e-03 -9.992100812598332660e-02 4.573758924409430104e-01
5.941478247390359971e-03 -1.236225859526625115e-01 4.989120305674349387e-01
-3.037897903347675302e-02 -4.869969653700065293e-02 4.368589857125197984e-01
-5.347556505941131882e-02 -1.144796638282220003e-01 4.866943481516584624e-01
-7.279075404107643310e-02 -1.060423160782127949e-01 4.389828923550560535e-01
-8.407268569935913427e-02 -8.954939318148831540e-02 4.398150524258707672e-01
-1.031625587922368470e-01 -9.601223321161943269e-02 4.627421309775283653e-01
-2.278557093773273673e-02 -8.816448712152651079e-02 4.452661400287298288e-01
-4.809795263616183092e-02 -9.225959571496993028e-02 4.275850763517325404e-01
-1.921771923834007453e-02 -1.213011155561570659e-01 5.027596785805233948e-01
-3.539904569102556714e-02 -8.469968791914449235e-02 4.390136924925094331e-01
-4.754876247534185058e-02 -7.770982221255361144e-02 4.277825353231330952e-01
-7.805064584300026864e-02 -1.126782987026856003e-01 4.802705131669611216e-01
-1.012547687126893886e-01 -1.071850533240421149e-01 5.012462116343296969e-01
-9.546441545215847424e-02 -1.032166658848549523e-01 4.542814503407233140e-01
-1.326381277956808179e-02 -1.163652584612552554e-01 4.807968382067935864e-01
-5.269588164160688565e-02 -1.158690496823705229e-01 4.990939876485533389e-01
-6.984997549025446367e-03 -1.246398975530377262e-01 5.071010202518989596e-01
-5.729116360069372305e-02 -1.023682921060046630e-01 4.210577387656233017e-01
-3.361368969084201769e-02 -1.183844031829693194e-01 5.252242969440569231e-01
-5.256577292584518890e-02 -9.978701678167650746e-02 4.240401487647829648e-01
-5.062866371679186628e-02 -1.162657891957894346e-01 5.093851704969597494e-01
-4.606464644945383602e-02 -7.539382356001655960e-02 4.289203888483156812e-01
-1.091568913370988790e-02 -6.249653523809084454e-02 4.390337311623073724e-01
-1.069529573364183250e-01 -1.045297907463300230e-01 5.013838649062524189e-01
-3.107611844515196196e-03 -1.045887870624816751e-01 4.613799566952387909e-01
-2.343471800811805852e-02 -7.491000741122921802e-02 4.394360842701769965e-01
-6.019098880717104610e-02 -1.149975408196313859e-01 5.037984883469288633e-01
-6.184412828547192903e-02 -1.126082088114270519e-01 4.737850925776773137e-01
-3.813855964518397812e-02 -1.112670505683254485e-01 4.745908368826812218e-01
-1.610410863441687213e-02 -4.585947040581877382e-02 4.383622192556876351e-01
-1.459879464687576303e-02 -1.223427526805410948e-01 5.026279679030010161e-01
-2.383092148914602373e-02 -1.206703416616448643e-01 5.234449565071075394e-01
-4.255089555024704762e-02 -7.376180420560853046e-02 4.313341182172739097e-01
-6.165344205953339485e-02 -1.125312601687054048e-01 4.733943787511185053e-01
-2.776214592395801622e-02 -1.192657237358321076e-01 4.999910993460346398e-01
-3.685866342804244855e-02 -7.239613130153975395e-02 4.339081044107277463e-01
-5.227484496968244632e-02 -3.804311331002872137e-02 4.374894996659278723e-01
-5.539660997464448261e-02 -1.136104064543424774e-01 4.818373606921027008e-01
-4.449500645452703768e-03 -9.450797783846068278e-02 4.522625388964303661e-01
-2.180074920149135953e-02 -1.175894321297990541e-01 5.451878134251586516e-01
-7.021953437197578363e-02 -1.068240612741255674e-01 4.419866254934916028e-01
-8.168217815778104629e-02 -9.596043179209010066e-02 4.334497413872326343e-01
-4.394372433664998218e-02 -1.112324895270414282e-01 4.723248481894600226e-01
-5.381304448850596223e-02 -9.080120228919008607e-02 4.228202202991337422e-01
-1.635444715675515165e-02 -1.051160554197534958e-01 4.619959876205086413e-01
1.095410519580347110e-02 -1.266911463134094140e-01 5.294116667664482412e-01
-2.565044718063087814e-02 -5.008765416098166084e-02 4.378672338990486912e-01
-5.849713030333082014e-02 -1.060893121900500780e-01 4.357756235745049445e-01
-2.334854343879987776e-02 -1.200402236060576638e-01 5.309205132023054885e-01
-8.495729333349080759e-02 -1.064974583896115684e-01 4.524207041280000063e-01
-6.904830247885665462e-02 -9.713992742365841482e-02 4.189745019961698125e-01
-3.770842324810202983e-02 -1.084360630239130791e-01 4.662958749293140137e-01
-4.316991340926429332e-02 -4.340830243835420293e-02 4.343468686347312646e-01
-5.574728829111622735e-02 -1.135306035777957634e-01 4.813571786900558980e-01
-3.895189098632892422e-02 -1.072505636228226755e-01 4.634094623102638644e-01
-1.071149935912672907e-01 -9.680561443045733461e-02 4.679083002780722311e-01
-6.219547004919817601e-02 -1.147243987352208616e-01 5.088568524891227129e-01
-1.276628691297402793e-02 -9.818051164898226879e-02 4.543460041861955845e-01
-7.306963942266397893e-02 -9.238246198084004712e-02 4.211136406278036537e-01
-3.132126729904892437e-02 -1.151287442526789939e-01 5.444768129478759766e-01
-2.132960775577664655e-02 -8.046048355249600659e-02 4.419750687114850085e-01
-1.062118687850082260e-01 -9.708719662212883517e-02 4.662718107680664525e-01
-5.309934935241637788e-02 -1.116192555727604646e-01 4.689381080089979892e-01
-1.708467415925882943e-02 -9.579120768925658558e-02 4.521327925571795858e-01
-2.548623977261068804e-02 -6.297549607743241351e-02 4.371790006964311193e-01
-2.822501761082329280e-02 -6.334811917140353854e-02 4.365810999425482897e-01
-5.013396468588180582e-02 -9.624472396616290393e-02 4.260424760457851012e-01
-9.674099336938955795e-02 -1.079174671901199228e-01 4.658759071015450282e-01
-1.105839423225030149e-02 -6.050209754972671328e-02 4.387058462306822615e-01
-6.984889558286422329e-02 -1.039323420303222556e-01 4.251717376260935044e-01
-1.005199717143685084e-02 -1.237784582629963132e-01 5.056868973018978641e-01
-4.317410703179249548e-02 -8.982134133016268784e-02 4.346540789826887075e-01
-2.528350671238835390e-02 -8.370244923680045246e-02 4.425208288545337543e-01
-4.887652356543392002e-02 -1.156991192320572931e-01 4.929323216197744051e-01
-3.924114403146504448e-02 -1.180937321132363854e-01 5.099826314771408464e-01
-5.162825946440054159e-02 -4.780467414639746199e-02 4.347848909798906480e-01
-1.060835404090512690e-01 -1.060988113117045245e-01 4.768108563129732080e-01
-1.538331126256087256e-02 -1.230028480248933354e-01 5.090151625506167399e-01
-9.794194167463660117e-02 -1.064013299443917759e-01 5.074278112954463404e-01
-3.124206835523215403e-02 -3.468895575824638283e-02 4.370613237201070866e-01
-7.859291180328109583e-02 -1.126332181492991497e-01 4.995599019300228649e-01
-1.532045614068620019e-02 -5.991946496012424267e-02 4.385741283881278707e-01
-1.846708582117173592e-02 -1.014082960626611352e-01 4.586226446680319868e-01
-1.002017909455178157e-01 -1.081922331774297502e-01 4.726872216054307518e-01
-3.711746712040814300e-02 -3.957513218148772660e-02 4.349927076361482792e-01
-4.711807386797417507e-02 -1.052699710137134925e-01 4.529916059952042717e-01
-4.532909332489703375e-02 -5.859263377994615440e-02 4.317275869556144730e-01
-7.137487515167494079e-02 -1.042472932414917342e-01 4.274420473686772470e-01
-9.152284824425996335e-02 -1.088131484921103648e-01 5.061183778193339977e-01
-7.909815821254284618e-02 -1.121562052383151126e-01 4.750932521929569496e-01
-3.538279608714410551e-02 -7.150977385746455639e-02 4.345444994132522387e-01
-1.307767552392157320e-02 -1.147888457327723988e-01 4.771818863223418195e-01
-5.049816268285799159e-02 -3.347671387818752092e-02 4.376819098146666476e-01
-1.998579055189329129e-02 -7.919631123347294077e-02 4.416728985565330778e-01
-4.082847364589313466e-02 -5.063452732572247539e-02 4.340059693706365129e-01
-3.405692698548738045e-02 -8.674311283462229905e-02 4.409440929230259432e-01
-1.456174073853035156e-02 -8.048777787864755395e-02 4.430802414026371872e-01
-8.407074452127638597e-02 -1.096203403908390106e-01 4.624219495749196107e-01
-1.958240440977975644e-02 -7.883794667491460240e-02 4.415912995874878844e-01
-1.857910989709001676e-02 -1.111204143662903043e-01 4.725029698078532236e-01
-3.876024883086302830e-02 -7.700432732503310895e-02 4.335605127820543192e-01
-6.059615916602157509e-02 -1.104279834867085419e-01 4.633026539916322295e-01
-7.998555617853493616e-02 -1.115300810736487708e-01 4.698975399061647851e-01
-9.108628123297775325e-02 -9.227180571515022911e-02 4.484110367129925390e-01
-1.024741958003993481e-01 -1.085723945764068277e-01 4.859426114903060423e-01
-3.720541455744696968e-02 -6.216016847796985295e-02 4.340710218339634552e-01
-8.116259919717815075e-02 -9.680134956016823999e-02 4.331722512324588381e-01
-5.034661760963393684e-02 -1.112941202238064836e-01 4.686354670577985715e-01
-8.777278323961619153e-03 -1.090900971534825709e-01 4.659327544742724037e-01
-4.941538493869385151e-02 -1.032397793245298651e-01 4.458867184343093260e-01
8.469932179555855756e-03 -1.231959202422155120e-01 4.984554110582809505e-01
-2.081393943090491597e-02 -1.142854755915505977e-01 4.802669521692226051e-01
-6.571345686739096803e-02 -1.048687335624128997e-01 4.229780314975800093e-01
-1.939025735368639022e-02 -1.187127718424616646e-01 4.917263358417193753e-01
-7.108977450737391512e-02 -1.096908743665785807e-01 4.595313123393480748e-01
1.928365361496234666e-03 -1.266117936350075190e-01 5.126980015644375666e-01
-5.092226925433553791e-02 -1.162184050312791428e-01 5.103895714934529870e-01
-1.862326424953520201e-02 -7.219163029285949329e-02 4.399682215702919175e-01
-2.343943897320097461e-02 -1.204469466517297804e-01 5.268574953730222887e-01
-5.187548540911814110e-02 -5.436087301566894237e-02 4.326725555438296067e-01
-1.052100775232218954e-02 -6.637695451635787502e-02 4.399837761883979570e-01
-5.086246524290311682e-02 -1.026244567005116376e-01 4.352602178541314926e-01
-1.051173017871328136e-01 -9.876492273438240710e-02 4.632695412334921214e-01
-1.610597122341008228e-02 -1.231327298654503882e-01 5.177503497616255945e-01
-5.568255820871938905e-02 -1.155018822011228685e-01 4.998205672093505303e-01
-3.170096663864318404e-02 -9.333423279793050253e-02 4.469479614131446898e-01
-6.864499261069140212e-02 -8.078850096480529042e-02 4.267101511479056697e-01
-8.093454791842920326e-02 -1.119854071475387958e-01 5.011610306650708946e-01
-2.634049743684173731e-02 -1.069343080749280001e-01 4.666806301753033126e-01
-9.370845893104606805e-02 -1.063109119067564834e-01 4.587075122567403351e-01
-3.458682234549027845e-02 -1.176117339533826883e-01 4.956846965974902042e-01
5.241979623638094200e-03 -1.108934131778302745e-01 4.695746761083319787e-01
-9.157630700671395840e-02 -1.111595362872249415e-01 4.907278572710378484e-01
-7.389870227075707836e-03 -6.982156022383187444e-02 4.409598174790181346e-01
-5.297471846352080904e-02 -2.526393743953518276e-02 4.413592014515486106e-01
-5.413258025251431460e-02 -9.475897495126940628e-02 4.225171160061525488e-01
-1.067446413727617532e-01 -1.040358766872715862e-01 5.027019896970342794e-01
-5.766436321875587773e-02 -6.640641870628725962e-02 4.296706529913105199e-01
1.965225615780873472e-03 -8.826790566180682529e-02 4.494955900921795977e-01
-1.300818205292613057e-02 -9.149979629012017224e-02 4.485504392584204747e-01
-5.578937157464944341e-02 -1.155316308771753703e-01 5.032968473467051007e-01
-3.528373847077401725e-03 -1.231757577089582917e-01 5.381600982077607842e-01
-2.294659949581091818e-02 -9.926497391458684316e-02 4.563410199669053480e-01
-7.834057315570315538e-02 -1.127651036525546269e-01 4.829430470336537051e-01
-6.954433808635526737e-02 -1.137442721394211209e-01 5.048334392041602392e-01
-1.286863833959821929e-02 -1.167441488686425527e-01 4.813833580806935464e-01
-5.370311591271340751e-02 -1.015275527949636436e-01 4.231015469623826686e-01
-7.698345336809014894e-02 -1.082238159924164139e-01 5.236075819374870211e-01
-1.010414691930827114e-01 -1.081687849704838222e-01 4.746443935309506701e-01
-2.913645701761336665e-02 -5.324871112537916951e-02 4.367528431098732788e-01
-5.190394246127021799e-02 -1.132739935559489430e-01 4.792391891398232184e-01
-9.907857586067983502e-02 -1.094485521011659829e-01 4.884012035356777304e-01
-1.317925763277019192e-02 -9.313319128596490859e-02 4.495258628331718076e-01
-5.951136593871304836e-02 -1.150603297152660021e-01 5.020907028587153764e-01
-3.747706184386542794e-02 -6.457435824646579059e-02 4.338202636077478913e-01
-2.938122306149049123e-02 -6.766022364496432351e-02 4.366431608226546413e-01
-3.275812288363157132e-02 -1.190348441015200154e-01 5.046253893431762449e-01
-1.979689280236770002e-02 -1.213865476554543826e-01 5.269157212300307203e-01
-1.910271408223626621e-02 -9.944456016117303454e-02 4.563753164992916389e-01
-1.114150461469599895e-02 -1.182275960691674954e-01 4.835592896410054187e-01
-1.231134694638076274e-02 -1.103606544677254581e-01 4.687096522083440409e-01
-2.348704820287656272e-02 -1.211430074884359970e-01 5.173101769848036380e-01
-3.873219309028486101e-02 -1.108545902767783947e-01 4.727352438776062371e-01
-8.404634572252972502e-02 -1.003746634584318093e-01 4.410761055368744299e-01
-9.216343791855638456e-02 -9.227704300922834335e-02 4.500049705784453513e-01
1.279762044747813701e-02 -1.265078667665728851e-01 5.241216424965954301e-01
-6.506744562740254811e-02 -1.080484787166981625e-01 4.508222368438202787e-01
