1.473432998102232371e-03 -8.810633041166682222e-02 4.493180525616815579e-01
-6.919953216287412848e-03 -1.232539608268248960e-01 5.361861423519539427e-01
-2.393738323964976142e-02 -4.804783116046887348e-02 4.383276183173479001e-01
-6.374290788207964686e-02 -8.222774771860930088e-02 4.240952150199150394e-01
-1.071207189741473290e-02 -1.239780720219968019e-01 5.261066440332207161e-01
-5.383630639042999433e-02 -4.728982014835089731e-02 4.353575872296417959e-01
1.001452373045471494e-02 -1.217805036106870964e-01 4.946626771981006976e-01
-1.094512277789082000e-01 -1.043460190508479490e-01 4.908380430594886934e-01
-1.748319059933714503e-02 -4.415874144688146374e-02 4.385123334919538984e-01
-7.381402794630821662e-02 -1.132360445616548278e-01 4.854557547699143161e-01
-1.723390895623487171e-02 -9.694548979528183619e-02 4.533209250090587394e-01
-4.776325752445895190e-02 -1.163749406840460104e-01 4.972408480729296754e-01
-2.364352343569783507e-02 -1.208618429854894510e-01 5.053279919354012328e-01
-5.512203913063059429e-02 -1.153861527129825953e-01 5.171274395815607106e-01
-8.931911437808479071e-02 -1.116045236893522113e-01 4.770990739898300914e-01
-9.126128765427941880e-02 -1.114144300632191470e-01 4.812267276129261195e-01
-1.023136767120340351e-02 -1.209790380236577118e-01 4.913548151037309686e-01
-1.088321181977114221e-01 -9.780537784164836101e-02 4.724430389047866718e-01
-6.983215550602296651e-02 -1.119358268552622521e-01 4.703653431342058044e-01
-6.070893304774338528e-03 -1.238901375222849210e-01 5.010938525552273148e-01
-8.409789814508140948e-02 -9.691171269431965440e-02 4.379639958234668451e-01
4.129782663288747956e-04 -1.226148224141548199e-01 4.946881591976458603e-01
-4.753805131131891987e-02 -1.112537683679047651e-01 4.692365059870679533e-01
-2.795126216872923647e-02 -8.801924975005000207e-02 4.439824606838430610e-01
-5.190168727082927758e-02 -2.623227281588787208e-02 4.389336116745917726e-01
-1.094146132054059778e-01 -9.993656822955997165e-02 4.735814909173354237e-01
-2.852840210432452256e-02 -1.200687278972237121e-01 5.142729997659065688e-01
-2.546678120741803497e-02 -1.130869010187436352e-01 4.779289117308389567e-01
-3.401949466599141214e-02 -3.969999670919381607e-02 4.359747992747847745e-01
-5.803752850741319275e-02 -9.014717082804678261e-02 4.216748060043696289e-01
-2.388037470938737458e-02 -1.183318638536448725e-01 4.936971786664143269e-01
-3.716210391029370341e-02 -6.400201879180300590e-02 4.339811406954667272e-01
-3.435415898854309730e-02 -6.915156222688219334e-02 4.348957309362093682e-01
-5.398753252200903102e-02 -5.114782915387514062e-02 4.344201202281809948e-01
-9.808639832555551483e-03 -1.127429581038249806e-01 4.718564841723524306e-01
-5.891681297547347179e-02 -1.150979664523214818e-01 5.143254326695264611e-01
-4.155327221368926988e-02 -9.314654304698401222e-02 4.411856014549587757e-01
2.895883274795109548e-03 -1.215402299854632800e-01 4.912329744947154242e-01
-6.704452322001071274e-02 -8.245256332340490657e-02 4.250488979174739668e-01
1.442237901598410373e-03 -1.171665008231271426e-01 4.792328712017512315e-01
4.814275904688128035e-03 -1.081555084617234763e-01 4.661861511886236653e-01
-4.178127067364190150e-02 -1.173998175975569658e-01 5.001576801865600386e-01
-2.219861937469717796e-03 -1.192201483495936160e-01 4.838190899362283526e-01
-4.985589601452375397e-02 -1.163660242896918384e-01 5.156582906813399481e-01
-5.803585101763300558e-02 -1.153709465046541260e-01 5.109329820149943746e-01
-1.027162862765737678e-01 -8.897456389774686947e-02 4.700413115851269641e-01
-6.459329767710662862e-02 -8.099706979285928310e-02 4.252620248805286662e-01
-2.190303641317198693e-02 -1.175274384116374027e-01 4.894712958269507030e-01
-4.042826890404443985e-02 -8.692657978102105720e-02 4.363898634842516278e-01
1.942311018629428029e-03 -1.266065668678556522e-01 5.276213687312816258e-01
-7.795058281899973351e-02 -1.127486482845036220e-01 4.785482579657655555e-01
-6.301769514861575716e-02 -8.583737904183623424e-02 4.217810274724025921e-01
-4.340346990359378321e-02 -1.161224952632643748e-01 4.923838394097880267e-01
-5.297440901154066434e-02 -1.041736154870884778e-01 4.367567727338395600e-01
-5.959908840130978547e-02 -1.057765900163629702e-01 4.216289494393730131e-01
-3.890493356946733705e-02 -1.163302258681230827e-01 5.322062392991125934e-01
-6.099059330775949417e-02 -1.141992736493715743e-01 4.878180137847511477e-01
-1.252682674042782975e-02 -8.141454657464465561e-02 4.438181072949948236e-01
-1.711413674391177100e-02 -6.081053986274884138e-02 4.384553430331790680e-01
-2.222594862180354500e-02 -5.440060919347466245e-02 4.378067371691389820e-01
-1.084474830688514219e-01 -1.027843593772179570e-01 4.749110582378243683e-01
-6.021952058543741590e-03 -1.236256759966355145e-01 4.990983105214988891e-01
-4.821145945521704973e-02 -9.925573437324720916e-02 4.366120117013618240e-01
-5.564477650876919340e-02 -9.910291700592696595e-02 4.212067733401068659e-01
-1.853874181083717612e-02 -9.860714749337606833e-02 4.552851063033550028e-01
-3.273213243024423319e-02 -1.192291045524102450e-01 5.161770147280984045e-01
-3.785607752558835942e-02 -1.087314242230814215e-01 4.664873659808887463e-01
-6.093538728120459491e-02 -1.139845970242927969e-01 4.855833570014897460e-01
-7.948548455990081529e-02 -1.099529899854325560e-01 5.157547131532477236e-01
-3.742511321034047017e-02 -1.184698960385258126e-01 5.101224478370423032e-01
-8.923428913273030727e-02 -9.701578293289722654e-02 4.443060550356552341e-01
-9.052650979810171125e-03 -5.550181262964506979e-02 4.380501652144592195e-01
-1.996373274767408723e-02 -1.015412160221421667e-01 4.588583558119720962e-01
-1.992766072480581588e-02 -8.130807410041715477e-02 4.425450066922482772e-01
-8.642125351226188912e-02 -1.061241032163349335e-01 4.512304233473105053e-01
-2.196267967302566876e-02 -8.788313805824415903e-02 4.452067714284793087e-01
-6.385176686014376601e-02 -9.675178585224390726e-02 4.191829739032765234e-01
-4.379625192539046002e-02 -4.165693162777500680e-02 4.345939994428486552e-01
-1.318695850827746562e-02 -1.205433640459336458e-01 5.425762356206516035e-01
-7.365783372544652818e-02 -1.131776938219618001e-01 4.834466073637959660e-01
-3.183083985636162017e-02 -4.853585498832548722e-02 4.363609905064210759e-01
-4.138691967411194106e-02 -1.144195555080213811e-01 4.850074202500167520e-01
-3.973582271095352225e-02 -1.179959779289578292e-01 5.077368276958419413e-01
-4.432032121910356448e-02 -1.172978106981595742e-01 5.081377646972733420e-01
-5.757595009040274159e-02 -1.146390070422829560e-01 5.203489272027498336e-01
-9.926179057935786629e-03 -9.046988198022451466e-02 4.485253512947379728e-01
-1.937532096152379951e-02 -6.716971361504291138e-02 4.389260656975543240e-01
-9.539807967321868587e-02 -1.102468916207859362e-01 4.736219658703728075e-01
-1.049110677515354383e-02 -1.234969405892626659e-01 5.040111620275394833e-01
-8.758280003238701206e-02 -1.004263390744391665e-01 4.435808273893175890e-01
-6.463319483154469913e-02 -1.067945980883137913e-01 4.291622242211943772e-01
-4.213426808231153509e-02 -1.176282962266628485e-01 5.117422396917878924e-01
-6.927914202420103196e-02 -1.134160111346669414e-01 4.847134565838124853e-01
9.893449498115089447e-03 -1.263226321355520876e-01 5.335302355616460268e-01
-1.751953448100932592e-02 -5.629329093141246382e-02 4.380460511235238497e-01
-9.468892867263632718e-02 -1.104845577611128088e-01 4.738967651728309138e-01
-4.996900602499496774e-02 -1.154611335289883467e-01 5.236125437449328235e-01
-5.771934570673242088e-02 -9.212133216525222879e-02 4.211140504925148242e-01
-4.547155456019909975e-02 -1.007534234811485185e-01 4.450957788571441864e-01
-4.519751761895563630e-02 -1.095246300216037999e-01 4.642768916375127342e-01
-5.048801854126726968e-02 -1.029646238413749471e-01 4.369888283199947487e-01
-4.569332794204656462e-02 -1.110989407107439292e-01 4.697657199244363313e-01
-1.646870374779735302e-02 -1.205958326270469838e-01 4.950160764754498177e-01
-2.494604943443359812e-02 -1.209326406806208315e-01 5.134034220664913661e-01
-3.831054847341460595e-02 -1.177199899287100920e-01 5.232486443631116924e-01
-8.079796980146239371e-02 -1.125851517296885401e-01 4.782934147540514047e-01
5.723104128129311106e-04 -1.266056290543782492e-01 5.153525786294210764e-01
-5.542849147621840833e-02 -1.070250974334511079e-01 4.486684125775388665e-01
-1.956835376140678845e-02 -9.552949531751070422e-02 4.519600097537397332e-01
-4.318289109779221979e-02 -1.170814961764199691e-01 5.201794528296131981e-01
-5.114308723647280341e-02 -4.441335953658762103e-02 4.353659608688570382e-01
-8.593632914179851964e-03 -1.209526235338605482e-01 4.906924521218431479e-01
-1.043735252718543255e-01 -1.012617662851886535e-01 4.629798294367693523e-01
-9.864905987490214800e-03 -1.245174888029818988e-01 5.220659538186976922e-01
-4.449088668666131841e-02 -4.321177658053061699e-02 4.344655550977525316e-01
-2.718259700990043569e-03 -1.109254960518851196e-01 4.682283960625940322e-01
-5.569908862160325574e-02 -8.486079436982388313e-02 4.228733190096291006e-01
-4.726254400133211159e-02 -1.072865534279381777e-01 4.576585900218874681e-01
-9.440586157182603855e-02 -9.178348443095894760e-02 4.539914565539721059e-01
-4.732887428581211697e-02 -6.153147667617135663e-02 4.304197892624296862e-01
-2.913220895904342772e-02 -8.193693874787655318e-02 4.404238142066266293e-01
-3.401816565592277741e-02 -1.188916151155152146e-01 5.052370033088868784e-01
-4.494646449138188504e-02 -9.866093460382206748e-02 4.431890697982003302e-01
-5.512249382139059600e-02 -1.110574007305307198e-01 4.659807626833388228e-01
-3.286798308583863820e-02 -1.192773150497094675e-01 5.134956455949604148e-01
-6.240089695034929662e-02 -7.584413674628813495e-02 4.255799923852010003e-01
-5.703995723168611004e-02 -1.131137365323765936e-01 5.275092570459707364e-01
-5.036857752287415835e-02 -1.027573551915710315e-01 4.376094572466556198e-01
-2.153581904963561625e-02 -8.637981144127661326e-02 4.445175823082346822e-01
-9.262701850379487234e-02 -8.657570739260300741e-02 4.562688966232800736e-01
-1.732765501450819062e-02 -1.162193247720664235e-01 4.831176690774211524e-01
-1.773796253416939570e-02 -5.109234300987020722e-02 4.383963806736712598e-01
-8.121614396598356156e-02 -1.128969610604990542e-01 4.847834588059151129e-01
-2.817227558274755170e-02 -8.083968430670070149e-02 4.402250704721379360e-01
-3.176110880808721143e-02 -5.022830312474012987e-02 4.362916674482295032e-01
-7.991255920196217721e-02 -1.069257246351884155e-01 4.489942401166796548e-01
-4.678155419270956655e-02 -1.169066608196289297e-01 5.070772296133110313e-01
-5.159681954050490682e-02 -1.032605505812296404e-01 4.329819559555459496e-01
-4.888398368175016218e-02 -9.911861441263243588e-02 4.333033761266308348e-01
-2.695497852557347807e-02 -4.710781015761916074e-02 4.379071391862286444e-01
-3.594467481963416894e-02 -1.061322377555282276e-01 4.628350417248283666e-01
-5.493986906151067384e-02 -9.421340716274072269e-02 4.218998950765613376e-01
-6.257960107376743519e-02 -8.707717206542299471e-02 4.214910251602815294e-01
-5.168331948572674889e-02 -9.183544710284462231e-02 4.246504606448407992e-01
-5.665432169437013138e-02 -1.105985423157370556e-01 4.639786895443187564e-01
-4.152075430210019208e-02 -7.540617395787790889e-02 4.320639409578800327e-01
-1.814311616405638733e-02 -8.769100133281457210e-02 4.457737308782054320e-01
-1.539240985095629427e-02 -6.450407063204906255e-02 4.390496930768039152e-01
-5.202530094376128789e-02 -1.074917597694303312e-01 4.545588592961182228e-01
-4.511489182078767465e-03 -1.257083545356796894e-01 5.134198268380393282e-01
-6.139470818506739119e-02 -7.858087090984168521e-02 4.244091105754106974e-01
-5.693515998015571955e-02 -1.040292234644477898e-01 4.212412466937665023e-01
-2.155440345072074521e-02 -1.187853788675694994e-01 4.938983192347392581e-01
-5.510078584740837893e-02 -1.148959706342596032e-01 4.895781697154653056e-01
-5.692682504089106865e-02 -8.215390067511105232e-02 4.233584254275854497e-01
-5.821374583428200883e-02 -6.123310389910760487e-02 4.321619681541346014e-01
2.725353448045323736e-03 -1.078369260039919175e-01 4.654797397316817187e-01
1.779839320940651299e-03 -1.238101404549796780e-01 4.985269392974184255e-01
-8.643699312704353210e-02 -1.092973949015178525e-01 4.614475974643553191e-01
-3.778089606591126387e-02 -7.651949606498180401e-02 4.339296112377488690e-01
-9.762479311550117944e-02 -8.947273623251147945e-02 4.610942240557635019e-01
-8.785919614839317326e-02 -1.099771747029739816e-01 5.059571804322792188e-01
-2.383317010327780025e-02 -9.790806292258293075e-02 4.545852364050161354e-01
-5.422503207465628056e-02 -4.211696197119140644e-02 4.397194370536721686e-01
-5.192816448134348478e-02 -1.024063465529095607e-01 4.263787657307286927e-01
-1.542104298093496285e-02 -1.219364778067205807e-01 5.334627887331466756e-01
-8.335696407832073745e-03 -9.785805086611754078e-02 4.541017011031518447e-01
-2.537678899000304911e-02 -1.189620462701779513e-01 5.356484051231148458e-01
-8.329449174237352205e-02 -1.056876322635345727e-01 4.474866011696690959e-01
-5.065506703529210758e-02 -9.115338582454728111e-02 4.255131010519613843e-01
-2.961771498198305722e-02 -1.103295800932868054e-01 4.725116096344129102e-01
-1.758930017782716487e-02 -1.218517727316437566e-01 5.285870670131094240e-01
-4.699745087354137776e-03 -1.256145116044573018e-01 5.123152143424748450e-01
-6.243586257836303277e-03 -1.250948548440557473e-01 5.266613144693103044e-01
-1.691546268720276955e-02 -8.029665984634136444e-02 4.425342723866349526e-01
-7.324826122243605075e-02 -1.098693231637274392e-01 5.229996235253273618e-01
-1.697578034869020799e-02 -1.014987609731698992e-01 4.582840178870909442e-01
-1.273868414024814828e-02 -1.161340833429436031e-01 4.798572330671335706e-01
-1.857812389895935334e-02 -1.196284028072486794e-01 4.938181877189389279e-01
-3.765815211700283827e-02 -1.161876525841482044e-01 5.348627057864846490e-01
1.602186393274858400e-02 -1.250752382298687126e-01 5.380338171709765360e-01
-4.490864507922762844e-02 -1.164987551602210680e-01 4.947355598672726895e-01
-6.479198059340689209e-02 -1.119512114904162164e-01 5.241469318498216401e-01
-1.436642745175017478e-02 -5.398476638405210609e-02 4.383652739120437181e-01
-4.694303036410116953e-02 -1.078798124701420419e-01 4.595951386132282601e-01
-3.531173065756934570e-02 -4.966171282019229277e-02 4.350668530464887329e-01
-5.479325314531387908e-02 -1.157756380479085384e-01 5.038631270734986733e-01
-7.808031579161936464e-02 -1.114009291937115009e-01 5.111991880558586221e-01
-1.167423389737011138e-02 -9.531396974262376642e-02 4.516044955031908170e-01
-9.741618033949473940e-03 -9.454963990243427097e-02 4.511145814522164454e-01
-8.266211313552181139e-02 -1.110452183047032498e-01 4.667061253918141084e-01
-1.035991391702873604e-01 -1.014931928529609895e-01 4.611369016739856885e-01
-9.914668297040210576e-02 -1.065978417750760437e-01 5.057809364423224707e-01
-1.007712433577317435e-01 -1.062867901565691942e-01 5.044817194564530372e-01
7.540295582170519935e-03 -1.243595315783425914e-01 5.021415912896803890e-01
-2.117815764434890710e-02 -1.066050420635530627e-01 4.653521032064809049e-01
-5.029400071532419414e-02 -1.003790823880782446e-01 4.287658149566418997e-01
-5.123360636925678585e-02 -1.124018235837573876e-01 4.729284166137120993e-01
-4.340150961580743760e-02 -6.794028966441660600e-02 4.307181957698392738e-01
2.212578827589265981e-04 -1.114985100540529239e-01 4.692858546157032684e-01
-4.253551840769255465e-02 -3.233979235383723644e-02 4.351354584441607387e-01
-8.168719779396978187e-02 -1.120792227041662037e-01 4.730420883206460925e-01
-7.192737418942700411e-02 -1.128566561855367384e-01 5.115744833663865565e-01
-5.679403629660380315e-02 -1.069666365779256834e-01 4.469371577192076117e-01
-4.457846542875379403e-02 -9.510517522553785241e-02 4.390633809264236076e-01
-3.016210199757780180e-02 -5.014645670399556915e-02 4.368723143570514833e-01
-1.743927517477302652e-02 -1.206401281285323784e-01 5.379325973758595225e-01
-3.008984372609541796e-02 -1.192429192940300253e-01 5.234439649566456909e-01
-1.860216497647353834e-02 -8.350720354697457881e-02 4.436438364271956813e-01
-2.096570444524408980e-02 -1.168938492691036085e-01 5.481084747941211699e-01
-5.241062798956949709e-02 -1.159621391645536126e-01 4.985453494563867882e-01
-6.450853642551196421e-02 -9.852668882105178327e-02 4.193900520988967373e-01
-2.419711643867299491e-02 -9.597898164880906691e-02 4.524990704949477527e-01
-2.559472953833739212e-02 -5.112447493432555751e-02 4.377572068725428811e-01
-9.924452282917382850e-02 -1.094828625398908961e-01 4.781619925415251382e-01
-4.210230582210316985e-02 -3.827353793252050856e-02 4.346186542183613222e-01
-2.201360831313803335e-02 -8.642284531665046787e-02 4.444545739076870561e-01
-4.251150784593175219e-02 -1.168986598140399902e-01 5.236524196002758647e-01
-9.107371145514650546e-02 -9.180010082752138034e-02 4.490359215553262895e-01
-4.115952990506906856e-02 -9.758385451552213652e-02 4.456730417739078187e-01
-4.493876176096796987e-02 -6.852828812779813983e-02 4.299362686728926963e-01
-5.087336072027352080e-02 -1.139973279967788078e-01 4.827247519041571455e-01
-5.518637342485820801e-02 -1.052713855812533739e-01 4.363727816410102323e-01
-6.072833433168868533e-02 -1.067110827575003251e-01 4.371427033579688981e-01
-1.213745033543179273e-02 -6.157066485448713100e-02 4.389172576693484706e-01
-9.800392478292373200e-02 -1.078803685389077976e-01 4.660601581661593107e-01
-9.882727612831312958e-02 -1.035152151666601794e-01 4.591087897369879878e-01
-4.430311960313976227e-02 -1.132358046988757999e-01 4.803691790390345884e-01
-4.670056348812169633e-02 -4.430987562317020845e-02 4.343548384337868051e-01
1.964258331265887961e-03 -9.664535341967916970e-02 4.547840638424469617e-01
-4.699480419192802322e-02 -1.168455584599470409e-01 5.143794686978448993e-01
-1.251660823821875747e-02 -1.239542202850737046e-01 5.128124436477576875e-01
-7.043901802157938319e-02 -1.138330116977966655e-01 4.978184368409460103e-01
-4.868464378260554254e-02 -1.008638024489253437e-01 4.420797991151621531e-01
-9.921179516547855293e-02 -9.175699792685045042e-02 4.606811090014248378e-01
-3.550498718632286860e-02 -1.184593043273316076e-01 5.209521991256970130e-01
-5.388165961404358523e-02 -1.135768116666246441e-01 5.281265962271599612e-01
6.275606702424919858e-03 -1.259537047509824148e-01 5.095329052786966573e-01
-9.121227075199672685e-02 -8.678406000565314082e-02 4.537729900189094168e-01
-3.284286815109291324e-02 -1.078798703938573522e-01 4.669510411929146954e-01
-7.143003859272308020e-02 -1.065004212090856911e-01 4.385905259569400361e-01
-5.950521777076184238e-02 -1.151990106161841915e-01 5.075153470207299788e-01
-5.310954377323883618e-02 -3.154101024748603294e-02 4.400368994551047130e-01
-1.029167289418572856e-01 -8.996980024016036637e-02 4.689893464462109307e-01
-6.966618907550986561e-02 -1.135647466881280904e-01 5.101725563107679662e-01
-1.742821023626100682e-02 -1.131757911159004953e-01 4.761158473806194613e-01
-9.877430711581826339e-02 -1.053615128903838266e-01 4.607175760558210320e-01
-3.270034108321797500e-02 -1.193244516582747383e-01 5.105938419391143901e-01
-5.818935667602335993e-02 -1.101502036068991303e-01 4.613111335358151543e-01
-9.199247181262275308e-02 -1.054858900938654004e-01 4.545936018913360743e-01
-6.489334535395790970e-02 -1.112853048847142895e-01 4.663796077018563802e-01
-6.399310771002976461e-02 -1.145287027827088383e-01 5.102720147806596440e-01
-2.852011397992532463e-02 -5.969211565541439335e-02 4.363014710627393100e-01
-9.010898943069170497e-02 -1.091936878927351057e-01 5.064425954495875848e-01
-4.591885643419954532e-02 -1.167666418813479989e-01 5.181835380344975706e-01
-1.284297979808166415e-02 -8.913498443473984179e-02 4.471855090910921149e-01
-2.245435989665789042e-02 -9.500253890669727030e-02 4.515864951275529449e-01
-7.236498385754455698e-02 -1.100429567337387615e-01 5.233133145762208782e-01
-1.106558623751874443e-01 -9.896382926508726086e-02 4.760332171509952248e-01
-2.396748998711405176e-02 -1.006391285425733279e-01 4.577192344400804469e-01
-5.804721396511337145e-02 -8.270448339262105597e-02 4.231945900257482185e-01
-7.194238767766865383e-02 -1.133817690813067880e-01 4.883809720011515476e-01
-2.847979745240898641e-02 -7.435272281475424627e-02 4.377446971679162524e-01
6.103628944308788981e-04 -1.262481126648636598e-01 5.289820899276482802e-01
-9.197596568414150020e-02 -1.091605860547227164e-01 4.653516195231802155e-01
-7.695209654668283550e-02 -1.112237760546829629e-01 5.139024161284113656e-01
-5.051245129201748646e-02 -5.312857446899659636e-02 4.331931857612664194e-01
-8.841116591751507769e-02 -1.103007864802753174e-01 5.039695666353392056e-01
-9.898114001601278356e-02 -9.138663252980835927e-02 4.607171585913329426e-01
-1.981886267918197587e-03 -1.262492370022069432e-01 5.237668872664447139e-01
-4.296734006642112524e-02 -6.670968907849759988e-02 4.310623294923263127e-01
-1.754577356170142557e-02 -1.208534183442329657e-01 4.976827165927958374e-01
-2.552238150192590385e-02 -8.470420316087785839e-02 4.428365484664695817e-01
-5.427043592305300090e-02 -1.044991381436792821e-01 4.412603368022461892e-01
-3.204350337913204616e-02 -8.907929995455959871e-02 4.432675213735691733e-01
-3.307676565844959449e-02 -6.070750494146606030e-02 4.354683068828212877e-01
-6.902886276669725762e-02 -1.115020531233820861e-01 4.674397909558689057e-01
-1.481682394967554807e-02 -1.065401240764401875e-01 4.632969502258230676e-01
-3.668897034289712866e-02 -6.038265216367365296e-02 4.343776596899588394e-01
-4.266133669296433284e-02 -5.780816395245652606e-02 4.325441924617978717e-01
-3.252858400701366670e-02 -1.173570155713900415e-01 4.934510728234598465e-01
-5.837532338436834944e-02 -1.069004410191097543e-01 4.341724247664145442e-01
-5.337758019981205665e-02 -2.451677506401196346e-02 4.441817855322597319e-01
-1.361668543157717667e-02 -7.121030484355968249e-02 4.406188218682783875e-01
-3.931165913850731553e-02 -1.128625714016797538e-01 4.793439528358001689e-01
-6.268266547349923834e-02 -1.115274296567713291e-01 4.674740180442465420e-01
8.019661608903924654e-04 -1.057202495082073257e-01 4.629248105843905003e-01
-7.501761679452055576e-02 -1.120394501359291972e-01 5.120053380271992749e-01
-3.797836371793791854e-02 -1.008359725319279282e-01 4.520980818988488692e-01
-8.510867100673064067e-02 -1.121371519729651434e-01 4.931465756137059508e-01
-4.368090116796997241e-02 -8.020646713993243027e-02 4.309762648508830285e-01
-1.151185127792577964e-02 -5.693015117931201491e-02 4.383196867837751975e-01
-1.919896668977362497e-02 -1.185028256476870906e-01 4.908192139697388767e-01
-4.932645399523538643e-02 -1.097842479408596000e-01 4.632653393208205905e-01
-8.629902140523537657e-02 -8.865708510484773819e-02 4.440464913622785836e-01
-2.635638126663458758e-02 -1.200470102907484904e-01 5.238463398505339708e-01
-4.888502222343264758e-02 -1.158367823261802765e-01 4.931190710725721904e-01
-3.355467577833644993e-02 -8.637571109206010345e-02 4.408616895422001747e-01
-7.606824401156653259e-02 -9.355840362250114617e-02 4.251086791674233423e-01
-8.060019398588020093e-03 -1.033030968283133871e-01 4.591233522011806678e-01
-9.682820133671941887e-02 -9.624500057353857496e-02 4.543074540299809616e-01
-6.991042364251785768e-02 -1.139261948749508702e-01 5.022309654770612530e-01
-1.642176853304472967e-02 -1.201355790524474970e-01 5.415615620601226254e-01
-1.403909195959705987e-03 -1.220565722849370899e-01 4.927377976690029970e-01
-7.403021317461544459e-02 -1.125252425142307527e-01 5.105686321589079091e-01
-5.295355996735178622e-02 -7.456453785208444485e-02 4.257895894918568569e-01
-3.231971423481787981e-02 -1.142225574265931798e-01 4.819695553323786186e-01
-2.153356090606011949e-02 -1.132482481877684077e-01 4.780073904283180797e-01
-8.292541196769068201e-02 -1.114502244735762759e-01 4.687574148010115738e-01
-7.345572065605110446e-02 -1.097423838386360068e-01 4.585909670938292382e-01
-7.122925538098341669e-02 -1.126988329425541724e-01 5.134442802511163251e-01
-4.995673643940858055e-02 -1.163894060440099493e-01 5.036999509772647210e-01
-4.928305919724960266e-02 -3.996028142444289777e-02 4.358493918131491895e-01
-4.490552126447182324e-02 -3.913820052396205923e-02 4.349440045558109480e-01
-5.209239085687022985e-02 -1.125253644139854459e-01 5.326476086853542125e-01
-5.751586691075271512e-02 -1.154175781852207899e-01 5.134480758543132906e-01
-3.056298934000189690e-02 -1.167123776980572708e-01 5.405068414470407534e-01
-5.329370346971165628e-02 -3.716107097512429819e-02 4.386024122790640467e-01
-2.390731773911252897e-02 -9.241934731551176840e-02 4.485085924702928994e-01
-7.430330170991797378e-02 -1.115008175105356575e-01 5.165230410447604337e-01
-9.143683782474443245e-02 -1.028741022365802366e-01 4.518205357578650716e-01
-4.624162733244578660e-02 -8.473652081576446560e-02 4.289280504053605281e-01
2.449584078721759890e-03 -8.537209862096678537e-02 4.480086499966560720e-01
-5.326449143969728961e-02 -1.146917134636788460e-01 4.871413181708517115e-01
-4.148354842563260064e-02 -3.239959389714797827e-02 4.351920230579127136e-01
-7.880546731405058125e-02 -1.054339352168879307e-01 4.424942898999818519e-01
-1.564694939118266639e-02 -8.045919504924424481e-02 4.428159846480314021e-01
-1.005501142217588711e-01 -1.089332183308781288e-01 4.943341847808346290e-01
-1.048865510510940957e-01 -9.989514522106715533e-02 4.632996779609671600e-01
-1.070845469329870792e-01 -1.030352321562733736e-01 4.707466851014264764e-01
-5.213903357785946296e-02 -1.159557650806734008e-01 4.981750014598355092e-01
9.673755435621940457e-03 -1.267213420949640512e-01 5.231912574523384096e-01
-5.629963866554890672e-02 -1.073528754304105687e-01 4.297437331686774775e-01
-5.569129452026187754e-02 -5.755957312995528541e-02 4.320342062929780624e-01
-4.196636572321179454e-02 -9.241844919808080150e-02 4.401620061215753554e-01
-6.788719956791805510e-02 -1.012668293614558679e-01 4.201107649009761524e-01
-8.254657231418495444e-02 -1.031648808046522064e-01 4.410453689867679938e-01
-9.860671373527361838e-02 -1.097328311785947808e-01 4.903956056023632826e-01
-5.527139342007552844e-03 -1.197537155939758513e-01 4.856929019146568050e-01
-4.081492862993421622e-02 -4.029117955589441025e-02 4.345549357298782445e-01
-1.327780498685782965e-03 -8.416397365405377251e-02 4.471072496323614254e-01
-3.362572357770287484e-02 -8.535924056177864039e-02 4.402841667286662708e-01
-2.313176799890565016e-02 -1.169795815918452803e-01 4.885319367267664803e-01
-6.656621145629383271e-03 -1.241370938901557724e-01 5.323462296427482476e-01
-8.612360543794899195e-03 -6.513964886740127025e-02 4.397104060393840497e-01
-8.730138936494563628e-02 -1.116767969025030532e-01 4.959540564071423518e-01
-6.515021133709923695e-02 -1.001697023646676704e-01 4.197956430430813679e-01
-9.804299582191700058e-02 -1.099417093424641528e-01 4.786173640525875350e-01
-9.114737838405063963e-02 -1.097168383719180212e-01 5.039189738729958901e-01
-5.504581412914874572e-02 -1.072405431581074930e-01 4.288276525456168331e-01
-4.625385872485254096e-02 -9.434768690528134993e-02 4.328283854216983806e-01
-3.732684720568341108e-02 -6.646597622079780665e-02 4.337895467625514367e-01
-3.618708565732252358e-02 -1.171070100079164011e-01 5.312162704277912928e-01
-2.772380935960949006e-02 -1.029116365543350925e-01 4.604373572200137210e-01
-9.559037928476929458e-02 -1.103395919699675654e-01 4.940168002212622644e-01
-5.526830189932077642e-02 -1.154539381158996014e-01 5.163122362848876490e-01
-8.513230650846578818e-02 -9.338100588826581117e-02 4.399698769577196633e-01
-5.305940185465846115e-02 -1.159699191924789818e-01 5.007627587605389952e-01
-3.967706205258113294e-02 -1.179696413754302287e-01 5.167681643038654071e-01
-4.881577609997939798e-02 -9.466303536207278102e-02 4.272451995814665615e-01
-5.733807539701969019e-02 -7.073078890065324920e-02 4.271528946588621922e-01
-6.539414278831803817e-02 -7.593163353158786932e-02 4.280945231893404923e-01
-6.686338533667131323e-02 -1.142124968961404502e-01 5.066305200623973937e-01
-1.008559145538585472e-01 -9.655593553442838595e-02 4.596182713176432677e-01
-5.849234378716522409e-02 -1.145748802029179225e-01 5.195816940873514422e-01
-2.869513202411083305e-02 -1.110006456000097036e-01 4.739160861152870718e-01
-5.742163005850581259e-02 -1.152961028060197207e-01 5.146721303495374045e-01
-4.188339501979639751e-02 -9.164730560160130879e-02 4.394685008737717613e-01
1.699076662105093510e-03 -1.266763206113279694e-01 5.264023648878359829e-01
-7.026196162074167806e-02 -1.090939307468716535e-01 4.553037522320710351e-01
-9.125984672754711147e-02 -9.212974677761305575e-02 4.490616228516972619e-01
-3.956974809045255004e-02 -1.146824313036410720e-01 5.383903977064057322e-01
-6.059019714937946208e-03 -1.221474346172702341e-01 4.939246951370798722e-01
-1.799377027267030221e-02 -1.132191082921968350e-01 4.764124894367847696e-01
-4.926691028214500584e-02 -1.017806153387758039e-01 4.390209855677566497e-01
-2.977402633612443936e-02 -1.196724483057526739e-01 5.190458451885339164e-01
-2.587400418406195571e-02 -4.265198063921612354e-02 4.383062553079241086e-01
-4.958812982793821961e-02 -1.155255758099872354e-01 5.236747234045842081e-01
-2.285319565656013588e-02 -1.207384336252648183e-01 5.033545282149201050e-01
-7.450715727924091258e-02 -9.684350278959602543e-02 4.227559913819577964e-01
-5.997376180372653715e-02 -1.139403858062957020e-01 5.215368997050205957e-01
-1.030513575178186036e-01 -9.862523714472271053e-02 4.610183693347851275e-01
-1.931868750627410009e-02 -6.449294246633642536e-02 4.385418235105721929e-01
-6.376344441222454862e-02 -1.095609432605258587e-01 4.573715072048790686e-01
-3.349299389715131720e-02 -1.165426545431246241e-01 4.906219775582486009e-01
-2.289638374892282238e-02 -1.113328951480666573e-01 4.741000998018478629e-01
-7.734273834340466003e-02 -9.605224621163148402e-02 4.264846119557142434e-01
-7.978797403132258104e-02 -1.128949260859420933e-01 4.820332112404150382e-01
-3.867471838227183600e-02 -5.507403009901348789e-02 4.339827749562678028e-01
-1.051370879987885837e-01 -9.258156011314391809e-02 4.693846892614991217e-01
-1.062810488205690879e-01 -9.664161506318033612e-02 4.670334385093448115e-01
-4.030340224095390125e-03 -1.233545266584780836e-01 4.975280577570523333e-01
-5.891574570775154687e-03 -1.248446074285550766e-01 5.301472258381052516e-01
-8.187922300077686566e-02 -1.126417704821346399e-01 4.912044368630291147e-01
-7.662620273307635399e-02 -1.044378454640862014e-01 4.347871797529834770e-01
-3.986737807898037278e-03 -1.253174443426199602e-01 5.293052712673648186e-01
-9.100267268194690840e-02 -9.874267009190888789e-02 4.469681330388630691e-01
-5.674306954571824851e-02 -1.150915480112844613e-01 4.934897865802994055e-01
-3.025381208698604135e-03 -9.756241572020560304e-02 4.548806848567330530e-01
-7.514977321509366814e-02 -1.095774506589986402e-01 4.583563454851935504e-01
-4.838967831239358863e-02 -4.870812928789385043e-02 4.338180743558134322e-01
-6.196363988879297763e-02 -1.110253280576808665e-01 4.652709313541402159e-01
-2.496346564680767405e-02 -1.133968101745715662e-01 4.785363111203403408e-01
-3.102256153261276350e-02 -7.347378684006186655e-02 4.365752017520128647e-01
-4.483974133683156504e-02 -1.172272943718099952e-01 5.108347707425320294e-01
-2.023348302798064560e-02 -6.482460415609078708e-02 4.383846722542834029e-01
-8.258301470166792835e-02 -1.111020458874033279e-01 5.066125806136684284e-01
-5.766259780929889472e-02 -6.116329884133590161e-02 4.317989495457241200e-01
-1.360420437376444122e-02 -9.840507096593291425e-02 4.544750536357464732e-01
-9.187712747375469460e-03 -1.247098163292082867e-01 5.217618983582359427e-01
-1.031263654509325389e-01 -1.081785639237647922e-01 4.795429639162698821e-01
-5.533870784383398966e-02 -1.068977682777974003e-01 4.261849161878819570e-01
-3.555595704662654205e-02 -1.153989340764036003e-01 5.409191121562165749e-01
-3.389003752464926633e-02 -1.119549544965829230e-01 4.756397904640313756e-01
-9.324211154214960551e-02 -1.096601672190291449e-01 4.686574566646564133e-01
-1.105192490784203951e-01 -1.025745649634603046e-01 4.853716813596431479e-01
-9.140010115905464194e-02 -1.101420882069838181e-01 4.689314521690836624e-01
-1.174462701091108334e-02 -1.211120509118235322e-01 4.926892975381197415e-01
-2.147829195596654209e-02 -1.215226962401686067e-01 5.079914407900735229e-01
-4.660870496195670259e-02 -1.127294541901331659e-01 4.770950527401983110e-01
-1.019832436096058809e-01 -1.087042273723717589e-01 4.927508992673399479e-01
-2.082793885548873611e-02 -1.218434756368356325e-01 5.122351478112585621e-01
-9.364787053721197740e-02 -1.077955935841935636e-01 4.615594872999041476e-01
-6.456754123109773036e-02 -9.723898675649472745e-02 4.190061631924851815e-01
-1.378946512632065434e-02 -1.119064991979866197e-01 4.716690339657760855e-01
-2.672893981662016055e-02 -9.832456362785561843e-02 4.543468644200379658e-01
-4.134397424898154927e-02 -3.040847986937305486e-02 4.354314826233061653e-01
-8.293287107605110120e-02 -9.741882154689690543e-02 4.363078998092232430e-01
-8.851625480059846507e-02 -1.080563321073694238e-01 5.120603511018958498e-01
-1.746452988719962574e-02 -1.206740825675375189e-01 5.377446948907552704e-01
-1.979442483791273369e-02 -7.682399745890756970e-02 4.407136107636754341e-01
-5.283756611227483774e-02 -7.859448344547020904e-02 4.251448624815929445e-01
-4.970759648313146511e-02 -3.315546450331190859e-02 4.370718177837656371e-01
4.084957726361086901e-03 -1.261712903282805331e-01 5.095804689203442539e-01
-9.285065331004373201e-02 -1.111498434111711647e-01 4.822733733216684193e-01
-8.230678179063642685e-02 -1.114669685542696853e-01 4.685845273185302862e-01
-6.707719863521477421e-02 -9.629444765269278006e-02 4.186763094659944340e-01
-5.137360117750868621e-02 -9.479406808425397402e-02 4.249023357952748103e-01
-7.366053981534448347e-02 -1.065757337189664478e-01 4.403148345328027347e-01
-8.032719996425749520e-02 -1.116288015439230036e-01 5.066621315817535498e-01
-1.777862109982138172e-02 -1.132646100161813357e-01 4.764388388072889335e-01
-2.706234591230937542e-02 -1.101387789769092268e-01 4.721624702197891876e-01
-3.617351742485556271e-02 -9.642163018499602667e-02 4.476275226911293759e-01
-8.165452961357815009e-02 -1.016489486415703414e-01 4.378555346485606958e-01
-4.048002346141325869e-02 -9.680351980376135368e-02 4.454145880539192581e-01
-3.589176759455992016e-02 -1.055180698474614542e-01 4.617825240233838779e-01
-6.119419103325793308e-02 -1.071242357426202690e-01 4.336369694399432317e-01
-8.899536877740944762e-02 -1.100229694510412165e-01 5.045167591350251390e-01
-7.038509823237963647e-02 -1.137348449050072235e-01 4.936787380879476550e-01
-9.621291529406900828e-03 -1.247407012917529784e-01 5.185373705176498094e-01
-3.879355409902057045e-02 -9.742096436865635423e-02 4.470883907271925306e-01
-1.177096296068962447e-02 -9.525454262775173708e-02 4.515432132557118949e-01
1.822975171952182427e-03 -1.269656208384729590e-01 5.186396016702178313e-01
-5.752235254977467599e-02 -1.122610157154341898e-01 5.298059584139063194e-01
-1.519295570146782064e-02 -1.212074122870771403e-01 4.966286537214045227e-01
-5.374146484499849746e-02 -1.019594411585072191e-01 4.231849603559175166e-01
1.469992628763575754e-02 -1.249782811501015944e-01 5.390869634921513498e-01
-5.914337809297169624e-02 -1.146486883840182325e-01 4.907637901380090817e-01
-4.442762849528497648e-02 -9.295578093710052392e-02 4.350554907241207525e-01
-5.993498629027506353e-02 -6.736855718001419357e-02 4.296921730295703568e-01
-2.853334312670627315e-02 -1.194159421350754480e-01 5.254307804110421865e-01
-9.868021618378944662e-03 -9.137084861742239550e-02 4.490308775589262891e-01
-7.653133770793867433e-03 -1.232937745783684869e-01 5.356444092721341921e-01
-8.479813990288145864e-02 -8.847154186580073743e-02 4.421875024501487617e-01
-5.642515071520386866e-02 -1.043311961181471320e-01 4.214361112584152358e-01
-7.202294368865339892e-03 -9.872104267978712433e-02 4.550639642114235328e-01
-2.625282168547765638e-02 -5.039055894893836041e-02 4.377598852492067816e-01
-1.020102952575627497e-01 -9.207043896114044945e-02 4.648884941454108355e-01
-1.047093614287866459e-01 -1.051812411764891375e-01 5.027189670152789613e-01
-7.085662495580327680e-02 -1.125655583735643006e-01 5.149896074463333751e-01
-3.304892152908408404e-02 -1.105415531264275636e-01 4.725473053960438374e-01
-9.012451850174707513e-02 -1.032025337885558586e-01 5.214203460663264789e-01
1.120383360513342932e-02 -1.266980637119228537e-01 5.286944688182856344e-01
-6.585363159976623249e-02 -1.063753861696951908e-01 4.279496307015068779e-01
-2.399624549932294348e-02 -1.193895803775670700e-01 4.976150086199774281e-01
-5.968864370185653773e-02 -9.333757552182603279e-02 4.203132089366209412e-01
-5.092256908917208030e-02 -1.146008896784910941e-01 5.267334027208578906e-01
-1.441300401655357805e-02 -7.479492976740219345e-02 4.413188557835767689e-01
-3.086072254731796541e-02 -1.176754449205271169e-01 5.355230448968366641e-01
-1.649926099805663210e-02 -5.806244103035958920e-02 4.382705880780309871e-01
-3.314058915894584068e-02 -1.184348022775177645e-01 5.260720434517794919e-01
-6.357110567884410521e-03 -1.242664475769120064e-01 5.321497359975612129e-01
-2.490011276880893867e-02 -5.318080412643971799e-02 4.375857933302652603e-01
-8.590444387258654169e-02 -1.022468902184807404e-01 4.432103247523319633e-01
3.189724561953652567e-03 -1.265281655258706783e-01 5.112415981611195814e-01
-8.415323859248305394e-02 -1.009221624225383473e-01 4.412581662469420296e-01
-9.657482449120353973e-03 -1.060246491570300265e-01 4.621046935718103876e-01
-1.693124506500582119e-02 -8.764820145181641264e-02 4.459044136928910773e-01
-4.503883208299311325e-02 -1.172033739769989258e-01 5.086709743479712609e-01
-1.035025504116764139e-02 -1.235780960079000401e-01 5.044427517085613433e-01
-5.491751759951075257e-02 -1.131074164474922122e-01 5.291648813567559895e-01
1.329037014946438111e-04 -8.278068499734853036e-02 4.466956029345330870e-01
-9.682047342446167826e-02 -9.541641932703021078e-02 4.544956734819527444e-01
-7.968923701987090658e-02 -1.096120648953809590e-01 5.165827959266059421e-01
-3.720627749754734648e-02 -7.939405976475874538e-02 4.352952519595907344e-01
-3.736828248331205277e-02 -1.181815491558648595e-01 5.027141626181111933e-01
-6.801021102442950800e-03 -7.502920926433739868e-02 4.426706989297172767e-01
1.782427139146367011e-03 -1.269317161673826633e-01 5.213635316566620492e-01
-6.487916390754006057e-02 -7.480679769639544952e-02 4.274954159616584093e-01
-6.531421100560525113e-03 -8.852665164126803654e-02 4.481434143955079219e-01
