3.310482295391616731e-02 5.137856572237363417e-02 4.390806244120362134e-01
-2.052879639179888346e-02 3.603473341831013588e-02 4.155849442484190748e-01
5.134828307813180115e-02 9.254200735738227906e-03 4.543697923593393861e-01
5.603487919415869878e-02 -1.365803544999277114e-02 4.777918110959615827e-01
-2.380248565474050657e-02 -1.962131087669199796e-03 4.337617467357641199e-01
3.411240512089520199e-02 -2.746574889949204151e-02 4.459056424365983595e-01
-4.801993324242126264e-03 2.661871336193268739e-02 4.116409249509149770e-01
5.437178079618158050e-02 4.416991134604429659e-02 4.907389270648601087e-01
4.063023397921371009e-03 -9.766621968609071058e-03 4.324940699121291310e-01
4.090221165969687434e-02 6.909890374361231380e-02 4.538484788009558013e-01
-3.639016138346869850e-02 -5.853815690640205675e-04 4.392054100073650158e-01
5.632027586615355463e-02 3.847008889987284935e-02 4.815924990625235491e-01
2.657967222732785309e-02 -2.148396228135211750e-02 4.390482485834424353e-01
4.442861154225733605e-02 5.515924450016587710e-02 4.967440419441069288e-01
4.148465906101291012e-02 4.088661453772114013e-02 4.452070353355971344e-01
4.725381890674087287e-02 4.592326641323550562e-03 5.156852129013901331e-01
-2.639996650412293824e-02 2.197450622349594873e-02 4.238505933804631032e-01
4.840762369341990168e-02 1.361314440122410492e-02 5.063895460834035855e-01
4.737443865239317903e-02 -1.409992114864135580e-02 4.561746779357715997e-01
-2.913516851856915585e-02 1.201704542327197310e-03 4.342956715873764750e-01
5.796949366395396513e-02 -8.554112463465907146e-03 4.867756752518309638e-01
5.137661106775000264e-03 3.510256037862870965e-02 4.077645869731264527e-01
4.133534476925426054e-02 5.140292166836962946e-03 4.452425315127907512e-01
5.624828405046027741e-02 -3.140054391549029940e-03 4.717675814726717820e-01
3.914297706409775729e-02 6.976801099680281226e-02 4.532430799877322780e-01
4.005167286536348917e-03 2.264659313269106952e-02 4.141151374103308469e-01
1.942554726354442721e-02 4.480126855496701505e-02 4.277330548247090802e-01
5.733288619217389442e-02 -8.701439181161174652e-03 4.813161170576297776e-01
-4.458405464625741881e-03 1.693695593581645044e-03 4.296225066560445116e-01
4.589667664628317711e-02 3.210666725595991144e-02 4.488235898077079788e-01
5.680126179265049952e-02 4.210046890650045309e-03 4.873169159986299737e-01
5.328843105744285324e-02 6.863551166967597154e-04 4.617044956628162944e-01
-4.903684234273942427e-03 5.204227128945603659e-02 4.149904675906323503e-01
5.711658297516094412e-02 2.732805423210803164e-02 4.838760378886953206e-01
3.305106842759066889e-03 5.046029377634412422e-02 4.144882002392694664e-01
4.046252369311962443e-02 3.823851456406453242e-02 4.444392263235850682e-01
4.774378994263183545e-02 5.577936772994333131e-02 4.922622784478191127e-01
4.304807332463286840e-02 -1.531566815072909517e-02 4.498216766221951324e-01
5.676827934551878507e-02 -3.464456521672787523e-04 4.948079769823306440e-01
5.490030793011456411e-02 4.852866058397769383e-02 4.679288445369406690e-01
5.662724156147409121e-02 -3.430920796141717286e-03 4.732367831813242276e-01
-1.789240973927433420e-02 1.249251153182826674e-02 4.251481316765519658e-01
-6.723718000907997691e-03 -1.212800402901917981e-03 4.304582086072998859e-01
5.299679768944531855e-02 1.742520015125816404e-02 4.937602820527356440e-01
4.161169503345278631e-02 -1.500846211079643472e-02 4.476445879350101631e-01
4.478267572714545591e-02 3.867714035649099519e-02 5.134549320364598657e-01
4.511534572802215759e-02 1.987386430531951423e-02 4.478416828158634511e-01
2.084889682063189448e-02 1.243401126114122325e-02 4.329462130295954059e-01
4.352694112438608431e-02 4.711978414159617018e-02 4.470033915891288845e-01
4.613386314571919777e-02 4.277877516690499482e-02 5.106874308630737769e-01
5.071994816573804216e-02 -1.667242114343945106e-02 4.646985735684924235e-01
-1.539724609771352982e-02 2.160522243481420926e-02 4.195567808299590640e-01
4.353205482030136214e-02 6.054656616675327396e-03 4.469584109933164018e-01
4.258353238551227521e-02 6.610529049869791340e-02 4.782792901957656495e-01
1.751867696438903776e-02 2.177896274639100002e-02 4.283718660887672058e-01
-1.433812765231366922e-02 4.507846060106119462e-02 4.124527430809604156e-01
5.456517481782553747e-02 1.832797556047371934e-02 4.893834020608753832e-01
2.081562379501690832e-03 2.876296806664308328e-02 4.056407043838706761e-01
1.695025853018247014e-02 5.979050197856786153e-02 4.327319332380706873e-01
4.786979529527281285e-02 1.314788992591828243e-02 5.076832498904283453e-01
-1.932433847796347429e-02 4.386364662661870056e-02 4.140982713153857353e-01
-2.951648413769005636e-02 3.454305450079939860e-02 4.215381647275294741e-01
5.769352394564908337e-02 -6.228160595465049611e-03 4.819507441385906255e-01
-2.928032819960935118e-02 3.487717470888924975e-02 4.212311638780608658e-01
1.828227686438527178e-02 -1.006399555851671297e-02 4.346017642884271170e-01
4.793938684912180115e-02 -1.346082366759985584e-02 4.572745582940814790e-01
4.209755454906426858e-02 1.153816545833362753e-02 4.454471309337224016e-01
-6.346416041526492004e-03 1.497438161727210684e-02 4.205026825507779953e-01
-4.903104881277473015e-05 1.951731289663074728e-02 4.174154457253321238e-01
5.363368955067060462e-02 2.859506273535079510e-02 4.951197705885222455e-01
4.087942009398032490e-03 2.781377866352959319e-02 4.065606283264081577e-01
2.020838668954214740e-02 2.847333115903265266e-02 4.294720050163559621e-01
-9.018032765673460877e-03 3.343569192335064943e-02 4.114787219115441652e-01
2.516075386081848345e-02 1.723055999610801498e-04 4.360862654535342942e-01
2.755251979497819886e-03 6.091562720246058299e-02 4.241977126558232336e-01
-7.622737258135533003e-04 -6.661246516026210701e-04 4.305466956822979196e-01
5.737739237615918642e-02 2.558176401073450346e-02 4.810527945737718136e-01
4.734272038298834029e-02 2.331182567390165453e-03 5.175687089107446903e-01
2.459721758438554798e-02 -3.596419731263514590e-03 4.355620053485602106e-01
4.956820142455766603e-02 1.337487752398625919e-02 4.521493148465001721e-01
5.459590108963058991e-02 6.259827386720185315e-03 4.941025778338979380e-01
5.351768824761145293e-02 2.604376508841186461e-02 4.568233394699650618e-01
5.707118353832946189e-02 1.528121100716769466e-02 4.709369810365904852e-01
-6.590706459318665562e-03 4.979756617781209288e-02 4.128667075794461572e-01
4.034515971317032684e-02 6.461279680257678293e-02 4.493725149128082186e-01
2.682753488879723036e-02 5.943255384341289416e-02 4.376752572042834077e-01
-1.235853309958406983e-02 2.447749638616874418e-02 4.170488700453641728e-01
4.132756212554301173e-02 3.268222003061704156e-02 4.450656471427058003e-01
-1.012692559776888837e-02 2.854628210695815682e-02 4.139952987018171715e-01
3.399475004466792627e-02 3.958625914826234549e-02 4.399142671482376699e-01
5.310902295647759036e-02 4.556729766445881402e-02 4.945950830765936668e-01
2.502503248819739831e-02 1.126978885950761892e-02 4.351908421097627766e-01
5.712879937963549065e-02 2.328110333138753985e-02 4.656526340287058807e-01
4.370227808917217377e-02 3.213281255271824288e-02 4.469129947033414485e-01
5.509292242129249645e-02 7.842046075979371752e-04 4.669716047407771464e-01
6.028088664696782013e-03 -2.255038365980416293e-02 4.381009821532201864e-01
3.715021161429375718e-03 3.965647178355193037e-02 4.090158722166461480e-01
2.457912161695248801e-02 4.154198974680141723e-03 4.357780256617705406e-01
2.379803601359456108e-02 5.736718896908874626e-02 4.334368258535651885e-01
3.907412286626333470e-02 3.219698180276227544e-03 4.437232994685288423e-01
5.475533573154423017e-02 1.144088392637776681e-02 4.614725755096941162e-01
6.920671786945660313e-03 2.736231907492476731e-02 4.115890232775170632e-01
3.806851668778461761e-02 -2.700144626574224604e-02 4.490481991224337111e-01
5.087751908890125047e-02 1.319801948432455449e-02 4.536929147172192311e-01
5.619813721100758858e-02 4.006570600579153346e-02 4.797696847689656430e-01
4.649449358082597544e-02 6.154971044151714976e-02 4.834073000523789188e-01
4.108742278262096821e-03 4.593360367356153634e-03 4.298135068683786031e-01
-1.868868706791224771e-02 3.717407544972314154e-02 4.142662255839286711e-01
4.904869512538055643e-02 6.420970537998424432e-02 4.649744715729677291e-01
2.084284234348974738e-05 -1.066795032338539034e-02 4.324115285136367337e-01
1.464339989150139840e-02 -3.272479272565065149e-03 4.329923642713081611e-01
5.816408850154732718e-02 -7.366209846106297303e-03 4.890877418021445933e-01
5.030421157579928471e-02 -4.917114063471833031e-03 4.577239900349503454e-01
1.637697768436906925e-02 6.049351646694951790e-02 4.361280500798083160e-01
3.765259943084555555e-02 2.667910395293679460e-02 4.420965150233198693e-01
5.818851693910136874e-02 -8.388057370023328796e-03 5.073116924625352686e-01
2.120453284965883797e-03 4.132505781877118117e-02 4.088127617137195524e-01
5.136217443513830389e-02 -7.097946675233102881e-03 4.615613110023285004e-01
5.364949010315235578e-02 6.130202292287640665e-03 4.978428913698130232e-01
4.101465852609398333e-02 1.452480909653712515e-03 4.454078809136257644e-01
3.171079308908289832e-03 3.467791562409690276e-02 4.060020509735517424e-01
3.741807022935111048e-03 1.912506070964939756e-02 4.196772673228417183e-01
5.350404890618878223e-02 4.418712928899422299e-02 4.952022621552165105e-01
1.711762376450589457e-02 -2.344157722409693709e-02 4.375015631578668129e-01
-8.075810250445149968e-03 4.185133805107354998e-02 4.105511252629675534e-01
5.807218656672529650e-02 -6.781628476909313738e-03 4.864867855314596867e-01
5.785885631552340619e-02 -2.567894827171587555e-03 4.801329352154147245e-01
3.709061482949764510e-02 6.699175679286603624e-02 4.497858452244478666e-01
2.007071552049726273e-04 4.851793163089893751e-02 4.119088112903143140e-01
2.154622115052676895e-02 1.276614350333384051e-02 4.331207300615894651e-01
2.567263894479468803e-02 -4.553096242879983886e-03 4.359871197997329806e-01
1.200218942880490990e-02 2.704561875399946400e-02 4.215743274485792558e-01
5.613515741928601366e-02 2.252168173707560714e-02 4.861466916491274382e-01
3.725755832264480982e-02 3.127397135172056697e-02 4.420007640978086960e-01
-2.021469448194963825e-02 6.506351778094122615e-04 4.314445218968194773e-01
5.721147587975138754e-02 8.161662017450711099e-03 4.792382176033612162e-01
5.048884043166144975e-02 2.856729499714609488e-02 5.020457368986755986e-01
5.759762777832387604e-02 2.426696152119600311e-02 4.729837726131943532e-01
3.974200790630745550e-02 -2.821015300967281113e-03 4.445939457107935810e-01
2.544761535243260028e-02 3.272673685534047139e-02 4.336401162189640335e-01
5.585625715553672183e-02 4.523052882913335127e-02 4.718898050024909474e-01
5.657323812779829764e-02 -2.169696833884646214e-04 4.957298452479595996e-01
5.109653662229884236e-02 -5.034445541219024697e-04 5.145453824424651712e-01
4.899209512322853788e-02 5.278377905370123385e-02 4.967685624773083286e-01
4.994483763465523696e-02 -1.605742760646016246e-02 4.626701666546493841e-01
5.447713779672854612e-02 3.690041725413144985e-02 4.591343408796615400e-01
5.131185873181072499e-02 4.619528721244072628e-02 4.993269433040548044e-01
5.326383584487044687e-02 5.253910974275028539e-02 4.602424542688735576e-01
2.682650602066271803e-02 4.738949478998980697e-02 4.338648228146295138e-01
5.296300811269574055e-02 7.857151238541602856e-03 4.977401242956757121e-01
1.244888610274269385e-02 3.693615632754109618e-02 4.202837702498123940e-01
4.547677145712297059e-02 5.937562784379075975e-02 4.888828244650358923e-01
5.731183387163108628e-02 2.719185163995932464e-02 4.818571155683447627e-01
5.310279892419727393e-02 7.768339840976835019e-03 4.973987500705567277e-01
1.230653523794653006e-03 1.518769007650541333e-02 4.217995196563613103e-01
4.849171546575067882e-02 2.572928033133979608e-02 4.511280652140302050e-01
9.217454349710477515e-03 2.144833228907990635e-02 4.218419124851653934e-01
5.248144368738040522e-02 1.076810066699697421e-02 4.561134244863980780e-01
5.233957743022429193e-02 -1.905929622180950207e-03 4.606793959870595367e-01
3.983594498141736912e-02 2.237643697319105854e-02 4.433786755709240857e-01
-2.858799247280664237e-03 1.978223236897972900e-02 4.161889775263603042e-01
2.425243463670358549e-02 5.928648603098878034e-02 4.355039881025736248e-01
1.740442284991828084e-02 3.725495011779873106e-02 4.262264347686408605e-01
2.964735472632416477e-02 1.690564190006323912e-03 4.379434024336311126e-01
2.709441592494502352e-02 4.649157156715124500e-02 4.341325812959564989e-01
-1.766163567959894154e-02 1.702540516895006614e-02 4.228713492667056095e-01
5.647305529450316608e-02 1.738256666679561385e-02 4.828959664542785690e-01
-4.005571320424031190e-02 4.094724271371879502e-04 4.410513121088885380e-01
5.639395098802787304e-02 3.998579651275586955e-02 4.773139695663528026e-01
5.143211943478295106e-02 4.961769519618890872e-02 4.947312220260333127e-01
-1.901684706300676986e-02 1.975370989983638373e-02 4.219243852623127400e-01
2.859396216599947860e-02 5.693107361270114547e-02 4.370766348817251568e-01
-2.571420097530251886e-02 4.441539503254979954e-02 4.191727989807214616e-01
5.386199196685829971e-02 5.201621498240584923e-02 4.763212258858387504e-01
-5.668504506474116543e-03 1.760992839649904926e-02 4.182310488268103921e-01
3.234731759849926447e-02 3.023241498755057169e-02 4.386762450447995731e-01
2.778811212548753379e-02 -9.070006266240578444e-03 4.370500723372294782e-01
4.891963709412253808e-02 6.437459435109235684e-02 4.648414593089299496e-01
2.586544363453783732e-02 4.713540136593609431e-02 4.330547097777334709e-01
3.002066497113822785e-02 6.334768145991169497e-02 4.421733646275056162e-01
5.495392691416187830e-02 2.012359556012298031e-02 4.884191337518412057e-01
3.803931643259511608e-02 -5.519844030026506768e-03 4.433740938586094860e-01
-1.518028548794894770e-03 4.682787415255570962e-02 4.109931220080595415e-01
5.848949045054165075e-02 -9.356250844059887939e-03 5.081158436574271242e-01
2.906627033883444483e-02 8.190662129408084538e-03 4.372216349508710742e-01
5.487232228329529116e-02 3.925886174750094215e-02 4.605677540306015727e-01
5.375742903867930522e-02 2.895180191159038227e-02 4.949315415733863688e-01
-2.759910883766901121e-02 6.798198698862331808e-03 4.325720425436768712e-01
5.573095396074703722e-02 -2.914408982418366552e-03 4.699178410401025352e-01
5.333226255816269495e-02 5.329574883966532728e-02 4.616102470265797675e-01
5.747586249464885222e-02 -7.893998156228721960e-03 5.114489093145172527e-01
5.618584881743883541e-02 4.302207155401153310e-02 4.690285464715189812e-01
-3.458959282129601270e-02 2.779588523163511148e-03 4.366808213147060913e-01
1.599287060053616871e-02 5.809966634115619477e-02 4.290277372154797098e-01
3.556093923582392263e-02 1.013350517211980550e-02 4.404261635564046262e-01
2.207624642788724029e-02 1.490077661126779432e-02 4.329969899182871673e-01
3.035345987549407237e-02 2.698735570663809459e-03 4.382353257549033154e-01
-3.392272016463591250e-02 2.701207670037383130e-02 4.281287668654127909e-01
4.806026280752428298e-02 4.526551975861188570e-02 4.515447408967807053e-01
-2.060016257588013350e-02 2.175816898692565712e-02 4.214647647315292178e-01
5.367912987396228353e-02 2.113452542175964927e-02 4.920385499330299228e-01
4.659550693840806834e-02 6.621520301572129952e-02 4.724635238947322846e-01
5.153916255564360005e-02 4.587784346264332097e-02 4.990475422335938771e-01
-1.511321615718808249e-02 4.198656370097676727e-02 4.123550863906443875e-01
4.415593832182795886e-02 5.340670803473408779e-02 5.011675917567667282e-01
4.020742106315041559e-02 6.795309900092807998e-02 4.706590207104605073e-01
2.677054344766642904e-02 3.535752148810421269e-02 4.344639369170980592e-01
5.766624668011842425e-02 -8.500000641669693685e-03 5.116122141329584316e-01
5.089671462755156889e-02 3.903212121698579340e-02 5.030906792395843929e-01
5.082140323807304155e-02 5.683736986366974553e-02 4.806474325422519511e-01
-1.515049804000956520e-02 5.950621328084992022e-03 4.275208025542960311e-01
5.567438561003496683e-02 -1.165535242295729496e-02 4.751007406479778594e-01
1.939389737435039118e-02 -1.173669431317628763e-02 4.351726645993358455e-01
3.981241572219469671e-02 7.192505838559438980e-02 4.567046288783511709e-01
5.411768367987149220e-02 1.487085752416333201e-02 4.586588235585273288e-01
3.408121911714070973e-02 6.776920039115497119e-02 4.506407736264641528e-01
3.524174820566083888e-02 -2.516134697385231586e-02 4.457012179603984103e-01
-2.829881703503055092e-03 4.977868089089448195e-02 4.117521555990647508e-01
5.165592503002179592e-02 3.492968133300206751e-02 4.550779769706847500e-01
-3.306989495415554869e-02 -4.318510682342039005e-04 4.372074204376445450e-01
-9.656963809257124165e-03 2.441265943003083014e-02 4.157605311581513696e-01
5.453868831835734926e-02 4.381878057122367415e-02 4.903338165559423811e-01
4.198003544899461988e-03 5.045766610422194182e-02 4.150027511249671508e-01
5.694323143342886612e-02 4.703366081089994585e-03 4.734835562014699240e-01
3.572608325787032801e-02 1.473708457990290793e-02 4.406491232369143529e-01
1.010965503728784159e-02 4.242556189930541538e-02 4.168968442108531569e-01
4.911799634865234715e-02 2.672500018072409070e-02 4.517336671811230664e-01
5.266017013648718187e-02 2.287257893517299218e-02 4.553060279886116946e-01
4.223228575019630920e-02 2.928071505767350716e-02 4.456279806355369910e-01
5.431090556083768145e-02 4.460530445485703932e-02 4.904242718966136394e-01
3.259560416683700279e-02 1.724160170683545351e-02 4.388595660651810060e-01
2.090520031673525139e-02 2.365837659249766731e-02 4.306465167307237385e-01
1.583826689157426595e-02 -1.805082171828185228e-02 4.364484369543189524e-01
-2.797025033834567298e-02 3.599682297918570945e-02 4.199744326834377040e-01
5.264638343286172362e-02 2.130085411839494069e-02 4.946299194909805630e-01
-1.399287298307141589e-02 3.157729665440923289e-02 4.140525713603206426e-01
3.074234019944130369e-02 2.370042836777769280e-02 4.375913032174319484e-01
4.931981905046585457e-02 5.038413138338412173e-02 4.530645111734529773e-01
2.531436124244739599e-02 -1.036863176217447946e-02 4.364748111582399392e-01
4.444982748041269305e-02 5.386445400164482922e-02 4.487126611755571370e-01
2.525773823096789591e-02 4.047316648631817115e-02 4.329251598205722806e-01
5.716001592013202071e-02 3.017550587441746729e-02 4.824858961629824861e-01
2.845687968177685462e-02 1.217895998769222450e-02 4.367205794595272472e-01
4.661977479705509825e-02 -9.154792434538556317e-03 4.536424559002997792e-01
5.085673240150959118e-02 4.413743840035616595e-02 4.545411604477891387e-01
2.990685320040556774e-02 2.300258464490326227e-02 4.370261538581805549e-01
1.813477266801316254e-02 2.744698643336495464e-02 4.278599744429716911e-01
4.239071443179902310e-02 4.895741226020004777e-02 4.461418447572983448e-01
5.347333144118155551e-02 5.103123251484154022e-02 4.838129813079588004e-01
-7.761054913239766664e-03 -1.149493349031133725e-02 4.337522157858846317e-01
-1.171068934941829967e-02 3.737223769455327860e-02 4.113441111689467022e-01
5.654087700305678726e-02 4.645730965797691646e-03 4.884294804206594232e-01
5.781050164228292154e-02 -8.581348490180275203e-04 4.822505487798823265e-01
-2.819089873618036736e-03 1.594727035494380302e-02 4.205670029756323758e-01
5.199660912734841572e-02 2.206794871789546572e-02 4.546269897055025822e-01
1.882856906701860927e-02 -1.300066318247530134e-02 4.352928675249410628e-01
1.886638372441476821e-02 -1.601531416675582020e-02 4.360793640345827504e-01
1.151099843960292843e-02 -6.992357449105448403e-03 4.326998386316708856e-01
6.291944961300278798e-03 -9.595839768159213426e-03 4.327569069566235549e-01
4.593307237765784784e-02 -8.767411058681983229e-04 4.501911853356443394e-01
-8.472737846587693328e-03 2.427197512729709419e-02 4.150257397752609156e-01
5.068114411761297233e-02 1.946393045116464812e-02 4.994529640761122269e-01
-8.365513402987089647e-03 1.520086276389424895e-02 4.212061793346318361e-01
3.376675629822769448e-02 3.740205096631971093e-02 4.398282556423418477e-01
2.225335518328293641e-02 6.193025745960530071e-02 4.405393187740167527e-01
2.047578071184220569e-02 5.214081959111419723e-02 4.293455042086929407e-01
-3.246188008385776994e-03 3.592285756174124628e-02 4.070160144822346782e-01
3.006130603341574531e-02 4.059448776294590638e-02 4.368771607351021879e-01
2.691006265390146271e-02 -2.488816046378613395e-02 4.396956188223321571e-01
5.744206457551398470e-02 3.106071703083620669e-02 4.791786211921348904e-01
-2.073561160038047205e-02 5.045889824452651912e-02 4.225630469297787517e-01
5.730138334873133982e-02 1.990444212971047289e-02 4.714686394368682865e-01
4.353170682894548504e-02 5.306286022168116984e-02 5.025679584024387303e-01
4.235925481502939710e-02 6.477970951367054142e-02 4.510548675893332193e-01
3.778554805657820953e-02 -1.164633710739405338e-02 4.437036642385380758e-01
4.527854511323171210e-02 1.879499561175749719e-02 4.479662875710938574e-01
5.053207164821876124e-02 1.240232264571080115e-02 4.532757151283745567e-01
3.459276209077774555e-02 -2.448147405696026596e-02 4.448185486299066072e-01
1.853542083993503856e-02 5.679800601922774250e-02 4.297609022244037735e-01
1.723259772311191984e-02 5.349028781438272540e-02 4.270062447248244575e-01
-4.829476628916140601e-04 3.114046869363087250e-02 4.056732488509577350e-01
2.309918998629460068e-02 -1.016394819903158886e-02 4.357992996243439388e-01
-2.238241765726814783e-02 2.718057368656646294e-02 4.198766415179961409e-01
4.621900567606343491e-02 5.457469604281269676e-02 4.969503116810534693e-01
5.520383513527401392e-02 3.146115850879938752e-02 4.605424927611052599e-01
2.899397832147804915e-02 6.035602526051981470e-02 4.397855108888231723e-01
4.861296346264271095e-02 1.644288793918642633e-02 5.045269530176254014e-01
5.544609396296626413e-02 -1.382758225825420420e-02 4.752885988981951915e-01
-9.035936457261018601e-03 -1.112615157989906185e-02 4.339484473284091481e-01
2.892967021229788174e-02 6.451012785107229641e-02 4.436375056969073527e-01
4.681782366726505024e-02 -2.020837917676662071e-02 4.578227480628036528e-01
1.523206579101673772e-02 4.461768812770014470e-02 4.236384328515144793e-01
5.648836632357306237e-02 2.936552173169990065e-02 4.860196865786308718e-01
1.950615723276504388e-03 3.934021363253507875e-02 4.073925091211230143e-01
2.148212395750498729e-02 4.999118860821209070e-02 4.299278279885583309e-01
-2.261366828495309147e-03 5.437425423235130867e-02 4.170701552734487061e-01
2.533227154439136701e-03 -3.303499305463071609e-03 4.310903865482893504e-01
3.343326388464917115e-02 -1.707476284323767093e-02 4.414123098718329974e-01
4.608244369729062873e-02 3.975071599604283051e-02 5.113479368904433331e-01
4.903389844967088324e-02 6.438604506137270145e-02 4.708895315585566732e-01
-4.060324144319700859e-03 -7.323255069704865013e-03 4.317963590174843658e-01
-3.474771966126161821e-02 9.743407709016622259e-03 4.379188526340940246e-01
5.731724496299333421e-02 3.555618581061346234e-02 4.724239266557610506e-01
5.713183562559660811e-02 2.435444404544776995e-02 4.817152925795987195e-01
2.075365249545063628e-02 6.314387381060272697e-02 4.434819386201409031e-01
5.622505562064968043e-02 3.752634316837984846e-02 4.855809847182077088e-01
6.541812920386622966e-03 -4.293966871297010858e-03 4.316956830940221757e-01
3.435145099202061708e-02 1.975783439400142713e-02 4.397899670457336985e-01
3.445209791260121085e-04 2.502117480367678504e-02 4.097647929226426178e-01
4.911145528402749427e-02 5.710622252910345364e-02 4.545725619462627209e-01
3.295188767945406161e-02 -7.017071159667234888e-03 4.397008626612527449e-01
5.727796916025912344e-02 3.530848608943928935e-02 4.751456202570922271e-01
5.257509940078235883e-02 1.818235114110002687e-02 4.555104371180199729e-01
4.820948679480954735e-02 2.007490465715022418e-02 4.507701716682403492e-01
1.175661113139973499e-02 5.986300084696358215e-02 4.275091062378418849e-01
2.943990497689384644e-02 -1.042234626002113557e-02 4.378061637752757029e-01
2.234236273006788911e-02 -1.080272387707914561e-03 4.349287857764229104e-01
5.622751907290266665e-02 7.444104985321008811e-03 4.681746530257606675e-01
-7.639882016966439288e-03 2.398863070599340647e-02 4.146580841332805356e-01
3.785602667220019923e-02 5.204624513407561659e-02 4.428176511252592262e-01
5.227096842870469079e-02 2.002166275376141349e-02 4.956150996885792526e-01
4.798372438307976773e-02 6.596500242694591787e-02 4.672714198027950738e-01
5.209937669696585588e-02 1.203785110445363196e-02 4.551216626472955884e-01
5.105651658425239270e-02 4.029771691465486999e-02 4.546824932073934011e-01
-8.650867431693305687e-03 -8.459555469573332154e-03 4.327538598705319428e-01
4.896775520594850301e-02 2.115126810037093116e-02 4.515159922674782389e-01
3.655258795321269377e-02 -2.513815880837367081e-02 4.468180299407515932e-01
-1.060277349909924047e-02 3.460643680250203441e-02 4.118018073420017799e-01
5.695402688135951103e-02 5.515605126384943990e-03 4.743462803683379803e-01
-3.896233201214320541e-02 3.827985639134452289e-03 4.437533706875788075e-01
3.128717267623665199e-02 6.560707772804590110e-03 4.383842297152719114e-01
2.786592274046177653e-02 4.300065945206412582e-02 4.349250500571957834e-01
4.262857934151888933e-02 -1.281604405218553927e-02 4.487197605875665740e-01
9.722766117981536740e-03 2.554296231085878208e-02 4.196265052132951978e-01
5.663770402602976567e-02 5.440921838415722737e-03 4.714817453961133720e-01
-6.701533143302487033e-03 1.566764031207965036e-02 4.201359236612804970e-01
5.016604629120107600e-02 6.872803563628637064e-03 4.528698421170541111e-01
3.194859043811545951e-02 6.720886577538701112e-02 4.516440534369857152e-01
4.707500083327037510e-02 4.574084435403964755e-02 4.504986644376297034e-01
5.026725564229286153e-02 4.390065592046207138e-02 5.037059837118856853e-01
5.260893387182490055e-02 5.571524704200389588e-02 4.734103598036493166e-01
5.105301925024662707e-02 -1.475387756023557179e-02 4.646310154992259744e-01
5.397267185016451502e-02 1.407680884267683598e-02 4.910065437264829469e-01
-1.455611940002671072e-02 1.041392562470208269e-02 4.252061656223450892e-01
1.196471524738182760e-03 6.362373496168872641e-03 4.279122708238876083e-01
-1.024672334203673846e-02 2.282636736140672765e-02 4.170692600750701695e-01
5.469449484197170391e-02 1.224542119857151105e-02 4.610446096098119173e-01
5.746001904369279351e-02 3.339287726429011199e-02 4.696668834574325713e-01
5.571166345351575427e-02 5.415594673835101569e-03 4.907599248317396912e-01
5.662133946546482610e-02 -5.190997526470474133e-03 4.745833135369901257e-01
4.389925549906840974e-02 -1.134438426070327049e-02 4.501359800320568483e-01
1.815789299896934487e-03 2.196428797041297815e-02 4.145156959500127525e-01
-1.071157635950947644e-02 -1.408116695310128539e-03 4.306804098651303980e-01
5.588841535668796767e-02 1.971675847964120265e-02 4.858474209598460103e-01
5.514008012893246297e-02 3.849168262530889856e-03 4.957650107270882289e-01
3.098596025455501238e-02 -2.022830847395743967e-02 4.406973209036893491e-01
3.208358353649738703e-02 1.265684400554055108e-02 4.382894182514616710e-01
8.881121556969472780e-03 -1.225966244485715215e-02 4.340895021983627866e-01
-1.089498849972772663e-03 -9.892397096660997605e-03 4.322901230486092539e-01
3.179985314203086916e-02 8.213783013784038689e-03 4.383701109022718478e-01
-6.836210385923020653e-03 2.541399612561067584e-02 4.135164136925328915e-01
4.719553471755025265e-02 5.201451852049321367e-02 5.003547918909890813e-01
5.044431410686124606e-02 2.180674177846691000e-02 5.003106400381902574e-01
-2.469454921243646305e-03 4.592073243741342375e-02 4.107095047764743878e-01
6.718786356941347168e-03 -9.330873069510218706e-03 4.327547063598350396e-01
4.585200440831194851e-02 -6.641905847054921028e-03 4.517319163264141846e-01
3.510265100598960325e-02 4.799761678154274014e-02 4.406175485727690244e-01
5.434089740778177968e-02 5.130979775687058431e-02 4.691023167695562157e-01
4.691710073362714145e-02 3.453657882855130923e-02 4.498065163555185486e-01
5.765318773221322218e-02 2.431683884478734112e-02 4.743588798138179685e-01
4.304284275873822979e-02 6.817935413178652371e-02 4.572191199602420597e-01
5.147125422985369958e-02 -1.763622216431317419e-02 4.667740497428818913e-01
4.744117236332411752e-02 1.896173704600834578e-02 5.079190096910852770e-01
5.410713378847023525e-02 4.313228964392507025e-02 4.937801803504601184e-01
-2.696366790104041261e-02 -1.866045883996463907e-03 4.348681473916042317e-01
2.174461513669982693e-02 5.746663786385716038e-04 4.348876494212982613e-01
1.659721065495330106e-02 1.605413698967328440e-03 4.332839102818563104e-01
-1.042418654101637254e-02 4.528214768906121263e-02 4.114776482997331564e-01
5.547370366083061166e-02 1.000507093998453598e-02 4.640852615364304268e-01
4.674092980889870547e-02 5.110904619954993733e-02 5.040659138648542203e-01
4.385677587406768690e-02 3.546812223164799022e-02 4.471879280895282860e-01
-2.014051358141431131e-02 5.023281874351533116e-02 4.216817777066027562e-01
3.948267745400034501e-02 3.238770525625336849e-02 4.436326705502459111e-01
-3.315892566284594362e-02 1.077138607257601202e-02 4.354924696843624488e-01
5.540733749099730626e-02 -4.412969105435149419e-03 4.693201144808551439e-01
4.026897697786827046e-02 -1.937932511885779446e-02 4.474996232605870095e-01
5.707695797308155738e-02 2.854107317688995074e-02 4.838981416011629011e-01
1.343118565267295908e-02 5.086659793680235568e-03 4.322221403821060459e-01
2.392062161881571003e-02 3.235090045798307001e-02 4.323081229451783969e-01
1.185259296577999451e-02 -3.908153802403878732e-03 4.323955000704696183e-01
2.839338338708355045e-02 -7.326917981330668267e-03 4.370899852468132507e-01
-1.616922133000433040e-02 2.852683298816702587e-02 4.164628766435400919e-01
6.206471572915444983e-03 5.254946484916610261e-02 4.171716185078288563e-01
-2.164477122782935015e-03 4.792842795408572276e-02 4.112171378257850618e-01
2.123012853993049703e-02 5.002635152906689114e-02 4.297539787287287250e-01
4.576933817697576706e-02 4.766733952288781245e-02 4.491472867009100312e-01
-1.039479799797691367e-02 -1.012208725924575517e-02 4.339406402988277844e-01
3.315598460359002464e-02 6.242597163646392000e-02 4.433963808032533871e-01
2.938740369265287200e-02 8.725156665546773480e-03 4.373205918583067398e-01
5.343687912817888380e-02 2.952953504891242878e-02 4.571409418252678214e-01
3.113230531173091092e-02 4.102838932647662890e-02 4.377328435460789424e-01
5.691001753166573252e-02 3.762563260909081164e-02 4.752830326193671628e-01
2.187696704866500669e-02 6.096170700704377915e-03 4.349422296170680768e-01
5.761534182637305379e-02 2.613749987535828739e-02 4.789943445358195717e-01
3.237716213668943854e-02 -1.405502449642156721e-03 4.392812667299444418e-01
-7.728146050778886278e-03 3.987792316821722055e-02 4.096942375822731353e-01
5.647947148755902425e-02 8.103947082904090077e-03 4.847094101088474383e-01
9.148275662432311245e-03 4.830409753579668203e-02 4.176346277531463591e-01
3.548371396646665676e-02 6.794523209726381630e-02 4.505324018260259411e-01
4.914460035589692660e-02 5.298211771203513443e-02 4.959609479557282596e-01
4.604249592383136136e-02 5.760328046891678017e-02 4.910133616143392277e-01
1.403004849238142712e-03 2.602328389657109203e-03 4.301201650555241396e-01
4.138852720766170862e-02 -1.672804196746291092e-02 4.478696013834141398e-01
4.454326530009985324e-02 5.649505649901402637e-02 4.938471725556252689e-01
-2.462664933901138539e-02 4.590089401849056783e-02 4.187953171639262062e-01
3.329090870884131304e-02 6.702483758648497547e-02 4.496103151557144795e-01
4.904565660336120819e-02 5.529388628834056019e-02 4.905366744584950811e-01
3.695587447837208467e-02 5.850316497964223872e-02 4.437818682733566389e-01
2.547544281340854283e-02 3.564056628435986057e-02 4.333430978150219492e-01
5.717908199268244979e-02 2.040787288804674082e-02 4.684210682549331817e-01
3.401082010199628358e-02 3.631863680374983888e-02 4.400185737490471261e-01
-2.677081191109228347e-02 9.375007117280649907e-03 4.313727337835251974e-01
5.307563356121768050e-02 4.553496955198181595e-03 4.595983481819038707e-01
5.805790541859483234e-02 -4.576221858074458818e-03 4.845849773796413462e-01
5.360595829018904857e-02 4.128640511081425185e-02 4.964499266549053935e-01
5.443665445429429067e-02 4.149788493227472147e-02 4.932812669210663303e-01
4.158480505007201844e-02 2.300769182452268302e-02 4.447296533294805010e-01
3.997587309893377988e-02 2.623252684116245820e-02 4.436274410349573816e-01
-3.882600412800137762e-03 2.033581115165169345e-02 4.152057061976412444e-01
5.511882144643502623e-02 8.743511220535254806e-04 5.011861986709476025e-01
4.351823599292842931e-02 5.061281366590818231e-02 5.095321880484540156e-01
4.682700470592288805e-02 2.072447018538561489e-02 4.494819673300629592e-01
-3.291334540745465692e-02 1.368300961174004869e-02 4.338638230057236811e-01
5.670415368132683542e-02 2.175761912847706120e-02 4.823878253461002519e-01
4.182496235887010749e-02 7.001760908096091307e-02 4.590972212765294103e-01
4.480850351226383504e-02 2.666464373684734185e-02 5.132694274417427538e-01
8.357686525680809234e-03 -1.475044772670102214e-02 4.355539978328619721e-01
-2.805761369575571901e-02 3.657635001517375167e-02 4.198453588023963179e-01
5.022151814060486774e-02 4.438011856978190534e-02 5.036861620919222959e-01
2.511915174733445749e-02 -1.589889621221204571e-02 4.375038411158778673e-01
5.046258504970595193e-02 3.412865984851305018e-02 5.034439244963559990e-01
4.933423979874189749e-04 -9.683991828569524923e-03 4.321304006335205949e-01
-1.228428292191902430e-02 1.992274376982361428e-02 4.193570724541313965e-01
5.520081096041792174e-02 1.255523797616426435e-02 4.622751367616914075e-01
1.655825822921964605e-02 -2.466163256139686667e-03 4.333652145104532893e-01
1.853220294000841248e-02 2.682626347617658030e-02 4.283121941572672342e-01
5.507365362400503533e-02 -3.016628942096424891e-04 5.046254350072568728e-01
1.895678448223023227e-02 6.037924751547054519e-02 4.365028769828419031e-01
5.001449849488044663e-02 4.953169291083878156e-02 4.990038166482922422e-01
2.019267502146335561e-02 2.601268817009848647e-02 4.297170664020971143e-01
2.591382174269185601e-02 1.398911367661554578e-02 4.352962039171690556e-01
5.741434228842762222e-02 -2.378460714316214895e-03 4.773792105184745393e-01
-2.629720309745634671e-02 9.392123579678907791e-03 4.310297058359996991e-01
5.756750942436851537e-02 -9.326681942702436806e-03 4.830827738348334455e-01
5.705410632050247205e-02 4.218881524740800029e-04 4.909421070189812775e-01
4.651933262640852579e-02 1.663952666495081487e-02 4.490949598467905424e-01
1.327133849074016436e-02 3.898795324350742136e-02 4.217314569828332638e-01
3.954584714890677782e-02 -1.843363350694572633e-02 4.465975841067203467e-01
4.679217137015476147e-02 3.996219364848861699e-03 5.169201358443606953e-01
1.139500140883073498e-02 4.934378808376675696e-02 4.204038726047279462e-01
3.195560511942708432e-02 -1.314828496173222477e-02 4.396314342753698257e-01
1.073343487749759892e-02 3.794721586573177041e-02 4.177477589909296407e-01
3.904472653171050384e-02 3.738408110819638197e-02 4.433763259361686027e-01
-1.828294191860271173e-02 1.255551462753847630e-02 4.252586494968660924e-01
3.602491606780831856e-02 -1.665864638449101459e-02 4.432869388163847013e-01
5.184873549136634341e-02 5.850567624781545517e-02 4.692233329801077657e-01
5.011395347244729931e-02 7.467647508797496322e-03 5.067889812841467334e-01
4.401764002840597573e-02 6.396344814163729131e-02 4.813616785643264895e-01
5.380069065614190293e-02 1.130462023641099975e-02 4.590351111180477339e-01
2.429770544253388818e-03 2.421464956249091971e-02 4.114402951912779494e-01
5.703406313686231605e-02 1.496094767015107921e-02 4.795519434514911583e-01
3.144338834681233152e-02 -1.766845562940290090e-02 4.403246054364762796e-01
5.222731261225121990e-02 4.115352918653968767e-02 4.998193200414011717e-01
3.220647269579524075e-02 -1.815560658394862678e-02 4.407624357302215579e-01
4.894304420153751563e-03 2.112949722259300014e-02 4.174504840286719087e-01
-1.458215532059655394e-02 3.392650834882091071e-02 4.135191082408292695e-01
5.625970425784224127e-02 8.039345450998033882e-03 4.679259373837390545e-01
1.352235979755181741e-02 3.401313478928302131e-02 4.220301393575003335e-01
3.210121256763125326e-04 4.595323870022824386e-02 4.110050025814566688e-01
4.189343077492879708e-02 6.762141821720264734e-02 4.723191121445755591e-01
6.744962914447069462e-03 5.157260046685465532e-02 4.170062338669827673e-01
4.978205260594594644e-02 2.363204308729328906e-02 5.023683568538225286e-01
-4.084972375024713970e-02 2.668585478085997234e-03 4.469833947343160307e-01
2.806390759197568974e-02 5.654118467297297723e-02 4.362375651932876020e-01
2.886573712401395778e-02 3.212781479289805731e-02 4.363047070583678244e-01
5.062592159701102129e-02 -2.651414923380474888e-03 4.572126431806620706e-01
3.952465427661439740e-02 1.949760736621405227e-02 4.432143150538700449e-01
-3.876737184366472501e-03 2.553161875167848927e-02 4.114302469103365834e-01
2.720067600748533876e-02 5.756087117077537257e-02 4.363609450683000879e-01
5.745664579438198444e-02 -1.572650493440907321e-02 4.817938574913606109e-01
2.762012106353507052e-02 5.636311596699372650e-02 4.356686459207287365e-01
5.174647940122177603e-02 1.380257809745575465e-04 4.581629780591865431e-01
2.689922539906602558e-02 -9.393053649940374256e-03 4.368224113116782603e-01
5.492225193159468860e-02 1.223108504655122560e-02 4.616492846713463605e-01
3.489204673347151564e-02 3.410080384624253336e-02 4.405555815124237440e-01
-1.185234546151943749e-02 2.035000595003310514e-02 4.188494859358280475e-01
3.779626936875927351e-02 -2.621149789788753889e-02 4.484258051751511820e-01
4.578013237117466855e-02 1.753314083300454296e-02 4.484055464525121271e-01
5.705116298803040997e-02 1.281226368048448555e-02 4.721728930708246064e-01
1.119261471902186639e-02 3.874438455311164653e-02 4.183522096197656581e-01
