5.174676596305395615e-02 4.416885533728814872e-02 5.002409255442115121e-01
2.063486366204266703e-02 3.798801139935336496e-02 4.307515354696546672e-01
-3.791462124242992414e-03 2.813987418237869076e-02 4.099330241837979560e-01
2.145305169432504613e-04 2.098977801430756615e-02 4.166607112909433419e-01
5.526558208357258695e-02 4.169363325817689037e-02 4.862814953156556763e-01
-1.871231073217442809e-02 4.825964416648006322e-02 4.189979657274740532e-01
5.651940682307265290e-02 -5.965690286766143872e-04 4.963285522599111266e-01
4.991448408394203590e-02 6.147002047038220562e-02 4.641110713741662397e-01
3.989535302319763624e-03 -8.639332764651619367e-03 4.324352376962599109e-01
4.741684451950330115e-02 -9.031412600914674738e-03 4.549477157684294060e-01
5.018291104963048047e-03 5.627831616320497915e-02 4.212845222763297870e-01
-1.650182058134913154e-03 -9.209689085173706699e-03 4.322932356095429696e-01
-1.354392396681293118e-04 6.268659062605797493e-03 4.282135360251969058e-01
5.555746835794556776e-02 4.292491577900892780e-02 4.775199365843454391e-01
-4.004737220390216026e-03 -1.082824812380876918e-02 4.331141742095727665e-01
3.900347087514396266e-02 4.508851020839613200e-02 4.444090766731098041e-01
4.067101295424779828e-02 4.717603076538632451e-02 4.456815174381232314e-01
-5.272101908949036221e-03 1.639718495884698833e-03 4.300564820784829601e-01
2.067795606343251699e-02 5.689553621063481170e-02 4.325373469548083327e-01
4.642035166881206681e-02 3.491477383797573358e-02 5.110104237147098383e-01
5.016650300363666160e-02 3.818422239984790162e-02 4.544489627181321212e-01
-2.458343911485970021e-02 1.221005412096249146e-02 4.287473983128402000e-01
5.270473667344345581e-02 -7.837930042342801037e-03 4.654727555904853986e-01
2.036916954529880211e-03 4.227483644786821093e-02 4.114806916163364914e-01
-3.246388478169213304e-02 2.980485623268314122e-02 4.259072031032826722e-01
5.378902667490080558e-02 5.054132344335957733e-02 4.799468139680554968e-01
1.326262528153187431e-02 8.108045390198397387e-03 4.320090636497624925e-01
4.131900974022686968e-02 4.687888259614728451e-03 4.457647710754996107e-01
3.642357770768110681e-02 4.073498002749496860e-02 4.425386837581962718e-01
3.234360737442350947e-02 3.011482144891793750e-02 4.395837769058262845e-01
5.181463769972153438e-02 2.179318414283066066e-02 4.965245969145786753e-01
3.975969703216487156e-02 6.815061713604431137e-02 4.676962005922504217e-01
-1.357184267592715168e-02 8.766715419402619849e-03 4.263390301162405804e-01
2.834956565131166104e-02 2.724417957110597879e-02 4.369284672294364569e-01
2.203325829203795633e-02 -3.614044146482544694e-03 4.350996395049900878e-01
5.547791042251045551e-02 1.242372648288087890e-02 4.861022102637872488e-01
1.175666505557699561e-03 2.777275822204933534e-04 4.309384476136519648e-01
2.403130655188929349e-02 5.720188882541862169e-02 4.349630630747312598e-01
2.858916955248100300e-02 -7.963097463259242309e-03 4.374231657911933913e-01
3.224718083166044913e-02 4.737755497652708370e-02 4.396879681855354050e-01
-2.199231380898278645e-02 2.702848508782900935e-02 4.203450302165048780e-01
-1.098617358241585351e-02 3.790365913875203691e-02 4.116834463684777012e-01
1.618696168684076453e-02 5.882676600584513249e-02 4.315090988837093633e-01
-2.662062808770756725e-03 2.700704066664599487e-02 4.095661646381897336e-01
2.809098202581702258e-02 2.519259017508880538e-02 4.367263242275178370e-01
2.538322018552629372e-02 1.760001356436868836e-02 4.353797066608764976e-01
4.015062004640783389e-02 -8.783814519496571660e-03 4.458758821106904024e-01
1.669237331670138033e-02 -6.427623981561179055e-03 4.338491679295104486e-01
2.596168879720790745e-02 2.268131753628543565e-02 4.354652205622088768e-01
6.823581844223419041e-03 4.707980822118986580e-02 4.171738208762637568e-01
5.186114270592449838e-02 5.530568634662949568e-02 4.778838592169495358e-01
-9.798826707102239672e-04 2.305989981694931898e-02 4.136648439032201141e-01
1.705344393336229517e-02 5.999185563449027647e-02 4.363635993210576713e-01
2.746871198785128670e-02 1.345026034583303443e-02 4.367940029450190775e-01
5.398812820378043331e-02 4.240647747631014208e-02 4.941262020981205816e-01
4.571206708987371817e-03 8.050195490187423211e-03 4.288420520595656593e-01
3.185302125628689668e-02 -2.342231136487746626e-02 4.422605105365564615e-01
-3.350304472671025019e-02 2.790230114633359196e-02 4.272722001993557450e-01
5.679805834664772984e-02 1.418079449726757091e-02 4.795878869878598683e-01
2.904509685500379981e-03 1.496697469245134027e-02 4.238783016043843888e-01
3.827818698074211129e-02 -7.266455089249345550e-03 4.439710799044413458e-01
-5.420423493320294939e-03 4.978283033431134957e-02 4.141542095270624446e-01
1.132082211835048601e-03 2.754857963244793789e-02 4.081582221088961848e-01
-1.804686257328387555e-02 1.461071454330468110e-02 4.248085152785403551e-01
4.629230609065496105e-02 1.186939792095120447e-02 4.492913683395504121e-01
5.310069244216248513e-02 -1.488855556409290036e-03 4.630313364981622493e-01
-8.241521197412260066e-03 5.351611936278663148e-03 4.275934386434968038e-01
2.248891346078531195e-02 4.537830532533788930e-02 4.317760837374861049e-01
2.133810279046650590e-02 5.794319413081747833e-02 4.338973221482533282e-01
5.011309453642358303e-02 9.527555524789919905e-03 5.041762537855569715e-01
4.520319328764417499e-02 -1.495346684055092260e-02 4.533144924893304784e-01
3.454527696119628899e-02 5.777792858938998050e-02 4.429163702652865742e-01
-3.515695450076174872e-02 2.520074712591907629e-02 4.304439862426879815e-01
4.339620753775432632e-02 -1.845191075656498966e-02 4.514988215457857446e-01
8.352939713586087986e-03 5.192399576171546904e-02 4.204225071129958358e-01
-4.151699397568330702e-03 3.638226084841816171e-02 4.083769828836160687e-01
1.856031591917320714e-02 -2.239630868242109552e-02 4.373172200093713990e-01
-7.044424320617484470e-03 -8.003092744532508407e-03 4.325635741406290702e-01
4.568224116190785361e-02 3.941355603606684632e-02 5.121061980058552177e-01
2.509136869051473845e-02 4.658667027158173296e-03 4.363481429152090696e-01
4.570166641726269158e-02 3.651139481217901411e-02 4.496816008998889558e-01
-2.680146989635228197e-02 6.674942088622302754e-03 4.323986009112346096e-01
4.790178346148440958e-02 -1.716949363614518609e-02 4.588319706645189733e-01
4.644525520219554976e-02 6.307479122809098171e-02 4.561802124739726683e-01
5.634307089068301549e-02 3.862264935713563552e-02 4.761790572966608237e-01
2.213792681459592418e-02 1.311015122888170917e-02 4.340637195491092726e-01
4.809995736108883813e-02 6.092178522057483531e-02 4.804015519474882367e-01
5.793233683486292973e-02 -3.240656710178238011e-03 4.829101513466647622e-01
4.583800076897787817e-02 3.448542856136799922e-02 4.496866477361227132e-01
4.828847433333900707e-02 1.305653186680533553e-02 5.070110089317241275e-01
4.459258052627690372e-02 6.668667800231080356e-02 4.757786397453261373e-01
1.620164975413439234e-02 4.106136839111807629e-02 4.264819921202789299e-01
5.006791188236453527e-02 6.162011079734486946e-02 4.690426509768649277e-01
5.724820379161412592e-02 2.234635036234351030e-02 4.751797651872283201e-01
5.111017254624873607e-02 5.369559807449933442e-02 4.878424681276998243e-01
2.260977611457181541e-02 -1.803142655297488434e-02 4.373145764251762935e-01
4.210727295437401152e-02 1.546031513004203495e-02 4.459236829310058714e-01
5.340858164027743188e-02 5.308888464318940389e-03 4.998235616173880014e-01
4.464226248217886828e-02 4.127129412428192506e-02 4.488363954955667534e-01
2.180049231283473499e-02 -9.878881627773165863e-03 4.356100581358716695e-01
4.862310083679723810e-02 1.315200174922793487e-02 5.060096898120289843e-01
-1.566965593203201515e-02 4.123983901931388418e-02 4.136144845002218129e-01
3.729356831928207217e-02 3.442823010941516854e-02 4.429923650888661357e-01
5.423536180447804771e-03 3.974792177163660040e-03 4.307943169458175459e-01
2.089096372023950543e-02 3.372374082852242633e-02 4.308469789520122384e-01
5.150240561830257691e-02 1.143152189296741707e-02 4.549721338439770002e-01
-8.599289461168863058e-03 5.169559216596075757e-02 4.175625068165150222e-01
4.737325503124232423e-02 4.907631956325839151e-02 5.059380538187137066e-01
6.758898509603179262e-03 -1.101895883778833754e-02 4.333119095453707992e-01
3.921983696691057342e-02 1.322633440940875274e-02 4.438120974759233173e-01
3.287679821831573229e-02 3.411349409593084775e-02 4.401868786512423970e-01
1.048608781750266783e-02 -1.638035656515345745e-02 4.364708861839494691e-01
4.898345291453002487e-02 1.174168354839529027e-02 5.057357508746797015e-01
5.645016790074027652e-02 9.882076197960309658e-03 4.824639493389066836e-01
5.053234593386676798e-02 2.697052942882947196e-02 5.012877810840185022e-01
4.906200004543068843e-02 5.256674534481611122e-02 4.966968429831916665e-01
5.263858539717346935e-02 3.930708313842020546e-02 4.577528605841447162e-01
3.281415318151343491e-02 3.511365367801599306e-03 4.397604038963267570e-01
5.063228771893001773e-02 -2.318432441373894162e-02 4.663851324769032747e-01
3.283045337377668571e-02 4.680626168720367769e-02 4.401213499240733129e-01
4.254902164187025770e-02 3.908419414009010190e-02 4.469702144381123565e-01
-1.928162529717218979e-02 1.384225722602779388e-02 4.255540807619931365e-01
5.680581314078372163e-02 1.391172674481462590e-02 4.730946886400325679e-01
-7.858777682808924803e-03 2.615886565815448914e-02 4.143791250822035366e-01
-3.396354883779924283e-02 -6.922950326025399150e-04 4.378966192891776688e-01
5.702306126775692763e-02 1.922359909811910406e-02 4.755942273615147431e-01
4.015081922772589101e-02 6.319301199319327100e-02 4.488734155619439337e-01
3.776002229830444784e-02 1.839222379363974645e-03 4.431925964477407276e-01
2.645604824376465714e-02 4.820120955453511408e-02 4.349505394343031184e-01
5.401472814497387115e-02 3.469569646327336524e-04 5.073583143697428799e-01
-2.041443507755828085e-02 3.445382125609574436e-02 4.167684792039463848e-01
5.639825314522794314e-02 2.469287972832447456e-02 4.645216930596359206e-01
2.634116008223175501e-02 5.376444379393883338e-02 4.351579910443731936e-01
5.517166640868408772e-02 4.511594110199024232e-02 4.674916783807330223e-01
2.922127996682199330e-02 5.450766496141322588e-04 4.381764984619159198e-01
-2.977750204410024165e-02 3.847134245001922886e-02 4.218717328476587203e-01
-2.793616754843047251e-02 4.378900688108928324e-02 4.220715932011386839e-01
5.078110797787870750e-02 4.575465008405445871e-02 5.012693629946478602e-01
4.742188079406343959e-02 6.066800212897287964e-02 4.829040109900338829e-01
5.181093794048709233e-02 3.420001327056120671e-02 4.560910280492746494e-01
2.987823119754639753e-02 4.280731012819618403e-02 4.378645433027271716e-01
3.515649700656903881e-02 -3.720034101658250061e-03 4.415655395692240637e-01
5.382945722942648892e-02 5.065944153333531985e-02 4.668971198031639513e-01
4.234386534130491625e-02 -7.744207041460737535e-04 4.472066865536698521e-01
4.912044989934502559e-02 2.081370049349484316e-02 5.035901672965926723e-01
5.735272787639391495e-02 2.609485151385480470e-02 4.740411574200275591e-01
-2.311623087179889499e-02 -7.205163062160447468e-04 4.331632650328266498e-01
5.042674489267042620e-02 2.514200952878219847e-02 5.009342470834683425e-01
3.954703743001715399e-02 -1.870484501768199595e-02 4.468720340682673653e-01
1.356221910349313456e-02 2.147894468305787830e-03 4.328206267498639348e-01
5.802043206221954574e-02 -1.183375594697460079e-02 4.857717444669198414e-01
4.735296659825315863e-02 5.214681906499808728e-02 4.522926788903389728e-01
4.451256079922899511e-02 2.154396464734154026e-02 4.480454447296480791e-01
3.259084058798670386e-02 6.764489582283135516e-02 4.519394777344954428e-01
9.519412726145674505e-03 -1.541059576310767343e-02 4.361558902888744704e-01
-2.211440893479547573e-03 -5.632414714772678195e-03 4.315190959319620267e-01
1.150993836774610868e-02 4.253336330602984494e-02 4.210922919038456724e-01
4.317665266510915117e-02 5.126921578955339481e-02 5.075681830651512794e-01
2.598818637070808915e-02 1.981789423215518653e-02 4.356041114349530896e-01
1.748194530880132179e-03 2.180130322072008561e-02 4.160072416707635279e-01
3.493975734512195716e-03 9.564980813830718798e-03 4.277298270940589342e-01
5.676837572154455613e-02 3.629464887214676333e-02 4.690329708513311657e-01
5.410009733044572611e-02 4.319588501601765579e-02 4.927635552749530246e-01
1.756908416628141442e-02 -9.895449306917939586e-03 4.346235589312723580e-01
4.073234876976637719e-02 2.686813978573947270e-02 4.450626404618082121e-01
-8.051565401680697495e-03 -2.421055999718281330e-03 4.309325596417833415e-01
5.360181631817347719e-02 -1.235985915167283310e-04 4.636367433247368108e-01
-2.446067710828934288e-02 2.394709655634257722e-02 4.226831608577111266e-01
6.490275767417574143e-03 7.789786755866649585e-03 4.295975966735190998e-01
2.396387429406745054e-02 6.417983175127396633e-02 4.431156831657956374e-01
5.302934387522421911e-02 -2.069637348136350863e-02 4.709985303807112667e-01
1.818015226262240103e-02 5.821963155685860175e-02 4.323936300049177062e-01
5.282285597133699190e-02 5.682567875741658357e-03 4.594741371248117767e-01
5.265103341646582696e-02 4.714004688264421955e-02 4.933479574755365027e-01
1.705799378809483291e-02 3.645201114274798648e-02 4.274949942079169229e-01
2.154489986021668885e-02 1.716000427348051555e-02 4.332369433740723697e-01
5.588790100612595763e-02 1.637614291694851690e-02 4.846171502293439293e-01
2.604057783834832010e-02 3.017674700421252645e-02 4.354343842540281395e-01
5.383895857705102428e-02 -1.769712891073868012e-03 4.651672450957510807e-01
4.360971193923786696e-03 4.704985177045711842e-02 4.158208699113241646e-01
1.977212113247703296e-02 4.727150783580703203e-02 4.299308819641045609e-01
4.729059681097744910e-02 -2.098945130279423338e-02 4.594376197780283277e-01
9.201224536472584273e-03 -1.367712299835892667e-02 4.351151755632853835e-01
-2.249721750551288146e-02 1.039238672454221961e-02 4.286429571183830167e-01
-2.374648345232276483e-02 5.099875225465597822e-03 4.311644597132576195e-01
-2.087205371399192266e-02 3.041453771034748586e-03 4.308931654383422183e-01
4.517217072673993666e-02 3.475652463669153674e-02 4.491104877029380993e-01
4.779914823235528742e-02 1.766296814564813356e-02 5.068142839844624881e-01
5.152334746683737837e-02 5.814550306435775640e-02 4.633748973546281125e-01
5.682319156471156429e-02 3.133389694284973576e-02 4.667788012766904138e-01
5.551275501595792639e-02 1.728002935972509230e-02 4.630468252377579197e-01
3.758726367206987468e-02 -1.903800557251237799e-02 4.452678618458015269e-01
-9.087146012024925265e-03 7.473439799695270197e-03 4.262323105715761229e-01
-3.906781077230222360e-02 3.857948891413799479e-03 4.436758004306504133e-01
1.773153844899395121e-02 3.288321300425431359e-02 4.280769271099374440e-01
2.684916796602032293e-02 6.575180769989494300e-02 4.520036998215524182e-01
4.228892098266374272e-02 -3.022249919145536447e-03 4.473733762434108918e-01
5.509034510878789426e-02 -5.492051006717163682e-03 5.138105382578441738e-01
1.784371729087449315e-02 3.974698815160992299e-02 4.281427491672011865e-01
3.361278761823752875e-02 2.750167972107710884e-02 4.402988658375475151e-01
-2.257017858598547779e-03 4.157017710266158739e-02 4.106664827438305521e-01
5.431317752853385278e-02 5.007551388028353562e-02 4.729357089983137197e-01
5.153265427474286453e-02 1.795721949639911275e-02 4.550516057715653928e-01
4.628081486439184628e-02 5.594075514320667047e-02 4.941772279134886703e-01
4.779189798921106708e-02 4.752527884476080711e-02 4.523795383450296970e-01
4.713357883620458016e-02 6.150091249022560796e-02 4.819068632624652904e-01
5.721248871433928795e-02 2.197493588836145484e-02 4.746609948218040165e-01
2.810541550482248060e-02 6.455349672681438833e-02 4.443763679074330675e-01
4.657128961228481495e-02 6.587035449721684310e-02 4.748700145517644189e-01
5.020469032121092912e-02 5.963115462280187129e-02 4.618429465287419711e-01
5.557607185881995038e-02 4.827674605636027121e-03 4.915171109724865151e-01
4.550247826187878847e-02 3.020237795131842581e-02 5.124734617804573844e-01
5.693864657309875843e-02 9.565970101783387303e-03 4.792882473276558475e-01
3.290397029807089202e-02 -2.846782799333002351e-02 4.454607146465797696e-01
5.686026519847735966e-02 1.706715213774434581e-02 4.733246224232998123e-01
-3.310865566292214152e-02 3.130473293277311747e-02 4.259149428129076487e-01
5.179906176599896606e-02 3.498900857376611995e-02 4.562151166132514812e-01
5.391826194952684809e-02 3.249269663289697241e-02 4.590590888887086107e-01
4.657157709023965891e-02 6.287886814115331569e-02 4.562508865405144332e-01
4.569616783253335063e-02 1.418921667987718335e-02 4.488239943513688823e-01
5.414363384555204856e-02 -5.167557181313801352e-03 4.672377488114147770e-01
5.367675631458236618e-02 1.244557300974580109e-02 4.924152158838506765e-01
5.423431635221773184e-02 1.727125844044330102e-02 4.898359202277339786e-01
5.492474209452995887e-02 4.701503861981846250e-03 4.950752502321472681e-01
4.830076084705537537e-02 3.318761997753305604e-02 4.518422310879906534e-01
3.804223255969266249e-02 -2.746243344574660766e-02 4.492758955960571843e-01
-3.932053493667198030e-02 3.360136982036717249e-03 4.455619874749892628e-01
3.987137269832792368e-03 3.982342334827587704e-02 4.118679332296361628e-01
-6.430807074437972035e-04 5.160191621875604567e-02 4.151122902275601323e-01
3.369186431677464316e-02 2.430871079959497777e-02 4.402869860577546257e-01
-4.438605392112682929e-02 1.006430665148182624e-03 4.456824544138451860e-01
3.070453863381789397e-02 6.706934218910207135e-02 4.521595368593684938e-01
5.161012504329740014e-02 1.852372656982995830e-02 4.970389146624519805e-01
5.356202619986608765e-02 5.044617499947241790e-02 4.825384784545241890e-01
8.979148191087266834e-04 5.574457325473602259e-02 4.207416783263032700e-01
4.613478964157852191e-02 1.065569156823290356e-02 5.123514220543259334e-01
4.588971506118328519e-02 2.560782109024248646e-02 5.117095208702598930e-01
5.547274385522667911e-02 3.309836257666216169e-02 4.902690787360475255e-01
4.090490809282659734e-02 6.085235067032646050e-02 4.485237283166707001e-01
1.227047939713157669e-02 1.097224709178231186e-02 4.304375709918899506e-01
5.107197049883369089e-02 5.439916879011232054e-02 4.574121039027742586e-01
2.335960406841424038e-03 3.435341358816996343e-02 4.069738720176390712e-01
1.579473311141206537e-02 1.944409277362464834e-03 4.334467583316432004e-01
-3.653094037837843755e-02 -1.046951594156353416e-03 4.395241122298290670e-01
2.534471747465728148e-02 5.038169667427676995e-02 4.340402452040350023e-01
1.275865268359375679e-02 4.655667916802890167e-03 4.325144262976290399e-01
1.685596231688260560e-02 -1.564398427467897715e-02 4.359058022351232076e-01
4.273675163717227492e-03 2.509465485790360328e-02 4.129415378972910444e-01
2.897840158480850109e-02 3.998516787986418353e-02 4.372701860711309951e-01
3.276885246050260936e-02 5.062771552022847510e-02 4.400387613876223791e-01
4.028865541404885731e-05 4.499578052881263168e-02 4.123358388865053792e-01
5.139475160325522596e-02 7.329103232197287446e-03 4.558626052315671862e-01
3.457588569773101944e-02 2.963639182138180089e-02 4.409898613566019532e-01
3.519118783410080109e-02 5.267627499832559790e-02 4.420496955124914584e-01
-1.800479093396128299e-02 1.914383459932340187e-02 4.224411040904378911e-01
2.735923817850406670e-03 5.624860246783268403e-02 4.211263666969170538e-01
2.792107231847221899e-02 4.133781662651837135e-02 4.363632345628801756e-01
2.191504300938205280e-02 -2.171649662555261845e-03 4.350493698701525247e-01
3.028195935369101203e-03 1.953590937110286432e-02 4.200099331428185367e-01
4.274229453746334478e-02 1.678011422331061181e-02 4.464279235828729764e-01
3.793600701989443408e-02 6.877956491749873114e-02 4.675072301065102964e-01
5.191475573496415891e-02 5.125389435744023836e-02 4.890220505886196944e-01
2.623139026532785023e-02 3.397376054751077845e-02 4.353652617136915537e-01
4.975435210392661206e-02 1.847777626144954388e-02 4.530580277771071307e-01
-2.579616458216375807e-02 -2.698305646036736494e-03 4.348865904967014751e-01
4.532453787558172326e-02 6.652232169603718159e-02 4.601189712917933550e-01
-2.739212544994983067e-02 -1.743313634864090359e-03 4.350827570414216861e-01
-9.214395176897262688e-03 1.281015668199497401e-02 4.236159643407177433e-01
8.617192172535812975e-03 5.385345855468934295e-02 4.216992553317385761e-01
5.548202436362219964e-02 3.421516606970893826e-02 4.905263026216930555e-01
5.508494880140026723e-02 1.830515088270691978e-03 4.995115229722824624e-01
3.639600268208329631e-02 6.918548813710173606e-02 4.523746329435326952e-01
3.773050718365708600e-02 6.798355082428832186e-02 4.724779959906131865e-01
-1.504774320095595384e-02 4.295939161274419521e-03 4.290028052544913040e-01
-3.088197076832469024e-02 3.267802342747291866e-02 4.236817329827862189e-01
3.572599767183096825e-02 -2.336350793899569581e-02 4.454691279004030502e-01
4.435907224775192254e-02 3.996987591667623685e-02 4.485224395864305658e-01
-8.137342131592091923e-03 3.078393630359586158e-02 4.126010090894840499e-01
-2.881793613568254392e-02 2.961983169846634217e-03 4.337489119965510787e-01
4.230681836534974649e-02 6.346577977070969219e-03 4.464180927803862997e-01
-2.719224734681678982e-02 1.143895885054552891e-02 4.309320431800403028e-01
4.302697986866797081e-02 6.797202479232497541e-02 4.657754724630071563e-01
1.386730816228862184e-02 5.398725927848608414e-02 4.260394564224096459e-01
5.553008916669074924e-02 3.095129217143762629e-02 4.625771991080090406e-01
-7.523382085978915293e-04 3.203813633049133053e-02 4.067249365217371349e-01
5.283150426097724117e-02 3.211780191909324733e-02 4.572605569526141944e-01
3.098804526253294556e-02 4.398880960279517340e-03 4.388612872902045159e-01
9.128150420020885933e-03 1.926608860204327353e-02 4.243472654404615851e-01
3.858063672345454775e-02 4.571304335079485331e-02 4.441325124040783057e-01
9.325033623059831092e-03 4.314741695308750569e-02 4.184867446428883198e-01
4.045347677102095058e-02 7.138662272217397020e-02 4.565570682733123831e-01
5.216351027881124119e-02 2.301352702100922104e-03 4.590405334077067301e-01
7.627147049475099284e-03 4.922851185355597847e-02 4.185476055900362313e-01
4.776961232639637817e-02 2.005892335998129064e-03 5.172900770391630765e-01
2.976635772325655904e-02 2.242465566294187668e-03 4.383780262589128118e-01
4.058808633602350308e-02 5.085123994252565421e-02 4.458977978535355047e-01
4.883922337870243158e-02 6.042504904089827239e-02 4.793709783713132055e-01
3.259182346915839856e-02 -2.375646507907684668e-02 4.429657812173405929e-01
3.801825499197426100e-02 6.002707807169078286e-02 4.462002803677216356e-01
1.187420529699316323e-02 6.634662195287590290e-03 4.320794032148618791e-01
2.829860008292234969e-02 6.609582620519798002e-02 4.496357760944925674e-01
3.700274133637676544e-02 4.026880365321133803e-02 4.429256957187937549e-01
2.444784677384621158e-02 5.865442475063688266e-02 4.365016259943688137e-01
5.440371190458746786e-02 4.713905477989031173e-02 4.817044310031448617e-01
1.354870039953516223e-02 3.158588473732037993e-02 4.240931908255959892e-01
5.717165429413931937e-02 2.501769121192881987e-02 4.710830241085753878e-01
2.992024041483561103e-02 1.376010041663931066e-02 4.379173329641112278e-01
5.407861731395630783e-02 4.573960898917477785e-02 4.611610246042932015e-01
4.962987284253535247e-02 3.614769865968547186e-02 5.052462205761478753e-01
5.744013312091958423e-02 2.648305312779022577e-02 4.755240614097172580e-01
4.946604708468105294e-02 5.734626058107560043e-02 4.570614219433936642e-01
-2.646653749954923016e-02 3.185915580522445667e-02 4.208362354649531900e-01
5.222494518472962921e-02 -3.108914338531474069e-03 5.152240091242084041e-01
4.637765566360106673e-02 6.665960351887947888e-02 4.630414472393697412e-01
3.124400885064503031e-02 3.402045835091925974e-03 4.390370047946010046e-01
4.053506107891946542e-02 -2.256138136297429833e-02 4.494921685417986867e-01
-2.435625910523878807e-02 4.217191586317090707e-02 4.181091724118464747e-01
-3.024372108335490056e-02 1.586606164474162889e-02 4.301176501954926401e-01
1.000155367143142071e-02 3.041818690987762794e-02 4.189281235222694355e-01
5.793493911539543406e-02 -9.168190666011957063e-03 5.116210085400058061e-01
5.690046448824027936e-02 3.003549177041114557e-02 4.668459164239921466e-01
4.860469968214531193e-03 2.635737176108145924e-02 4.120963278556677989e-01
5.556684529985077628e-03 2.885971224545970382e-02 4.101257608506373442e-01
4.838151740038196952e-02 9.400380627547964829e-03 4.514396172807498275e-01
5.542655385441307841e-02 -2.482088517415718260e-03 5.091754535927798253e-01
4.853515382226175623e-02 5.052356299332617234e-02 4.532930544823333685e-01
5.698866059263714423e-02 2.721026545749122196e-03 4.765030953794258117e-01
4.138910754843153073e-02 4.272443848443901321e-02 4.460893583875974455e-01
5.353987660133509296e-02 3.257178959426074508e-03 4.620565895689780489e-01
3.965795977736877309e-02 5.830555883087668034e-02 4.468188958073863182e-01
1.463214070929644284e-02 3.553632059994477066e-02 4.251066341311886543e-01
4.703997432820536395e-02 5.965440642084179901e-02 4.540394955728846993e-01
4.974020475109726391e-02 4.543034731036670743e-02 5.041092664174703364e-01
5.051832674057609579e-02 1.095436633135931249e-03 4.558187426996739844e-01
-2.471390229446304362e-03 2.284388712512851541e-02 4.136142357061423080e-01
4.127803530625145240e-02 5.282374436462852763e-02 4.468996916452147028e-01
5.727481946996565432e-02 2.306901443943236429e-02 4.747729978533423711e-01
5.730795499201842003e-02 2.415419379456242716e-02 4.780524354695452893e-01
5.217473267800044889e-02 4.217389890984100942e-02 4.571761933480892326e-01
3.897644623461010011e-02 6.381740524987833396e-02 4.483675902696465654e-01
2.599918931736942829e-02 6.387481733067713885e-02 4.417499128698494371e-01
3.819545178436130339e-02 1.724863982597800091e-02 4.429792347669759267e-01
8.914485103569267516e-03 2.559921117743090349e-02 4.206106389381530364e-01
2.051069141179905075e-02 7.901979676208538764e-03 4.345961008803261860e-01
1.099140843675845171e-02 3.253067689042011407e-02 4.202263115466670085e-01
5.674229191405776029e-02 7.761545743748819379e-03 4.742825570614420672e-01
3.679596184802372272e-02 1.717542350611857283e-02 4.419603069270383044e-01
5.747150244237541478e-02 -7.307198494673510479e-03 4.820748063116082616e-01
5.163948602040114438e-02 1.108840724187817872e-02 4.990938122268910870e-01
1.615630069591032086e-02 -1.333517789204924538e-02 4.351166610427409376e-01
5.616148201296111697e-02 3.959523132383597349e-02 4.683001582685153985e-01
4.526280895419351226e-03 2.431785152074295020e-02 4.147236138377560777e-01
3.916911554131605883e-02 2.634186805438444232e-02 4.438078170936305966e-01
4.511698819696028512e-02 6.548573811752383955e-02 4.566598916285601328e-01
2.153041411403756877e-02 6.060983740272014170e-02 4.379541023452592774e-01
4.907094899462376841e-03 4.395043295448032572e-02 4.146949918569171611e-01
5.585537594238618175e-02 4.053600590762751477e-02 4.790606461411762718e-01
-8.657946985717049349e-03 4.178342795853067296e-03 4.284095901467916967e-01
3.931353710488807995e-02 -1.235768531673827816e-02 4.453499329166449860e-01
4.504623067452604400e-03 3.013692981970084173e-02 4.074156461472889790e-01
6.917431594819043773e-03 2.956723811558864545e-02 4.127340959860851255e-01
-2.799516096893646042e-02 3.259187426410474486e-02 4.216163844400810379e-01
5.639830342789518142e-02 1.891218712876333377e-02 4.655443320131112950e-01
-7.851213538932000705e-03 -1.200294871571812999e-02 4.339672120422781165e-01
1.353997431379033896e-02 3.933002472447036379e-02 4.241392993419196844e-01
5.040744780848530060e-02 5.647708657741903199e-02 4.580689359953768469e-01
2.037166461047860630e-02 -1.979286032094976222e-02 4.372363784489937122e-01
3.651918786671345257e-02 6.760794702059284497e-03 4.418533481844802435e-01
1.983363726985736680e-02 6.028525249166490074e-02 4.370660137110573551e-01
4.313269055048590817e-02 3.572593325099177736e-02 4.474749840039606297e-01
-3.791489154924524048e-03 4.441162751067472686e-02 4.118745032619100521e-01
7.525348929628276548e-03 -1.367358684894548135e-03 4.318542813268229641e-01
2.881952809073196412e-02 6.522260151106452908e-02 4.466789895697062529e-01
5.396574688625201122e-02 2.064741697189287351e-03 4.635223210812938199e-01
6.942648377008947547e-03 3.381894388987809891e-02 4.098024145942027463e-01
-1.719588836596586817e-02 1.105789847462011755e-02 4.259798214397164107e-01
4.495508590932755649e-02 4.812767248990441893e-02 5.108560851316966689e-01
2.064020186390608594e-02 -1.631878480006480198e-02 4.365302799851907833e-01
4.717550555223280068e-02 5.183316464889778374e-02 5.009632472663321234e-01
4.791347711795897191e-02 2.489478946390866199e-02 5.073293754653964704e-01
2.851728977111781665e-02 6.658536210330748273e-02 4.545630441412380485e-01
2.291532246134356937e-02 -7.077931270806562918e-03 4.355700744272645863e-01
4.818927219238512694e-02 4.608479728998060576e-02 4.527366806856543691e-01
3.127466388542407549e-02 -2.281035827146811121e-02 4.416630950714586223e-01
5.139585699129844282e-02 5.460196122763229763e-03 5.063537203815632326e-01
2.609383160093621187e-02 1.212648559249566473e-02 4.361404936138370547e-01
5.211028534296877762e-02 5.658052429025288432e-02 4.701636705582710185e-01
5.494335570967714272e-02 4.727182475046540211e-02 4.745378229443082962e-01
1.002412014992263949e-02 -2.399150980851422286e-03 4.322587583497231600e-01
5.575512008857157892e-02 2.700208043835691102e-02 4.883145038522296311e-01
4.492847538491748227e-02 6.346370256570087187e-02 4.813697100509481408e-01
-2.678304368089865634e-02 2.151298536128409128e-02 4.247122395824491359e-01
5.468766520722116720e-02 2.677808498619893215e-02 4.605375909331476669e-01
2.604930547050022041e-02 -2.421926642061365820e-02 4.393933863600320566e-01
2.512648633388904484e-02 2.350857220553106974e-02 4.349438820893957725e-01
3.169821621746418683e-02 -2.160252687363327026e-02 4.415572467617933095e-01
-1.382412796423390135e-02 2.604686764202117106e-03 4.298861903586650435e-01
-3.494824508514480371e-02 1.287224093479281961e-02 4.382311050635379623e-01
-1.542759594789814767e-02 2.283800504073812965e-02 4.196224795261726537e-01
4.915072870527048554e-02 5.307655565116132373e-02 4.954578614223855149e-01
3.601314095623744244e-02 3.107875084299103335e-02 4.420083307789436367e-01
5.256759144175114640e-02 3.090693393770342634e-02 4.567831448999088439e-01
4.796787182895743962e-02 4.415357848044949157e-02 5.074338737541845834e-01
-4.678017295506793974e-03 -1.425606843764134699e-02 4.339573263313499796e-01
2.127066521504674453e-03 1.213380845389290009e-02 4.254452480105901380e-01
2.875426017204837578e-02 1.501718494059590091e-02 4.374101049628082993e-01
4.591514086081106144e-02 6.281872681786748736e-02 4.547985845887168588e-01
5.737778669299287149e-02 3.147424593661139747e-02 4.751830603921217144e-01
-3.535776812147868597e-02 1.648308009226834292e-02 4.366544742663934775e-01
-1.997784917426427640e-03 5.508786526547272688e-02 4.199525324339407062e-01
5.398780223269354639e-02 1.965938859479214249e-02 4.591428540799309954e-01
-7.417043304952720961e-03 -3.805207616553027070e-05 4.305498863496028394e-01
4.945473864081145754e-02 -4.165602908400124023e-04 4.543302289450213416e-01
4.349879980818612685e-02 5.668236889811188728e-02 4.495424707102302353e-01
5.745340315347698124e-02 2.756623495875193397e-02 4.769123233879667967e-01
5.582776536860398903e-02 1.518738849222597137e-02 4.846811851224272494e-01
5.467241997805833559e-02 1.103378771591287909e-02 4.901095132036608626e-01
4.133777260689262822e-02 4.899754347113012554e-02 4.463202758984844420e-01
4.885708137963818559e-02 5.797057455056160713e-02 4.564676749175459736e-01
5.629253713952157845e-02 -1.465716818204370730e-03 4.987527448234039262e-01
-2.769396834232008831e-02 2.995782075144489201e-02 4.222411609760457485e-01
4.603514261324673229e-02 6.638946104215244504e-02 4.722472608580008946e-01
1.480108258466081642e-02 -1.055031675676692052e-02 4.341876919297766868e-01
3.686643287367206284e-02 -4.731788866070121662e-03 4.428297838829913236e-01
5.305158003106560938e-02 3.164241738755306510e-02 4.970060142377167312e-01
5.685712696639907970e-02 -7.192103603516124266e-03 5.132329386010732186e-01
4.464040601705812628e-02 -6.127267267668073947e-04 4.492890385692366872e-01
4.225620398151552770e-02 6.900611098012540690e-02 4.600780054289813625e-01
5.724359325328563786e-02 2.977423119121327955e-02 4.784648273930024454e-01
3.340096248447830402e-02 -1.534653396748526973e-02 4.412491310644648390e-01
3.460448938684456549e-02 1.337007719365549026e-02 4.405537502935252259e-01
2.073768376536086824e-02 5.355062841402519203e-02 4.312477505558590662e-01
5.792346253496603176e-02 -4.548856480176968059e-03 4.869235259212609801e-01
5.708574172802289431e-02 2.792331234098931886e-02 4.685622676552657628e-01
-2.871120750504672220e-02 3.372774475186263166e-02 4.217339754130102758e-01
5.455624096449553095e-02 1.884826920862839664e-02 4.889871942677214145e-01
5.727708415066719294e-02 4.560768404387640328e-03 4.814374182886617670e-01
4.616004223478517576e-02 5.056334521896078266e-02 4.507897798477121243e-01
5.880602866563449521e-02 -1.001937516025178457e-02 5.064858353477896813e-01
5.388006389767441978e-02 4.570393317260284388e-02 4.604045643646165753e-01
-3.271046493728489019e-02 4.642915649704083131e-03 4.365986885062066447e-01
2.089227713066525716e-02 1.630247221577615230e-02 4.329716957126712451e-01
4.642310887831778421e-02 3.652464212106167063e-03 4.502798490162758238e-01
3.344034159049717736e-02 4.776609578753508029e-02 4.405513930549018742e-01
4.228721917977158046e-02 1.320405519637879790e-03 4.468834963625252787e-01
8.182449104644877458e-03 -1.317959327306337473e-03 4.319437836991043000e-01
5.773735318681658818e-02 -4.796635527944080862e-04 4.814359823302893360e-01
2.267531411423856155e-02 -1.694546327453206117e-02 4.371149483912460942e-01
2.209387589495358239e-02 2.136342552776433409e-02 4.329738884467440041e-01
-7.740283875424297869e-03 2.951665057509842566e-02 4.128576175872096798e-01
-3.547077583885924895e-02 -1.660314425210042497e-03 4.391948803633150544e-01
5.535015842570857603e-02 3.195500529199247347e-02 4.621958755578980949e-01
1.733166761105293940e-02 6.217913910254732612e-02 4.426339350901252745e-01
5.284249061931668018e-02 3.977031908038475283e-02 4.982713290116395632e-01
5.456997807888540331e-02 4.480208220483537784e-02 4.850147768960725858e-01
4.396986769822077562e-02 -1.968784874298669385e-02 4.530595256207933241e-01
-1.774762164527058164e-02 3.982389380377000104e-04 4.314696113323835402e-01
-1.456786494907807636e-02 3.692606062759959396e-02 4.135867695546019407e-01
8.340115161550833850e-03 3.371840432948872146e-02 4.131438849791946866e-01
4.826978151888183799e-02 7.045452989643298525e-03 5.117829504667883445e-01
-3.448197812726196305e-03 2.568007035450386305e-02 4.111657101518287338e-01
4.692170843467115965e-02 5.532963876553890353e-02 4.950481495127884712e-01
5.389311016840461765e-02 2.227677005794246462e-02 4.586596565841256079e-01
5.640716194668083522e-02 3.458299868118227399e-02 4.661686382686920371e-01
5.526099237018894383e-02 3.777628312425966584e-02 4.903421340701705766e-01
4.363497372172769895e-02 2.499862894191813567e-02 4.473908359594345185e-01
5.604280804267969263e-02 2.642994972884311206e-02 4.871140082709308206e-01
4.835250002102743638e-02 -1.837921299348484541e-02 4.603980789038168986e-01
1.565905157044274534e-02 1.906676607839524404e-02 4.289555529433293213e-01
5.397419476038374520e-02 -1.387739786964463200e-02 4.711882645783343482e-01
3.128598838749923478e-02 5.566838931837814197e-02 4.395550588210621612e-01
-2.044480109104692897e-02 4.127895066411334940e-02 4.149721580856080561e-01
3.859149372901105740e-02 4.359658412171182364e-03 4.437055612073261823e-01
2.101375992081640914e-02 1.957963095938083931e-02 4.325764782700462496e-01
5.362890687820279917e-02 3.160114760265772538e-02 4.585514807816274963e-01
1.901380753743328210e-03 3.492152792430194830e-02 4.079643319643221910e-01
3.800273189650634018e-03 1.082357086659834974e-02 4.270801354424130780e-01
4.417975832926378243e-02 6.679019693022726634e-02 4.577304831148933939e-01
5.031833867644330827e-02 1.513031218225578851e-02 4.998594564477807922e-01
4.508653623306837360e-02 6.408626373180509317e-02 4.803292833363617120e-01
3.389406026629510765e-02 -1.906263500536307942e-02 4.424143703387489746e-01
1.749970105377901194e-02 -2.275749760267967853e-02 4.374094616501075783e-01
1.267174091704152510e-02 -1.230107594138522137e-02 4.345703971081575911e-01
-4.404343168007701301e-03 -1.041791470474389726e-02 4.330308161005009260e-01
5.383854829984029838e-02 5.304098578189784174e-04 5.074942207048722675e-01
1.117588568789822795e-02 3.971269827408216435e-02 4.208096638749515006e-01
7.210837578283552443e-03 -1.165565158827198099e-02 4.336631135441244012e-01
3.971121250679608694e-02 4.147676685376186501e-02 4.448480099730061643e-01
-2.494030068434557185e-02 4.413667394689834572e-02 4.190949448081308093e-01
1.903724747134781167e-02 1.606853616483525093e-02 4.321126473864264628e-01
2.299312713824038651e-02 2.817024556351140421e-02 4.331457777230318662e-01
4.565964542225654788e-02 2.660259022921736272e-02 5.121189341727369060e-01
5.000796983591326156e-02 1.046869980759302298e-03 4.547705063400416248e-01
6.027462404340585243e-03 4.996997119398984000e-02 4.177810242487949299e-01
-1.086818251320905392e-02 1.564658716986155537e-02 4.223435352976052659e-01
1.004345802367007622e-02 5.806751307682064822e-02 4.261066981656784214e-01
-5.060203899507538863e-03 4.911761317750584083e-02 4.132493243516978110e-01
-1.146756829704666247e-02 2.413095235584444831e-02 4.175838079452304230e-01
5.372471727392288260e-02 1.974581862576911886e-02 4.585270025054772880e-01
4.829829514126107726e-02 3.660149746665505160e-02 4.522340749956901274e-01
