5.572726952134912648e-02 4.178521441362077066e-02 4.675039001496060775e-01
4.206433649931791419e-02 4.282392475792927422e-02 4.468008729478341601e-01
1.933025545527476685e-02 2.072823110320458351e-02 4.313332124945533086e-01
1.863108232607065332e-02 3.743762828886370436e-02 4.294310384606436770e-01
3.781311086721290265e-02 1.908602509634245784e-02 4.428339704275248145e-01
-2.870020506363140517e-02 3.337935818757699347e-02 4.220828413441785609e-01
5.353850541412000230e-02 5.229568642208694274e-02 4.746405948787000839e-01
5.745253390828250484e-02 4.991878315330122631e-04 4.872648182094836411e-01
-4.013127412159461088e-03 3.204014122348963767e-02 4.088678230637201594e-01
-1.575399620097281406e-02 1.027868628853853897e-02 4.262530562260873346e-01
-1.577294438628040057e-02 3.068163550856172969e-02 4.163897067622482351e-01
1.101265486277034321e-02 -8.216639825327158586e-03 4.332514822655634257e-01
4.514216181502303527e-02 4.952055683585476764e-02 5.098314658560358925e-01
-2.626951914447438544e-02 2.953576125369833730e-02 4.217978710808186760e-01
3.737536494146852240e-02 2.835709238677452254e-02 4.429503990754102283e-01
5.695610496039633930e-02 3.521408205410415937e-02 4.713603932668070096e-01
4.309811800398000853e-02 -1.675623125395466623e-02 4.506390122388698738e-01
-2.569078378007274427e-02 2.496824088846073212e-03 4.326374340947397590e-01
5.612432053707702012e-02 1.051640518961407741e-02 4.837928120257857789e-01
3.017663005497386690e-03 1.387849838661603386e-02 4.250869213870115959e-01
4.559931598268524011e-02 -1.977352127443373145e-02 4.556447526724959896e-01
5.917429985668368198e-03 1.944842283736237729e-02 4.227045125521982083e-01
5.688975273464831617e-02 2.966872275063657874e-02 4.827911632731940461e-01
-1.950750638764557534e-03 -1.646423310168191462e-02 4.351748084271204187e-01
-5.758228717687102240e-03 5.018438038640641446e-02 4.150616095079734946e-01
5.672794146305389085e-02 1.020325726053356377e-02 4.743246042737240264e-01
5.235641253637389469e-02 1.887467988773596991e-02 4.952128525311928486e-01
4.464707377974361235e-02 5.045114187339660994e-02 5.087889805140149990e-01
4.749689229530080353e-03 3.158726158951011970e-02 4.080056242008193723e-01
-2.228123932048930306e-02 2.997962761691266853e-02 4.195830474950329458e-01
2.603118973005890888e-02 4.786993791398341108e-02 4.349512243175338577e-01
4.771088095597806472e-02 3.595316382221862284e-02 4.516835066597850723e-01
5.557955713863775571e-02 9.148667764622437498e-03 4.881792902855365823e-01
3.805935854259927253e-02 3.849547026811868389e-02 4.438290427870819621e-01
5.416557483936546014e-02 1.809106473379137187e-02 4.901056265915815224e-01
-1.165219608734641317e-02 4.340653096981018921e-02 4.132112508413568475e-01
5.666317914350327278e-02 1.354942395254704265e-02 4.708563796380590971e-01
-1.122155429218840358e-02 3.344772052056622924e-02 4.136170696885149156e-01
-7.920016107847101250e-03 4.313577173168070024e-03 4.285444906439718205e-01
-3.471561267537731643e-02 2.019231409785007120e-02 4.325891709409224184e-01
1.317272751712126287e-02 -6.032485784083984996e-03 4.331824068213323553e-01
2.040458696785165879e-02 4.315923431778562885e-02 4.305249732101619764e-01
-2.222107645313765520e-02 4.896373244544716813e-02 4.232119954828922892e-01
4.348959911701837794e-02 -2.282717491570854240e-02 4.542471637100010118e-01
5.389135147619681515e-02 3.254160804248993483e-02 4.953888374701901909e-01
4.875459221595328241e-02 -8.951359449497668999e-04 5.183731757906252513e-01
-1.318036348308668573e-02 8.459587837269348654e-04 4.307228213685448948e-01
3.660264504332032265e-02 -1.375921632724043733e-02 4.434363948191478166e-01
-9.796588014775622737e-04 1.679321433049564549e-02 4.217720602450738543e-01
5.653958270546451809e-02 1.414408358008364258e-02 4.694029346827485183e-01
5.543561336141065998e-02 3.795067272701781180e-02 4.894725093820143647e-01
3.544129182064168632e-02 2.082128225334513652e-02 4.412534692764719657e-01
5.222782803760782355e-02 1.637738253307008309e-03 4.595841601975705348e-01
5.543693354011475921e-02 4.299772282925697076e-02 4.791396178336889133e-01
2.956596958649202259e-02 1.380718205653139186e-02 4.379224320645394020e-01
4.488553041226060053e-02 6.102312392317476436e-02 4.869573938087636278e-01
-5.061552630327158069e-03 9.690623219581010264e-03 4.256426320537843866e-01
5.308930082103725107e-02 4.072648045807097245e-02 4.976615905509368942e-01
-1.673623226109034398e-02 1.472568912521198849e-02 4.245095210198183699e-01
3.585396991897515928e-02 5.999922448374719192e-02 4.451842795384629570e-01
5.631521177807083389e-02 2.412287363684144023e-02 4.853929925870134054e-01
3.802863647626482380e-02 6.823815549241504796e-02 4.529605727271167614e-01
5.306755029583616612e-02 5.430241617410209998e-02 4.684396233324996106e-01
4.660893044205734886e-02 -2.516040503382263160e-04 4.514096219838388824e-01
2.249223255681997991e-03 2.286995094907551956e-02 4.153790089626768212e-01
-1.632422990767953266e-03 5.095967076160954484e-02 4.146696944131859075e-01
4.706513776488687600e-02 -7.308959272540976188e-03 4.539557084467211179e-01
5.703012725691725820e-02 2.165826219522251975e-02 4.717185805029948109e-01
4.862436899247565142e-02 9.333629196838973477e-03 5.083616332264500048e-01
1.867634797054606305e-05 2.506695285948268639e-02 4.117387511946501988e-01
5.089831606594979324e-02 4.479885290452438606e-02 5.023486140045353432e-01
4.614855956723713792e-02 5.991432983484576424e-02 4.864665485938977074e-01
3.509024175497784531e-02 6.726053813786511681e-02 4.505964942654236416e-01
4.024384141345566795e-02 6.184236612293409624e-02 4.486062978663220013e-01
5.614896404620492443e-02 3.731806688239042158e-02 4.831438682082588865e-01
2.769611701376821153e-02 3.884646163255939255e-02 4.365841369510589098e-01
5.187700502635470001e-02 2.019933504759713425e-03 4.585971597022657220e-01
5.054400178359435419e-02 3.973483810013239692e-02 5.038094290160458621e-01
-6.146369876059619430e-03 5.052498479652194063e-02 4.156026289731309942e-01
5.728885897473528360e-02 2.524413510401199434e-02 4.736171649327188260e-01
2.516502780342238718e-02 -5.040200599118463930e-03 4.361701974097002554e-01
-2.097758515815559971e-02 -1.003595681394325867e-04 4.322425073305716792e-01
-2.226786697017477459e-02 3.046550579773556720e-03 4.314447099808545460e-01
5.240144899014146512e-02 3.999957750988239469e-02 4.995103297741394499e-01
3.355694687899953010e-02 3.864782098535349958e-02 4.408828555257167658e-01
-8.224690233605516654e-03 2.143436406803847158e-02 4.180384384537478848e-01
5.754298976508399888e-02 -1.276571519947702904e-02 4.825475690797955686e-01
1.769335004913209775e-02 5.902076247282678212e-02 4.330914460447610193e-01
9.132922695742482638e-03 3.576706604803474299e-02 4.156234811559614273e-01
1.552311844160779615e-02 3.702604094303622861e-02 4.264981892455810830e-01
-6.201962753342416326e-03 -4.070450406827727519e-03 4.312883720455351066e-01
-3.201590931123533823e-02 -7.976278241843925802e-04 4.368812005820447153e-01
3.962638896491811613e-02 -1.939127623805140914e-03 4.449372236086122090e-01
1.184549362272360393e-02 1.117444596452690439e-02 4.303813020195813022e-01
3.914951566974488734e-02 5.259626205208877553e-02 4.453485610526873306e-01
-1.659442149452740323e-02 2.304046610749443946e-02 4.202557208013508183e-01
5.504435724020754345e-02 4.214216842785486333e-02 4.890790178478726657e-01
8.640371252117404199e-03 5.389613683760251933e-02 4.222039905725561981e-01
3.206552940363559256e-02 -1.133480911138440121e-02 4.397729311776233940e-01
1.667146328027039118e-02 2.398768603450546211e-02 4.288915272803953127e-01
5.491346187489563185e-02 2.535935400532914399e-02 4.611918052872187035e-01
5.547649025645395165e-02 1.346932618210023962e-02 4.860102315455872568e-01
7.348213195953913826e-03 8.058220891134183425e-03 4.299838793006117155e-01
2.943072155986668076e-02 6.417663077559444817e-02 4.436342880969608715e-01
2.471882728137258720e-02 6.361863157407687819e-02 4.417613007512765089e-01
-2.455061111281372707e-02 -2.524509266256142002e-03 4.344285152044804477e-01
5.581592268654785721e-02 6.033974651564780536e-03 4.686522451934319045e-01
5.279301014426299871e-02 4.767108932570865432e-02 4.581150700397259024e-01
4.943471156050541909e-02 1.786207185706293124e-02 5.025484604488197338e-01
5.332479539855479456e-02 4.706960286454577730e-02 4.909774193051040792e-01
4.861534454079049355e-02 3.056544507314321729e-02 5.066588901151808377e-01
5.714584915768886053e-03 2.393805691090819185e-02 4.181751083102374644e-01
1.851555034288804996e-02 2.867673802429007018e-02 4.297246511405120595e-01
-2.484645126352841640e-02 4.658219089055297413e-02 4.218865740778071638e-01
4.999926607175123744e-02 -5.521354248748967623e-03 4.581647392438794597e-01
5.438524803509551392e-02 3.802732711640195717e-02 4.940735048980121058e-01
-1.410254296565912127e-03 1.123967790918545522e-03 4.307216305446191495e-01
4.595412773849254923e-02 1.907334873210942035e-03 4.502554460242669809e-01
1.200370459551766515e-02 2.507713706026049386e-02 4.245931040479967722e-01
4.499412913223466148e-02 6.613825734177877780e-02 4.579592357673845648e-01
3.768439145898475062e-02 4.242143026752359658e-02 4.436677302935030376e-01
5.455908326692061189e-02 4.707085529161302018e-02 4.805543261589516613e-01
1.507998925017685517e-02 5.664849512781040299e-03 4.333473644921459478e-01
5.663392136622799611e-02 1.869675596662572284e-02 4.680579399553947972e-01
4.620378719601127976e-02 5.067691053683880814e-02 4.510633004958234937e-01
4.974922864426289254e-02 4.028281285517474469e-02 4.542463859284229244e-01
-2.481949435754085553e-02 9.065704592207920673e-03 4.306976004089378973e-01
5.031923026949636224e-02 3.443479907074106783e-02 5.038821898856801207e-01
-2.324136626115432674e-02 1.343027325773007465e-02 4.276103393058142688e-01
5.016147478555570832e-02 4.348556534687225694e-02 4.549298071683287592e-01
-1.423728193644521398e-03 1.734386168499704728e-02 4.211623715905725707e-01
4.878055056434955905e-02 6.242876589660920073e-02 4.746184524366058310e-01
3.013534593155105940e-02 6.501895479756271412e-02 4.464469787151567615e-01
5.484800873672118771e-02 3.823248605303982556e-02 4.624827277567794548e-01
1.551915879379199385e-02 -1.088808949089838454e-02 4.344366423978204828e-01
-2.880614623807294453e-02 -2.547331937328810390e-03 4.359388613723089723e-01
5.009532370435521714e-02 2.753457930946060644e-03 4.546895937642929653e-01
3.703960125221924388e-02 3.937918892845290036e-02 4.431574046878758444e-01
4.171504757109785466e-02 -7.558368431728442263e-05 4.466701956298531062e-01
4.623506726204376638e-02 6.139721237402394338e-02 4.840153728298998148e-01
5.478764247464232989e-02 4.113267238755130562e-02 4.910376337286401216e-01
4.503245072601516630e-02 -1.231520472474800093e-02 4.525064747917628138e-01
2.852998657488463232e-03 1.933652593560396954e-02 4.208172701128911619e-01
4.313520894476786938e-02 1.047640293545841830e-02 4.469852002250712664e-01
5.656755792476571287e-02 1.243116760243734992e-02 4.807446658023132868e-01
5.757234147269407742e-02 -8.535939357948598913e-03 4.842458171333584582e-01
8.264334080293376031e-03 6.101767399271982445e-02 4.323172537877087440e-01
6.880414044267238807e-03 5.513320250947772311e-02 4.211945715560368453e-01
1.252671420580081345e-02 3.397023643279560579e-02 4.232974568554944139e-01
5.706462200002408724e-02 -1.521827767799049241e-02 4.808926843804933182e-01
3.909514645888734208e-02 6.869725765220383029e-02 4.671054521243018232e-01
-1.288340817254575964e-02 4.354136390726360412e-02 4.135343153678544548e-01
5.403855844518811596e-02 3.027742368488322428e-02 4.943878996877752452e-01
4.110553087410778045e-02 5.236525623536174290e-02 4.468832924298496434e-01
2.506978525834707705e-02 6.205797790309899864e-02 4.400280737432091804e-01
3.614072323090082584e-02 1.758131428917644040e-02 4.416429479834643734e-01
2.686921934007770879e-02 4.585335344356029907e-02 4.356725886856720464e-01
2.298722643207711663e-02 2.826165830895011402e-02 4.334134881825863483e-01
5.682501768307029327e-02 1.284519513431199057e-02 4.780109833340243641e-01
-2.031653890629201570e-02 1.284185908398790404e-02 4.265257526240638364e-01
-2.712084993319427775e-02 1.427957939199368809e-02 4.297214887107054793e-01
1.822007965456737960e-02 6.255103509514770010e-02 4.435278444167278789e-01
3.370227157711130905e-02 -1.401908333586173068e-02 4.412754430620719481e-01
5.809776978209203746e-02 -5.913883653756574904e-03 4.943923446053423709e-01
5.229191970549786767e-02 2.662159371840246841e-02 4.972853437292552026e-01
2.903513895496897049e-02 3.826366873214016168e-02 4.376477134898932864e-01
3.293335242224998405e-02 1.359549195986370015e-02 4.397025971667202215e-01
3.141708634589022303e-02 1.584127926494170030e-02 4.390006241508616625e-01
1.062509067554192124e-02 6.138938051271733420e-02 4.365895968632839685e-01
5.284165309403895949e-02 3.035973702440358454e-03 4.605830743256937310e-01
3.884607118732526232e-02 1.539954695992735816e-02 4.436597213747568436e-01
4.499732926974567282e-02 8.385816439360425575e-03 4.485779268907341133e-01
2.916885422101753514e-02 6.545156837681682938e-02 4.476371553131991976e-01
5.280405098974679662e-02 2.431137652126624110e-02 4.566229453154526108e-01
4.788347775724147160e-02 5.958714492677182062e-02 4.838983975235940371e-01
1.110832453789245729e-02 3.213551617073545641e-02 4.211915544299970615e-01
5.345698233238205949e-03 2.460880375717532098e-02 4.167976840137013195e-01
5.570678995891695240e-02 2.970498144341199992e-02 4.631115383654873519e-01
5.785114590001036363e-04 2.829332142049013205e-02 4.080735443165927623e-01
-2.554384478098963018e-02 -7.894628951933247395e-04 4.341167920437000172e-01
1.128579858420202149e-02 4.520039254099083442e-02 4.220375389416892165e-01
-2.309396995613073253e-02 4.796738675076546790e-03 4.311600732491147059e-01
4.694959598296856787e-03 -3.926895367088819103e-03 4.317964684812264364e-01
-6.857864588885723145e-03 -1.339890108033087515e-02 4.340791937646371057e-01
4.271600811967828093e-02 1.509479769457137618e-02 4.465568024047555373e-01
4.753828046440757710e-02 -4.827232610055975232e-03 4.536603388891211619e-01
2.557718871001133862e-02 3.230133536454111304e-02 4.352700221016740922e-01
2.003973379537310473e-02 2.857890891284975421e-02 4.309792227179574664e-01
5.561484279348668375e-02 2.357302392663761237e-03 4.689036007845724385e-01
4.872682893656896802e-02 4.961768509683742862e-02 4.536597152732670390e-01
2.881520535574456574e-02 -3.984617114138103676e-03 4.376244765415678861e-01
2.665325627162798416e-02 3.908646817823552277e-02 4.357476638182116169e-01
1.155916796310318354e-03 4.887479894009297970e-02 4.148955048176902749e-01
-2.328145308758778828e-02 3.523276568768305556e-02 4.182820989732790040e-01
2.521262464708882642e-02 -2.607717461366162136e-03 4.362450549202421257e-01
4.845747821197796124e-02 4.926166406938489728e-02 4.533614015055388302e-01
-1.356193014004494421e-02 2.937244116118805509e-02 4.161247362722956256e-01
2.385513198913349897e-02 -7.513501704834300854e-03 4.359630766377294853e-01
5.652381527090941798e-02 -1.406356340352248437e-03 4.732200548338450496e-01
5.614981358035582570e-02 -5.130050883328199363e-03 5.117232636594729600e-01
4.930563560793577160e-02 2.190169946809676985e-02 4.526548363057307789e-01
6.061915772158648838e-03 1.952056922345609888e-02 4.227563205607667851e-01
5.719379460877947741e-02 2.996943011695474973e-02 4.789743734421663124e-01
-6.717551828707141529e-03 2.534857816611009798e-02 4.143864262658236153e-01
3.699687108622147502e-02 6.669138386123833750e-02 4.505709452223919387e-01
4.666682958508740209e-02 6.536935434678185775e-02 4.763143522517342965e-01
-1.165218886854467104e-02 1.189300980385634560e-02 4.247169590975738429e-01
3.324327805688451209e-02 4.186389475264429283e-02 4.406450534416065379e-01
-1.243479808891149313e-02 3.243090877757046769e-02 4.143335699967726771e-01
-2.030329203211426320e-02 4.018261750381065672e-02 4.153400118633828186e-01
5.000285759474620145e-02 6.183334807586012005e-02 4.663424314193984621e-01
6.172605704642866037e-03 -1.248327790982666809e-02 4.340426297099576058e-01
-2.248799204440598415e-02 -2.605415859345942310e-04 4.328366147181574863e-01
5.475124768250615170e-02 9.289177844910229478e-03 4.910997433174311144e-01
-7.041463849009142045e-03 1.566061093876296856e-02 4.212312805436818630e-01
5.430147823626735315e-02 -1.062724116779190792e-02 4.702365570244753101e-01
4.346853546838935767e-02 -2.303900946014874468e-02 4.543382580363890533e-01
5.072012223683994292e-02 -2.867225916843193102e-03 4.583484430580706537e-01
3.865340038637943287e-02 2.698351862433876792e-03 4.440234777293098900e-01
2.634078646443523131e-02 2.015715984783583367e-02 4.359962415562638194e-01
2.851645845327643869e-02 -2.366575195207883467e-02 4.404223138976290364e-01
-2.620451371126292228e-02 3.487576711278515124e-02 4.199868555610697385e-01
4.409318968610746042e-02 4.960293722131468852e-02 4.488902027777289527e-01
1.010925450108061258e-04 5.429121894204336912e-02 4.195025564580923128e-01
5.487201691494979217e-02 -1.536258667180354261e-02 4.743849122602015744e-01
3.278966006934821292e-02 4.278046792105266033e-02 4.403515848535400345e-01
3.156832179639262881e-02 4.110156387759773128e-02 4.395470747983774573e-01
4.840087189792557226e-02 6.245344777665608887e-02 4.608696085533580677e-01
-1.795775351818420726e-02 1.110565679065157740e-02 4.264227728326726030e-01
5.315143441766828625e-02 1.805262560832457397e-02 4.574148681059791444e-01
1.545607400077270849e-02 2.703398923750518351e-02 4.272996089249130880e-01
4.983899424809656864e-02 5.556231228930994664e-02 4.881660621222571605e-01
5.679034113804013600e-02 -3.752555561955719238e-04 4.943867220018529074e-01
5.409143327188064426e-02 -1.395784971021041612e-02 4.717608648110192537e-01
-1.993987325845618733e-02 -3.389866643975209589e-03 4.333173548467758041e-01
2.224826530412339284e-02 6.081081773838456495e-02 4.386174808961887384e-01
-2.401088809647055136e-02 1.799412881005588161e-02 4.255646642581695227e-01
5.585996647684663557e-02 -3.837706811360246106e-03 4.715258092262543665e-01
2.005871543476994007e-02 5.987468635144641699e-02 4.357939687896105752e-01
2.769529568130805162e-03 1.515595538654927396e-02 4.240317124211642197e-01
7.259081774575069576e-03 3.007666459706199308e-02 4.138829823455195678e-01
4.003879828347722825e-02 4.482259961445319782e-03 4.449053907122182960e-01
-7.265454349648838711e-03 3.924731753619398189e-02 4.106647667008719305e-01
1.719451785768883433e-03 5.265282337986609829e-02 4.177859874397250040e-01
4.300522649764796507e-02 5.263784700865240668e-02 4.484888292524339404e-01
3.324176252577780433e-02 -2.285611026553441630e-03 4.402459239661538071e-01
5.127805901594333082e-02 5.425205626798407232e-02 4.859784334237570724e-01
3.079019218032281319e-02 5.561693435787232881e-02 4.393592061191640696e-01
4.524203119044998417e-02 3.323339114489551327e-02 5.131689194067817761e-01
2.812118028654991483e-02 6.525820048817894403e-02 4.468171758827257922e-01
4.561856218239408040e-02 2.413364489683067493e-02 5.121508684132591860e-01
-2.496593294424912651e-02 2.822968710091713646e-03 4.323225130747782030e-01
5.416911120678252062e-02 3.068668547010348913e-02 4.596356382255489814e-01
2.198803678971688810e-02 2.242785902824916133e-02 4.330024206316629987e-01
3.757780647577004668e-02 3.294474193195436051e-02 4.433164732851473944e-01
2.088241867955084596e-02 4.864126990890195457e-02 4.311907442568881366e-01
2.632704704872445081e-02 4.430852136239438882e-02 4.352791145600575784e-01
5.365732429218020294e-02 5.010075374728402420e-02 4.630678753363560163e-01
1.832072476108431366e-02 4.678798352874223576e-02 4.290482869658824305e-01
4.902518338953094218e-02 2.271440274397976133e-02 5.041994523596724509e-01
3.966012017437261367e-02 6.694231839742807721e-02 4.772495696693928591e-01
-7.210794805141683981e-04 2.738920035402313963e-02 4.090545247364747450e-01
1.437018229769126618e-02 -1.673200117667365122e-02 4.362258792928982998e-01
3.820598206652808110e-02 -1.924904996903602922e-02 4.459216878171592957e-01
1.173879079693928781e-02 3.074760878680828091e-02 4.227757245570932243e-01
3.472368308551937455e-02 2.837287675667480268e-03 4.410599877933756852e-01
5.677067888479857272e-02 1.115378919431580726e-02 4.772093390126979640e-01
6.349631174785597999e-03 -1.526879551217213450e-02 4.357337740176739915e-01
3.200888947785119482e-02 4.327477572864869143e-02 4.398293569868080288e-01
-7.436450577986506577e-03 1.856335648091442594e-02 4.193062879102632534e-01
4.012197962012296892e-02 9.502493319162112415e-03 4.446462754791780103e-01
5.670798762947860949e-02 1.548524912779829406e-02 4.800843349327556520e-01
5.179608049060631381e-02 -1.567049566199704702e-02 4.670557085242033613e-01
1.646408331086117102e-02 -2.549369174557026500e-03 4.337552288798053879e-01
-1.262265374663795389e-02 4.645656783422813518e-02 4.138712882131616588e-01
4.766327892736462596e-02 2.861604456213354131e-02 4.513391701678343138e-01
2.604432831402846496e-02 -2.120167801602350355e-02 4.389828489398490685e-01
-1.047509668199505910e-02 4.241021377634158346e-02 4.127968517491501510e-01
5.259321920825989899e-02 5.385171640233929469e-02 4.619952276174313366e-01
3.188578776572184668e-03 2.787412912025796774e-02 4.084993715090599053e-01
-8.953263543022582996e-03 4.306862675276861702e-02 4.124979120286241807e-01
8.552063226603357979e-03 -1.353048383113678293e-03 4.320985739748980925e-01
7.094102564424666427e-03 1.565549182686059443e-02 4.258345897083358200e-01
-2.247154092222447899e-02 3.414871771648583798e-02 4.182386615336965430e-01
5.540291782242725421e-02 3.919511186562142646e-02 4.888234615430843699e-01
-4.085775073764303517e-03 1.170869809445686249e-02 4.246093023012693091e-01
6.178632022663119519e-04 3.003304649306312926e-02 4.074084776252849260e-01
5.268369393923261201e-02 2.528450522628176642e-03 4.603741992051294529e-01
5.515078110026806063e-02 -1.381999553877285040e-03 5.077453923397002855e-01
5.708773290670077216e-02 2.129019671922872253e-02 4.732014894727699095e-01
-3.485376804595246431e-03 2.827288572487215990e-02 4.100073308800605276e-01
5.747697699265454097e-02 -8.989650298118550750e-03 4.832570589516541615e-01
1.925647996359102290e-02 5.759637421538652685e-02 4.327194968577053324e-01
5.611542985044498666e-02 3.418960560414876365e-02 4.870091681902729008e-01
5.680930645731812473e-02 2.412446900806295563e-02 4.668846518800296441e-01
3.228186036163016581e-02 1.341533516430339947e-02 4.392706263678393674e-01
5.208943229692273441e-02 -1.605504624913327294e-02 4.678078865348281323e-01
-5.509051775881431204e-03 -8.216781320322535248e-03 4.325100820019339154e-01
3.323858805880394035e-02 -1.103168058334650162e-02 4.405757036556297579e-01
5.709510626888552459e-02 6.859981176688267554e-03 4.792167746342180235e-01
4.060930947374345040e-02 5.074930455101327176e-02 5.103728048937418160e-01
5.061046786696580743e-03 8.586691791097247201e-03 4.289617836473246237e-01
9.653828071772454014e-03 3.045694596679739130e-02 4.187615284604920829e-01
5.359429167988832149e-02 6.163081393067751032e-03 4.978926985798570182e-01
4.128695683334377559e-02 5.766495795235425381e-02 4.482187333423924280e-01
-4.556084499288104439e-02 5.422782797841370350e-05 4.461373682754665171e-01
1.658043706173422532e-02 3.653198684308501393e-02 4.274069497674138907e-01
4.811794719117377939e-02 1.737023304641031538e-02 4.513864041747018829e-01
5.267834523320357593e-02 8.588105610214925856e-03 4.583430357058208005e-01
2.222781319321955051e-02 -1.615955666681604536e-02 4.369082220731544397e-01
6.195628478226330831e-03 2.768928744485044807e-02 4.135882890306997184e-01
5.697140030048224862e-02 2.831668601484592721e-02 4.675903573022148763e-01
5.744736658145209451e-02 -7.060086457541773705e-03 4.817102627005132587e-01
5.031702390186883200e-02 -1.549724873285089795e-02 4.636889120362502337e-01
5.184211908273354125e-02 5.560152011506657582e-02 4.608779694693176943e-01
1.082599253574497399e-02 2.644033653761086733e-02 4.228657814518309022e-01
1.333081006715181732e-02 5.948048882871767584e-02 4.304150069046323024e-01
1.313623537459841610e-02 6.090057752089259729e-02 4.368350567396199757e-01
4.713995506624885090e-02 -1.965730978467339005e-02 4.586173230251868738e-01
3.700243805069594952e-03 2.022357842668598069e-02 4.202835258263808438e-01
1.970429944029333802e-02 1.718803478919093269e-02 4.324811328901602137e-01
2.595081304402540451e-02 1.063399428136097349e-02 4.366082080835645973e-01
3.187185459236912405e-02 -1.047593823650375122e-02 4.395915226652353236e-01
5.236882308843429645e-02 4.274474759352190484e-02 4.575832705865709449e-01
4.568119016066432558e-02 1.268022573228136558e-02 4.488906819030228368e-01
1.988009816109465727e-02 2.685739954440825514e-02 4.309573289769645377e-01
-6.878873915904601920e-03 -1.147543580971448728e-02 4.336828652676021911e-01
5.751058961794351665e-02 -8.476339040351738713e-03 4.837054670857234284e-01
-5.180200126297327887e-03 2.712504822668412169e-02 4.123432005032340308e-01
5.258508072453052518e-02 6.641043450409680159e-03 4.587335864090998361e-01
2.224900801544913570e-02 -7.483102139450891963e-03 4.355095809526156048e-01
5.585734506032237479e-02 4.193104681319592686e-02 4.753973428611666940e-01
5.155378508069509425e-02 -4.202142988568916687e-03 4.609213545347032315e-01
4.508612378434728729e-02 5.077056917977554318e-02 5.070810383103954155e-01
1.829056223069779746e-02 2.830264179365292801e-02 4.295614407531496148e-01
5.703300755246899778e-02 -1.080348375051156436e-03 4.944913138424661403e-01
5.044005264929263960e-02 1.493211548595501509e-02 4.539559220917542826e-01
1.653941666137759975e-02 1.032275278117409344e-02 4.328233858374063159e-01
5.111269492327644159e-02 5.281297083468103337e-02 4.895055355803502040e-01
5.743611077421568317e-02 1.292578678713391434e-03 4.796939583676050889e-01
-1.523174605673904836e-02 1.387586102259265319e-02 4.244487695403405536e-01
-1.371153046582070101e-02 3.072985890628431721e-02 4.154841661886427007e-01
3.264614036537590025e-02 1.375911833962411429e-02 4.395560188707116067e-01
5.421471273256506934e-02 1.956512860571547538e-02 4.900392606056468980e-01
5.550122867790238668e-02 3.381453267923232447e-02 4.905377774052513962e-01
5.672422648241651905e-02 5.822431426086463295e-04 4.741380384851578977e-01
7.041077376409117169e-03 2.888487577723375041e-02 4.138649762160669932e-01
5.212726540887605009e-02 5.573864572533304695e-02 4.745737815576672181e-01
-4.237285636500571356e-02 -1.330491125372758234e-04 4.412631902307033172e-01
1.376019308667225487e-02 3.967209465997974249e-02 4.247337720105688330e-01
5.666409644552437147e-02 3.741572281323393007e-02 4.723725536367673894e-01
3.019818064762307477e-02 3.196366971547920377e-02 4.384854592359679337e-01
4.347811446592272228e-02 5.133789127406439973e-02 4.485719761077369139e-01
2.095373754835118049e-02 4.984109730134121674e-02 4.313653665221301448e-01
5.120085342171711712e-02 3.744734104775176986e-02 5.026007973813754193e-01
5.402679541559479715e-02 4.963844076128868382e-02 4.800979808825440176e-01
4.296665385989915931e-02 6.535604493922785030e-02 4.798427155827821866e-01
5.158350027556850292e-02 5.576254753400143593e-02 4.603791564164222971e-01
1.347629653130147202e-02 4.620548604042441082e-02 4.245611167408379627e-01
3.806935893992986070e-02 4.584456508093172344e-03 4.434035664042408897e-01
-9.596630435149871088e-03 2.209090446602901287e-03 4.300285497604904306e-01
4.217605411284614664e-02 -8.903383451448525221e-03 4.480208517653729849e-01
1.034741817392796290e-02 5.668261333480985320e-02 4.252093977621715370e-01
4.606731369681411892e-02 6.711745161475468624e-02 4.675188986465660945e-01
1.426882306317424874e-02 6.120383857459965604e-02 4.400353821949086752e-01
2.907330634472490849e-02 4.233789180304427940e-02 4.375358900452111510e-01
2.203112986743401003e-02 3.538569011782885521e-02 4.320331250051503424e-01
4.902089085101853788e-02 4.799162880505463552e-02 4.538946460488845203e-01
5.572463535374689442e-02 8.178124753295693342e-03 4.669458032846670048e-01
2.928305882465058810e-02 3.275859041888415368e-02 4.379642652505491007e-01
5.454014967137621461e-02 4.393598815352532660e-02 4.891951205593539354e-01
5.756992637950082009e-02 -9.207134257005521530e-05 4.869208349459587248e-01
4.287576495356777706e-02 -5.972523589319455629e-03 4.485502862159752580e-01
4.287999345514922206e-02 -8.589341306085256436e-03 4.487792481316201787e-01
-2.220770817986052539e-02 3.640972178402051423e-02 4.173631539794116496e-01
1.000993250616786720e-02 -5.530289541477440007e-03 4.325010460095100040e-01
-3.065303109644948454e-02 1.482808140690469040e-02 4.312945333837954198e-01
4.756542699546532915e-02 8.707944543346784680e-03 4.508002929040389462e-01
5.430369468942300437e-02 4.705970580786695417e-02 4.830803116679330822e-01
4.715967349407004794e-02 4.291979394562556172e-02 4.517131613609828289e-01
1.120426992104940622e-02 -1.125795665415965478e-02 4.339886930602436244e-01
1.561746181996183022e-02 2.469938268240602294e-02 4.279269849536044279e-01
5.776887639057911444e-02 -2.248891544311485899e-03 4.921204287883059192e-01
3.992208123093179961e-02 7.172430164635383576e-02 4.557062195765008705e-01
2.385341684290755507e-02 3.102675365895815260e-02 4.339813660315597899e-01
-8.877996964658237816e-03 5.034805095687469589e-02 4.162227976707467691e-01
-2.212860037651570317e-03 1.119609913920433311e-02 4.251046593127125739e-01
5.666770945360227740e-02 3.489657776222761937e-02 4.679285232210663170e-01
5.070289395928047338e-02 4.600075947030761447e-02 4.556314307949811404e-01
5.091713484885775076e-02 1.191719642251281783e-02 5.004397974387975179e-01
4.149559874755304884e-02 -1.537333189988213111e-02 4.479982889232498322e-01
-2.444846050263808912e-02 7.274910957673949574e-03 4.311365798053534704e-01
4.590889993757146792e-02 5.483258146513499132e-02 4.967544962200037828e-01
-5.815778134889047594e-03 1.226450885964926879e-02 4.241120499738155747e-01
-3.209452627106953310e-02 3.255378333778106981e-02 4.249040292571612532e-01
-3.809184548014457605e-02 3.309934875185684394e-03 4.408801930900275723e-01
2.284953262248069078e-02 4.906466228003594776e-02 4.325561798230999622e-01
5.057116395841262935e-02 7.439481687685033443e-03 5.055395062496589320e-01
2.329080907194620853e-02 -8.139486478218082785e-03 4.358820580295806879e-01
6.970418465620999149e-03 2.591933754259612144e-02 4.179831918752215381e-01
2.212511633923571266e-02 -2.272954652716642834e-02 4.378260653670179026e-01
1.248365606813007806e-03 2.519470807362219483e-02 4.118458971024530069e-01
-1.245685773180864493e-02 2.260493857586976657e-02 4.189909196862341423e-01
5.689452046455699755e-03 -1.085667966903608190e-03 4.316621733098724434e-01
1.257469203579416293e-02 5.104797104510579858e-02 4.244765623891859629e-01
6.312831458507265660e-03 6.039818001241350348e-02 4.280177491024171332e-01
4.859669923350248139e-02 9.724920444191694456e-04 4.529282041986912311e-01
9.916217047639596868e-03 3.360471286985125539e-02 4.176279641092277561e-01
7.319267603797662870e-03 3.248157147152957308e-02 4.124563626577253395e-01
3.631491209033983758e-02 6.989120090681703867e-02 4.529857433519872689e-01
2.831358009166164841e-02 2.047705240753138270e-02 4.371414010501742942e-01
4.679504372406056295e-02 6.255946349592157729e-02 4.566164850398934938e-01
3.590744898606167135e-02 2.114342236985175538e-02 4.415427854640479599e-01
5.695537404407407384e-02 2.084738033481347078e-02 4.710235983186191744e-01
-8.608797587185388917e-04 9.271360531456700887e-03 4.263944552736438354e-01
1.425115045475374397e-02 -1.583305707303528029e-02 4.360011364401666367e-01
3.918098402547084275e-02 -1.965215409363589572e-02 4.468803942752734848e-01
5.712539103016979480e-02 2.121393637289155365e-02 4.741103357953547204e-01
5.058569246392846663e-02 2.002837040169518773e-02 4.996705541101919557e-01
3.680557561343757167e-02 1.011513560479913865e-02 4.420880308402599379e-01
3.922268773842504941e-02 7.457412309089948149e-03 4.439993022746031581e-01
1.055693101529323052e-02 4.708303573613190074e-02 4.217876594567165904e-01
2.527167148272113639e-02 6.433542127056897375e-02 4.423326898056979539e-01
-1.880953741196404738e-02 2.673169963517371336e-03 4.306886905843742008e-01
-3.751237458093754223e-02 9.354694913924039516e-04 4.393547435125546019e-01
4.381388869645757439e-02 4.302421632510518290e-02 4.483212543534221828e-01
5.022219250570245791e-02 -2.052834065633632812e-02 4.651493252139316525e-01
5.539028064890234859e-02 -6.640799219325079980e-03 4.716203777431001165e-01
-2.301185784593766381e-02 1.766617067006374595e-02 4.253335955785972344e-01
1.999621719033443934e-02 1.438526931562593425e-02 4.330441842606316816e-01
4.152304886120086053e-02 -4.640922262122561086e-04 4.465317150321829187e-01
4.201616374416168587e-02 -3.211201163117684623e-03 4.472370876988575605e-01
4.560536337990525602e-02 5.139986026876727787e-02 5.050245606834603551e-01
4.610007972891464606e-02 2.511183130620011500e-02 5.114933614758628844e-01
4.959647092509487931e-02 2.735462213057213154e-02 4.530704532233459370e-01
5.219537686231677520e-02 5.436771954649605165e-02 4.608252541480510889e-01
5.692659948774354828e-02 1.601956774003938933e-02 4.785645815600523267e-01
5.280586634766075427e-02 2.641186207591617735e-03 5.068863383350927787e-01
-5.247924508753215936e-03 2.399739495025817945e-02 4.140404668884383743e-01
5.614708654993437464e-02 3.969594075694713592e-02 4.766289662161840024e-01
5.814491507640190404e-02 -7.969284438078079111e-03 5.052869492346127034e-01
3.011248640798536505e-02 1.219938430188510781e-02 4.381144997609631719e-01
2.806301390147205449e-02 -7.235048885796975700e-03 4.372800819397471561e-01
4.471941367599401029e-02 4.584204537399830075e-03 4.486689060458007861e-01
4.722961600203993970e-02 -1.291076462463346813e-02 4.560358806225467965e-01
5.745898875148600787e-02 -6.871939283923616908e-03 4.816365119065392220e-01
4.809460924336029369e-02 6.429763794640271091e-02 4.634895625544851461e-01
-1.462364348144243494e-02 5.999410832989694742e-03 4.279833633311310725e-01
2.062606920423486895e-02 6.231289476147203188e-02 4.425679087689559088e-01
4.862457035274798250e-02 4.895686788027577702e-02 5.033921682145667820e-01
5.009253353224209226e-02 5.601465013140969479e-02 4.859276741461936444e-01
3.904862370498330543e-02 4.997567206713338095e-02 4.448851612490753449e-01
2.902002040249173492e-02 6.473989312148583004e-05 4.381969145111531683e-01
-1.991569129064687388e-02 3.306022835395472891e-03 4.304932454768935490e-01
5.169318178657823781e-02 3.468947692340859125e-03 5.086595357662243577e-01
1.427046473704726010e-02 -1.548300393175792988e-02 4.359074056260848762e-01
3.124196841074272646e-02 -7.929531731756291058e-03 4.390173733161322200e-01
4.711801884953777803e-02 -4.760834348862196322e-03 4.531485196252613701e-01
4.820917614357939779e-02 7.343066464572899771e-03 4.514887725133505114e-01
-1.942137776317965497e-02 6.215883615530034233e-03 4.288769742379318628e-01
3.388071333552623854e-02 -1.084540755719968011e-02 4.410332126984116141e-01
3.067373504538780868e-02 5.934496321812693376e-02 4.415198083146038011e-01
4.918914055166705157e-02 5.399760066562670630e-02 4.547709014662368321e-01
4.246172583611027701e-02 1.849553408680800620e-02 4.463371705071499940e-01
-1.237825517140576405e-02 3.893995857390228355e-02 4.123722542939595725e-01
-4.266927484218779876e-03 2.007007783075947724e-03 4.300079151505451502e-01
-1.031377657385336086e-02 1.934332360572161430e-02 4.199239863627591274e-01
3.414659723487803097e-03 5.017646862022140386e-02 4.169065377503979875e-01
4.652649584737101468e-02 5.216275790143625607e-02 5.012384721632309192e-01
4.629216911602228313e-02 7.013781956391523451e-03 5.151074413401121044e-01
-1.410682334376052449e-02 4.530930652278917364e-02 4.140541302312511496e-01
7.317842021990596593e-03 7.933010268756569838e-03 4.300359051468855554e-01
1.615987207340793819e-02 4.710053218291395533e-02 4.271959333538146164e-01
4.258039371317243194e-02 -9.754744285713917024e-03 4.486096919466881494e-01
-3.828857944082534118e-03 1.520921017800057860e-02 4.224639208823022241e-01
2.890059512864445387e-02 -2.129066984473083207e-02 4.401647229871936684e-01
2.869560661809414728e-04 4.440587101288760025e-02 4.126629597235718094e-01
4.629801590279062490e-02 4.382968215375468435e-02 5.104590528162484819e-01
3.427229565996695732e-02 3.975617327829097242e-02 4.413182542106553474e-01
1.435008400993588451e-02 1.241675066908245507e-02 4.311512932164963119e-01
5.511447217347974215e-02 4.679309870380795461e-02 4.728133841597558229e-01
-5.440645057866205780e-03 4.971818918833825762e-02 4.144020792456132307e-01
2.171268595647731642e-02 1.206362822665300351e-02 4.342770155970660517e-01
5.733633489503104502e-02 -1.330306583530868874e-03 4.928802332585294765e-01
1.565075259355016429e-02 6.045379184666033884e-02 4.373325931501636510e-01
5.121614649988615042e-02 3.379708729833318104e-02 5.017138744256834926e-01
5.709028948309583656e-02 2.037864947312925668e-02 4.756442447472591373e-01
5.779615828772384153e-03 5.149297336642073147e-02 4.187697175415385220e-01
4.685207889804435949e-02 -9.867347561657611316e-03 4.546736318077495564e-01
5.581748419790057147e-02 4.283802556954301177e-02 4.726628458109048414e-01
2.843972280499376670e-02 -2.456642527503571580e-02 4.405605461916486942e-01
1.013664175449323010e-02 5.978944310210939500e-02 4.284295395171577869e-01
3.828724630645344990e-02 4.957853202039226581e-02 4.443266367325617860e-01
3.883151818889416657e-02 -2.305421553624663680e-03 4.442910456056370916e-01
1.836917255560669912e-02 6.223731341989852811e-02 4.427929339280664567e-01
4.789554157276982443e-02 3.874827986725908752e-02 5.087056509677730931e-01
5.297139637597760714e-02 4.524927304060714223e-02 4.583117529962651426e-01
4.116454576892396300e-02 6.752011489475866213e-02 4.759030275039753954e-01
5.055226660952433226e-02 -1.344620828489664563e-02 4.634054742368109436e-01
4.658765531185797559e-02 6.579309939301196397e-02 4.613017289157110845e-01
