4.523187448650497350e-02 4.095534548503786121e-02 5.131869071447072717e-01
-1.050377785143956702e-02 3.757894788316734711e-03 4.285311826945484848e-01
-2.531782814026545952e-02 1.258660493549484775e-02 4.293101397783409268e-01
-5.845505738247059376e-04 5.299793300743305124e-02 4.162299101707691573e-01
4.198960043954148326e-03 2.455484485490446248e-02 4.125432190206506089e-01
3.123502954777481952e-02 -2.264948917614755669e-02 4.415395955619626500e-01
2.108746275872927164e-02 3.550919484963569600e-02 4.300286454218589793e-01
4.038397796703745851e-02 4.471842035077236432e-02 4.447790011094086560e-01
2.407009994033236684e-03 2.291838357323413775e-02 4.144648090541621643e-01
5.392943365360739622e-02 -1.439345231975009028e-02 4.707403675671153476e-01
1.889859088029342132e-02 3.167241076354204710e-02 4.282459427709618960e-01
5.256948565355518826e-02 2.404052344456713078e-02 4.966545491833156412e-01
-1.086016627031865037e-02 1.939036622078549321e-02 4.199874233703403958e-01
4.412247497310127498e-02 6.830006042241651421e-02 4.608639418523778897e-01
5.121784811827824468e-02 7.079251685188098914e-04 5.131747366445700287e-01
1.272623750325464244e-02 1.559780191129908102e-02 4.282735980857030333e-01
4.816144598457163667e-03 4.940404638255059544e-02 4.158366934870302845e-01
3.707928568098603495e-02 -9.325908714994874879e-03 4.430614574000784067e-01
4.553900657007940722e-02 4.889808654655795200e-02 4.492247044886319984e-01
-2.164664389754248838e-02 2.765533637387621729e-02 4.200846772853253919e-01
-1.848065467962973010e-02 1.310016805170550330e-02 4.256266737189626781e-01
-4.100494758893821756e-02 2.623398673980622490e-03 4.413395366099447936e-01
5.754547695512030048e-02 2.996943402563388009e-02 4.809558585302544098e-01
5.527144655478173629e-02 -3.159339735145124620e-03 5.108431836166410500e-01
-1.391461935604698316e-02 1.189304176831175799e-02 4.248720848527189342e-01
5.422339006022428715e-02 4.380400179751826883e-02 4.938503966445927373e-01
5.730351871280513210e-02 3.338844980024758408e-02 4.823450746297199832e-01
-3.619138713694687592e-02 1.799819468209096218e-02 4.383686698973169316e-01
4.118526360682574217e-02 4.727356099603633593e-02 4.454549015184104954e-01
-1.711257365806515690e-02 1.818911960056876498e-02 4.227135117447535229e-01
4.797933640183932313e-02 1.037733461395492010e-02 5.097352691242483802e-01
-1.873675648287795314e-02 3.339265313594910745e-02 4.164271190367502817e-01
4.267806104039557208e-03 2.750852211004669798e-02 4.083518736009579819e-01
5.232844859844097002e-02 4.494285329745821567e-02 4.988608901102646320e-01
4.799073063702587877e-02 6.550146092348575755e-02 4.713932237182864027e-01
-3.931373753005563965e-02 2.975128450006539471e-03 4.471846524965302216e-01
3.198334607191892845e-03 4.517116372896882309e-02 4.125306794572350944e-01
5.224028628391706730e-02 -2.085665606106946318e-02 4.691021527646319633e-01
4.874275492282558603e-02 5.045912075653410933e-02 4.526906866411072317e-01
-2.666359388600240618e-02 1.733452520101369868e-02 4.272620725266031982e-01
5.450516580791495841e-02 2.777442170820508538e-02 4.588874365007279965e-01
5.787547189841436845e-02 3.052942231993142908e-02 4.723600809149261504e-01
1.309560668679043798e-02 4.377472987723866893e-02 4.216353377492371157e-01
5.553108081708430128e-03 5.248790881718390366e-02 4.175866856749474998e-01
-1.264556360905085691e-02 2.022142633216059138e-02 4.201084154577892082e-01
3.090914840799935046e-02 1.508781027259012766e-02 4.382048304107885595e-01
2.489435400097914433e-02 3.470506588620261845e-02 4.333590855319514046e-01
5.062494867503351120e-02 2.013290756619893693e-02 5.004462024311414625e-01
5.355776362545049823e-02 -1.497151963820001798e-02 4.701159834483610855e-01
5.125941366880169825e-02 2.689675313116508468e-02 5.006969274721329022e-01
5.605970527026669925e-02 4.462596604873735745e-02 4.690253932381097113e-01
5.227736638503370503e-02 3.003728502391681335e-02 4.994587801166351371e-01
5.707673522137196587e-02 2.306765113208399803e-02 4.652026759707024728e-01
4.770745335515681751e-02 1.941674161962007872e-02 5.080847336164693306e-01
4.978268864456481674e-02 5.663121768840610748e-02 4.555229638917627222e-01
4.666292651502120664e-02 2.553887250421246063e-02 5.110698844833897470e-01
3.470426674600476241e-02 2.562350373485755561e-02 4.404791802597294303e-01
1.468310562180382382e-02 6.165669717618007389e-02 4.409780338427449764e-01
4.514641500436851473e-02 -1.005666373621752138e-02 4.516600942359911830e-01
5.299195626686487026e-02 6.935176836456076639e-03 4.990554138933485095e-01
-2.263440464137572022e-02 3.317808314779412127e-02 4.184977428567935864e-01
4.897640207953037061e-02 6.446085925563058150e-02 4.724101160624082918e-01
5.288980753700463222e-02 -8.076723751450895494e-03 4.654840383493967781e-01
5.758338644911308035e-02 2.116948049920320402e-02 4.729253889632623054e-01
5.779361439651226062e-02 3.057990582698878745e-02 4.692302797122283597e-01
1.579801496682495601e-02 -6.607957411196721878e-03 4.336266982163710648e-01
-1.840083127584792380e-02 4.009978360831922828e-02 4.141887311634588897e-01
3.398515407881713690e-02 5.588313794887485308e-02 4.412453978096499418e-01
1.400853436626695210e-02 5.275432104083670887e-02 4.247347176649845513e-01
2.590385243592481859e-02 4.424208588595678060e-02 4.337366676050439240e-01
5.101268550404249036e-02 -1.620149505684241251e-02 4.651286763629969290e-01
4.425176605933098251e-02 2.473868991882489585e-02 4.473944930474911819e-01
1.543500795832645350e-02 -1.714073826489077856e-02 4.362100052423164565e-01
5.466304468926704019e-02 -3.822623074123406451e-03 4.671252686634405626e-01
1.038503850441719820e-02 4.411522586042133931e-02 4.183707132830467024e-01
1.267091001466407948e-02 2.136292872498295886e-02 4.249191450258945624e-01
-5.593730974711630735e-03 -7.529110676612259592e-03 4.322099932893828655e-01
3.068169232832189397e-02 -1.463018049350289784e-02 4.394366439832054216e-01
5.701617369191467471e-02 1.976716137864491935e-02 4.812374661680511867e-01
8.075188955478495439e-03 -1.487082042629738268e-02 4.357049622421498292e-01
1.216983844965566046e-02 4.192205506093048262e-02 4.201022145573504729e-01
4.705747777876929938e-02 5.209604118660522698e-02 5.006516355831368559e-01
5.307853821050943083e-02 5.269455317473120681e-02 4.838226355214585439e-01
1.803562520782248796e-02 3.525937048106242422e-02 4.271227719726098937e-01
5.476719421224219425e-02 4.955720134533866256e-02 4.789996897389623975e-01
-1.442579780582124369e-02 4.041231023827120822e-02 4.128343538853057049e-01
-1.290889451363637884e-02 3.698856336271332760e-03 4.289317501520066855e-01
2.567274304375370339e-02 -1.018926306714588483e-02 4.366968159818060413e-01
-2.874578297965907012e-02 2.167166859290388381e-02 4.261295012194800669e-01
1.990122070041371732e-02 2.146285645431417893e-02 4.306921504518056443e-01
5.119863119367021320e-02 5.822715395316035991e-02 4.602968339351928839e-01
-8.335719638465550509e-04 -1.082470657164408268e-02 4.327026988735543922e-01
7.968211646103319501e-03 6.165228811170771206e-02 4.328209860203542370e-01
1.991700948021264336e-02 -3.157950714420744431e-03 4.343925928193853592e-01
-2.160166648442119267e-02 1.496193482103102754e-02 4.259234795701509202e-01
5.565588143758398720e-02 3.691836613728659289e-02 4.913343516672800115e-01
5.915810155983743795e-03 -9.572014392135565555e-03 4.328485583007633530e-01
5.800804871347123998e-02 -1.388338667300049447e-03 4.872276942086812834e-01
4.906314826650837874e-02 -9.344564020527686837e-03 4.576885719904552063e-01
5.525005343696771931e-02 2.941232291300037091e-02 4.922930707089380742e-01
-2.106546870866314591e-02 1.452123367951624507e-02 4.259222057715039145e-01
-6.861095406672222154e-03 3.671547663913952292e-02 4.104239717786881680e-01
7.263910629000225327e-03 3.007402457039758115e-02 4.101900000998830453e-01
1.069497534559398985e-02 8.044442006957001554e-03 4.306481189820159927e-01
1.218000180467675858e-03 1.653227888746691687e-02 4.215816293740541898e-01
-3.237492098332357682e-02 1.410098499032903623e-02 4.331436037504319825e-01
6.318519048561110733e-03 2.487640404131528926e-02 4.152882158904075416e-01
4.970336884051110293e-02 3.660529553104386550e-03 4.531105563380447010e-01
3.594905174880246718e-02 6.633041000037824021e-03 4.411117171196139441e-01
5.510919661844341372e-02 3.891267641633103756e-03 4.963749089353947652e-01
4.422527854074036896e-02 9.101319012859716839e-03 4.474417420782783039e-01
1.233354563476019017e-02 -6.151700706671319081e-03 4.328741949513978948e-01
3.549500719659690051e-03 2.557624276290660498e-02 4.109400460668365396e-01
-2.757410542654154667e-02 3.140469670636601707e-02 4.219212247054212050e-01
4.350802541685518110e-02 6.694029189768174737e-02 4.761431134787388331e-01
5.700438792792363041e-02 3.675117498187977731e-03 4.867098916220312099e-01
3.759575962382374209e-02 5.020541568984830672e-02 4.429824210664350947e-01
-1.045014598210094493e-02 3.674623797604891634e-02 4.119928449609295273e-01
-4.014712722373195430e-02 4.577290663949167265e-04 4.410827798694588742e-01
7.883477439538490519e-04 1.957965077548120755e-02 4.185512315342237444e-01
3.567155508345891402e-02 1.819910867425182655e-02 4.408828349588718720e-01
4.366758908281418057e-03 5.623081591585947156e-03 4.297312635935940928e-01
5.205609778834285190e-02 4.901065110287722293e-02 4.562802291240414809e-01
5.728190284477924221e-02 1.441464433979709400e-02 4.754778941375750745e-01
5.539459742934715880e-02 5.208190939882810164e-03 4.655989948276738621e-01
3.892717641538614992e-02 7.070566859093545264e-02 4.541154841969494149e-01
5.617124004056550657e-02 1.193754475044899246e-02 4.844590303635860074e-01
3.742192088829659341e-02 -8.601413241243867358e-03 4.432546168231031869e-01
2.630518780270151361e-02 3.709652784839750830e-03 4.366080046948558890e-01
4.755718613683024981e-02 2.239053140299557959e-02 4.503914172291543783e-01
4.889033687388222305e-02 -1.697927603328580268e-02 4.606697624554883519e-01
-3.055594225311376519e-02 1.012945295985230587e-02 4.339245971198684160e-01
-3.106885714578155877e-02 9.371379033403130082e-03 4.343359213653906759e-01
4.777236240835998349e-02 3.640847347199167860e-02 5.093041961515206717e-01
6.482803539664553152e-04 4.718735864890010595e-02 4.124325545104321478e-01
-1.021282806567418633e-03 2.747843863940714615e-02 4.088132915009790591e-01
1.874406175638977656e-02 6.067405129828110089e-02 4.380071228819027995e-01
-2.194181713668844069e-02 3.205613548979029115e-02 4.185419090178984503e-01
-1.270281173712811858e-02 2.780557029632610769e-02 4.164374044322381452e-01
5.475970797777154203e-02 4.713187402813871774e-02 4.839874224541632075e-01
-3.772147787048262674e-02 8.994252572305354038e-04 4.395447151869515956e-01
5.252813541967397276e-02 1.334702538298977552e-02 4.958596388121097043e-01
1.256799876198981016e-02 -9.545146442034196585e-03 4.336303335385702784e-01
6.523113788177955716e-03 2.618015593637618155e-02 4.134798367349427628e-01
2.321238307041463902e-02 3.985143216531397692e-02 4.318010384840345051e-01
4.698740893632000204e-02 4.002977262501176275e-02 4.503817837412660285e-01
5.684494347480673754e-02 2.131574301621384348e-03 4.728057165799132711e-01
5.660898194777994052e-02 -2.850726200829786436e-03 5.025578145577324074e-01
7.472983459036980185e-04 3.887010360450497692e-02 4.081498903221414953e-01
5.574979878830770008e-02 1.914628921611590678e-02 4.621520130413415139e-01
5.691381183168278679e-02 -6.873199156408365401e-03 5.124849674379140518e-01
3.691791889479378863e-02 3.979158437375342541e-03 4.421761162108849841e-01
-2.439971710300182367e-02 -1.875100755499594946e-03 4.340953489092081452e-01
3.927508508493748884e-02 1.696371049695987593e-02 4.433661805792601385e-01
5.543331451853303338e-02 2.637152428746152716e-02 4.908636613344051769e-01
-2.146070097652462774e-02 4.021725428678162018e-02 4.155274653433616017e-01
5.236388196220988223e-02 5.049463043641559679e-03 5.043769496761048021e-01
5.685900849552334713e-02 1.604224814864375209e-02 4.669122824042059583e-01
5.730954729306223655e-02 2.089391566944010306e-02 4.678717404868975582e-01
5.688621220937743056e-02 5.729980825822933443e-03 4.854323513047132943e-01
5.556074431331307906e-02 4.496314423525463178e-02 4.639182509652189368e-01
-8.573038180085961607e-03 1.683535612519805602e-02 4.208732812132077172e-01
2.727223365249833650e-02 5.154278031889870243e-02 4.347202039108095661e-01
4.756859045885224874e-02 -1.577972718942825467e-02 4.572239688372407573e-01
1.161881331441058304e-02 -2.220784675046515166e-02 4.375707661978214258e-01
5.717744333636962800e-02 1.508666561934308113e-02 4.708833527877808733e-01
1.355397108680717055e-02 6.159072735413698152e-02 4.390522116299196975e-01
3.962410585449692435e-02 5.790856141930145196e-02 4.459869378648208538e-01
4.818833079293482341e-02 -3.290124870120963736e-03 4.535529813111265351e-01
5.390562876753155624e-02 -1.505225453804210148e-03 5.110972181716857410e-01
6.523078795298356547e-04 3.905739873923012861e-02 4.082590785275276302e-01
3.279696324598103951e-02 1.118765942422251559e-02 4.387784241423441367e-01
5.708463391872642401e-02 3.685738603773854732e-02 4.776902914003022804e-01
-2.959114720402450729e-02 -7.836508261437925837e-05 4.352767442506838003e-01
-5.683442400542801538e-03 -7.513185685139585172e-04 4.306159630317756837e-01
5.717466106883677818e-02 1.160268750686532790e-02 4.791481208009851778e-01
4.906345844860847405e-02 4.288564322347093033e-02 5.066937447751995727e-01
1.761170288073818369e-02 1.742535646482918331e-03 4.338080715646701058e-01
4.773485611274761592e-02 3.996337767382775880e-02 4.511743910072233410e-01
2.057829319691418038e-02 6.256164421607850190e-02 4.428505108027888659e-01
9.811844721609872672e-03 2.278161543715002263e-02 4.215502360315424024e-01
5.512777569441030395e-02 2.637248420128793930e-02 4.602774911283524784e-01
1.612616402482794711e-02 5.999080002091734115e-02 4.329147651268456243e-01
6.542679979998259655e-03 2.588263746675574517e-02 4.140302579903950564e-01
1.142569987507610629e-02 4.546603533027160360e-02 4.201530099664455564e-01
-4.053263153022348964e-02 2.602433414444050609e-03 4.439070737444622550e-01
3.873889709860844736e-03 5.041527973768601678e-02 4.156687878905241385e-01
3.767106680869930502e-02 1.730201033785726608e-02 4.421703079336563591e-01
5.450349568039634940e-02 -5.522950387088855322e-03 4.676591405643526489e-01
5.278312437725136974e-02 9.321202357776397704e-03 4.571447174715915218e-01
3.775037931761467819e-02 2.504528342773305535e-02 4.423803863156461902e-01
5.398738209885609041e-02 2.469983890587457154e-02 4.578806915815792355e-01
2.220675474834062774e-03 2.322856739392016243e-02 4.139804375308828721e-01
5.444782516888103940e-02 3.968476085374328388e-02 4.952173327875419306e-01
-3.278372421733072306e-02 2.883608484630273416e-02 4.267082382331036650e-01
5.369584931919205162e-02 5.612879196993888521e-03 4.988313775742792000e-01
4.880093624426000767e-03 2.514304645868235474e-02 4.118609934211160395e-01
8.264591759038332139e-03 2.410220670948057947e-02 4.191634871851592781e-01
4.851932819727608481e-02 6.527887652614276781e-02 4.651364879520141216e-01
5.439239745685611055e-02 7.872854312537123228e-03 4.940867435255786311e-01
5.669824320020865754e-02 8.344920248787286374e-03 4.705313009605086583e-01
3.083781417181711421e-02 4.719553107759528326e-02 4.376994430765444588e-01
5.260548772203287038e-02 2.381313370715720454e-02 4.553738796020850854e-01
5.585454383639867210e-02 3.200248139035806461e-02 4.619927427924864216e-01
3.613636574440558247e-02 6.730614793025871401e-02 4.505534270759392612e-01
-1.035503880419726477e-02 2.276838150850808706e-02 4.179910590671147008e-01
-1.067715749406981073e-02 6.390518898398623270e-03 4.268211166436937098e-01
4.979916298719488238e-02 6.395130696219719635e-02 4.691623045327900643e-01
5.774478032439430558e-02 3.374213338317647026e-02 4.734547908148440398e-01
4.773556977976833871e-02 4.883608632474710498e-02 4.515558467909885354e-01
-1.835894367996738011e-02 2.900138957619686694e-03 4.303514134729085616e-01
5.441987538212946646e-02 2.319927601295684177e-02 4.919404168591079984e-01
3.073353670110084285e-02 5.850597792509623640e-02 4.400497516732899683e-01
5.319879175320650633e-02 2.446841354358113285e-02 4.560858851220072618e-01
4.568735827320036941e-02 3.909876864683896336e-02 5.127996499439630984e-01
5.080493439786142040e-02 6.177455676344028451e-02 4.690170700889599309e-01
3.994989743812970423e-02 3.416228383702479832e-02 4.443627464495601420e-01
3.927494489711930853e-02 3.798464120679864719e-02 4.438974663938972665e-01
4.454577765554155154e-03 4.407462076954989788e-02 4.129559732812541073e-01
3.437208502843724228e-02 -1.711686952520972624e-02 4.422253938364101300e-01
5.033631386683611736e-02 3.540735690706534738e-02 5.048235790870556627e-01
3.929833204959036486e-02 4.174464202533449686e-02 4.439569437919898554e-01
5.398405256143433417e-02 4.293437187308664360e-02 4.962843660790199896e-01
-2.185972568469141467e-02 1.932172482568919256e-02 4.238911969206503039e-01
2.968573558727253051e-02 3.475204583661220537e-02 4.372431627193043013e-01
4.066891310260591086e-02 2.234188327059045964e-02 4.442633356885875018e-01
-4.340369748484181750e-02 1.034641673695746314e-03 4.427089111195778859e-01
-1.766366855679055159e-02 1.587820261913960515e-02 4.241110412499807802e-01
2.732239387508225356e-02 3.574667555963476073e-02 4.353065512085169120e-01
5.758485222535072307e-02 -7.607054592462220155e-03 4.816057694765660258e-01
5.506234316934715406e-02 4.432234678563506947e-02 4.617896411390924882e-01
-3.000705282212397240e-02 2.636130566930596289e-02 4.253855400316850499e-01
9.126481185155828693e-03 3.348493090371210124e-02 4.119474333385359510e-01
5.221685148766398027e-02 2.072350832804381593e-04 5.118745181147663637e-01
-1.903143674511987085e-02 4.371500110112017806e-02 4.146830799882513796e-01
4.651041419895160511e-02 -2.152755044229430828e-02 4.580024355381713819e-01
4.453060679395012822e-02 3.363483525527050100e-02 4.479162142284068282e-01
4.451644668895349960e-02 -2.325402617951231876e-02 4.556937016238569726e-01
5.283474816505232680e-02 1.084125128911290169e-02 4.967463604353650197e-01
-1.424891268235902418e-03 1.213978150835934994e-02 4.241465650700511625e-01
-2.257124554946386349e-02 1.830052933103084450e-02 4.246917017764988422e-01
1.073268454439714123e-02 4.832808923044946969e-02 4.202795272651553282e-01
4.902518713038930831e-02 2.998287765056468351e-02 4.519013016954658291e-01
-6.450162925777651324e-03 1.773033483799675222e-02 4.193550457199495818e-01
5.300417708464256333e-02 4.479453994380523663e-02 4.970218028788749298e-01
-2.629910726353212012e-03 -5.396614680406300844e-03 4.314206093944084053e-01
3.113907182584229813e-02 6.267730698775236808e-02 4.428464887627768243e-01
2.617451452965540229e-02 2.899292273739695336e-02 4.348789024354879906e-01
2.538519529733673091e-03 4.066212610749058570e-02 4.092556912819418358e-01
3.574278057311865847e-02 -3.051926646798831105e-02 4.486504965092306119e-01
2.989164087661537808e-02 3.594358715095107015e-02 4.373742509840097270e-01
-1.411959229184907814e-02 4.204014922925905506e-02 4.129253705639689964e-01
-1.363771547747827557e-02 1.131894003291022965e-02 4.250929432890999671e-01
-4.037374162585843917e-03 1.863479039817250715e-02 4.183002033191484115e-01
4.354221621625880244e-03 3.836829584465856896e-02 4.101729971196739766e-01
2.629449919424962229e-02 5.720736192881873544e-02 4.357725360018634420e-01
2.843523900520281492e-02 4.308794990771996902e-03 4.374246596495494077e-01
3.239563365269754885e-02 -2.502462614598665452e-02 4.432404688581765839e-01
5.239326714903692200e-02 -1.492722070758796191e-02 4.675802005532420091e-01
2.933895392381561523e-02 6.496588680992483600e-02 4.457069309772307975e-01
4.395224298319396622e-03 1.172392716185797872e-02 4.263032148788191145e-01
5.381952347808455911e-02 -1.557990928854402143e-02 4.712104539890781818e-01
-4.739273173259695229e-03 -1.036782895729708269e-02 4.330345352759091271e-01
2.463789129839498437e-02 1.907068039220123634e-02 4.343575068090410052e-01
4.291886256186668025e-02 3.270483530907437875e-02 4.466094232509659201e-01
5.302176227120058288e-02 3.566579286591775588e-02 4.992878901673626357e-01
4.435762426176013268e-02 5.336366089403183494e-02 5.011806059748371567e-01
3.507539215092757290e-02 1.209534015013521632e-03 4.410779303869425960e-01
-6.672236730573596203e-03 -1.056890484366978036e-02 4.333437573764073458e-01
5.086277015532807144e-02 5.925836239773268205e-02 4.609468029518256071e-01
4.162292118510513977e-02 7.061220177386810792e-02 4.554482866109223482e-01
4.988428014431162821e-02 6.234450113547728572e-02 4.629964307824668279e-01
-3.256151519316925497e-03 2.545700933174169581e-02 4.121409546612606611e-01
4.743908330368036552e-02 5.086821723350481994e-02 4.513246595956373342e-01
5.339463343365523362e-02 3.799844471325551643e-03 4.606322217638796346e-01
3.844184086656255578e-02 6.718940269553681788e-02 4.515011851880888494e-01
4.976171146136800297e-03 2.426546127901852215e-02 4.135441777700269994e-01
1.963075879512720789e-03 -7.315005842891974391e-03 4.318532000588390929e-01
5.623564553962037693e-02 4.410511487813971454e-02 4.734892159059985728e-01
5.647779344856729972e-02 2.082042477292864874e-02 4.850515888627584538e-01
5.018192113502409346e-02 5.421823449278415086e-02 4.915165638370118106e-01
5.270170603539375831e-02 -1.361059572287887619e-02 4.676622156581833889e-01
5.701050974573315666e-02 2.075981665694311834e-02 4.654006148662959141e-01
5.677688792099335607e-02 3.625252655643180361e-02 4.659292427948260040e-01
4.885947157053064510e-02 1.810396608971553880e-03 4.526273152961752255e-01
4.467503455541970564e-02 4.773903305154428983e-02 5.120525621699318908e-01
5.259731616372378959e-02 4.319626124159577085e-02 4.996278485708584571e-01
5.335954788782509145e-02 -1.706292865968344480e-02 4.706750176864853974e-01
-5.132699811474972403e-03 4.187209836687914161e-02 4.106503460729662991e-01
1.362749573850807402e-02 -1.730127783910650509e-03 4.328122194640552922e-01
-3.922270956500028757e-03 5.573424842957204473e-02 4.213327987948308762e-01
-1.957262320873243838e-02 1.281909716723995257e-02 4.261141530643433040e-01
4.063291289279996610e-02 9.676891591406663190e-03 4.445469694490449264e-01
-3.851954014925928430e-03 3.467381656708448667e-02 4.084149057854494780e-01
4.106605064577374675e-02 5.398238438106093412e-02 4.462924582774862592e-01
5.444428343482356214e-02 4.050418158250772976e-02 4.951107817970111791e-01
5.148531673712909013e-02 4.519677001516791276e-02 5.010796430421216030e-01
8.722389193518519449e-03 5.766686090541710275e-02 4.233396689846938843e-01
1.787917732898732653e-02 1.155595597645637899e-02 4.324074762101264846e-01
4.632873252360860533e-02 -9.628311375147224557e-03 4.533788716543649677e-01
2.826061255586399465e-02 1.536633477460878569e-02 4.367112505677872014e-01
-2.514207364833860245e-02 1.107156909787803192e-02 4.298888262186602027e-01
5.142678617996580132e-02 5.822024977815524333e-02 4.609387115962063630e-01
2.988103732627208492e-02 6.644739593265809596e-02 4.516537099071308847e-01
5.710284878258154589e-02 5.819078710599060594e-03 4.836028134505421239e-01
4.659156940832482469e-02 6.586264976523650838e-02 4.595705915977451039e-01
5.743591074566602173e-02 -7.018878414855373241e-03 4.801922921910907749e-01
5.279932159827731980e-02 -6.789898584105984874e-03 4.645601722590181892e-01
1.119404496767477560e-02 2.354897684024968504e-02 4.227824294379310954e-01
1.099303198779871121e-02 4.088226945990659777e-02 4.184144109780650878e-01
5.345600303654118868e-02 2.848831094148761983e-02 4.570434502725677084e-01
4.815834811880004979e-02 5.174504269237718834e-02 4.522552389035934817e-01
5.611490269005210002e-02 2.890853079989247950e-03 4.693665080985312543e-01
4.761683657210055709e-02 2.191789282740687177e-03 5.174327673078488177e-01
-3.359662607728837978e-03 6.269435561611934327e-03 4.274557062595284451e-01
5.367745214929970504e-02 4.939546604007558073e-02 4.876438343278978182e-01
4.782652121386711530e-02 4.421499422525711903e-02 5.084760870546276568e-01
-2.442349332211301086e-02 1.253807570547847000e-02 4.287125116937868241e-01
5.749766158890760176e-02 1.965755219231750742e-02 4.729842818544753302e-01
5.796605025982728282e-02 2.854233748343126126e-02 4.762267497948268202e-01
5.583970142082213262e-02 -2.903783323245171574e-03 4.701298962019604399e-01
4.043251998453523122e-02 3.214337394872243681e-02 4.446499276007401247e-01
3.156629873535728159e-02 2.203998334952595242e-02 4.384497792415515960e-01
4.484332853368332150e-02 5.790806939388695729e-02 4.502382842708394506e-01
2.803718019523647118e-02 7.190023633493470602e-03 4.371394691502177854e-01
5.657055399362474063e-02 3.670854244259393051e-02 4.857995634106768712e-01
3.872520240266311836e-02 6.550745673352645349e-02 4.495741765711581128e-01
1.811211301953897373e-02 5.522423403033124151e-02 4.289155840055345892e-01
5.605571089578501726e-02 3.446228736597378717e-02 4.628963150472452659e-01
4.344551594607601319e-02 6.425527051921167687e-02 4.819995859213984657e-01
5.730913128261183598e-02 3.310043181918659316e-02 4.826154859190465163e-01
5.481797666543041653e-02 4.373761713518575095e-02 4.905983327459212950e-01
1.902977325881050757e-02 3.657235465115901696e-02 4.281994825245442615e-01
5.338853810874730904e-02 5.446241878332382103e-02 4.735873847422527594e-01
3.028519307392879903e-02 1.893621759120097531e-02 4.377239407514703640e-01
4.239307663902779771e-02 6.569592379900963952e-02 4.524909575142384566e-01
1.264182679041170841e-02 1.257652216180978879e-03 4.324378161951389909e-01
5.641714524243679474e-02 1.805435384123336637e-02 4.844504858750945386e-01
-1.861989993120885100e-03 -1.370259640895594294e-02 4.336002356029346472e-01
5.109664029453499234e-02 5.184508948224727382e-02 4.554998416953459084e-01
5.393170500666076561e-02 5.259719341074403642e-02 4.638221828617511977e-01
2.411156717233448217e-03 -1.276944441581355331e-02 4.336035496533320877e-01
5.587527522423735987e-02 2.288576026008141279e-02 4.880814383822706937e-01
5.076546467396780837e-02 5.278778557461479004e-02 4.553207333308039728e-01
3.235213514125562240e-02 -2.620805316447996289e-02 4.437993244421417627e-01
1.677524684205117939e-02 2.075701068641931310e-02 4.283769212005675842e-01
5.201604767361651949e-02 3.487699668581251827e-02 4.556843100785206158e-01
5.454210214792774153e-02 2.782179521145272325e-02 4.935982508971198390e-01
4.652002216646032584e-02 6.010178975988097333e-02 4.863061063485621394e-01
3.168564064436133615e-02 4.388541504644524749e-02 4.384938521440818748e-01
3.681615476224570777e-02 6.728410314063031084e-02 4.505460242701211371e-01
4.121862551456320634e-02 4.931799722411218945e-02 4.455630009703056005e-01
2.847535360741774296e-02 4.203284327862764555e-03 4.374493542907239019e-01
3.322484473669740784e-02 1.856623301333028275e-02 4.394726279434846838e-01
4.005380035928876592e-02 3.319825632479717070e-02 4.443978637538600895e-01
5.457715950748340955e-02 4.701374765243777898e-02 4.858007230928844677e-01
4.517698187236117435e-02 3.454384431191889065e-02 5.138412643431761184e-01
-1.745205971822666718e-03 5.674991283103593409e-03 4.279360231439732765e-01
3.374134925931959045e-02 1.690181007487467219e-02 4.397974314240710170e-01
1.379414054472045091e-02 -9.650097662262751425e-03 4.338007464332468976e-01
3.340780687408431010e-02 3.094462639271196303e-02 4.397496615252713403e-01
1.347782205213148400e-03 3.495070496414326433e-02 4.061291495808649343e-01
1.943932245750527518e-02 1.306549212742164068e-02 4.325036258596661187e-01
4.742215816393254013e-02 5.426249036270015813e-03 5.148203562863604699e-01
4.750648870879218416e-02 3.764256351090242841e-02 4.507761510222880186e-01
4.897504595407545930e-02 6.496248262756958158e-02 4.675622177843292149e-01
1.249732141537119104e-02 1.652274136543946045e-02 4.274824918915912098e-01
-1.067205624849938868e-02 1.376069168126381253e-03 4.302229419369185681e-01
5.378476204508651076e-02 3.259660478114773802e-02 4.968097602172075189e-01
2.134771058379043157e-02 1.885605781571781173e-02 4.323762131685297549e-01
-2.725367156815353131e-02 8.261961654164618266e-03 4.324496809463821423e-01
-1.069048958506247336e-02 4.730371213559565052e-02 4.127665940498517205e-01
8.161741417122923142e-03 3.646273857432954374e-02 4.125663409185026387e-01
-1.508678798449657882e-02 3.825758786153880125e-02 4.133924925473665968e-01
3.861588206806793912e-03 3.930263945264415165e-02 4.098348513213911359e-01
4.162349683401116163e-02 6.866821928154817622e-02 4.655500623901953072e-01
2.713394149022535159e-02 2.896585878687015642e-02 4.355366832620541917e-01
2.767452966492587457e-02 6.400281662329235233e-02 4.420550342620859774e-01
-2.044072342731059408e-02 3.399251563502109219e-02 4.170859334746817582e-01
4.096485503976757953e-02 3.642920711402151263e-02 4.452112682821197653e-01
-3.227529849902605052e-02 1.670461199624656903e-02 4.312442341923937716e-01
4.795685480673914786e-03 1.691610218790918357e-02 4.227927473736983188e-01
5.666166631871050879e-02 2.898768141325393580e-02 4.864954871345649190e-01
5.240368894834758484e-02 6.502835939003204398e-03 4.572550572906690092e-01
4.820821589259009082e-02 -1.079231011043919539e-02 4.566751660890307485e-01
9.869943656276879140e-03 5.565388666909248244e-02 4.220901234193760176e-01
1.313093470983495853e-02 1.166814040722172771e-03 4.325764521581136890e-01
3.478887994384948640e-02 3.061369385274715846e-02 4.406529325034553302e-01
-2.243201766888985871e-02 3.998663654066990369e-02 4.163955447265922927e-01
5.777925027767805838e-02 3.264688097420783558e-02 4.768744931834340561e-01
5.746257292178801740e-02 1.877729620873400118e-02 4.766232409137600712e-01
3.781633843598476707e-02 6.781063241376429629e-02 4.732232338384612103e-01
-2.061511307142654265e-02 3.652837418717336943e-02 4.163102258158150049e-01
-9.802792370338488451e-03 -5.041436571175827823e-03 4.318805391580420316e-01
8.723398046665609140e-03 -3.247049145303890130e-03 4.320752743434037035e-01
3.575144952167910034e-02 6.426044012922779713e-02 4.462437787185580262e-01
-1.575795080478951948e-02 3.476484119296575914e-02 4.146072792616674607e-01
5.237896642886277765e-02 5.324345368680035578e-02 4.861070354855738240e-01
3.382046105132687636e-02 -2.124083181678049215e-02 4.429575611300434757e-01
3.066999779157178127e-02 4.666284054016790750e-02 4.375741527419669818e-01
-3.467165738676138143e-02 1.987921016513392175e-02 4.339153184831772703e-01
-1.957112728431787199e-02 3.258361144272615972e-02 4.171414633936500471e-01
3.071031535562670362e-02 -1.901491667756433773e-02 4.403310310370762148e-01
5.218004136893257539e-02 -1.063225282564170433e-02 4.654029898788805131e-01
2.642154261479533195e-02 2.640292943105360807e-02 4.350637631504938319e-01
3.382037126849709446e-02 -9.562718055276630061e-03 4.406618681474634980e-01
-1.891792418063608511e-02 4.072233710743004831e-02 4.142216422366034601e-01
3.428348394502260532e-02 5.333741455312045188e-02 4.406586234664650603e-01
4.724348650393012106e-02 3.181506896361518261e-02 4.502721973934835642e-01
-1.722329724292961245e-02 5.319605274131441325e-04 4.313278605668831589e-01
2.405740570627901490e-02 1.934280500195974598e-02 4.339854080351687737e-01
4.732327589262138451e-02 4.509630804663557202e-02 5.091355867713388550e-01
5.503896076575562346e-02 -3.043721142244348345e-04 5.048047930273436013e-01
4.808816125252859952e-02 -1.150324580201219325e-02 4.568735641564087846e-01
5.675180965702950053e-02 4.129734732428901739e-02 4.710113517351976475e-01
2.135763920099508287e-02 1.954942732924450782e-02 4.321937177840542432e-01
5.737636627536047557e-02 1.711485887321742907e-02 4.768146095554713915e-01
3.079192231331018964e-02 9.260873918993176024e-04 4.387411108010780825e-01
-6.286901012204611575e-05 3.520049444725749377e-02 4.067389543243610239e-01
4.833595344130492411e-02 1.094184593966526266e-02 5.083408675298416446e-01
4.909761391151556270e-02 1.256847068251933271e-02 5.055167268298170757e-01
5.782386714899929309e-02 3.197644561020333842e-02 4.722226559294953607e-01
2.855219190326651127e-02 -7.538651355078892016e-03 4.373004535437011175e-01
4.150044113235161480e-02 -7.127859208059489186e-03 4.467921012066962683e-01
-3.999025056411542600e-02 -1.315459139493491570e-03 4.404680130158817319e-01
5.771553323196856877e-02 -5.604651228116008278e-03 4.984480359215458511e-01
1.688633073223043402e-02 -3.933301796244313697e-03 4.337017061719100064e-01
-1.043732227881328384e-02 -8.202041939139134707e-03 4.331699699368257717e-01
5.177381995120496766e-02 9.171635972912085127e-03 5.006380295326424701e-01
1.268287245805182692e-02 2.132011910747789660e-02 4.249462997899991490e-01
4.899416806411434344e-02 5.157134499898125002e-02 4.531173483280929171e-01
1.978715640667598127e-02 1.230262046891528877e-02 4.329255167519387437e-01
5.027640347736797577e-02 6.953437651944385442e-03 5.074590342629563544e-01
2.097293423846145061e-02 -2.072381999295877519e-02 4.373604555726634535e-01
3.042317567873024237e-02 5.082338104261529405e-02 4.372922613204777154e-01
5.209555748672219100e-02 -1.328353387138775377e-02 4.663273841198348757e-01
5.606176004459609979e-02 3.491372204879082675e-02 4.630811316743841388e-01
2.109966151925792704e-02 1.175082993125160444e-02 4.336699491447105759e-01
5.253238950451180611e-02 5.473023374040431044e-02 4.792345245320469016e-01
2.430942100586749866e-02 3.656830684619780114e-02 4.327860734460202696e-01
3.746717172265032203e-02 4.311000250912452869e-02 4.427036798432517628e-01
4.229214148720327610e-02 -2.168637603944995051e-02 4.517333207911724546e-01
2.454870527044635334e-02 2.295219811782650554e-02 4.340702380450767728e-01
3.044687782631431278e-02 4.178985226355130811e-02 4.375819851237701674e-01
5.736618773273961802e-02 5.275110342573907998e-03 4.779543075899300719e-01
7.551153758934632705e-04 3.678473317046117470e-03 4.296779033216065469e-01
-2.619802106462731234e-02 1.971144889851623311e-02 4.256011598872165291e-01
-1.768369951510850857e-02 3.438798223677715787e-02 4.155567922862239971e-01
-1.272635789885586885e-02 -1.035642458819533611e-03 4.310352985119769165e-01
-2.607617822756682496e-02 2.710280917864550665e-02 4.224270461550565514e-01
4.405964372866068290e-02 -1.170760229246025491e-02 4.504904192856715173e-01
3.817643983040082400e-02 6.561753411037239692e-02 4.492676867788871764e-01
2.616432932553014977e-03 5.272037073878396013e-02 4.167396758687006986e-01
5.678173420804475541e-02 4.089112440757216443e-02 4.726374137259374830e-01
1.443289819638729141e-02 4.356023648805847776e-02 4.233551800709051127e-01
5.254825033963605313e-02 1.283802236163463645e-02 4.961560525931184573e-01
5.674933464387238446e-02 1.470511656017415777e-02 4.666860178918089685e-01
-7.250728018371930400e-03 2.781207957828132210e-02 4.138196943364047531e-01
4.595172252086543452e-02 2.810881893276609249e-03 4.496611051693233385e-01
1.072252648917988889e-02 3.257897611699154053e-03 4.319264797885535301e-01
1.967841972080398936e-03 2.103635862802121989e-02 4.168464317492568960e-01
4.456335609757314242e-02 6.306479080800796166e-02 4.835670663310321915e-01
5.492164810248746643e-02 -8.645419970818108086e-04 5.073940923828462735e-01
5.536791149038546023e-02 2.006274436118291732e-02 4.880339882711121069e-01
2.487234283034676051e-03 3.350921854302656155e-02 4.062423161028753671e-01
-2.701408924009855370e-02 1.397875764800271536e-03 4.334847903533078362e-01
-5.328429956905926003e-03 3.953237247220463269e-02 4.096799325277868387e-01
2.359665515141246006e-02 -1.178360826460880806e-02 4.362932687080171013e-01
5.051999325967485022e-02 3.997868476333056587e-02 4.541609685835675814e-01
3.291738692191140125e-02 6.350194974890695232e-02 4.443235205176986335e-01
8.737044038548337499e-03 4.660931535100108769e-02 4.172023587956213975e-01
3.809532374161178625e-02 6.043155976720607919e-02 4.459421560646175675e-01
5.693502375504146812e-02 1.278839318392198734e-02 4.809958503473092395e-01
5.720569746198822525e-02 3.662542556436980401e-02 4.683457319332718360e-01
4.761462251877428969e-02 2.548995198579648985e-02 5.090887241269318464e-01
5.520308210957164397e-02 4.221375147729922173e-02 4.619785428830652796e-01
1.981194576579762764e-02 1.397202039171623750e-02 4.324386844140423181e-01
4.243071131625067438e-02 3.519228427361932587e-02 4.463538452318366878e-01
2.033296925181850377e-03 4.082065432056167231e-02 4.093071528086679733e-01
2.347112330551292050e-02 6.000576169847282593e-02 4.362953168665394954e-01
2.350680987302978392e-02 4.412367763811392979e-04 4.357079275632805837e-01
5.395144835509793624e-02 4.007678392376463894e-02 4.967940071880257991e-01
5.677472530425572983e-02 4.093968159252527050e-02 4.725952318021647280e-01
4.644676864420442530e-02 4.093755484463590388e-02 4.498733623672724335e-01
5.746846415255795620e-02 3.462382476644904755e-02 4.770197552686098463e-01
5.496915298848135262e-02 7.245390106320015282e-03 4.925172455797385274e-01
-4.019224286889041403e-02 3.282539927265574337e-03 4.445462622594515412e-01
3.395224290844699178e-02 2.199209088773759063e-02 4.399063307536815182e-01
4.781571842368664144e-02 1.754047876460254271e-02 5.075429817251460030e-01
2.573654012299630284e-02 -2.370508699643254086e-02 4.391784537377610986e-01
4.907718259504531555e-02 -2.222320778696415186e-02 4.630616560353376099e-01
-3.035680051711816749e-02 2.701977472306774791e-02 4.254463350082561268e-01
-2.524840059082636770e-02 1.054524460460140589e-02 4.302059144756524844e-01
4.885208573772857610e-02 4.408795967464598786e-02 5.068103096060272428e-01
1.075348115818536981e-02 4.105110140994486928e-02 4.181375532430022246e-01
3.981190314997355706e-02 3.330943836357020543e-02 4.442206202452143593e-01
2.701076982660043438e-02 4.410593369524327262e-02 4.346747926514161753e-01
-3.091823715082223090e-02 8.071190277028933435e-03 4.346286428073358743e-01
4.957788331452030878e-02 -1.964387819282558886e-02 4.632923460881911426e-01
3.637878117066714601e-02 -7.211616392065337347e-03 4.423716774790719120e-01
