5.668162611176157800e-02 -3.949956074728072815e-03 5.080164089666360239e-01
3.177071081938910579e-02 -7.582737052825408094e-03 4.391713122265612501e-01
5.142269424325494193e-02 4.516439965151566871e-02 5.021138035935016619e-01
5.449438257128547125e-02 4.809773041599432059e-02 4.871734339985456796e-01
5.087557159051876027e-02 3.291408473240584748e-02 5.039473603019463122e-01
1.243398304173970632e-02 -1.915040806823430433e-02 4.369440358424024895e-01
4.544004458221293646e-02 6.804624510430033746e-02 4.647499449933517046e-01
5.336249132715718824e-02 4.236590518085285584e-02 4.578474142067233132e-01
-1.799444034782059221e-02 2.528383877947866162e-02 4.200758100436786657e-01
2.070483904294496968e-02 1.981038058685984093e-02 4.318910980918670983e-01
3.394540614606188916e-02 -2.593045636061510738e-03 4.405344599639200998e-01
4.732495354343876220e-02 -1.549987955919454423e-02 4.565588109326563226e-01
7.201026517349846251e-03 1.208749231760911612e-02 4.276289346087651100e-01
-7.105503870556638922e-03 5.217206354063887858e-02 4.174890894429778565e-01
5.037594781830490032e-02 -2.243519455836648704e-02 4.655804943224252090e-01
3.702512772247141398e-02 -1.701047854405568840e-02 4.442723410081085844e-01
5.224186073823883919e-02 4.880787353734250544e-02 4.952737569701364251e-01
-4.228829024985473334e-02 2.407977410849543570e-03 4.445770503327700629e-01
1.712549541999322522e-02 -1.933978978798692183e-02 4.368490603761182589e-01
5.298219060576886408e-02 4.914035292940080457e-02 4.919617494247436884e-01
5.402541371302781170e-02 2.726142878523519358e-02 4.578057886568255297e-01
5.043264836008971158e-02 4.942390253563516689e-02 4.545676018571787602e-01
4.858970830744275410e-02 4.262964044442596467e-02 4.523526781782287176e-01
-2.385798415536506678e-02 1.220255586067825297e-03 4.327715027444941076e-01
5.297011085468793928e-02 7.801445051840429253e-03 4.580317034870294846e-01
1.033885995635960668e-02 1.921129524761034518e-02 4.247942923763705636e-01
5.640123730486783227e-02 -9.556662005268754673e-03 4.767904703028645885e-01
5.516859797304776714e-02 4.518295005889868404e-02 4.618646081913501678e-01
-3.333576781674659623e-02 7.905081266071173340e-03 4.371023793850314365e-01
5.097525102098766220e-02 2.158004923519603324e-02 4.537890318031243542e-01
4.970884597383983666e-02 5.234981089111057084e-02 4.972632205104228209e-01
3.719867764344633732e-02 6.986851551439848818e-02 4.536158299557065954e-01
5.765386420670871870e-02 7.000746307373793918e-04 4.841715737305503087e-01
4.701934680660231625e-02 4.044286418098038197e-03 5.168240198548030850e-01
5.580433472991901817e-02 -1.438113223208716332e-02 4.768900113214223913e-01
3.447520137448981808e-02 4.983276932847672397e-02 4.408719572371411766e-01
-1.096756457225471840e-02 1.993182623145616991e-02 4.202793905266710706e-01
-8.506580730380467609e-04 5.915396204528257026e-03 4.282432363377531304e-01
-2.487070178536171169e-02 -6.572091565128258817e-04 4.339091325878779992e-01
1.317132312318208993e-02 2.732417949393748866e-02 4.234867354026998765e-01
-1.116936338303250141e-02 2.322196351059555366e-02 4.186871246325892804e-01
2.248761325165645267e-02 -1.714846390837116569e-02 4.371388180253758526e-01
4.935926674291871152e-02 6.255297446158139540e-02 4.609099473823174975e-01
3.177078018877266263e-02 -2.468360188783799963e-03 4.391820070771275120e-01
5.589600349292266068e-02 -1.207809504782041479e-02 4.759367610437192364e-01
4.701464672738390332e-02 2.873364553247836906e-02 4.501582077083700617e-01
-3.209981004193588824e-03 1.845203417154712977e-02 4.193368224417337031e-01
5.611044259869314363e-03 1.458677357744478029e-02 4.253883570769856348e-01
1.351835624718107122e-03 1.405006543965333851e-02 4.236634601287176394e-01
3.629593811769771944e-02 4.069572526185738504e-02 4.420965314357347964e-01
5.658385846620903742e-02 -3.883783953890598481e-03 4.729233619013678003e-01
5.601931167999525674e-02 3.349265628854254835e-03 4.924064271293173145e-01
3.088978215972668778e-02 3.655336634628064685e-02 4.383907856809336478e-01
1.247289866822750420e-02 -2.166759211639042448e-02 4.374040698880491962e-01
8.449126426277434737e-03 3.068747698340716992e-02 4.126588206614615895e-01
5.684826086688158503e-02 1.280086657485490038e-03 4.913975764777006594e-01
1.032654437915697665e-02 2.560152739292104185e-02 4.211454167197402620e-01
-1.439147502537266310e-02 3.546697012141387245e-02 4.145334987542725891e-01
5.814666592704140907e-02 -2.872938789792316844e-03 4.879453799700724237e-01
4.419114078060613210e-02 5.547385562515756707e-02 4.963637452776893388e-01
5.091960711374923787e-02 3.557900421202638691e-02 5.044988899779242475e-01
-1.494210252996348506e-02 3.541433607766959757e-02 4.147422392723779105e-01
-4.400392715214030553e-02 3.895752396556734221e-04 4.431993979526676619e-01
3.419818217522763160e-02 -1.911975799650580260e-02 4.426036012399398589e-01
-1.977886435999704536e-03 5.264935391943213056e-02 4.157021723295565852e-01
5.392658915595374691e-02 2.526467766029012046e-03 4.623267407245738592e-01
5.585822789679999179e-02 3.002674246486825363e-02 4.911986075038138333e-01
5.246219269683950748e-02 5.398569538350617841e-02 4.842673390690502289e-01
5.777185820075547706e-02 3.409776164571973883e-02 4.698265447372038106e-01
5.743297441897771832e-02 2.576301595135988692e-02 4.845428198042441847e-01
-1.303881416577700510e-03 5.315583081487756240e-02 4.160827327800182829e-01
8.639379658960836400e-03 1.350707425390727974e-02 4.273734515873632844e-01
4.537131886119120938e-02 -2.056288161608398404e-02 4.554196326620019719e-01
3.773091543811067650e-02 1.053578100161015225e-02 4.424193410406955240e-01
9.578820148062687154e-03 2.201534168610735226e-02 4.225392627889132391e-01
-2.399649670976775756e-02 1.051337394945663258e-02 4.298223627666333813e-01
4.670104801082444052e-02 2.021371438298375997e-04 4.509502272642666454e-01
5.795441056179799488e-02 -6.437472300426241682e-03 4.993740198448816114e-01
4.869110875557867979e-02 2.456495434065694705e-02 5.069411222384113680e-01
5.159484464620639477e-02 -1.196736151948466290e-02 4.646144102641445173e-01
5.459094932978256209e-02 5.224902669608238320e-02 4.695070206921766465e-01
-2.314788082873233538e-02 4.794155802159955765e-02 4.220598424847736285e-01
5.979608679567399721e-03 -1.267949378113663629e-02 4.341162165964453923e-01
2.750965256462577224e-02 3.183548275778685238e-02 4.359634726806813632e-01
7.854749871551928997e-03 -1.396913140893755664e-02 4.351918796798038835e-01
3.927096487586431706e-02 7.153797926033036991e-02 4.550930053131061470e-01
2.179477600344115890e-02 1.239752311357763398e-02 4.339591695898405432e-01
5.366375720552429840e-02 -1.666675084582032451e-02 4.712310593952200310e-01
4.927205582237460801e-02 1.100747196859670068e-02 4.519920126557805951e-01
5.239020051855950572e-02 3.948319342295660700e-02 5.013874718164996747e-01
4.526201577833097872e-02 6.778429798476168222e-02 4.618782709588466484e-01
-2.983026905484731373e-02 3.385742933247272435e-02 4.233239882895695749e-01
-2.125522286001033795e-02 4.753558523918581524e-02 4.189584609471206367e-01
9.893616542644010498e-03 4.662188282634998487e-02 4.189792378951617269e-01
4.325434245768088048e-02 6.928693135590517638e-02 4.634456902449316518e-01
3.606180104016935145e-02 5.764079722023245089e-02 4.435419360875949013e-01
4.509167651121308296e-02 6.843166976818042258e-02 4.633805691835566898e-01
-2.724354463818041278e-02 2.419301802060942058e-02 4.246780442446669301e-01
4.551853286261355047e-02 6.245409758323705596e-02 4.842557071823123116e-01
-8.191058067437142001e-03 1.586421174479679327e-02 4.219825270066707712e-01
-4.645164103897737005e-03 1.494623216750278968e-02 4.222344359291163585e-01
4.966539720459971913e-02 -1.229346255034146143e-02 4.606790413245106519e-01
-3.553809839634602952e-03 3.174469591474962660e-02 4.100358106014504456e-01
4.662027017246019034e-02 5.040244919040642868e-02 4.505488223961023886e-01
-6.705234883381508589e-03 -1.349709001177292270e-02 4.340778557321927078e-01
4.259248355775246964e-02 3.053286914047592324e-02 4.464042037365074655e-01
4.909302243629715123e-02 2.358642327710477535e-02 5.056990078060060734e-01
5.467845455066097649e-02 5.035107075255665365e-02 4.644311533728769370e-01
1.121358149648652575e-02 -1.427975633183675881e-02 4.356695154445574536e-01
4.226722936361736876e-02 -2.080282470919808668e-02 4.510264478674890221e-01
2.299930708947862945e-02 2.800972757436726024e-02 4.325405300691791965e-01
2.620876538124481889e-03 3.672259544594212027e-02 4.076553580538839761e-01
2.552691564636273835e-02 5.800564146747088506e-02 4.361291803708081671e-01
4.348677236621593251e-02 6.804173256962725569e-02 4.554117112023871594e-01
-1.925088915466645345e-02 4.079214082674466335e-02 4.149298866961146914e-01
5.218372371373664054e-02 4.666300397497587932e-02 4.980002329568145591e-01
5.032626100996158425e-02 2.180487358928420369e-02 5.020995347411550958e-01
3.244043181961028810e-02 -2.218076650275496026e-02 4.422629652991325599e-01
5.028256560701287875e-02 1.796496153322741729e-03 5.135372026318953953e-01
3.041267351191624668e-02 6.540760341121937271e-02 4.476709186675733587e-01
3.533754142332779652e-02 6.364417452421784749e-02 4.460124041729209843e-01
4.963221758022672014e-02 4.286396646240908659e-02 5.063917102703707762e-01
-2.600086592750443237e-02 1.860060554230788532e-02 4.265690923055316386e-01
9.499266270314658811e-03 -6.693822110736087280e-03 4.326945504215850558e-01
2.771569504017004984e-02 2.350304683398572042e-02 4.361933227381407652e-01
-2.656837348384302397e-02 7.415669222742964431e-03 4.324669162561067259e-01
5.408773287329985552e-02 1.382458125678798742e-02 4.918637315142432853e-01
8.857976696297075597e-03 9.738627292035539548e-03 4.293908068942558498e-01
5.288413331573910137e-02 2.814088754327622593e-02 4.559394934213374939e-01
3.183053908230506351e-03 1.032247528231359027e-02 4.270798865025437485e-01
3.160707517424313218e-02 -5.834081670895276475e-03 4.390708567422413333e-01
4.122118905638555431e-02 4.481291431413353399e-02 4.456152413226945330e-01
2.251027197498575022e-02 5.475389756003651298e-02 4.321705507507416222e-01
5.142380976103794188e-02 -2.246938885392195731e-02 4.676091662755543776e-01
5.708332984283016193e-02 4.039157193391310595e-03 4.730454807046343690e-01
-8.926698257150030708e-03 4.967752253611665975e-02 4.138218288343861739e-01
5.308887557891849712e-02 -9.645535521239808480e-03 4.667544659615093239e-01
8.751924992313322993e-03 2.585508133353529858e-03 4.316657732144132953e-01
-1.300003409464580567e-02 2.136819183107918976e-02 4.201350892225522160e-01
-1.242088900877939307e-02 2.198759838265655284e-02 4.196624250308537696e-01
2.535137678981609285e-02 2.044137055893165827e-02 4.349079544383079865e-01
-6.481556956111512308e-04 1.219001840516836625e-02 4.245995307506761351e-01
2.840505832450508292e-02 -1.799639506654091003e-02 4.391517865473439919e-01
3.290894514016184241e-02 2.526106596248288427e-02 4.395278815517533189e-01
5.502987450231739547e-02 4.555974409791732627e-02 4.880060940392113022e-01
3.396233945110885277e-02 -1.071479784140064173e-02 4.409232971560891889e-01
-3.637919236139210491e-04 4.461608223283817370e-02 4.121606994228887988e-01
4.008498559895530555e-02 5.472855158416734672e-02 4.458645373533128842e-01
-4.175671677231977685e-02 3.686547219113533395e-04 4.413254294945652689e-01
5.604428385513170185e-02 4.251372104551431885e-02 4.822612676814433397e-01
2.425023210049521982e-02 6.450689970926642980e-02 4.482484224875127876e-01
5.263714317780934099e-02 5.143965207864884676e-02 4.890661105190938773e-01
5.733208678472671849e-02 -3.508999734299578666e-03 4.764134178452608115e-01
5.617987364958630658e-02 4.431968641031962253e-02 4.772729992596456694e-01
4.406260637281746856e-02 3.626359788071353146e-02 4.478229239329090672e-01
4.950447749007955145e-02 4.766939764212472369e-02 4.535170639713115848e-01
4.852623103732362636e-02 1.796646405099196556e-02 4.512912721695165330e-01
1.670776220650131705e-02 4.272915212032106502e-02 4.259984538391113351e-01
1.911294765399182069e-02 1.963923405867590982e-02 4.307692274469830385e-01
2.373831006787283787e-02 -1.983375823178575546e-03 4.356408202035429444e-01
1.342911839593002692e-02 6.154148262049641271e-02 4.383770508206135674e-01
5.312681039864215748e-02 -1.309630023761861918e-02 4.682374844021843785e-01
-2.963962001943097266e-02 3.637476271080884727e-02 4.223189862170105280e-01
4.188143330271601461e-02 4.609210766332925285e-02 4.461358056857280818e-01
5.763989777059832370e-02 -1.477323848185964610e-03 4.782427359268226486e-01
5.695018241468662729e-02 1.750504233219370848e-02 4.822314043705843156e-01
1.068726018096561280e-02 -5.467356256971285002e-03 4.325651371273094292e-01
5.179730850149048826e-02 5.917367022516441949e-02 4.720430213556756627e-01
4.429820522842805447e-02 6.370581823628257423e-02 4.827097953381324080e-01
5.398568083921435889e-02 1.397033911133487016e-03 4.629455824894999072e-01
4.077534900413847668e-02 -2.360866441584183809e-02 4.506090376190977076e-01
5.366470656855190646e-02 1.769054592512472879e-02 4.932489387365218136e-01
5.289208818202992268e-02 -1.392404578628448145e-02 4.681089571973680585e-01
-4.373691070424681054e-02 6.772446000662965884e-04 4.429822448748351738e-01
5.821506527594135644e-02 -4.866264304282362681e-03 4.852538558894476384e-01
4.278282000612753516e-02 6.971238161951384682e-02 4.572703504784020323e-01
4.180017118960296929e-02 6.543255286327820386e-02 4.520428029654325885e-01
5.357125482314824272e-02 2.630852640931623243e-02 4.958651214696556675e-01
-3.384182199658390851e-03 4.964497853929179111e-02 4.132149721604499448e-01
5.738930930082359466e-02 1.535282736960080080e-02 4.794232833630998059e-01
1.818719678354541874e-02 3.642313352758536765e-02 4.275952692860014448e-01
5.463646058683970658e-02 4.792779580847989634e-02 4.608025170423314387e-01
5.445539322017572265e-02 2.075663358647142701e-02 4.913320497299139000e-01
4.024653246107216809e-02 4.015941264360428642e-02 4.448380351311122527e-01
-3.789426660472604378e-03 4.779770906004171538e-02 4.124980155758962153e-01
1.876341977786347495e-02 3.461201675038253628e-02 4.280557239548022919e-01
3.497992966937359116e-02 6.042095550944087679e-02 4.442199542625462905e-01
2.069780125722184283e-02 2.673938617015817268e-02 4.307094421923253758e-01
-1.785406452155843121e-02 6.653550353422197153e-03 4.284109808821526255e-01
5.427522280710855157e-02 4.332852443967905726e-02 4.956836401586854346e-01
-3.352245642992104924e-02 1.679269741546882133e-02 4.344528990770937238e-01
1.271240145307089321e-02 3.176428831948645282e-02 4.215483519293468095e-01
5.171592948749920843e-02 5.208644658469007566e-02 4.914724213982832324e-01
4.901084946916793583e-02 3.540777361940972839e-02 4.522428447095925841e-01
5.121916353272928241e-02 2.143959271028896343e-03 5.113567760052496469e-01
4.547358857938644389e-02 5.908654826810819799e-02 4.512229408833894895e-01
3.517586296032784721e-02 6.795263071070450911e-02 4.516115548257638168e-01
5.953178281064827604e-03 6.016604410288456384e-02 4.249440204012595035e-01
2.558301959543148735e-02 2.964059887726341880e-02 4.346146815461410240e-01
6.743300701060486388e-03 4.262100741414304172e-02 4.142910479721387262e-01
-2.309219295155942944e-02 1.317780779170261984e-02 4.280024517946058316e-01
8.899109102059224452e-03 5.376063008013560671e-03 4.314321121223118616e-01
5.605663864297154297e-02 4.125979398566424761e-02 4.867954494084743011e-01
5.380785659683134936e-02 5.400902524619784206e-02 4.737971766609938573e-01
3.999896116080163024e-03 -1.263014783668190560e-02 4.338271209389001903e-01
4.757109922705354127e-02 6.672233926871645737e-02 4.644528906796338563e-01
4.340153497263494337e-02 6.757530958561581980e-02 4.693927401810819022e-01
4.772601770123596765e-02 1.726508437460977895e-03 5.177763150344608656e-01
2.395658234233772124e-02 2.283223893007311350e-02 4.337899356038347198e-01
3.577649399694644849e-02 -2.303604554150652777e-03 4.418535057117405351e-01
9.918089645927611470e-03 6.127214976322650775e-02 4.327252325194428928e-01
5.742911997912308192e-02 3.464629231760216893e-02 4.805506758913373200e-01
2.522029603994223410e-03 2.929565442604643161e-02 4.073869164306270219e-01
4.739582207844871692e-02 4.751837986689331356e-02 5.085016247512202936e-01
2.304633249107745918e-02 1.289361124954259766e-03 4.356703918412157539e-01
5.265794607015338025e-02 5.792320253192582286e-02 4.674271164572595394e-01
5.583774884383947007e-02 4.180528118272269084e-02 4.889615499312847668e-01
3.201761881713020147e-02 5.531330789957178418e-02 4.393476569933098541e-01
2.037785552495230759e-02 4.332292623673092424e-02 4.294098713959520475e-01
4.058691976363742321e-02 6.300793335079402091e-02 4.487957869456826732e-01
5.380456784013280119e-02 5.346536156340729595e-02 4.762744703233499077e-01
1.630962566036617614e-02 6.083328729668403129e-02 4.378603239768037447e-01
7.580359593258035635e-03 -3.245795722419579990e-03 4.320803796647400552e-01
-7.874872120003963138e-03 1.800865310491634938e-02 4.203789338155144439e-01
3.867444371122968124e-03 -1.216289911599903462e-02 4.335542324761241240e-01
1.506673979970288291e-02 1.050888966348549787e-02 4.318514021504807343e-01
4.104901247033433676e-02 -2.037918985722645196e-02 4.488598154658860473e-01
1.063084681589337825e-02 2.607456168564197332e-02 4.212708332494872754e-01
3.323983406506818283e-02 6.508855098703662800e-02 4.481963974683614294e-01
3.380655853907225256e-02 -5.198433307937555363e-03 4.404957822594580130e-01
3.948063319443517044e-02 4.445930936584761850e-02 4.443623886229929321e-01
3.634592516935979817e-02 6.559877575005418349e-02 4.493649200463748494e-01
5.246882816368002300e-02 4.865184107687921949e-02 4.568211339620427136e-01
5.832784930271799062e-02 -5.533736121434071169e-03 4.900819215244645033e-01
5.525332850496601084e-02 2.899590100753425895e-02 4.604194354590302463e-01
5.368991163236653402e-02 1.067955757908123013e-02 4.948091512692349703e-01
1.554083714362474583e-02 -1.478425279086571439e-02 4.356291318087028297e-01
5.697346975133217584e-02 2.522102939277218962e-03 4.729664335124717511e-01
4.126417740034363929e-02 1.313377368999710075e-02 4.450755857860644316e-01
-4.721333537999997804e-02 -2.166717482840853099e-03 4.453329781462292969e-01
-2.346108831655406915e-02 6.501359518465464962e-04 4.329125969104909988e-01
5.240755646918831417e-02 5.097033810663523928e-02 4.908602135419530832e-01
5.717259184981313136e-02 -4.452035140198377233e-03 5.037435625705173337e-01
4.893104385383287985e-02 -6.131168810662913742e-03 4.554797833282032693e-01
1.194016227043528944e-02 1.512819340178708782e-02 4.284081449163691935e-01
5.282725150360308847e-02 3.557621494048133527e-03 4.592586765634439350e-01
-1.171171747312479972e-02 1.392130358497789371e-02 4.239135924700621061e-01
4.994875385308129162e-02 3.523925859382370188e-03 4.534241795989513713e-01
3.975559541044654255e-02 8.706355967219938513e-03 4.439979743162658088e-01
4.939844091474904220e-02 1.817742688929925229e-02 4.521287513907408795e-01
4.762071130751467651e-02 4.517788925559523827e-02 5.092888506818025185e-01
5.785383474088977296e-02 2.752061655299466864e-02 4.692870899380197081e-01
-4.773259368911648287e-02 -2.884842223694303407e-03 4.452470279654012209e-01
1.217089450941458845e-03 1.268305072247813414e-02 4.246030948589352705e-01
9.605405326166837482e-03 1.359109885122128034e-02 4.279184042805988519e-01
1.387717979437776833e-02 5.896415038010699092e-03 4.327783833800423197e-01
4.485777736046933639e-02 1.646155914750056792e-02 4.478968603777539470e-01
1.730830294147214440e-02 7.553670373926520132e-03 4.336284667371321233e-01
5.630841971128174028e-02 4.530031221286211912e-02 4.719982461280860520e-01
-1.428279277425481900e-02 2.378014780542509615e-02 4.194902572345650671e-01
-3.248856863463087108e-02 8.621522678569403311e-03 4.361063092419614762e-01
-2.463623228345700883e-02 4.627645231579591290e-02 4.206538494947426599e-01
5.639847901509907613e-02 8.482218860581949155e-03 4.674254234359931370e-01
1.063510088028002745e-02 4.414157806801430328e-02 4.189945557464008763e-01
-2.171825638971099093e-02 4.779829812126789625e-03 4.307316322868656178e-01
5.137876189172883856e-02 3.653707024681431687e-02 4.551274315549452831e-01
2.952915197111584053e-02 3.195546205202877410e-02 4.374464827347143703e-01
5.399442212851717632e-02 4.818117215967628736e-02 4.895157572969594528e-01
2.921857344756423336e-02 2.989009591603409427e-03 4.380055567333172584e-01
-2.123054429296999945e-03 6.445854065550728901e-03 4.277895346930243869e-01
4.737103321436079290e-02 3.548375945454556452e-02 4.506545092095464167e-01
5.788432756789253092e-02 2.609827015286507457e-02 4.708884471325668897e-01
3.151086064750618920e-02 -1.651815569743280213e-02 4.402937246815245564e-01
5.641076004667469612e-02 4.449410190220453448e-02 4.708113461222852569e-01
4.980161024071100978e-02 4.707345850011705746e-02 4.538114768350906547e-01
5.541201298236768380e-02 1.183774022061718535e-02 4.885059800096428484e-01
4.697544694113586772e-02 5.226232550239465029e-03 5.158312236569599918e-01
4.403494134328285459e-02 -2.141234236784373204e-02 4.539881024314276758e-01
4.795636991206846111e-02 2.369696560260901169e-02 4.508910281514111329e-01
2.771655170874185586e-02 3.640724692973773546e-02 4.358623184748622315e-01
9.474981541363286172e-03 5.525150654718528898e-02 4.221701822030691220e-01
5.317335019702779803e-02 4.629104874150122978e-02 4.954826243656167972e-01
4.389182699867464482e-04 4.886747019251053148e-02 4.136027995731064721e-01
5.337178179490986718e-02 -9.299870836582672939e-03 4.671500426673331763e-01
5.474474431588142315e-02 1.664868365628092289e-02 4.900545758365732474e-01
6.746395927092746839e-03 -1.922442659076228216e-02 4.374117115120897403e-01
4.513649362139326993e-02 2.161952928848048794e-02 4.482229842987753288e-01
4.212724421096769589e-02 5.446939983845019984e-02 4.474939444818611389e-01
5.804886276601643053e-02 2.420283038232973194e-02 4.760279983952712679e-01
4.395634681132533361e-02 5.651476473084224295e-02 4.494219827475220419e-01
4.479934241315718796e-02 6.349486380856556034e-02 4.825407561065722661e-01
1.675225225140841712e-02 6.136315820935432305e-03 4.337018547449969508e-01
1.337011623756944462e-05 4.263017258752718058e-03 4.294089706731326617e-01
5.427864261026045523e-02 3.720811767371766388e-02 4.971252356348412893e-01
4.382811690197641052e-02 6.831732894820591317e-02 4.596391776764066073e-01
-3.609499200827591403e-02 2.050449856424957015e-02 4.368023933539967874e-01
-6.814496267487224826e-03 9.049418616149820446e-03 4.257062336681343706e-01
-1.139679140149754688e-02 2.623033926986083689e-02 4.173941035468747285e-01
-2.810642197381348767e-02 1.120800438899789914e-03 4.341439441109004593e-01
5.112063982873559648e-02 4.089289659659331444e-02 4.549865082407330008e-01
5.711771210217326394e-02 3.980187232364374578e-02 4.740505982077031777e-01
1.802132117903553279e-02 5.324491928145203001e-02 4.286176273909981793e-01
5.224505124605559325e-02 4.921449898333789957e-02 4.946749889586612992e-01
-1.334440156615479198e-02 9.454583586640682991e-03 4.262823092989523333e-01
4.643431131860501632e-02 6.633713665140372751e-02 4.756400115078789348e-01
4.915824632432488211e-02 -2.848759391934117292e-03 4.543806996283625277e-01
3.127409544603026309e-02 3.431451420795362389e-02 4.387610139842469947e-01
4.907985687970184419e-02 4.728638706127939045e-02 5.054795451366260739e-01
4.347355722266223188e-02 -1.759643822013540193e-02 4.511225629938292458e-01
1.849410433443346435e-02 1.047100420539440191e-02 4.332877242913162896e-01
-1.832474684735893242e-02 2.283695894078088991e-03 4.308916517301761284e-01
5.557722091489353256e-02 -1.189130149464478342e-02 4.744495701061109405e-01
4.425668256421554786e-02 5.222785698540539923e-02 5.040949266781837856e-01
4.832673242526624308e-02 4.727829712453169436e-02 5.069104923812071117e-01
1.364632829216381321e-02 6.123686989305945905e-02 4.367736979828676924e-01
2.893456713603043823e-02 6.136796543059804682e-02 4.413285651810565091e-01
5.523607450239285954e-02 4.175729655435903021e-02 4.615293633940478757e-01
4.332200278949783004e-03 2.581624243845875855e-02 4.117292083986516249e-01
-1.961765355743186334e-02 2.558192273688838017e-02 4.205291723258438030e-01
5.506748788370861153e-02 4.981932333898928672e-02 4.687613758648442874e-01
5.214174311198523093e-02 3.082852618091961368e-03 4.577648568828375786e-01
5.614814854680921785e-02 3.568160082597052196e-02 4.907744006923327462e-01
1.315504183137309983e-02 4.303681613269169648e-02 4.218423330059839493e-01
5.433755404101268949e-02 7.991518404581888363e-03 4.945825647662472346e-01
4.934261539875822722e-02 4.044059455710740519e-02 5.072469704241261423e-01
8.043512423083501450e-03 -2.203207879091161059e-02 4.379591652566455773e-01
4.861567920056052844e-02 5.345348895766220687e-02 4.531752958965878930e-01
5.612464053358964811e-02 4.553357546489304741e-02 4.697038027606643129e-01
5.559168828923127109e-02 2.245407083682181976e-02 4.892535993774707603e-01
3.107833218766629241e-02 9.522416733911022793e-03 4.383467942306417120e-01
-5.252913380388126059e-03 1.887390654614166594e-02 4.187429545955531629e-01
4.928305246902798392e-02 3.379598040888780880e-02 5.069786664345952154e-01
5.844178076248909837e-02 -1.064122570357385611e-02 4.885892787389422565e-01
5.363369158551591076e-02 2.368580058746321340e-02 4.945985011511073726e-01
5.461753461110473856e-02 5.083065727448744797e-02 4.650890073340064323e-01
5.087169713154446327e-02 7.001148726598059938e-03 4.541669122950351412e-01
3.630590273600699247e-02 4.980284207882051256e-02 4.421988470007772731e-01
5.564609131028371708e-02 8.407140866348052771e-03 4.649036634893778941e-01
4.927499083300373312e-02 6.465637389826842107e-02 4.721934919605146885e-01
2.729517292093570219e-02 6.551919403868138037e-02 4.530291057428914026e-01
-3.194757956312817976e-02 2.245042120216531739e-02 4.284736639361698685e-01
3.939715179328907857e-02 2.967485133154970298e-02 4.439808749117706288e-01
3.689517870878072231e-02 1.937958017312359053e-03 4.424484094708746595e-01
5.146298500602453085e-02 -2.321770276450182968e-04 5.139687283153752118e-01
5.726331631913322839e-02 5.649800121435536067e-03 4.833320815146512905e-01
2.770225944673348692e-02 -1.640897261516566577e-02 4.386031542197357802e-01
4.235815336365897354e-03 -1.783510650712572324e-02 4.365881735401501151e-01
-2.107424744466337291e-02 2.427113856024133362e-02 4.216863032790031385e-01
3.961099337951332761e-02 -1.273139146933321454e-02 4.455410011846219764e-01
-9.469966999422964327e-03 1.939465057578095009e-02 4.200559290986975447e-01
3.057966066930535576e-02 5.845690108290453602e-02 4.402228346958608762e-01
5.188313942253126171e-02 1.128842647969823150e-02 4.992795772120784403e-01
3.424180313736910342e-02 -9.859035500864381588e-03 4.410691949520027522e-01
5.441669315860871159e-02 4.359330312545759561e-02 4.591148998160725081e-01
2.352635369912708593e-03 1.725971990198585729e-02 4.217297715794907642e-01
5.632364147784015007e-02 -7.445858610002284439e-04 4.712735584584423210e-01
-9.450582018293419637e-03 8.470382755743447248e-03 4.259747333135832648e-01
4.243271805305950245e-02 3.218682413013932569e-02 4.463683650343059917e-01
5.743585370048290978e-02 3.238190709225072933e-02 4.666754263039671335e-01
4.216863741434096619e-02 5.794099077406093118e-02 4.482820239124838957e-01
4.454757656335881638e-03 1.478831453156535976e-02 4.247401222239017837e-01
5.713545528421189179e-02 2.390285239149384650e-02 4.848312479201599690e-01
-1.281166856328460647e-03 7.958801122441006709e-03 4.270076489334999614e-01
5.782548806703609323e-02 2.818703323381354514e-02 4.805441110501808000e-01
5.727784340029668658e-02 6.284338887183945222e-04 4.902496398054488336e-01
-1.216338603791740532e-02 1.981716826239252743e-02 4.207737896895627494e-01
4.375166226042982720e-02 -1.373249681232262438e-02 4.505509406439069386e-01
5.079930926116606876e-02 1.280372007521109537e-02 4.537515198106530367e-01
2.625778323526928998e-02 2.631532663572694331e-02 4.352086295566150453e-01
-3.408027818674819881e-02 9.852265055981827488e-03 4.376000373177782454e-01
5.037576373095578597e-02 4.932544668521916115e-02 4.545035460593782606e-01
1.993979461685808918e-02 5.510962631855578081e-02 4.306420637670710372e-01
5.151018130014851926e-02 3.441228175295635988e-02 4.549733680537640934e-01
1.962445709198352636e-02 3.396565072942413221e-02 4.288863178461917447e-01
4.553641217112969208e-02 6.726233856180782733e-02 4.707400660431628747e-01
5.779129758235288655e-02 2.333855951499537451e-02 4.791364524075009679e-01
4.751747634564378042e-02 3.847287806848245784e-03 5.162495556939975527e-01
4.051850643684518777e-02 4.999983632307178349e-03 4.449040304781163302e-01
4.092492883239298024e-02 6.741211259048020266e-02 4.743088959940603977e-01
5.171432646546437334e-02 -1.301466840517668394e-02 4.652987187240670286e-01
4.546180681655942468e-02 3.749027524960154428e-02 5.138801884776869056e-01
9.371341993768406153e-03 -8.816706007376225174e-03 4.331835322358845719e-01
1.478136141294498704e-02 -1.527586268942201543e-02 4.358285911685215175e-01
2.810968487091178650e-03 4.968769887350990566e-02 4.150677649514815659e-01
5.409521383102952607e-02 -2.532387567729149375e-03 4.653130910649954655e-01
4.346782738677736589e-03 6.113433927649036814e-02 4.272558774539572113e-01
5.103745134204733247e-02 2.032966810453509798e-02 5.000126853932022053e-01
5.595369464108938817e-02 -1.274383955849107963e-02 4.766150180215663612e-01
6.544958347975651791e-03 4.246704363091280410e-02 4.140297302554490910e-01
5.290249270680418697e-02 1.038096106377117862e-02 4.972382615842939058e-01
4.005221810693275486e-02 1.729092098019636634e-02 4.440781854201293899e-01
5.286309519858672923e-02 1.690242094256494410e-02 4.953239414361839676e-01
-1.819327341023531386e-02 1.029657285473319431e-02 4.270274481558508084e-01
-4.650142983670972271e-03 1.150504050138685674e-02 4.245557771488092103e-01
5.848403862083605131e-02 -6.594260152248372121e-03 4.911173740910611540e-01
4.201080754319178739e-02 -2.323982634155422229e-03 4.468482728783513269e-01
7.853008180841411154e-03 3.167637905996343109e-03 4.314058390859432657e-01
2.434962638070284346e-02 2.190540734536182768e-02 4.342004243103327887e-01
4.005355629128810185e-02 3.362141399218346316e-02 4.445945645746618435e-01
3.292832898577721656e-02 4.716581330956032270e-02 4.397204939298789417e-01
2.195809456709918450e-02 3.986423851521868345e-02 4.310609130090655716e-01
-3.427316466506391546e-02 9.922126706382459332e-03 4.378932495717177131e-01
5.251277382415105860e-02 4.296194194880484374e-02 5.007135244428034815e-01
9.361354123875474664e-03 5.115515083870548346e-02 4.198651162028446682e-01
5.624593525916950915e-02 1.992815207187598539e-02 4.863368453354892651e-01
5.261133422259213488e-02 1.813617679106563959e-03 4.593863108570100384e-01
-3.153774608507765170e-02 1.407945585587467782e-02 4.328069432894826596e-01
4.934210498458987265e-02 2.354122268932424059e-02 5.050463821691847377e-01
5.341441813360104512e-02 2.204962545972086879e-02 4.944545847638880942e-01
1.931969385185559190e-02 5.418012797246363199e-02 4.299579000123190942e-01
-6.205291623024838249e-04 5.251205464117422728e-02 4.150832483707790899e-01
-4.573107335928783788e-03 3.409552284875554812e-02 4.101895319964619091e-01
5.771444593858000849e-02 2.237773189361864576e-02 4.792281453734913432e-01
5.562214678460310202e-02 2.423097214121159790e-02 4.900479756181912450e-01
5.357076466620802613e-02 5.027034780413194848e-02 4.585658855583896187e-01
-2.706012676137151823e-02 1.673054170395385162e-02 4.283648926536214319e-01
-2.263056843511565205e-02 4.758541387073923767e-02 4.207370944051943007e-01
-2.182171182308860480e-02 3.948523099908048811e-02 4.165398679547820393e-01
-1.175917584385009762e-02 1.548958273342818104e-02 4.230641175950972110e-01
5.739196923001937262e-02 3.712005830956916635e-02 4.757600137943051033e-01
2.170535634320716611e-02 2.076964969629960939e-02 4.323705522289046366e-01
-5.380960819619176952e-03 4.924874968171816247e-03 4.282265204936908654e-01
5.061180467609326800e-02 -7.366868917493939704e-03 4.599173208535117241e-01
-1.839933698468545001e-02 4.597664290601976428e-02 4.157894311256096764e-01
5.275559352744762370e-02 4.367229056937294712e-02 4.999526575476136991e-01
5.731382255988784480e-02 2.120127828147259919e-02 4.810980248447017105e-01
5.727237150330045934e-02 -2.222789646397415816e-04 4.764847902199514373e-01
2.443570611364647566e-02 4.458283103302861095e-02 4.328057552090084914e-01
6.108248298835072289e-03 3.483183831752053455e-02 4.078429273352803808e-01
3.984285996973799954e-02 6.504127828440844916e-02 4.500833753287166727e-01
3.558928310242507470e-02 8.297049587699641474e-03 4.408512501736536193e-01
5.143016078012527248e-02 5.313899208434838539e-02 4.906288786088885412e-01
2.078419864414447413e-02 3.876230923345662382e-02 4.301624858145689512e-01
1.791403647312715675e-02 5.998363695070060148e-02 4.347378360325654945e-01
-2.871517621636324874e-02 1.965585306672415489e-02 4.274514962071466750e-01
4.392676674027659600e-02 6.454442192654856469e-02 4.810254843975387273e-01
5.186315701857224791e-02 8.186199081866355615e-03 5.014175140987624513e-01
8.211153376986793026e-03 2.220146572360318787e-02 4.207583160093862351e-01
5.248804483272292293e-02 1.269828866107981791e-02 4.967840093778285726e-01
4.159718550369332496e-02 5.532944759822810976e-02 4.472524268595849395e-01
-3.572350767966552681e-02 2.269495966359678582e-02 4.342446253356236352e-01
3.741407569105902053e-02 -1.327936173121698794e-02 4.437988511791454704e-01
4.841925544243743523e-02 4.118505851446980365e-02 4.520848739762505231e-01
5.677555065718338512e-02 -8.615486651298884073e-04 4.964757934338893675e-01
4.036858517266958546e-02 7.123980035233178076e-02 4.596877456212688506e-01
-1.666969223011272733e-02 -2.674911547771391049e-03 4.324794346685634783e-01
3.390742359346938031e-03 3.980920146195576249e-03 4.304803898658224881e-01
5.131190901686234068e-02 5.044361121040864121e-02 4.960545113688574759e-01
5.111246908155517993e-02 2.306550547775264304e-02 5.003646163674799752e-01
3.250845873837256497e-03 5.639475896547652828e-02 4.212906360313083409e-01
-1.121813185229755296e-02 2.585030247932623097e-03 4.296878909143561076e-01
4.309110303419735194e-02 4.990653132248886598e-02 5.111711928518963832e-01
-1.331260245705838570e-02 1.438611765073675866e-03 4.306018541866594718e-01
1.223507056132232089e-02 -1.384299840038520635e-02 4.354933921495148796e-01
-8.986285655671224018e-03 -1.260316609953612312e-02 4.343672328544603278e-01
-8.923392251216338139e-04 -7.664068887761216545e-03 4.319826335360318903e-01
4.764285686427379568e-02 5.342324504621416559e-02 4.521351967811871320e-01
2.885852437658968303e-02 -4.557324539961573467e-03 4.374736768685907884e-01
-1.380832779426646294e-03 -8.564625719208709270e-03 4.321398700501203893e-01
5.651682934618550147e-02 4.402143790689587444e-02 4.716039393849382755e-01
3.804963126441928550e-02 -2.167629884140911262e-02 4.465584782846402367e-01
1.669625610472925611e-02 3.344615100044321526e-02 4.259903025759920747e-01
3.692288820866777149e-02 6.829175406962942341e-02 4.519399223830935508e-01
2.265294734504414570e-02 6.382892511658608270e-02 4.455461030834078628e-01
5.562776491634325443e-02 1.440987128369354206e-02 4.874005658065747593e-01
5.292108325914734318e-02 4.710794031648156410e-02 4.952296535582699222e-01
5.015377625922214089e-02 4.050639155178491213e-02 5.058054444461526078e-01
-3.998788384403020348e-03 4.708694741222884533e-02 4.123474883976064320e-01
-4.644405317572676377e-03 3.148087477823530676e-03 4.294865771947410926e-01
-1.768576075164654017e-03 4.957009415912932287e-02 4.133884933338612400e-01
5.467000727130773979e-02 5.101532261709103983e-02 4.665646441529832655e-01
2.696905792364542170e-02 -3.775170062402966476e-04 4.370508115432129581e-01
8.695091530468339672e-03 6.096375195469469488e-02 4.300502478197843481e-01
-3.364808241391910315e-03 3.807436642169580859e-02 4.092055489776435517e-01
3.589166529918983578e-02 5.021264376255839962e-02 4.419129812620689601e-01
5.232053398043919057e-02 5.382266818377471479e-02 4.579293389250735369e-01
4.646479417183538296e-02 6.158454773529081772e-02 4.848801472263615797e-01
-3.063059700979274200e-02 3.212005039390926353e-02 4.245332805424284484e-01
5.038974241535507798e-02 2.823971203603133778e-02 4.532640231417210952e-01
5.843128833023977092e-02 -1.345380525879401497e-02 4.869407817689451745e-01
2.440063632322931123e-02 -1.890638360850024598e-03 4.359036759184228838e-01
5.439065333772503952e-02 4.821824857409851700e-02 4.879072631271585969e-01
2.808391128583390389e-03 6.101576976427404431e-02 4.253336400035778730e-01
4.539639160068882628e-02 3.819659939445424479e-02 4.489260572045863373e-01
5.369707591621455250e-02 2.382489103878732140e-02 4.570748736335893958e-01
5.650150742195518550e-02 3.309677416187631338e-02 4.635442279447755110e-01
2.172478807932674838e-02 2.911445258415235743e-02 4.313905914443029732e-01
5.695881805353096572e-02 3.370728407116364844e-02 4.652592785753255633e-01
4.831367482571718996e-02 1.479756079025979637e-02 5.069577956821711417e-01
-2.097831081062476177e-02 2.258013481859655336e-02 4.224245580321485116e-01
4.427559395806545534e-02 1.124187635020846773e-02 4.474770373954485847e-01
-3.466059068721145942e-02 1.756583758528747208e-02 4.362246528009857682e-01
2.668208857782399662e-02 -1.381079980458927575e-02 4.377354243822330626e-01
5.132426719700110967e-02 1.484158725283281008e-02 4.987655980101827202e-01
4.673510195601875833e-02 4.077052488794242341e-02 5.115113487377246360e-01
5.453667279281039504e-02 4.594052958427826544e-02 4.595836282741976309e-01
4.717226919469272306e-02 -1.260587722611992284e-02 4.555114800882016923e-01
5.820502629429714220e-02 -5.055725276095522809e-03 4.861727326950798234e-01
4.870460198927215739e-02 -1.478808884397588702e-02 4.594641917312872748e-01
5.567056582246016072e-02 1.033123907980417269e-02 4.885752652584573474e-01
