1.609727154371392091e-02 2.037587849514819333e-02 4.257909699227021005e-01
-3.254426027956240641e-02 8.267584800340017914e-03 4.358263833360759842e-01
8.671611479621572569e-03 2.593148960082083954e-02 4.128241556380219945e-01
4.187624083345192066e-02 -1.969176072960170804e-02 4.492137300217523554e-01
-2.137764658877461602e-02 3.496972291873651911e-02 4.161281556839724338e-01
4.836236263000847496e-02 3.658089460179986350e-03 4.509873189374682956e-01
1.178111358575409211e-02 6.060143922811145334e-02 4.273942239730598724e-01
5.201536757638237224e-02 8.325251956399486175e-03 5.008424255511174650e-01
-2.705267667911554277e-02 4.358621398414401320e-03 4.325824502573107355e-01
5.803891129265527360e-02 1.946305737775299097e-02 4.712914444637263389e-01
-1.097592595680341697e-02 1.592928701478877121e-02 4.210663854334998346e-01
5.515650718742289710e-02 1.798444703888166241e-02 4.893482149962039562e-01
1.356267257636728507e-02 2.133956790700154357e-02 4.232316851349619546e-01
-2.580784178931484069e-02 4.092242367255075064e-02 4.188708774676806468e-01
4.039567963367194509e-02 3.167974150459450244e-02 4.431672370294626462e-01
1.041480817780759439e-02 2.439753559703480151e-02 4.181593488892573762e-01
4.811346903294932281e-02 1.150539596482106838e-02 5.085793343242266396e-01
1.650717858538714930e-02 -1.975872051049740522e-02 4.366524382834721107e-01
-3.409696535150255527e-03 3.218280126849686756e-02 4.082660404289732980e-01
5.117764322764747215e-02 1.806019156864936692e-02 4.993057003684276407e-01
1.101812587453332437e-02 9.632664916281098721e-03 4.286334772485895228e-01
4.975413824803735785e-02 5.643670220591617132e-02 4.872410391221161374e-01
5.753800792830771060e-02 4.468186548027460077e-03 4.753889539002745246e-01
4.499839930943669297e-02 2.493779860384257030e-02 5.134171256368044167e-01
4.912457764818817935e-04 -1.419620707380307234e-03 4.304504151867362127e-01
2.342428671881739699e-02 2.480315196608071440e-02 4.308863958108898884e-01
-1.691932898647094397e-02 -8.435705600098155135e-04 4.315280794561255351e-01
4.078104426030791652e-02 -1.644339441406635072e-02 4.468545645296238544e-01
4.988718079998170907e-03 6.066943796508763448e-02 4.215975205506772294e-01
5.000561902291256883e-02 3.223294525958059209e-02 4.514825914605515300e-01
-3.518800736262300832e-02 8.663270547761628415e-03 4.389824499980974903e-01
5.083500222148597952e-02 5.571953466324412740e-02 4.868588323294988363e-01
4.939491312784723143e-02 3.237417462669976015e-02 4.508962549319823210e-01
3.598565549176438449e-02 1.166915186128668694e-02 4.399409160197373381e-01
-1.577455105422633473e-03 1.868956811221342967e-02 4.168208245942108814e-01
5.193403220965228662e-02 5.625287883634760150e-02 4.807835912582241189e-01
2.845684295277030318e-02 -1.204012792512363338e-02 4.375425972067031322e-01
5.184895932138765262e-02 1.524784489816142542e-02 4.538478564354703759e-01
-2.638349853968037853e-02 3.603167787173146112e-03 4.322025455811533412e-01
3.494354048109297312e-02 -3.091521010693755629e-04 4.403698964975854002e-01
2.950201041843963923e-02 5.733416929090019015e-02 4.363044006049189294e-01
3.791971081401780685e-02 4.945782803337263334e-02 4.412542825241774769e-01
3.664000325585237139e-02 -1.953723897922556713e-02 4.442118151109890056e-01
-2.340202596914085428e-02 2.583146180547810783e-02 4.207176558473835204e-01
1.367529460656579168e-02 3.365792337454267397e-02 4.169244958399862533e-01
5.711812143040502499e-02 4.216448718496244169e-02 4.751900849792915493e-01
3.743478591306751996e-03 1.387194770573199013e-03 4.302187639763264126e-01
1.196935613473201765e-02 5.426501599904461071e-02 4.201619407907236647e-01
1.275317964555554816e-02 -3.264495748314707579e-04 4.319237971609656834e-01
4.785551533420347170e-02 6.579691811401616741e-02 4.598436139905801023e-01
4.573887617080249490e-02 -1.010684826979395441e-02 4.518405000965053375e-01
1.260258003150567692e-02 7.554314084378763866e-03 4.304457201708197234e-01
1.483828262339095469e-02 8.929858233111619137e-03 4.308901351529691448e-01
4.843497801018122745e-02 5.036267233073220273e-02 5.033562515083142008e-01
1.638825431008269357e-02 5.321386984927405084e-02 4.237452902865746496e-01
4.659706024521890338e-02 3.591022884735078219e-02 5.114751768711406354e-01
7.744136926477212211e-03 3.680997047402533029e-02 4.092457838926167879e-01
5.697836922079838051e-02 3.834738886104734068e-02 4.641138852971036233e-01
4.958577417333309700e-02 5.695806846111228089e-02 4.864299233481781948e-01
5.167798559231129990e-02 1.241085273537969984e-02 4.989818694617861317e-01
7.036317776933934121e-03 7.302888190386155193e-03 4.285358022447379733e-01
7.785179738831913762e-03 5.086417629051347838e-02 4.148892493273175219e-01
4.795579809529777054e-02 6.936454876605865905e-03 5.125806733537425774e-01
5.757549006155938953e-02 6.203111238428111324e-04 4.766600433688292782e-01
-1.992243760803477301e-02 4.880192441799970082e-02 4.174186807274223310e-01
5.838438900130910741e-02 2.431261738120679347e-02 4.781978326744685259e-01
2.489015528025080581e-02 6.065493512188023517e-02 4.364710282265795160e-01
-1.295817491519731662e-02 3.205683501782577438e-02 4.130658505813987746e-01
1.485160272327527495e-02 1.220928422612035675e-03 4.324051750643300718e-01
1.216021568724218876e-02 5.036528068966077132e-02 4.184183151332616646e-01
5.051418367783722108e-02 -8.215044854428157906e-03 4.591962917550759249e-01
5.802404550609650130e-02 -1.170350839545054346e-02 5.137385265679421664e-01
3.146908628120777957e-03 1.287183742246879314e-02 4.232348536383551685e-01
4.677768774649719574e-02 6.743520323715938847e-02 4.643564518186817924e-01
3.759145417511268461e-02 5.949839945282806714e-02 4.434761059451722276e-01
-4.640058318863729547e-02 -1.041097602038358778e-03 4.464998441458603029e-01
8.488867266700545963e-03 -1.402421839942610306e-02 4.349975708666863339e-01
5.261864534409799177e-02 5.933863220744024780e-02 4.690337015556185207e-01
4.885922567368362890e-02 5.287245127587910515e-02 4.513734042930468426e-01
5.611759015989160881e-02 3.662400292178881467e-02 4.605909234924018270e-01
3.482061570196906541e-02 -5.318269658139538128e-03 4.405540178978613608e-01
9.613408063832415418e-03 1.834465800282255102e-02 4.222927280018325402e-01
-3.791389283358290174e-02 -6.199033928804959220e-04 4.403476218897635075e-01
5.548059075894445913e-02 -4.186555952076309942e-04 5.024192630320981623e-01
4.661033023750641574e-02 2.731586625539876231e-02 5.111959844746474246e-01
5.748073901718435408e-02 5.088711330022532842e-03 4.731723949917882033e-01
4.979607658690267391e-02 -7.432649461209249984e-03 4.570070849908433597e-01
4.831701747000158309e-02 -1.486313507597498973e-02 4.578860217921874587e-01
2.048874280851827739e-02 3.871367827325273431e-02 4.267678538817268330e-01
7.743466369128215038e-04 5.203263864529773797e-02 4.113105994631809370e-01
-6.796556772208950901e-03 5.228343856586745164e-02 4.144982976516587425e-01
5.486810231714768504e-02 4.758166532234201634e-02 4.865331377324946804e-01
4.623378308369659184e-02 4.682654233105416203e-02 5.103111159772749650e-01
2.556046840790767577e-02 5.601470725521373595e-02 4.317281578341760073e-01
-1.676482597649154790e-02 2.310934443322231954e-02 4.190480881032024318e-01
1.762477555408557394e-03 -9.906005587583040228e-03 4.320616491342791909e-01
-2.370986297117912839e-02 1.112652777730172189e-02 4.284518484872872901e-01
4.631835433962246812e-02 8.334019211512029915e-03 4.483616181066085171e-01
-2.035883098050846052e-02 4.785602645255938870e-02 4.162357308286524504e-01
1.168012040603057591e-02 5.014757448109589955e-02 4.178555628003299827e-01
5.087902306540692532e-02 6.074039279625602361e-02 4.750383605033738355e-01
5.737526023086873816e-02 3.508665876778412768e-02 4.844884145675033005e-01
5.747696175332838581e-03 4.045980456379134893e-02 4.080499488493978255e-01
5.092447202471278578e-02 6.220681577768771148e-02 4.626136221128882564e-01
2.388993849716017012e-02 4.586729459488472771e-02 4.294412286179329907e-01
3.500528195012030108e-02 4.195961342419513712e-02 4.392120630871251263e-01
5.240092010297874026e-02 3.231702149611248576e-02 4.542371847540476182e-01
5.598997524164160688e-02 4.631458407716881887e-02 4.620450324427041178e-01
4.741147901302801559e-02 -1.872081866667082983e-03 4.514675695236028408e-01
5.007217307901287023e-02 4.738985362466878459e-02 5.027674190277778843e-01
-7.003824935867309504e-03 3.071058016512466515e-02 4.112516624387613229e-01
1.427495674388882564e-02 3.320973163209341161e-02 4.188220721150978654e-01
4.981422768497194287e-02 -1.642414146459845320e-02 4.618725546640380930e-01
5.703052235384963725e-02 1.764875176995439263e-02 4.638872886759068948e-01
5.642371050333330057e-02 1.062085379780142516e-02 4.646925375172119566e-01
5.151762114636886103e-02 5.284729841616955109e-02 4.909601050622758867e-01
5.137161748739380723e-02 6.185570873795068897e-02 4.698711276526519320e-01
5.344317356765022203e-02 3.172502736432726220e-03 5.038590989226764405e-01
5.709203247199168274e-02 3.718740256127115590e-02 4.841418591806592731e-01
5.414426531226823602e-02 2.994999755681632819e-02 4.565735354175083915e-01
4.906946499030614972e-02 6.461984711664638115e-02 4.738421583948957405e-01
-1.795494643223506312e-02 1.323911272411652101e-02 4.245904788639021099e-01
7.978748209174360909e-03 1.581184214889730724e-02 4.234317838872890261e-01
9.274299616575706895e-03 -1.452935755597452652e-02 4.353643427889148376e-01
4.905410585963405901e-02 -3.261789456873323209e-03 4.537046738637683374e-01
-2.264103717933801246e-02 1.125447345720478193e-02 4.278184686108103540e-01
5.188851559495349236e-02 -2.068587858409670632e-02 4.679135180526656224e-01
2.245661350149018992e-02 -6.828507586383586805e-03 4.348897068918019526e-01
7.330792494170841438e-03 2.718191336832870286e-02 4.074915243942923704e-01
4.820838193022577295e-02 2.192032555940483587e-02 4.498141328315610199e-01
4.805543963956113163e-02 2.543543930927517471e-03 5.164345820886381278e-01
5.547857996637310662e-02 3.032672957556138346e-02 4.588993665160559510e-01
5.770703325375676346e-02 1.577445498201317936e-02 4.697958454245224624e-01
5.628952824531009702e-02 3.144528210376498073e-02 4.902489928475825542e-01
-9.681992549015097649e-03 5.243467550183451148e-02 4.148016468420658298e-01
-2.196012074170363912e-02 6.524880592062146968e-04 4.319225817645759857e-01
4.810889317595940656e-02 5.069477278873547876e-02 5.029632081452251047e-01
-2.705231921560319330e-02 3.641843419790396358e-02 4.191356528980363372e-01
5.598130107020270196e-02 1.797286131447821747e-03 4.674510383041625694e-01
5.698644145862449828e-02 4.232778207821479705e-02 4.652308179699566337e-01
4.385292011649336713e-02 5.243309722195609729e-02 5.037384238984606855e-01
5.329041962487109096e-02 3.353337126655996092e-02 4.987438740721902297e-01
5.806363030862748964e-02 -3.312874125865093028e-03 4.941913178267334783e-01
3.986886971777914984e-02 1.894708155082271139e-02 4.425627112847179134e-01
5.502930260886551572e-02 4.716519451556926146e-02 4.858571858562324430e-01
1.050584867643805306e-02 2.375741610860159642e-02 4.186220551254345446e-01
3.981618435744039425e-02 6.458236604095529687e-02 4.475758818127795746e-01
-3.129094742937452156e-02 -1.568098101248473555e-04 4.360781090608703559e-01
5.082900528944536006e-02 3.709536363702937989e-02 5.044817396561090961e-01
4.470193871783963505e-03 1.585847318799564129e-02 4.213419563413632885e-01
7.471292535559428440e-03 4.040244447066247691e-02 4.098484650414957464e-01
3.259379191876014825e-02 5.828468188004325146e-02 4.392002154787762458e-01
2.554428834278330354e-02 1.210409248920254859e-02 4.344216228152004144e-01
5.150348328171093504e-02 -2.803561196040971638e-03 4.579326385078280603e-01
-1.618997402998036128e-02 4.793136226470984945e-02 4.134313498765014860e-01
5.043168508890021745e-02 2.480711976841865410e-02 5.023039441977532604e-01
3.773092265450427030e-02 4.248539554448163558e-02 4.411730065551235924e-01
5.461856110357267424e-02 4.193114157987667956e-02 4.953485660544399982e-01
4.763247562241658406e-02 -1.690393449056024414e-02 4.570552499015231307e-01
5.030978610716744376e-02 3.812750878703093961e-03 5.112708487322981110e-01
1.459669035095202336e-02 4.448047970943698470e-02 4.199964813956828524e-01
5.092199406597070627e-02 3.293703457097853921e-02 5.034743835426597203e-01
3.890052015251607015e-02 -6.404073492731687627e-03 4.436335790221019315e-01
-3.190250825992697187e-02 2.275182793844942458e-02 4.276747410996061260e-01
4.105241966182148622e-02 4.189077857756651202e-02 4.435977944236413339e-01
4.146740851462903110e-02 -1.770417643820578271e-02 4.478489620699782070e-01
4.837805434921157305e-02 3.107275045762277962e-02 5.079139871823039609e-01
-6.367614649728801750e-03 -3.561933237756704715e-03 4.306638423040980435e-01
5.579785508021192775e-02 3.912186289780127113e-02 4.596708961602263832e-01
5.390659041874656943e-02 2.548409421305727202e-02 4.555695373966552886e-01
4.527408479384111006e-02 4.775362830302302963e-02 5.111597978155021371e-01
-9.623783944505328453e-03 1.924102348717971617e-02 4.185240004711261452e-01
5.404755615064216201e-02 3.204071054326083218e-02 4.564306437675493267e-01
1.965674722627593421e-02 5.837765434705232542e-02 4.299505377374754911e-01
5.242288359399624453e-02 4.915735434357384331e-02 4.941115375369863338e-01
-4.808953916921107977e-03 -6.013873668162013873e-03 4.312810569762533519e-01
1.091007728193814710e-02 5.323815884169132845e-02 4.184909020678683755e-01
5.393228712418184079e-02 -1.730207386845824744e-02 4.716873407339221558e-01
2.599982214333219216e-02 1.145508883986006386e-02 4.348112829104622268e-01
5.242148443705345329e-02 1.336448610495677945e-02 4.965125499687627619e-01
4.543569345901181389e-02 6.773025481508153367e-02 4.646332969143953662e-01
2.227568860120702349e-02 2.218929648583069236e-02 4.304407414351218431e-01
-3.001936321579401490e-02 5.460006049491559176e-04 4.350505602932231430e-01
4.896541555027278392e-02 4.595972687513259769e-02 5.061632213346466402e-01
4.948361547384788617e-02 5.614907698856148183e-02 4.526961543366357366e-01
5.468743383573528016e-02 4.334157501701922134e-03 4.621424711993060153e-01
4.293046086328523858e-02 -1.170024307063615571e-02 4.484421761449838284e-01
5.086732183367652371e-02 2.165671026556376458e-02 4.524201945608933295e-01
1.247648683123655372e-02 -7.840796831484895396e-03 4.328139376690668394e-01
5.678644178536595977e-02 5.425182904703396147e-03 4.880605305005433214e-01
4.304943920687767656e-02 6.374799566065643408e-02 4.492814932455632682e-01
3.264286334782931509e-02 6.000832291828741422e-02 4.404391370272888184e-01
4.829430975338181581e-02 1.260221887784761935e-02 5.076299409387912132e-01
5.253796893914316340e-02 4.990547276561991402e-02 4.926321873259639217e-01
5.803221085747441860e-02 3.232899107319575638e-02 4.808840570048928953e-01
4.305425831765963968e-02 5.154594037159479503e-02 5.066257586139248925e-01
-1.080468627080943128e-02 -3.977438080377135310e-03 4.313273565415252642e-01
5.662503098566978171e-02 1.183981583776291639e-02 4.838840418656287223e-01
-1.845171859780540824e-02 2.291219908535780878e-02 4.197910510425343911e-01
5.572950781835014217e-02 4.995489890053072396e-02 4.739662992335636482e-01
4.587538669592827745e-02 4.120915325961172632e-02 5.121155129728039990e-01
2.829312622935146668e-02 3.245922659612705125e-02 4.343377327030700230e-01
-2.694237403716409629e-02 3.306078585538329423e-02 4.201743545847633765e-01
4.464061247822030676e-02 -7.254343425465280965e-03 4.496449355270946691e-01
5.683241131652697758e-02 3.341967457313042844e-02 4.620637127252730236e-01
4.115447451944873741e-02 5.661621293247815281e-03 4.443575925795965054e-01
5.552602272701400582e-02 4.785847238606876636e-02 4.810613183205565413e-01
5.776548289190320401e-02 4.286355742281039091e-03 4.780410486001522297e-01
5.751380167794926945e-02 7.912487928644499138e-03 4.769885850553741147e-01
5.115543233047942923e-02 2.953056038549855405e-02 4.526877317163127690e-01
5.302053058809352848e-02 2.004936628218073266e-02 4.950424809745292976e-01
3.229867253089621637e-02 -1.266385482985359773e-02 4.394332923199074092e-01
1.193350655378512884e-02 3.107557525189851358e-02 4.145589036376708947e-01
-3.082172903767415456e-02 2.890843709203900005e-02 4.246387535539969393e-01
4.082075694632370660e-02 -1.750396130875794820e-02 4.471733596961908197e-01
5.264495526580775797e-02 5.646885896606930466e-02 4.769956687888424751e-01
3.107001181303391257e-02 6.013686896991262548e-02 4.395360033326956017e-01
5.631523542536306937e-02 6.183256241612651583e-03 4.663962347780377105e-01
5.260390699823173921e-02 -1.120244364023439965e-02 4.658475500450623419e-01
3.109276392268460823e-02 -1.371325288797144897e-03 4.383127838272424248e-01
-1.615843260057905385e-03 2.968587290038003992e-03 4.286047452073110664e-01
-2.556913939059394549e-03 4.823412813861976955e-02 4.094788787448204737e-01
1.881785590923261680e-03 3.372898407967488132e-02 4.044133043138232186e-01
9.190711553350791249e-03 -1.451674633430453942e-02 4.353510085901370341e-01
4.782254146487297658e-02 3.709289901920764104e-02 4.495521616052990388e-01
-2.584049084619223155e-02 1.045260537150315833e-02 4.302603568145751955e-01
4.884051488984480355e-02 6.607744330410085520e-02 4.647477751748182451e-01
5.097829371596327569e-02 5.076510970571550263e-02 4.963812463862410373e-01
2.186007002534047158e-02 5.920905223518070637e-02 4.323441980730032830e-01
5.521785282441038500e-02 -5.712762139946838541e-03 4.684391984923266805e-01
-2.595393499801865178e-02 1.170517035976472928e-02 4.297419675733459288e-01
4.310961977636459941e-03 3.875472214812203386e-02 4.057784922139108796e-01
4.287705664356228352e-02 6.990093606242886448e-02 4.613740417895273449e-01
5.843261890051357210e-02 2.906009275629447414e-02 4.682345756949528592e-01
1.736161675645294181e-02 2.253379707265280862e-02 4.262858810690495770e-01
2.923095673672368444e-02 5.288539960417887320e-02 4.340815745392811453e-01
4.450722465045676979e-02 4.488613188429736028e-02 4.463329095004512359e-01
5.631557368256803753e-02 3.995576992064356348e-02 4.619777778249102851e-01
-6.008416817808105020e-03 1.568426633279339927e-02 4.195947025745810910e-01
-2.774302927608331831e-02 1.949939243775361541e-02 4.258875589508037685e-01
5.686708059529114317e-02 -1.082922278349965958e-03 4.964938623228556946e-01
2.584744637106719395e-02 1.725369508419215270e-02 4.338456791119311706e-01
4.743825695652875707e-02 -1.588368720986405025e-02 4.562483475087713014e-01
1.873126094964360638e-02 -6.961179523222267226e-03 4.338574904968848234e-01
5.595005537381379096e-02 4.835033027935720443e-03 4.657509485844554820e-01
6.064391433080340392e-03 -1.067397229038347800e-02 4.328164123154041310e-01
4.710482268181677423e-02 5.544480955937524519e-02 4.500126356224071200e-01
5.510246965334427566e-02 7.254855381041643708e-03 4.927250156460414310e-01
7.154644488124447914e-03 3.097493584118582791e-02 4.050094144351686909e-01
5.694453434435646499e-02 3.604711727068953681e-02 4.866997428980558427e-01
3.300519798649732134e-02 4.428351903506568682e-03 4.388788362800670195e-01
4.975392379187858205e-02 6.354438699598063955e-02 4.604667506962826229e-01
5.747622058044686566e-02 1.035487675178168795e-02 4.708077612982171645e-01
1.803704626019568893e-02 5.708363207867905159e-02 4.274015869280354263e-01
4.282828777857713987e-02 6.671615151000256927e-02 4.768393278118668310e-01
5.829035579809639656e-02 -3.014577323265826489e-03 4.920432696670393180e-01
3.570040213178192479e-02 4.083431061638558707e-02 4.397298862129677133e-01
-3.180699170467968934e-02 1.595057630825485323e-02 4.313362810437876838e-01
2.294631951622130156e-03 1.807939973056970143e-02 4.187161466756188499e-01
-3.692257536800151729e-02 3.625296220255916878e-03 4.394721836474846377e-01
5.242371022990086754e-02 3.779378595817543818e-02 4.547942543184451125e-01
5.215526586116122493e-02 -7.847822974040234711e-03 4.628493164885384425e-01
9.896261265231019386e-03 -1.387925763299896649e-02 4.350043960823052891e-01
5.746042873639705534e-02 3.940134473771611523e-02 4.668810437149764625e-01
5.066662720361421110e-03 4.014834647433364323e-02 4.072398529943248580e-01
2.703543595303718045e-02 2.419746712174674838e-02 4.339695354683293926e-01
-3.177706587497594604e-02 2.309425519072174846e-02 4.273838352513621985e-01
5.711380201549232094e-02 -6.452181975012668234e-03 5.108246706695778183e-01
2.601881516538850220e-02 1.054686909405611571e-03 4.359710759329629703e-01
2.669068286008961094e-02 -9.046173970326230190e-03 4.364678287832805537e-01
5.771869006880646358e-02 1.801833184086837347e-02 4.670306560498027060e-01
5.546619963916116919e-02 9.631185596412223868e-03 4.900926892770954835e-01
1.246513357418370729e-02 3.883136904916465598e-02 4.163228615411368461e-01
5.772395948406212202e-02 -9.933743015051918132e-03 5.132516027050214591e-01
5.589475303521412863e-02 4.578199585288401756e-03 4.919996589568495504e-01
5.107353815319798374e-02 6.306417500029389001e-02 4.675980663271760984e-01
3.609876151477781070e-02 4.841222116841788908e-02 4.398701845533273813e-01
5.022909994492904401e-02 -1.825094119800917472e-02 4.636780011790028744e-01
5.274157939257120842e-02 -5.173193132953612938e-03 4.622841889792554393e-01
5.788435831911539070e-02 1.725107938377209646e-02 4.783269471479399404e-01
-6.078111031950293730e-03 5.334560349681936181e-02 4.153942151220242907e-01
5.463616344300373240e-02 -8.561254114683607142e-03 4.686541139714099358e-01
-3.043916749700188371e-02 7.007188304769764245e-03 4.343640283742187247e-01
-2.332398863007412518e-02 4.153533899678667207e-02 4.167114383425492008e-01
5.581309070977984177e-02 6.563923808553112638e-03 4.644166375839671734e-01
-2.787762873290853052e-02 1.318724144133548958e-02 4.303955155484746053e-01
1.982746500462893857e-02 -5.001750291216532779e-03 4.339819511255290085e-01
-2.308794476584082826e-03 3.943396283569593208e-03 4.279015266610967649e-01
1.939621658328050807e-02 6.099208504304304279e-02 4.375885099431655600e-01
-2.859324475498330534e-02 1.861232639732851579e-02 4.269476127358024509e-01
-1.571664189504372658e-02 4.103912344485256131e-02 4.113760382876476829e-01
5.223826026445382159e-02 5.790585413408687321e-02 4.753446264599198168e-01
-1.555961455717033530e-02 3.074627620012240423e-02 4.147714383312646191e-01
3.933363434002328657e-02 -6.956724292066871623e-04 4.435705994149273801e-01
6.254180233317059058e-03 6.096304806173129254e-02 4.240599403511431387e-01
5.359031825026497331e-02 -9.351973765841829159e-04 4.618356028111152423e-01
4.483065895497363729e-02 3.071782599312210260e-02 4.466911812504363866e-01
4.598333543767634674e-02 6.556559368314227032e-02 4.775453096536583231e-01
5.335332603547952857e-02 4.768203805898958703e-02 4.928463967759345032e-01
-1.442399742917101126e-03 2.483198775323837773e-02 4.103265321116857933e-01
5.549145965714766954e-02 1.820059970832796706e-02 4.597301447062739910e-01
5.489143193852795422e-02 -6.160520496242392723e-03 5.148014681118325830e-01
4.731260271305585963e-02 3.582531379772731402e-03 4.499581740369803518e-01
3.292022561726475061e-02 5.002467156062333220e-02 4.371632880219724626e-01
4.697901427824038856e-02 6.629401511502709676e-02 4.591388007050892783e-01
4.701871604402488303e-02 5.960061229691929197e-02 4.867141975538159526e-01
5.291060193748949037e-02 4.462600077234411822e-02 4.981378817841239925e-01
5.810296557814374069e-02 1.979503500068070104e-02 4.758128141169086778e-01
2.623108245249917633e-02 6.475503955936967593e-02 4.442987662532676407e-01
1.413690503080642334e-02 3.095285701336544446e-02 4.197512453972381263e-01
3.035263971219761409e-02 5.882124381485608067e-02 4.380515626200162660e-01
-6.921688868553480499e-03 4.979331049157124239e-02 4.104963552317391073e-01
-4.926720185382945857e-03 3.684638455448008276e-02 4.080533658349608239e-01
5.182452840257346927e-02 4.929244363975984755e-02 4.957789736409207171e-01
5.242737030743511994e-02 6.007227768240431393e-02 4.669012299208614714e-01
2.031976184097557259e-02 5.048328028087351038e-02 4.268274186494885325e-01
1.895292755968674969e-02 6.157600045674877648e-02 4.395116174808017528e-01
4.886914813837772015e-02 6.583858399916646398e-02 4.678320605973767532e-01
-2.344977121957406152e-02 2.154389288174296188e-02 4.224853281681599237e-01
5.295474595999997980e-02 6.958585046784210824e-03 4.567454721165873921e-01
1.985435362398441789e-02 2.238463221356075394e-02 4.285261950524499874e-01
2.390645873790383374e-02 4.678038128198715867e-02 4.295372755283677346e-01
8.728736748745595866e-03 3.896889343983318127e-02 4.110453191807770801e-01
4.704759594900571190e-02 9.235533820218490980e-03 5.122191743529896923e-01
5.203589633605593123e-02 -8.413526721127692664e-04 4.579541621708531629e-01
3.420739011137632207e-02 -1.133897367787113815e-02 4.406007327313267719e-01
4.040534693286205320e-02 6.833058940700187378e-02 4.668617837365739431e-01
-4.163463118299251097e-04 7.338682580669096157e-03 4.260115211640123078e-01
-5.288802292426007454e-03 -1.038896097920282389e-02 4.328989063202334786e-01
5.077043599734114981e-02 4.054725836979899273e-02 5.042977322034783993e-01
-3.197112702357264580e-02 8.525723811177752381e-03 4.352081106687678558e-01
4.458922913739338245e-02 -1.975884316568873866e-02 4.532903604568953027e-01
3.585224149735515009e-02 6.063249089679828563e-02 4.428603835612291983e-01
5.606838790322921096e-02 3.855627035938111180e-02 4.904011223234687189e-01
3.363626683924209743e-02 1.746522082271803958e-02 4.386188327531602149e-01
2.727003014205532649e-02 -9.604397783496997076e-03 4.367359137180403805e-01
3.136017539873160037e-02 6.644656032954891767e-02 4.506262701878814281e-01
1.244968579868637251e-02 6.183958203667122566e-02 4.348940951391980225e-01
-2.352886094696812758e-02 2.801527247060809495e-02 4.198809370776838135e-01
-3.134261050325019057e-03 2.672108877523026935e-02 4.107883509979396441e-01
4.257028681158053773e-02 6.764900873372882428e-02 4.689098334553570835e-01
5.356275955769316394e-02 3.936598148020166790e-03 5.020402021261045622e-01
1.750074447898018748e-02 6.706441811766015136e-03 4.327877268221866358e-01
-1.213591644529773451e-02 4.551803802885477646e-02 4.107469959106373469e-01
2.921285376472457923e-02 -2.079151859267737781e-02 4.398599560629741223e-01
3.444847593103284034e-02 2.193428308632818305e-02 4.389935178847856334e-01
3.145407571619108361e-02 2.462360531136213379e-02 4.369134483402152269e-01
5.656501318984627491e-02 5.795441331820767178e-03 4.674849222447615693e-01
4.176127459437325995e-02 2.978683735909000777e-02 4.442134121461596141e-01
5.812211366928268091e-02 -1.030859961703755549e-03 4.865949275314346845e-01
5.629779020208858925e-02 4.126067029165698952e-02 4.864673737361830397e-01
1.254532624473735786e-02 3.324407499147258999e-02 4.142100979290603280e-01
3.224661269051771334e-02 -1.455422866468262903e-02 4.398536986534658522e-01
2.905854532281256994e-02 -8.229342310001844241e-03 4.371176036506651541e-01
5.045499462300059509e-03 5.543449316377674352e-02 4.174980345359275424e-01
5.640928258885553187e-02 1.258153560402989340e-02 4.637491257454900984e-01
3.143465283270984595e-02 5.590070801307314013e-02 4.368643436370340805e-01
2.602389290852444650e-03 -8.588659293073369182e-04 4.305484774136992265e-01
3.789021676412301920e-02 -2.470011283904035779e-02 4.475178205325616165e-01
5.111551986694120447e-02 5.882816252579598643e-02 4.785057075231262114e-01
4.785316215571172593e-02 -2.384473180246525405e-03 4.521524718148650646e-01
2.542404293858191444e-02 5.119185091358303269e-02 4.310566305568010459e-01
6.041298136213833249e-03 6.072015760197777001e-02 4.228873429782316617e-01
5.548738053013862331e-02 -1.187968016955517903e-02 4.736823693758591136e-01
1.973087604775541556e-02 4.363818347579533075e-02 4.254719038060142955e-01
3.795534556078590874e-03 -7.761668880248158431e-03 4.318069713002612442e-01
-6.093566971640445099e-03 2.284936683928828413e-02 4.147964183910555214e-01
1.660735343313588658e-02 5.923035333278885844e-02 4.283133118686032748e-01
5.735650863778352787e-02 2.881672225936616691e-02 4.634176496593285233e-01
-4.874141182823732085e-03 3.339718422473264559e-02 4.091697898379320630e-01
7.287941455756818607e-03 5.584018425844727851e-02 4.183268824891043236e-01
5.473981798532812082e-02 -1.771896501819973310e-02 4.739317379666994623e-01
5.642794738873184446e-02 3.356987967651675620e-02 4.609910454784308387e-01
1.215925758035209941e-02 5.008708708602373216e-02 4.183753406168119193e-01
4.174002717340427604e-02 1.689049345142863354e-02 4.441176334574400975e-01
5.121004828950222881e-02 1.704614432730417947e-02 4.991420959806003310e-01
3.632377728075181222e-02 -1.798812502622504708e-02 4.435369264461654359e-01
-3.301949593241423637e-03 1.152139499875030372e-02 4.229738599737652427e-01
5.024012911986603519e-02 1.774560080181391761e-02 5.015352227599638724e-01
5.000880977648582831e-03 8.747282895768980146e-03 4.270267393563194069e-01
-8.456407899422738531e-04 -6.427955926003773614e-03 4.312925162926543599e-01
5.508599838165151308e-02 2.203464785597913922e-02 4.906399128861963499e-01
5.143663275312264360e-02 2.182715746436815138e-02 4.990785254862550868e-01
3.971599328922423289e-02 5.570004201694102319e-02 4.436565086715895667e-01
5.735989536668607836e-02 -1.478895874953303248e-02 4.810554666996007533e-01
5.295287869939811071e-02 4.423009054428495013e-02 4.555268881949958715e-01
1.841806186415533009e-02 -7.038669439727282366e-03 4.338019304065519055e-01
5.725207966856734471e-02 4.147409346145385783e-02 4.748480145378001227e-01
5.262942751556896892e-02 1.028734317654315077e-03 5.096239387144272381e-01
3.305913518187267308e-02 3.341856314678460366e-02 4.380935291847795621e-01
5.384097640425032638e-02 4.481972963174942447e-03 5.003149473133069458e-01
4.216968307019228202e-02 2.442441336769067550e-02 4.441542923922315866e-01
3.154260870230735786e-02 -2.433504522873427764e-02 4.419834377073941223e-01
3.153718117693975198e-02 -5.431145565943850881e-03 4.384064554785526702e-01
-1.544573128267834675e-02 2.379465266090197151e-02 4.181990944098837870e-01
-1.091035067152271556e-03 7.660556177039490496e-03 4.257222565151498883e-01
-1.085963736150194481e-02 2.525436862730501622e-02 4.158399068678608756e-01
5.232739236796294519e-02 5.388648852301202580e-02 4.558730538015246525e-01
4.853841693882531699e-02 -1.388234797754078591e-02 4.580153707891975179e-01
2.765319584610526765e-02 3.222887947505933409e-02 4.338550258649135349e-01
-3.368388197849672347e-03 5.367241269106681756e-02 4.147916949154094035e-01
5.138758510620307363e-02 1.524679020827441993e-02 4.985831442900290345e-01
5.330096197987961582e-02 6.920487276287370058e-03 4.574604686715288970e-01
-2.294257311887412665e-02 4.320511105475498270e-02 4.164146761563443100e-01
-5.279606358103585903e-03 4.875842826955036763e-02 4.099437427431582570e-01
7.562316650992919644e-03 2.441617455952058494e-02 4.132415157010555506e-01
4.045151752893914876e-02 5.458287878437146495e-02 4.440411181342776570e-01
4.920243377981537575e-02 8.359609229541792958e-04 4.524066721052395490e-01
-4.062470787036198683e-02 4.739140883962412575e-04 4.411689131811506459e-01
-1.570898971994355575e-02 1.811733565508464108e-02 4.212881350707728956e-01
4.632406151678467032e-02 8.915437457301817956e-03 4.483069325132903460e-01
4.964584150468280555e-02 1.654306910199872249e-02 5.028786994828610135e-01
-2.946115242380338041e-03 5.160373372804441527e-02 4.124942230234568963e-01
4.639965586734484670e-02 6.699663480880498068e-02 4.713387724119117439e-01
4.715277510445597953e-02 4.284379564514377570e-02 4.489205753498431428e-01
4.428635236348518744e-02 -1.839037981302472924e-02 4.520098901481417464e-01
1.777815588396764596e-02 -2.307208737767364737e-02 4.373568846292241741e-01
-7.771567241086258654e-03 4.752775015170979805e-02 4.100177383889887506e-01
5.270660083832433979e-02 2.304601448280912956e-02 4.543353232985968271e-01
4.896822080395566573e-02 -1.078724908060985782e-02 4.574276878109556632e-01
2.175612979337367831e-02 -4.650234228556274219e-03 4.345069747662571591e-01
2.882941667051102871e-02 5.641603068027831180e-02 4.348118338621912993e-01
4.318543189752886702e-02 1.360952322237000273e-02 4.454302450497975019e-01
5.833190655226523635e-02 2.566613986320210802e-02 4.688072159527315597e-01
5.811659123243796687e-02 1.525209354728616733e-03 4.806797165246735060e-01
2.199486008438834503e-02 4.615724188763183078e-02 4.279953688311596283e-01
2.741690532348371734e-02 6.505535597449380036e-02 4.501016859103840750e-01
3.643971470529823453e-02 1.343262237336785916e-02 4.403766119743781071e-01
3.837174827523839177e-02 7.035613434781479159e-02 4.528524485933487220e-01
-3.534794652971140483e-02 2.154504539183644748e-02 4.346437413081738477e-01
4.648713800781852090e-02 4.388718280697906371e-02 4.482654176087503273e-01
3.875978276371948306e-02 6.443459540989955603e-02 4.471482826959726764e-01
5.552762380308674112e-02 4.479747882114239362e-03 4.934721787627611711e-01
5.531565855993855751e-02 4.450172484666679862e-02 4.585389683319678888e-01
1.109262501579795848e-02 4.149049075487409172e-02 4.145022153801250497e-01
5.532807554866494421e-02 5.035153878530561344e-02 4.623014459146738697e-01
-3.425119222900949167e-02 2.546422770584261253e-02 4.299740364666176373e-01
-3.572119181219940431e-03 4.238115028569008208e-02 4.084845426008171798e-01
5.818124455788931809e-02 2.150745719725071295e-02 4.713415617348029607e-01
1.599414173808365314e-02 4.147169866275639272e-02 4.219006562866956522e-01
3.923802672931905877e-02 3.384674869963569949e-02 4.423207969306117704e-01
5.119643246358959038e-02 6.100065283682143402e-02 4.725009406747573415e-01
2.407339865552574065e-02 -2.297432814038955634e-02 4.383189448801327326e-01
5.936497877678716811e-02 -1.128573232420099735e-02 5.038616904301171928e-01
5.564005787600422720e-02 8.703094587937445017e-03 4.900435557011028065e-01
-1.799303663499546291e-02 3.754602272704817695e-02 4.134493935420467392e-01
4.987115591269730003e-02 9.667513368866231804e-03 5.052924482673958329e-01
4.513079555668202125e-02 2.547174668270167641e-02 5.132737621295327957e-01
-1.423220735217159286e-03 5.447475619947104303e-02 4.152725145374480120e-01
3.905140876095828523e-02 5.032020549616197935e-02 4.422295682645064896e-01
1.555334439463283529e-02 1.602249273095570151e-02 4.278577740665193141e-01
5.598902021519813754e-02 -1.385859998257063519e-03 5.010749853471705428e-01
1.263596300312043973e-02 1.306200772151268341e-02 4.278458282348100439e-01
5.784661223113532480e-02 -1.038242699011231868e-02 4.830727740289498251e-01
2.968800547661482395e-02 3.713256802254728123e-02 4.350965791760876833e-01
1.393514240759397699e-02 3.329423927626965624e-02 4.178399909430499659e-01
2.360142745726821409e-02 3.474986713909207492e-02 4.296973856364479927e-01
5.855920115151351524e-02 2.627786224256185507e-02 4.762707796059390541e-01
2.034261132791261376e-02 8.594301845303025864e-03 4.332269126370260071e-01
4.587013925627475563e-02 -4.099631276166689625e-03 4.503049969543024833e-01
4.552850093119290009e-02 3.978571472481363946e-02 5.128633003557589998e-01
5.768145819130082730e-02 1.283035762959060244e-02 4.774702646922508453e-01
2.993267577518458553e-02 2.643566739656491409e-03 4.375349147226957891e-01
6.470977345818393171e-03 1.300587688833074879e-02 4.246719639780937028e-01
-2.423229958994143479e-02 8.211061048340219382e-03 4.303271781974470911e-01
4.427657886410840682e-02 6.824235826350076584e-02 4.642665806373838522e-01
5.717293908952592041e-02 7.555131955823947421e-03 4.832215458342024039e-01
1.799457753885838271e-02 -1.941928138177778998e-02 4.367565753398735540e-01
-2.264577744885495209e-02 1.897659894597793565e-02 4.235235822628928837e-01
-4.899519523683640472e-03 -1.386670385941857209e-02 4.337339354900932586e-01
5.365801213546576159e-02 4.953228530996572898e-02 4.564989213503309329e-01
1.552764468300189826e-02 6.057813321622068647e-02 4.317268827906798889e-01
3.459084265699101379e-02 1.310516161919182340e-02 4.392242791765223475e-01
5.758223816550559621e-02 1.676380247589003003e-02 4.668020853047833429e-01
2.896820068008183063e-02 -2.019610935452027800e-02 4.395815149968141933e-01
5.360470283501093253e-02 -3.020495331469608483e-03 5.131475784069521318e-01
3.669867451232026317e-02 -8.155798191251714679e-03 4.421500829849645542e-01
4.094093295034003516e-02 3.344777718590305482e-02 4.436033541499395660e-01
1.207566657563750173e-02 -1.962168357288755424e-02 4.369271978638021303e-01
4.098026617536101174e-02 1.474194079851229647e-02 4.436661549533764681e-01
4.849753438350017098e-02 -1.022919148118535404e-02 4.559711392116362338e-01
-4.230917678094937677e-03 1.886692042392434585e-02 4.164499000420466279e-01
2.940543681507697821e-02 6.394105714559822351e-02 4.410638021160338540e-01
4.717169457103945196e-02 -1.786844938663835133e-02 4.563965912345294140e-01
-1.519004517423402228e-02 1.007971539828194166e-02 4.251492890762109123e-01
5.671922467818756725e-02 -3.274578865729369046e-03 4.720387080988017181e-01
5.962222219432035397e-02 -1.201921564310362740e-02 5.037412110959492706e-01
-1.140973505612925994e-02 8.566402031286878341e-03 4.251145972840376097e-01
-2.183221801912441432e-02 3.365506887419849463e-02 4.168598756236598368e-01
5.583876166447081929e-02 3.806141749024954946e-02 4.597031432020988184e-01
4.012419065535031970e-02 4.060359348372265947e-02 4.429310953055142774e-01
5.606995811272091207e-02 4.167557302519168949e-02 4.611862910176569019e-01
1.066243761699960796e-02 1.176289238593254335e-02 4.273992564843469011e-01
5.463002456432104748e-02 -1.195556208786955482e-02 4.704277725549135813e-01
4.264517307536753316e-02 5.569282653585789708e-03 4.455865703828773006e-01
1.978985557461349597e-03 5.994724151813346502e-03 4.276004221953209616e-01
-2.749420413935174667e-02 1.156825156296906014e-02 4.308979068686737413e-01
4.565600973508761318e-02 3.656784619400264141e-02 4.474509854090814032e-01
3.142101762073859494e-02 3.376048864261921301e-02 4.367616829775788911e-01
5.730865351332919966e-02 -3.512066089023892744e-03 4.975800328564260466e-01
