3.305056567776479270e-02 6.399901921967246499e-02 4.431434598141401060e-01
4.490233355045435831e-02 3.249430270788897235e-02 5.136645077838865037e-01
-1.196760401276681859e-02 1.536712759888616761e-02 4.215584295833540995e-01
-1.583240478069019089e-02 2.764423159682232942e-03 4.294956408539924442e-01
-1.785021324942095283e-02 4.844511734703529915e-02 4.157870947471027367e-01
5.052894187565992734e-02 4.058108732388807788e-02 5.041332617829683560e-01
2.935326663379484238e-02 1.173966948882723942e-03 4.374629871942873893e-01
4.992934861661584706e-02 1.306700211129833283e-02 5.025391669403899142e-01
4.064881010070238443e-02 -1.583366026243129138e-02 4.466609354176743762e-01
3.873178806944716640e-02 2.898528743710583958e-02 4.421698092021283943e-01
4.420781229510956090e-02 4.809499416319178849e-02 4.466020573014926609e-01
5.463172147843069204e-02 6.198856855275003581e-03 4.948365090747060546e-01
4.140371189336523872e-02 6.104496162483889765e-02 4.469840934248138220e-01
5.417269549100795639e-02 2.668188947818859319e-02 4.939819752566194100e-01
3.432057155553403655e-02 1.242708446574416516e-02 4.391334017135544721e-01
5.349589860621863785e-02 5.301165876945708455e-02 4.807557831246666580e-01
-2.157538133052603127e-02 4.109821191414186198e-02 4.146421602719213562e-01
5.643924413761834680e-02 -2.459959061996708825e-03 5.056268901558758078e-01
1.598447620561258692e-02 5.854094579312998231e-02 4.278300370482790438e-01
5.185179743269512781e-02 4.629708549639588444e-02 4.983686142909721228e-01
8.113658151937023014e-03 4.031479150837640607e-02 4.116040086102294993e-01
5.679499672340856953e-02 -5.106183620469250881e-03 4.740500371764407306e-01
1.293988979122459582e-02 5.660435547840129283e-02 4.230301161189965464e-01
-1.993004767404798171e-03 5.428326402825239122e-02 4.155517790420645841e-01
5.124070764890097107e-02 2.430323918263259733e-02 4.997036552059379577e-01
4.128660055077459923e-02 1.216697251203063303e-02 4.441983218727154070e-01
4.956544959403297312e-02 -1.498623858710937916e-02 4.609808615204518678e-01
7.427864082224917147e-03 1.153919458605529025e-02 4.263822112311305701e-01
2.381633788270960325e-02 6.209643566231126677e-02 4.403341634399555726e-01
2.533541868098304270e-02 2.282552126554077479e-02 4.332971480508480133e-01
1.077084594774458705e-02 -1.525033761968661722e-02 4.359163189041024844e-01
-1.640074082546487746e-02 2.439605794240280387e-02 4.181221547597953059e-01
2.030918131754385486e-02 3.247026835965296371e-02 4.274367423819684375e-01
2.492615217474547853e-02 3.893208740758016817e-02 4.313936883400210087e-01
2.911374614348108056e-02 -6.787099249540115564e-03 4.371184030814161958e-01
4.791233528442728762e-02 4.000987272032961381e-03 4.506710172360612887e-01
3.398933254500463574e-02 6.113287341883726078e-02 4.421789559433663697e-01
5.032611704115756701e-02 3.510882501674192357e-02 5.044718660021551004e-01
5.107562019237789352e-02 -1.551580367732734861e-02 4.645707026751360047e-01
5.835093493028778444e-02 -1.220085446636916607e-02 4.869132831886603952e-01
3.340659788000573810e-02 4.059966975532380840e-02 4.384716027427649765e-01
5.668242554343753958e-02 1.298337069255015887e-02 4.655684939805213030e-01
1.022054996812377624e-02 -1.641683298591988319e-02 4.363703124594623950e-01
4.908073836313964905e-02 1.930009844530297149e-03 5.154190025034534051e-01
1.564979346116040018e-02 2.740290183378897224e-02 4.234345653491103922e-01
8.483724157959953056e-04 5.075675971436279660e-02 4.113116231426467428e-01
4.562283926083431085e-02 6.185032216757443968e-02 4.509879444768414847e-01
4.639014541494747984e-02 4.160385829426511972e-02 5.108171203239485481e-01
9.299078019298750650e-03 3.002243865558576127e-02 4.107134950932433415e-01
5.634634305162935369e-02 3.486588028505520354e-02 4.890919710466121728e-01
4.889270336496802372e-02 4.275074483273846523e-03 5.134402183089304961e-01
7.215513607154704773e-03 3.764606466923393902e-02 4.101001789927763430e-01
3.016681649932620793e-02 4.862426264669998666e-02 4.352745131728177341e-01
3.282672265626307428e-02 4.501887030977656107e-02 4.377263991790176223e-01
4.981136002741817781e-02 1.999812176391325275e-02 5.023387641206743526e-01
-1.689759038964038645e-02 8.353091762703610326e-03 4.263702222929369179e-01
4.201432066366073137e-02 -4.600697704802619858e-03 4.465078441205260762e-01
5.403513054906704249e-02 1.451475086904891083e-03 5.044913541463784679e-01
5.648413782459035803e-02 4.403349159412229402e-02 4.674787467929847895e-01
4.623222997261266370e-02 5.225320922053697248e-02 5.015874246044673690e-01
4.874448477466859081e-02 -2.275533735143357716e-02 4.623359429497056472e-01
4.638627150222823792e-02 4.225918701745725453e-02 4.485541355826856424e-01
4.943634619354612958e-02 2.407280571394771265e-02 5.039359194249796170e-01
1.804546247967526301e-02 -5.021818394521774566e-04 4.334213381380552232e-01
4.655848512842367809e-02 4.431527153161275712e-02 4.487931179117504166e-01
2.257394059666951655e-02 -2.108509613948203465e-02 4.375364090024825847e-01
5.501440845559851800e-02 5.057743109911586737e-02 4.667962836482376088e-01
3.313760118172059260e-02 -1.563871083957809813e-02 4.406214754565484504e-01
2.466000538709724535e-02 5.524852753372398034e-02 4.313368619844879515e-01
4.491117697394605285e-02 8.769474977321698589e-03 4.473416243035355233e-01
5.331131808312161019e-02 3.772199334571312707e-02 4.985064745970262390e-01
5.746193391660623512e-02 1.360410807888208159e-02 4.788640124429602851e-01
5.363186318132642794e-02 1.210604763539555387e-02 4.937559012447599316e-01
3.550171984089871280e-02 -1.691437719299382358e-02 4.427199841175096240e-01
2.538603819284352206e-02 4.667843866453811469e-02 4.312143597472903322e-01
5.540004600854794847e-02 7.846413109196866825e-03 4.908103824495166911e-01
4.186857708605772749e-02 3.735458770958369201e-02 4.446610670809098553e-01
5.519761364547765004e-02 2.827192039458175168e-02 4.923017978368085523e-01
4.323396468345109406e-02 3.314693489891543804e-02 4.457800031085485948e-01
5.076042973755395815e-02 6.171124441123390647e-02 4.706736581746129855e-01
4.972902216446840190e-02 4.122027073877636283e-02 5.054365030807412840e-01
1.326017894082526759e-02 4.178047483811482554e-02 4.185715170792428386e-01
4.337238688827349531e-02 1.481809312352345108e-02 4.457161945188103935e-01
1.325633483015060086e-02 4.896873718607779036e-02 4.202378812589355750e-01
-9.935748064819806963e-04 -5.895913413111440911e-03 4.311929624272839434e-01
3.069321898174418028e-02 -1.717929220611653582e-02 4.397297175078419551e-01
-2.190100192572702609e-02 3.409272432529399099e-02 4.165910165372778695e-01
4.752706403618851133e-02 2.309452404881676829e-02 5.084406894487913942e-01
8.696189536880050835e-03 5.990218085065691922e-02 4.234723468045715200e-01
2.354515508639837273e-02 6.328742083078389702e-02 4.427516945952773564e-01
5.890079045619990745e-03 5.721775873620203734e-02 4.191866700811978097e-01
5.700502149014147896e-02 1.651358835306102751e-02 4.653299240263306658e-01
3.478506181321697199e-02 6.254373598368970222e-02 4.435701153944106578e-01
4.734379725628133639e-02 4.198949001318367374e-02 4.495725630219072899e-01
3.533547661370029652e-02 4.313032932221647596e-03 4.402144954443695801e-01
-1.195033083936731383e-02 -7.447401148961418915e-04 4.304250090525688632e-01
-3.406707679967806591e-03 3.710070821012668302e-02 4.065858526910136606e-01
-2.477514040037963675e-02 8.618753472103290320e-03 4.302797569451860538e-01
-3.422410513046337394e-02 8.852670543901965117e-03 4.372695248631689457e-01
3.784705425749537375e-03 5.772574603285245132e-02 4.192171712219379676e-01
5.650181296932399455e-02 2.224253990137629172e-02 4.861475628534615567e-01
5.632824653830244971e-02 -7.916383725216833561e-03 4.743655759799509930e-01
1.926284393187555413e-02 6.127880045912063173e-02 4.388047879786932115e-01
1.204743502929528625e-03 5.151156866757201219e-02 4.118672890405449261e-01
-2.003187385655246996e-02 3.602939921382253274e-02 4.148904217617495060e-01
5.728581039036632905e-02 -1.230507458264101794e-02 4.810689245166696049e-01
5.680244003734304103e-02 4.271311749023837950e-02 4.685413473319638422e-01
4.193322878800693349e-02 -5.349343216517217676e-03 4.465227329580878091e-01
1.771028486606493826e-02 -3.659764099701983894e-03 4.334542885212148700e-01
4.504932942321188821e-02 4.604091037857693802e-02 5.119006316975421855e-01
5.485100333674303164e-02 3.048798672012156472e-02 4.937052875283398645e-01
5.269899297538756244e-02 5.320495989940705883e-02 4.849942528417172660e-01
5.237997210889985128e-02 2.136762682729885163e-03 5.088429681226568357e-01
5.994926593477188648e-04 5.245131998580052773e-02 4.128163717004639244e-01
5.280228317473866645e-02 -3.437068934111061659e-03 4.617747257465629196e-01
1.485747178883915082e-02 -5.174313699613886618e-03 4.329186611973180332e-01
-3.256523048501309969e-02 1.789017853891167881e-02 4.309796526241103098e-01
4.949436339402468743e-02 3.130169602721270816e-02 5.053337057174426272e-01
6.619039368963562132e-03 1.481265140847302930e-02 4.237577378315657284e-01
4.496997765119211538e-02 6.723848333456841631e-02 4.726040224242568089e-01
-1.081256302430168292e-02 3.708176502850946132e-02 4.104880859060122122e-01
3.235477146189447151e-02 7.517853848969816011e-03 4.382803139442202345e-01
2.168439196669742428e-02 2.143481201876858838e-02 4.305300947251795574e-01
4.693501870627166117e-02 -2.092212502342137570e-02 4.582285079496468683e-01
5.790658233356143353e-02 -1.416570845812649762e-03 4.903003421277964957e-01
5.558495701371136272e-02 4.617129817505259692e-02 4.621085630750068618e-01
5.260113201788173265e-02 4.607732592829656693e-02 4.556052692047334873e-01
1.673123653261212110e-02 4.522608407512736933e-02 4.233782906549121705e-01
8.889993848411483976e-03 3.000415023588433316e-02 4.096704218002403808e-01
5.723474606281608174e-02 2.936359121837974623e-02 4.639172860379666141e-01
4.985891427251039343e-02 -2.275853930017937912e-02 4.644854462570282561e-01
2.015002288157217991e-02 1.922991048792482491e-02 4.298951243635367181e-01
-2.387643659941029659e-02 5.276165505471966562e-03 4.307240615167858833e-01
5.549531873229713447e-02 -9.713240244922387214e-04 5.051637574898172334e-01
5.546599564368662194e-02 4.836433363505020233e-02 4.663797818799780281e-01
5.576727708179683024e-02 4.503545658931336002e-03 4.660204590367685862e-01
5.610367564143818597e-02 1.432082085661866289e-02 4.855984238987376966e-01
-1.772779455574251609e-02 1.216163697129315525e-02 4.249117102933559487e-01
1.870542900738354428e-02 3.484085495445333330e-02 4.255768109782516184e-01
1.387022237462922324e-02 -7.798106664012599207e-03 4.330910087090356630e-01
5.527946118673860570e-02 -8.234454456748110246e-03 4.705406379704673570e-01
-1.156971099115438294e-02 -3.265202885554619686e-03 4.311946202702218178e-01
9.384779648889606321e-03 5.613945920295244918e-02 4.196550273638245399e-01
5.201265193634648648e-02 -1.220070835773891769e-02 4.652094125733093888e-01
9.833585939312007237e-03 3.198560069587585725e-03 4.310952265708103970e-01
-1.504976801040628503e-02 3.012728113550339898e-02 4.147414429378026290e-01
5.917934350477557781e-02 -1.130568145671758187e-02 5.077868910821740078e-01
5.000037946876745992e-02 6.422504465489296821e-02 4.687648376688764995e-01
3.137263770302616689e-02 2.600645453119986798e-03 4.383645824103640787e-01
5.370688366833591826e-02 5.026972587369388928e-02 4.862623098685155409e-01
-3.140013643077989997e-02 1.193376784641448848e-02 4.333130919576138051e-01
-3.445418746205344135e-02 1.543491084970296558e-02 4.365995877709487050e-01
4.073371089337150808e-02 5.728990707100395374e-02 4.453088610954742954e-01
4.497034822941372439e-02 4.525448571443075468e-02 5.122988791307565570e-01
4.715895657037501298e-02 -5.505751458725298766e-03 4.524403213566257076e-01
2.444142963828369389e-02 6.339074873540261057e-02 4.420216073920736344e-01
9.620843256887792738e-03 -1.037393743292465420e-02 4.331965980277656669e-01
2.354193085184626971e-02 4.375233680202901543e-02 4.297436676262944011e-01
5.737903885200231618e-02 3.950590378589736301e-02 4.698568013372227958e-01
-2.727453576096579985e-02 1.978924973826255707e-03 4.328878825153107957e-01
-1.051906556130874013e-02 2.653951688760236571e-02 4.148343525404679655e-01
3.057154085234525809e-02 -2.458804695127130967e-03 4.380217399954260959e-01
5.720305090510925672e-02 -1.158827159862942623e-03 4.744751621983420153e-01
9.751247461012061205e-03 3.217958435369364101e-02 4.098568534821538933e-01
5.029538809542175026e-02 1.853156936134132959e-02 4.522191158174678205e-01
-1.974900468251471197e-02 4.253993512569356067e-03 4.293357967154619037e-01
4.637237980488112532e-02 6.501785686515142160e-02 4.552019698941469628e-01
3.055895757949537994e-02 3.739464678490618532e-02 4.362669639831266433e-01
4.750272036217899341e-02 6.645344993341758318e-04 4.509676112615396693e-01
5.250655087467605980e-02 5.368347455401716213e-03 5.032449991000638168e-01
5.403610230699306544e-02 -3.091647595380822219e-03 4.646170096568164598e-01
2.331908785621882724e-02 -3.258620544275646520e-03 4.349141478788376425e-01
5.232124465620085346e-02 5.921156776777154046e-02 4.655580261819660670e-01
4.371076210719230387e-02 1.402037432468836511e-02 4.460265266983572952e-01
5.151486703707990750e-02 9.211960090728869670e-04 5.121307287305006950e-01
5.306535459959019208e-02 5.482383148786242055e-02 4.770625985258717949e-01
5.787079844373534121e-02 2.080496948563634318e-02 4.728999858396392697e-01
4.539267459663905852e-02 3.638191992418945281e-02 4.475695161159340962e-01
-1.437646764840230969e-03 2.857648996430310617e-03 4.288015073174353264e-01
-1.671994275745432995e-02 5.220444632474450716e-03 4.280279421012084806e-01
8.780460897157817135e-03 2.987734929644787762e-02 4.095057760816765979e-01
-2.714316679231378038e-02 1.504684591229429186e-02 4.284780890674873000e-01
-8.581392624242825586e-04 5.587638394701864575e-02 4.183878146510940921e-01
1.056794712688162094e-02 4.869428274317585958e-02 4.171566852586021112e-01
5.326260286616380651e-02 3.279020753863167575e-02 4.979145718295559520e-01
-1.840179240334211333e-02 4.276862177431536849e-02 4.124543288659318629e-01
5.977058992539395661e-03 4.230285359734405753e-02 4.103467778706474389e-01
5.785702623420994894e-02 2.031074512888439432e-02 4.755718725252615076e-01
1.034093264738907524e-02 4.144720929923525338e-02 4.145618218955365308e-01
5.304117205026919607e-03 3.492177923557415048e-02 4.061473625650631747e-01
4.998142423988467808e-02 1.934235006021844255e-02 5.018269553501120139e-01
5.673093685699478333e-02 -3.480521967591348066e-03 5.051817617093748991e-01
3.236208019988504742e-02 -2.252484549784266113e-02 4.420244365104708528e-01
-1.635702467341852706e-02 2.190124205392408874e-02 4.193646077660652671e-01
5.655287431217316529e-02 3.456922756794433838e-02 4.879681274225237675e-01
-4.670984818153998963e-03 3.399949712649450589e-02 4.081819749241467621e-01
5.440853563288280959e-02 -4.109521155015251163e-03 5.130442629585738601e-01
4.797984284605610883e-02 6.353937911686610707e-02 4.564781902904078703e-01
1.720830049218802921e-02 4.723892018257723480e-02 4.241683610681416527e-01
4.958991254141420502e-02 4.459074129818144799e-02 5.051122231862762435e-01
5.392014963406691064e-02 5.342027620400996435e-02 4.610198540382980381e-01
5.599350198510141124e-02 2.981254082929591862e-02 4.608829091941187284e-01
1.160951607945041875e-02 4.120415043971588365e-02 4.162437597805744294e-01
5.689649892021583083e-02 9.656324610005361311e-03 4.826229247005823786e-01
-2.556859146234572930e-02 3.793965777047476201e-02 4.175870930009343840e-01
3.706860893323841999e-02 -1.716166802445022194e-03 4.421044797081459810e-01
5.347779613942871269e-02 2.082509378670869757e-02 4.555773350152534928e-01
5.502619514450362431e-02 -1.399651672926646544e-02 4.735469712158622557e-01
5.716694091463693506e-02 -1.545286487754974529e-03 4.741287689708523212e-01
2.750393285967477064e-02 1.875510444456165299e-02 4.350006708157451718e-01
2.056690001720365771e-02 4.913413086039037508e-02 4.275477887493040474e-01
5.613747299837208021e-02 2.726388552779965974e-02 4.891652018433680915e-01
2.617837346730256601e-02 -7.573984664131718988e-03 4.361173613212704359e-01
-2.447629005937417869e-03 -1.549253300577767625e-02 4.343407629183100305e-01
6.111453475405554531e-03 -1.296266775356282909e-02 4.339419867554460963e-01
4.607796004596153433e-02 3.225752102259343487e-03 4.490701892026651154e-01
8.930434833184619503e-03 1.293687512813214424e-02 4.260666578689366046e-01
4.459885433218625794e-02 5.498650289416512349e-02 4.968979841772951933e-01
4.876696846585595879e-02 8.396582147047963740e-03 5.089854862337819252e-01
5.426896578767434476e-02 2.504095815023031635e-02 4.570911730079582624e-01
4.902325794625311817e-02 1.331014417080297538e-02 5.050609920258978258e-01
-4.224494631738836235e-03 1.611120898639438123e-02 4.188682183727965858e-01
4.921760151463890759e-02 4.490745545917390613e-02 5.056495131642223528e-01
2.878729464958698636e-02 5.436585709675519074e-02 4.343946102370518370e-01
5.708277845935590122e-02 -1.327093537020137669e-03 4.734936409125466428e-01
5.805616866958718258e-02 -7.589303737771302752e-03 4.854606144325869788e-01
1.671679812061482515e-02 -1.674382952455569576e-02 4.360019021154451502e-01
2.350693733757348164e-02 -1.277160250770831458e-02 4.361600546661092426e-01
4.117257922147497806e-02 -1.934971416674602721e-02 4.481857621443108841e-01
-6.940662904656252040e-03 4.151502447846943528e-02 4.093328387530302259e-01
3.380871456275700432e-02 5.174264482416433136e-02 4.384406505848035818e-01
1.982793221345711607e-02 3.732819028802676891e-03 4.339259807803618751e-01
5.728576809675894888e-02 1.579003924670295544e-02 4.802523541002558516e-01
-5.654556399356107030e-03 -7.703159969108305978e-03 4.319974799229086004e-01
5.375572725526839291e-02 5.763536293179687652e-03 4.597132775791948345e-01
5.667499978805510402e-02 -1.104874135831017401e-02 4.787532546762637842e-01
9.964995798190113760e-03 3.180499337150517053e-02 4.107631161177817680e-01
5.823617863994783039e-02 -1.554727883001883739e-03 4.812018730406111833e-01
3.296479866167221356e-02 -2.159438557418115641e-03 4.392840196893179061e-01
4.356735701148332918e-02 4.426673552029227604e-02 4.458903291179625028e-01
3.867835349392052639e-04 3.041303786852801727e-02 4.048472302374820919e-01
1.632394313122928833e-02 -1.024921335553892650e-03 4.329564117644001953e-01
-3.242813486249401106e-02 1.130005618978514176e-02 4.345678672448718416e-01
-1.972177695543328967e-03 1.351254988985613973e-03 4.296822240189819841e-01
1.586611224282565361e-02 2.393624915480117160e-02 4.251645532053354160e-01
5.630414365662333998e-02 3.252209443304494157e-02 4.616067186158756552e-01
5.351219485716356833e-02 1.149880020436174063e-03 5.070480588650566611e-01
2.436283793672411324e-02 2.046234944006044762e-02 4.327749457970714864e-01
3.445856342383264714e-02 -1.020413846765507240e-02 4.407696696551362536e-01
5.736059123276566335e-02 3.560146381503170865e-02 4.660889495728848808e-01
-2.907881187552612944e-03 5.362910644071522404e-02 4.147342710141790345e-01
4.159924086906182511e-02 -1.311558628934778904e-02 4.470763148035579171e-01
5.030579725840624017e-03 4.890447764553315646e-02 4.131044538606206129e-01
5.668917360573912101e-02 4.073597286643219212e-02 4.782596665133843628e-01
5.763235041660096092e-02 5.647196566454388764e-03 4.792895178766867215e-01
4.577105854062907264e-02 3.588729374091744612e-02 5.123628068479303410e-01
1.241712934381704022e-03 -1.157791966638106913e-02 4.324909064753047483e-01
1.814273258345177123e-02 4.118913470203482141e-02 4.247953418023384664e-01
4.987888119207686127e-02 1.138704166898131531e-02 5.038087100594698109e-01
-1.179565648729035895e-02 -5.733250759285802266e-03 4.321058822504709185e-01
1.943624194252151910e-02 3.498717489975336492e-02 4.263603121898978943e-01
5.493287710918943328e-02 3.992879195554996374e-02 4.934087423693992447e-01
9.207724636115272032e-03 5.845517277407320800e-02 4.219446483391217084e-01
3.690825289683953569e-02 9.151671799247945716e-03 4.408715020922397421e-01
-6.962580485046160686e-03 3.509935316624863098e-03 4.280918119796789933e-01
1.446010749256012445e-02 2.641894990073868563e-02 4.226127410708697130e-01
3.579580307026575779e-03 2.543991152908407771e-02 4.084233147402503428e-01
5.632833569594116602e-02 1.655027740331845194e-03 4.938894263554418629e-01
5.228811266934905305e-02 5.400995971696152115e-02 4.565258782944983662e-01
5.622383057402900730e-02 4.111468592001844835e-02 4.828195950946899129e-01
4.674175964942706846e-02 1.460171780440246495e-02 4.485848752728289202e-01
5.036462220256928551e-02 -9.304584588168421377e-03 4.599982294812260397e-01
-2.008702612692002745e-02 1.581273281640456496e-02 4.241146534031425830e-01
3.906628521450233177e-02 7.150037949703147433e-02 4.534893432207249275e-01
5.147440769172659247e-02 -7.005478388409226535e-03 4.609903137650562810e-01
3.702918667807753028e-02 2.622064464107452808e-02 4.409200139722642131e-01
-5.691757893697636274e-03 2.946519808378473756e-02 4.108695114960274619e-01
5.795644705858860740e-02 7.137175717081569414e-04 4.802903205913735540e-01
-1.243512610133691576e-02 6.629044429370652483e-05 4.302507961710315132e-01
5.410451219337686357e-02 4.661234675649836290e-02 4.904964891037628116e-01
4.026884277800333450e-02 -3.210823916959402741e-03 4.446775256157750045e-01
4.733813891769200061e-02 5.794987207968298540e-03 5.144789476601362432e-01
9.279479576699311769e-03 3.408692383480506349e-02 4.070058735983134168e-01
-1.305693697672138942e-02 3.216692427771017382e-02 4.128863314396432060e-01
4.438276365839320670e-02 -1.991493363185410301e-02 4.532251562624162733e-01
-4.685508760614324336e-02 -1.670704727062081400e-03 4.454390392152802192e-01
5.711453674480515552e-02 1.341211870182420357e-02 4.675576946394284783e-01
-1.819663021587162449e-02 3.121762369673558926e-02 4.156956406970991891e-01
3.844108016887551327e-02 6.846868482099625897e-02 4.676472988641209305e-01
5.095484011253812590e-02 5.732403427267892398e-02 4.809552516553518564e-01
4.751409643696708623e-03 5.394064477201684915e-02 4.162294786561790416e-01
5.044838186220990117e-02 4.723148365890184747e-02 5.013248894191975058e-01
-1.639402662629066074e-02 4.591082918400824636e-02 4.125942048447837629e-01
-8.437254052008084839e-04 2.756944484857509065e-02 4.073445762345135335e-01
4.564960745548043985e-02 5.210559895415940723e-02 5.030103238843600666e-01
5.751848765855304552e-02 1.989591286957134719e-02 4.660878038939571533e-01
4.057162945562867162e-02 6.346527020931050367e-02 4.473939149432788476e-01
-1.133909239545535796e-02 1.530820669700661343e-02 4.214573061643003826e-01
1.593782536809433895e-03 5.210495979874958834e-03 4.280474571026388619e-01
3.905503088282698265e-02 -1.968166484571811509e-02 4.463286469231938502e-01
5.109019155450655186e-02 5.765716869868122568e-02 4.574670560175419509e-01
3.203993050686991528e-02 5.963178483522245388e-02 4.402002244215865723e-01
5.810382879772112152e-02 -5.813282963410297197e-05 4.812609501051719474e-01
5.817208233777851345e-02 -3.111861473355992912e-03 4.868323072301810606e-01
5.089789461442426055e-02 1.957725177128393640e-02 4.995263575075537532e-01
5.525722044076795264e-02 4.917221526607645776e-02 4.655709779572699825e-01
5.787127326548750089e-02 -3.107249699470415912e-04 4.873783713925712302e-01
3.035069937562709375e-02 2.183209208672383383e-02 4.365233867599020434e-01
1.766468865719224290e-02 5.972665832462555058e-02 4.312935568586301338e-01
1.159197249477176943e-02 4.944835397024439222e-02 4.184899798396555792e-01
5.753948201135495460e-02 2.989268146219553959e-02 4.829816072457528420e-01
4.104850019139458239e-02 -1.322052529864042175e-02 4.465499576179541852e-01
1.724596498317996010e-02 2.665018927915754204e-02 4.255845800922583577e-01
-2.897941937929273196e-02 -2.519789093055776336e-03 4.357973458588302318e-01
-3.249525326931806957e-02 2.630155260099522468e-02 4.267454198921994402e-01
5.183342095192607774e-02 1.086751793241686696e-03 5.111868610306912197e-01
5.231182433841338048e-02 2.521436217684064340e-02 4.976347241412477085e-01
5.425966467724104708e-02 4.648451929759181422e-02 4.899673797548152465e-01
2.515743593036615794e-02 2.929293507879849115e-02 4.324089835595809062e-01
7.949144672790921934e-03 2.212526978528709526e-02 4.171277551517346138e-01
5.575125787252919324e-02 4.783911265795449258e-02 4.688676601645265229e-01
5.663901844930264301e-02 1.449605830666760541e-02 4.833559621359143077e-01
5.773780620634386129e-02 2.923263368283789826e-02 4.652176714089737430e-01
-3.471075670012997716e-02 1.942894689798039393e-02 4.343473227222330313e-01
5.348362328363637924e-02 -2.739400324503404090e-03 5.130297126852009226e-01
1.515465628852251390e-02 2.082064382288075291e-02 4.252609971601106209e-01
4.837543994862963936e-02 -2.479482578283542012e-03 4.529223365420713687e-01
3.586278256987219387e-02 1.244150444271203623e-02 4.401262189918702661e-01
2.340558189896567790e-02 5.556749825221580369e-02 4.304765573958748703e-01
3.568601204152190010e-02 5.523433308267053365e-02 4.407376072727024474e-01
5.163139302503657463e-02 -1.967594007235132919e-02 4.672404150892128238e-01
5.828583913287557067e-02 -4.941783517787142962e-03 4.900614866725075958e-01
4.592698534923635167e-02 4.950669560755146387e-02 4.482413077563829340e-01
2.612034699915740873e-05 4.885087674393558121e-03 4.278063860532519969e-01
2.766208317818393339e-02 -2.450436041776347246e-02 4.398211102601023992e-01
4.752481888370236468e-02 6.247729161958233413e-02 4.806179821442921885e-01
5.365462334185656934e-02 -1.788153327044736396e-02 4.713228540691096757e-01
5.970185222693466347e-03 2.489557255272285136e-02 4.100806508114714921e-01
2.576071625327341907e-02 -4.235492760699052783e-04 4.360190431265187350e-01
4.250881756486542956e-02 -1.598345382412715357e-02 4.488434135493321042e-01
9.438398460608133853e-03 6.088982524322968104e-02 4.278680347326546118e-01
5.598446548948534524e-02 6.354278378897399229e-03 4.897026190712118199e-01
2.139104988973234561e-02 3.102675868102498444e-02 4.287356924415847148e-01
3.607841179971740114e-02 1.317442966257614118e-02 4.403403674857164218e-01
5.584696832632878027e-02 1.903761166034767527e-02 4.611807421221675307e-01
6.742713894724860178e-03 1.975545878468963276e-02 4.198923465154545953e-01
5.321486894088846287e-02 3.553851337562918128e-02 4.986616347290181439e-01
-3.156685745177254671e-02 -9.508527064375168515e-04 4.365484621844041291e-01
3.365802172317348961e-02 2.966637512898987611e-02 4.386781041164248829e-01
4.091002683212666136e-02 6.888464176585583354e-02 4.648703927849164863e-01
5.125548386657822336e-02 6.121490932783588135e-02 4.692063227453819318e-01
2.368907223094341916e-02 2.979035345706262591e-02 4.310603117922323646e-01
5.495408352170755295e-02 -1.213803346712306018e-02 4.722958469952196481e-01
2.613300978251873255e-02 5.769274967881604307e-03 4.359483333004049443e-01
-8.306501637490774567e-03 5.015015773927467696e-02 4.118201437946021892e-01
1.891101777592266164e-02 -8.249901365170057843e-03 4.341966152921967192e-01
5.732209669079838671e-02 3.713715420190415173e-02 4.771964576376576672e-01
-2.221234084989945519e-03 -1.834862900809589394e-04 4.301134029584051111e-01
-2.911741925566526529e-02 1.048437323357041817e-02 4.324185774669585536e-01
6.565889969504211388e-05 2.745884603877958574e-02 4.065320592878652883e-01
4.498166749517686080e-02 6.518166525554862367e-02 4.785417255986187945e-01
5.516335664915691245e-02 4.801058026643778565e-02 4.805980282584669250e-01
-1.022264406338082784e-02 -9.996086099771216843e-03 4.337630146547334919e-01
4.895064346984369374e-02 2.291332462744651022e-02 4.508263569633628731e-01
4.547605611463827191e-02 3.437524575579506414e-02 4.476334984425501262e-01
1.535193517988666170e-02 3.592357499718090708e-02 4.222594536429813417e-01
5.528413202449572461e-02 4.095101272223999715e-03 4.952250575544086542e-01
3.945625011878112209e-02 6.764253800853997634e-02 4.728175014059191050e-01
2.456423730756066449e-03 3.889634975151493035e-02 4.060826781297423027e-01
5.044033483486529829e-02 6.192998986173494508e-02 4.620480334017956214e-01
4.266454356873194270e-02 9.987849352335936501e-03 4.454426891489388640e-01
-2.120507047727301572e-02 3.311090701065721315e-02 4.165874101320923284e-01
-2.302071633744970022e-02 4.321677645798500250e-02 4.162256759763873215e-01
5.005445504751788316e-02 5.600284814359868940e-02 4.871788060510626184e-01
5.111272614767626427e-02 5.108552047883087310e-02 4.946622404974428400e-01
-2.129922488239260198e-02 2.564832293720492942e-02 4.196417656924944506e-01
1.571161156576501503e-02 4.522762910391882329e-02 4.223557952113091707e-01
1.574849415886586668e-02 4.392278312550774999e-02 4.221908231503394004e-01
-1.844801963507478309e-03 2.118297750508016039e-02 4.133020434917182295e-01
-8.828604926596858582e-03 4.634856433710523443e-02 4.102526143196652542e-01
9.330472887918507194e-03 2.731724392887052710e-02 4.130290204380954733e-01
4.855723772164131924e-02 5.291906631038682807e-02 4.979574123571108846e-01
4.659443370506807791e-02 -1.178170650781482434e-02 4.539117136836849919e-01
4.453365384306375713e-03 2.495461105585932565e-02 4.093512189932209666e-01
-3.603313915604734741e-02 8.850407254425451432e-04 4.382848664802548866e-01
5.344999061980290622e-02 1.605595214660652387e-02 4.933090256705305876e-01
-3.212295945040609391e-02 3.379836511836054654e-03 4.353088119986313620e-01
2.208525912048413947e-02 5.845570391487285578e-02 4.322246048139449237e-01
-2.641271838923532969e-02 4.459628951809039427e-02 4.199440381196307137e-01
5.234998496205393870e-02 4.164698798239970662e-02 4.553501591217246625e-01
3.935251259383987926e-02 4.535395638349733194e-02 4.427121174602188236e-01
2.382000375287181282e-02 3.337913243731737561e-02 4.306413551344898671e-01
3.842278833392632348e-02 6.308832166308962763e-02 4.458652084207328503e-01
2.454426089555137094e-02 6.438030885603071574e-02 4.465762703970769243e-01
2.126014768100757679e-02 -8.990333593187996644e-03 4.349145553627661864e-01
1.499368739704554261e-02 -1.676276606579863229e-02 4.359663777554371733e-01
6.213965266746169537e-03 -1.006843474966388069e-02 4.327037135960709602e-01
5.426392614095892214e-02 2.812488328164855500e-02 4.943600303150260111e-01
-4.019647491737987459e-03 1.730906162920420148e-03 4.292569352234545943e-01
3.695707827976675575e-02 -2.784543285841892604e-02 4.484479665509060187e-01
5.797224371368996793e-02 -7.218705375257710929e-03 4.840551350573050748e-01
-2.333121873022894407e-02 2.749125815847997673e-02 4.198704462650338365e-01
9.412055460588757139e-03 3.696151228348459883e-02 4.127213493283552470e-01
5.463665550946588539e-02 1.402228024028096855e-02 4.899117339288637241e-01
5.757543340118045222e-02 5.597609494465045216e-03 4.812868814563256437e-01
-1.117108934699490366e-02 2.508764738777397377e-02 4.158539376479210570e-01
5.415412914049097526e-02 6.961551064622005514e-03 4.954152295669866923e-01
4.916985167393265327e-02 1.115595425042904473e-02 5.058542279889048920e-01
3.756942390174423246e-02 6.358400106643476157e-02 4.455695233304549085e-01
8.229473423729594117e-03 7.980845170207933117e-03 4.287157411993831047e-01
1.491532112154911674e-02 -1.617673150433058399e-03 4.326080847708523303e-01
1.122680778710364105e-02 2.407683904782856321e-02 4.200856205225988460e-01
-7.853350202679338851e-03 -9.163662927997025948e-03 4.327941271999098949e-01
-9.450641588155495737e-03 -1.073040457748446891e-02 4.338936359272494436e-01
-1.101471689520804043e-02 1.349850254813793338e-02 4.224730409112696927e-01
3.132735768843470520e-02 4.862636500213735058e-02 4.362907966417393646e-01
-4.373841338643959069e-03 4.660052651820515562e-02 4.095920496279289447e-01
9.512517112422725490e-03 -2.024183663663171526e-02 4.373175413946117640e-01
-2.086792047254927562e-02 5.866956928592876631e-03 4.290412001754632110e-01
2.974473525008521427e-02 -2.480200717411226025e-02 4.411105931401085867e-01
5.787485396318697156e-02 2.131985729899460100e-02 4.718962037185295832e-01
5.752189780625870108e-02 1.316433476679701453e-03 4.779197668709265767e-01
2.940829703800298262e-02 2.397745611697673501e-02 4.358082637175916818e-01
5.529874049694373517e-02 1.459363418836782597e-02 4.880401976056045199e-01
4.423418832853046045e-02 4.181122945606750158e-02 4.463933209698494609e-01
3.846690479734572732e-02 1.870396257234832951e-02 4.417614222858151640e-01
-3.257967817884759032e-02 6.352290993616220571e-03 4.364200417121114062e-01
-2.509428628667300168e-02 1.911475891948148740e-03 4.322470025798971216e-01
-4.099334210553015612e-02 2.257284694001661721e-03 4.486379311719408958e-01
-3.716408539661017734e-03 2.161868685948523192e-03 4.290213015197715252e-01
5.809605963078776775e-02 3.019376902824492601e-02 4.683226617914682532e-01
5.555045475120237025e-02 8.266184121044926891e-03 4.900369975304106340e-01
-2.521230042134693303e-02 2.743894440869038692e-02 4.208289259525651027e-01
3.902636953316785447e-03 4.079182153764980556e-02 4.075992997008316965e-01
1.993416328347680233e-02 6.112301636630876334e-02 4.382885329446867262e-01
5.260548556538331699e-02 4.891778069319697997e-02 4.926353913109122740e-01
5.689394013128572236e-02 1.928057230752659376e-02 4.640069420859817551e-01
5.819170323138023876e-02 -2.746024760791466839e-03 4.857749829854811630e-01
3.548646314181107958e-02 1.317060838261395819e-02 4.399954526167509927e-01
1.862513600478547110e-02 -1.052563213669765975e-03 4.335653002763026342e-01
5.640266909831301301e-02 1.490839143476231816e-02 4.637408399706078321e-01
1.186778845549378916e-02 3.782448690058965151e-03 4.315436789918926097e-01
5.498461880828325876e-02 4.706198887909614215e-02 4.834571449283778799e-01
5.024251022110547832e-02 -1.218275610495196323e-02 4.613992131680590969e-01
-2.614651321825444547e-02 4.246079344440314637e-03 4.320137304315703752e-01
5.364140725155600031e-02 8.259896355815995669e-03 4.960567517758043832e-01
-3.407385797398768817e-02 2.055725383879633897e-02 4.321049576273044979e-01
5.018883036879882853e-02 5.594449638911830336e-02 4.870560089201080856e-01
2.636093516682869176e-02 4.661560106135578807e-02 4.320815454709072134e-01
5.581022817998924912e-02 4.716364897088118346e-02 4.757627693563424853e-01
4.730774882003940113e-02 6.607847557287113704e-02 4.712345387946720865e-01
5.074443738017226507e-02 5.192459881797604343e-02 4.941915098095913117e-01
-3.271860563162309193e-02 1.152292511369678099e-02 4.350174205911662151e-01
4.920239568478514819e-02 -1.481393728812072791e-02 4.601367742669077998e-01
1.437570125927192452e-02 -2.108682102518096707e-02 4.370055790466097489e-01
2.176620484238258636e-03 -1.792625012521425684e-04 4.304640636957528521e-01
5.204265333487972933e-02 -1.071103868173418384e-02 4.646452289906263244e-01
4.625970695356432932e-02 7.458177533236812207e-03 5.147050346456548686e-01
5.622530893613942454e-02 1.590804708880950297e-02 4.626790876597802193e-01
4.905002546734697766e-02 2.879755657555096646e-02 5.060197388951072073e-01
5.221756222988756940e-03 1.592510486499925174e-02 4.220006288001706407e-01
5.726341172383202227e-02 4.039386697037036789e-02 4.696457536243740516e-01
-1.415198651983056582e-02 2.568169431526525978e-02 4.166588681456736554e-01
4.465353851049100320e-02 2.226937998174619016e-02 4.467289882285943592e-01
3.598574646384268549e-02 6.169737298372269391e-02 4.439281587169677801e-01
-9.006906980843559438e-03 2.662610029324584751e-02 4.141222424185562190e-01
4.143557738462001067e-02 -8.447712578896317617e-04 4.455097235462045502e-01
5.663248511867121499e-02 1.703665596383251851e-02 4.637179515577709021e-01
4.673074401311413939e-02 5.243842179187649388e-02 4.494754180518433229e-01
5.309986777338219360e-02 3.274717037572311834e-02 4.556924942834842396e-01
5.300969746483621958e-02 3.342590741439901980e-02 4.985791841507655198e-01
4.855434159524001092e-02 1.831457476513359897e-02 5.053520404062514793e-01
3.087742786520729019e-02 2.333256815912496118e-02 4.368487068459536715e-01
5.823423618761885967e-02 -3.915131742367953215e-03 4.846824107137336912e-01
3.068123639203849604e-02 3.461345379231113573e-02 4.365247332939445890e-01
1.474072326587156680e-02 5.284502193705561263e-02 4.228753246874064620e-01
-1.230361334307708207e-02 3.461706369199164107e-02 4.118520676706708405e-01
1.021321400909554547e-02 3.413048582428312300e-02 4.095667265593235795e-01
5.415084353006072160e-02 5.413882373464681819e-02 4.699601840086025661e-01
4.249316344528579481e-02 6.441003425012852002e-02 4.499975146663959813e-01
-2.515081849492119964e-02 5.197800448251136546e-03 4.314380593412927012e-01
-8.756194213402172799e-03 3.070878373935824468e-02 4.117632542003097917e-01
5.537508613004895469e-02 3.357018768314706803e-02 4.926181278009699738e-01
5.509521518736393980e-02 7.902655029932660266e-03 4.624054543888118651e-01
-3.444184843810245422e-02 8.788744818970504503e-04 4.373550918713967617e-01
9.088315372787206942e-03 5.943971260282726599e-02 4.228806777559488417e-01
7.858863769885269038e-03 -6.886704081329443616e-03 4.320689523167999813e-01
1.898508263960406450e-02 3.051692297327963932e-02 4.263736408151578838e-01
-8.828954344141454885e-03 -9.295382092826560277e-03 4.330791155828790373e-01
1.701418330661308431e-02 4.217592715879630444e-02 4.235607187298653376e-01
1.492723774979694620e-02 2.923166616148945018e-02 4.221639677340546792e-01
4.532052629311812686e-02 6.762616555108431904e-02 4.646728398790767045e-01
-5.792742465966121621e-03 3.916413801790015470e-02 4.079587700814130136e-01
5.776503232685284428e-02 2.501340887356099177e-02 4.656841889573670734e-01
2.969743306951113174e-02 6.544850540293212227e-02 4.465045119626480652e-01
-2.289925545831643025e-02 1.537806208909153066e-02 4.256168970678775310e-01
1.243572152481038987e-02 -2.059021987042327154e-02 4.370874134884457085e-01
5.112336038715445397e-02 5.745204531783937307e-02 4.798452265377199932e-01
5.346927910464994993e-02 1.070621566872068282e-02 4.570295941945311524e-01
5.136433327397817161e-02 5.332940775090561081e-02 4.895191215750102076e-01
