5.533523901694088060e-02 4.132547487792008478e-02 4.592061665971879370e-01
4.673319587288849580e-02 3.595241938061383841e-02 5.106798962807810316e-01
3.863257322050873271e-02 5.816866984136422059e-02 4.435321927187392266e-01
4.746455883937333170e-02 4.385999504238696084e-02 4.494886204227426241e-01
-2.671504722337397428e-02 4.152624383599075319e-02 4.195074976510730913e-01
5.737979292766845485e-02 1.908824968473128887e-03 4.751245971588780037e-01
-4.392872414073107322e-03 5.219273740788104438e-02 4.134367967767187402e-01
-3.488574105183456231e-02 1.800110908150449884e-02 4.357953202496973599e-01
-3.272724325549554447e-02 8.870434616789112797e-03 4.355632308809544440e-01
5.534646118403639681e-02 4.005896300937938914e-02 4.590639364530963995e-01
2.539189570490500356e-02 5.276738260741291320e-02 4.312256696195805872e-01
1.810466848999463946e-02 4.318171114965186491e-02 4.240449078337124589e-01
8.966715119241016468e-03 -1.123669260232383095e-02 4.333028759314216383e-01
-2.741270993017966631e-02 2.722624783439607510e-02 4.221965374987238229e-01
4.901652890262586659e-02 8.859228601186456761e-03 5.078151351939712566e-01
-1.917491063922514144e-02 3.278245726258856296e-02 4.154190484813451989e-01
-4.173021796253821580e-02 2.581611618167369872e-03 4.433048247651900087e-01
5.186103245543485091e-02 5.768598741798717372e-02 4.761052089163531065e-01
4.793150176436841714e-02 6.247684460837454878e-02 4.796058514617567714e-01
5.811272272048984694e-02 -1.466409574294835413e-02 4.845405377647727385e-01
-1.037853604639323891e-02 2.038200927879984733e-02 4.176421603174433894e-01
5.787955091647048467e-02 1.984123811344154498e-02 4.755507564044553770e-01
4.947345813194123365e-02 6.505941285972675903e-02 4.679851924488618864e-01
1.211806833245862233e-02 3.406736934095529884e-02 4.137814217608587475e-01
4.750847598918438164e-02 -1.420708634713990781e-02 4.559630721825226329e-01
-1.319991930145300932e-02 4.123304190476256154e-02 4.104917602492857975e-01
-2.561045433261675136e-02 8.641346035669475456e-03 4.307331683445954629e-01
5.665866019870392095e-03 4.042886356652823903e-04 4.306247582962644538e-01
-1.899149755946345081e-02 1.886981074929152888e-02 4.218529489330831161e-01
3.162787456715835527e-02 8.024642238341980066e-03 4.377059331263833397e-01
-2.783755704446366427e-02 -1.815744751253767306e-03 4.350355552693864758e-01
-2.633182465952874085e-02 1.256540578328846011e-02 4.293338957658261457e-01
5.083630851024784070e-02 2.598323515039311152e-02 4.524646853815149639e-01
5.737392599435900409e-02 9.131202209379272322e-03 4.771406487061150559e-01
1.783205705019764997e-02 4.823986788776099544e-02 4.244244976279482051e-01
5.825802052958965749e-02 -9.874479519211132664e-03 4.873892172687412372e-01
5.173064754668138532e-02 -9.976716109488855538e-04 4.576345856563268644e-01
6.057983004565139357e-03 4.326655978238745648e-02 4.103450343551540702e-01
-2.102527925917805490e-02 2.514222478134469502e-02 4.195062536424042920e-01
4.848708110387339731e-02 2.543459514683963502e-02 4.501897775558316717e-01
-1.209133510611790606e-02 6.596397684984585917e-03 4.260899138608937320e-01
5.452447135080266960e-02 4.573813728884603552e-02 4.897836857770028196e-01
5.481579131767690821e-02 5.181241885343049886e-02 4.654540651307702004e-01
2.062765385104243371e-02 2.751988183284934456e-02 4.281733810009823449e-01
-3.063023227388490116e-02 6.423621295823994659e-03 4.345562314271835258e-01
5.637888384185352902e-02 -2.420566345614182970e-03 5.024232035021929388e-01
5.766645231794485099e-02 3.388726250899908032e-02 4.797573784832946386e-01
4.756848725254683719e-02 1.933770315383005972e-03 4.506481477051585971e-01
4.403511963377794436e-02 5.546783071754897432e-02 4.961014988164566542e-01
1.618875510723837008e-02 6.055612540315976483e-02 4.332814544806306012e-01
4.931685756534122389e-02 1.099535647933486820e-03 5.157697057530404861e-01
-2.900405921373366488e-02 3.069827856786865039e-02 4.222570176675100040e-01
2.268168433018941804e-02 4.901560720321730680e-02 4.289016700802510962e-01
3.603547111490140731e-02 2.161266846721082713e-02 4.399816606775580619e-01
5.336663344054808078e-02 1.439564917619648964e-02 4.935322853743906446e-01
5.548635346895769427e-02 3.501865115893169900e-02 4.925518273367514577e-01
4.451098853972005644e-03 1.939018810312254440e-02 4.174020535943124277e-01
5.814393189057752431e-02 -1.773011673114451014e-03 4.804313951500895907e-01
2.674083417841497876e-02 4.398139727789084769e-04 4.362288061375339532e-01
5.610416708473757452e-02 1.300679264911326627e-02 4.854392623823656772e-01
3.131947641838931512e-02 -3.660655462537795680e-04 4.384454359680888258e-01
-3.055983821424141864e-02 1.880295928385728940e-02 4.278884587145432850e-01
7.250205326742092601e-03 2.019515552008313217e-02 4.192095357294666202e-01
-2.131158184482682960e-02 1.023146694072627795e-02 4.274431712976943243e-01
5.386598394796974359e-02 5.263607016469701305e-02 4.802736724412525193e-01
-1.037307823835160840e-02 3.805655068653259615e-02 4.096622951415161973e-01
-2.204761961377171842e-02 4.013926321161931376e-02 4.148895746524087214e-01
5.338271804924216157e-02 9.638800380809588175e-03 4.569677086860655657e-01
5.578566383045178295e-02 -9.238630352977632645e-03 4.731166177543319473e-01
4.573698178791683888e-02 -1.488027992844422401e-02 4.533500036651210707e-01
4.694779754492953150e-02 4.526992591251471909e-02 5.091704955962417234e-01
-2.704947742855576265e-02 -2.646642515543905574e-03 4.351323907847061689e-01
-2.531840949031239144e-02 1.563681098119888008e-02 4.268543594081909420e-01
5.139591491140822060e-02 4.153081057331133030e-02 4.537798899198392522e-01
1.430674708142842810e-02 2.519212095127453498e-03 4.321649458282755818e-01
1.797224009220918517e-02 1.798816794725048920e-02 4.284732560584276206e-01
7.633528736514455862e-03 2.606836253111964596e-02 4.108600290043947223e-01
-3.336392706517706669e-02 2.471383475206525432e-02 4.284888018785251163e-01
5.773665276424736620e-02 3.683789992883772235e-02 4.734597172018173983e-01
1.526393356237284657e-02 4.258286543313795358e-02 4.209915608187184133e-01
7.904286228595347463e-03 1.470391570866603874e-02 4.241378525233114871e-01
2.676648015047019061e-02 6.021606799117600051e-02 4.364941222378545538e-01
5.423305425441081462e-03 6.508779560452808421e-03 4.283984178693076572e-01
5.342497267277002831e-02 5.399498407520784971e-02 4.778762078498386967e-01
1.718777157570527264e-02 -2.358192680274904043e-02 4.374707127604258172e-01
5.431513171575558241e-02 1.733251412282672474e-02 4.572462688798860642e-01
-5.153536253165403799e-04 -4.481594238447364487e-03 4.308445629969528401e-01
5.786326281479575034e-02 -3.362413292856410423e-03 4.789663955716995658e-01
3.623314592590221039e-02 3.690294880982474685e-02 4.402970597730210822e-01
-1.544749743986924620e-02 1.854770760961817200e-02 4.206392996634272241e-01
4.161447930846739335e-02 4.415082272612683156e-03 4.449327829794068045e-01
4.660778493199289191e-02 7.684587706255858151e-03 5.139146469565761821e-01
2.114365972995230561e-02 2.256273137347729676e-02 4.295735727701641693e-01
-2.541969463787497815e-03 2.721425646834750578e-02 4.091063572483345512e-01
4.957731551377320134e-02 -3.885284272223552861e-03 4.545938919724333283e-01
2.418588303629846600e-02 4.784893551246689920e-03 4.351907851018713136e-01
4.771673593464401120e-02 3.102671877940353998e-02 5.086009830866600190e-01
2.656362535536723260e-03 -1.042249638425106831e-02 4.322581994020400220e-01
4.753388687784194933e-02 1.647778777882226084e-02 5.077914246085521999e-01
4.134946654130713245e-02 2.179928904492351577e-02 4.436200363223510301e-01
-2.862626576518150119e-03 3.237246020125240237e-02 4.069287890234842275e-01
4.276823970197683039e-02 5.076397757198472527e-02 5.092662087041804897e-01
-3.348295201483291600e-02 1.914242246812650206e-02 4.321260266982077658e-01
1.738353744937286977e-02 5.116932094037698192e-02 4.243159680195419114e-01
5.074166739869691994e-02 6.277761461463705894e-02 4.692107511136288100e-01
1.359413887730157207e-02 4.243773694876186268e-03 4.317974594160075563e-01
2.687475194676801349e-02 6.459526114756224124e-02 4.426016056425242651e-01
1.987471842364717245e-02 3.176829905531980414e-02 4.266429575080231129e-01
5.358373617880200085e-02 3.230591782655848482e-02 4.560511624561880417e-01
9.786087863658228872e-04 5.481694210743712908e-02 4.158324897049218150e-01
1.501993694852991543e-02 5.345157371358817688e-02 4.227320615822216521e-01
4.759572293040678637e-02 -2.015204080558635757e-02 4.591912966960544074e-01
4.818794755347895892e-02 5.429212033256891612e-02 4.961109931456966216e-01
-5.219526269781686947e-03 4.571688326679789957e-03 4.271521430553999465e-01
5.441665749993700868e-02 5.297540117100058704e-02 4.628943255987666983e-01
5.743333869267758934e-02 1.965333692354511060e-03 4.758697640346114532e-01
5.733621551622975626e-02 2.905787154906539632e-02 4.845967984496550862e-01
5.472202800928092914e-02 5.174940129646424247e-02 4.746167331244144361e-01
5.392165651910245383e-02 4.882724176973195912e-02 4.880369141542660327e-01
-3.000367960332658152e-02 2.307081222407997290e-02 4.255297063168444471e-01
-2.950391770200479474e-03 -1.466447435661057293e-02 4.337611322512283096e-01
5.382445261993532015e-02 6.220389300868879937e-03 4.974788368082297407e-01
2.781093732838152074e-02 6.307465929583061515e-02 4.396228255369254989e-01
-1.677147278609064651e-02 1.762857647739642097e-02 4.216699474104224632e-01
5.280357298998667598e-02 1.749117096868141666e-02 4.549917539794153254e-01
2.110878802955241246e-02 -1.508350861034947997e-02 4.360596930030837814e-01
2.677742469456201660e-03 6.486910479511418665e-03 4.274893600528584803e-01
3.925347670821265761e-02 4.751025806380768102e-02 4.423740116147557577e-01
-1.618906532189783379e-02 2.246899739402846360e-02 4.188157662694672045e-01
3.398385593126351280e-04 5.308355453629847592e-02 4.132331676593887781e-01
8.341037579107200492e-03 3.824162359712470621e-02 4.108159362900480893e-01
4.396756229873603761e-02 5.730297884492817351e-02 4.477514539669941174e-01
2.223934021732736077e-02 3.973001406798695734e-02 4.285683958274955074e-01
5.751624549322435775e-02 1.846845820899201650e-03 4.771143102449246221e-01
-2.830953586319842272e-03 1.308301563845146176e-02 4.218111750230323920e-01
5.675088607857070588e-02 3.637826797520721939e-02 4.636877241078847245e-01
-2.537174196132679568e-02 -2.434553622813698942e-04 4.334217390265218128e-01
5.574166930802612607e-02 3.728236282280378983e-02 4.602907038864770817e-01
-7.142970236483109359e-03 4.838702506084421179e-02 4.099420778463144788e-01
4.381538974484096294e-02 6.590761594273518431e-02 4.523429929139021199e-01
4.543233305388668514e-02 3.026249881260058977e-02 5.126652418523975907e-01
4.818225737316921692e-02 4.749349907403630638e-02 5.059468976248256977e-01
-5.207847754965948955e-03 3.422623979689342483e-02 4.084486071484884073e-01
1.235245904488695493e-02 1.682260611438914782e-02 4.251089282552898974e-01
-4.647723658472253938e-02 -2.302639308877957487e-03 4.420265805920077229e-01
4.306234095115236971e-02 1.522548255014013856e-02 4.452874949951112216e-01
4.469878476113129523e-02 4.091527141801210715e-02 4.465261979389966718e-01
4.442728982708729624e-02 6.703980161541663041e-02 4.538086965458545952e-01
4.670817542977854370e-02 -9.016497699807239988e-03 4.531373637641489260e-01
5.467655841527157418e-02 4.190221489893972140e-02 4.937199555941028106e-01
5.251732587335989494e-02 5.891583231083499794e-02 4.676242602696632500e-01
4.746104939756329993e-02 3.274665953747470798e-02 4.492026797913483138e-01
1.302043283365020461e-02 4.133008672737936012e-02 4.175135597457916292e-01
6.850880137765262036e-03 -2.078032955777499996e-02 4.377247639087444853e-01
5.822837098099070685e-02 -4.622373531214090010e-03 4.860196964646718576e-01
3.898949195682336472e-02 5.274389529937461435e-02 4.424883007473136565e-01
4.808308476146391265e-03 6.097944895944684002e-02 4.231879124973976225e-01
5.663355903581395595e-02 6.553513942703602640e-04 4.941562142357565635e-01
5.474471076360404309e-02 3.147578940167567764e-03 4.992521388882412703e-01
3.807613118189566437e-02 2.710486038534667963e-02 4.414315820390471989e-01
4.063117498656447502e-02 3.520611390827045606e-02 4.434885863125210825e-01
5.599483784646105272e-02 1.456990513621093594e-02 4.620738947750344106e-01
5.297831859167274199e-02 -1.910794133766910430e-02 4.700409230740631439e-01
-6.959826711794974211e-03 2.920723419086055511e-02 4.115798697836088316e-01
4.386116403125146779e-02 1.904856077916453408e-02 4.457909411692118629e-01
5.309286333576745259e-02 4.042426224941627483e-02 4.986220659695430046e-01
5.783996363868696561e-02 2.381833359179288609e-02 4.796389699129811057e-01
5.335442669315273306e-02 -1.716865045412213978e-02 4.703797299694094658e-01
5.041654454495414495e-02 1.058139061341840416e-02 5.029732698591196094e-01
3.026789801590368950e-02 1.132868502909657477e-03 4.378078722611478124e-01
4.434013241958270624e-02 6.888207504715766760e-02 4.610087183341968764e-01
1.473546529158117381e-02 5.253710334697436063e-02 4.222678938216933853e-01
5.072025808940338470e-02 5.985659843351855136e-02 4.762152944046939007e-01
4.826774672201404603e-02 1.596557681879421514e-02 4.499667226200401160e-01
1.602287428170642500e-02 6.031045407811261305e-02 4.316312093758556401e-01
-6.499105104502686699e-03 3.250920161081248538e-02 4.099350506941298322e-01
1.369485164559859115e-02 -5.995952681574704367e-03 4.326343745160415866e-01
5.063151848239904468e-02 5.415668508770473538e-02 4.537731603996825736e-01
5.383188508887200296e-02 7.342795214932078263e-03 4.590604124623644533e-01
4.280513608344018589e-02 6.980488139471056896e-02 4.598697108905153708e-01
5.728309161916370074e-02 7.934231819384591350e-03 4.817239159362331491e-01
5.015720898542336964e-02 5.807684314615984764e-03 4.524102025171908847e-01
-2.943948560228128522e-02 4.869920743939871316e-03 4.340268705492322798e-01
5.667233417475959351e-02 2.527576660203341430e-02 4.868415045176009981e-01
4.929544690766590048e-02 5.576530718804935394e-02 4.892892848995747945e-01
4.922502151912005325e-02 4.622471373565360808e-02 4.514769852813823037e-01
4.998314402123476413e-02 1.056312149041193672e-02 5.040707272037743270e-01
5.742153521563939100e-02 1.042266238882582838e-02 4.718438310257535573e-01
4.710269180598442712e-02 2.854012887920145611e-02 5.097535291272586866e-01
3.837817142312838214e-02 1.591116006497714924e-02 4.416493009969683636e-01
1.453090715943438846e-04 1.770261515204134967e-02 4.182597840237168851e-01
3.348565633530525137e-02 6.497089018392043260e-03 4.388517270539766812e-01
5.128200393081083081e-02 -5.411035301713770090e-03 4.592066577390543913e-01
-1.405558946829477997e-03 -3.613438796823183023e-03 4.306604661895664377e-01
1.527496829628387578e-02 6.159098887020630561e-03 4.321666803472178908e-01
5.446299134332981823e-02 3.583708912220170961e-02 4.957112032229109566e-01
3.151757086613150155e-02 4.537007892562742312e-02 4.362303704898611856e-01
4.009594701197893851e-02 2.193082050585160730e-02 4.426599865714470061e-01
1.520636184316194114e-02 1.439445204325798602e-02 4.285300808645594040e-01
1.811982062454839046e-02 1.977302951081691407e-02 4.278435980763949931e-01
6.560845693213995800e-03 -2.291053054704025871e-02 4.382688463574592186e-01
5.792699219228761992e-02 2.454142952272966513e-02 4.669762978530159758e-01
5.590923951014715315e-02 3.839222330439627517e-02 4.611389149516025299e-01
1.830859119569548665e-02 2.082298905669222044e-02 4.276455120469573323e-01
5.727983545734308124e-02 6.390559062195106353e-03 4.826729392321550960e-01
4.641553530419928464e-02 -2.122488181577142016e-02 4.571257057025266968e-01
3.784857604612405779e-02 7.165202529572953227e-02 4.545323047509747805e-01
5.193685646057118188e-02 1.180182009097971267e-02 4.983606095737448949e-01
3.767057969116084648e-02 1.790902310877494352e-02 4.409971481830217699e-01
1.465811138183371193e-02 -2.132897379674852673e-04 4.324125617488983608e-01
-1.229065545238275901e-02 1.442255856144792139e-04 4.301160404245780722e-01
1.087166221712833163e-02 4.164746697609561510e-02 4.146202113659814281e-01
4.740376653803084900e-02 5.002695846568153137e-02 4.495129069065035843e-01
1.502437362425790637e-02 -2.205264500813581413e-02 4.371859964111919350e-01
4.963679663090325017e-02 4.266669078339195217e-03 5.119730190659532720e-01
9.164239563860743926e-03 3.308771886654791883e-02 4.064858662034197545e-01
4.179417299795693680e-02 3.880200366036905962e-02 4.442923724106550010e-01
4.775701037739071148e-02 3.109273270342525694e-02 5.085248917039743022e-01
5.817307223612620815e-02 -7.997647921131601639e-03 5.045908179451014108e-01
-2.093950257857285675e-03 2.497480695035657339e-02 4.100565285361815193e-01
-2.615999469409349340e-02 2.987907954170675173e-02 4.203513649386843021e-01
1.783211214149602389e-02 5.480903233434703675e-02 4.256506996983425717e-01
1.865683396802165356e-02 2.255438901067739407e-02 4.275700191507548764e-01
4.002202639393151462e-02 6.796161467964929870e-02 4.697001721882042569e-01
9.076702000513607246e-03 4.066672538347172738e-02 4.121034043604187569e-01
4.265851543045209859e-02 -1.360889242995295435e-02 4.484159969413734625e-01
-2.068771457704214611e-02 3.698379941236856761e-02 4.146645572920793499e-01
3.342458527883597486e-02 -1.042813023085474231e-02 4.399410701759257636e-01
2.774344722709072564e-02 1.485599101676165525e-02 4.352859621163894799e-01
1.295556453192836521e-02 5.654448449071369093e-02 4.224093176616008916e-01
4.677720653838884912e-02 2.248548115647429693e-02 5.101757428458592036e-01
5.304640366293513626e-02 -8.823092183438130398e-05 4.602835842684468992e-01
5.690199663966468563e-02 -4.973076038231848996e-03 5.088404466106730695e-01
5.815356847106457200e-02 2.904301172878837739e-02 4.778702473235958426e-01
2.520967257050364674e-02 6.298737917980917755e-02 4.407529499213539981e-01
2.788175215100830578e-02 5.682491105853181013e-02 4.345007337281271420e-01
3.813701004727838850e-02 4.555436923541864719e-02 4.415416897752574843e-01
1.183855503021073079e-03 -8.112392141766826964e-03 4.316249825051406974e-01
-1.827724791057879980e-02 1.890383327652869760e-02 4.215566950922319811e-01
5.746401832273458077e-02 1.361607998426768266e-03 4.765770510105967750e-01
2.890797215381575493e-03 2.898981903582138059e-03 4.296795556442074004e-01
4.013642472818736151e-02 4.429149598113597125e-03 4.437876753113840778e-01
4.999686289870174799e-02 1.718290513027677380e-02 5.015039653279335097e-01
-2.857538445461889343e-02 3.399316632874490457e-02 4.207201516838190436e-01
4.474948595309070909e-02 3.186797305633278649e-02 5.137986000357269711e-01
-1.281735488354003930e-03 1.215176155279325265e-02 4.226335535746129635e-01
4.176754317967934504e-02 1.513516575134644937e-02 4.442975299125127564e-01
6.410997823646095647e-03 3.844710887022866064e-02 4.086091237014894406e-01
5.407708691797650201e-03 5.178911007127484645e-02 4.138995350257823613e-01
5.078582181814494945e-02 5.593937805189981571e-02 4.855946800713408784e-01
5.352574372859486562e-02 9.963071030709164805e-03 4.953547868454927783e-01
5.742743887670564290e-02 9.942108185285300839e-03 4.728636333760615762e-01
3.864177418798234870e-02 7.206368879972319293e-04 4.429542656446425752e-01
3.287048592906020167e-02 6.696538746709425338e-02 4.498283080062379091e-01
5.806611794761180889e-02 3.015507817560688503e-02 4.672140465275687049e-01
4.921702153790116080e-02 6.384070905871783164e-02 4.735430417969068717e-01
5.563973072499245331e-02 -3.536254455131861846e-03 4.685503419246784818e-01
4.918253981625361759e-02 3.009126408640702688e-02 5.058145107801543805e-01
5.329127576091953478e-02 3.323731205620492068e-02 4.557855952690264001e-01
2.801207897344243705e-02 3.238699323762404825e-02 4.342159465480191494e-01
5.709113931512843632e-02 7.025167047290350152e-03 4.833505516911431599e-01
3.300135033300190257e-02 -2.721424001413521102e-02 4.446751658296027587e-01
-3.464264883330028799e-02 1.766658911291992332e-02 4.355308025019258289e-01
9.434414283545938806e-03 5.091868664938568184e-02 4.160446182062843001e-01
5.202360580751952401e-02 4.118429940275598194e-02 4.545950297719339450e-01
4.702446665949119170e-02 2.875211485486925747e-02 5.099030640859242292e-01
2.874933524033000676e-02 -1.683090528403669711e-02 4.386692485540099051e-01
1.377914824827935342e-02 2.701086213996921337e-02 4.210728369155150586e-01
2.496407534397879560e-02 3.381871462469104861e-02 4.312845530336057442e-01
5.041008442041024912e-02 2.715746749952835729e-02 4.520402362278362340e-01
-1.262252725805506487e-02 4.081456802423592822e-02 4.103056027312641518e-01
1.074333319183640861e-02 4.763786276268393988e-02 4.163295003869800781e-01
5.140051315604626109e-02 -2.205600596855365053e-02 4.672763797356226934e-01
-1.179657197419474619e-02 7.492341025567579756e-03 4.255723718847871928e-01
4.821711623547227099e-02 6.458181031918598658e-02 4.754028373276599218e-01
1.136553520475475781e-02 -2.320797227642087610e-02 4.377585382302450201e-01
-1.996799862033172765e-02 2.302375119182110269e-02 4.200082263280983663e-01
4.717394174178080046e-02 -2.132009678403095493e-02 4.589054365597837193e-01
2.892759305055143948e-02 6.465268948278157790e-02 4.434189813780715639e-01
5.835401285397687904e-02 -6.599626334785086736e-03 4.937228330805112364e-01
1.289664150656247635e-02 5.344057189733193020e-02 4.208832503701891437e-01
5.382497493811824046e-02 1.154495303546692470e-02 4.935427821384301694e-01
7.660093884574237840e-04 1.079268505366641311e-02 4.237437006751066382e-01
-2.760702233293933078e-02 2.120899961462002076e-02 4.246566824120399652e-01
5.326338393052552217e-02 5.482909255958944711e-02 4.763373208230674005e-01
-3.016713030880333740e-02 3.230664050339637078e-02 4.226162976088855272e-01
3.291306506434862889e-02 -2.113388267925069008e-02 4.419144155204680624e-01
2.739843923658821095e-02 4.457034930380298493e-02 4.327156847789460081e-01
-1.379329287237449422e-04 4.300256096996742106e-02 4.085192982263588513e-01
1.720328383256493343e-02 4.053354671878590249e-02 4.234117171839387739e-01
4.470891571522985636e-02 1.662069959015177734e-02 4.466335500356248267e-01
5.089605901604947469e-02 -1.147776432269292241e-02 4.624450181587926867e-01
8.870165039432956200e-03 5.515483003430968201e-02 4.178011825146850100e-01
1.435013414124592171e-02 3.868308086956974423e-02 4.202017299867057964e-01
1.545399053569597794e-02 6.095023290341276823e-02 4.346469313381470800e-01
3.349400154305325061e-02 2.364517142250879833e-02 4.383832932656321346e-01
2.193109375381164031e-02 5.101512975275809131e-02 4.284794608333425403e-01
-2.071452840026123329e-02 -3.251369763504797193e-03 4.331396621252356360e-01
4.082088126004111694e-02 -2.420391764549656780e-02 4.508383672603340497e-01
5.592203423611287472e-02 3.914264711820382436e-02 4.613425940396743696e-01
5.590285950526258096e-02 4.692056457924236729e-02 4.663703080252040167e-01
5.563771188159417902e-02 -8.278916227020907161e-04 5.018387214235112692e-01
-8.914256753530625660e-03 3.550647302547892820e-02 4.099355711571280869e-01
2.232595630778410820e-02 1.335150838772096275e-02 4.324838371876929544e-01
2.469952255398733323e-02 5.884742499221273793e-02 4.338000390633478531e-01
5.517102063452992283e-02 2.668841089788346818e-02 4.587034610169374860e-01
2.971713485544870068e-02 2.367637854028624075e-02 4.357738682478620729e-01
4.680172558050321036e-02 -7.695925630068000539e-03 4.527733110753558998e-01
5.624597434471739071e-02 4.606402120280369411e-02 4.740278829281512896e-01
-4.918269831623264463e-03 3.849228403931243166e-03 4.277327062238545641e-01
5.177989541027495229e-02 6.075921767768582143e-02 4.645620138309864422e-01
5.184498878880156036e-02 2.551617876847886782e-02 4.988262556466729891e-01
8.354593080425947588e-03 6.519193452463722255e-04 4.309632048670642979e-01
5.698315157434858530e-02 1.070257573867721551e-02 4.677648741925887754e-01
4.461386069735948784e-02 2.534882471976005261e-02 4.464998362754345473e-01
3.141009479183683173e-02 -6.762354816281321117e-03 4.383508340854703200e-01
3.524520439754650486e-02 6.200877720956285422e-02 4.432846502168837910e-01
3.794452696529054814e-02 1.282895895165993110e-02 4.414942228714686667e-01
-1.069513301187461837e-02 3.728587921115298492e-02 4.100952739307859307e-01
1.555380163049109588e-02 6.048111314290210289e-02 4.319561929886394647e-01
1.069259512709046754e-02 2.421435355347596741e-02 4.188652837231913173e-01
1.763243122302146984e-02 2.961640675440785353e-02 4.245997934156804932e-01
2.982081950494026162e-02 -4.272879774609790633e-03 4.373836021529187157e-01
3.576963434036908168e-02 -1.766612399996162971e-02 4.430455289070483471e-01
3.312118354375949338e-03 1.901135279985394569e-02 4.175924248337822831e-01
5.359260036733957261e-02 1.715545557029003743e-02 4.929752865293998698e-01
5.195521125889968755e-02 3.235748823258029205e-02 5.004580789710656452e-01
1.349411312739169297e-02 3.745517872719847374e-02 4.189601282258646475e-01
5.215807305850607423e-02 1.637508243275883485e-02 4.964370008287252722e-01
5.136718638603352677e-02 5.568398833431114497e-02 4.838189158387670163e-01
4.483927554436784729e-02 5.087783788941088042e-02 5.067492114861750219e-01
-2.400041976317099368e-02 3.069368499832794001e-02 4.187765326869636873e-01
5.595766346053441392e-02 2.253343100329724055e-02 4.880225409969644046e-01
2.303166841684919919e-02 1.846160423976530435e-02 4.320743583961521583e-01
4.053888016231754071e-02 2.115681923813228851e-02 4.430229989331555540e-01
1.969638339849068276e-03 5.639397528915519875e-02 4.178204387545248477e-01
1.778440701848776201e-02 6.006167188383433608e-02 4.325772638147752369e-01
4.386568504810935132e-02 6.400848777174163173e-02 4.502573402321260465e-01
4.611790216621629301e-02 6.727965324064723307e-02 4.661199915666556781e-01
3.390232996665094867e-02 2.354876838628305186e-02 4.386580291505536300e-01
5.816834798186167055e-02 3.234119630910109455e-02 4.764690406480515672e-01
-2.793437106580174897e-02 3.751908717366145979e-02 4.189999747478042602e-01
3.984768003864565949e-02 6.986100068413375608e-02 4.526719483794878762e-01
5.612587102018121860e-02 7.821247199018251453e-03 4.883795702191867649e-01
3.524700337811061124e-02 -1.315587197199649845e-03 4.406727432090954411e-01
4.736135091140229736e-02 5.528625473133105817e-02 4.504337939533858415e-01
5.563253185838178821e-02 4.905093288919796200e-03 4.922027453555357090e-01
3.968115324385291381e-02 -1.460948864998787289e-02 4.454502433420186036e-01
3.107085380007716321e-02 2.941907449086302029e-02 4.366215397415637578e-01
4.769091613388339729e-02 6.025759577749131152e-02 4.523767662900068931e-01
2.385993291065729646e-02 5.937802617010901410e-03 4.350746032461995094e-01
3.694007157286487847e-02 8.900794462259851991e-03 4.407331152782415495e-01
5.074359594220344272e-02 -2.202354015566952705e-02 4.660014194151149147e-01
-2.138475749786861169e-02 3.963558995755036424e-02 4.141917867050866620e-01
-1.256070991078334087e-02 4.478199244906605481e-02 4.105952496943731655e-01
-1.790195265520103584e-03 2.693181403175118945e-03 4.286761255580905927e-01
-3.312350139239290947e-02 1.910999324716454711e-03 4.361053459292877355e-01
3.873263129006663391e-02 3.259963857165079637e-03 4.428586113399700652e-01
5.125507427362002016e-02 3.801251614302020992e-02 4.534899220544633680e-01
1.585070108294910768e-02 3.650220683694296864e-02 4.223264685375928140e-01
7.478327262854818532e-03 2.855615999211372907e-02 4.063265391635612622e-01
5.601036072892905116e-02 3.723035252628461439e-02 4.899432873369227726e-01
1.342295696141319189e-02 -2.109230247891311777e-02 4.370789517515497602e-01
4.141670526582388011e-03 2.880613693890890503e-02 4.042686222984141486e-01
4.728546999762332781e-02 5.549744891594746155e-02 4.503971095853108730e-01
-3.128170230290010928e-02 9.504123930538631998e-03 4.339946647546623071e-01
-5.979755418183910903e-04 4.245252739971843575e-02 4.081425446996173600e-01
4.139911063486154119e-02 1.591468026576620121e-02 4.439673231615042792e-01
4.883750430434112555e-02 -2.022078750927021329e-02 4.614707156926922127e-01
5.822697952990992659e-02 -1.445051612856333104e-03 4.810282900766406078e-01
5.432826755070979674e-02 2.610873253442783787e-02 4.934414952139674626e-01
5.579162487436444690e-02 2.854886128828732286e-02 4.600790196890103823e-01
5.847330353362043681e-02 -6.643831185120257013e-03 4.911864095397747709e-01
5.812334698304811448e-02 2.504147812024883069e-02 4.707127285726330213e-01
4.494577516803299755e-02 2.175994662919235670e-03 4.480993435340870357e-01
2.857299802097590033e-02 3.948398242313434781e-02 4.340954995751483692e-01
5.618435457892404644e-02 3.114572885677278913e-02 4.891597670694058375e-01
5.782399903590890872e-02 -1.986770280106685792e-03 4.784703415639225965e-01
4.340294609847795970e-02 -1.500025120016045856e-02 4.497999524518747072e-01
5.720094360091149133e-02 -5.376367978820871529e-03 5.065271535450360796e-01
5.543394042328285420e-02 3.788086888107558559e-02 4.591397948417283992e-01
4.050669625932534074e-02 1.008286354975592434e-04 4.445526306903273550e-01
5.702042402649285663e-02 4.009813686776458885e-02 4.763805464531036815e-01
-2.024655040589372346e-02 5.721988823268543516e-03 4.287016600118063181e-01
4.991217008311797654e-02 5.866301164736647394e-02 4.820760970071544804e-01
2.414109145900908415e-02 6.003274301767799054e-02 4.346053665434131408e-01
5.628463597514212630e-02 -1.048288365069374728e-02 4.763102262552769695e-01
-5.453407067014201005e-03 3.473185291782369261e-02 4.085012012386802782e-01
3.245967293614004240e-02 5.354181700535926014e-02 4.369738484536133671e-01
5.161559504941453519e-02 2.955304431748030300e-02 5.005785823599809836e-01
3.544984486824735714e-02 1.957626370338041641e-02 4.396081301521204687e-01
5.746954158725878226e-02 6.670768493711107250e-03 4.775723252072238134e-01
-3.402389569725073129e-03 -5.767881943435976787e-03 4.310671616454435084e-01
1.153459901961156539e-02 3.090797175771159422e-02 4.146084785686083296e-01
7.520289771732841140e-03 -1.413929857046759136e-02 4.348779370569593739e-01
3.515716175956576373e-02 3.656345189004542306e-02 4.395839894634644973e-01
3.759310805568857883e-02 1.028296770591677345e-02 4.412381691853325405e-01
4.995725605249622808e-02 5.987838908356116208e-02 4.565668440294843311e-01
3.182242722932496215e-02 1.631092464394950231e-03 4.385442873036079492e-01
4.883956981196830444e-02 3.485917235695806110e-02 4.505340919730648208e-01
3.503375264500680451e-03 3.739488357672189622e-02 4.047555598823739387e-01
4.070110653403571921e-02 5.040214546051324795e-02 4.435407080699997895e-01
5.843892958976641683e-02 -9.272651581332435125e-03 4.894376855875285925e-01
2.599203389855737553e-02 1.891185666678851449e-02 4.337917021948273777e-01
-6.567837085324917251e-03 2.459922188529294410e-02 4.132993862378995797e-01
-1.289276483767486450e-02 3.242437195518842880e-02 4.124859891798384193e-01
-1.825547328130519998e-03 5.377820263529072692e-02 4.141034648177512323e-01
1.858712478602136953e-02 -6.681777802486285611e-03 4.337297125958069488e-01
1.535979430770765750e-02 5.034496711200752567e-02 4.221660296829649051e-01
-2.069673755635820928e-02 2.861715256244738367e-02 4.178700876863167823e-01
-2.513890610236689267e-03 -1.089904417975811127e-02 4.326790075608686892e-01
4.576488912371631801e-02 4.206136060691541279e-03 4.484371830221588473e-01
5.620460953162632195e-02 2.240829347184394860e-02 4.872678016017417124e-01
2.292681759250721207e-02 4.155443010864876691e-02 4.289895065415310071e-01
5.355100442654064236e-02 4.190772424360517806e-02 4.973198498004400836e-01
4.282980268047107547e-02 2.935313885482598861e-02 4.451056275306554122e-01
5.411808271112868857e-02 1.158666305156641485e-02 4.581048365777010689e-01
-8.177180555178900287e-03 1.452502152273186554e-02 4.210437819674176518e-01
2.523380962620644374e-02 3.694520707047117131e-02 4.314050545778836954e-01
5.406643113215778979e-02 5.395376249945880998e-02 4.617540077069604565e-01
3.943598020479211624e-03 -2.402042461591816485e-03 4.307940177935880022e-01
5.283021786784081880e-02 -1.386430539988788534e-02 4.676054602716270270e-01
5.370887759778249920e-02 -3.034247943600442473e-03 4.635874497671522154e-01
2.920067375649960245e-02 5.106523843441339999e-02 4.339388101446847723e-01
-9.243204689874839203e-03 4.964234748203760761e-02 4.105036552836949237e-01
4.263773173418535650e-02 3.003598243349924965e-02 4.449621196694337755e-01
5.292623629780963262e-03 5.537656344496257044e-02 4.174389726953475210e-01
5.073673875341853934e-02 1.093378068335626278e-02 5.019326761161818640e-01
2.837474978683618074e-02 5.381918628369951330e-02 4.336043580494113314e-01
4.497488841173351466e-03 3.206089278235352974e-02 4.041941052442638016e-01
5.435225687867364930e-02 1.307679284785131851e-03 5.035083156978112928e-01
5.751630362530763679e-02 -3.185673565865830732e-03 4.764011161594368660e-01
5.202702678226826111e-02 2.972330338450290127e-02 4.997420117548585505e-01
5.667762020016962887e-02 4.219508423718967144e-02 4.766025118633074320e-01
3.737762716243454159e-02 -2.445916570934317941e-02 4.469671137154277996e-01
9.151056559199217608e-03 1.170998140404637053e-02 4.266628708597882680e-01
2.593738817538153787e-02 3.615748856142989021e-02 4.319986004700626658e-01
5.063165515590425068e-04 7.986872048397306023e-03 4.256585176359822809e-01
2.852357176727178534e-02 3.035823866900338834e-04 4.370020653362452490e-01
2.599605902255506390e-02 -1.225357495167428597e-02 4.367576284835635314e-01
2.652855468200036870e-02 4.145359927361304958e-02 4.321997975653840696e-01
4.381459065090134719e-02 6.750218777404352888e-02 4.695690068340078183e-01
1.703544226905940456e-02 2.336811691233094471e-02 4.259437314142022202e-01
5.245736022361779244e-02 5.059754849130788934e-02 4.904947718302122839e-01
3.729419997900809691e-02 2.848122561279176415e-02 4.409123887670599595e-01
5.212587377441050412e-02 5.765607440703790498e-02 4.597550205184282590e-01
4.525295902006575693e-02 3.926639755644836111e-02 5.128508867958250228e-01
5.740851760778949153e-02 2.129839734658833805e-02 4.808896792781833796e-01
4.971453265310196712e-02 3.499150374153917054e-02 5.054136690153842038e-01
5.787650395208771004e-02 2.122022441063459164e-02 4.694047113283721373e-01
5.618270706642579382e-02 1.046521568443705384e-02 4.644963605075042024e-01
1.410291402550558140e-02 2.799632919545525997e-02 4.209716596865096805e-01
4.606889302424176796e-02 6.240547526240365628e-02 4.515059495353335728e-01
4.820807748607653515e-02 6.580021390383795910e-02 4.693336911959598012e-01
5.400296510479575540e-02 2.331672055486638806e-02 4.561090390968146058e-01
5.442704768425686568e-02 -1.476563350897695456e-02 4.721943706044607891e-01
1.115085027077964905e-02 -1.090311865069092979e-02 4.334595774189203277e-01
7.798957120391993708e-03 3.877827039689684535e-02 4.102815036282947414e-01
-3.233371170153545582e-02 1.215371220416764080e-03 4.359731847304958996e-01
5.055887662864704674e-02 -1.999084014104428667e-02 4.652005321095853407e-01
-6.484809299122748505e-03 3.727624153680482444e-02 4.081651703752325333e-01
5.394579389403611480e-02 1.929289796551676359e-02 4.560666413451939238e-01
5.636683339917346325e-02 3.752080731134957436e-02 4.876593360145952682e-01
1.258020356774180309e-02 2.433521415711087030e-02 4.211076240835201490e-01
1.520080496310315284e-02 4.650803717263560233e-02 4.214261485872898838e-01
1.866188585891501509e-02 6.066341881681330817e-02 4.364593536289428366e-01
2.510674596329263292e-02 -1.625212818893860545e-02 4.373886254347295055e-01
4.846005730581025989e-02 1.061820343623145861e-02 5.079252682978326883e-01
5.674752978782972995e-02 4.063047729399649199e-02 4.785472696624571420e-01
-4.221196495830645962e-02 2.469490474405837497e-03 4.443428854913932802e-01
5.108458132098260551e-02 5.990151330504193267e-02 4.741704760620837344e-01
4.112479703192813141e-02 2.696756485566779993e-02 4.436368601967358716e-01
3.012693735756240276e-02 -7.836807101693240955e-04 4.378831923263692971e-01
2.406653095012520338e-02 3.624369240195608743e-02 4.303597564757714600e-01
3.843439155420469433e-02 2.679326754849232009e-02 4.416773181927853842e-01
2.890489468740799553e-02 3.415657308770585210e-02 4.347213227329327356e-01
5.669260011526768006e-02 7.921163850950079660e-03 4.675971564447318207e-01
5.422416100364926828e-02 1.305384159112348702e-02 4.912838316679421502e-01
2.632585894828595383e-02 6.356901117682221825e-02 4.403840903020993514e-01
1.134503507298839642e-02 3.248530984631552848e-02 4.127763709696973815e-01
4.734049239698152195e-02 1.341918185684074297e-02 4.489791385009184732e-01
5.006786335337681804e-02 5.925400776926439267e-02 4.562440429863728331e-01
5.449747820358325640e-02 -1.984212086130541456e-03 5.105813857789591736e-01
3.398348564714606668e-02 -1.041166962444912795e-02 4.403558165466989194e-01
5.110436979003168956e-02 6.016867441598171273e-02 4.732802748375617985e-01
4.097273391347324573e-02 7.051080797947432977e-02 4.536313459163118789e-01
4.938479080074545391e-02 -6.439381634977033725e-03 4.556738583564429734e-01
3.538372375167614381e-02 1.539508931984049159e-02 4.397236906209069929e-01
-2.297932063118974730e-02 3.836990693873498781e-02 4.157369083020795997e-01
9.357355780832294148e-03 3.126439995072421291e-02 4.087537252167259272e-01
5.537338929770532076e-02 2.123091323846635833e-03 4.655900750991511239e-01
1.182750385325602102e-02 -1.426136051381411349e-02 4.353347075478593009e-01
1.541442156624092674e-02 2.266784973001744613e-02 4.246551654724087244e-01
5.390269452206425393e-02 5.522636371185621340e-02 4.686675357172708778e-01
5.759761920041114869e-02 1.889824114893794843e-02 4.673041398860824924e-01
5.743006971403340905e-02 -2.790670608201353299e-03 4.758813932987949746e-01
5.758186383581299223e-02 1.483964131614366917e-03 4.841466545763441487e-01
3.244058739732295915e-02 6.234235995232177002e-02 4.415787891622726669e-01
2.550756008497259697e-02 6.205694461093103770e-02 4.393828738192613326e-01
1.602460991258176926e-02 3.834036784582370294e-02 4.224489679532599240e-01
