5.646982499528706290e-02 1.941491853954483912e-02 4.625487559118524605e-01
-3.923399654930729424e-02 3.750283957153468552e-03 4.434083197263405385e-01
4.740270252302819509e-02 6.606640505247757256e-02 4.702801576823518737e-01
-3.319704042753898743e-02 5.797319101974240246e-03 4.369645260307753465e-01
-2.218194874047965670e-03 4.254483259619533386e-02 4.076335371191884827e-01
9.059502342195747959e-03 -9.653809594744709385e-03 4.327859216876180914e-01
-2.546383358543820655e-02 4.449581826382042853e-03 4.313763774340038659e-01
-7.082104121126435795e-03 -4.768185123663891932e-03 4.309514965430868982e-01
5.728678210143475086e-02 7.524392504097207959e-03 4.746453052765186587e-01
5.466847353723464087e-02 3.492093353291874508e-02 4.942862040139725521e-01
5.780871592232233319e-02 -4.524996730030279163e-03 4.799763777219228644e-01
4.784270573394097670e-02 3.780100802809012450e-02 5.082791079331515638e-01
4.934664519656285775e-02 2.087428242418946922e-02 5.030659361058610335e-01
5.723158071301391592e-02 -5.231977933421805629e-03 4.765220580230891678e-01
4.450891101042910025e-02 5.374692252957092437e-02 4.998330876561337122e-01
2.743110633549636357e-02 3.896972339195256541e-02 4.328373661257343130e-01
4.372758145314528666e-02 -1.666652754845071582e-02 4.507002810686456806e-01
1.519182702489610057e-02 5.688056208703903133e-02 4.241820084947774405e-01
3.429092725578820455e-03 5.382271151574873763e-02 4.148079473991150845e-01
-4.212936573190681142e-03 -8.198501947223846634e-03 4.318362673620863013e-01
1.181852874798795111e-02 4.757985957544616507e-02 4.173143945252638098e-01
2.921105752645697731e-02 6.546318737614222061e-02 4.458402027798772926e-01
4.708733089803669031e-02 6.144136839799263505e-02 4.826488489851708530e-01
5.376998983633765605e-03 4.919036453382576168e-02 4.122861347503540275e-01
5.923210821745084759e-02 -1.136813408603551054e-02 5.064238620556529291e-01
3.786959735721601161e-02 2.448137617940670044e-02 4.410575533504573209e-01
3.599792460812664685e-02 -2.557663592718134593e-02 4.463718151490301267e-01
1.961626860519343884e-03 3.975306368843332938e-02 4.056048018323126780e-01
5.394112560780508353e-02 5.159633596221642471e-02 4.583756662422218686e-01
4.198282639486934642e-02 3.730551498112437414e-02 4.442770148424637910e-01
5.750100537108457366e-02 8.090907081364909215e-03 4.797248849830422213e-01
-4.899572103217748192e-03 1.590402129824152605e-02 4.180670175906667785e-01
2.958946908695073846e-02 6.274259488236387516e-02 4.400819544653190030e-01
-3.231240237250877778e-02 1.660550787957496000e-02 4.308190957556167211e-01
5.586752055378488985e-02 2.296548301582145013e-02 4.605469967968132128e-01
5.754097864057951262e-02 3.256044336963721808e-02 4.812717529870162991e-01
4.057268922049695609e-02 -2.144544019698068835e-02 4.481765918526637860e-01
4.719815642083800139e-02 7.449388532141163963e-03 4.491443770997967655e-01
3.739468099256878370e-02 7.322494264095216754e-03 4.410126666553439434e-01
4.953269491163796168e-02 3.495773071023457884e-02 4.511475682618374394e-01
-5.056744468072989392e-03 9.717347181001659284e-03 4.234475428369038896e-01
5.382995082696531014e-02 2.467998400398673658e-02 4.934475751030661939e-01
1.599564914927202250e-02 5.869012614168559600e-02 4.270450278651765630e-01
5.923542657568040340e-03 6.000958743875364765e-02 4.202614928236214076e-01
4.989684798536248717e-02 1.948307598419503003e-02 5.015258553806538622e-01
4.809597723277084930e-02 1.593247399120398949e-02 5.058401024803017565e-01
5.762527756982509936e-02 -1.031163861819964223e-02 4.823362764163472427e-01
4.788889103634012823e-02 4.878525669585674629e-02 5.050305673894520675e-01
-3.214350863371889799e-02 2.838691901253885194e-02 4.250551367815096349e-01
9.068925031994006652e-03 -1.908798448608843568e-02 4.370610242868892548e-01
5.006290427505399876e-02 1.032177027383899062e-02 5.037319686833723331e-01
3.875638608648417083e-02 6.822334101933902328e-02 4.681178189064105766e-01
1.945100453518327360e-02 4.822590248791615644e-03 4.335231510257815946e-01
5.563976139389299747e-02 -3.825677908034674345e-03 4.686811884599022537e-01
-2.642829168235740628e-03 4.034092899398916687e-02 4.065848052626488962e-01
5.439954584509699986e-02 1.364011190761731801e-02 4.580976126377933610e-01
-2.938841719939975020e-02 2.893255547065072455e-03 4.336153580472801861e-01
-1.439417923074807343e-02 3.513917299883560080e-02 4.116429218871150986e-01
5.451667041696553473e-02 5.257098573803841574e-02 4.658592072879209067e-01
4.833631410459996586e-02 5.194633364277016080e-02 4.993845389626060949e-01
3.846464036671209258e-02 -8.001084265651067437e-03 4.433971320769636293e-01
1.339756182972398971e-02 5.783858853436083663e-02 4.237754096124333736e-01
1.066376289905032575e-02 2.805936210045319526e-02 4.137548460728022737e-01
5.368708378427847205e-02 7.618284241340099287e-03 4.585984320780125412e-01
5.369664987106007731e-02 3.722102291354864416e-03 5.014697809982155974e-01
4.828376651056455471e-02 5.929531820596598002e-02 4.525213501125479043e-01
5.641289926872425364e-02 8.812121235244220821e-03 4.856714265476169134e-01
1.971426836893721418e-02 -1.405675654689058154e-02 4.354401648054784246e-01
5.469768860013056455e-02 3.919630111791649885e-02 4.937053640745230343e-01
3.125586113192284181e-03 4.263710662435349352e-02 4.076111277847637160e-01
3.628807899362786020e-03 3.660105942993243516e-02 4.040911602581414019e-01
3.888102353035968739e-02 -1.684493125491896143e-02 4.452797751670731219e-01
4.056391698497249093e-02 5.127616016017447209e-02 4.432583268614991301e-01
4.711786846315975386e-02 3.128651468044640199e-02 5.092200949022643863e-01
4.684621724142044863e-02 8.879674960158961614e-03 5.124187866632162747e-01
5.601993635316963871e-02 -1.584743002112270430e-03 5.038925959690232492e-01
5.762996456350084895e-02 3.454033024654361989e-02 4.771270664221652913e-01
-2.210820536120855495e-02 1.617263987887529106e-02 4.241697375743743725e-01
5.766984782573116031e-02 4.469628309990670949e-03 4.793610798637255033e-01
5.629871550510264638e-02 -2.229756814529461947e-03 5.033028802623509268e-01
4.359014979858779476e-02 6.861780010551982167e-02 4.551206306449285810e-01
3.342815027609338102e-02 -2.671843649971327242e-02 4.447482601188705309e-01
3.188871844012508561e-02 2.854233558279468952e-02 4.369586199187575071e-01
2.437264890208555579e-02 1.644862909027345471e-02 4.327966341668381123e-01
3.724131242785505558e-02 -2.977565490816543384e-02 4.493741038432074175e-01
5.515897230221530195e-02 1.118767104866871635e-02 4.892201439878712810e-01
-3.626883831584416795e-03 4.204792747879949888e-02 4.075738661908701044e-01
4.829982487173461320e-02 4.375114281341970640e-02 5.067817817775944755e-01
1.964792871528892731e-02 4.303373899399034336e-02 4.252320343748087761e-01
-2.838981425405517900e-02 2.193876327228336254e-02 4.244445033507320830e-01
1.989548008556664069e-02 2.367209748224753316e-02 4.280857731864343707e-01
5.523282086581066813e-02 -1.431062397927685206e-02 4.742287412912124522e-01
3.066185548951734161e-02 5.085140603280692562e-02 4.348938338956956917e-01
5.701324978254423276e-02 3.790041905502462144e-04 4.729221613888134335e-01
-4.620691746332302591e-02 -1.504747539573544988e-03 4.434770264095019288e-01
5.807947567127817734e-02 -2.898126354235082240e-03 4.883053429739548368e-01
2.021128720051979313e-02 2.783588331484373318e-02 4.274676661221137874e-01
3.841999574448410476e-02 3.628197480173415285e-02 4.415591423612365007e-01
4.331837688338605746e-02 5.841816793463598320e-03 4.460586754461267622e-01
7.738837491306702066e-03 2.633419983457801691e-02 4.101680077146961922e-01
1.296388223386196357e-03 5.535642955018079542e-02 4.160679526929340621e-01
5.082219733503368087e-02 6.251378776635267698e-02 4.658606869505070858e-01
3.992333222069800042e-02 2.656159389080942415e-02 4.424866570505822105e-01
-3.087983048946091325e-02 5.696309701025850311e-03 4.348513273727440676e-01
1.543435085713737789e-02 2.261611496171702859e-02 4.243747494667541864e-01
4.845615503133445662e-02 1.958824692056837513e-02 5.051838867289267787e-01
3.032999573046450768e-03 5.529819190080403728e-04 4.301243168219116564e-01
3.189531808844979499e-02 5.001697363262824769e-02 4.360314283772527277e-01
3.614678541250939542e-02 3.504478463020072737e-02 4.400679382565804709e-01
3.328101633650479979e-02 2.568612926864768942e-02 4.379760607122722971e-01
4.966112055919748997e-02 -6.787521040816213609e-03 4.564880894313970150e-01
1.059896718726063836e-02 5.691428250397772420e-02 4.204442969052955559e-01
-2.984670042607945328e-02 2.048314982711264137e-02 4.260411567247393005e-01
5.610502221797187411e-02 4.671289893732274295e-02 4.717208557578107531e-01
5.069329648672940558e-02 -6.101412259575484005e-03 4.583247429100590353e-01
1.275869860403886988e-02 3.891432630772453938e-02 4.170088839257514168e-01
2.784301562585426298e-02 5.899544662200267159e-02 4.361047998175250351e-01
8.074730667593444516e-03 -1.820960156401323429e-02 4.369781517502076551e-01
5.394216812685075774e-02 -1.137057254505036835e-02 4.687823897003186024e-01
3.170006994825395191e-02 1.278661398470105209e-02 4.372918615849144541e-01
1.203644181214644573e-02 -2.183824212023748740e-02 4.373399455092549237e-01
1.984737270661829714e-02 3.537583946595926343e-02 4.260292357101349570e-01
5.038474063304305278e-02 2.818119505991974888e-02 5.021507640482691937e-01
-2.067818296091607569e-02 -3.060380660255736501e-03 4.329582930740543678e-01
-8.636691102238440096e-03 2.121168352448428093e-02 4.160312618458487099e-01
-2.882519398183581646e-03 1.042931159203086024e-03 4.293271622362202500e-01
4.766034260318505883e-02 6.404807282041641119e-03 5.132744046969687224e-01
2.281897678032676971e-02 9.297330781090740182e-03 4.336452780752899638e-01
5.337489764898543237e-02 2.827607589651968956e-02 4.552960360318379363e-01
2.060765868168427245e-02 5.231850312471676701e-02 4.270004095599740368e-01
5.815016263219271314e-02 3.102226861225651153e-02 4.701768591532144437e-01
-1.011576027802512864e-02 5.328567000723772457e-02 4.157547156078369444e-01
5.751344658864451787e-02 1.539380785634107338e-02 4.743238075882524329e-01
2.598883020585969483e-02 3.276809407358196452e-02 4.321246175357774111e-01
2.572169382264406778e-02 2.207824605645338639e-02 4.330853440955069189e-01
5.059085462211469070e-02 -2.163014172657026779e-02 4.656314900113702748e-01
5.272920861543323179e-02 5.337595522912975260e-02 4.832884002191621398e-01
5.297008467099246359e-02 -2.280240988412688893e-02 4.709853514297540622e-01
5.453917118483154330e-02 5.202289114170293577e-02 4.634619723258094348e-01
1.887837440199379921e-02 3.531541553345733664e-02 4.249758695569057498e-01
3.545750554787138048e-02 2.567894569476408470e-02 4.394378036569625001e-01
-1.378073272825410846e-02 -1.213112369932937713e-03 4.307458655094675293e-01
5.611435779629863480e-02 -1.215822126708402361e-02 4.767560748136817073e-01
4.579040411168625729e-02 1.998867257773569855e-02 4.474351211501580439e-01
5.809476709807760014e-02 2.870029297793350725e-02 4.688625723906150178e-01
3.318497223468953872e-02 -1.592053997217235048e-02 4.405902910654205251e-01
-1.524026940745449796e-02 3.365628268811955703e-02 4.124575065116177219e-01
1.785287806470952504e-02 5.843976293103544245e-02 4.283089996429677582e-01
4.049262015381960983e-02 -1.351829208609657031e-02 4.459100620566351925e-01
5.526959888094358508e-02 2.402789570418829845e-02 4.591209408368682188e-01
2.205978692009122680e-02 2.227951568063758422e-02 4.300642754933131640e-01
5.671898980302551851e-02 -3.776172841977390535e-03 5.060185156142296137e-01
5.704204401410836733e-02 3.991637987656528747e-03 4.858525834822220446e-01
-4.228613535964896586e-02 2.527171692247224318e-03 4.424047997940888099e-01
-2.239681591885261166e-03 5.323372628487400143e-02 4.129248458164789248e-01
6.097404636263711701e-03 2.746131801671438527e-02 4.047845798578264542e-01
4.251686048257606598e-02 4.328567357504941454e-02 4.445580717579437069e-01
5.519978520738708788e-02 4.846455319207360057e-02 4.619573561152554575e-01
4.330637594314568767e-02 -2.152134232461252669e-02 4.527337740985141745e-01
4.684590677194300223e-02 6.718146681617595539e-02 4.663606281258881880e-01
4.975266125630330855e-02 4.958814813242346659e-02 4.997621488620593300e-01
1.179077621519797857e-02 2.236807311288834324e-02 4.208655937386724943e-01
5.513015279141453284e-02 6.206055792358052686e-03 4.629949960478236815e-01
5.463951548796899121e-02 3.201797733383714845e-02 4.940004968239843364e-01
5.248614074120654116e-02 1.984000024179139593e-02 4.953008349454895431e-01
-2.339582618091163094e-02 2.273641601123706918e-02 4.211179159034798558e-01
2.842632332802607839e-03 5.309821826087474800e-02 4.138881871514597521e-01
3.121344378509760195e-02 4.729321731869682438e-02 4.355319360008784724e-01
4.768113539324557448e-02 5.461483252672889865e-02 4.504512293207673657e-01
5.739131179135002064e-02 2.394078493926728862e-02 4.818536116316852191e-01
4.599677288111853751e-02 6.360830795714281227e-02 4.799735135334694536e-01
5.463417205965179213e-02 5.198093635153108044e-02 4.653400806772333698e-01
4.545959978738105256e-02 -3.195157252392038811e-03 4.495779451879667321e-01
2.808756922949524545e-02 6.426291438143411083e-02 4.409113684446658854e-01
5.680063108514777498e-02 2.629494692391886809e-02 4.861849400346633931e-01
3.529775106287274394e-02 9.401553499876737219e-03 4.392969209126847963e-01
2.647071128874006057e-02 3.888548005661690218e-04 4.360026000921874423e-01
5.492044774912519661e-02 4.843881033537374148e-02 4.600962674454351919e-01
5.673066756650255865e-02 4.143916547997331112e-02 4.657844550565227726e-01
5.746242844210047718e-02 -1.657470290424132957e-03 4.766977291322218035e-01
4.783516140866023170e-02 3.904024561295297430e-02 5.083656710075420415e-01
3.632416049600748625e-02 -2.462487133591062874e-02 4.461505151320794837e-01
-1.665034814840490526e-02 2.448836567922194757e-02 4.174496316758222192e-01
2.077399430255456869e-02 5.165696342353472831e-03 4.339246078021249398e-01
5.754573768112128396e-02 2.567972068339532954e-02 4.646265320118785347e-01
3.792044302545137524e-02 -1.607252758602410736e-02 4.442688826834931271e-01
4.386729408487546195e-02 5.282769109475990432e-02 5.027070297755718009e-01
5.478911071253105697e-02 1.601460351800525900e-02 4.586790263991900041e-01
5.643134186467139990e-02 4.268127878057254021e-02 4.642231459305830032e-01
4.683875378620226682e-02 1.490376509261387081e-02 4.484093268833925783e-01
1.762337643369348700e-02 4.231786923078256074e-02 4.232366457600753584e-01
4.353396469500116217e-02 -1.509538304846802168e-02 4.499727524289295899e-01
5.441769869760704897e-02 1.853416020909827780e-02 4.574274787482336402e-01
4.572191832467822209e-02 6.728224479686109594e-02 4.695477465757590951e-01
5.599344356911002685e-02 4.581939017909746059e-02 4.754952453474752816e-01
6.282260163297856588e-03 2.690986312879936615e-02 4.058376822002197071e-01
4.804510269806465395e-02 6.879540147680760810e-03 4.499798051343015803e-01
3.137056590457874133e-02 7.746386957283212839e-03 4.374636554722985404e-01
2.545417084852357945e-02 -1.751385130894096698e-02 4.377289088398128025e-01
9.305180981453633343e-03 6.970581018533940007e-03 4.292545497235853436e-01
5.756048322566990894e-02 3.706471234799999653e-02 4.736975999966842599e-01
8.431066735575988222e-03 -3.431240327563393408e-03 4.314256828394313348e-01
-1.961265850274745981e-02 3.501036849187596361e-02 4.142582825207937747e-01
1.686455138748296431e-02 4.133730387063463269e-03 4.327164743079450204e-01
5.287068096467947842e-02 5.542951305864354111e-02 4.590626169046935767e-01
-1.968557826528587532e-02 2.616050831158330328e-02 4.179521379209374943e-01
1.889727319627214006e-02 5.784442910787601644e-02 4.286033583378269229e-01
-2.469293756144796612e-02 -6.020449862747948369e-05 4.329835965844924250e-01
2.780932549237972312e-02 6.081300262013603075e-02 4.374297648388851822e-01
-5.051246184439603035e-03 2.141906828062555002e-02 4.138589419244216860e-01
5.671631373881808047e-02 3.848333288704652161e-02 4.807452740348607256e-01
2.479163634457996063e-02 -2.373940799733958301e-02 4.386303090624440459e-01
5.615901534467183237e-02 1.800684618430960920e-02 4.619034516674280777e-01
5.643269168142715786e-02 1.151880075766918872e-03 4.702987940952715884e-01
5.617822955390953943e-02 4.189412951332840279e-02 4.805268447788680342e-01
2.699225146187154978e-02 -8.906716552692976741e-03 4.364149572983115899e-01
-5.347377245289974476e-03 2.765345796337828621e-02 4.105368819865727881e-01
2.541756220866994709e-02 3.861955765701848009e-02 4.311186401174313398e-01
3.643382000350761651e-02 -3.709117010775789605e-03 4.415864330083495992e-01
-8.475180865969274280e-03 -2.038217576588596900e-03 4.301974750596487818e-01
3.007078746888797519e-02 2.435838657678147251e-02 4.357753805318341223e-01
-1.519572277076375365e-03 5.426757925130205190e-02 4.142706715600242839e-01
3.863303045934662200e-02 5.502361727649886236e-02 4.424132869471724128e-01
2.223373379592918919e-02 6.303468930845507190e-02 4.419229798669629394e-01
3.344609791685906192e-02 -2.662844044834601284e-02 4.447152419202854978e-01
5.701775473529198390e-02 -2.939036822063649697e-03 4.975818591151048298e-01
2.251975498136014192e-02 5.686458380836648813e-02 4.301575732434697596e-01
3.789911538069484082e-02 6.424954488613962567e-02 4.463086087064402352e-01
5.761744549448350600e-02 3.650193288103267819e-02 4.680432560136948972e-01
1.897941876365161901e-02 -1.632361463993044909e-02 4.359649760902610249e-01
5.739961456457300104e-02 1.220217668785369622e-02 4.755883442916836734e-01
5.659804206662541470e-02 1.666074183809056544e-02 4.835390764055486068e-01
-2.745035363398736980e-02 3.435838404959897299e-03 4.325236103528280474e-01
8.195861504622333968e-03 6.026694865998102196e-02 4.232662223917946775e-01
-3.400833996541392183e-03 1.026533301391888836e-02 4.232639271112554891e-01
3.433032015061731473e-02 5.157403452811908096e-02 4.382134045158220248e-01
5.728212277530098789e-02 4.737769573640907526e-03 4.748020711838092933e-01
3.857912652394017948e-03 1.090159973879229263e-02 4.246176908939538475e-01
-5.309461326367395477e-03 4.672106939308878770e-02 4.087262117889826629e-01
1.509284727974405035e-02 3.979882966868913616e-03 4.321332252430562515e-01
5.809794903133451427e-02 -2.742610522035658551e-03 4.875128830972515481e-01
6.452594303668223244e-03 -3.414270900065784556e-03 4.311727685694459189e-01
4.920334557268390974e-02 1.230306478889648183e-02 5.046513395947687108e-01
5.745475720282792326e-02 4.610010299126453964e-03 4.826888286954523211e-01
5.122824921401269993e-02 1.118787079269354529e-02 4.532254672724030931e-01
3.813759079272645985e-02 8.681229195460327119e-03 4.415193668570361885e-01
2.742669054959054331e-02 3.773005648084219038e-02 4.329282216695534147e-01
3.368476658277237690e-02 -5.342463360250505194e-03 4.396306928069290687e-01
8.461606353778397191e-03 1.105822025990436247e-02 4.264813880592734918e-01
2.031107258634839985e-03 1.456190816335846579e-02 4.208321047332706510e-01
5.200460765104308186e-02 5.766579569158576668e-02 4.595527281704922529e-01
5.488499056619953326e-02 -1.703286074169545194e-02 4.743169197094264655e-01
5.590406992947651033e-02 -4.396931659889725952e-03 4.700423140565962443e-01
4.639511692004801013e-02 -1.459699897843841528e-02 4.542839533321139101e-01
5.076590277501197290e-02 -6.383761513034285143e-04 5.150961551456212373e-01
3.783761439183984387e-02 -3.915090797405079009e-03 4.426135463860720320e-01
5.161524039795233054e-02 5.428723335497670499e-02 4.858868474444447139e-01
1.044297645784836651e-03 5.838749762643440436e-03 4.270439241721550316e-01
5.617683488457301394e-02 3.996266239767699846e-02 4.848433771752604926e-01
2.935869706075391536e-03 5.704202042303684050e-02 4.176649693078887671e-01
5.684146500660217094e-02 -7.483508776740856357e-03 4.766940128365123597e-01
3.021040748661150271e-02 6.449379213357034346e-02 4.428460061936159708e-01
4.475438992883297266e-03 2.284064056372382343e-02 4.114787373797909042e-01
-1.302864505756993509e-02 2.065401375347551693e-02 4.180049799456746484e-01
4.265230545876270984e-02 1.370598027197059490e-02 4.449237948021537159e-01
5.492350964469780092e-03 3.934471123385918645e-02 4.072257605674601266e-01
3.820083632686423203e-02 -8.742989210178578156e-04 4.426419434287561794e-01
-5.746453877274418365e-03 3.420139897038505794e-02 4.081744891274226572e-01
3.593064275218348785e-02 -2.233278207512368746e-02 4.447882935870545729e-01
4.810716274784525293e-02 3.125829023543612306e-02 5.073485325040623106e-01
2.196404954335711562e-02 3.227043547989702499e-02 4.283458761373344359e-01
5.834126722700212764e-02 -8.228410425638559358e-03 4.896035180725492042e-01
5.148590466385907088e-02 -1.676176969289023427e-04 4.566168415481081655e-01
3.503282882517034375e-02 3.027830623432289925e-02 4.391267083338504240e-01
5.201444766808811099e-02 2.506439647136973412e-03 4.566443445023410930e-01
2.244633811948237856e-02 2.701326972525007128e-02 4.295921369955535418e-01
5.065537181883771750e-02 5.621681624047563525e-03 4.528623741024136451e-01
-9.572353016315102506e-03 5.090639227670368250e-02 4.119066351958479699e-01
4.920380040235659141e-02 -7.949692063121160598e-03 4.562245199953517960e-01
4.273018265404329719e-02 5.503173689235044130e-02 4.459870810822120224e-01
4.659165316305220045e-02 5.410367440388102328e-02 4.491763179695258956e-01
2.620874271790463866e-02 4.056240659338374716e-02 4.316560956825795103e-01
5.621694278534419137e-02 4.408073094035032391e-02 4.763305355868309721e-01
4.948810644371552658e-02 4.261817772192034309e-02 4.515455528510143313e-01
5.392193146754822863e-02 5.432313758405846876e-02 4.622489770875867765e-01
4.902661568094428268e-02 6.458456786664215632e-02 4.622727307280001252e-01
-1.649289507891152709e-03 -1.211746522578561851e-02 4.328136845386096887e-01
5.184244490527064458e-02 -3.364716207991393874e-03 5.159253702657162766e-01
-9.791338202683316436e-04 3.810079890470154801e-02 4.052270809498880744e-01
4.867367417326664419e-02 5.406826472163082237e-02 4.954070482994226698e-01
-2.265118213884689119e-02 3.226892287921753755e-02 4.169550832152053577e-01
1.326805370689499233e-02 2.026805440605104411e-02 4.232840405735834866e-01
-1.322457459004650060e-02 3.344649998015607889e-02 4.117141314200710167e-01
5.201839772892360991e-02 -3.151895155783599172e-03 4.595991679386287609e-01
4.751096755622224999e-02 5.896010674023295650e-02 4.514492429437574894e-01
-1.905130163985423869e-02 5.123889723443778021e-02 4.201671311601599679e-01
1.311035391603400380e-02 3.606315215385898915e-02 4.164395041868828029e-01
5.727742761318588283e-02 7.792017954577597563e-03 4.767919853269734776e-01
-1.729898653767347749e-02 5.419491033044593342e-03 4.276327561391490284e-01
-5.188346886403620573e-03 2.496300939462411939e-02 4.115823280445335963e-01
-7.461123904348181471e-03 3.159923459124946987e-02 4.100399566840032262e-01
5.655449602416352806e-02 4.005403626792160970e-02 4.641162233781606083e-01
4.502007797630287744e-02 -2.191505591307648521e-03 4.488397092189670978e-01
2.751352248641907028e-02 1.679003585002654397e-02 4.347267170009780357e-01
3.159258040947161145e-02 5.078932018731872888e-02 4.357292914270056161e-01
4.051757902884899759e-02 5.969477791068751593e-02 4.452614783116403685e-01
3.165272274673594510e-02 3.890763259759788539e-02 4.364751765961347729e-01
5.076621589729170270e-02 3.644599549590517990e-02 4.527545581013000531e-01
-1.026581974890785828e-02 -5.193915253987096449e-03 4.315175970126240990e-01
6.702285890663848764e-03 1.892418120825205621e-02 4.197374998556799297e-01
-1.633903625616184643e-02 -3.681802052353601567e-03 4.321463817899484083e-01
5.401020135239001374e-02 5.467299936065563026e-02 4.659923369852121966e-01
5.489167204735357491e-02 5.033474047305380034e-02 4.630132901459828587e-01
5.817086208708666106e-02 -3.494483467552462943e-03 4.851928257619820273e-01
4.504949369046194058e-02 4.904290865505838565e-02 5.098329139823905010e-01
-9.580251443581532314e-03 2.321052354629055473e-02 4.153995351213731757e-01
4.375530771619710879e-02 3.250464125219588996e-02 4.457570746378785587e-01
5.426045816505873504e-02 2.755084072690370048e-02 4.936301901411926929e-01
5.655776174020168273e-02 2.482136403582821046e-03 4.908175051664414035e-01
5.559539494113868024e-02 5.122544343283578355e-03 4.650108736682632693e-01
3.705138420871625926e-02 -2.032292474582491834e-02 4.448587277050023436e-01
9.500691982094038382e-03 3.557497078387907713e-02 4.093527332379494621e-01
4.896231576157304699e-02 6.199802196167209650e-02 4.769321163621811910e-01
5.762307761647741944e-02 1.787317768296005360e-02 4.717747685980693828e-01
5.684251494534457716e-02 3.939512019015561223e-02 4.777423514659775439e-01
5.201161040595232016e-02 2.047840244387982497e-02 4.964854603492562801e-01
1.359827392424273196e-02 3.856336938988003810e-02 4.185669604897305218e-01
5.136138417028515701e-02 -3.710924039196487195e-03 4.583790591737805231e-01
5.514695056214218710e-02 5.752760450613297535e-03 4.928523273195557497e-01
2.738000450289194629e-02 3.099750554114196963e-02 4.335581704410207959e-01
5.711786877822184333e-02 -4.144677329353693880e-03 4.997481519843958719e-01
-1.741931181270692935e-02 3.024941522230637989e-02 4.149493325266454535e-01
-9.463355397186125686e-03 2.743918042673041194e-02 4.130383397569120096e-01
5.772066220737246539e-02 -3.293711630074508574e-03 4.783006822744159114e-01
1.641158216224540209e-02 4.464491752885507009e-02 4.220191245714561834e-01
5.422642722188496939e-02 5.249551808164053951e-02 4.610364380777756121e-01
-3.495270045367637052e-02 1.588174928057081020e-02 4.369835098880447966e-01
5.598109760730554663e-02 3.003645906036977314e-02 4.605753089448197390e-01
5.423331578671239384e-02 1.621183991691932738e-02 4.571822999370961371e-01
4.982355990085454017e-02 5.790256881733017724e-02 4.544861651146201442e-01
4.917979996854204838e-02 5.598898009472734472e-02 4.523449159356098259e-01
-1.813711236512953115e-02 3.034108462677278725e-02 4.152725202266960847e-01
-1.453818013941636858e-02 3.550037918278212828e-02 4.115938356001763165e-01
1.132195524164038292e-02 1.159445731012298877e-02 4.275338980943046985e-01
1.404169892643315071e-02 9.765930717507517733e-03 4.298320739620464237e-01
3.925474000439087979e-02 5.167229369383840448e-02 4.422148136248962302e-01
-9.787882684254612525e-03 -3.431817242556162422e-03 4.308391077394028157e-01
3.135846947847036048e-02 8.566548194760480531e-03 4.373670389080510645e-01
5.747864859114218405e-02 -6.179181217069250331e-03 4.790729076758509231e-01
1.638278844555278793e-02 5.200658492906018449e-02 4.231422337058001748e-01
7.650425982902591543e-03 6.080833853720896132e-02 4.247135138542086907e-01
5.729145535857504273e-02 8.621208929742255403e-03 4.761594970892286671e-01
5.471295137771211431e-02 4.663790737221279459e-02 4.850200539420455592e-01
-9.244825287027627278e-03 1.115590662177687320e-02 4.227886663311322679e-01
-1.373919423715037197e-02 3.427658463333493888e-02 4.116542312122406511e-01
2.804470234608207047e-02 2.862570949767961198e-02 4.342296873097874488e-01
2.704922853529667312e-02 6.511586221984598521e-02 4.445321976318378221e-01
2.805858793565734616e-02 4.153999686382264800e-02 4.331844274530008976e-01
5.431861389777598026e-02 2.689960798795110880e-02 4.932496179936277092e-01
2.802602086986093893e-02 2.150587550356443736e-02 4.346029187464772181e-01
-3.493154421675519899e-02 1.301030589027942462e-02 4.381402262243622725e-01
8.082302017918522111e-03 -1.967396868050717493e-02 4.373192257796891802e-01
5.479057169666967653e-02 -1.037510718413096195e-02 4.702321927782739386e-01
5.799427880138831315e-02 -2.143153843553695717e-03 4.911927443457166920e-01
4.292476685844883594e-02 -1.844480910447610436e-02 4.501325812738222187e-01
1.135553403361647465e-02 5.218346604018262586e-02 4.181663977382274466e-01
4.979470686441690025e-02 -5.377071097553962932e-03 4.559047697957702705e-01
-1.251772861171885493e-02 3.454500521169934224e-02 4.110916754496720116e-01
7.818270732746091661e-04 1.434523003321403097e-02 4.208597193436923178e-01
4.786418627623448968e-02 5.745394579048691136e-02 4.877639915701371676e-01
2.674723248579968793e-02 2.386187013702841322e-02 4.336006139341181398e-01
1.301100900824165955e-02 3.095831244496207932e-02 4.178029742026189708e-01
5.664778873197553327e-02 -3.492295129185349779e-03 4.723201100188921808e-01
-2.877892644916500708e-02 2.526712619006522831e-02 4.234400118437751659e-01
4.514607708135259800e-02 -2.183259344632971707e-02 4.553818800973679637e-01
-2.611850237933580413e-02 2.351036003059172805e-02 4.222674442116414739e-01
3.330355376308637844e-02 2.727045541319655583e-02 4.379525802188435901e-01
5.587358395946355472e-02 4.101742479930601398e-02 4.867250001123921699e-01
5.692314048670903820e-02 3.937121688763653427e-02 4.653991120234161616e-01
-1.046147031644941057e-02 8.202052305520896383e-03 4.245966510079388079e-01
5.752099666416111284e-02 7.931668420949167242e-03 4.798624775691361921e-01
5.059982297663468548e-02 5.718005126435711516e-02 4.555636483330889885e-01
-4.167828006654000425e-03 -8.247839901431371253e-04 4.299176698267236918e-01
3.266692311329911363e-02 8.991736998586415119e-03 4.378575535963122878e-01
5.720059854802374971e-02 1.939730577760991406e-02 4.806248479704728349e-01
3.924813955216625849e-02 -2.376686719422784269e-02 4.480866176644392462e-01
1.989739500837064273e-02 -1.547972894764108182e-02 4.357952793472924524e-01
2.267300835257513025e-02 4.741955454646437640e-02 4.283578447224946073e-01
4.638586854496472289e-02 -1.735949835841260960e-02 4.550580666116457729e-01
-1.574150025842493278e-02 -3.202394382780916673e-03 4.318505915902503545e-01
5.768158890310705333e-02 3.826834906488957126e-03 4.796471654028252041e-01
-1.344426943874161770e-02 3.237196532603553445e-02 4.121383804577409826e-01
5.495349555244562895e-02 4.599884574327946229e-02 4.840839017583794535e-01
5.186985960022036379e-02 5.407197772613395181e-02 4.854861938634950635e-01
-1.408822750188039666e-02 1.869551387788033481e-02 4.195414687149892075e-01
4.683860626386301095e-03 4.928197678804550896e-02 4.118292483660588310e-01
4.846949126341909553e-02 4.498200153840647975e-02 5.062596237683361089e-01
-8.686754309214592823e-03 -1.383974389584363869e-02 4.343469114788207075e-01
-2.485003241171562099e-02 2.600971963966992526e-02 4.206025291672761957e-01
-1.758286579318979470e-02 2.878487249158212177e-02 4.156955470985468359e-01
-8.164468405031400158e-03 1.643130957954804655e-02 4.190873669579248118e-01
-9.704742320029961442e-03 1.263913903922433968e-02 4.221089489954468754e-01
3.019403874038062777e-03 3.086909024941679458e-03 4.293507518284308544e-01
5.846369540523621566e-02 -9.369993135196662964e-03 5.080797844688296205e-01
1.413168146256631175e-02 1.091512935527768312e-02 4.293480577124387798e-01
1.035419037040668372e-05 -1.267763503830598472e-02 4.328550088159845433e-01
4.348027285129209968e-02 -2.161790029786907208e-02 4.530270879547749208e-01
-3.929527359121604002e-02 3.557102053643349231e-03 4.443982708671990745e-01
-2.640262730824920190e-02 3.154439232757833694e-02 4.194773577255373476e-01
3.634598732997978976e-02 -9.829588300917214971e-03 4.419843176616050640e-01
1.507323948186251213e-02 -1.847574330606756993e-02 4.363316842664956563e-01
3.776399438660892061e-02 -2.019155831757501324e-02 4.453470911207907945e-01
4.916579318362131190e-02 5.923337380004078251e-02 4.541402385893831828e-01
-1.104236011086784201e-02 2.133976923829599900e-02 4.168945473604521723e-01
2.660393049917730499e-02 1.537889842148007155e-02 4.342776339788573248e-01
2.225740706080866355e-02 1.673358858294858587e-02 4.315720945328806457e-01
4.112082913349091734e-02 6.095120377153491475e-02 4.461933908087257761e-01
5.601257440588347514e-02 4.524204172043762989e-02 4.638501297281560909e-01
3.526568326925055147e-02 4.558538211921698072e-04 4.404320887191363609e-01
6.946133447215568565e-03 -5.515839911122424714e-03 4.314395451126089576e-01
-2.573895618249203224e-02 2.883290914612652786e-02 4.199433929391556686e-01
-3.136726387314688752e-02 2.451635084540752796e-02 4.257099237188370910e-01
4.347520120965710222e-02 -1.529882518111385682e-02 4.499435518204304429e-01
4.709328733802473771e-02 5.374675646742896329e-02 4.496398018569046640e-01
4.277176839427207153e-03 -7.779207483667744533e-04 4.304476249786029496e-01
3.695554493006959068e-02 5.550971239185607115e-02 4.411549880752906883e-01
4.390621252804640523e-02 -1.805351929692287916e-02 4.513637303580490534e-01
4.819375771627749938e-02 6.362440288749392214e-02 4.762544823283522133e-01
4.601146901427253383e-02 4.967508758966509425e-02 4.478200478946785523e-01
5.412800515793971673e-02 1.712402326538996211e-02 4.910074679298546685e-01
5.067651613172229758e-02 1.563400077433858750e-03 4.541152867406582638e-01
5.597142959059311224e-02 4.617392426697514152e-02 4.667006356486475549e-01
2.544631366654606305e-02 3.521990931611573145e-02 4.312687907085086536e-01
4.041292036618172878e-02 6.800924831187303565e-02 4.679773445666336462e-01
5.515131060887090708e-02 4.816509679331239940e-02 4.612922192955054568e-01
-3.463717596935356885e-02 8.107529220979101808e-03 4.376400575751826505e-01
1.352229503352212446e-02 -3.491945393986826442e-03 4.322697236090741746e-01
5.703596590041801195e-02 4.153865385584127462e-02 4.690507533554067465e-01
-1.882261745003850802e-03 2.555508444094795745e-02 4.086616705124795357e-01
-2.029952343774421922e-02 3.232599978786054179e-02 4.156548428185493083e-01
-5.774116127973885973e-03 1.359950407336030578e-02 4.203143230169121836e-01
5.750990609446660073e-02 2.652253904086059044e-02 4.831134702823959848e-01
4.730730439330714521e-02 2.669098785343279948e-03 5.172226306870569834e-01
5.428269587194133050e-02 4.018940118768640074e-02 4.948700361923499269e-01
3.824768826331274851e-02 7.014959476596251131e-02 4.517123702394274520e-01
1.066065645691435110e-02 6.154237581639241533e-02 4.313194859767737199e-01
-1.312393547658916026e-02 2.458035881494684272e-02 4.160649377760450296e-01
-5.183100146862535534e-03 4.195136837018684922e-02 4.079590703188110123e-01
5.141446035995374253e-02 3.193506022772019809e-02 4.530923174634978734e-01
1.719319603780751493e-02 -2.157218555597467322e-02 4.369764514732741301e-01
-2.353115701862175391e-02 1.884279904982850973e-02 4.232912981959068843e-01
1.917657110833417833e-02 5.626096367753141009e-02 4.273772653421568646e-01
5.788388936960804643e-02 -1.395908015684880002e-04 4.825109687123665392e-01
-2.446357197112438570e-02 2.330423902441906229e-03 4.315957641112544985e-01
3.030922599488787908e-02 6.528364018415125369e-02 4.454864376183181873e-01
1.142014915657450953e-02 4.869914338895308444e-04 4.313476386758751113e-01
2.786454648490124114e-02 7.597336622725213949e-03 4.361519482112207746e-01
5.318674109549573897e-02 2.066424160402687959e-03 4.596063296187512526e-01
5.509862382293976429e-02 1.155077528756223368e-02 4.608164676247372693e-01
3.648459847775768067e-02 1.005917273579636992e-02 4.402270610464487643e-01
-2.497423526214487266e-02 2.288441382862452592e-02 4.218302649266919002e-01
5.632873389916240314e-02 1.334262046149868597e-02 4.639294157993495982e-01
3.995242815667612857e-02 4.138689872521605917e-02 4.426114969436998892e-01
5.782728241328236735e-02 2.051145959680806402e-02 4.732799585711752743e-01
7.021771977739302284e-03 2.526356465887589012e-02 4.105560959986148117e-01
1.278015791831058068e-02 5.796523433789198265e-02 4.234101395392346201e-01
5.546575729782968200e-02 2.049135836154265464e-02 4.597719928730876759e-01
4.245140918412106806e-02 6.997703033230154301e-02 4.595396422476635823e-01
-2.771464520077097232e-03 6.500722479110122680e-04 4.296295046113847715e-01
-2.387977458648055801e-02 3.107467373656051107e-02 4.180781976232303410e-01
4.886054033992755230e-02 6.276004932804003789e-02 4.757892052098914859e-01
-2.424460457224244733e-02 2.066727520776747221e-03 4.316562550927868225e-01
-2.693053900302396636e-02 1.176130409480192693e-02 4.298453465079113966e-01
5.006442271941915351e-02 6.116717044492352845e-02 4.588555648203769266e-01
-2.232207278924691271e-02 3.135706114703944863e-02 4.171237171756282391e-01
2.943583385884352560e-02 3.560371076839258936e-02 4.348009249727812775e-01
5.090600902381425819e-02 5.822188303118182306e-04 5.138019258068995399e-01
4.940468309584028495e-02 5.757365975155083471e-02 4.845474444661211910e-01
-3.117494335425060117e-02 2.065741645200010190e-02 4.268429891982761792e-01
4.352186384764207550e-02 5.789252747821955342e-02 4.472515380889500736e-01
4.489089682157659800e-02 6.728311592013150322e-02 4.722878880049241057e-01
-1.584169480156693774e-02 3.201878254162274229e-02 4.133484277948741847e-01
5.780602656600136030e-02 2.027784126123359856e-02 4.752559569949398321e-01
1.438224771025859924e-02 5.870071465508689551e-02 4.255392366375956303e-01
-3.441364446304974890e-03 1.696824083307613834e-02 4.173726994245929856e-01
5.805039669054998935e-02 -8.213566118951095771e-03 5.083502986841936799e-01
4.740282730165151781e-02 3.704783841092152558e-02 5.089115453605943529e-01
-8.485079298313109863e-03 5.185917132072938307e-02 4.134592801427789954e-01
4.707990341261664852e-02 5.599747816021544145e-03 5.149031270317887543e-01
5.663257466120698302e-02 -6.415078744616656801e-03 4.745356122394982501e-01
-1.763379763839919429e-02 3.157652878061783380e-02 4.144912738918788975e-01
-2.036739169624268708e-02 -2.340976223011058659e-03 4.325546177661979685e-01
5.252733397846668512e-02 4.185811446175899397e-02 4.990811938798794256e-01
4.002964734255232832e-02 5.496649122379752839e-02 4.436066812923649127e-01
5.643588367495420283e-02 -8.180604515151001024e-03 4.752517511860823718e-01
4.404669539236290288e-02 3.996733604928254940e-02 4.458277050036862366e-01
5.820887578744130680e-02 -4.495301103555759611e-03 4.899241202066765277e-01
-2.049062046328242043e-02 1.269395091809562628e-02 4.252731813170927966e-01
3.056098359607693424e-02 -1.437424183270853521e-02 4.388486129418652792e-01
4.876022907794681782e-02 5.495856993310403033e-02 4.925147736604784665e-01
