4.239534384805820205e-02 2.868559774274728053e-02 4.453550620807477656e-01
2.756988400546482587e-02 5.694389253845454080e-02 4.352853500860180413e-01
2.746253174633167884e-02 1.928463120078986390e-02 4.353359043113719240e-01
1.702893777598598474e-02 9.702792812088554403e-03 4.321335657608616487e-01
4.731075306139100739e-02 5.077878745531715088e-02 5.040801185580185972e-01
3.392853046782592918e-02 -2.225076789260143142e-02 4.432485100590536908e-01
3.423614889886985452e-02 5.538989015528911902e-02 4.401257369349257376e-01
5.617774752179097164e-02 4.472786574501512458e-02 4.750115149856560803e-01
5.473633453970073309e-02 3.404791775628128458e-02 4.943458611466297614e-01
5.776246747296258366e-02 2.664036013536837805e-02 4.680895766107567857e-01
-3.225793568441592818e-02 1.460326893412440541e-02 4.325044602592961751e-01
-2.600119302450845660e-02 1.066331740314109718e-02 4.302937341623016554e-01
1.201233071254372703e-02 4.567969365345378452e-02 4.190186947984821386e-01
5.257484903607240190e-02 5.808192052903056457e-02 4.674662984913136032e-01
-1.013377456581900527e-03 3.175736844892081134e-02 4.059654106447600497e-01
-3.444597746502336272e-02 1.238067819861687902e-02 4.377177670366340090e-01
5.008804256663534904e-02 -1.211190984552301241e-03 5.166461091692685637e-01
4.849232859454016137e-02 5.707448653895738633e-02 4.876905185722277269e-01
4.035805925961555990e-02 6.958402545762643054e-02 4.534450429259508364e-01
4.431040753489715045e-02 2.416369583019921038e-02 4.468056169457851889e-01
9.581080493943788280e-04 1.685262666208959398e-02 4.204851016866728020e-01
2.898820336062414571e-02 5.924531846533444279e-04 4.375241170467773499e-01
3.767959127193491048e-02 4.488843599815665886e-02 4.419929111297185576e-01
4.527093133426249999e-02 3.515288625565304859e-02 5.131795882865489711e-01
4.704701563759619565e-02 3.967331185075289451e-02 4.496432966389316555e-01
5.793583017001495417e-02 2.729038960888028470e-02 4.782288000218621882e-01
5.527259060839127131e-02 4.963227085049178727e-02 4.721274136643847097e-01
5.349002893363036942e-02 3.705375174166446878e-02 4.572283646845456961e-01
5.344262755617791572e-02 -1.727561321871811176e-03 5.121409963066800852e-01
8.760193944770511276e-03 -3.215481601905626537e-03 4.317922788702346359e-01
1.300784009780928466e-02 1.633786291526803918e-03 4.321347026190117124e-01
4.739276443779679576e-02 2.158064764706492042e-02 5.086320888768217641e-01
-2.823746169965227898e-02 8.709259777289778993e-04 4.339540319612344987e-01
-3.129241114897766962e-02 6.331828601041049678e-03 4.353482282449886998e-01
4.463603981412621324e-02 6.146990453216034239e-02 4.501943955361522032e-01
5.324849342214211384e-02 4.853135981782837755e-02 4.906005490522416523e-01
3.191956973019197813e-02 3.204902486250918447e-02 4.379817236072221509e-01
4.502208747534637567e-02 6.738138578846847304e-02 4.707426766148430919e-01
4.309540568467147559e-02 6.921819507508153446e-02 4.557623118865438694e-01
-3.224988563030923433e-02 2.143654852367738589e-02 4.282111814942376471e-01
5.235758502233714418e-02 2.125687427037327437e-02 4.958489133894572465e-01
3.473218786548334241e-02 -1.685433696203921666e-02 4.422626914096869921e-01
-1.149447707692008089e-02 4.074103399596645803e-02 4.108861010245865031e-01
4.296720449497259953e-02 -1.380804803027692144e-02 4.491566674935327796e-01
-6.324813500812267834e-03 2.893497379253114413e-02 4.119784733209412297e-01
5.740807178907707947e-02 1.575341198823752842e-02 4.770625045446911794e-01
-1.004865518723643998e-02 1.804400402157893546e-02 4.199231770381982032e-01
5.468258851112996199e-02 4.677876085885941670e-02 4.854476065456517220e-01
4.061433480701014120e-02 6.711452642104046018e-02 4.762534817188229241e-01
5.555185100082466604e-02 -1.307150422550324570e-02 4.749582667605397046e-01
4.792772839103454779e-02 1.805046986201341158e-02 4.501316859540371307e-01
5.114498774088289262e-02 9.879764875273082392e-03 5.014993843697436171e-01
-4.956893614545258842e-03 -4.739221459946992877e-04 4.302610758398184299e-01
4.634478607584262971e-02 2.895117411974930041e-02 5.112349669014617515e-01
-6.990612186501969465e-03 4.214695465788012574e-02 4.099218790555450576e-01
1.809538231942283901e-02 1.837182500878747904e-02 4.293208300065514682e-01
5.559124064044376062e-02 4.657993034456306414e-02 4.652664149774572433e-01
4.899141556951454660e-03 2.367100768264854271e-02 4.129609906523143414e-01
-2.363739407086160385e-02 6.681906795392455502e-03 4.304282056608166318e-01
-1.643093602374780943e-02 2.905683744346560654e-02 4.162773752728015086e-01
5.009669661016605963e-02 2.606342588433860005e-03 4.533561845574247684e-01
-2.986500593562480682e-02 3.516127448169651531e-02 4.216937229108536633e-01
1.573131900152051690e-02 1.040526216430765101e-02 4.313161533739085507e-01
2.522446241150106197e-02 3.097942494091552798e-02 4.329547099779271213e-01
2.771974602433973506e-02 5.313121315425286401e-02 4.340656591949016430e-01
3.473143075646153988e-03 1.211818951725528691e-02 4.247897308927133242e-01
5.459017686751130999e-02 4.855285081800171654e-02 4.600503358852516267e-01
5.699552658174036890e-02 -7.613788219473656069e-03 4.781223389409495761e-01
5.747773985344693803e-02 2.036873046082895988e-02 4.685943915051489772e-01
4.338714137613770144e-02 6.430449792398570952e-02 4.817822483925907617e-01
5.526429995631742392e-02 4.493342961685998366e-02 4.834314799753911540e-01
5.346215487943874189e-02 4.669704854416623779e-02 4.925141851068363108e-01
-3.499506281597825758e-02 1.687520280755830729e-02 4.367717050018614100e-01
-1.138859240687735246e-02 -7.316364553739568635e-03 4.328459305044509708e-01
5.611242862044715091e-02 -1.301429609938505733e-02 4.776816575317587299e-01
4.645885621399031828e-02 -1.409468958529816116e-02 4.545724846083832871e-01
2.011920399603234905e-02 3.720977187490762811e-02 4.279615003697879727e-01
-4.036022640594982142e-02 -2.339399426019709346e-04 4.408893630478838976e-01
4.033431689890389776e-02 -2.215165720049894552e-03 4.448887888855385109e-01
5.733590968466517612e-02 3.088655739560475580e-02 4.649520742285956909e-01
2.118442034423364054e-02 1.465361423189870047e-02 4.322632526852820400e-01
3.143047534882049965e-02 4.304819581451218430e-02 4.372608361327774973e-01
4.562469845132235968e-02 2.348791162218418979e-02 5.120868031119357733e-01
1.105820426386066105e-02 6.054623324327151196e-02 4.277738910829004815e-01
-2.805923275528313110e-02 8.444950437351465486e-03 4.325126417603421536e-01
4.950853079982010796e-02 5.701735569747709564e-02 4.541174988644402499e-01
4.074801541950152234e-02 1.765963519865052650e-03 4.449781443469236764e-01
2.207345244101884679e-02 3.603641533240679179e-02 4.296775413912862218e-01
3.167717367390657929e-02 -1.347390420027195015e-02 4.394814862560331159e-01
-1.345487954013058554e-02 1.181592298169831766e-02 4.242068047186680069e-01
-1.177938895059935792e-02 1.617979623719791385e-02 4.214905888650881671e-01
-2.161076777120166797e-02 8.541159752091477195e-03 4.288811339055034200e-01
5.725992906074088562e-02 3.886932984999574153e-02 4.708976969162829151e-01
4.972014176488605969e-02 5.705789050800702533e-02 4.853128163143071716e-01
2.187672392330584220e-02 -1.627694287128639630e-02 4.366191710737218346e-01
1.541299002220304463e-02 3.517106196061756812e-02 4.230230558142542008e-01
-3.258290006093093188e-02 1.686753329321986905e-02 4.317402736386116158e-01
3.732791829730137956e-02 4.220449997544790249e-02 4.417165954031636588e-01
5.171923467703679750e-02 -1.727475049488260556e-02 4.670601596181142567e-01
4.969440277184339165e-03 3.847821753705334830e-02 4.087090085214436508e-01
-2.478593422168701849e-02 3.523461453904722790e-02 4.181154209185271031e-01
5.684887118334581990e-02 4.407383793020099201e-04 4.728193223716086191e-01
4.767694479516933204e-02 1.826567369995518025e-02 5.075040797227116096e-01
2.306343475292593412e-02 -1.387125296677406069e-02 4.363902954309956117e-01
-1.150228574338523282e-02 1.321899841700967596e-02 4.231324054175480964e-01
4.711115326842404277e-02 5.729784007365011644e-02 4.899970096552939136e-01
2.248016649445085807e-02 5.637908985029978920e-02 4.309459351116417536e-01
3.760803004397578198e-02 -2.296557366811512874e-02 4.465994135464821935e-01
2.935271620722898836e-02 2.744989439737418810e-02 4.361708349151962039e-01
2.744355793015247971e-02 4.296638782052939615e-02 4.339318685373313444e-01
-2.585223021236138230e-02 9.555231025004162770e-03 4.307177354612652942e-01
5.802517441461393921e-02 -1.405133488158175374e-03 4.817775698381215332e-01
-2.796150720544487989e-02 2.763107759694966026e-02 4.228484230704422364e-01
5.479965851369800189e-02 -9.196224867131144037e-03 4.699273147164864106e-01
5.362632783224215854e-02 5.617468768833529420e-03 4.600194776195035695e-01
-2.666612180417050892e-02 9.812454248230373724e-03 4.311680752957776086e-01
5.680300593289596550e-02 2.525334424184410773e-02 4.858230582284289722e-01
5.604329470662283708e-02 2.180747332799835674e-03 4.688415278326686364e-01
4.663173940213315855e-02 5.936273272705098331e-02 4.872225808790125456e-01
1.046290324008655216e-02 -2.217198601816423170e-02 4.376558403570425804e-01
2.663262207984267924e-02 6.522751822535478861e-02 4.510449383220649922e-01
3.537970700621732162e-02 4.374811750883200734e-02 4.403347960357522628e-01
5.680727372479181525e-02 3.239282309549164351e-02 4.636881963463855838e-01
-7.733284449890263923e-03 8.760582879122829486e-03 4.247724497844790892e-01
-2.299383836655117738e-02 3.882009025322917528e-02 4.160920532806402505e-01
5.792999017055904670e-02 2.607677489524723446e-02 4.722135530683622684e-01
5.796400870038413006e-02 2.680939283454244343e-02 4.724202494302173205e-01
-6.114425647696372819e-03 3.708247856578100743e-02 4.088121246051001356e-01
5.033793814694734192e-02 3.510138694593330916e-02 5.043845514468905389e-01
-3.456308283382589913e-02 1.231579196019772122e-02 4.378957367142186086e-01
5.470745862855374425e-02 4.643325678207424478e-02 4.861741044981315318e-01
5.392140222184364090e-02 3.011833687209775415e-03 5.019382816683674031e-01
7.946044385660658987e-03 4.467756434817732325e-02 4.141878490388826717e-01
5.304603560928558559e-02 4.473208189997510825e-02 4.966693670964476004e-01
-1.941363444099843474e-02 1.757531087807333563e-03 4.307838930491294516e-01
-6.976868569573075121e-03 4.591462723406421892e-02 4.104009496407071689e-01
1.375659781134631714e-02 5.494367121217568622e-02 4.234347762466991183e-01
8.176392353078269087e-03 1.043624232652657670e-02 4.277955271298811701e-01
5.083068063582738688e-02 5.645366047606615451e-02 4.834306350694823617e-01
-4.682227522938916739e-03 5.469016303347593727e-02 4.173773091268082047e-01
5.692147720474842465e-02 2.443800264824836851e-02 4.638776031600104210e-01
-2.117302315870417048e-02 -2.802121260767053649e-03 4.331563996466536448e-01
5.453185363843973676e-02 5.881195449201121264e-03 4.955699661117507482e-01
2.771051569054701694e-02 3.011501938688592242e-02 4.350229622158059972e-01
3.340345761511692019e-02 4.885043547283006438e-02 4.387384247625651934e-01
3.923167936024501978e-02 7.185209580125236084e-02 4.543489080042925621e-01
-2.062209701994385108e-02 4.840831365067822800e-02 4.178437794380169823e-01
8.513009475160863981e-03 3.490023339292298854e-02 4.068774109358084812e-01
-8.934089698135168692e-03 3.831244890943973774e-02 4.097300852954590122e-01
-2.145550561795021936e-03 1.384469492167830079e-02 4.221878919851850265e-01
2.125625337888215408e-02 4.834444887027151971e-02 4.288895478692423269e-01
4.670207560056774398e-02 6.612662602893007446e-02 4.757436882806039824e-01
4.929165506202851793e-02 -7.830645024905526219e-03 4.569104081126095784e-01
3.418488647208461906e-02 5.979563508610426584e-04 4.400869763599142281e-01
3.575493025568352023e-02 -2.737459570577505802e-02 4.472401753056249873e-01
-2.967128752431328481e-02 3.170850821567622324e-02 4.227732159204560247e-01
5.666951898224581452e-02 5.356809204034732388e-03 4.874218711693627526e-01
9.763328290576978215e-04 4.616495901958860698e-02 4.104950745582278127e-01
1.826372668912272512e-02 6.201374089950847240e-02 4.408419949227102008e-01
4.183888935273084170e-02 6.692876158868157899e-02 4.526588168338424589e-01
4.507665993709380342e-02 1.256391250827907508e-02 4.474929190750387420e-01
5.081070467850858086e-02 6.112725687875662089e-02 4.710976302867128096e-01
4.849991614692641256e-02 -1.923286867004250777e-02 4.605776205625654041e-01
2.128986734775175846e-03 1.931427542560054667e-02 4.183806292480924394e-01
5.201001297976250853e-02 -7.818484577914756525e-03 4.631874103862921865e-01
3.383084980566666150e-02 5.826943051486870723e-02 4.408596349310666684e-01
-2.557717739256354025e-02 8.139380799808046928e-04 4.331001123164859301e-01
7.482749601172970257e-03 9.176433627273944058e-03 4.282447472407077682e-01
4.829287336646413686e-02 -1.106470450733259767e-02 4.567470240157031069e-01
5.575982096096269297e-02 3.300588087679465210e-02 4.609417650973542391e-01
-2.265933330312773584e-03 1.457906696075243064e-02 4.216781619328924258e-01
2.781995061253062299e-02 3.886914158803610186e-02 4.344927125290853342e-01
2.908330672086896496e-02 3.391038517696094712e-02 4.357836498301391193e-01
4.814566296351105446e-02 9.822471129393441861e-04 5.175631497183909024e-01
4.892687272561939416e-02 5.742705531852455858e-02 4.534429109381247214e-01
3.346363423151489658e-02 3.337192369245147588e-02 4.391462183553494492e-01
1.272526857266928491e-02 6.031950824427553121e-02 4.283067343726930654e-01
5.044997896790198028e-02 5.626268112385672537e-02 4.553934373449380901e-01
-1.651697152592395551e-02 2.514287869563603187e-02 4.182510319857297709e-01
4.617362347967907121e-02 8.545817991309080652e-03 5.138374928544778841e-01
-3.224127520441723294e-02 -5.208557174619619923e-04 4.367892684959310823e-01
3.505705741065213293e-02 -2.011063384556277880e-02 4.433811606784248682e-01
2.054865376464066855e-03 -2.144729803363023407e-03 4.308430766105424414e-01
5.093992759976373463e-02 -2.189739136452198767e-02 4.665111929014028602e-01
2.624342560447408962e-02 -1.970582265888662712e-02 4.386123421465409900e-01
2.853271021289837533e-02 2.446137877735382604e-02 4.356433672212449704e-01
5.530646252226002063e-02 1.731494274325732358e-02 4.878574023972490070e-01
1.747950214827860213e-02 2.972842103236427932e-02 4.257627475567145048e-01
5.763879943943255729e-02 -3.575525236243103609e-03 4.786525929673307034e-01
3.063346071531729969e-02 -1.429532353465219272e-02 4.391405431876197474e-01
-1.386201462406982422e-02 2.472943762397133288e-02 4.175027656580457824e-01
2.121798719048029885e-02 1.474623485648672398e-02 4.322599885542129927e-01
4.537701722212379718e-02 5.124378152690603483e-02 5.054207560657970610e-01
4.106593468385850987e-02 7.109381921314816832e-02 4.591822065974158207e-01
5.089577833236015592e-02 5.724812384193965834e-03 5.074120699887033625e-01
5.590817099280980668e-02 1.332969701597000456e-02 4.634068867408169257e-01
4.880111367933293032e-02 3.279369558223287767e-02 4.510577237393411654e-01
-2.520197527374803265e-02 4.242609435319226463e-02 4.186136976500089424e-01
-2.729215290460978646e-02 2.054391952924228965e-02 4.251608791339599458e-01
3.930235818863877378e-02 6.789029752107159088e-02 4.519796750555356568e-01
-9.258139691665589685e-03 2.201758910104938127e-02 4.171520665373546488e-01
5.160040666674572257e-02 2.476853216135872435e-03 4.564876971122543980e-01
-2.563755168926397376e-02 7.121954086070783965e-03 4.314339469789071901e-01
4.741638756122767279e-02 3.854228994714249679e-02 4.500026288386121953e-01
1.936185096644055942e-02 2.287980149391957360e-03 4.339586883735397915e-01
4.488686892719940397e-02 6.668198559891463928e-02 4.554966733951745783e-01
4.272241590255214383e-02 2.563881860618709777e-02 4.453846590766324942e-01
5.645150990493389559e-02 4.334079654644631269e-02 4.679627123527042576e-01
4.736911437062331365e-02 4.881022738672771699e-02 4.502786977052790074e-01
3.641641854438903980e-02 1.962140297604432655e-03 4.416330435037505997e-01
6.281568714386041169e-03 -1.010767226465709816e-02 4.328244652177155039e-01
2.974342852216089322e-02 -8.183492189411629286e-03 4.376048352206824976e-01
-1.376462651488591371e-02 2.725276022872575796e-02 4.162251175084992760e-01
5.003082462847877054e-02 5.410566813336369074e-02 4.538543806685915172e-01
4.815617536640386109e-02 1.664770841111421623e-02 4.503448192875443290e-01
1.309666610631753624e-02 5.727415985503858664e-02 4.245431460273241253e-01
5.680106831183123761e-02 -1.741044647098091008e-03 4.730307411796988992e-01
5.595527458934169973e-02 4.643718360460397099e-02 4.697791103035251492e-01
4.825538824226695278e-02 3.688749153265275665e-02 5.080605441537449085e-01
4.222663007537643537e-02 7.059978383348676501e-02 4.586238100870509427e-01
5.427103811794192073e-02 4.055991802372486271e-02 4.953525701414144833e-01
-1.512365893405653861e-02 2.697648679774378513e-02 4.168505617805586816e-01
-2.406607385712329975e-03 1.117485339367514478e-02 4.238777940003864431e-01
4.734268753532362012e-02 2.670183275042633739e-02 5.092954370480072823e-01
1.340525446300171045e-03 3.102909859606179516e-02 4.047691789337433677e-01
-2.031416390837436151e-02 8.697619394374663318e-03 4.281228251149774566e-01
3.976251798706231105e-02 -1.956615398169961675e-02 4.470388526401177232e-01
1.521621792874442922e-02 3.562356774021476630e-02 4.228888037696406088e-01
5.525248678366141697e-02 3.132196796602908923e-02 4.923479561662748027e-01
4.232159801878247057e-03 5.347184296889293670e-02 4.161062172206236309e-01
4.142634805193600583e-02 5.525877933748697506e-03 4.450420732441108251e-01
-1.143911202213203186e-02 -3.079353843219875386e-03 4.312362625864534782e-01
-5.218511187948638753e-03 -1.481050744702113158e-03 4.304390190853931153e-01
-1.667768253541476037e-02 4.793075236780242054e-02 4.144416092252534156e-01
3.978732162152429780e-02 7.118366161041313200e-02 4.540095561408761249e-01
3.283370409673362633e-02 5.105430750401907664e-02 4.381888944712848399e-01
1.841901846226463510e-02 4.081756841100196709e-02 4.259795559601098902e-01
5.719694579104538101e-02 3.081020973903136374e-03 4.746764015294746009e-01
4.627398937472702867e-02 5.074515718772480699e-02 4.491393788277909249e-01
9.794219665767812250e-03 6.064008641345676465e-02 4.271002882358431729e-01
2.889151506192509308e-03 -1.057667832975290635e-02 4.324773173432541196e-01
2.119730854145653737e-03 8.741667667266165773e-03 4.266522642635506846e-01
4.189456929935328651e-03 5.850884836020733837e-02 4.204166474183872459e-01
4.804802657052890252e-02 5.271325580638059477e-02 4.986799424655802282e-01
1.451090254304080590e-02 4.611362565076773667e-02 4.221197876209742406e-01
-4.049187332803933642e-02 -3.388602023840126161e-04 4.408768197398246769e-01
-1.419009527404409797e-02 9.972809444947676807e-03 4.252914954577567963e-01
5.542710566167260988e-02 3.945753692357933246e-02 4.610593036407719114e-01
1.494415330785507645e-02 5.419943450100112720e-02 4.242494481540969864e-01
9.715396771068845333e-03 5.431594785080436083e-02 4.196478515856168490e-01
2.322749051578294407e-02 3.328801344835884829e-02 4.308220891020229093e-01
5.362679908848273086e-02 5.226820631156921942e-02 4.592132387073928346e-01
4.136002050073197406e-02 -1.657689253804461166e-02 4.476487913943425490e-01
5.184817450758654606e-02 1.035867680861990436e-02 4.545018464450844009e-01
5.681856836578836473e-02 1.659107552399720353e-02 4.654435151603548149e-01
5.558688549175933719e-02 3.238201935362468309e-02 4.605310268900703607e-01
5.166838324995449983e-02 -3.693097139594060056e-03 4.597214449847120132e-01
4.015958503384767925e-02 6.563099549928907983e-02 4.499817509314252839e-01
2.926127014854515082e-02 3.125953884709416902e-02 4.361258668907432301e-01
9.664152752462795704e-03 2.840400081845959566e-03 4.312813824742168234e-01
4.799700213081703470e-02 -1.419075112384296337e-02 4.574354651939289140e-01
5.715042396545011449e-02 1.839672896160660966e-03 4.745065426009943410e-01
-2.323682550928088744e-02 2.018716813141476635e-02 4.233379720602123419e-01
7.184328281358956340e-03 2.662251172588417760e-04 4.311613107149273039e-01
-3.479508110157913253e-02 1.458043642706265304e-02 4.379220986304975805e-01
5.745350513471374210e-02 2.093583766612027580e-02 4.675197888468286544e-01
3.239801348344519688e-02 -1.753995499029547406e-02 4.406712812174986005e-01
4.430759712744763990e-02 3.419345232780341554e-02 4.470736831485986884e-01
1.894418549831801760e-03 1.811596436837498506e-02 4.196739014564749293e-01
3.799357235892552448e-02 1.794698813303502796e-02 4.417961434018111699e-01
3.387629518461952177e-02 -2.455655782295937395e-02 4.441888343085513280e-01
4.971383681827051815e-02 4.628155377040565899e-02 5.039977588245416751e-01
4.732615457895618383e-02 -1.622121861094067211e-02 4.565919739011892742e-01
5.393507396780517806e-03 2.624990442958645073e-02 4.093580647647452331e-01
2.268863578456336780e-02 1.775379465469416676e-02 4.326159771376718588e-01
4.855826177981951985e-02 2.110822539626851582e-02 5.055369895523105228e-01
5.730167896124156030e-02 -4.092354640802048013e-04 4.767537358446063966e-01
5.296800298099716559e-02 1.878286669978409401e-02 4.942772520905404643e-01
4.807290776043301322e-04 1.174845450000197404e-02 4.238503196749973112e-01
3.410093205526818633e-02 2.490313643097118515e-02 4.393879066373072018e-01
1.139777421604626709e-02 5.438956333974136886e-02 4.213227297715564923e-01
5.424528540217563727e-02 3.156557989607233772e-02 4.578771334754757616e-01
4.846704505722002065e-02 2.579515164907578498e-02 4.507265786506011729e-01
4.484603823690856000e-02 -1.524040251213589110e-02 4.523535548271049866e-01
5.819464021230232086e-04 -1.658776699508354366e-02 4.353943563615698675e-01
6.881406552833930178e-03 5.590428090887734208e-02 4.192505128794370428e-01
5.751381032250490327e-02 2.755534363499374112e-02 4.652839710782461502e-01
5.019511307607787270e-02 6.113748164683779907e-02 4.747528051980069996e-01
4.536398448272720846e-02 4.291274430814039087e-02 4.480087424270618457e-01
5.124125499937965539e-02 5.742189620512567344e-02 4.581134681882932935e-01
5.727833434395204065e-02 -4.547974561821309727e-03 4.997282448099162888e-01
5.132485417351988211e-02 5.803053142355366067e-02 4.770915051469726831e-01
4.139118423743588099e-02 2.006983527983150287e-02 4.442521522852898586e-01
4.574245646767172851e-02 3.975118245932352662e-02 5.121398087526494169e-01
2.568597934091022134e-03 3.251888155996603136e-02 4.048343687321652729e-01
1.165848011480200355e-02 6.141629695921142773e-02 4.329058214461257159e-01
-8.219349445438922652e-03 5.353020207564927746e-02 4.171406347130593995e-01
5.403925511350835681e-02 2.326354085253974982e-02 4.926330200097857048e-01
5.804927696646902668e-02 2.952749592826334896e-02 4.743836835884825409e-01
3.900503403383490802e-02 1.246441419588215430e-02 4.427710078772520430e-01
2.804844401097919548e-03 3.989948209666990125e-02 4.069774755745605987e-01
4.747767462286157925e-02 4.029563691785374713e-02 5.093545426481483895e-01
4.236666588641978259e-02 6.737994486154140483e-02 4.748695760966610280e-01
5.689914732238941786e-02 2.875182660238924034e-02 4.856229212411323770e-01
3.666883738465113313e-02 3.074838702066287274e-02 4.411744400116897613e-01
5.996580840272552893e-02 -1.308273587422367074e-02 5.035778445160368211e-01
-1.526715575765052839e-02 1.621072211353983238e-03 4.302762992329403624e-01
-1.926688315357471398e-02 2.205320779583220224e-03 4.305552434048349753e-01
5.474424515538306446e-02 9.984104259964651090e-03 4.913471966754409670e-01
-2.277584370377647507e-02 2.908366728974149176e-02 4.192532936777529362e-01
5.442856370528258853e-02 2.943093323357332675e-02 4.941214518281117907e-01
4.384118120081429565e-02 1.900642065946773346e-02 4.463202414554535147e-01
3.130921026523643402e-02 5.542117843874854594e-03 4.383125694817389673e-01
5.595113410555461325e-02 8.748696878203014032e-03 4.879982889640823163e-01
2.441800993148601773e-02 6.452326502982892731e-02 4.479659485577676681e-01
2.146169777922890196e-02 2.802947704583011110e-02 4.299143683567319130e-01
5.671394686476873004e-02 2.471678542606570855e-02 4.859113516920889331e-01
5.782470435552100607e-02 2.583108596654183978e-02 4.696719323016060321e-01
-1.931066913151276154e-02 1.277777972588795691e-02 4.254902866923989113e-01
3.766956126076515671e-02 2.994771202786920827e-02 4.418440771157884916e-01
1.336498972153266421e-02 7.101488323552297352e-03 4.315348037729937469e-01
2.955703727794741983e-02 4.993955379319644367e-02 4.353921397592491194e-01
4.768037581746559922e-02 3.734410463520666107e-02 4.502042167977489129e-01
5.761643955212319979e-02 3.460752251456489237e-02 4.684063930862650271e-01
-1.720864705041035350e-02 4.841053855455749316e-02 4.155998420871935273e-01
5.118835233554045600e-02 7.379239254085732599e-03 5.038034434441608367e-01
-2.067226406746883703e-03 8.869220408722022081e-03 4.253716144050666559e-01
5.235489580442416468e-02 5.712813040003577453e-02 4.609137563975675422e-01
4.762197073119461832e-02 8.776942811554984056e-03 4.499225326849521367e-01
3.115809107627174820e-02 -4.964705805665955637e-03 4.384365103364039062e-01
2.528912103342294965e-02 -8.348319269583372865e-03 4.360956978057530797e-01
-1.193533264642863967e-02 4.599926255397562141e-02 4.114687573256167741e-01
4.845895626068236900e-02 6.226966997745821825e-02 4.568242217138824279e-01
5.765214764705103162e-02 2.461518634821193569e-02 4.801439522522109038e-01
1.691223417019252148e-02 2.992208143295948045e-02 4.251227038325487428e-01
3.562613441181590457e-02 2.892165500695894481e-02 4.403997160689066548e-01
4.866540264920692777e-02 3.388476792068768895e-02 5.069776064202160537e-01
5.228173542735512630e-02 5.794238760800189680e-02 4.619195711266863569e-01
9.582127397645733360e-03 6.082229775388548615e-02 4.276834340681458513e-01
5.668067637887926752e-02 -3.606485742108865664e-03 5.065106791972951994e-01
1.191910907753403540e-02 -1.794503502174192230e-02 4.366342880240439706e-01
2.210799330293181097e-02 6.065138325511491152e-02 4.365755356475072846e-01
5.506134238370527512e-02 4.103851949204323502e-02 4.918868969066419461e-01
5.224501506337666384e-02 4.927957769315893799e-02 4.557032917684326612e-01
4.060652344287523502e-02 7.409897675213565106e-03 4.442087628846895786e-01
5.099877375445928396e-02 6.002455362505812464e-02 4.613925591542762938e-01
5.684891874798683742e-02 3.984511711984839444e-02 4.761784185818913051e-01
9.630575389310145479e-03 -1.982458414946465519e-03 4.318051620986066430e-01
5.527248565764775190e-02 4.819013457443523801e-02 4.781513064019080606e-01
5.685867915269934847e-02 3.797384202066737130e-02 4.795063284069001064e-01
4.752229873553811407e-02 6.570635015325830552e-02 4.743121498091347754e-01
1.233812627826540165e-02 1.246500290627589567e-02 4.287263789609890852e-01
5.620956303003148136e-02 1.490880376636829867e-02 4.638769827254363709e-01
1.921303241281028390e-02 7.119229755642129953e-03 4.336331587694468026e-01
1.439870388807319018e-04 3.429449199973971102e-02 4.053637239635256573e-01
3.979222609126386451e-02 6.767580461546487958e-02 4.729916319414955161e-01
5.211064445731362904e-02 3.711282215464738188e-02 5.010971109968211934e-01
6.181250002674675698e-03 2.425389508528299001e-02 4.143536544840378810e-01
1.088529196230276705e-02 3.672986118488734408e-02 4.149000932744201231e-01
-2.950890858489940011e-02 1.278705236696961282e-02 4.317500740083088373e-01
3.840762826545760650e-02 6.182341349783465612e-02 4.457839773954453966e-01
2.484526066562900426e-02 3.033582056361172272e-02 4.326751135137353876e-01
5.170445418119868491e-02 4.045095018629326668e-04 5.125410339029216056e-01
5.615166732972100283e-02 2.634086633839727298e-02 4.883684115404538506e-01
4.894741448720228011e-02 2.229232393322046549e-02 5.046734320665208218e-01
5.447808638287950089e-02 5.284864877110393572e-02 4.695748661833208937e-01
3.434090905475049860e-02 -1.873426321685349102e-02 4.423964113910221485e-01
4.234009226452037367e-02 6.758458737449757336e-02 4.720414474475249089e-01
5.410738882685931644e-02 2.577168584206475030e-02 4.573243600269324971e-01
5.736516194713495165e-02 -3.570268169800138065e-03 4.968723049041253725e-01
3.685106695861526532e-02 -1.600244991276061207e-02 4.436925786160595409e-01
4.467695053282225853e-02 6.753098677498151070e-02 4.667792003620807040e-01
5.027034096030909283e-02 -1.991944619806135935e-02 4.648122943354134340e-01
1.739838082670431066e-02 -1.999827933487429571e-02 4.367884438302154781e-01
1.368500389366147929e-02 7.704372078912617022e-03 4.314364622741275190e-01
5.631783651031941479e-02 -2.916548993040220077e-03 5.071964380015412388e-01
1.701007415758711006e-02 -1.905763140578491457e-02 4.366645671942214757e-01
-1.170209637899712399e-02 9.661434171912668123e-03 4.249302189305980137e-01
2.673065388671124962e-02 6.010956544806555363e-03 4.363318100262857935e-01
4.580290727511162480e-02 3.605198155047661251e-02 5.123180736812692482e-01
5.743587135836671076e-02 1.661739846205897986e-02 4.784016946071542598e-01
-2.423486373591184767e-02 1.175629266584784019e-02 4.285282640278289534e-01
5.722375469526853886e-02 1.087649788766876721e-02 4.722312335948115058e-01
4.411842140464193249e-03 2.317633676491575104e-02 4.135607787345502162e-01
-2.788663687607828914e-02 1.170850885797689034e-02 4.311225219357378569e-01
-3.997316960026426474e-02 2.636130315700303556e-03 4.415136423010167510e-01
5.964861860824186013e-02 -1.271223802821903198e-02 5.078982480331045712e-01
4.873341153241573381e-02 5.453028947139686167e-02 4.945742182102325635e-01
2.288910166524109335e-02 1.837834259009079110e-02 4.326741976764986730e-01
-1.605130647116423739e-02 1.029163571866562217e-02 4.255183503566841163e-01
2.138574243622058668e-02 3.671508280350947034e-02 4.291365177380653262e-01
-1.018358043548009406e-02 7.074293621730878313e-04 4.300137305567651724e-01
3.084100902938594416e-02 3.258057715307197122e-02 4.372778323834637937e-01
4.425615335512210480e-02 6.752210364364197304e-02 4.691547986330715236e-01
2.285130650600531582e-02 6.313162469377177344e-02 4.428571416010474993e-01
-1.074956233581342464e-02 3.422208268309480470e-03 4.283387018095312082e-01
1.989617078793563809e-02 1.135006508435339005e-03 4.341000417637060349e-01
5.351051383483398927e-02 6.886290309393822834e-03 4.592504853067173043e-01
1.786387501721357560e-02 -1.745199147211663054e-02 4.364208843892838918e-01
5.726475460099146597e-02 2.162209140592260409e-02 4.806400684469262496e-01
5.313031392599287112e-02 4.990127360815303781e-02 4.887686412616553677e-01
1.599587645751626361e-02 -2.709017514409320457e-03 4.331500101818611670e-01
3.564088196781452222e-02 3.044354645687155636e-02 4.404588500745892365e-01
4.004009514218552501e-02 7.191756723689625430e-02 4.559807530329935132e-01
1.225456005179228688e-02 2.440772375264423436e-02 4.222345370426639488e-01
2.038531270067374737e-02 4.804752084687127778e-02 4.280878379032433956e-01
-8.235976941681710795e-03 3.166278267770773064e-02 4.117098035875844664e-01
1.743237540543421784e-03 -1.348726808136586561e-02 4.337683878748542776e-01
-2.036664704688100069e-02 2.463237644321549652e-02 4.199522701492458543e-01
-1.934467857335712276e-02 5.001891801160066736e-02 4.196905966614948857e-01
3.035687438061812973e-04 2.096323707571166178e-02 4.154726966901161611e-01
7.020182742223841227e-03 2.285534307583257305e-02 4.169024584490113039e-01
1.373485229422274738e-02 1.319451389445461947e-02 4.291340674529112720e-01
-2.963307367534670847e-02 5.624987288719708427e-03 4.340988174714780490e-01
5.753095866798364766e-02 -5.178524188091117655e-03 4.988145293227282395e-01
7.833103597575656607e-03 2.460857506928054109e-03 4.309067093561748107e-01
7.173275846046413273e-03 4.413051481844267737e-02 4.132591076322276735e-01
9.432507875562261279e-03 2.905708760132098487e-02 4.132993112845582684e-01
-3.338516521557000072e-02 6.822361098485452309e-03 4.370723371632335152e-01
1.461020938366512298e-02 4.665162210659243996e-02 4.223115119969464981e-01
4.274715646357320209e-02 4.902634314758742839e-02 4.459143690491771395e-01
2.742644015439903160e-02 5.134179405367599730e-02 4.336282733349380858e-01
-2.990536500800196340e-02 3.121050887226655551e-02 4.231374058567438090e-01
4.354448235048479637e-02 2.722007725491637498e-03 4.471273558845884621e-01
4.781602612595967777e-02 -1.885070845987485075e-02 4.591067734298367453e-01
5.473836885638863614e-02 4.472599835057414902e-02 4.894560652472906837e-01
5.080517767213194036e-02 1.020341759081552953e-02 5.021391660175145155e-01
5.166213934909109906e-02 3.438932341628654632e-02 5.014274376820432311e-01
7.030935991949505484e-03 -1.983071658317966945e-02 4.375384410377589073e-01
2.693663229145554575e-02 6.439962084038107493e-02 4.412924757339822257e-01
3.720358253650341701e-02 1.764701170949520975e-02 4.412166091489216346e-01
6.563685782159258894e-03 6.015495554162984815e-02 4.228329224031847078e-01
5.487580018768355161e-02 -1.230241230266050471e-02 4.725639177291550141e-01
3.181066991837053215e-02 6.516506747633328545e-02 4.463204940639834417e-01
5.712309762752312836e-02 5.332438151857016653e-03 4.730295135066289736e-01
5.574096885665026646e-02 -3.540767508534088323e-03 5.099375834753882009e-01
1.982031695081035855e-02 1.584870969818989728e-02 4.313713631188400566e-01
4.259021517579861249e-02 6.771670871263452129e-02 4.699012999263671997e-01
-4.988140021930273851e-03 3.786485136601065726e-02 4.076999731255284698e-01
8.669209337698793177e-03 5.795298879149944626e-02 4.217130021951934760e-01
-9.640415175180640228e-03 1.436232836957518182e-02 4.221064141801347258e-01
5.502048134494294529e-02 4.262305517434671065e-02 4.598819450198060044e-01
5.047816947813257155e-02 -1.566241677570326049e-02 4.635239358756976236e-01
3.158569656733859615e-02 2.754971782501136612e-02 4.377093260073519065e-01
4.083688249649339297e-02 6.400455621715600563e-02 4.484192062688388547e-01
-3.303478620306438129e-02 1.803689910989399181e-02 4.319505318064451593e-01
4.317891691664495213e-02 6.960840675757466733e-02 4.612144147767897606e-01
5.045090030922372293e-02 3.751952314266562838e-02 5.045259275100957286e-01
-2.352524619425093097e-02 -3.036793985409185544e-03 4.341067825505983135e-01
5.666491825719848635e-02 3.581469797393380117e-02 4.857825412826371481e-01
1.202336793209325162e-02 3.301730329298449562e-02 4.171031243089491358e-01
-9.524406847866543485e-03 2.464353794553552843e-02 4.159246333606635981e-01
2.692499961400717391e-03 4.550465361249482477e-02 4.105957032552774444e-01
-8.842259099645451495e-03 1.479708225967693927e-03 4.297977715303495372e-01
-2.639571978269667635e-02 -2.489706406178448465e-03 4.349206722881134857e-01
3.005931464801960343e-02 6.660893780891329052e-02 4.529038531968100356e-01
5.585564719325860489e-02 3.960773917333205302e-02 4.626427811461003570e-01
1.665149699504591893e-02 2.875877020281697449e-02 4.250317011036746084e-01
3.958736988111635074e-02 2.562997585469642750e-02 4.429832881003444855e-01
5.004193117965324844e-02 1.605806706464648140e-02 5.010965290881560508e-01
4.501254386601730162e-02 6.733146009941147481e-02 4.585784753997481089e-01
-3.488553276697872046e-02 2.441146467682821924e-02 4.308085899158038967e-01
2.467717814082502972e-02 -4.946581647627013457e-04 4.357639234628354896e-01
3.214846415341644781e-02 2.531740960731981155e-02 4.381076134406569067e-01
5.671258338612186756e-02 3.316504602722208928e-02 4.636442875658529639e-01
5.061900761826728518e-02 -2.341563036559672975e-02 4.662056388863583534e-01
-3.281706548775989440e-02 1.002087782854196342e-02 4.353715233766914383e-01
7.962563172145570994e-03 -2.039901997327464578e-02 4.375555036605111581e-01
4.816538684168097245e-02 1.161795535274122784e-02 5.079932460282031714e-01
5.347921848818311397e-02 -1.485425952048286327e-02 4.697651793445807300e-01
-1.119404600183885115e-02 4.690282891501208057e-02 4.113785367668266746e-01
5.515542251096521020e-02 -2.765743942993251821e-03 5.104078473514415126e-01
4.531811419248490264e-02 5.311311520746750392e-02 4.487648338034826434e-01
4.681169058448432507e-02 5.640430146386289645e-02 4.508877544768966072e-01
1.155517683416353893e-02 -2.070632077847456981e-02 4.372163617684776682e-01
5.537482517893658335e-02 2.712564642425387184e-04 5.011366558552039496e-01
5.037082418865758415e-02 2.528445650491755944e-02 5.017471014992571643e-01
2.039966809632225847e-02 2.377728787924864376e-02 4.296994229570573198e-01
5.721292611662285449e-02 -5.587570310602456986e-03 5.073590752532649573e-01
5.787282391384830638e-02 1.766019721901771616e-03 4.807567315227448956e-01
3.747315610699269127e-03 6.096423049959736468e-02 4.232784106601489849e-01
-2.138456534720155344e-02 4.819505840160973054e-02 4.183658061818063545e-01
3.290029614552456017e-02 1.802033640793859401e-02 4.386921688858670954e-01
5.653820508885223223e-02 4.216132546855879543e-02 4.755967374296376504e-01
3.809241811222569690e-02 6.575440701860690851e-02 4.484775736530740020e-01
5.292544489944041308e-02 1.466856456332909023e-02 4.943290580406729529e-01
4.965225537296627523e-02 4.753994976592967187e-03 5.114219535610350365e-01
-1.618566935303406354e-02 3.554977829931885852e-02 4.135602978714648659e-01
5.462585993329861778e-02 -3.886698015119120428e-03 4.668148768197281639e-01
5.746578479074010426e-02 -6.917660947521603668e-03 5.098039654020503075e-01
3.805790223446989251e-02 1.354383681017403904e-02 4.420483329325750055e-01
4.024281117508598377e-02 9.846407947764710192e-03 4.437438239575033361e-01
-2.346834304415158778e-02 4.630844521143342302e-02 4.175766534907872640e-01
-2.695250355710014645e-02 1.175375255208061138e-02 4.304431429866076297e-01
4.431699139490708622e-02 1.968501302257156388e-02 4.467575607657551240e-01
3.969789238406884122e-03 -1.875251881941678717e-02 4.366748523734469423e-01
3.256662939629206138e-02 3.060695965195823869e-03 4.391098908228165398e-01
3.234875790904730847e-02 4.686615350378901118e-02 4.378810617119539561e-01
5.174897237326019084e-02 5.088874175973671921e-02 4.552324814042828516e-01
3.649930195133141431e-02 6.637176034305361516e-02 4.490037302817938003e-01
