5.465944727295585920e-02 -4.150691556061665219e-04 4.660923738298247687e-01
6.842497771527782970e-03 -1.322236202230407665e-02 4.342120392862597877e-01
5.697919662591187373e-02 9.372606956319499624e-03 4.737893560982716634e-01
5.249641227008484262e-02 3.733240268691306180e-02 4.990519912040873307e-01
5.796219505755285245e-02 -3.073879953723963367e-03 4.931883882089111992e-01
1.284891982700344173e-02 2.346147876335500163e-02 4.231896950228195564e-01
4.867576210590546931e-02 3.169867388918997525e-02 5.058374756420157548e-01
1.424033169214396558e-02 5.486736505417100229e-02 4.235203806011946237e-01
2.798483295541214638e-02 3.486025858656471681e-03 4.367119902340864668e-01
5.250104353058131224e-02 5.712815729443946472e-02 4.650085919855566630e-01
-1.369334272903931921e-02 3.188157734816396416e-02 4.128361639987502274e-01
-2.202726296677412834e-02 2.572803392307284470e-02 4.195673673623919742e-01
1.271875630670940560e-02 3.217347953551163986e-02 4.198073106767152285e-01
5.459539006872502626e-02 4.908198550415424771e-02 4.645824211208318122e-01
5.544617940041329796e-02 -2.508593599086496057e-03 4.685563208617075093e-01
2.957376414601941422e-02 -8.986505898750406229e-03 4.374201401142666645e-01
-1.341248062432541868e-02 4.446277148547313207e-02 4.110527209260452786e-01
4.886387803682544495e-02 4.443352646367634134e-02 4.518605345715042132e-01
5.568965237064919110e-02 1.877275862646649723e-02 4.859689342513037191e-01
-3.152100224244883120e-02 2.008751628493569280e-02 4.273956735149925246e-01
2.038670302239087642e-02 4.718025288078428470e-02 4.278152116158954743e-01
8.485314277207877190e-03 4.188509304046097309e-02 4.132879255217719039e-01
3.533647510982165091e-02 4.031631352405126018e-02 4.401208680307117094e-01
1.282000863988900542e-02 2.628442115387652836e-02 4.218399973426216754e-01
4.609411659789564714e-02 5.598934802192732929e-02 4.938468429460434739e-01
2.659418697045918406e-02 -1.795995006732307650e-02 4.383077063596100831e-01
5.797931188811429604e-02 -1.227543428637906282e-02 4.851384614714893129e-01
5.567752496967845466e-02 1.506972774760112661e-02 4.857073398582166801e-01
2.885545174121898274e-02 3.692053383298628949e-02 4.353195643984926755e-01
4.318704838741472402e-02 4.411406298518111974e-02 4.459264383047252811e-01
2.519672319035393473e-02 3.498872186682474433e-02 4.323499842130166249e-01
3.793724165742785870e-02 -6.035826233709322940e-03 4.431224412121351763e-01
-9.042319221620499781e-03 -3.820015995445607410e-03 4.310212413857084646e-01
8.126253150414540147e-03 6.071102614157979083e-02 4.264785760071302390e-01
1.810006129941964942e-02 3.224157237094421591e-02 4.259337816243204955e-01
3.096151435644234687e-02 2.321533614446712884e-03 4.382667733371968799e-01
5.736141431370407606e-02 3.466697127803922834e-02 4.746775044322624204e-01
-1.140959189061366980e-02 1.712708169909728587e-02 4.201817466270307833e-01
5.699249568612132361e-02 1.037100332144175706e-02 4.727223173295698189e-01
-1.306866194750343907e-02 -1.015680383553068354e-02 4.345316295856446187e-01
3.052430208804621931e-02 5.159653338899736208e-02 4.360330729745194311e-01
2.801104230163614997e-02 6.121955298191298495e-02 4.389623494236513102e-01
1.698971724159323987e-02 -1.142507681388183274e-02 4.343965179800265974e-01
-2.464211977263857517e-02 3.484678354746587048e-02 4.173509870717331260e-01
2.746499758257636703e-02 1.335371484042071830e-02 4.357200445923304355e-01
-1.160079261059884966e-02 -3.974600745694807126e-03 4.313863230392285253e-01
5.753101138981588786e-02 3.211723127539437006e-02 4.771194788874233983e-01
-3.990245326582073093e-02 2.611004240243783737e-03 4.430440240178044053e-01
5.673444433762212663e-02 3.392253980994562601e-02 4.838585696768481492e-01
2.226130323576516745e-02 -1.235526778517440213e-03 4.346280304018066976e-01
4.259966511862110783e-02 3.621051887087266274e-02 4.456512707672932727e-01
5.519162638525840908e-02 3.239716501849475988e-02 4.601257511316259041e-01
4.613845280543073246e-02 -2.028760504171746304e-02 4.563825215745903607e-01
5.825591944174008698e-03 3.523188385839995385e-02 4.070924476646117784e-01
5.151600464418698566e-02 2.897991558114011018e-02 4.993895616230262791e-01
5.731096154005330817e-02 2.118352007649343741e-02 4.698560079163087710e-01
5.526110607502456723e-02 4.582244170365700614e-02 4.636402317837443610e-01
5.305129554625634403e-02 -1.944674212237851307e-02 4.705813763465333532e-01
3.006426662359702393e-02 4.050905386173641459e-02 4.361199390865501679e-01
4.881371978589355703e-02 5.467805067022983578e-02 4.526818428689123874e-01
5.481233310463517333e-02 -1.206102972790881918e-02 4.724876962168914063e-01
4.462425287602585222e-02 6.224733246147848981e-02 4.505983882112138406e-01
-2.237987845745628354e-03 1.503713499090880354e-02 4.207811991303786470e-01
5.491432375052170828e-02 1.030089236539581329e-02 4.898659417443059216e-01
1.702489320866175035e-02 6.069855064154361379e-02 4.367196215196066933e-01
4.257434606357089063e-02 6.753430958278235086e-02 4.730812416369510887e-01
5.427369417591891565e-02 5.105211741732875591e-02 4.753151411076544930e-01
3.880316820641788872e-02 6.693881126127695924e-02 4.503945784520627105e-01
4.542102852943438046e-02 2.945859561500367707e-02 5.119240484549383297e-01
2.330126495278337512e-04 2.237393089005693461e-02 4.125140725229973770e-01
5.329198794164192142e-03 -7.169254529719876375e-03 4.318504942399324364e-01
4.553696202430611295e-02 5.058381797753978143e-02 5.073501042258423688e-01
2.151048695764450416e-02 6.258986857797668724e-02 4.413094389940503404e-01
4.946742865922212906e-02 4.078723010025295248e-02 5.048899574338282514e-01
-5.809021073634182235e-03 3.864253603247801757e-03 4.278471849159518059e-01
4.309403730966053503e-02 -4.894507629268697244e-03 4.477765400622416569e-01
-3.080186339870028770e-03 3.146492271233213012e-02 4.064147360655001595e-01
-2.418912802944587354e-02 8.590243486234511866e-03 4.297389278840950122e-01
5.467080941571715591e-02 4.972193806497113983e-02 4.682969410642281449e-01
3.093894753726775249e-02 5.677555667863139199e-02 4.378070513070281833e-01
2.608185986285491836e-02 1.723188616127492231e-02 4.344951461635644940e-01
-1.197546714300835868e-02 3.054731071489094965e-02 4.127996148871260762e-01
2.491479084179583706e-02 6.158710746955266963e-02 4.383999451169741102e-01
4.695689724944485111e-02 3.930881838065225509e-02 5.094523881838756152e-01
-3.221239261390179687e-02 1.463222590140978926e-02 4.316136333193052455e-01
5.690924368689486562e-02 1.583259291596252408e-02 4.686648951078757896e-01
-4.392484353169030797e-03 -1.473081189063184249e-02 4.338460784016919258e-01
3.440606966510801473e-02 5.466158857429379014e-02 4.399304761681092080e-01
-2.077215781704052147e-02 1.750892992212065014e-02 4.231727175335195934e-01
5.756879007046093039e-02 2.281991838066544515e-02 4.749976284581732267e-01
4.905475982903980542e-02 -6.725880372338247093e-03 4.558600921594291866e-01
5.121868648031902699e-02 3.309027041009041797e-02 5.009272802180936290e-01
5.306125133744191147e-02 3.294963364409413814e-02 4.970446786117328486e-01
4.290077551230844083e-02 1.819218053070503424e-02 4.454730540222412438e-01
4.681036432784878992e-02 4.149943696058147613e-02 4.494859843707698088e-01
-2.286276177618756355e-03 -6.286450807813095780e-03 4.312234222669639183e-01
7.992053360840845749e-03 2.490662818567881964e-02 4.168426617782257648e-01
4.629392144457371988e-02 -1.804333243433157985e-02 4.554595957912351278e-01
5.694406161691250440e-02 5.932224950578815145e-03 4.728838014785267108e-01
-3.359641360500710550e-02 2.747734517623290091e-03 4.359840621145891770e-01
1.531208581882708038e-02 2.720924755764890859e-02 4.240920255562233288e-01
1.549361365798593466e-02 5.347365771134728746e-03 4.325163427610315137e-01
1.018934140446532341e-02 4.640657312829888498e-02 4.169396208150178973e-01
4.706762027519831304e-02 -7.599844721630059224e-03 4.534270508367871377e-01
1.458687596168237524e-02 -8.434875499551986247e-03 4.333508543574181027e-01
3.150093423728923120e-02 2.813829942711403714e-02 4.375117941913629349e-01
-2.147516118854628318e-03 3.064874479266314899e-02 4.058127310673989574e-01
4.737961982488394369e-02 5.655503384118137911e-02 4.903333703800591969e-01
-1.063943727224082522e-02 5.189866170986656008e-02 4.150515442268227773e-01
4.825932283246210652e-02 1.467661721031205714e-02 4.504227482229229418e-01
4.927610979995117324e-02 4.527451906213302707e-02 5.044557934678685074e-01
3.918771458800542062e-02 1.228724150703955180e-02 4.428226102920683194e-01
5.696891055026358924e-02 8.527809425188674977e-03 4.742778101480632502e-01
4.905096840539286546e-02 5.152135892976764803e-02 4.983624377823768770e-01
5.180544742143954051e-02 5.682118547319480600e-02 4.749909867407355879e-01
5.624001782633854252e-02 2.635389087266605534e-04 4.962642325303863178e-01
6.476097287810379799e-03 4.116689996345556518e-02 4.109013192899027556e-01
3.983060978061959967e-02 -7.619267204362992554e-03 4.449245876999047278e-01
2.381959771534948589e-02 3.602053251176302873e-02 4.310591986703529166e-01
5.444573922216797840e-02 1.204749827800136522e-02 4.901574289151842678e-01
3.586855968199551686e-02 2.784361112011641756e-02 4.404049864111888035e-01
5.549689405163483330e-02 4.445594078697345797e-02 4.780479032349205237e-01
5.975482157638497410e-02 -1.269064573486459666e-02 5.047174005789348827e-01
-5.520647969255611590e-03 4.933299133589773983e-02 4.106942724854890092e-01
5.276678275944863411e-02 -8.731875803289036037e-03 4.655470656552593289e-01
2.386808116380429237e-02 2.639798785503865569e-02 4.320917041443706474e-01
5.323298100296892238e-02 -2.684369514730619924e-03 5.132088735193977014e-01
1.687303653608075021e-02 3.975778688171126285e-02 4.244145487056382171e-01
5.664008506203399573e-02 -6.386282008290511576e-03 5.123074698221244949e-01
-1.194425128338456356e-02 2.964357328953795123e-03 4.284957473025823305e-01
2.728794522520592430e-02 1.912742882184335913e-02 4.350787419320656380e-01
4.344773060997987602e-02 -8.469217980009009078e-03 4.487965084965800378e-01
5.569526328517390712e-02 4.591705228197372202e-02 4.700955407647768314e-01
-3.064984780584619622e-02 1.565883854520013288e-02 4.297731435428074898e-01
4.873073154306650778e-02 4.459884845261946618e-02 5.054852670962151073e-01
3.103335541761034072e-02 5.397078086250230167e-02 4.366236388566142601e-01
-3.669731303461823413e-02 4.592364613451190708e-03 4.399379493890597792e-01
1.802730790990163257e-02 4.766501864566601715e-02 4.257367212745828966e-01
5.357431612599105469e-02 2.339095019540874364e-03 4.614641885742528649e-01
6.396838624758075312e-03 6.105762263500196657e-02 4.264416170826531016e-01
4.337800902777576295e-02 6.895601594856405614e-02 4.604474965730225855e-01
5.170000302884510818e-02 1.716186448977438661e-02 4.543496903159580658e-01
2.507272721623355141e-02 7.359702714340053339e-04 4.357655753837640367e-01
1.949823683056303367e-02 3.688803784244011619e-02 4.272788435014271413e-01
5.615845515201740856e-02 4.126312477245545896e-02 4.767636249670471060e-01
5.183083470578368768e-02 3.038446119734890608e-02 4.990611734587614423e-01
4.604796850962357413e-03 2.180415467269389285e-02 4.147765106293542225e-01
3.887973718839500548e-02 -1.433037023529960645e-02 4.448777218486125173e-01
5.291900472859939475e-02 4.969115490602053070e-02 4.882242282225773278e-01
-7.551607515388358838e-03 1.975040377959303220e-02 4.167474395455518232e-01
5.706384668797596232e-02 3.336636393797534628e-02 4.814021773735069343e-01
4.576806114530047875e-02 -8.255683807558311660e-03 4.518655995064002617e-01
6.984641446203445486e-03 8.331197668417457056e-03 4.282260143487309767e-01
5.333343551207530425e-02 4.457412221088317278e-02 4.945454773760716849e-01
5.199431841903991158e-02 -1.774631923077167259e-02 4.678616236047477006e-01
4.744601919814808721e-03 9.334549661013269439e-03 4.269129607560524509e-01
5.466026310492851786e-02 -1.022499734131222804e-02 4.705084853553543889e-01
2.196222847421849117e-02 3.883429679192222650e-02 4.294253883690539730e-01
2.852671235647463027e-02 3.677654051726059886e-02 4.350539536554187681e-01
5.374586508365953447e-02 5.045378180901961829e-02 4.595477547925411743e-01
2.201088669985692622e-02 1.185008398244734480e-02 4.331549737594134197e-01
4.640575181285851170e-02 6.281699629629220252e-03 5.152770944318103563e-01
9.177183990963290808e-03 3.200503358547329702e-02 4.114304248540908704e-01
-1.281221954157595391e-02 4.710883807207690704e-02 4.111388653002269744e-01
3.043279865504558770e-02 2.063413751599400478e-02 4.368988051046647225e-01
-4.469517014893276130e-02 -1.016819988581878654e-03 4.423810987625933500e-01
-2.960384790834898888e-02 3.648735834230676378e-02 4.201980467853735357e-01
3.396949301034993957e-02 2.765924168686159992e-02 4.391435308209201138e-01
4.797427858262520717e-02 1.204230131021388067e-02 5.076451412170198685e-01
2.774360261013294332e-02 3.719088275790669029e-02 4.343787458212312047e-01
5.044505453832124481e-02 5.982894855407160095e-02 4.603553136348292329e-01
4.665878097226115739e-02 4.475512032392525014e-02 5.088215129330292408e-01
-7.501351641827070510e-03 4.711436195213662692e-02 4.101213412470206543e-01
-1.194139879663639811e-02 7.265311603796842377e-04 4.298800036514430212e-01
4.493889827162726031e-02 4.670358158494418432e-02 4.477091919112544116e-01
4.774135904998959290e-02 2.768402698455886893e-02 5.076532839722410761e-01
5.654224697750872414e-02 1.034903648257034375e-02 4.822624750731522858e-01
3.821627768444011732e-03 4.557889258565176599e-02 4.110860680654480070e-01
-2.532602201653478061e-02 1.157156022389949079e-02 4.288444064622843888e-01
4.725349807751687975e-02 5.255789396978251954e-02 4.505830246010855133e-01
5.187491090859172593e-02 1.583351658179365379e-02 4.960315098598273575e-01
5.701279940525363910e-02 1.190623533566287189e-02 4.776290695268474162e-01
5.164657116747871368e-02 5.049847194045518906e-02 4.551890406993627791e-01
4.816691472941383306e-02 3.408459208588045242e-02 5.068994644251890724e-01
-7.913639887088464624e-04 5.594327254446521819e-02 4.183421652731418861e-01
5.780497625440051204e-04 1.238069039112445376e-02 4.229456121404894797e-01
5.239691184010215191e-02 1.294373912411979528e-02 4.552209765666854202e-01
3.584022285929040069e-02 1.782282299077993931e-02 4.402699101617773003e-01
4.401226783090383260e-02 6.389429816628018621e-02 4.811933553185020473e-01
2.607998899577606763e-02 -2.431371455967122966e-02 4.392498055189327233e-01
3.454559731260370414e-02 1.411045098212649306e-02 4.395852932683048664e-01
5.512418726702376925e-02 4.304765037493762936e-02 4.853814467713976621e-01
4.919276457538756392e-02 -8.459158600549167295e-03 4.572091785875400105e-01
4.953817829796154648e-02 3.137667389560636066e-02 4.517739368736463645e-01
5.369373394438151093e-02 2.479903336230914607e-02 4.929782785974919923e-01
2.448104928700382821e-02 1.232074334820886657e-02 4.341997698382938364e-01
3.915215683574544726e-03 6.021710706803025392e-02 4.211286318891339087e-01
4.605323490937027892e-02 3.729622862436578895e-02 5.109710628868867621e-01
2.889791976809710089e-02 3.574183634506817447e-02 4.354202481333258046e-01
5.579626296167092270e-02 2.451343526593364672e-02 4.616050954114176985e-01
-1.710760032837275665e-02 4.506278406493262334e-02 4.123764450169455364e-01
5.456914315523892639e-02 4.980152820933471391e-02 4.671593064814838492e-01
5.080853010646790499e-03 3.953595243933344383e-02 4.090656505142306054e-01
4.489546118759394494e-02 6.486990013888184470e-02 4.532597370820064531e-01
-9.631340940032050851e-03 1.807523542199579447e-02 4.188277818763724847e-01
4.720058313576480646e-02 6.223527519758452475e-02 4.801821885890688035e-01
5.402993755325574687e-02 4.611602711428608448e-02 4.888159520744602693e-01
2.101959468829553770e-03 8.299996722821391740e-03 4.266076330271355577e-01
5.396220131405414511e-02 3.891735149759660561e-02 4.580516562191760399e-01
-3.564177355757910254e-02 1.873292317228773124e-02 4.356655397481093983e-01
-1.262534533843868469e-02 4.333482716589839856e-02 4.107484457920659304e-01
5.541437956790685321e-02 4.725994647261767129e-02 4.722734017544910068e-01
5.241473668450136181e-02 8.731638432925441923e-03 4.983935739032481771e-01
5.577537917376994975e-02 1.657998019333747908e-02 4.624572463749895834e-01
4.796231946510442698e-03 -1.442011673081748657e-02 4.346380220570811859e-01
4.433861205337555345e-02 5.015490769892158585e-02 5.098952921756710888e-01
1.732100773654320081e-02 2.041929331639854781e-02 4.277277943098083957e-01
3.387425273492764705e-02 2.468474986856754316e-02 4.391013656161265599e-01
1.060014567709465123e-03 2.356806784116296030e-02 4.109618059086466157e-01
2.269788485576409998e-02 3.420570916527287259e-02 4.301139760250576871e-01
3.332218170209926694e-02 6.199588895000174293e-02 4.425064173879930118e-01
1.343445193057959432e-02 3.633851626016102593e-02 4.209663993772138069e-01
8.090287283112142930e-03 -1.630512980737735748e-02 4.363801531740390538e-01
1.327335893176022352e-02 2.550896448686254883e-02 4.226904678658437442e-01
-2.764271506654178423e-02 -1.048449875949443964e-03 4.345348676048393366e-01
-2.654937013021151093e-02 3.102440448332399996e-03 4.320981079838885353e-01
5.349586875292732663e-02 3.513545599081656368e-02 4.571842128111173187e-01
4.497286118255878345e-02 3.564972718477341096e-02 5.127587364692546279e-01
2.648527065518224873e-03 -1.212855975606506355e-02 4.329868007025904353e-01
-2.848505675548481525e-02 4.143051060392607954e-02 4.206553411705713508e-01
5.513531025344207276e-02 1.736159910701784090e-04 4.671275781925690040e-01
5.751506884982233309e-02 2.676666345337103819e-02 4.691001686213238653e-01
4.351572313849257773e-02 4.538631703872587908e-02 4.463203075177136769e-01
1.199847192236096378e-02 2.420741366611016757e-02 4.219253339395772628e-01
1.021489619639054033e-02 -1.898786786739061969e-02 4.369502890274107876e-01
5.367057777629689885e-02 9.954438408230107185e-03 4.588826766599782836e-01
5.801808131535677454e-02 -7.105942152896230907e-03 4.872613535393234829e-01
4.376166957118612574e-03 3.434673040102168007e-02 4.044696368356969773e-01
5.325544636723443526e-02 5.454660663202352128e-02 4.633008891400561269e-01
5.688681755799135376e-02 1.126097080702134420e-02 4.705669357098832828e-01
5.424245417723640855e-02 9.947578854624162560e-04 5.040772342918828919e-01
2.359096549508033977e-02 6.099254500149758201e-02 4.374689208593080525e-01
1.972019235132243739e-02 4.479814227811441257e-02 4.269973190205899605e-01
5.328312587123987948e-02 4.986400702042554506e-02 4.864962743313009930e-01
-4.124415434607599240e-03 3.510071823974136168e-02 4.062431117905488387e-01
3.858842682928656509e-02 6.860074224068714310e-02 4.668113405898062784e-01
4.559042389864195050e-02 5.092319359793499867e-02 5.060883200535619686e-01
-1.188038637707077017e-03 -1.474641501563441620e-02 4.340451693094113383e-01
-2.298076484463167958e-03 3.018363692526249142e-02 4.061158138967122522e-01
-3.172763526945058393e-02 3.298348007977022767e-02 4.231989494346935499e-01
5.701255404564123386e-02 3.094308977283839399e-02 4.647231296262172573e-01
-2.193960538290427170e-02 3.255248322846780729e-02 4.167430865217930935e-01
5.421679316092266332e-02 4.080973625811284283e-02 4.583269429353561408e-01
8.452587977118276169e-03 -1.635105707127117169e-02 4.364330408627718483e-01
5.626707777051728754e-02 3.631741917819002186e-02 4.642162916309420795e-01
5.512458273385705682e-02 3.256123885282874442e-02 4.914636982568875156e-01
4.656735527740371583e-02 6.521575986565131614e-03 5.148026042240768652e-01
7.957478963630141428e-03 -1.082991213781765456e-03 4.312735912550210160e-01
4.386838746519532845e-02 2.907025042054956626e-02 4.464408076780169154e-01
5.547781425146879747e-02 8.110918961124979898e-03 4.893047968537810322e-01
3.704089457581410255e-02 2.302800159024783952e-02 4.410541098991423437e-01
-7.142382587073728244e-03 5.346968369150188749e-02 4.161060355777451703e-01
3.771244852505941519e-02 -2.320615049862528867e-02 4.467429629372084432e-01
6.775476338793823619e-03 -6.175168204820224993e-03 4.317430163499977880e-01
5.022474413848076330e-02 5.415298864782117777e-02 4.542579423582225329e-01
5.258303027020094084e-02 5.300598440834723007e-02 4.832750639904488943e-01
5.697859938185833445e-02 2.508997033764972379e-02 4.828762282627308555e-01
2.846840199934244642e-02 2.408633047132569677e-02 4.354655902990855476e-01
5.685249301506733327e-02 6.089950153676503171e-03 4.722491284907794906e-01
4.680133850543249929e-02 6.668561896073102457e-02 4.676510837479102567e-01
2.749234062494211941e-02 3.101053378631607113e-02 4.346538138589843836e-01
4.935165222555824155e-02 2.673961300623333912e-02 5.035425609301314998e-01
2.099839215858243305e-02 1.091772965729799483e-02 4.330626743253552235e-01
5.126401986746802197e-02 -2.066335541815452273e-02 4.669453464283367383e-01
5.789605286553192731e-02 -7.498292031959166368e-03 5.057774110518783450e-01
-3.821134047250056981e-02 3.611866844981380473e-03 4.413488507052871768e-01
3.902365456670824073e-03 5.298597431383202799e-02 4.151403186456751326e-01
5.283147740242251367e-02 1.288155774812017873e-02 4.945945654370464961e-01
5.466069799925010048e-02 4.750567946076442866e-02 4.616503853700883453e-01
1.519351090003909568e-02 -1.850742820170156802e-02 4.363869343633803299e-01
5.755211757149520518e-02 2.791820480643864531e-04 4.861788232666336973e-01
4.813702049362157676e-02 3.669366826159128903e-02 5.072386708938311228e-01
5.755257408188908103e-02 2.888834897511396993e-02 4.779962279310427942e-01
2.977268658387873662e-02 6.652135799138426953e-02 4.506824621083782012e-01
2.310213819473290117e-02 6.170448035530411851e-02 4.391346363717291146e-01
5.504827232170560192e-02 -7.241193573780045981e-03 4.698720347224485394e-01
4.312972446270705446e-02 -1.031592535737091941e-02 4.487667268706977408e-01
3.127154782861043397e-02 -1.226352912513001443e-02 4.389384462136183829e-01
4.309081681000378333e-02 -6.502069387017862280e-03 4.481680523964247098e-01
4.953439215433624171e-02 4.646047881147764153e-02 5.032131016793026657e-01
5.692952184757862216e-02 4.657677868431923419e-03 4.732012232316974987e-01
5.172199876074691505e-02 5.867692278632290204e-02 4.692456342313158779e-01
2.873770078659489483e-02 6.259349781267774249e-02 4.404016173983226756e-01
9.739808405351360956e-03 -6.328316712601331738e-03 4.321092314699946924e-01
5.389475890130134006e-02 1.677435651533700812e-03 5.041565330555338731e-01
4.749789280144425113e-02 1.556543032725911553e-02 5.069364223228495225e-01
4.832380335849051356e-02 5.772413498298142875e-02 4.529539872294967018e-01
4.901052633597054869e-02 3.426511910281554441e-02 4.513499136691566105e-01
3.820839196398460869e-02 3.623721514572410263e-02 4.421889043806572217e-01
5.701561622292890263e-02 1.129252710733940658e-02 4.722719643336626416e-01
5.564338623817660645e-02 4.630952105940896318e-02 4.716766579328374731e-01
5.420207051123941688e-02 5.393586255411418270e-03 4.969831931935260738e-01
3.878505353341238360e-02 4.518852368333582670e-02 4.426185262563518963e-01
4.662985754477351474e-02 -1.835609073081496262e-02 4.561673814402739113e-01
5.618375467587814753e-02 4.333506656451587002e-02 4.703399687784788341e-01
9.455061005703414151e-03 -2.301371151273125942e-02 4.379434596932137991e-01
9.342933735224288883e-03 1.430822138117137515e-02 4.257188307506657998e-01
4.471406727206971021e-02 5.576309913491594994e-02 4.950640996527012616e-01
3.836480509834055280e-02 3.347782504486527394e-02 4.422693325488162852e-01
3.628208636890725702e-02 1.719920626473517289e-02 4.405332517227810718e-01
1.602993595785438818e-02 1.413893177588065007e-02 4.296402120378786105e-01
-9.441011261662218823e-03 2.329298866198093593e-02 4.156935991427773147e-01
2.856642158867727516e-02 3.585372789806612337e-02 4.351381100172450056e-01
2.534061050339358676e-02 4.665090984300824389e-02 4.317116992025997191e-01
2.929349488721367731e-02 1.101341927212030544e-02 4.368120819607199112e-01
-3.831305632271446437e-02 3.557516611847484720e-03 4.414583911536014704e-01
4.325108842713499407e-02 -8.464774235292810839e-03 4.485719551231100444e-01
5.105624306736438779e-04 2.944453486996122769e-03 4.292943051721224701e-01
2.832070520451613477e-02 3.518375653632837413e-02 4.349635548014014197e-01
5.710518438035656896e-02 1.914599264238626281e-02 4.789310655308661180e-01
5.622216875791967439e-02 9.570965960027140104e-03 4.843899078505127798e-01
-3.218046920871688726e-02 3.338776151882184157e-02 4.234209320616876271e-01
5.400442049666098060e-02 5.144918779370387385e-02 4.631569765429970897e-01
-3.629466449886868673e-02 1.993162450774156255e-02 4.359761444432821986e-01
5.651311387624925742e-02 1.360052732673613929e-02 4.662077823908023499e-01
3.977839059003799443e-02 5.286541680296181350e-02 4.439038162409826294e-01
4.986534160808559629e-02 1.742133287182938764e-02 5.008037222227279539e-01
-2.494442385259633063e-02 2.485054238632303930e-02 4.213372275301461856e-01
-3.300655154431524074e-02 1.816785703687148409e-02 4.305380836552889501e-01
5.136393873237672658e-02 1.175075245937962087e-02 4.990924897791526593e-01
5.805481408078014965e-02 -6.640222059072772159e-03 4.888266818396973523e-01
5.391444451138367039e-02 7.079681263581006842e-03 4.952691896934744986e-01
5.777979269642365134e-02 -9.489712293830328965e-03 5.123795678654273766e-01
5.036873238088089566e-02 8.947541416528011562e-03 5.035922224326173646e-01
-5.922235245888404775e-04 2.203988615271753465e-02 4.127484023414050851e-01
5.678203881214876486e-02 8.517862511249030266e-03 4.714643760042958043e-01
-3.444822447320566861e-02 1.608247488909905765e-02 4.351321237682947984e-01
5.827292829273059832e-02 -1.045314940692810592e-02 4.885735813430236441e-01
-2.096370722491819327e-02 4.689386597117075478e-02 4.151372419930828284e-01
4.421804596764061443e-03 4.468715347286789791e-02 4.111208268537625554e-01
1.691343639370462143e-02 -9.292444435154567292e-03 4.339689588651938212e-01
-2.542606525033301330e-03 2.221050592613020569e-02 4.120155544430459948e-01
-1.839691093021337057e-02 3.344723600308011774e-02 4.144894661916347922e-01
-5.642807585351034688e-03 -2.628843894032345616e-03 4.304693764472864448e-01
1.869264908405422754e-03 5.717992768398140468e-02 4.187855542160794919e-01
3.794639060942685965e-02 6.520228175345046950e-02 4.474822948622638741e-01
5.728481886828207248e-02 2.125137910425925827e-02 4.691203467668687566e-01
1.539074905119335208e-02 3.203757021453041559e-02 4.230921911622166354e-01
5.528987539663232642e-02 4.487766336637084852e-02 4.794787601719783243e-01
4.907510542149797622e-02 5.896484570889956589e-02 4.555102583961493923e-01
-3.348909444340263108e-02 1.236890556984191793e-02 4.356741700565913145e-01
1.811439319999235201e-03 -4.132086946934135363e-03 4.308842905686546265e-01
4.540064182847235175e-02 4.049038519266632413e-02 5.116487369553283093e-01
1.190082382422801878e-02 1.119332591846572758e-02 4.287807915476375409e-01
3.103272775682192064e-02 5.065731085714226395e-02 4.364580963014392800e-01
4.380613915180348039e-02 -1.564721645349381393e-02 4.508744955060933757e-01
4.725919228876429568e-02 2.359757929513668293e-02 5.080542701380397208e-01
5.334993545560373640e-02 2.574900092300556192e-02 4.560480188459019035e-01
-1.536282644622860658e-03 6.959594757715787186e-03 4.262474974276679318e-01
1.650082604263545735e-02 2.323525443049720418e-02 4.264509168184023591e-01
5.205085283115621492e-02 1.565641931121596400e-02 4.956205482484961067e-01
-2.447342594120345549e-02 4.673939775230038368e-02 4.190464438380950840e-01
1.467269038443023629e-02 2.061738181662950420e-02 4.255113525602202684e-01
3.146185018510083697e-02 6.053296207384974148e-02 4.405329003110911024e-01
3.888644765345874998e-02 6.837736583756905129e-02 4.671336358936692967e-01
-9.300861217513875512e-03 1.094508086369023851e-02 4.233075486697358003e-01
4.781525100507013487e-02 5.672797857917025177e-02 4.890184293406746874e-01
1.722500438211477941e-02 -1.564430282739889821e-02 4.356712950843836807e-01
4.737733617108769169e-02 3.524213912686067346e-02 5.084473295673216375e-01
-1.375462260038851602e-02 4.000776493277645451e-02 4.107392424712822399e-01
-3.731324585333598703e-02 1.085514359965419548e-03 4.390047115258113308e-01
4.270126744232757843e-02 6.520357897053542795e-02 4.795210647256941128e-01
2.246963247748728909e-02 3.869264574763786602e-02 4.298616619769729530e-01
-1.199571281611985438e-02 3.558106904853332308e-02 4.110704321690999974e-01
4.567184869876743381e-02 3.297507704461836997e-02 5.115567360897811389e-01
5.211032051129085158e-02 5.043526515713075975e-02 4.900670240157786739e-01
3.480516392448134572e-02 2.574367032501154173e-02 4.397006292837385977e-01
1.224595702257845475e-02 4.640463734858595035e-02 4.195926729399903077e-01
4.366776317568054483e-02 4.049600557531744804e-02 4.463240782515930372e-01
3.822989271426156105e-02 -1.312593201616488355e-02 4.440632570114491640e-01
3.689094837313375286e-02 7.074442764643348869e-02 4.528150329500379989e-01
-3.242092071300808811e-03 -9.089089276890751495e-03 4.321374316331459964e-01
3.555831730274554986e-02 4.785731816595760468e-02 4.402367612287602094e-01
5.793861282931406231e-02 -1.319002055855493863e-02 4.846663519108122542e-01
2.298077986328643518e-02 8.716607376027035378e-03 4.344587731854830381e-01
5.582465509116193991e-02 1.516938183701308472e-02 4.850876135983178128e-01
-5.828389264849414761e-03 -8.320638896847951799e-03 4.322101522029705989e-01
5.657206945509463819e-02 -4.671635289659877184e-03 4.738820342841345012e-01
1.727613524322427901e-02 5.491601350295367834e-02 4.263071734658177014e-01
5.258681311729854202e-02 1.933836254715757402e-02 4.943336617908984931e-01
2.441683516639019808e-02 -2.952670162663743707e-03 4.352745071317860037e-01
3.089099506988574745e-02 1.442308103032885654e-02 4.374076224583635653e-01
4.772619017710605371e-02 1.890683002363082940e-02 5.065081963610486016e-01
1.113347571377900497e-02 4.951706287780802823e-02 4.188544994123388210e-01
3.132383645864549732e-02 5.510889665552701211e-02 4.370524392063331320e-01
-6.147924670709726397e-03 4.455588554394411538e-02 4.093321033498217298e-01
4.409462726512901332e-02 -8.141780474533816259e-03 4.495184820306079576e-01
4.456689234336327216e-02 1.251697544454008840e-02 4.470359943776212597e-01
5.038322983348170886e-02 -1.812789646717506697e-02 4.644781067676319042e-01
4.572460873628396427e-02 2.737028271914600935e-02 5.114213767376453168e-01
4.896472111236829794e-02 3.684784399203966387e-02 5.058901957686317008e-01
1.706689323786473103e-02 5.992555032587471714e-02 4.324841338044920769e-01
2.911960229649175613e-02 3.685324047212507753e-02 4.355432537975325036e-01
3.976870105471181499e-02 6.771780471304941762e-02 4.729227524823120254e-01
3.092205772974157205e-02 6.705554790541629062e-02 4.526521049079317849e-01
4.601250666577762216e-02 6.675961870759429539e-02 4.705023093408946533e-01
5.635120031808513175e-02 2.102918770713954610e-02 4.634039937613791960e-01
5.113957904825329470e-02 2.671389375469538155e-02 4.994920471527916073e-01
2.606185008930927277e-02 5.781520566530163469e-02 4.347076017949919602e-01
-2.888962670780342856e-03 4.550301250087218641e-02 4.093368037705586437e-01
5.714030889802123453e-02 1.688670215764736734e-02 4.785649834868025421e-01
5.737509981568068851e-02 2.031454533774124105e-02 4.741646976940264713e-01
5.762653418100779218e-03 -1.077167885966727988e-02 4.327927118649343430e-01
5.090320645373033748e-02 5.496174797111073179e-02 4.855556730533899801e-01
4.859327930365364701e-02 6.253258859309938911e-02 4.756293023218139404e-01
2.554739697617238250e-02 -8.851371387496805715e-03 4.361391917106041127e-01
4.646871080498029410e-02 2.842761320718709475e-02 5.101032793478983418e-01
-8.040788433582550174e-03 4.300791594596293371e-02 4.095389108109169785e-01
-3.183163164688687652e-02 -1.813340817791790106e-03 4.370653779400158756e-01
1.366050605587038926e-02 3.938394379119624505e-02 4.210438815411782776e-01
-2.683043635520837578e-02 3.215200197660484510e-02 4.197219263357422347e-01
5.475796350280523472e-02 4.996281695149300262e-02 4.707919644592215569e-01
3.817001691890073434e-03 5.177652725168878367e-02 4.140125850605727575e-01
3.604339603912558310e-02 2.245063558629395439e-02 4.404159841829788369e-01
5.384321164452022385e-02 4.966545638668687368e-02 4.591238804665046525e-01
5.627002555205276590e-02 -2.096618981482887764e-03 5.051540144456856396e-01
1.336269020965155652e-02 4.929931125892132726e-02 4.212300496949826778e-01
6.971057664115436377e-03 5.622091548657019017e-02 4.187864121165095765e-01
4.731928738202007684e-02 2.791915923437573999e-02 4.496665343122712710e-01
5.811251265080218803e-02 -1.164637417465950314e-02 5.131196292630625377e-01
4.500495926152242587e-02 6.256538175994293127e-02 4.512355290188143075e-01
-8.153703636001190941e-03 -8.940001043839842718e-03 4.327267669986875065e-01
-2.283812339740982217e-02 2.758913451057646432e-02 4.191694410156232009e-01
4.781149876673707055e-02 -3.206261595792909546e-03 4.528493769607581099e-01
5.545239162460042365e-02 1.024008189681238114e-02 4.636787202431078558e-01
1.235224168032877934e-02 3.039192908333136767e-02 4.198095817241826455e-01
3.693974578705989942e-02 4.868347100588988480e-02 4.412599322166563809e-01
5.185162059532445744e-02 3.747173343817631480e-02 5.004733440771674813e-01
5.527407829001938777e-02 2.788165674420047696e-04 5.011067686685889422e-01
-2.863100384262320681e-03 5.036667309217437993e-02 4.110064668496872797e-01
5.674019486780451649e-02 3.966893213128452195e-02 4.720681697631439189e-01
4.718469033687733988e-02 -8.548047124747559095e-03 4.539616121355901091e-01
3.141543701329207322e-02 1.941750722138042839e-02 4.375701163529379656e-01
1.151721676695933311e-02 8.635815302803630938e-03 4.297170123043920209e-01
-4.603294711850270532e-03 -6.146306291384848360e-03 4.312671158543246452e-01
5.664292660611185137e-02 3.266097110884065569e-02 4.841203380790776722e-01
3.424902770555549730e-02 4.426861176492152133e-02 4.393481021155852817e-01
4.749457830560397525e-02 3.923305569674242869e-03 5.157933757359072224e-01
5.435690206378116646e-02 1.110122093671440241e-02 4.911043496238687855e-01
5.364195370417133152e-02 3.561964956324204651e-02 4.574608435933121275e-01
-3.475685353102399375e-03 3.140224528251592262e-02 4.068110336992246112e-01
1.953195638181751820e-02 2.705653792084354928e-02 4.282706424525368205e-01
5.473788001925847246e-02 4.819772665612805790e-02 4.635789704397563216e-01
3.414711822184548357e-02 2.622782127560836438e-02 4.392655924341430373e-01
4.985236183147063321e-02 2.488716509006688032e-02 5.018500048735313745e-01
-4.788427961598669229e-03 4.490550592184609086e-02 4.091984538663164805e-01
3.521032728967091185e-02 4.273833083614314576e-02 4.400287022865130293e-01
5.074588442823724233e-02 9.103084080634616174e-03 4.532301694559834337e-01
3.144270752490115062e-02 -6.076172367701524954e-03 4.385290513562758452e-01
1.413868674188817516e-02 -1.638800930996280047e-02 4.359209333509886375e-01
4.646069217806191726e-02 5.832623720225870584e-02 4.883703824179744246e-01
5.434580571430745050e-02 3.746766062878142262e-02 4.939701705406811527e-01
4.111131420180776097e-02 -5.471050349116091810e-03 4.459320812761050079e-01
5.474505017488850295e-02 -8.300564447466024162e-03 4.694641059781619052e-01
-2.644207432753145626e-02 1.649647449163480287e-02 4.265996358049119475e-01
-2.913241021712412865e-02 1.331789623459561124e-02 4.306272884236452270e-01
3.655200107362154005e-02 1.830646488615991427e-02 4.406707552340559109e-01
-1.957574801797473327e-02 4.812369585623425816e-02 4.163019689904758902e-01
4.498320899244791227e-02 6.179387907699109700e-02 4.850757502260093501e-01
-3.548491792384001614e-02 1.104945207136844715e-02 4.387793426830988164e-01
-3.335279016770989480e-02 2.918771660801219511e-02 4.260038926748884736e-01
-2.373082819494580845e-02 1.506332908741390975e-02 4.259570439695174460e-01
4.724894106868960525e-02 -1.323386648035513799e-02 4.556249480920769312e-01
-1.516899935758554870e-02 1.384755093786322819e-02 4.230033528777535357e-01
1.672985399615908170e-02 6.150736438160117614e-02 4.393330018848989327e-01
4.290365716669165136e-02 1.798452315206817628e-02 4.454816994085329940e-01
2.213046645928761977e-02 -1.026639710078134336e-02 4.353631317064588502e-01
5.382591778793419102e-02 5.295129459586290881e-03 4.609818189295435409e-01
-1.371313759688333120e-02 3.169217407182244733e-02 4.129464555001440829e-01
5.044936859475684932e-02 3.742438082410848993e-02 4.532983263178272382e-01
4.136595475090138613e-02 6.409501385929798623e-02 4.489039446397111166e-01
-4.467227272414663573e-04 4.027477793738494516e-02 4.069338607332904090e-01
7.125943996524439390e-04 3.341841822277367979e-02 4.039750398217032967e-01
7.379428353123424107e-03 -1.320647068795960041e-02 4.342934232138901396e-01
-2.450981983843355042e-02 3.792914659117817971e-02 4.167077894089785128e-01
5.639891330830284349e-02 2.917647722396866927e-02 4.858809134881982295e-01
5.633228191557770187e-02 5.600271052515558290e-03 4.700123496611120499e-01
4.803879401980948316e-02 1.358876534374344955e-02 5.068598406519591038e-01
5.697031415095901719e-02 1.041744758166385752e-02 4.717926476779381595e-01
-1.588749413734084556e-02 3.195667619576306184e-02 4.137640445729756644e-01
-2.738680829430361480e-02 1.283586596381441555e-02 4.296966228694654166e-01
5.355237790472493903e-02 5.402220251113051819e-02 4.662350000667596084e-01
3.547543771041260924e-02 1.872798538342445099e-02 4.400463787636954560e-01
9.377961364828312288e-03 -6.245619614870617960e-03 4.320473932369573999e-01
-9.869103200023446321e-03 4.805202519795217370e-02 4.107032681642722727e-01
5.263314160171171652e-02 5.686508009181831524e-02 4.636584423486707629e-01
5.709278755570020014e-02 1.541173125057132033e-02 4.788330232729476887e-01
2.145567119118321070e-02 6.380866176892301123e-02 4.440632353834995660e-01
2.336509588679656566e-02 5.123030816771156903e-02 4.304185060331888746e-01
-1.073794359626000644e-02 5.103867658338190338e-02 4.136358811880287978e-01
