5.525537591517444905e-03 1.947252360885464231e-02 4.187714752666757412e-01
-5.960950024610826847e-03 3.531247647938048212e-02 4.088292054917800344e-01
7.306159316901133377e-03 6.120834960904350530e-02 4.273991866254466809e-01
5.045982711422387912e-02 -1.865432292997607974e-02 4.645496228679875106e-01
4.986048517867798513e-02 1.912156410859217753e-02 5.021013340644580047e-01
4.494913848571439885e-02 3.162580428008535116e-02 4.470888199213446379e-01
3.741247562327815884e-02 -8.927769240491028463e-03 4.428428858788611699e-01
9.971662192930797267e-03 3.164666964341586453e-02 4.107534550287800790e-01
1.738683431800558399e-02 2.774477634070887308e-02 4.251092805830016252e-01
4.221247963382400437e-02 5.543194051424574220e-02 4.461459326465265218e-01
4.535112429813281665e-02 5.855707772005771389e-02 4.494555812893105129e-01
-2.624022733543363017e-02 -1.683027122304652217e-03 4.344445527395211504e-01
4.782034883891254223e-02 2.686527540487622726e-02 4.497560437475595640e-01
4.925017256257106096e-02 6.495999564247541269e-02 4.661383432188450082e-01
5.499454945968997727e-02 1.381615887515477183e-02 4.888950627748570588e-01
5.104980475635460119e-02 -9.874665808652168149e-04 5.150911744606098130e-01
5.706832403750231736e-02 -5.570575643735886998e-03 5.093846768633250033e-01
5.612224665465030682e-02 -1.442764482170500601e-03 4.699348657974109500e-01
4.622352442785450377e-02 -2.538038061383295855e-03 4.504425541388684673e-01
3.889721760358794134e-02 5.061685251192513807e-02 4.424572570747136169e-01
2.371460018373950165e-02 5.742814309446597765e-02 4.322011161638307231e-01
5.715199353157619788e-02 6.190833353279197315e-03 4.720925570254801973e-01
-3.145950022637094418e-02 2.210762841315794952e-02 4.270409939934927679e-01
5.411340416426743682e-02 2.157015948751602255e-02 4.565616600457138574e-01
2.178957964833549282e-02 2.657046827585247961e-02 4.296547274013613471e-01
5.106172339960264595e-02 6.055225695758792437e-02 4.718015657795221474e-01
5.752505454425139997e-02 1.562001743104270840e-02 4.789304586554855026e-01
5.310924489500953166e-02 5.733766815567305219e-02 4.634506043936426622e-01
1.948892064533050417e-02 4.091731541022498864e-02 4.261247307222663094e-01
4.021666242104372097e-02 3.009206015027249964e-02 4.432977021331294121e-01
-3.127607429094887009e-02 2.580979105348397279e-03 4.348294269205552065e-01
4.420349346627567427e-02 1.124978845149171743e-02 4.465731820162990306e-01
3.523077118340228048e-02 3.061428495124413843e-03 4.402783412288790998e-01
5.607260419273240454e-02 -1.814832163322789051e-03 5.015536230772263959e-01
4.661520658381417687e-02 5.786758285480665676e-02 4.898923413211329625e-01
1.464410315679290538e-02 2.584841454134900740e-02 4.230219524658535013e-01
4.871744853460653613e-02 1.183581739737771775e-02 5.068181870874587380e-01
4.821324780389861508e-02 1.135450605433989402e-02 5.081351061484361553e-01
2.150186441346402591e-02 4.025836873480062583e-02 4.282372896826725506e-01
4.473254660550423506e-02 6.615944080952247675e-02 4.535649857967834486e-01
1.149041844216949423e-02 -1.785227647133480477e-02 4.366166325841430162e-01
5.774036993017656744e-02 2.193134097913206071e-02 4.790907331464601127e-01
2.030762349521597968e-02 3.163801800403098774e-02 4.275348856814331633e-01
2.996964735097183002e-02 6.643311594566890521e-02 4.530414155830058687e-01
3.172396378931860439e-02 1.849027323951340368e-02 4.375763084506610889e-01
5.592012412204282884e-02 7.365626366971771448e-04 4.978676720061479544e-01
-2.996379830331161523e-02 1.460359933477042502e-02 4.304197304973648719e-01
2.953932664999032315e-02 -1.172360517958489015e-02 4.378629255786532504e-01
5.823138026830937397e-02 3.168036355740212057e-02 4.758547967457119610e-01
5.342031979618809545e-02 3.401699579168625948e-02 4.978626092681824322e-01
5.655259135982663304e-02 -3.316645723182381177e-04 4.713798606108454137e-01
5.646043838448133734e-02 2.892564527066066732e-02 4.620110952591392484e-01
5.785792712569417379e-02 8.142694809555326221e-04 4.825062848202737453e-01
1.273443629230092480e-02 -1.281317987569197299e-02 4.345328695327896340e-01
3.075817243178087523e-02 1.136208601216901447e-02 4.372792970566712900e-01
5.808680201403914473e-02 1.213960170043811536e-04 4.813200020714715199e-01
5.506634664196701813e-03 -2.031982147102048483e-02 4.373572607354271335e-01
4.550351579995275120e-02 -1.701117679130693602e-02 4.536365689336346319e-01
8.060505485210214816e-03 -1.694691840986622261e-02 4.367403075390194345e-01
5.412503653302813689e-02 3.434161225900344248e-03 4.615599657700006908e-01
5.742907848530359738e-02 1.254030495788836363e-03 4.765477505773661471e-01
5.632020368252056014e-02 4.070853412054693116e-02 4.826548191626273132e-01
4.615386657061196912e-02 2.644817876377437288e-02 5.115006349007595876e-01
5.232484404931925931e-02 5.889418933643588219e-03 5.030032016910660486e-01
-3.990960649367654434e-02 -1.211223284418351488e-03 4.404889544178285377e-01
5.598298854629645688e-02 3.209954490882096362e-02 4.608058473731544424e-01
2.968659583011837994e-02 4.773281506349902337e-02 4.348655425976415967e-01
6.511830151537553041e-03 6.047508633527104438e-02 4.238635057018498298e-01
2.201694195759701725e-02 5.099524540200404965e-02 4.289562137970799327e-01
2.468050793124766662e-02 5.187456170667274769e-02 4.309724621819417956e-01
-5.527118825949654292e-03 4.154918126922336336e-02 4.089395095079686460e-01
3.008739708209496808e-02 2.537005671352061259e-02 4.362250179306668696e-01
-3.026273897906928134e-02 2.770440055641639268e-02 4.243384373563159895e-01
5.561964786413752665e-02 1.626640780177852214e-02 4.610326586215734435e-01
-5.134851515017104656e-03 3.759701452044320741e-02 4.073118861580999894e-01
1.563136855520706053e-02 5.372387153367696316e-02 4.237915255664557179e-01
5.203293280313902452e-02 3.446337986024499561e-02 5.007871688137198740e-01
-3.298660352788629346e-02 3.669087514172390992e-03 4.357728925431888500e-01
5.149814991454008950e-02 5.893268609217586218e-02 4.603840001678470850e-01
2.096711539705257282e-02 3.964189050662785679e-02 4.277666776946488225e-01
4.916432165002344173e-02 6.445734521788812343e-02 4.628849124604516585e-01
2.875040598706201170e-02 6.482479641774463452e-02 4.442654709973936078e-01
3.188745266757611434e-03 3.412534335879486430e-02 4.036352749466464163e-01
2.137916246256615568e-02 -3.610715124981406319e-05 4.343631413693813670e-01
-1.641023154215111649e-02 2.987325399995232472e-02 4.153192916688286385e-01
1.442677871883050848e-02 1.680697294184793286e-02 4.267905609202941042e-01
4.368866290329641994e-02 3.405569977272243642e-02 4.461531534048353009e-01
5.010519382875065070e-02 5.797703553815936744e-02 4.828455012020794190e-01
5.151659694280358304e-02 -1.375360942832577933e-02 4.647579597374742466e-01
4.401021874149556312e-02 2.528846003778657814e-02 4.461395944488101284e-01
5.457497199212563155e-02 -7.868806373661576398e-03 4.684508348285479351e-01
9.909432122142600857e-03 4.544883978576554767e-02 4.151042871982449367e-01
-2.147978000249546257e-02 4.904062516826956236e-02 4.199570878733801527e-01
2.723269263830648337e-02 -9.294174241156161545e-03 4.367014383488639351e-01
-2.559396332830812457e-02 4.346166069862809206e-02 4.189514647788660784e-01
3.073464785488315421e-02 4.181083307222178969e-02 4.360960012393800267e-01
3.048437459937945043e-02 9.733926758198599774e-03 4.372563411328582728e-01
-1.470368345777559038e-02 2.135881826213434365e-02 4.189377697049776472e-01
4.543920342341674357e-02 4.708196464350252602e-02 5.108356869958585733e-01
-3.166737439823308353e-02 2.697590988676230872e-02 4.256523848036599111e-01
5.438021875112800801e-02 2.031216257331848463e-02 4.573651553621774224e-01
-4.614284848980381576e-02 -2.003081570478819871e-03 4.422281383122970144e-01
5.525826022268719856e-02 4.142325532067556854e-02 4.911571169157031846e-01
5.804653877364313042e-02 2.470807759180648419e-02 4.786224877987175774e-01
5.672546558436294961e-02 4.267006187880812568e-02 4.671970105693920572e-01
8.736606850844708116e-03 1.882933688698120236e-02 4.217402445522040466e-01
6.610972775468671597e-03 9.392292097175437837e-03 4.272942404575206798e-01
2.465768869908795818e-02 -5.311703633243168056e-03 4.354319066783096659e-01
1.734164384945766080e-03 2.159278995449707278e-02 4.134485305665924204e-01
3.705542602762233045e-02 4.056431451069907740e-02 4.410061640407108019e-01
3.944829204202118800e-02 6.711886198251611202e-02 4.508750025211784029e-01
1.095223575710523034e-02 -5.456845114194368469e-03 4.320918116018852562e-01
-2.164160685973971765e-02 1.313688814831276939e-02 4.260794413794823376e-01
4.514101276783874517e-02 1.013534246905714933e-02 4.473979169310128290e-01
1.608919090261931237e-02 -1.228493089454891401e-03 4.328770308548664514e-01
-5.274703808590524776e-03 -3.845268134507333867e-03 4.307250997536443693e-01
5.080861777521403048e-03 -1.191290242289750343e-03 4.308648627901697226e-01
5.501447833766767714e-02 2.399786037600589242e-02 4.909364845608772954e-01
-1.563981604274769510e-02 5.015486931212629999e-03 4.278883056906835347e-01
1.869933632978030766e-02 4.167337083918568053e-02 4.252465136272337021e-01
2.848785405337064813e-02 3.127832276348608415e-02 4.349539448170511857e-01
1.146527480600898624e-02 1.819895227423593692e-02 4.238274752031121473e-01
-1.482118273134830182e-02 9.258846462677876310e-03 4.254186387047043105e-01
5.591627960052444196e-02 4.343308519729680017e-02 4.626156991970354349e-01
5.235293423835987725e-02 3.973933564453731998e-02 4.552722965107973141e-01
-9.752672469389184196e-03 3.625899511514924650e-02 4.102283700570157898e-01
3.300006714278092002e-02 -8.702755599354279267e-03 4.395328289930025001e-01
4.855121739543582192e-03 3.905589895119455229e-02 4.075833608329381130e-01
4.951659731671086834e-02 6.303315356258303546e-03 5.099561163294301647e-01
2.272744572412370781e-02 5.973933600034667807e-02 4.338331936469505545e-01
1.643918598225047739e-02 4.520979560734977865e-02 4.230320160810531194e-01
5.769352730000785329e-02 2.215626076115179144e-02 4.794115177510084314e-01
5.451966161472349137e-02 1.913465843410099357e-02 4.904226368959974658e-01
4.501970586497524435e-02 5.540303679699593725e-02 4.956464092707540958e-01
5.780934189011256025e-02 -8.784799783971900238e-04 4.897360807360410795e-01
2.109348033774887873e-02 1.221057936581493655e-02 4.324239244503101376e-01
2.160707550147349457e-02 5.568890776529114572e-02 4.292523761072458144e-01
-1.057491546026227518e-02 -2.568044086591675032e-03 4.308330952282792836e-01
5.346580889561988736e-02 5.327287406458092872e-02 4.798818778860899914e-01
4.643285463163707161e-02 5.643105995226226079e-02 4.499768461580894163e-01
5.266900225925233436e-02 4.624777458544278991e-02 4.960491676929042471e-01
4.927930256325049191e-02 3.432001656850121318e-02 5.060563873033092630e-01
5.216981119185802596e-02 -4.425531259834462015e-03 4.608413883122561838e-01
1.899063303207244868e-02 6.243987195616942931e-02 4.416047809524853984e-01
-1.394133151021652479e-02 1.274247505316095791e-02 4.234214926557567371e-01
4.839486476056641118e-02 4.924527942918346946e-02 5.040024786235993703e-01
4.941898643288181181e-02 1.706467789752750749e-03 5.151238573473464477e-01
-4.752928018711189556e-02 -2.605248368198264091e-03 4.445989453227982002e-01
5.644087297020036059e-02 -2.563902644897193221e-03 5.020890045177121008e-01
5.207645591395604345e-02 1.488660309747395424e-03 5.101279584945355161e-01
1.521046935720815445e-02 -1.623833458005000119e-03 4.326628675946100899e-01
7.221142611937846588e-03 2.749383049342890920e-02 4.077357573745458152e-01
-6.560457285084406176e-03 4.951886841300032205e-02 4.108167010653557827e-01
5.503803275672705664e-02 5.039247885095082119e-02 4.765308126249320209e-01
3.924168907816943941e-02 6.412910425144430215e-02 4.468851726564035953e-01
1.523481817517063561e-02 2.607252230548649449e-02 4.235650143165098913e-01
-1.287289180949304640e-03 3.157714020682935580e-02 4.058192274954992573e-01
4.069511141567350165e-02 4.650450659863653718e-02 4.436895160919038239e-01
5.339807024018075610e-02 4.178335085690439848e-02 4.566550519552692311e-01
5.711185144500523919e-02 3.163677272479866603e-02 4.846870800786699518e-01
2.336635815299940161e-02 4.577203041985096477e-02 4.294779892643201813e-01
3.179964159994085049e-02 6.192503905271527775e-02 4.413107445335133772e-01
5.236285210524138645e-02 4.204470945854796304e-02 5.000614299090623271e-01
3.319602771717160977e-02 4.329950275318575348e-02 4.380884074968619535e-01
3.284347762304570817e-02 6.488772067898669615e-02 4.460359283656453178e-01
5.206110358389139103e-02 1.363674176838286338e-02 4.968253894371917334e-01
5.508572410816394566e-02 4.610514899994249544e-02 4.839644730746459067e-01
4.925114873408540511e-02 6.091774158564642466e-02 4.789419602658530062e-01
-8.693012030255756195e-03 1.764811216462268753e-02 4.190044232999271534e-01
1.391846519565051107e-03 2.798080026644429036e-02 4.052027210061898144e-01
4.713366527155668506e-02 2.783644673572109249e-02 5.097406146557658113e-01
1.433668695265203144e-02 4.570846328933642067e-02 4.208775763451634844e-01
3.850970366218740837e-02 2.780992481366539870e-02 4.419556943332949572e-01
5.075622117963025925e-02 5.851975679817991022e-02 4.576053342064076435e-01
3.406136360718543810e-02 5.879729020386544047e-02 4.408342884027340869e-01
-3.415263360389719782e-02 1.187637510487893865e-02 4.371976531140282507e-01
5.085433473003279220e-02 2.568599975464174942e-02 4.526653282857369676e-01
2.633329322576282230e-02 1.952761752152727681e-02 4.341533558262394288e-01
4.976175427597016865e-02 1.277539267604750096e-02 4.516643828929800542e-01
4.981971750081720662e-02 6.420251090224146640e-02 4.666123490516931316e-01
5.335388265781391276e-02 -2.374459082676572824e-03 5.129034064248474412e-01
3.825439269147018484e-02 3.952125288037623696e-02 4.418791608688512063e-01
4.325688189019771812e-02 -2.786483162350875120e-03 4.474256070202924929e-01
-1.477351856939771238e-02 2.591525880368750895e-02 4.167012042539778305e-01
4.806624908050757816e-02 5.748800984458886376e-02 4.519606083327513679e-01
5.555516745327042372e-02 4.371076830097234828e-02 4.839216993616774487e-01
1.097707928006618622e-02 3.185235106093130958e-02 4.131762396867146303e-01
2.873147974064310314e-02 1.498605566904405439e-02 4.360201108400227898e-01
4.688742476407741638e-02 -1.760192978980075137e-02 4.559906815571540539e-01
-1.702732930430879768e-02 4.930389841687268793e-02 4.168300258917172485e-01
5.101801623277078118e-02 5.268797686940893121e-02 4.919673238129452786e-01
3.733388783338070782e-02 3.676536431125244225e-02 4.412791522619223805e-01
5.406139427660115737e-02 -6.340697512945204280e-04 5.093030088222798568e-01
4.265359044145577289e-02 6.093400294117140570e-02 4.478535071573326865e-01
5.020100228306557250e-02 1.736394855435199891e-02 5.010269688921568099e-01
-1.942256140354004651e-02 1.152349839014124577e-02 4.257978308335762518e-01
5.771782150630394570e-02 1.919524773004542550e-02 4.783336046202701364e-01
5.759685637136451736e-02 3.084737074267096188e-02 4.821747835647480218e-01
2.636409647686085295e-02 -1.701386589556507997e-02 4.379975224067758632e-01
1.211512401032643210e-02 5.122392725610881714e-02 4.194857780989766360e-01
5.659991535636630516e-02 3.765972755963221952e-02 4.855052511321960029e-01
4.853055061084451255e-02 2.719905093328651990e-02 5.068506537805286261e-01
4.452649843868804191e-02 2.402166187329256644e-02 4.466025706357611980e-01
5.472741575119616231e-02 2.988729632327890781e-02 4.938007612543197644e-01
-1.355024417670927517e-02 3.198760752677342473e-02 4.130882766724027211e-01
5.178835475512207770e-02 6.008466317343657409e-02 4.689214768078400208e-01
2.015468077038758132e-02 2.839939254765984009e-02 4.279673971439837410e-01
1.037932327730828330e-02 3.673896131023459549e-02 4.143467887520553838e-01
5.822501615247271251e-02 3.167718215131503506e-02 4.742312295778916553e-01
-3.270284720695623010e-02 2.499531927001265828e-03 4.356268531806685718e-01
1.834126453386317884e-02 -2.717286066105775982e-03 4.335337880593219118e-01
8.684181476544282352e-03 3.646256221474348386e-02 4.113269466442793787e-01
6.981109410796241740e-03 2.583636902293155041e-02 4.102819791856610609e-01
3.968414151165578635e-02 2.888786885042785024e-02 4.428736263564284625e-01
5.773258549853107352e-02 -4.130676100135287007e-03 4.788799712754788773e-01
2.595564463262620483e-02 6.321200592323156231e-02 4.403431862808260266e-01
4.882369123826353630e-02 -1.441304904703681351e-03 5.185512456143924753e-01
3.238251994724275495e-02 5.307626332496896693e-02 4.372202397721111078e-01
4.297476970276075531e-02 6.958259003329007875e-02 4.553918317069678978e-01
5.512164856785033498e-03 7.223181298629721171e-03 4.281643080846870841e-01
1.016834255046952275e-02 2.688590445213945648e-02 4.154237966994037690e-01
5.266496820658066874e-02 5.577634468698131065e-02 4.593002441302481142e-01
2.920070774300922295e-02 1.436064758315628784e-02 4.364125148962998968e-01
2.316282331023258173e-02 -7.296032308677543633e-03 4.351907181658963841e-01
3.298672566861560879e-02 5.176613418865692873e-02 4.376766158640147397e-01
1.479654317771709679e-02 5.291935663116053429e-02 4.228814050376168421e-01
4.630990712464275877e-02 -2.100598968857546323e-02 4.568412201202097234e-01
5.079953074558880843e-02 6.265436141867086750e-02 4.653902322138566139e-01
5.442772122527302775e-02 4.153009429800218200e-02 4.948882660940281397e-01
5.330118206385014989e-02 2.159284465250330132e-02 4.939214007580421950e-01
5.824438973918444340e-02 -4.906877502224731881e-03 4.937573381580585563e-01
1.513775079267844215e-02 3.551935579303375223e-02 4.219486901228634568e-01
-1.313936171081934307e-02 4.349324820738702940e-02 4.109738932257661626e-01
4.939101857088542408e-02 -2.088232016675831137e-02 4.630760118687017313e-01
2.958795143374288658e-02 -1.856431793328858562e-02 4.394991468844394733e-01
4.783730105407018457e-02 6.663756019142420828e-02 4.657969956530439992e-01
3.834513245270827070e-02 7.160376176277152838e-02 4.535139627450997524e-01
5.678133131668339217e-02 -3.160148754598981168e-03 4.996437485520429100e-01
2.401104954200980642e-03 2.227328386518238890e-02 4.126856678222400876e-01
4.610864935096546657e-02 6.654576101448830827e-02 4.742710594544913283e-01
1.082785039014261090e-02 5.260482742284510599e-02 4.188869470844598375e-01
5.614093961877900801e-02 4.646140861194957700e-02 4.699669931208667051e-01
5.580514101340218469e-02 4.797416616704439085e-02 4.735531333735923942e-01
-2.859185850171251306e-02 1.427359199188374048e-02 4.298666435216667581e-01
3.211072143858825778e-02 3.835919809657241560e-03 4.385969713795280223e-01
2.601536574571350693e-02 3.213275771036148282e-02 4.328722220870465098e-01
1.477100859501501509e-02 1.749226648482240729e-02 4.265613494940917461e-01
2.056199298478988621e-02 -1.503600479356507168e-02 4.359607693359699443e-01
3.881769884120560288e-02 -8.354619233786900190e-03 4.438532569990517040e-01
1.244821713323792864e-02 6.058556757153375077e-02 4.295706687573889182e-01
5.425186443344470061e-02 5.394884895633395711e-02 4.670608474181275338e-01
5.313014032924543578e-02 5.677715442873530749e-02 4.693595147078873930e-01
-7.457243182775942503e-03 1.902454703754518153e-02 4.173890111415621829e-01
5.891017532370285137e-03 4.398109079718424963e-02 4.112169359824666692e-01
5.697803040994051105e-02 8.176040485524477264e-03 4.829624260452721196e-01
5.755603024904468873e-02 2.884049998084305122e-02 4.830672364166905264e-01
-5.349598039916372838e-03 2.768971992665842860e-02 4.113091432673158798e-01
1.031791265168411145e-02 4.355982689138650221e-03 4.310481159660580208e-01
4.933242702103549787e-02 6.055254029456669240e-02 4.794950449774354473e-01
1.586878351309848473e-02 5.300004277713833700e-02 4.238266351823641864e-01
5.122211679207586132e-02 6.133473507338987885e-02 4.690388103140564202e-01
-1.975716373011293658e-02 1.069286187846123747e-02 4.264362288233108367e-01
5.090123394697433634e-02 1.568867053677170872e-02 4.992163683518337502e-01
4.787275460666178678e-02 8.922220241623663589e-03 4.498416005222520275e-01
-5.113280499457737750e-03 5.788034327146493983e-04 4.298700519537668185e-01
-7.239068159622648845e-03 -9.296508213032515441e-03 4.327568160029041100e-01
1.430930708322973414e-02 6.126248288695709115e-02 4.358652489206092384e-01
-3.486323957653046646e-02 1.240618713905803847e-02 4.382969802589654074e-01
-1.193184592357495084e-02 2.751490127216326895e-02 4.148305706388825675e-01
4.722120402627612897e-04 -1.067437870001122086e-02 4.322344863044138008e-01
4.972686780849829707e-02 1.544480759791451441e-02 5.020130202841476263e-01
4.976707053487695875e-02 1.768349907288072065e-02 4.515856740214977960e-01
4.052438229517366097e-02 3.242835757944706465e-02 4.435615826371431258e-01
5.807616307456878180e-02 -9.151012720424234193e-03 4.862848885726314685e-01
-2.839940680795691175e-02 6.574978624759669765e-03 4.329297695620694664e-01
9.981987323664774669e-05 5.206395824732902577e-02 4.116425913930623071e-01
-6.834688105941916052e-03 1.463573661370067523e-02 4.204774857059632720e-01
-1.659399947136149661e-03 2.189307951076427047e-02 4.122002623414148248e-01
2.569485629790444620e-02 9.430973674390909917e-03 4.354225079844639135e-01
5.808924534243511961e-02 -4.359100996381619440e-04 4.806661824620263590e-01
5.729601372775278145e-02 3.721634539091536048e-02 4.773164775475571830e-01
-4.237237338959647798e-02 -1.276679796397573287e-03 4.408837206113611074e-01
4.181817525066762464e-02 -1.836836884597404032e-02 4.486627181373969431e-01
-1.066192094887151096e-02 1.505191239235702944e-02 4.214040222172913963e-01
-2.588350560652933480e-02 2.076013901452114160e-02 4.238989099274183547e-01
-2.180640699308001099e-02 4.369343990031903519e-02 4.150844016053146790e-01
-3.428302700064966846e-02 1.148873018975571196e-02 4.373898736228529205e-01
5.102906448598676370e-02 -2.189074927014734301e-02 4.665452508509203011e-01
-3.055147800687535095e-02 1.891893804543846869e-02 4.278502725443709687e-01
1.488756645965137564e-02 -1.473160528629390183e-02 4.354062608945836743e-01
6.535296966824035228e-03 6.061922892411578806e-02 4.243805237304202893e-01
1.908220106496794771e-02 5.384652491275218611e-02 4.269799644321246590e-01
3.699397518989236411e-02 -4.150175977404978005e-03 4.422021542786377934e-01
8.177783128971986837e-03 8.945138028349619574e-03 4.280865953442323235e-01
5.798603872393946063e-02 2.686859052369530709e-02 4.794306707279964996e-01
4.587386307622560999e-02 6.810749910005645114e-02 4.629326203232165815e-01
-3.807521559396497696e-02 1.374447710405478579e-03 4.395151815882991642e-01
4.664327877266233324e-02 6.066960245749458691e-02 4.849478892669338292e-01
5.370234854311151107e-02 5.490795126928447317e-02 4.711703485576038686e-01
5.253054943745306959e-02 4.597604752398221084e-02 4.967685662271430491e-01
-3.102293106269425442e-04 3.662592291159531138e-02 4.054722674218822487e-01
1.711958251332581712e-02 2.347911789237939681e-02 4.263165643129954163e-01
3.351877254659640232e-03 1.671661282607730687e-03 4.301359164472565721e-01
4.485116334700560425e-02 -2.113951186109176358e-02 4.546047175703418208e-01
1.214899347219892782e-02 -1.291698173180781846e-02 4.345577768999365764e-01
4.150782345574234589e-02 1.974498859786390920e-02 4.439925259094411603e-01
4.886043428858326265e-02 -4.168171314437907164e-03 4.540059883929944418e-01
4.049982375218739994e-02 -1.204967312547401692e-02 4.458642580793119037e-01
4.570749741771546609e-02 -1.190009426873735177e-02 4.525238812425605439e-01
5.746148856467264698e-02 2.999170872405080689e-03 4.762817702085757610e-01
5.817541277916288972e-02 2.499625266082563732e-02 4.747403429289721588e-01
5.759549247527279842e-02 1.090100187155025732e-03 4.884693446097460590e-01
3.293729800165635241e-02 4.157922191697743797e-02 4.379797919133987527e-01
4.355806215242308266e-02 1.441972006236877032e-02 4.458594439979691182e-01
9.762095042519264299e-03 -1.845017345072738277e-02 4.369027018021182651e-01
5.576916578999750740e-02 1.990995474071653726e-02 4.872079952389783974e-01
5.581057567848753120e-02 -1.280170669085268186e-02 4.755415719157186638e-01
5.259728417207679141e-02 1.672766969576579971e-02 4.549867404384653757e-01
5.448297696601048928e-02 -6.923566513453774645e-04 5.082433146928969636e-01
2.027311325151097410e-02 2.703066132438745189e-02 4.282938877941505629e-01
5.256121943643417976e-02 1.966180174845056500e-02 4.955660566243435539e-01
5.626756539329001716e-02 3.861495264978402620e-02 4.629865834311119865e-01
3.639570366559529650e-03 3.895181273349940937e-02 4.062475139766955623e-01
2.670854267715613850e-02 1.928803917183136846e-02 4.344143898631412370e-01
3.947615122106395980e-02 1.951461035491409979e-02 4.424607157192093077e-01
5.486445122306154998e-02 3.048963157574043070e-02 4.584051504565271329e-01
1.872813182867347909e-02 5.981342497274157871e-02 4.333899499420842960e-01
5.592686200588235790e-02 4.535804682437945268e-02 4.633682718622728625e-01
1.997686787883516668e-02 3.270805632824977383e-02 4.269753978628095803e-01
-1.236566051838000960e-02 3.542851486544004724e-02 4.115639878006840946e-01
5.639574521424860903e-02 3.732936917544905919e-02 4.873047383609050986e-01
3.786772926672603984e-02 -2.206373906382518707e-02 4.463017441939345353e-01
5.560793468784826915e-02 -1.534882767132456777e-02 4.761532565055633937e-01
-2.465871244044025995e-02 3.530931200745631663e-03 4.314630160141015303e-01
5.343787662215920831e-02 -6.663032595342543649e-03 4.652473818923899551e-01
5.749011341389503871e-02 2.057667430747890311e-02 4.799852965482628298e-01
5.023119771834953090e-03 2.164151744704392519e-02 4.142224328840477532e-01
4.056502702879097311e-02 -7.442745957257206404e-03 4.454251649483859099e-01
4.955883187933210476e-02 -1.058619104253721854e-02 4.589761428971216306e-01
4.878140165074769385e-02 -1.973836409178424123e-02 4.611714615026747954e-01
1.122891565070200867e-02 4.194159767043175585e-02 4.157844252193833579e-01
3.462568781784974847e-02 -2.781792095508528462e-02 4.464288851262884772e-01
2.702334799924726444e-02 5.397684471443851828e-02 4.329312428967864723e-01
1.844495486557285596e-03 2.152104426708894083e-02 4.135730660124192215e-01
5.747903010235924648e-02 9.397582065059105483e-03 4.798130217489196547e-01
4.373828394260775854e-02 -2.235924841179091557e-02 4.538962229398987858e-01
4.175127585835399641e-02 3.603705778766154444e-02 4.446004080647101286e-01
3.462907586498793072e-02 -3.688942516254878432e-03 4.404301174902062188e-01
5.195209069886176645e-02 5.363707937183788410e-02 4.868491035969418346e-01
-8.731307435987668494e-03 -1.180417048699983727e-02 4.339676612044521820e-01
2.191227521246784382e-02 6.103044065788006123e-02 4.380037847332625689e-01
4.397064584937909748e-02 1.706997917791067826e-02 4.461267556681405289e-01
2.961265502003228300e-02 6.555341611472352559e-02 4.468678572676344496e-01
2.160873883848568947e-02 -1.491744230549794936e-02 4.361741137074076624e-01
-3.040659206718923646e-02 1.108317470661022899e-03 4.349561576809307106e-01
5.537135497431920628e-02 4.857299335869641466e-02 4.654126030640908795e-01
-1.317527488099940434e-02 2.378165524776603909e-02 4.171627329747212287e-01
2.634122413472314572e-02 -2.622419855589904012e-03 4.360504494019105115e-01
2.612800301829390839e-02 1.453922413103383646e-02 4.345788087282013157e-01
-3.038233202008595174e-02 1.658524238275640300e-02 4.293180002118602845e-01
-9.103044806307584308e-03 4.105320612798777496e-02 4.097777645304291338e-01
2.227157564747091548e-02 3.034067349529881094e-02 4.296363234108637741e-01
4.367042284158978438e-02 -2.208694608003666099e-02 4.536343191887395321e-01
4.880458653740248065e-02 2.312001175016774671e-02 4.506643276698916734e-01
1.620579873435989970e-02 1.622257359962259865e-02 4.283207123221539625e-01
6.772678259976714493e-03 4.896195880888384866e-02 4.141354634996619044e-01
3.112712422233339382e-02 4.345265623278123102e-02 4.363202199544209403e-01
5.072616509987881023e-02 6.024026550488557549e-03 4.530527944491504200e-01
1.244023944622738020e-02 3.214496474994513187e-02 4.167084020763404673e-01
-7.114193381599163285e-03 -4.336436223116628408e-03 4.309857610101737180e-01
-1.288333509043219699e-03 -1.511794686897953086e-02 4.342493602497277116e-01
5.739931391321688448e-02 7.410164347803259617e-03 4.812991618863602383e-01
2.621642720662529374e-02 8.075117206415854607e-03 4.358721405732507437e-01
4.463828516747843367e-02 3.737649384310075262e-02 5.140252184262390500e-01
5.675983862575266492e-02 3.824229209135338731e-02 4.646969073070101319e-01
5.773565385458771099e-02 3.612177066208018678e-02 4.738599576209371333e-01
1.947866956685823797e-04 5.087994890689785665e-02 4.111418849591270130e-01
2.364358268165402815e-02 -1.129581841880944459e-02 4.359278476638767663e-01
5.338331477461490115e-02 1.653131268513024360e-02 4.934798975683185596e-01
9.155918092192452326e-03 3.848016703732030225e-02 4.124421235681210995e-01
1.345768006464197024e-02 4.365224068720422596e-02 4.191709427290727930e-01
3.203831594006847916e-02 5.106031261913573926e-02 4.367981650074562183e-01
9.568256621809765813e-03 5.268814892219802343e-02 4.176191743234780596e-01
3.871192890645878959e-02 1.700825321779107779e-02 4.420095433506174287e-01
1.524831694338455237e-02 5.850931996348961162e-02 4.271256514470891386e-01
4.071726379392077988e-02 3.473081369042387012e-02 4.437746217485474265e-01
5.107568887265977881e-02 2.629594223662740093e-02 5.006708937550458094e-01
3.464448364445400080e-02 -1.689128996950412659e-02 4.420495331345993262e-01
2.097334638312706862e-02 2.532743200932319194e-02 4.291691460615048581e-01
5.761779586454773838e-02 3.525688571994727710e-02 4.769799799935652285e-01
1.081656032612593899e-03 5.333814549892531426e-02 4.146351736632981066e-01
5.675791646746611296e-02 2.533683115599116333e-03 4.712183916859863930e-01
1.012411754748477125e-02 -2.015806371673922043e-02 4.372230971277316081e-01
4.926519728213119877e-04 5.577565595590866510e-02 4.177699828658179015e-01
5.360817377643883885e-02 2.511472226747145202e-03 5.042134870090818621e-01
4.013022212940370315e-02 1.823166060320274839e-02 4.430239840012277219e-01
2.520492895405183550e-02 -2.409970466367603384e-02 4.388888078328178066e-01
2.260888335466262888e-02 4.228954767168875001e-02 4.290077749172043209e-01
1.970008359803288034e-02 3.614386193313762902e-02 4.266372740399747010e-01
5.023629086217311357e-02 4.814080774295761284e-02 5.007871618597927732e-01
-9.675870466244650137e-03 4.463049588838312928e-05 4.299724372789793247e-01
4.201507066492424919e-02 -1.909047849046632828e-02 4.492335876247249282e-01
5.838860412523555476e-02 -6.304232931350569474e-03 4.928209365725462199e-01
4.922908256049644132e-02 5.442507674441227766e-02 4.525348889848064826e-01
-2.441915224394342748e-02 4.460137077917314397e-02 4.176918528565311539e-01
5.353232796252963693e-02 5.414620686885183304e-02 4.758556084429862443e-01
-1.498165407900040741e-02 2.267001849564699578e-02 4.183774430534000222e-01
5.351449513260435331e-02 4.758189643868766111e-02 4.912013152694331697e-01
4.839775277600055076e-02 3.275225987832589003e-02 4.502713677981318718e-01
5.441038851066888615e-02 -9.466149260064381579e-03 4.688740765670058597e-01
5.814795435887302327e-02 -4.153609040248005396e-03 4.819593207813970270e-01
-3.110836821078301340e-02 3.277363412020199013e-02 4.233058625786488283e-01
5.415127276605269380e-02 8.240215260542471665e-03 4.946574917664854354e-01
9.921409054045149389e-03 1.355574266637201569e-02 4.261759774871380357e-01
-2.116994823522345449e-03 1.924693325804651550e-02 4.156708354647529191e-01
5.701213378008073568e-02 3.507564669406325331e-02 4.847577132825727220e-01
5.471375467646927282e-02 4.264394606734342452e-02 4.929072484080985195e-01
5.098617099518665957e-02 1.207408077200325738e-02 5.005612637088333594e-01
5.754621232388063001e-02 1.910133875360950709e-02 4.792146417901998467e-01
4.305470793342557057e-02 6.936856034515904990e-02 4.620920636995043962e-01
4.832174992033939215e-02 4.503192487071411981e-02 4.507230378156658612e-01
2.881717535243845732e-02 3.678124804853184077e-02 4.347981822190057910e-01
5.736781677132790636e-02 -5.572729333073748494e-03 5.045024838099148035e-01
5.311915591703295081e-02 -1.776763843901920520e-02 4.700447186386943477e-01
4.667581175594744114e-02 -1.859829591896561621e-02 4.561183101003314921e-01
5.594893208605646734e-02 4.473377485129757108e-02 4.788759079403045460e-01
5.467980900008741207e-02 5.219455337241094006e-02 4.671738955548632721e-01
4.404147181734680006e-02 3.202093825802952709e-02 4.463687162649195295e-01
2.527844509981116289e-02 4.135782544418002693e-02 4.314693731205879179e-01
4.878871241953700033e-02 3.663212519406283500e-03 4.516078329070225550e-01
3.301990580265424385e-02 -4.359116460555468447e-03 4.393364641563806683e-01
5.675600447071239840e-02 -4.501926295808597080e-03 5.085462536913815113e-01
-2.672579102635019854e-02 -2.070333934886480019e-03 4.347883598979754849e-01
5.859691079882489717e-02 -9.635010937572800055e-03 5.079776536335017800e-01
-3.366700261611466766e-02 2.890639907550038301e-02 4.274262236144165117e-01
-1.261321497469698044e-02 2.126549560942610217e-02 4.181842675094674666e-01
2.710497938149577374e-02 4.753803911061058041e-02 4.326385329494480958e-01
3.582909486362810536e-02 2.024104401707851105e-03 4.408813418782681071e-01
-3.539928043817037323e-02 2.340509462489734002e-02 4.322586073861090505e-01
4.164487925518459838e-02 -2.270321565467649239e-02 4.510522388104789004e-01
5.725523684334560270e-02 3.515575370993878623e-02 4.817333098520796275e-01
5.066665545559786293e-02 3.106003344849004449e-02 4.525385380787724232e-01
5.081047109609019424e-02 3.898562393755729966e-02 5.038093176490786584e-01
5.345634041488628307e-02 7.105512965801310046e-03 4.583725627138610648e-01
7.497084527489438627e-03 5.407286034201336938e-02 4.168828023829115881e-01
-1.728277331197963784e-02 3.787137968556788387e-02 4.128185621269676031e-01
5.541784534680013058e-02 3.631548336056187459e-02 4.924896142156973133e-01
-2.898416935465608288e-02 2.053889298760388019e-02 4.259464211886783702e-01
3.382115867923535246e-02 2.496669154935850232e-02 4.387807985265437805e-01
-2.823319706816674116e-02 -1.844574411449531430e-03 4.351988010988164790e-01
-1.013353591728562153e-02 2.102416060311966886e-02 4.173673442577894299e-01
4.708046790618309468e-02 6.680905351408082671e-02 4.679037764709561564e-01
5.632148533705383375e-02 8.234113757234916633e-03 4.874137489469000939e-01
4.598130231876371155e-02 -1.470553978687328886e-02 4.537478967081204351e-01
5.158634794657143696e-02 1.646059902741979844e-02 4.977303968303141701e-01
-1.432641695973644290e-02 3.018365120856665584e-02 4.143731065806608438e-01
4.347452091035534927e-02 3.456803550662299052e-02 4.459975970293875158e-01
3.972239413277583314e-02 3.116165295261436041e-02 4.429291908187774629e-01
4.990374496974552682e-02 1.805068634497914576e-02 4.517379909688034600e-01
2.007076278932233906e-02 2.053961381217755608e-02 4.294261387260264740e-01
-2.436941488072042177e-03 2.053966092047220318e-02 4.138405712301105321e-01
5.056079141993802262e-02 6.160840039369354371e-02 4.717331058321746484e-01
5.473772614056240937e-02 2.103144937485747559e-02 4.902547861260552198e-01
5.233767107472512940e-03 -1.239202314595813995e-02 4.334785142170741179e-01
4.627292443255715676e-02 -3.166887419721548490e-03 4.506791625657578515e-01
5.511021858922162536e-02 3.498216117434501532e-02 4.588476399160485442e-01
1.277351563505516388e-02 3.806778100035037443e-02 4.182267812980744459e-01
-5.510881651978110848e-03 4.290661814184099782e-02 4.090430372150281046e-01
5.751915709488207573e-02 3.440870061400196078e-02 4.663773798161323647e-01
1.735464555584799798e-02 1.086960487157835435e-03 4.331749571430206225e-01
8.632419066072549024e-03 1.524595254597902252e-02 4.243163970267487262e-01
4.420841078052093615e-02 -2.226736688394675978e-02 4.544626121366118765e-01
4.353163621261654098e-02 5.080937464481256882e-02 4.462566018916173105e-01
7.138985659830350550e-03 -2.242441817542948843e-02 4.380962752916219283e-01
5.823743812037873030e-02 -8.001420272651811258e-03 4.882937032121452692e-01
-1.055587252788240879e-02 4.268562073553533454e-02 4.102635818256402667e-01
5.219875800938994503e-02 2.303902709813001465e-02 4.540852763754474886e-01
4.524035988787387247e-02 6.529660118667759278e-03 4.478099306014449166e-01
4.435280662483510189e-02 -5.574008465626702213e-03 4.491377736658507258e-01
4.112355455972690338e-02 2.690887852004403627e-02 4.438287231100342400e-01
2.184768653540009042e-02 2.773877264571275938e-02 4.295660118592805055e-01
3.128080091923116351e-03 5.187225053407672204e-02 4.136194908486712229e-01
5.663447359740813453e-02 4.343519005134152677e-02 4.739046469299285635e-01
4.705836275993968698e-02 3.880344589209169283e-03 4.498336222682324803e-01
4.330511881895887649e-02 2.116698072475910533e-02 4.454617932509503664e-01
3.858880302144467034e-02 -3.287240694896688669e-03 4.432764604121433583e-01
3.722518938670071192e-02 1.730849872707808726e-02 4.408997986304532546e-01
3.709170162500372882e-03 -1.796680870442501909e-02 4.363670297458595582e-01
4.990318944605194595e-02 1.954372309030406527e-02 4.517206991816013484e-01
2.473949021095298018e-02 -9.715272080525206785e-03 4.360035650736955870e-01
-3.034020857369517515e-02 1.745657966373007075e-02 4.286940313691397497e-01
4.768369706644488837e-02 5.174027087394799523e-02 4.503431983499083247e-01
4.793636989946419014e-02 -1.479440261526946548e-02 4.571761854673261904e-01
-9.511741647698091981e-03 2.510511772120435289e-02 4.150546461473781923e-01
7.964881614552660541e-03 2.655317661780702554e-02 4.111389371241570001e-01
4.965664498112997566e-02 -3.395299509248808547e-03 4.546315892276389103e-01
1.244707207684646669e-02 6.157738100542992782e-02 4.350873184183553510e-01
5.229675954517224584e-02 5.538901518526682249e-02 4.577730872758034586e-01
4.760440252036115399e-02 6.573493408779784719e-02 4.731661798624582915e-01
2.804824586537234613e-02 3.115067768529258818e-02 4.346231424648681063e-01
