-3.390556011927838356e-03 3.717975180481519065e-02 4.047434406983591026e-01
-1.388155867925272048e-02 4.051104502049936162e-02 4.091548269845164398e-01
5.436213888716418668e-02 1.029592825183830822e-02 4.583435766108522325e-01
1.981272979753972291e-02 -2.264483718836615006e-02 4.371155028978646606e-01
6.880607264078120872e-03 4.130823082602860102e-02 4.077834538697946987e-01
2.206572864465580763e-02 5.064342460307477700e-02 4.267736672091140271e-01
5.131055171707255697e-02 2.482431889606262834e-02 4.993208431252596502e-01
5.330635706483505959e-02 -8.151542746027958062e-04 5.111517242758809587e-01
1.037387200672379092e-02 7.485556445880390750e-03 4.286600579327118909e-01
-2.288151737877533107e-02 4.460228341117218609e-02 4.149802341660225324e-01
5.447502599518813660e-02 5.412713105382262191e-02 4.658921612305863547e-01
5.566883687240877648e-02 2.865700616029115064e-02 4.587435860962057466e-01
-2.974047969303344335e-02 2.886080594553984760e-02 4.226433005349249372e-01
2.256263272578462598e-02 3.520670824343965361e-02 4.274689691627897581e-01
3.553773414084231141e-02 4.551781346700149722e-02 4.383502529382801161e-01
3.292305344876204215e-02 5.626931959258883037e-02 4.369655632700103487e-01
5.648213209296443910e-02 1.373668502055772588e-02 4.631037381217172344e-01
1.287336059460221158e-02 5.986481097322785688e-02 4.245010151670863263e-01
-3.188179776764663714e-02 2.291434797210097421e-02 4.264322801431527643e-01
5.443493994438219213e-02 6.326371300837701876e-03 4.602472558088765986e-01
2.223826878005229213e-02 -1.027307857179277258e-02 4.350282540064497883e-01
5.792077866605658404e-02 -1.193860491546588215e-02 5.139801706643085666e-01
5.199061137643355701e-02 -1.659384285902618106e-02 4.668417003356787887e-01
4.922803337128761614e-02 1.282960568912160093e-02 4.503154147123974438e-01
5.436083772706360590e-02 2.457442800705073732e-02 4.925094512101656496e-01
4.844382823320490111e-02 5.101227666073344935e-02 5.009929329140199172e-01
3.223160172474655999e-02 5.520644850924182057e-02 4.358107101833157970e-01
4.485170547062162366e-02 -2.564955607125825147e-03 4.483835310237103133e-01
4.633557945632057334e-02 5.802390185606843415e-02 4.488848093320947918e-01
4.426271765697942923e-02 -7.147497731995264801e-03 4.488568707791653067e-01
1.586918249686151972e-02 1.651831542793279380e-03 4.321335863383823361e-01
-3.411635639361962347e-02 2.310264776262618142e-02 4.296508626165735367e-01
4.986190076889210343e-02 5.150968015837911751e-02 4.514402650097881775e-01
4.286884460428560389e-02 7.041730355836689492e-02 4.566509762091885416e-01
5.691799759365002986e-02 3.902983007190711368e-02 4.637720092840431074e-01
2.069260086628695733e-02 1.614149468722153591e-02 4.298860147570454648e-01
-2.276325181263752148e-02 4.692624145659712864e-02 4.160258782784829190e-01
5.844447316283357674e-02 3.139767863225776529e-02 4.752096278310145028e-01
5.788912090073523170e-02 3.632854449865972630e-03 4.812636902542291040e-01
2.612667003308595526e-02 -1.869538491458006338e-02 4.380834145361968690e-01
9.547119156038791875e-04 1.166345183866803782e-04 4.297455740028720550e-01
-1.277819270336276285e-03 4.065695140793092188e-02 4.054844893975267373e-01
5.801224931247954408e-02 3.280456121178991491e-02 4.783192691143498543e-01
2.266829506294203156e-02 1.481471298349157535e-02 4.314181897690831935e-01
5.827016187649024931e-02 -4.935023265341356713e-03 4.896301498124400742e-01
3.929970656048519667e-02 1.002349888181682663e-02 4.419120592027550032e-01
4.301825063846738406e-02 2.533508373627280097e-02 4.442203219505908018e-01
-1.034872094870128295e-02 3.827674971736936670e-03 4.267265579434387224e-01
4.919152449226600610e-02 -1.649321919189170385e-02 4.603411283494088790e-01
4.959871553996925836e-02 1.932205489958638625e-02 5.023386406822962780e-01
1.702592856126324689e-02 5.196644367313709573e-02 4.222039430221131151e-01
3.449537693394625487e-02 6.557206671671335363e-02 4.468746207035736440e-01
5.478302483788972943e-02 5.091810240112235042e-02 4.783969414613293836e-01
2.804383677962904789e-02 1.415945801509484701e-02 4.347592020702304438e-01
2.521598427377462481e-02 4.352635837745758712e-02 4.292125293727727664e-01
5.175616513684661718e-02 4.699301192389990570e-03 5.064676545022147591e-01
5.752946568337450467e-02 2.237069105547933191e-03 4.843885232805556496e-01
4.956896714996959774e-02 -1.877155048184624836e-03 5.178265377479099874e-01
1.128237794469720209e-02 2.224724086619690733e-02 4.185929222082097612e-01
1.722726276373708759e-02 3.485577741526088569e-02 4.217648841912934876e-01
5.176854727591821692e-02 -3.282793564341422114e-03 5.159618047366034688e-01
3.617930141140311001e-02 4.616715615494338537e-02 4.388295158676949748e-01
-4.096951905454631129e-03 4.250025742002618012e-02 4.067129498649839081e-01
4.223921572482691733e-02 6.258734720456332612e-02 4.468608201738188956e-01
5.785010164445467812e-02 1.775788277350341671e-02 4.700142391598329805e-01
4.520305198554950415e-02 6.064634353831457186e-02 4.486070848312825876e-01
3.249938144205665597e-02 -1.407715499718999869e-02 4.395694835765615593e-01
1.557507641585945471e-02 3.097549074601094535e-02 4.201514046457449081e-01
2.179161850480777762e-02 3.906130529014200520e-02 4.265279992344276350e-01
-3.896483169655487206e-03 9.122080269572035993e-03 4.232346758650614715e-01
5.067140257277142484e-02 6.107723816487017898e-02 4.593902011848744471e-01
4.572422281134647798e-02 -5.733126547832820621e-03 4.502478613170598498e-01
5.370067038820661859e-02 5.259711116719156115e-02 4.811716582841460421e-01
5.761676119927169187e-02 5.334332960186838682e-03 4.817822390387397347e-01
4.866907170237545072e-02 1.331241905973917783e-02 5.056786501921181065e-01
2.874437262898285605e-02 5.294590706255999923e-02 4.322523484997720655e-01
1.836823518273856051e-02 2.112616535159201562e-03 4.328788040698816064e-01
2.041521908006114355e-02 7.519367598380661752e-03 4.327973373207744667e-01
5.281286466413440128e-02 5.869014404925405187e-02 4.649289675773731756e-01
9.012698273141335481e-03 3.191532538791789358e-02 4.032882301172772133e-01
5.542820352138162071e-02 4.125269302669831890e-03 4.942393277254717443e-01
2.335529797748919084e-02 -3.979522440377714423e-03 4.345171456286309186e-01
-1.799047297159914530e-02 -6.103246408081710456e-04 4.311216147879967653e-01
5.259690628847975974e-02 6.370688462386488692e-03 5.009574088069937980e-01
5.438271917588173576e-02 5.314823225179105687e-02 4.728591228326122220e-01
5.751024766106648672e-02 8.571402722038649891e-03 4.781238583180547064e-01
5.420964321219695625e-02 2.698058286400945201e-03 5.015116343168970481e-01
1.200351081104672653e-02 3.935949346172057384e-02 4.134851830149519070e-01
-6.975334219132873007e-03 4.277651870888728169e-02 4.074624057799727805e-01
4.516026533338739907e-02 4.074210807656895861e-02 4.459249353247758396e-01
3.130165068324203270e-02 6.490872872641906266e-02 4.441416591481147091e-01
2.029481211070809088e-02 1.795078867248769972e-02 4.288854233844567876e-01
-2.995519665420338234e-02 2.426325026829218717e-02 4.243358855336830104e-01
7.293358224394707462e-03 1.198855393304432615e-03 4.301856523495086737e-01
3.128556283283061984e-02 1.502088306484636315e-02 4.365954850212490079e-01
-3.985896985067476084e-02 1.037585301649605841e-03 4.410645602564328693e-01
4.980950377152099789e-02 4.846580420949102991e-02 4.511511846330412134e-01
1.464505772660274104e-02 4.993337017419562790e-02 4.191127049029878537e-01
5.478317219419849560e-02 2.854792969396880570e-02 4.930682605227251214e-01
3.978375765295036337e-02 3.070698194569865258e-02 4.418296020608169505e-01
4.480000270659889594e-02 -1.643229684129120238e-02 4.519686829689356089e-01
5.173461330969885558e-02 3.739281274620626094e-02 4.531565972244291363e-01
5.214319024082192389e-02 2.111652729905189561e-03 5.092257331154207423e-01
4.441505530247972372e-02 -1.185205937935606205e-02 4.500651493544001180e-01
6.591975194408994897e-03 -2.042828245778208901e-02 4.375087004936524804e-01
-1.595608698034260003e-02 1.175309329625356947e-02 4.234741900567582928e-01
3.085042031967293388e-02 4.402027203696813606e-02 4.343168441438606808e-01
2.760999055051870446e-02 6.500884560485151176e-02 4.458606338241699607e-01
3.098606317023299903e-02 -2.034316649445860534e-02 4.403457928892703377e-01
5.561933041474100003e-02 2.532846464925901653e-02 4.899420674847774770e-01
4.806989080195382680e-02 -1.605068869481407132e-02 4.574960728152803746e-01
5.472297798177130912e-02 4.568523050739450864e-02 4.571058374228590959e-01
6.107541597719153871e-03 -1.547914234741486206e-02 4.353272348666039071e-01
3.873787422414168985e-02 3.481714692142538758e-02 4.411014424764124753e-01
1.845646381369582881e-02 -1.648017998703786915e-02 4.358388750035331882e-01
-5.238480701923951474e-03 2.202243626287359382e-02 4.127138870865988962e-01
1.906370027776285031e-02 1.310813379288762633e-02 4.300413018811225507e-01
5.832135940929181889e-02 2.541955840268539379e-02 4.708491236807578195e-01
4.903959512148373459e-03 3.580889836448100313e-04 4.300006802238091619e-01
8.628183902776594139e-03 3.333802857077274723e-02 4.030721996746400859e-01
5.682473650623002387e-02 9.417084782871530235e-04 4.922574896350641049e-01
-2.175934003987780099e-02 1.230932414826853803e-02 4.257631521585797385e-01
5.588295427005436633e-02 4.831169338098159627e-02 4.739371066470470795e-01
-5.390730431584951632e-03 4.437924617838005098e-02 4.071958024281974731e-01
3.331340756157483152e-02 2.821614022063181210e-02 4.371916314487841460e-01
1.287356063990391722e-02 5.754399028219315398e-02 4.216036246959079525e-01
5.741172560114505413e-02 3.463512476134660012e-02 4.818576445139567399e-01
4.652850420283258931e-02 5.558100622638115218e-02 4.941557785007152370e-01
1.147646566546707894e-02 6.068655347675890044e-02 4.267520145656186759e-01
4.900541162789331245e-02 4.571456323560731116e-02 5.051520288750188659e-01
-3.764392120676286757e-02 4.107815569199035899e-03 4.432450771237353426e-01
5.843198748488710043e-02 2.726119555201372835e-02 4.764708657199460684e-01
9.701428756330753023e-03 6.189210527379667391e-03 4.292224862562709076e-01
5.782056530730537991e-02 3.766479951709653107e-02 4.683844752371271181e-01
5.152905472538345244e-02 -8.919734502989322411e-03 4.618854463074286709e-01
4.450600007870545230e-03 2.271688532849584427e-02 4.098038083435961432e-01
5.069103678896550585e-02 6.172393548203143621e-02 4.606987572562253885e-01
3.609028646745573998e-02 5.944077525702252257e-02 4.412275518749832481e-01
5.835448682104382029e-02 2.698642906812232650e-02 4.694644482770300997e-01
5.436376829283028067e-02 -3.005243770194463218e-03 5.119052178631219308e-01
1.182200496943038547e-02 5.743896913940301635e-02 4.205755682888296376e-01
2.306038165165653908e-02 5.228494678184873040e-02 4.277831999283063791e-01
1.628845365664383787e-02 1.235500399929837650e-02 4.290503625944517285e-01
5.733004285947055495e-02 4.695314659080070813e-03 4.843544833598145694e-01
5.840175874542787721e-02 -9.241198828367859497e-03 5.083141698280797538e-01
2.741644322621422658e-02 9.898673494572752737e-03 4.352565020485346658e-01
4.592980152365580548e-02 4.696645811762616141e-02 5.096314641596422224e-01
2.692366889256314968e-02 2.614392630762935044e-02 4.327006324443833929e-01
5.119566856266389437e-02 7.318620377646220358e-03 4.527503936072244661e-01
4.829460548197439529e-02 6.686234263160650490e-04 5.175181336747930461e-01
1.381254228422923620e-02 1.074374839865786802e-02 4.284870042441314419e-01
4.301389685707800864e-02 7.012335814532250078e-02 4.565888766625405548e-01
-2.308651670616967619e-02 4.495692101950034963e-02 4.152074706613360089e-01
3.497076651983429402e-02 4.040978226698255238e-02 4.381431843988831121e-01
2.865831363805621673e-02 6.095176344566721055e-02 4.371854963122370208e-01
2.409146124513344631e-02 1.181224293364444532e-03 4.347843596083406092e-01
5.532827082599725554e-02 4.385783465112487456e-02 4.875937753209893533e-01
5.733505909689319557e-02 4.023021773272624640e-02 4.671530572698673889e-01
-2.575646257546444773e-02 2.812210471633541653e-02 4.197313391726160137e-01
4.556617051325698164e-02 2.365119092389010580e-02 4.465997839205747555e-01
4.879274565670023434e-02 6.259115578731040686e-02 4.765348970173467480e-01
5.017621035999548368e-02 5.282120862852505289e-02 4.936692850144124289e-01
-9.508541118653113938e-03 2.352995525706227942e-02 4.144506138614616475e-01
8.834565032527904802e-04 4.034449499831694458e-02 4.050931482553521423e-01
3.453806873324956339e-02 -1.934639385225518302e-02 4.422815980582513462e-01
5.206510200289916207e-02 -1.414262406094489097e-02 4.658319098115588641e-01
4.875638639181111011e-02 3.452402469204341601e-02 4.495936287540551191e-01
-7.635702532245573423e-03 4.803610684747983725e-04 4.293676250593184696e-01
5.834622417052085647e-02 -4.184219743503022476e-03 4.925171868076207438e-01
4.513892530473610082e-02 -5.653905096183778041e-04 4.483672981046762374e-01
-3.953994608644456621e-03 2.485210887355503162e-02 4.101183323509726142e-01
5.741626001766488713e-02 1.020887382855637220e-03 4.743155324671440298e-01
2.708856665079462447e-02 5.865042537470188666e-02 4.339968829510968407e-01
-6.188729771665732633e-03 4.665055721839202890e-02 4.076986293717788645e-01
-1.840202079183871900e-03 5.468770242162821621e-02 4.140628592903304872e-01
5.142455422355254185e-02 5.829669795912840319e-02 4.573058897519536314e-01
4.940656611189610942e-02 -1.848282368365230383e-02 4.617174930647628961e-01
5.009940184421604603e-02 4.998169532211550053e-02 4.514978242647989526e-01
5.815826218906628570e-02 -5.434859710019272760e-03 4.829258540049646276e-01
3.332486054010086463e-02 -8.266196528479272457e-03 4.392719935238471041e-01
2.701681468940323599e-02 2.137988330945076419e-03 4.357835817549244872e-01
3.390878793038136496e-02 4.488161304107595589e-02 4.369829546375634810e-01
-1.281794698283607748e-03 -7.558053077663494032e-03 4.311888291358943470e-01
5.598110242009347176e-02 2.958391411451087279e-04 4.982216318178641634e-01
4.682435217838456371e-02 -2.233550184053591237e-02 4.585159100490735495e-01
2.309736562570443782e-02 1.886466844819138095e-02 4.308152488367041344e-01
1.891648107893310199e-02 3.772005721184750610e-02 4.236497627206029515e-01
4.833486004264374997e-02 -1.613198025927576468e-02 4.581644799924856626e-01
1.262720115519931977e-02 5.035143152706289538e-02 4.168498608316323351e-01
5.619970575166657184e-02 2.940930103983616442e-03 4.919560125470945899e-01
3.513498570201258747e-02 2.016845516027042373e-02 4.385712377894194214e-01
-5.837462872615159677e-03 -4.391118544369783903e-03 4.304532212361141252e-01
5.701661011628376269e-02 4.156145392790121240e-02 4.747342903500270106e-01
5.748870047278556439e-02 6.721330218155082727e-03 4.735262149690578903e-01
2.435485072448541344e-03 1.065215354075888833e-02 4.231702267932934691e-01
4.027935764275606539e-02 6.873854609800340854e-02 4.513434949436212484e-01
5.841758860744981213e-02 2.827472809065035078e-02 4.701132995042447416e-01
1.296871624467727663e-02 4.012743994476473258e-02 4.149712510113315878e-01
5.363960593388961140e-02 1.268505408143517053e-02 4.932463870119594973e-01
5.845403723932238865e-02 3.100654250315564367e-02 4.729921127233978062e-01
4.821656150214039677e-02 -2.277924171138645884e-02 4.610092043861294120e-01
5.535325796687011468e-02 5.070149717466929801e-02 4.725000672146436598e-01
5.844219059295298335e-02 -1.108429119355474127e-02 4.882081259464087775e-01
3.895770957462196121e-02 -2.467216944899476572e-02 4.482296969235970985e-01
-2.533143851932970897e-02 4.322258724956369938e-03 4.311135289730574915e-01
9.070438798136020928e-03 2.859281541307494984e-02 4.068617308828969548e-01
4.784764934509277284e-02 3.115823275648249222e-02 5.077863669746324193e-01
5.690721204909460901e-02 1.677556036127344705e-02 4.828542596215560923e-01
-1.066372511662488226e-02 2.062042578977966653e-02 4.163957551175561100e-01
1.484719551781533281e-02 6.120918379683939342e-02 4.341143532856850396e-01
5.579273858647492562e-02 1.531598834079081831e-02 4.868177268524574997e-01
5.829136930233932284e-02 -5.379976020425205653e-03 4.934697528090017937e-01
5.801918546237858770e-02 -1.928115505888332521e-03 4.791607694852147992e-01
4.123970535681352467e-02 5.195679724302264962e-02 4.430995347792088812e-01
5.125639788005493386e-02 1.740451754546155916e-02 4.525440998673220805e-01
1.180362657163549871e-02 -1.256049819945852762e-02 4.340064862008094493e-01
4.165856762274203207e-02 2.277915353089162570e-02 4.430291756572576345e-01
3.583766846982108095e-03 -1.359877093465611773e-02 4.337138379279553146e-01
3.173401489672107723e-02 2.137956219971128002e-02 4.363347562185642681e-01
5.783188313290699850e-02 1.736053483900035915e-02 4.726033346769316634e-01
4.264521747660557360e-02 6.734537540446199066e-02 4.731429713866422415e-01
-1.613077013088618644e-02 2.224745666834303248e-02 4.177486502573752869e-01
5.532497510774620625e-02 5.090121440365118211e-02 4.718218912183273495e-01
4.454659315261894070e-02 2.826877269400792682e-03 4.471029644641801304e-01
4.767871158973347595e-02 -1.611028688448420260e-02 4.565812565939419421e-01
4.074391982219700836e-02 4.228135120318846779e-02 4.423758011985572391e-01
4.070767615150946983e-02 -2.103761612735877140e-02 4.479441299792636944e-01
5.094379975021540163e-02 1.874540495501608034e-02 4.521035937990458553e-01
3.725729795310478432e-02 -2.545617279671703870e-02 4.472668405263726110e-01
-1.898591538096569206e-02 3.340300676838656863e-02 4.138869955501331410e-01
4.830568860583152324e-02 4.090746607205709984e-02 4.493183864887598800e-01
2.209058876576906749e-02 1.606262263883573294e-02 4.308306931509808813e-01
5.726725407289083580e-02 1.528844087345353209e-02 4.808901997005774476e-01
5.240236373237385642e-02 -4.459050270095333245e-03 4.606902345814321009e-01
2.574765317889781205e-02 5.329647350623716723e-02 4.299242581942459007e-01
4.130577228131928139e-03 2.603301730690928475e-02 4.046696681569564857e-01
4.252213494084426670e-02 5.615307295466345078e-02 4.451621393117957126e-01
9.073724279904537074e-03 2.731964623141950460e-02 4.077438822869213220e-01
4.177330671997037115e-02 4.594822156887556214e-02 4.431616740668791188e-01
5.770847336670439920e-02 3.660289082701768948e-02 4.754082297956938596e-01
5.803139019000073950e-02 -1.507960892768515394e-02 4.837043190784056645e-01
9.420223340333920906e-03 5.081487248175441812e-02 4.139427808757978333e-01
2.562925200764917116e-02 4.642669227027967915e-02 4.293729225902590541e-01
5.804746805263769072e-02 2.018782008578876019e-02 4.722049635866598649e-01
-1.385293156639066242e-02 1.218869389599522290e-02 4.226244937095791077e-01
2.797861155455922191e-02 4.933483135448061413e-02 4.313315852671040784e-01
4.731739065082330581e-02 3.586219204320804238e-02 5.089266466228622443e-01
5.294311574298001671e-02 5.115887416889498135e-02 4.871760780340670394e-01
-2.801900351497560449e-02 1.920621019386785713e-02 4.251134452021158028e-01
4.603135942709803141e-02 5.873276313242622310e-02 4.890038022035217979e-01
3.633910474176542393e-02 1.120000450751721874e-02 4.395684961874640195e-01
4.961786791265877794e-02 4.760527417688186630e-02 4.509233157684304771e-01
-2.471718659351888892e-02 3.375762620932604152e-02 4.170705158112172350e-01
4.253609716258837520e-02 4.946647051661689359e-02 4.438537055320530555e-01
2.563959676624097753e-02 2.568933826910531001e-02 4.316274356010421642e-01
4.605491302372167334e-02 8.793673634098247982e-03 5.136296728755287422e-01
4.868237195563191594e-02 7.091814508098423682e-03 4.501498817899567406e-01
5.241333855510951073e-02 5.138627235365576112e-02 4.885654723070210759e-01
4.684413224307606288e-02 -6.058145029905721152e-03 4.516924336986904431e-01
2.814287103154109251e-02 5.548773205009983195e-02 4.321629090218782610e-01
5.663885872209691030e-02 1.390427205351859284e-02 4.636456882506367339e-01
5.169976043444118180e-02 -1.010983782016751506e-04 4.563310067117595792e-01
4.540673464587641206e-02 -6.233194440998172936e-03 4.500273251886084958e-01
5.564563263246886764e-03 1.036829893475918127e-02 4.249094349386620673e-01
1.421891138242532826e-02 3.385531613614594509e-02 4.166935267749484750e-01
-1.575085849404554358e-02 3.519730894000576427e-02 4.114364703353940445e-01
5.119009263056595316e-02 6.107083310529585335e-02 4.701080045445709676e-01
2.972376576996196840e-02 2.287753159438507891e-02 4.348393446532590190e-01
5.013611257491461248e-02 6.183514839819681530e-02 4.737701335172088690e-01
5.185841208573358646e-02 3.459357865515961389e-02 4.531583563267002623e-01
5.771938864906580452e-02 2.903986688338357561e-02 4.822773865326321907e-01
1.278614096762814914e-02 5.218171714047826343e-02 4.180016990941416988e-01
4.534047555845875654e-02 6.815957710739155295e-02 4.603270824390209293e-01
5.630450537281316004e-02 1.175022992316227324e-02 4.847338085381260320e-01
5.148101771665725135e-02 1.089156657869311436e-02 4.999051865536073280e-01
2.713427075322021736e-02 -2.067994536301368327e-02 4.387914114672392674e-01
4.792534400285304585e-02 6.115156974931535566e-02 4.816823591289704498e-01
5.443946188120650509e-02 5.428282191142915630e-02 4.659522216824243390e-01
4.650360011349549683e-02 5.162019444246233185e-02 5.028127782024536252e-01
-9.890211602724656090e-03 3.801387550740672940e-03 4.267483121481505104e-01
3.069409910431484395e-02 5.465221008381419138e-02 4.340851085929656739e-01
-7.595973450646067993e-03 1.763541208200440982e-02 4.170958491214525332e-01
2.876676867925344327e-02 6.206778496835872738e-02 4.381934619642675610e-01
5.582815355478772112e-02 2.968372630116378197e-02 4.901756358874727604e-01
4.592295454759927342e-02 4.392646418848528828e-02 4.468064785032513364e-01
4.767740384345373755e-02 -9.374715911701577559e-03 4.541881215767472058e-01
4.735321708961817005e-02 -1.814838838888080744e-02 4.566991043753533819e-01
1.491158718629447856e-02 3.282629598076500232e-02 4.186968228207987863e-01
-4.019152424157669545e-02 2.577657934190995519e-03 4.404956210941444184e-01
5.106494359569865166e-02 5.222117036532006318e-02 4.922732778039429213e-01
4.057452566730547494e-02 5.112082144983635945e-02 5.092848150440086874e-01
3.639082628916733009e-02 6.506934489712699887e-02 4.465352409195402772e-01
4.929360980399778713e-02 -1.661601751717819292e-02 4.606115018711705034e-01
4.208558197821302832e-02 4.617596818072114417e-02 4.434104546541054459e-01
5.814672434456420042e-02 3.259161631580560076e-02 4.771791786110774480e-01
2.106651675688220662e-02 5.959348619911950667e-02 4.322507742995532198e-01
5.830001381671362504e-02 2.625036438516876666e-02 4.778944663958202832e-01
4.782886297376729573e-02 1.208789203505029712e-02 5.082427882748505876e-01
5.006702239965988427e-02 4.061296513113441670e-02 4.513260025296476630e-01
2.406572814867934118e-02 -5.889454305893632169e-03 4.349004075804571157e-01
5.014587686383128323e-02 3.227260627981780317e-02 4.509255012180272137e-01
4.459711180380303980e-02 5.229431345087214023e-02 5.033344856820053392e-01
5.474685214106752434e-02 -1.151397412806041617e-02 4.703697297002954469e-01
2.698269586131036429e-02 2.242941198193408245e-02 4.330891421530449481e-01
3.037880574813134685e-02 2.802006034355564168e-02 4.350667981723466693e-01
2.938572245113514614e-02 -2.103005809548853799e-02 4.398136592305260661e-01
5.450370593721282075e-02 -4.297152025693591615e-03 4.657786534701489622e-01
-2.299843608819886545e-02 3.387205629755896813e-02 4.159335247777053435e-01
1.723928789612296647e-02 5.477953522120294211e-02 4.230793370383547081e-01
1.314689089930965414e-02 -1.856824544101316754e-02 4.364755262581762052e-01
5.375724510577308685e-02 1.906878381513574944e-03 4.603858062852893562e-01
5.348687473505114170e-02 9.706036593165295878e-03 4.954879841978985233e-01
5.549872816222348182e-02 4.963753153842544175e-02 4.661292421484428683e-01
5.421591727405956906e-02 9.570778147706454544e-04 4.620547496549115563e-01
-3.349562273393936335e-02 1.737737380337984680e-02 4.329318543149539011e-01
3.386021787870974881e-02 -1.977853653503468950e-02 4.419157822224556997e-01
-2.906200610684098531e-02 2.591255617664755401e-02 4.230805719453827329e-01
-2.206493025852902107e-02 1.598003549195867179e-02 4.237896893517095198e-01
-6.149546281667748679e-03 -5.809617804181723376e-03 4.310205810368012980e-01
5.736886119065774670e-02 1.354532216363126332e-02 4.670911653393721163e-01
3.167900777579017724e-02 -9.473854594609384602e-03 4.383157966413001594e-01
8.008711263955777329e-03 3.894035828662727183e-02 4.081448789297804081e-01
-1.559204616871260815e-02 8.465832633395742497e-04 4.299964601487867855e-01
5.465231391347701029e-02 4.482611701416915756e-02 4.898647581355480840e-01
-3.193722108477821398e-02 1.785308650853344951e-03 4.352267945390709825e-01
5.637067449452647094e-02 3.897215921761498086e-02 4.863332878839609075e-01
4.450691495000278636e-02 -7.283013159363302576e-03 4.491596833380664400e-01
5.514958614047626995e-02 1.176205197415843354e-02 4.891895397681146895e-01
4.651887466871279520e-02 4.149742405268618678e-02 4.473568194907201478e-01
9.682903745327705453e-03 3.651340692550415074e-02 4.098052793258524784e-01
-1.377807888563776194e-02 -2.918950574400059218e-03 4.311149658738719914e-01
5.004024147197137784e-02 1.235476005881794639e-02 5.024560298873022024e-01
5.667547226556766959e-02 4.070125483661731630e-02 4.795886355580577520e-01
5.487322491860201906e-02 3.115294017349459418e-02 4.934980298535363019e-01
5.035192942319033360e-02 4.305913525910710568e-03 5.104124394908913231e-01
4.423180079743554982e-02 6.673059120575614012e-02 4.526180416524892003e-01
1.215908852359210909e-02 4.048091244877221467e-02 4.138520523301820742e-01
-2.302830574780105957e-02 3.721610922082483480e-02 4.147079170211305787e-01
5.248169162639988033e-02 2.005072339665408057e-02 4.955113439881493331e-01
1.676332520572100873e-02 2.973292022528910630e-02 4.217763043571519654e-01
-3.029047307039111139e-02 3.473491302023554855e-02 4.209788987288506368e-01
5.005623045508871688e-02 -1.746381694041589799e-02 4.627479758101820106e-01
5.730005710284204537e-03 2.683495254458842169e-02 4.036606457596600972e-01
5.622351348229200074e-02 8.565195674253971506e-03 4.645620662282632374e-01
5.405796346995700441e-02 9.357024686551749723e-03 4.941444440374405667e-01
-1.132811843767243636e-02 -9.679700673618871903e-03 4.337078916032309217e-01
4.634831833348046493e-02 4.847245823502856210e-03 5.166876035473729756e-01
2.435100134935849411e-02 5.580085209679363362e-02 4.292467032417877637e-01
2.234942023268735034e-02 4.011976374513388094e-02 4.269637616600651109e-01
4.707205025864016207e-02 -1.964669722848842379e-02 4.571877553339874778e-01
4.679893817162952135e-02 2.491476693201957401e-02 4.477991674969798996e-01
5.640493067443003161e-02 3.785492892585115565e-02 4.615397712633220184e-01
5.656105198469379980e-02 3.321520686895904767e-02 4.877295728953662812e-01
4.784234871358812591e-02 5.994909362655476137e-02 4.835642262951320713e-01
5.993249241164696692e-03 2.290392099019331051e-02 4.098661501835870191e-01
5.729525094279342562e-02 -1.576877854396888101e-02 4.809031113068890639e-01
9.821489248889776064e-03 3.322321040343902826e-02 4.040389897203456315e-01
5.044085246512848564e-02 6.312207173455768039e-02 4.698402427061256770e-01
7.767530948330110541e-03 2.694594167779684399e-02 4.054050243834573242e-01
-1.049113226493025852e-02 3.310902294110303068e-02 4.099293688173261119e-01
-2.074949025717886392e-02 4.653264701429130762e-02 4.138088419531910089e-01
5.062074408627884742e-02 2.195549019142166783e-02 4.515978924553006313e-01
2.706271417376267946e-02 1.904791258938841672e-02 4.334944617057686078e-01
-9.533902696152833645e-05 2.872007474456973047e-02 4.042601605771126150e-01
4.860032084491388432e-02 1.194472063188425567e-02 5.066626387501900197e-01
-2.523741585744558938e-02 3.858578548512586574e-03 4.310700698239453010e-01
5.477095580655228640e-02 7.389151766629486508e-03 4.607162807930165194e-01
4.593728278695820288e-02 6.570485659270601519e-02 4.765170302487974352e-01
4.373853340488294272e-02 1.608849707096893927e-02 4.450917315358309256e-01
5.423031226644005331e-02 5.399914279213391399e-02 4.610045076117780249e-01
3.483744456834841907e-02 6.149602649807998228e-02 4.414834657187714506e-01
5.955044824208591270e-02 -1.223813983639392144e-02 5.060190343648269806e-01
4.245578488784224058e-02 6.039347483817333884e-02 4.461330300246896252e-01
2.641688929415545242e-02 2.569994916444329897e-02 4.323481160834586334e-01
-1.975678539318877127e-03 3.394818960613803227e-02 4.041585578699831149e-01
8.754786396021662156e-04 3.128898407466757653e-02 4.028179707649212626e-01
1.694668668082739346e-02 2.742317369903068611e-02 4.224871057519440365e-01
-3.322382729346873981e-02 2.645073082260881656e-02 4.270981577820478492e-01
-7.364827409479875360e-03 2.433541586102252324e-02 4.126248137990621845e-01
1.780957690366383184e-02 5.989522076752764462e-02 4.306215444597636388e-01
-3.016844963159009615e-02 3.046938382184014721e-02 4.224506163671529202e-01
5.544670081013890195e-02 5.050112482542216258e-02 4.711368389838382353e-01
-1.978213498500681553e-02 3.835141157550864526e-04 4.308786261989304145e-01
5.733457162070090818e-02 2.730323813804807175e-03 4.854598733558858070e-01
-1.425048191885208357e-02 1.107501581707529686e-02 4.233363566761373931e-01
5.397759992065458146e-02 -1.765119413928512015e-03 5.113030936720710518e-01
5.806561084713925125e-02 2.285446011252409773e-02 4.668716793746069960e-01
5.400993212141025346e-02 1.385637086445782630e-02 4.916047658184488078e-01
-1.015990231999585984e-02 6.226356772195576310e-03 4.250965365780438043e-01
5.703275324460898438e-02 -5.201101530375219079e-03 5.079882266096259480e-01
-2.737640338847432964e-02 4.148471639063309319e-02 4.187018305568833143e-01
3.635317995323091023e-02 -1.189581925302959919e-02 4.419782350766747192e-01
4.845253633011698674e-02 6.544043892225155645e-02 4.699940201545766416e-01
4.823652858966219481e-02 4.945485068386763078e-02 5.035234839560950304e-01
-2.525958936985896880e-02 -1.955069678649903452e-03 4.339524004380385103e-01
-2.456867791906800283e-03 4.463277662196471485e-02 4.067558678128603278e-01
4.322648492663494491e-02 -2.515493747320062760e-03 4.468327275322452885e-01
4.187664929780640644e-02 7.073647105330631291e-02 4.582543612843059111e-01
1.190385432604384140e-02 6.572125778702141673e-03 4.298372941272234349e-01
1.863845500479138426e-02 3.723451096300051805e-02 4.234193433461315159e-01
4.766953956985255092e-02 7.146790618585981136e-03 5.125558576561113355e-01
5.598179095000809652e-02 1.781976939690151085e-02 4.605780792130098056e-01
5.109453672684360903e-02 1.406963577979596439e-02 4.524836917929647151e-01
5.749147792149431058e-02 -1.291004478914564799e-03 4.761423977499439353e-01
3.296397734108104383e-02 4.558558528158629386e-02 4.360785174097222550e-01
5.179985421354078162e-02 4.827033929847327626e-02 4.534355373260102740e-01
2.521764178559602471e-02 5.562952525077270033e-02 4.297544224064072660e-01
-1.051905725333168035e-02 9.045523065049822925e-03 4.236111382129053027e-01
-8.377167955051072548e-03 -8.258638908032335524e-03 4.322725001921112198e-01
4.512280933602534627e-02 -9.914731576416941500e-03 4.504938030621850054e-01
4.414183105542052177e-02 -1.324504043852727311e-02 4.500050003250709585e-01
1.759952163924024746e-02 2.187079709327929139e-02 4.253315891795909631e-01
-3.321537904812636721e-02 2.574799615526394275e-02 4.273349239679045675e-01
5.124471312354443586e-02 -2.218218915839288360e-02 4.668668654686548569e-01
5.039828570612136377e-02 1.847453853025862389e-02 5.002677415018284002e-01
2.278237968469322763e-02 5.099258236745852352e-02 4.274752403595022399e-01
4.853432305068360736e-02 9.203150377162893150e-03 4.497789421280389832e-01
5.808922072462160274e-02 -1.022639493973672396e-03 4.841062865427706585e-01
-9.691599836392913656e-04 5.168869984655143773e-02 4.098601264161207403e-01
-4.287735972500270401e-03 -1.158500553316824805e-02 4.329361214592853391e-01
-4.097792923687327421e-02 1.242110458436883769e-04 4.411126363083140989e-01
4.891243920260576056e-02 3.883372434032362347e-02 4.499449211572728591e-01
5.244483276209200434e-02 -1.040180074928090913e-02 4.648659064276060571e-01
4.563635617985561943e-02 5.325247090611832240e-02 4.473114262965560139e-01
4.688356776006934179e-02 5.949815162748650632e-02 4.859797065826033657e-01
-8.578103908865040636e-03 1.715977016494462520e-02 4.179661379498869622e-01
4.685952956254334223e-02 6.396989261973087815e-02 4.531925603224774002e-01
5.659543525578930590e-02 1.698196872899232490e-02 4.843055064624764983e-01
4.747018703054166344e-02 9.024317325209675611e-03 4.487764281521782750e-01
-6.276212239995505870e-03 -6.100432504395010601e-04 4.296012645458050505e-01
4.302455581863055822e-02 -8.926174802602149932e-03 4.476734405177923426e-01
1.908774444024741515e-02 7.182308712204215836e-03 4.324544417902961846e-01
1.085234987835064294e-02 3.209297046300328693e-02 4.081082281111024224e-01
-4.903100295175735063e-03 -3.815670238293621119e-03 4.303052183256917407e-01
4.991816207552598333e-02 6.257712526388549412e-02 4.732242847449356637e-01
3.314934106796512542e-02 -1.928456671997912444e-02 4.411983317412968564e-01
4.927958728226281004e-02 3.932559963368197076e-02 5.058122515331801017e-01
5.399487749146686388e-02 -4.732833330078580446e-03 5.142967892308912825e-01
-7.722789960363077126e-03 -1.155081961971981749e-02 4.335408166254691720e-01
2.799946792473380353e-02 5.766934348472020633e-02 4.339332653606799428e-01
4.576199302568674521e-02 -8.832862160940181673e-03 4.511034142892363930e-01
2.930221361160770255e-02 -2.198627891802713841e-02 4.399931655043490264e-01
5.026148143041175853e-02 5.930124843304958315e-02 4.792709339703709603e-01
5.876970162855642971e-02 -1.043181078739334640e-02 5.092533739606487364e-01
4.535673950545583699e-02 5.220497999173134146e-02 5.028927394195671363e-01
1.731973475017676081e-02 6.063138036426220928e-02 4.344008668519585004e-01
5.197025047832962152e-02 3.852707430408747191e-02 5.008144322279072247e-01
2.601474166748250771e-02 5.817820536134999526e-02 4.326574840552444567e-01
3.910616401229042444e-02 3.448422391963892886e-02 4.413419556638519259e-01
5.513598863449908904e-02 6.270619831442562214e-03 4.621776670736854054e-01
1.554976953187407925e-02 6.079670749828258031e-02 4.326516860180855684e-01
1.482706941292128572e-02 3.874073417322591167e-02 4.185311022523672264e-01
-3.132704839616543002e-03 2.292554103467580109e-02 4.103932255090191328e-01
5.100530997188572335e-02 5.974443574922101013e-02 4.748425059586915964e-01
5.620028089054796006e-02 3.323589513732280731e-02 4.599571148329479331e-01
1.594167497415539814e-02 5.240764152008464682e-02 4.212897082260362858e-01
5.492675795364835439e-02 1.320038762705265031e-02 4.586807303943301051e-01
4.662985959335012864e-02 6.631729819832711537e-02 4.740903870239420725e-01
-1.299808746791600734e-03 2.605815633338084622e-02 4.071430976782530742e-01
5.372243823537579260e-02 -3.911516528051411923e-03 5.136811229399648182e-01
5.385518060537564100e-02 -1.426764679047877026e-03 5.110042335136116831e-01
5.512366702075082586e-02 1.216358311534380607e-02 4.596576479992596775e-01
5.409842523888885868e-02 7.637422385959251152e-03 4.587805152544686127e-01
-2.897467308363663521e-03 -7.452290074135069914e-03 4.312009416744511103e-01
-2.004247481385049157e-02 5.009689635288161469e-02 4.183362696123560376e-01
5.471782988353533772e-02 4.968818371599897227e-02 4.812247064945993080e-01
5.534336672870347751e-02 -7.341676067424974562e-03 4.693651299772141350e-01
5.697344630293448703e-02 1.041319884565250140e-02 4.822669135229764592e-01
-2.813241023918431651e-04 1.778737267378793785e-02 4.161173166301545545e-01
4.496683472607972826e-02 6.649859546766209717e-02 4.752866253554072218e-01
-2.680106992984010797e-02 2.883078325180454121e-02 4.202648791559639996e-01
1.404598709352564839e-02 5.760426496681040481e-02 4.226609237336678149e-01
4.489595742118461519e-02 3.581657911008327005e-02 5.130532309232800348e-01
2.925665804689417393e-02 -1.897210396338758903e-02 4.391978798389535865e-01
2.389648922038407897e-02 4.690913835713009239e-02 4.280284845883451927e-01
-3.381734356895525068e-02 1.738351503061535616e-02 4.336029705786276223e-01
4.865161202428715248e-02 4.423561891834606324e-02 5.060461247288903230e-01
1.201707504689294471e-02 6.136796121732011888e-02 4.307950342583743431e-01
5.775869148128635194e-02 1.599699340248320750e-02 4.757615961065030374e-01
-1.945488563124162526e-03 4.237137966029490971e-02 4.063506815700687613e-01
2.066883397588312882e-02 -2.539393309716543676e-03 4.336367904471060686e-01
5.082394133459302438e-02 -1.632994896189139677e-02 4.639918936436208119e-01
2.707294889912174526e-02 2.629872456356711560e-02 4.327836661224265802e-01
4.904463828619896881e-02 5.086471580616453575e-02 5.002569435309717205e-01
5.713134881554669808e-02 1.017928914320357682e-02 4.676153487015706212e-01
5.824456089467171943e-02 -1.278477285718627662e-02 4.856075965544254802e-01
3.601961259079906885e-02 4.765929038352238398e-03 4.399190384696742839e-01
5.252888282466725012e-02 -1.717506620477059556e-02 4.683408384055291473e-01
-9.565293894709626585e-04 1.187076074443407271e-02 4.216312261360802283e-01
5.780870651930791748e-02 1.623439345987854211e-04 4.887468196673393495e-01
5.162754308892496258e-02 5.730675200535406688e-02 4.567629461610559494e-01
5.497591769268916212e-02 -1.448205973059127696e-02 4.733170437147325993e-01
5.565122517475507014e-02 9.671849829575395949e-03 4.888858749875160115e-01
5.032487947019776559e-02 -1.054683295065789519e-02 4.601859900892635857e-01
8.140967366360654309e-03 2.585656194992486459e-02 4.084455638034264480e-01
-1.586075681246594885e-03 1.369069637915287449e-02 4.201834133350755285e-01
4.814500961201843149e-02 3.999655040945918061e-02 5.076369439638414027e-01
4.231856502517414992e-02 -1.025342771621157514e-02 4.470433395366196772e-01
2.571008780698236240e-02 5.163406627980805970e-03 4.351807183304984283e-01
-8.171363960645900565e-03 -1.069239367567819884e-02 4.333993784226266577e-01
