7.474341637447805275e-03 3.254665894515820779e-02 4.014652526918049968e-01
5.045694347174811689e-02 1.174724370820579358e-02 5.020194147271943574e-01
4.947166620691634958e-02 -2.194226453712889296e-02 4.632197644094467326e-01
4.877944973752596641e-02 5.941226564724152309e-02 4.832730730030770916e-01
4.422825643225295096e-03 8.121839585626242433e-03 4.254843826370965920e-01
5.929768032689426878e-03 5.792538307597437652e-02 4.159635697748473859e-01
3.989489971115993405e-02 6.805955663006744982e-02 4.671439776902704955e-01
4.113148720582208984e-02 6.701446472686306555e-02 4.749218506851080601e-01
3.596324314751236928e-02 -1.001414684627446178e-02 4.411939205642897432e-01
-1.860612462229642786e-02 8.775419347097256767e-03 4.259200525222168743e-01
5.748044686484814897e-02 3.178090010521182618e-02 4.618286561614759478e-01
5.667623972446887010e-02 6.559370006417284370e-03 4.878362922680954950e-01
5.854510976439642606e-02 -5.366766380855366586e-03 4.916390899185271168e-01
2.566643599022522260e-02 2.096672429607357793e-02 4.313327347563121750e-01
-9.174443197480914441e-03 1.826731045684468549e-02 4.170999882175763784e-01
-1.991950238594444866e-02 4.573877741455060347e-02 4.122776442432231625e-01
5.055398042723475982e-02 5.263390047231697455e-02 4.513749765036621509e-01
3.405409058470648676e-02 2.192988114911274128e-02 4.372009508159933611e-01
1.915926877549006466e-02 5.537078238252064744e-02 4.234183628054613013e-01
3.700987856534874998e-02 4.116596996833910699e-02 4.386298240042175722e-01
3.912603765094525843e-02 -2.248361131293008519e-02 4.470619222226606126e-01
5.209438482048142638e-02 3.409383356013429706e-02 4.525159510497046567e-01
5.086834177555942665e-02 4.205609831225706058e-02 4.513238282575287030e-01
-2.282852525390353764e-03 1.459391238946234140e-02 4.183745640399400556e-01
1.438296431071345825e-02 4.030879953788368830e-02 4.146766678877284451e-01
5.766611327000403103e-02 4.072035538520972497e-03 4.738383819050583923e-01
5.128712147628361473e-02 6.331160817849096345e-02 4.671404251053724033e-01
2.358312185742243022e-02 4.292226131689662327e-02 4.263076203672753195e-01
2.224701180387209445e-05 5.070225398027511376e-02 4.074254647717424627e-01
3.031373668280562886e-02 -5.788186464741362433e-03 4.370290525919981461e-01
2.163243234189097391e-02 -1.456913988268980758e-03 4.336378041741917877e-01
-2.317696171773359765e-02 1.047703388973720076e-02 4.274467055785185488e-01
5.521981904469411284e-02 4.444874222278953624e-02 4.567916665253516917e-01
4.382883494486499582e-02 -1.824575812011795459e-02 4.508083999947194997e-01
-2.076535150055263540e-02 1.928425891672248468e-02 4.210257280148321790e-01
-2.152891151660654007e-02 2.546952491353261100e-02 4.182666171504204611e-01
5.126785681489910707e-02 8.339150021537263327e-03 5.023129919649833575e-01
4.611089083134373157e-02 3.296619105014440138e-02 4.462838372644648000e-01
3.641028694823914696e-02 6.491019863355386443e-02 4.459831313965458843e-01
-3.526972596019140038e-02 1.029363580501100467e-02 4.387207883914733264e-01
4.602236250463553197e-02 4.429364953883403039e-02 4.458982411796928447e-01
2.151165471483913391e-02 4.513997289051974171e-02 4.242490732655498920e-01
1.587973264511866392e-02 3.430015378042188673e-02 4.178417304489079331e-01
5.751866875334201573e-02 1.077392403822386921e-02 4.675111701227481764e-01
3.663854701580084028e-02 4.314731090811195491e-02 4.382829692167671820e-01
1.175567216473639640e-02 2.685057771869164833e-02 4.121221103050162204e-01
5.113732949712360143e-02 4.297530644893159113e-02 5.025365186780592630e-01
4.631323644368667142e-02 -1.048728861952210982e-02 4.521397653180673770e-01
-3.776421351389210729e-02 3.586169142298296572e-03 4.406846201369523652e-01
-1.008344564406663327e-02 -1.217482983047664044e-02 4.341745061338728173e-01
3.476543689560135375e-02 3.824910659251385195e-03 4.389057622251493207e-01
1.889188287776496014e-02 -3.275137431124282988e-03 4.329942565436158963e-01
5.378090415914865002e-02 5.793201803742973471e-02 4.625137241668113020e-01
-3.054120507309155633e-03 9.274074091494294986e-04 4.286559228436704894e-01
9.934001200223275055e-03 8.947379256572112610e-03 4.269207672988131752e-01
-4.008888938097566329e-02 2.597575187218876223e-03 4.418601720943187705e-01
4.225086447789642985e-02 2.262446025371635944e-02 4.428181029803104907e-01
1.953145037708670442e-02 5.277595122512949988e-02 4.231422972683411832e-01
1.374275407177579650e-02 4.005267739042690789e-02 4.136920650216849848e-01
4.549600803189887688e-02 1.087008908422656094e-03 4.479306572593700908e-01
5.647815310995553395e-02 1.599223248232542124e-02 4.855918864135000956e-01
5.914744977549468707e-02 -1.192085789071400254e-02 5.104798758127890856e-01
2.553623710936052393e-02 5.397305131461886327e-03 4.347549365251299758e-01
5.034771700894676016e-02 2.050236132481129958e-02 4.507184086802217826e-01
3.043202979381620654e-02 1.708938200200853588e-02 4.351981845262452575e-01
5.804570522580115161e-02 -1.248642242427221855e-04 4.789066394634332591e-01
4.899074155910032591e-02 8.236850403558248004e-03 4.498279497013893402e-01
-3.387715741372210321e-02 3.544083255103353328e-03 4.361662334320386969e-01
5.432242145183287935e-02 4.329379191029290169e-02 4.948047906627585646e-01
2.819151614296147579e-02 -1.118707319919542932e-03 4.361731144506112989e-01
5.731854568931420840e-02 8.772703958891073933e-03 4.823712984015808281e-01
-2.928211939773033359e-02 1.686098134903728576e-02 4.275271856866734721e-01
5.375195253184279764e-02 -1.979856502332643861e-02 4.716854099301165948e-01
-2.759761470325185553e-02 2.497588928611731152e-02 4.221057869713654154e-01
2.543847624930853021e-02 6.194429818382062025e-02 4.381498912898718623e-01
2.109484283541978797e-02 5.174480089044654341e-02 4.243087881511675152e-01
2.620568427766924169e-02 6.443931466434492383e-02 4.445569969296123136e-01
3.179845075613527139e-02 6.057194018917488182e-02 4.381359805439349886e-01
9.158365377698444477e-04 8.018976206537561935e-03 4.240255989442378026e-01
-5.430136236051323791e-03 1.265123602389054205e-02 4.198512078441086204e-01
1.575077028049335845e-02 3.949618279220248190e-02 4.174525603517487138e-01
5.010363507355957563e-02 3.983076651500976756e-02 4.503801042556415668e-01
-1.739606286304203400e-02 3.129680395246058067e-02 4.134824822230163122e-01
4.750330632377657014e-02 1.190992708299919330e-02 4.480084535320680850e-01
2.702028508058705591e-02 3.091494506115062893e-02 4.310404101052812131e-01
-1.765055507213662833e-02 8.346928163983923649e-03 4.256438623769065455e-01
2.804284195758026746e-02 3.516267481896115377e-02 4.313465733681401959e-01
1.726243601929883589e-02 4.117632986030179271e-02 4.196810322372303559e-01
9.007913107724387775e-04 4.525470355602511513e-02 4.058145408968611978e-01
3.350597859918769822e-02 6.424989019033881810e-02 4.418755792422023321e-01
5.791874300289193145e-02 2.207420361320501512e-02 4.804757951486003931e-01
4.688114104433544621e-02 2.742883009561599902e-02 4.470879571833309418e-01
2.038233544054993129e-02 4.298172158594882469e-02 4.228367933319037708e-01
4.828502283497648762e-02 4.284715780173132399e-02 4.483131443286904605e-01
-1.457389278322681128e-02 4.750313061314889729e-02 4.096039784896471914e-01
-5.593105106532040259e-03 -9.884009069488707347e-03 4.324190783922077230e-01
5.830085544403946357e-02 -5.323688108287301032e-03 4.885139239955672008e-01
3.434225828101802359e-04 6.618899214527808848e-03 4.249840187295509941e-01
4.530330520822145601e-02 2.546952073028454361e-02 5.122124697962260331e-01
5.724377904280279240e-03 4.709943271705082507e-02 4.076502191527457963e-01
5.825567248480339327e-02 -2.173211298091675021e-03 4.904714641951887222e-01
2.195382447833754691e-02 6.047325108171738850e-02 4.341385334668266260e-01
-3.290620606485868821e-02 1.119239453171085551e-02 4.350690582875544887e-01
-3.512986295950232957e-02 2.002552023354634697e-02 4.351654067225502187e-01
4.928454076527521988e-02 6.513354604776348811e-02 4.599387214341119079e-01
3.145412619448238051e-02 -6.047418269813536681e-03 4.377222691099514340e-01
-5.848534513758938021e-03 -5.770353530509846757e-03 4.308126916234107928e-01
5.836909223927432694e-02 3.618475995114081578e-02 4.735233954261126588e-01
4.998418739737977429e-02 -8.842636032394615708e-04 5.164190695254047281e-01
5.443445466899259760e-02 1.575339941754296327e-02 4.910024067163323847e-01
-7.123663114875320758e-03 -5.506578083080183178e-03 4.308859103068344854e-01
2.189316428203645897e-03 3.934913125175345389e-02 4.032505373928709780e-01
5.142032220918875407e-02 3.095385601568054201e-02 5.012100548089601926e-01
-1.021308736827012537e-02 3.734105408431788453e-02 4.078246312898403114e-01
2.911594132495403525e-02 1.806592828737765832e-02 4.342318986622114019e-01
5.452779999253518084e-02 2.118802855656145429e-02 4.913104007962528774e-01
4.614649989820168025e-02 6.810487457454326987e-02 4.604690464895791480e-01
8.187937147604601451e-03 1.806723435360242658e-02 4.188547727579509106e-01
4.733754264413330554e-02 4.144623780621363440e-02 5.088798579341615724e-01
5.743218579855482314e-02 -4.298625355773509106e-03 4.746571481055191777e-01
2.026388913160386690e-02 5.783397396744639762e-02 4.269004268995293949e-01
5.539090616784266008e-02 1.886942945302117966e-02 4.576106000899437531e-01
5.239470587226800757e-02 2.852588621367573712e-02 4.526780619437760778e-01
2.335130230744254104e-02 -1.437214823478034746e-02 4.360574469354738802e-01
5.893449569622826595e-02 3.005652178926537105e-02 4.690812265126857450e-01
4.669119938988176149e-02 6.707963113246884213e-02 4.682077353539275677e-01
3.958948320515319474e-03 3.731181966245595422e-02 4.020225461390366517e-01
2.730687002231789451e-02 5.726341337632312456e-02 4.315762986136532642e-01
5.643608861195766740e-02 4.867117421051300047e-02 4.704524231324582195e-01
3.280172239373566577e-03 5.197245151693405743e-03 4.269842672682346851e-01
-2.446562752475944791e-02 2.119229420219671117e-02 4.216353563705571017e-01
3.327136649576441230e-02 6.448987973707641375e-02 4.426332509923692204e-01
-1.048059930545459408e-02 2.442443502013820142e-02 4.140116345200224313e-01
5.411904157050308889e-03 1.431436387939453644e-02 4.206701277238151793e-01
1.138632155505737466e-02 -4.086893203141969905e-04 4.308210924776725292e-01
3.256820390564349466e-02 -1.484340078224109447e-02 4.396270039484162506e-01
3.041594517964638436e-02 2.359459327235901779e-02 4.344246504471665493e-01
3.967082920428371962e-02 -1.626292283150711573e-02 4.453832458214236345e-01
3.730964477194579493e-02 -1.363008872507721556e-02 4.427422088517857790e-01
5.311207691204748033e-02 -4.172066043217216146e-04 4.590463286972878421e-01
4.186861729370388446e-02 4.273171403225883846e-02 4.423213577759353421e-01
-3.091721693267786286e-02 1.991089721166451609e-02 4.266304170693172026e-01
1.013984317728687003e-02 5.269800903832813112e-03 4.294459527725832393e-01
3.310124566556960773e-02 -2.571863330440618892e-02 4.436644348108330638e-01
5.557757227261273664e-02 2.325876192398709796e-02 4.576550860997853354e-01
3.369954301293275750e-02 4.899656044503146457e-02 4.353420927190007061e-01
1.553843039942935655e-02 2.731998650561687919e-02 4.191590852857896010e-01
5.602678678115134703e-02 5.025978043325580319e-02 4.688036111229991199e-01
5.657966083827367654e-02 -1.585939001560032237e-03 4.983242235552570731e-01
8.961123937785954452e-03 6.589997159083821852e-03 4.281001168783518107e-01
2.186637004500707054e-03 -3.044212540261448992e-03 4.301154051718312221e-01
3.869329672909037343e-02 4.921218337142702071e-02 4.396706430908699503e-01
3.369395687112281684e-02 3.811175929660748363e-02 4.362136290153028062e-01
4.680141949427470138e-02 3.265167636290591813e-02 4.469024341313357351e-01
3.151185705192790371e-02 -4.588902500214805946e-03 4.376928478421694968e-01
4.169997099020213843e-02 5.147880463866816303e-02 4.423633639827504460e-01
1.485969662501842453e-02 1.285635021384895146e-02 4.272397344087117133e-01
-8.446722269239323802e-03 2.970187279514894391e-02 4.101382813929584925e-01
5.489380927910345043e-02 -2.457931358373934266e-04 5.051061453069443097e-01
1.750785065604648638e-02 -1.406120217437680994e-02 4.347749694167690748e-01
2.291652714872298435e-03 2.338255624006631977e-02 4.074432394281268244e-01
3.756222335247987043e-02 3.103468865942730220e-02 4.393909678026268750e-01
2.529152466253092868e-02 3.506855374104347195e-02 4.286305612970557344e-01
5.500203681316141041e-02 2.923368743712120507e-03 4.987786714131659527e-01
5.549481693405940164e-02 4.462039846243300023e-02 4.872475938466410694e-01
5.489239187382809887e-02 1.044057112408031118e-02 4.585557971876288441e-01
2.146543000886205060e-02 2.946807982959324945e-02 4.256676782054614749e-01
5.842475167379278939e-02 -5.730346194880911632e-03 4.849785229722405333e-01
6.495743100204200843e-03 -1.926844104753430709e-02 4.371017114297365835e-01
4.675592348067988957e-02 -6.609696373132491242e-04 4.495445970955807002e-01
-2.088960408907384464e-02 1.282218470081295317e-02 4.247947953484210171e-01
5.579815015304812054e-02 4.989418982438304992e-03 4.919157995918989057e-01
1.071646527457858307e-03 4.563156884448799078e-02 4.058962522386762584e-01
5.010935092936882884e-02 1.581373747100155505e-02 5.010161876760138577e-01
1.026518699971892823e-02 1.687470023837134292e-02 4.211194137351884637e-01
-3.442699998372640569e-02 4.268664315251972236e-04 4.373717030573491260e-01
5.527981853063836798e-02 -1.587348663262000761e-02 4.744091396815522388e-01
4.406546620666736136e-02 -2.162614356340267219e-02 4.534445599175315755e-01
5.621948061580879508e-02 4.883539431929623947e-02 4.651860221656930472e-01
4.449323343994076446e-02 3.963673812499167448e-02 4.445652880632257054e-01
5.516929658428676442e-02 6.570779853895918933e-03 4.611413745621697480e-01
5.279385820216662278e-02 2.023056220963403463e-03 4.570038667604737204e-01
5.271447629946345720e-02 5.847562765861061274e-02 4.716664291605993098e-01
1.244853256919356901e-02 -6.092652539068654782e-03 4.318439159412855721e-01
5.532016450365149357e-02 7.923448141795956523e-03 4.915031140737301518e-01
-3.743497592142006059e-02 4.223413958019402170e-03 4.427507798659535698e-01
3.549434626771987011e-02 -8.800674739082697470e-03 4.406882199095601416e-01
5.293445176557300819e-02 4.881847880791095884e-02 4.537486025857072613e-01
5.144048267494197302e-02 1.539024608934639292e-02 4.980455490426232701e-01
4.527971663532501245e-02 4.590648113512470208e-02 5.110928825603757719e-01
4.914044374751452143e-02 6.538127177343425189e-02 4.600847896870096099e-01
3.724699816340077720e-03 5.222680490383286439e-02 4.098659878438598581e-01
3.325180969899155237e-02 2.101499824908925271e-02 4.366863140282388756e-01
4.213831156231997999e-02 2.525285471808820688e-03 4.446924706426845231e-01
3.854588352493748538e-02 1.873324257201926246e-02 4.402011393033902209e-01
1.270085689937644566e-03 2.870843587027288243e-02 4.031740228057231756e-01
1.090700939326653615e-02 2.179899351034448804e-03 4.304067230586653969e-01
1.174614604091108339e-03 1.788576469591696833e-02 4.156313676062735052e-01
-7.947054935140352577e-03 2.119781950648169655e-02 4.146557450724194238e-01
5.873407607359770050e-02 -9.870196046007379681e-03 5.057706011802884927e-01
5.875865882152671305e-02 3.333317203444401827e-02 4.697021911719205245e-01
4.148064328000511392e-02 2.320870543275527567e-02 4.422434820159686919e-01
-3.114596575965794534e-02 1.161602960952588456e-02 4.326604872301536009e-01
-1.548944188234353640e-02 2.591183358503704875e-02 4.151843726020325032e-01
-2.614878771272279023e-02 3.015855215411665860e-02 4.191173001577707113e-01
2.618330231800187688e-02 4.810844601854161184e-02 4.285882969694542743e-01
1.178852964469177464e-02 5.681977481576958033e-02 4.179095073416428940e-01
5.739735590502759860e-02 6.006983286169637060e-03 4.838073325526708324e-01
5.815278712229209751e-02 2.115015079565961756e-02 4.790563085469597415e-01
4.747055821277552934e-02 5.945133241989156159e-02 4.495123762613431606e-01
5.562587255874086589e-02 3.719901799212875504e-02 4.577247318733903558e-01
1.801331831791010488e-02 8.018533489235372264e-03 4.313217153418720251e-01
4.494820716457762627e-02 8.437237484037541160e-04 4.474626827504894488e-01
5.759597024115264280e-02 -1.101898796638134392e-02 4.815707909787609875e-01
1.412728698225203770e-02 1.708763601008795544e-03 4.312705337986472709e-01
2.832966247828761636e-02 2.270956369900111599e-02 4.331203181524809764e-01
-7.483257605271622856e-03 5.010783544315797894e-02 4.074238860454711397e-01
3.751122592942494199e-02 2.484933423073228467e-02 4.394748799230405734e-01
4.576935893866716093e-02 4.401535025378010973e-02 4.456193172543875813e-01
4.957103147113803981e-02 5.787692563079423202e-02 4.514763157890009371e-01
5.763491199628972134e-02 1.772217086517336674e-03 4.737922942563964623e-01
2.082167581053018246e-02 4.252835690937575158e-02 4.233765137807845580e-01
5.641809095950674896e-02 -4.382922999215943527e-04 4.687394837600872832e-01
5.574815813611316145e-02 2.616114353061829018e-02 4.907051537660984675e-01
3.321543276368631864e-02 5.927201673096665208e-02 4.381772097619271999e-01
5.066966082850205000e-02 5.374042408239747964e-02 4.914963180985501001e-01
7.142305948509114835e-03 1.092037389410247840e-02 4.244352400154361438e-01
4.984762368206301780e-02 2.596014756413562649e-02 5.031801680996602633e-01
-1.099088759116547548e-02 3.036349215227614542e-02 4.109230944878663472e-01
5.613099133666500651e-02 -5.244905073609949960e-03 5.117540309765055140e-01
5.000186933743444584e-02 1.981897338448871532e-02 5.017204355756220702e-01
-4.477793993220027108e-02 7.526762493372583882e-04 4.457401575788581538e-01
2.780167698509185617e-02 -6.343330634103563383e-03 4.359770682455125224e-01
5.605393064565755007e-02 4.817872947189988375e-02 4.771554257177578195e-01
5.202266000195147205e-02 4.687470990439598223e-02 4.972297545381841877e-01
5.099292774949533424e-02 1.530890726209279372e-02 4.990065405813962629e-01
4.543722633779757186e-02 -3.259167335828402727e-03 4.487061530460061953e-01
3.360520862654207269e-02 5.629282795961062374e-02 4.363883897681840041e-01
5.472361983293859422e-02 3.268522747208613827e-02 4.560174928372907610e-01
5.749425255150661385e-02 2.305429672090577795e-02 4.624275493432618012e-01
2.094685831953394320e-02 -1.920577912654134606e-02 4.368535515515484802e-01
-1.495378843548531272e-03 2.750511311054926536e-02 4.067073444504227253e-01
5.427481852155755654e-02 5.428255750184357575e-02 4.738582599637102266e-01
5.322146869665136254e-02 -1.249678010864771135e-02 4.672055233917438710e-01
-2.713431363585549691e-02 3.124717386576984432e-02 4.195309143554353803e-01
2.945996508117979668e-02 -1.605620211746797144e-02 4.383533448033542501e-01
-3.069774843863530209e-02 6.395233571457365970e-03 4.342266239108282799e-01
4.828848534095445816e-02 -1.784088372884786583e-02 4.583875113919386179e-01
5.132327236402201703e-02 4.847722223093448024e-02 4.973023002353962885e-01
-3.095373525030472098e-02 2.470461765693324208e-02 4.248708558650499123e-01
2.651277862082624531e-03 3.809253739234590846e-02 4.025705370681755269e-01
5.569131796311771465e-02 4.924260142105739424e-02 4.779402134248179612e-01
5.888327765565447292e-02 3.105260855093982739e-02 4.717455575538964108e-01
1.896094471746562248e-03 4.352090558190679220e-02 4.056572251407998819e-01
-9.667293550520605211e-03 1.182554268503069675e-02 4.215152064690029787e-01
-2.413157966741489788e-02 1.498953630350404430e-02 4.257021781537836946e-01
1.455823523348577682e-02 6.089195613969358017e-02 4.288197891742023260e-01
1.740305130736406400e-02 4.708713477422320909e-02 4.200198813621643379e-01
5.365901835543593346e-02 1.561937911283262440e-02 4.930959647107650001e-01
4.927311508863680550e-02 2.219721255496458212e-02 5.037497336641217904e-01
4.049635192680135082e-02 -3.153892244071337080e-03 4.439900011000266766e-01
-7.663712029371752034e-03 -1.532043641651449281e-02 4.343417334712212918e-01
-3.121054088712409136e-02 2.500419275861694504e-02 4.250423059811547777e-01
9.708777735534751194e-03 2.361288018555877249e-02 4.139128875889818704e-01
5.490493950052818123e-02 4.657356240807357384e-02 4.878344994610519514e-01
-1.676244047924135491e-02 3.233852671284383196e-02 4.127148120971230183e-01
9.294914997765482689e-03 1.444429039490304802e-04 4.303940940737681631e-01
9.716699548921145166e-03 -1.776882149960908736e-02 4.366096146348791285e-01
-3.304023357427707253e-02 1.388630259481062577e-02 4.347839923731113831e-01
5.079628556342076495e-02 6.062362634252762422e-02 4.757611909915329673e-01
4.113123273437888777e-02 -1.605633472520800673e-02 4.466004743724819592e-01
2.498770974863027960e-05 4.037590985220052692e-02 4.040481048320598290e-01
5.815903483152534692e-02 -6.951972059888906173e-03 4.835528230544503536e-01
-4.474959289213575886e-02 -1.194407672476124893e-03 4.420498144028983112e-01
5.218617279099618811e-02 -1.427695102425329335e-02 4.658194972592064054e-01
5.025828972752819507e-02 3.432023432722040163e-02 4.502625867244336444e-01
2.040412819675513356e-02 3.071650763522354791e-02 4.241096563396066776e-01
5.332958222952231125e-02 3.472308165970579286e-02 4.542534939069540756e-01
5.268025254184852818e-02 1.735972201506665383e-02 4.536284914091731624e-01
5.061468610088962899e-02 6.422180657621799453e-03 4.517208992970498382e-01
1.117925562653609810e-02 3.241934947115202720e-02 4.047732486688666587e-01
5.142752623380944521e-02 -1.295944327401361840e-02 4.634462246780685080e-01
5.262452632645663736e-02 -1.398202105904111647e-02 4.666894703961915192e-01
5.478582117113080935e-02 4.733925721583340240e-02 4.561247208842543754e-01
4.687556416893056549e-02 1.415332516865479284e-03 4.491799253261917757e-01
5.535392343638741164e-02 4.234446935067861378e-02 4.910556272390602106e-01
2.686924403133629166e-02 1.042555753663844745e-02 4.342153518472166573e-01
4.986000768446986753e-02 -6.529042863036491756e-03 4.554976050487185013e-01
2.939836725478512519e-02 -3.192830251784457667e-04 4.366973292254076600e-01
4.630947048147941031e-02 5.321131020225993574e-02 4.469536951563943816e-01
5.884598879139355670e-02 2.740325054297397880e-02 4.718049744782300547e-01
5.447498008927547514e-02 -1.377748392373363481e-02 4.706144871979547339e-01
5.883978620748035043e-02 2.883503259617138659e-02 4.751735235107918398e-01
2.846682705791566542e-02 -2.345870323195797455e-02 4.397479497968154738e-01
5.579868888062410048e-02 -5.745566380429277184e-03 5.132033686125936356e-01
3.547259409973648608e-02 7.061884541495398043e-03 4.387025156236952217e-01
5.622724259930123036e-02 -8.717101571403837110e-03 4.733079424835270888e-01
5.603831051611114084e-02 4.309878222048715152e-02 4.846493419047839812e-01
5.346456351791979700e-02 -1.084897581391735741e-02 4.669287158450811104e-01
8.909828132213686025e-03 3.727003906909712172e-02 4.065807870218223763e-01
2.050738237820846216e-02 4.472274546920683262e-03 4.331313997845586683e-01
4.032536991979443486e-02 -6.979969997277819284e-03 4.443132869393909279e-01
1.169799883410157018e-02 2.104992386109039854e-02 4.186615571698863447e-01
4.892395903703254667e-02 3.333708895685000284e-02 5.061907215305156971e-01
1.387438501835967612e-02 3.929965006083650791e-02 4.139225330672999248e-01
1.378666203347988194e-02 3.322589635739282843e-02 4.114456454085915760e-01
5.489848828235929096e-02 5.221143310886454392e-02 4.755522233631930273e-01
-2.507430787491048488e-02 1.057423320489507546e-02 4.287083690842301564e-01
3.976816251667623231e-02 3.908591328864941677e-02 4.408245143693855783e-01
4.336314545714845675e-02 5.655713798135569154e-02 4.449655252197490252e-01
4.758134165163747237e-02 8.484038105189418977e-03 5.116898269673741950e-01
5.309795103341109074e-02 6.469930086634769276e-03 4.994149826743826126e-01
3.234710970859910190e-02 2.754907867099381374e-02 4.356294376772430477e-01
4.965212108537512409e-02 1.963618861026106277e-02 4.500334337772329829e-01
-2.666492035240853112e-02 3.229717210656939119e-02 4.187434528405925005e-01
-2.749001716860633923e-02 3.319473529214731627e-02 4.190949494423668042e-01
5.850801398316981400e-02 2.762570485063770009e-02 4.788384135367310113e-01
-3.334290138338075887e-02 2.644867512117943242e-02 4.275686304042379260e-01
5.328221987247767910e-02 2.219972077191970788e-02 4.944683121596540887e-01
5.238949002793237553e-02 5.875355803963981660e-02 4.726280573504900717e-01
2.401880081629829619e-02 5.212733314532941309e-02 4.271701667844449712e-01
-1.145397022868922983e-02 2.611538599922174058e-03 4.277535036319405903e-01
1.959436251377564067e-02 5.617334374099774291e-02 4.246103890087597477e-01
-3.266841229810013569e-02 1.143697096042406783e-02 4.347044521998298938e-01
5.738189440061929741e-02 4.224748712717715793e-02 4.639321937835260701e-01
1.249739437687871768e-03 1.175127869977607084e-02 4.213378768198383639e-01
2.831618042691430581e-02 -1.542396180375401986e-02 4.378396762992690650e-01
5.164858050363024117e-02 5.742937753918530945e-03 5.051172250479341042e-01
3.446238955773063550e-02 1.930831184644590456e-02 4.375558896663618302e-01
5.590327262406489389e-02 5.047553981194964623e-02 4.726398302720556388e-01
-2.379222819733223249e-02 4.029088788753314165e-02 4.154160819739643462e-01
3.892364636883016704e-02 1.361608894223702987e-02 4.409006242299678413e-01
-1.003775252232250344e-02 1.806036780000764945e-03 4.283864110374658862e-01
3.465128557069729887e-02 9.492543626634002488e-03 4.377966813334893126e-01
2.422847807912414941e-02 -1.877447457720881827e-02 4.374009339185847001e-01
4.099531998182717740e-02 5.496831721531891118e-02 4.424688079516592154e-01
5.389307179126104352e-02 3.090039906663794717e-02 4.961795293784157512e-01
-4.936321633830171099e-03 5.277402323219550911e-02 4.112223322479593990e-01
5.103200098082908559e-02 -1.444205707947324082e-03 5.154036910456988307e-01
1.992395625113539334e-02 -1.899858466546737110e-02 4.367148306489878062e-01
4.788303209393972998e-02 1.616325510571971560e-02 5.064988147469858815e-01
5.695975629028438708e-02 -9.776856788620350014e-03 4.781775202014191817e-01
1.242363582323853521e-02 3.015612983805530944e-02 4.108346882850200110e-01
5.308930376443753152e-02 -7.501147753772476404e-03 4.639422546493685018e-01
5.100532001606560700e-02 4.079311565482082735e-02 5.030355444082956762e-01
5.331730333439060193e-02 -9.743598435370360439e-03 4.659487053507784804e-01
4.865627892590185244e-02 -1.278398429845988699e-02 4.571078048586232900e-01
4.720310809055123374e-02 6.642500811820967188e-02 4.716069543790658569e-01
-2.939830440729489236e-02 3.283319638461209417e-02 4.208254654595229294e-01
5.340363658836550648e-02 1.007117436181140767e-02 4.551276449390238010e-01
1.471614766434758970e-02 4.597578222151016414e-02 4.166002570054485044e-01
5.466775912612799326e-02 8.238743486516316578e-03 4.933809565741594794e-01
2.433770249662877208e-03 5.440711847275985641e-02 4.120214096556661376e-01
5.413478181307559978e-02 1.382521172052063145e-02 4.556485142374921415e-01
-2.046329372115404319e-02 2.905813449889205896e-02 4.160933758222173928e-01
3.907287999465626493e-02 -2.343073180002818584e-02 4.474591902555502543e-01
1.477878572421436124e-02 2.203509494069573471e-02 4.213512043468553014e-01
5.589829755168058273e-02 4.242581360916843763e-02 4.577972049556704448e-01
5.010489046444153299e-02 6.342301887809040362e-02 4.586000106264049858e-01
5.887536482901169210e-02 3.122298655543210427e-02 4.692403012760190673e-01
4.015181510232596757e-02 6.799870351578878036e-02 4.680899734764205622e-01
5.803367249259527849e-02 2.648470219648717261e-02 4.828710017367785490e-01
5.380069638532514187e-02 -2.004839876639667728e-02 4.718994732439177331e-01
5.126102994285441916e-02 -2.178286600720790583e-02 4.666528880975033822e-01
1.210092387135940951e-02 2.546672410016734625e-02 4.158033313586666502e-01
4.999833406035548294e-02 6.443376282201028482e-02 4.709830935672923991e-01
-1.808258277998328611e-02 2.367927895196621918e-02 4.174318121586939045e-01
5.658858953997419200e-02 -5.191896152235746242e-03 4.717923395491995797e-01
1.270099805044363345e-02 -1.758520953686170188e-02 4.362261060890466058e-01
1.851658029490514668e-02 4.846409161896861328e-02 4.214289753748796663e-01
-2.512443376872409290e-02 4.425071351570691869e-02 4.173034403265329373e-01
5.307773781750714515e-02 5.129365258448378984e-02 4.542520980147924381e-01
5.596261093198087733e-02 -6.150252545685951436e-03 4.700392198672754818e-01
2.032427163973590106e-02 6.060141755118333973e-02 4.344404146578210169e-01
5.715060431982082328e-02 -5.394530965235433059e-03 5.068138966570862047e-01
1.106925928385639815e-02 5.017311662197963817e-02 4.130317354313951528e-01
4.580372995797011432e-02 -1.984744472011795019e-02 4.548250014766718197e-01
4.990822309190052347e-02 -2.228631835568707122e-03 4.534287005880537347e-01
4.709644305830797129e-02 2.320478047889409923e-02 4.473828500348533965e-01
3.295999950351691243e-02 5.772705749266714842e-02 4.368454813409569093e-01
5.487803060980672720e-02 2.912441839822505624e-02 4.936049781944655268e-01
2.058951249887575052e-02 4.402262562563497711e-02 4.230957357288137044e-01
5.802525467191771424e-02 1.477525945866981459e-02 4.759028279603188527e-01
-7.277200962855512496e-03 1.081503292315106300e-02 4.215522515540264248e-01
-9.685128942942640082e-05 5.318467801136703837e-02 4.098695552059701264e-01
4.099493997238968374e-02 3.155004147296765205e-02 4.419802369241115914e-01
5.127750775130609368e-02 5.590382843063199103e-02 4.529159393080988139e-01
4.020998451521638761e-02 -1.470042984683117213e-02 4.454037718109372102e-01
-2.872748781373975213e-02 1.098298800829925620e-02 4.311981836794003820e-01
-1.966880296723445831e-02 4.562873210282033382e-02 4.120461547153556614e-01
5.791448164022819367e-02 1.418557610395529238e-02 4.786779144621474136e-01
2.712905045817688016e-02 3.329283982848853241e-02 4.307101368148207876e-01
-2.659246803483378014e-03 5.185848481092637102e-02 4.095919379407814143e-01
-2.071962269378856787e-04 2.365089163337312766e-03 4.280935345234964662e-01
4.985909629804149285e-02 6.319932056414168109e-02 4.571893377572560091e-01
4.635065205935724741e-02 3.387759905648665693e-02 4.464942275537654437e-01
3.272911488976425892e-02 -6.169892946191506827e-03 4.384899688128940931e-01
6.897336948853174422e-03 3.600800657823304690e-02 4.033577498464508970e-01
5.292543037443935006e-02 -1.950961341212955821e-02 4.696511710481912072e-01
5.586392106191597623e-02 -9.904842284298104663e-03 4.728288856850249022e-01
1.213803041946669506e-02 -6.443407708794026897e-03 4.318500359682630463e-01
2.077684928962446331e-02 4.270913566611978657e-02 4.233033221473175844e-01
4.120129911748347112e-02 6.624031449696059226e-02 4.490852240888538738e-01
5.614557472064948818e-02 1.096208724264858235e-02 4.619071421440715253e-01
-1.991215611714756278e-02 4.293401666746816947e-02 4.116535789229995301e-01
4.597950337304301111e-02 -7.890587374029154125e-03 4.507170870170471022e-01
-2.118226175328840472e-02 7.564828447065798447e-03 4.279294993473142794e-01
5.343953024755115910e-02 5.054776700761085678e-02 4.874600648430112981e-01
4.820749144602719943e-02 5.889870846356375783e-02 4.850161519520544973e-01
1.630302574901898796e-02 1.210728956629106116e-02 4.284499608117522951e-01
1.706535876024060580e-02 5.858556255994221140e-02 4.248167524621209168e-01
4.592823889715527685e-02 6.061772624865447573e-02 4.482673464594288393e-01
5.589636362663965435e-02 -1.290217909618743275e-02 4.748611876934059062e-01
5.707402274630341693e-02 3.767604064779198764e-02 4.842259619826287942e-01
4.824902741296617503e-02 7.137840755672928209e-03 5.114767436749555474e-01
5.323215993008488522e-02 5.810208416779213958e-02 4.698888575223837960e-01
-1.971927408591286901e-02 3.944255354914169565e-02 4.115697857555563610e-01
-3.231074459644964203e-02 1.266043934333284035e-02 4.339285396370395342e-01
3.897413109086331900e-02 -2.486325623886980266e-02 4.482402650068514904e-01
2.571059480920831475e-02 1.675000882975311370e-02 4.321417516840998507e-01
3.101634118479276725e-02 5.000329787393170689e-02 4.327555600826774596e-01
2.782635294147383503e-02 -2.118025360091685752e-02 4.390071403219016344e-01
-2.120944001934170139e-02 3.035588218400512087e-02 4.159749442049878732e-01
4.472326918029979198e-02 5.231576323460684214e-02 5.030727163194385065e-01
-1.580852688028428973e-02 3.812866735309280997e-02 4.099609612733307040e-01
8.470514336745322767e-03 -1.853585028065277834e-02 4.369237950836636908e-01
4.365165772204895878e-02 1.025238809248459754e-02 4.449578090398154662e-01
4.589856345216210276e-02 4.294116178582560450e-02 5.107568823755535004e-01
-1.356237923964722335e-02 -2.503639578595123413e-03 4.307847428925370425e-01
4.800532279726894141e-02 6.322264230388924267e-02 4.787763155544854654e-01
5.313374553909268327e-02 5.904554113315606256e-02 4.622786993289052515e-01
-1.136218313666409983e-02 3.229499359129998914e-02 4.100319191382346129e-01
4.284876855288760611e-02 4.068767339752742129e-02 4.431878756085852467e-01
2.157011092625892024e-02 2.854318993605079943e-04 4.336024704271108643e-01
2.789817589229179329e-02 6.116909878008087997e-02 4.357690451202809179e-01
3.243153274415493115e-02 5.194040877589276711e-02 4.340932213633595382e-01
4.249337211234175543e-02 7.656128403197673057e-03 4.442462282259221906e-01
4.636821271508426157e-02 1.569059051799483184e-02 4.468937391293748007e-01
4.025492279785940208e-02 -1.410989463452943203e-03 4.436105113996011151e-01
5.638497322232104841e-02 3.714316381786498394e-02 4.587835790293985916e-01
4.925090067569067032e-02 -2.087632669900614871e-02 4.622601072015053436e-01
-3.859802845524222537e-03 5.081882857742030246e-02 4.087340812861826045e-01
5.818608681709674935e-02 3.858011973520093091e-02 4.709205317436579441e-01
-4.161482991985389866e-03 5.410081056977329023e-02 4.123215976268739813e-01
3.285587815120838417e-02 5.982654146053595356e-02 4.383552294376128478e-01
1.086249024951453472e-02 -9.260490070331131238e-03 4.325222506422020663e-01
5.434115687014753199e-02 3.139362410413584076e-02 4.953502071548213093e-01
-8.153973863421285981e-03 2.336430802706975993e-02 4.136375246990572907e-01
2.589256053632473659e-02 2.284896680421751730e-02 4.312176097192985114e-01
4.955138867197253494e-02 2.599707912817893901e-03 5.136907578953565645e-01
3.424654981872279208e-02 3.914575492794876432e-02 4.366172322299582409e-01
5.284556268607150387e-02 5.400649977305799904e-02 4.547417060696632429e-01
-7.512187477020516868e-03 2.543253101968590002e-02 4.121286478654191399e-01
2.709710228932302525e-02 -6.545344080530353034e-03 4.357246552959208596e-01
7.500235616584009606e-03 2.274810508117039790e-02 4.104198561098291176e-01
2.210103544320978289e-02 -5.247343830698705369e-04 4.337776293643718639e-01
5.300469982247722756e-02 5.274445887894059493e-03 5.014702864050013531e-01
5.257149867274379246e-02 4.084450379776323470e-02 4.533014559607208005e-01
4.816645990157839702e-02 6.656179959007299529e-02 4.666482525211623211e-01
-4.362006069585015050e-02 1.333915647714232263e-03 4.467908480023488060e-01
5.838576782284807254e-02 -7.477136166940519246e-03 4.890693120653495929e-01
4.972996570643537992e-03 -9.274608214826786726e-03 4.318484527640646942e-01
5.116053852025184007e-02 2.641004043164651982e-02 5.004861838155674203e-01
-9.357831184487540310e-03 1.677381535124544340e-02 4.182991007322007793e-01
4.481854791851659636e-02 6.623938063800922926e-02 4.758628780436204853e-01
-7.562865147125973075e-03 -5.127958490855326172e-03 4.307962226507844328e-01
-9.412638748038435962e-03 -1.177536307890433842e-02 4.339236963767121313e-01
5.714137723138641711e-02 2.105247145982529558e-02 4.617196623713901160e-01
5.818895945890997790e-02 3.779262232895023998e-02 4.731627228240027350e-01
5.601575875719621428e-02 4.369742476503735151e-02 4.832518682200011018e-01
5.826349873391999806e-02 3.771641064561378348e-02 4.717376932822492930e-01
-6.505966493798519615e-03 5.216111987021174873e-02 4.106831982488785560e-01
5.267644038447797522e-02 1.038613772293612084e-02 4.975647954584284105e-01
-1.200619603582620681e-02 1.732909772485163175e-02 4.185746392230662583e-01
5.455594285998984633e-02 3.976027729358005969e-02 4.951511694928659724e-01
-3.031121821623834062e-02 9.625149308252724939e-03 4.327317502876439348e-01
3.089498650070638189e-02 -1.482259931278698956e-02 4.387482685083490264e-01
3.503044515982953189e-02 5.715296512679295809e-02 4.380519213321350525e-01
-2.503432613157197117e-02 3.527240622658300850e-02 4.164992138587795267e-01
5.296092889707520318e-02 -7.829949202779844242e-03 4.638710583896886730e-01
3.435774843198154127e-02 6.248558449503257423e-02 4.406184074741640311e-01
-5.223157559801502869e-03 -5.004568818940302762e-03 4.304295969724519222e-01
2.646078249276041100e-02 4.804449912781568778e-03 4.350931671196485717e-01
5.173321655339817998e-02 5.166925732818682809e-02 4.917491731364010410e-01
5.242895351564703932e-02 -9.978809209187606416e-03 4.640965797350166677e-01
1.406486156826388875e-02 -1.547672070281408060e-02 4.354406470492132031e-01
-2.598798299815311547e-02 1.165067936384749092e-02 4.288311139612157596e-01
4.374509930189758589e-02 -1.835093296649759065e-02 4.507312430520594160e-01
2.277334232068855754e-02 2.985550569051192461e-03 4.338995303556623107e-01
7.141878144990334784e-03 1.556065718711478404e-02 4.204979780136010037e-01
5.724242837730488670e-02 3.932647728240903917e-02 4.798272307801377812e-01
5.566859063563159987e-02 2.556217694317768595e-03 4.962380046202318207e-01
4.960528352098764193e-02 6.489762697163695138e-02 4.609506946338043920e-01
1.153267176043079947e-02 5.458054564819651150e-02 4.158049341186814685e-01
-1.888936201292501678e-03 1.497054650427250347e-02 4.180601494208867619e-01
4.073811184538231323e-02 4.066796622800177702e-02 4.415191132609201929e-01
4.472468757309719378e-02 6.089083282723953966e-02 4.472648877136969903e-01
7.411569289993463934e-04 5.491048289205765348e-02 4.123897612481756680e-01
1.018656564039953361e-02 4.523186043721344474e-02 4.107267088219053730e-01
5.257864774387003420e-02 5.462161853148708029e-02 4.545215530305115603e-01
