4.533063711671760088e-02 2.511998465802446970e-02 5.118085221041184241e-01
5.469758316128463249e-02 -2.993190832357342079e-04 4.639771393274438327e-01
1.144787159400222944e-02 2.820877367734823601e-02 4.121039420634249328e-01
-1.335070524558689721e-02 6.759833502115665700e-03 4.253142811183117655e-01
5.613809751554210692e-02 -1.151835608057752425e-02 4.759141427828514903e-01
3.387655066234817464e-02 3.508412710196370798e-02 4.373279588020567710e-01
3.723649485886547372e-02 5.855584451142450964e-02 4.411469652058627733e-01
5.173859273692645727e-02 1.603617843595507575e-02 4.968720674665657588e-01
1.876679757533675219e-02 -2.090837086511795201e-02 4.367912587459765184e-01
4.826832466754520101e-02 5.155241182785359755e-02 4.492595934262125779e-01
3.313072360554496915e-02 1.684137214560875451e-02 4.373386538775201893e-01
-2.475142927682588007e-02 5.172389181884175582e-03 4.305508263037308159e-01
1.249461481409324531e-02 1.948839398162306030e-02 4.215539474495180183e-01
5.236661273337018391e-02 -1.538801504623090507e-03 5.134690131399036739e-01
4.513479881601200477e-02 6.785357674852990004e-03 4.468976401050734903e-01
5.111847806833476338e-02 1.173450361441720838e-02 5.000202449873021315e-01
-7.167188678066614693e-03 5.394496392749809771e-02 4.136637258516619453e-01
4.039854326802735929e-02 6.752070990369092585e-02 4.503787477173533671e-01
2.348032654545923609e-02 4.219341813510436162e-02 4.272265800140596648e-01
1.992875904426226474e-02 4.056795308335831018e-02 4.237612034146364115e-01
5.392092908271674256e-02 1.047074480000180149e-02 4.568883002232014823e-01
4.758111005305578484e-02 1.195451137568596250e-02 5.086975672538547322e-01
4.497373703532129945e-03 -1.655194639786267824e-02 4.357449841640086419e-01
5.751966689146512102e-02 1.209698969172968638e-02 4.785776720724612687e-01
4.623641717902065434e-02 3.236426521009071189e-02 4.469046709853077837e-01
1.542813636720371043e-02 3.963940761633405474e-02 4.186767714904496840e-01
5.772099814861055694e-02 -3.921255985630997185e-03 4.778999459840012065e-01
4.992296225584440250e-02 3.787745615970417035e-02 5.046004928791463229e-01
4.984673989864356336e-02 2.075444948564960507e-02 5.015687863161103488e-01
5.762010791403351928e-02 2.043064713656861722e-03 4.773704874648719843e-01
2.429593311611293049e-02 2.976077224225293430e-02 4.294121667106692852e-01
5.142625269778077629e-02 2.911021992567312811e-02 5.000893739697339635e-01
5.734840022209343469e-02 3.414372899234612707e-02 4.830941391017972708e-01
-6.306235871467280596e-03 5.102893773402991662e-02 4.098711210192285126e-01
3.694313637030455927e-02 4.880407735215552129e-02 4.389012875307662376e-01
3.484294985562243208e-02 6.995756925418027475e-03 4.386473149510936032e-01
5.387697941367590448e-02 4.926241511453064575e-02 4.867645363111295365e-01
5.406744186238374161e-02 1.021212342133335366e-02 4.574059310439194670e-01
4.712937280409276036e-02 3.638133098257438636e-02 4.477723313461479671e-01
-7.587592976657606125e-03 -1.437632365406149408e-02 4.341175676462536437e-01
2.279414657685950932e-02 -2.283336679506505276e-02 4.376561885121575401e-01
2.132826636595517092e-02 5.849812023247077941e-02 4.293132821374765484e-01
-1.801706517123988563e-02 9.726078998438468168e-03 4.250031225809325353e-01
5.289483873671974729e-02 3.026758178950426578e-02 4.973686214941452355e-01
5.448398884337857934e-02 9.750850636987754352e-03 4.587559015295185061e-01
1.002598921722852934e-02 2.905263243669272896e-02 4.082120679954003850e-01
2.016876181319390837e-02 1.920056728494130144e-02 4.279771236994838191e-01
4.648566755687282004e-02 4.697020589767132714e-02 4.470496722624595076e-01
5.086964415589152744e-02 6.305204437978123577e-02 4.671148773831672596e-01
1.790773730244613060e-02 8.153643158986291495e-03 4.315291233950201977e-01
5.334601348046747599e-02 4.554818286638158409e-02 4.940707748107914798e-01
-1.331481561556937393e-02 8.352120184885503812e-03 4.244041558204041942e-01
5.549580052069266051e-02 1.455417145982075035e-02 4.873434228999347084e-01
5.259692059414001336e-02 3.309563539435596280e-02 4.536922720051921876e-01
5.208576953658743125e-02 1.029329777443446087e-02 4.536397204030299113e-01
5.121596780216453038e-02 1.058042832295675445e-02 5.005616767983598336e-01
4.731735719836545340e-02 4.409949813285777426e-02 4.479265036745319062e-01
5.132045294517233180e-02 6.130647007543071902e-02 4.619524824110803896e-01
7.063908584887763041e-03 2.438287398707318990e-02 4.085412414563237005e-01
1.610173693479521190e-02 2.157128117165826864e-02 4.235942674784974882e-01
5.706030899848146820e-02 -3.280191359803451799e-03 4.731862159681135549e-01
-2.782906392192553008e-02 1.986474429187325141e-02 4.243890407667072484e-01
-2.634127948236185748e-02 2.739697328264679640e-02 4.201069401106458656e-01
5.717237891765050706e-02 2.080974028784486965e-02 4.631306873708312954e-01
3.317966071580840531e-03 7.788530383411811954e-03 4.256673390790433054e-01
-1.487096548616474029e-02 2.872807001075537020e-02 4.134439259763994512e-01
-2.047332667598405348e-02 4.065408997931582030e-02 4.118812509383008025e-01
1.209410723916515967e-02 6.088699085966500779e-02 4.272014640492026172e-01
5.625642135541428918e-02 -7.013181353907877238e-03 4.727878859228455410e-01
5.448375069647509034e-02 -1.133155693806951617e-03 5.089743001426906277e-01
3.155465541922008316e-02 6.041139253684785215e-02 4.384752951999509873e-01
4.834960328749561553e-02 3.312321980495647883e-02 4.489173710688741936e-01
1.934411003430976106e-02 1.383480430750461468e-02 4.296988887722180128e-01
5.488018358100990590e-02 5.211616344559940120e-03 4.949979454146192226e-01
5.706368455523075367e-02 8.750318814274588713e-03 4.681635293630469485e-01
1.139906997567721042e-02 3.783943259266950992e-02 4.116445305716359693e-01
4.105762116539140444e-02 6.747997364000121734e-02 4.507986202557641708e-01
4.199474395842341112e-02 1.242780435315547424e-02 4.437624261367646983e-01
4.588823577617100885e-02 3.679751343771450051e-02 5.111424282064198632e-01
5.023275106262987261e-02 5.757978406000772986e-02 4.828673348169044144e-01
4.600192338304460310e-02 6.666298606307635710e-02 4.732796234387621759e-01
-2.237773363048589648e-03 1.296864738858926301e-02 4.203568103877791118e-01
3.971956909310959960e-02 6.431780774120129940e-02 4.457956177938026676e-01
5.822480243547890205e-02 -4.375570271969502975e-03 4.861731876375549599e-01
5.755964417421534363e-02 -6.966959626157421051e-03 4.795658740527039554e-01
-3.541053548813216656e-02 1.714448363852813864e-02 4.370820118913777419e-01
1.437840080102064516e-02 5.969761671588384722e-02 4.245163106731225100e-01
5.308861151420258412e-02 5.679323974549099069e-02 4.712815302076791557e-01
4.026364693570310543e-02 5.673134880561849641e-02 4.428587166406403597e-01
2.392604680568941045e-02 -9.626897276858907906e-03 4.353137840382798607e-01
5.830884517406600270e-02 2.485883255954422430e-02 4.710815728882125075e-01
-1.931965060060146858e-02 3.835623398464539646e-02 4.117716324694197239e-01
-3.268301262897422513e-03 -1.528830340272042086e-02 4.338615547750236945e-01
5.114683494140311731e-02 4.447025939305408043e-02 4.523455452002764221e-01
5.915413317442597824e-02 -1.113449592746230260e-02 5.057723791049361095e-01
3.275513928335355499e-03 4.700848078148659598e-02 4.073031825595356259e-01
3.179337113451904256e-02 6.661474927448721162e-02 4.497598079866572673e-01
5.648885562669099525e-02 4.021861699206886326e-02 4.620124940450892614e-01
-1.501615171266038051e-02 4.980582148116107638e-02 4.135481656544057749e-01
4.656778803814622114e-02 6.260307037099695215e-02 4.508870793222321538e-01
5.752125467198521136e-02 3.065858502099150923e-02 4.832593127271405109e-01
-2.572472796432727707e-02 2.119181454792782096e-02 4.223032295360803490e-01
5.749703706117648139e-02 -2.614601529157558300e-03 4.951981434209674626e-01
1.189106654734300647e-02 3.475261427400046232e-02 4.089618648967835446e-01
4.597992350317095522e-02 6.097766814021408216e-02 4.491652252204267337e-01
-1.894958590219476824e-02 2.210961327578342753e-02 4.186462169099178787e-01
4.706175820950823235e-02 -2.194293882127568845e-02 4.587480216967959046e-01
5.747572842366837492e-02 8.508926396119611060e-03 4.755810094109853559e-01
4.779836295973579480e-02 3.721310474520624079e-02 4.484511497969343452e-01
1.418906619728952344e-02 4.400537260669706158e-02 4.166832522997078736e-01
3.951152123446910469e-02 -2.505406408839589219e-02 4.489294675122847966e-01
5.601878881237126739e-02 -2.050975989248819166e-04 4.986573641396849221e-01
1.879595138115641717e-02 5.773382948583232616e-02 4.264823121595570088e-01
5.813883734754322213e-02 -2.210464593428787105e-03 4.798849696093259731e-01
-5.310661253264214662e-03 3.426252447575667466e-04 4.292345663626473962e-01
4.517606784058730146e-02 1.004653110277377998e-02 4.465740858421106685e-01
-1.295723675058293306e-02 3.549034269257791974e-02 4.096648465278083795e-01
-2.257351503802055084e-02 3.495535210493067729e-02 4.148758850221895833e-01
-2.881515044632692452e-02 7.400543038601825607e-03 4.323492462165866024e-01
1.242176712939727437e-02 4.557622414664438959e-02 4.147204690914521596e-01
4.026431902049060207e-02 1.499904731579451570e-03 4.436359792928784573e-01
3.097974354098468816e-02 1.338191627610106280e-02 4.363149289276108123e-01
5.748707733197903902e-02 2.371603378914664134e-02 4.634361568114147012e-01
5.529144690099566106e-02 4.724759977922713544e-03 4.935096664493068275e-01
1.406094408053091410e-02 3.417361046662611979e-02 4.153464410059570233e-01
2.571136849066216895e-02 6.096375607520633511e-02 4.360322331543189933e-01
5.719456147621172076e-02 4.072959386056344833e-02 4.741794563078797209e-01
3.484749472354173316e-02 5.492422945428327569e-02 4.377005163978360258e-01
4.382307324827372508e-02 2.715987469079427993e-02 4.447861065593943231e-01
5.660422473302561402e-02 1.537443087059343731e-02 4.626842935704648108e-01
5.778091755777772093e-02 4.408500832389074427e-03 4.790991297678826033e-01
2.900840686540242033e-02 6.551001932851190090e-02 4.475827613360193746e-01
5.635199723468069938e-02 -2.336348785280033084e-03 5.040581484277798507e-01
2.893931605206482779e-02 4.842337554813902489e-02 4.317939195209874459e-01
5.323933164232162903e-03 3.762629312889000793e-02 4.036931695889832694e-01
6.632821487798907720e-03 2.096540790304966470e-02 4.137208493825452194e-01
1.279891813240421547e-02 1.163620919214632468e-02 4.271997046043367607e-01
5.823635635972253255e-02 -3.712748303579567824e-03 4.855882991731082510e-01
1.539171125346410277e-02 -6.457371257310043876e-03 4.325839854315001176e-01
4.812950233859256827e-02 6.456235339514222737e-02 4.561624329566793534e-01
4.917873075854279491e-02 8.449601628390682531e-03 5.076360871174512290e-01
4.941653706370855575e-02 5.321293786609100629e-02 4.947314911655981140e-01
-2.448378301062680007e-02 2.600901932947238121e-02 4.195423187986614955e-01
-3.267549800454636055e-02 -1.871552873064043004e-03 4.375042019749459943e-01
4.436794802642297919e-02 6.225210176214427543e-02 4.479446970683966800e-01
3.794772940550961149e-02 2.456084555792065888e-02 4.402242909332939047e-01
3.431280944571930835e-02 4.693404703444815917e-02 4.368081030126684805e-01
-1.073860422646406854e-02 2.683095695673017034e-02 4.128267972718753787e-01
5.298938539204440384e-02 1.515087549393567129e-02 4.940695932854881067e-01
5.494944198148132147e-02 -1.473095514641695886e-02 4.733657396870322165e-01
8.683159222844591060e-03 8.242996826788105691e-03 4.272651826628123262e-01
-2.994202031861387114e-02 1.676570568472654163e-02 4.279244878729842050e-01
2.513203355151317001e-02 4.988835252649812674e-02 4.286641709032326109e-01
-1.927707625349749099e-02 4.461013537611690366e-02 4.114531775788267121e-01
-2.267572175947646373e-02 3.835555605580993899e-02 4.140893308743739953e-01
5.583685215377179323e-02 1.273335479046817757e-02 4.863020037672595719e-01
2.645934025638800591e-02 4.249014325087181049e-02 4.299848157634489354e-01
1.950354605597212632e-02 -7.214211603264633448e-03 4.336123089069895409e-01
2.137891943491867369e-03 5.458893013556771756e-02 4.131350101647198736e-01
1.057160706919052506e-02 4.165077019346977855e-02 4.108858025398968716e-01
5.298431354055326697e-02 3.542615449803145078e-02 4.545686024332032948e-01
1.899111667283794394e-02 -1.563101255802178818e-02 4.355232647481392938e-01
-7.116483906110269986e-03 4.502044509225478809e-03 4.260045643369460011e-01
-1.848455460342264892e-02 4.234635679407246917e-02 4.101450708263387757e-01
1.632022407489902224e-02 6.129415823733636720e-02 4.357653682553381258e-01
4.901659729055629633e-02 2.020800162642585190e-02 5.035605826772838745e-01
5.392757660321345625e-02 3.688352796416029798e-04 5.073640955035250144e-01
-1.250557834349892705e-02 3.265437662812166637e-03 4.275615928413944999e-01
2.778468306307083080e-02 2.096219941003148960e-03 4.359077376073226540e-01
2.676029394030446720e-02 4.781347170624043741e-02 4.297956565994344169e-01
4.126333047689779467e-03 4.526166114395095696e-02 4.069220217192290878e-01
-7.873905394793928939e-03 2.679501426444756695e-02 4.115158782201330245e-01
3.565906776108426768e-02 6.136907059932346364e-02 4.415911308882062292e-01
5.413760078626705247e-02 5.473339163654742517e-02 4.694898615698743227e-01
9.973641228544662465e-03 4.267973627818111293e-02 4.106249815130814107e-01
3.581860995566851086e-02 4.762931972460620472e-02 4.380582671616740087e-01
1.684706293172547054e-02 2.361769305876649377e-02 4.237563503455140657e-01
5.758731766494943477e-02 3.967669324278146753e-02 4.707161196526647995e-01
2.763198228334103057e-02 1.421635500662443707e-02 4.342262131234227440e-01
-7.029791841575752306e-03 3.611001813451122922e-02 4.068250424712288593e-01
-9.145595885228738689e-03 -1.165419298656219030e-02 4.338479173452871596e-01
2.465058493399613360e-02 1.065681233655040895e-02 4.332988746994862472e-01
3.153022888414949015e-02 4.752404852252461315e-02 4.341961368911243513e-01
4.253385036400757907e-02 -1.709574125129358427e-02 4.487685789073516118e-01
4.923482905019960915e-02 5.594556925187420954e-02 4.884318027413080965e-01
1.511525157164713903e-02 3.531068858319250797e-02 4.184214984898864120e-01
4.335728768445125392e-02 6.935512240646195259e-02 4.571746083700916619e-01
-3.129153769106695487e-02 2.108377355521997426e-02 4.261959780608847170e-01
-6.108720511252153235e-03 -1.107454893204012220e-02 4.329989512715847755e-01
5.472948353864245941e-02 4.992153028631695494e-02 4.575744840394627144e-01
8.548662175401162619e-05 5.249330104980989148e-03 4.262219085719005651e-01
4.826925199850300857e-02 4.687144922389334389e-02 5.053851657408037212e-01
-3.721447650058161416e-02 1.037373307901341647e-03 4.388741905020592249e-01
3.832444402272352363e-02 4.877429134795186264e-03 4.415085145269344036e-01
2.388370480143102090e-02 -1.553767352593272283e-02 4.365253837677862681e-01
3.822730767738344304e-02 -4.678807549285945826e-03 4.425360583672311443e-01
-8.833673010544933202e-04 1.902012486948348631e-03 4.285095714564688407e-01
5.636956556913206434e-02 7.345316373333792004e-03 4.656270913261099653e-01
2.798218168293701777e-04 4.936781570291555454e-02 4.073879499182457842e-01
2.649216341359183699e-02 -1.508624601484907096e-03 4.356172426275768950e-01
-3.442994557179244151e-03 5.601735926266809829e-03 4.255929557464532831e-01
5.053828386694112634e-02 5.492060001889685628e-02 4.524658857793968925e-01
-8.052925471859095907e-03 3.668820251532572962e-02 4.070941824191050551e-01
5.810835477586017567e-02 2.326687252969519490e-02 4.668971221254433757e-01
4.293042500848595622e-02 2.264319033445249055e-02 4.438546227206913719e-01
9.878245389875793883e-03 -6.719538535108524058e-03 4.317144807565626019e-01
4.552626761625805374e-02 4.018574771779192221e-03 4.476293255825762318e-01
5.927780236260568603e-02 -1.136772848259579721e-02 5.048873421792651195e-01
4.040925998549024789e-02 6.751568443308322842e-02 4.733089570325296203e-01
-2.542866133923658845e-02 1.279353941887391606e-02 4.277186836615289312e-01
5.384923507294248762e-02 -1.907363028652026005e-02 4.719663641651512531e-01
4.596090738308719614e-02 5.141062418829647068e-02 4.468712352670478616e-01
9.740310956165704193e-03 -2.060592683634482336e-02 4.372725842817714037e-01
8.678184857457516693e-03 5.401616095674174889e-02 4.142529999858975964e-01
-1.420980443098396155e-02 4.783938494489122645e-02 4.099287523095400676e-01
5.456139770038239550e-02 1.553370629589778153e-02 4.569069904042397101e-01
5.634415143480606819e-02 2.408282227210233398e-02 4.871048057759949645e-01
-3.551912117201248657e-03 7.606442623032875008e-03 4.240860749211479708e-01
4.735935303685409603e-02 5.637582085113994335e-02 4.912737151723461926e-01
2.257929655889015855e-02 2.754579858804936075e-03 4.340135861012687224e-01
-4.629710287660549622e-02 -2.033540043827808917e-03 4.423847431086315729e-01
1.869932517767859681e-02 1.611063540150588225e-02 4.281816928142527789e-01
4.448713713658705021e-03 3.865842713688890514e-02 4.030133647833641919e-01
-7.810458993459182264e-03 6.248455526134599411e-03 4.246319049601453011e-01
3.511704248879177898e-02 4.742759984077062063e-02 4.375049343869886198e-01
-1.561942329960165285e-02 2.996375514783158542e-02 4.130914877796747486e-01
5.157131089429972670e-03 5.747673978373356307e-03 4.275986137108981899e-01
2.574405677250233421e-02 4.684695593855464635e-02 4.289222140605474798e-01
5.694575480236080400e-02 2.212867948626012771e-02 4.841893619201712573e-01
5.386951692572207462e-02 1.656259093108007965e-02 4.917880476952581903e-01
3.519077680983538625e-02 5.839106747960334104e-02 4.394725784947128289e-01
3.474282150374324515e-03 5.428076947460435189e-03 4.272156557141338906e-01
3.897181253413894986e-02 8.144952650173809330e-03 4.415105546823522298e-01
3.643622907635594987e-02 5.865881602376027404e-02 4.405907731929284976e-01
5.013489001960980823e-02 6.076129636158837666e-02 4.762969992102973338e-01
5.376907113221338075e-02 8.748914987605374647e-04 4.608188953792234921e-01
4.521615975384662978e-02 -7.232152142042397747e-04 4.483508763885741266e-01
1.448834117381099865e-02 -2.113201376480674729e-02 4.368679551405033612e-01
5.398279644007113881e-02 5.966896521103212843e-03 4.971317147092513267e-01
4.713105133592672413e-02 6.730676910040810611e-03 4.486082229897501716e-01
4.150748491620985525e-02 5.453016837632704977e-02 4.435010243620721160e-01
-1.820938775391664488e-02 4.616576768059900415e-02 4.113170844789743597e-01
2.802552733294843071e-02 6.516348922995676696e-02 4.452284001232327815e-01
3.064370377416325043e-03 3.258310773106329328e-02 4.011247283539616237e-01
5.818927933556240079e-02 3.524345472052990702e-02 4.690666618305182611e-01
5.136123879372131440e-02 4.180909286153688953e-02 5.014451506054264929e-01
5.096620497108348552e-02 4.366226868307203357e-02 5.020759994778245527e-01
-3.522612072684050410e-02 -8.979535748060503593e-04 4.385695101934400930e-01
1.128177121684089540e-02 3.376694088507707636e-02 4.071910346375356426e-01
5.735268526881141110e-02 1.262097770135470719e-02 4.675786648668002199e-01
6.243213015220248734e-03 -5.738774655649306854e-03 4.310568425090003375e-01
-1.362865691426550646e-02 3.261478213074037874e-02 4.109035020731544030e-01
4.947729558620094642e-02 5.107512682963572664e-02 4.984314231865369371e-01
-1.742100358065146529e-02 9.671445658623545327e-03 4.247816474187883773e-01
-3.470326255878505156e-02 1.816350157541741367e-02 4.348643236899775166e-01
4.516555198904876472e-02 6.681243161830735522e-02 4.539087840923882178e-01
4.570833734807090015e-02 6.796490574967435638e-02 4.601614372394023933e-01
-1.677094338658073613e-02 3.272153110323040848e-02 4.125147078049726246e-01
4.376333113253202955e-02 -1.318220052923745750e-02 4.494123651979242684e-01
3.943967568074815272e-02 6.816304207431471418e-02 4.667669555591958952e-01
-1.648645374287887808e-02 3.699171544816338975e-03 4.281453327158691868e-01
-9.450018788997199305e-04 -2.768915127237275668e-03 4.299671827867178053e-01
2.950309131445748734e-03 2.831703056478550654e-02 4.018296964045545705e-01
-2.514289389639754249e-02 3.246686117050610887e-02 4.174491301878116012e-01
5.213489826649046061e-02 3.645763163611424190e-02 5.002281006118506346e-01
-6.261940712073812802e-03 4.634537272639566857e-02 4.070075336841708080e-01
5.567718364609768739e-02 4.798446990250319205e-02 4.613087616510415656e-01
-2.025797304907749410e-03 1.778813515263232004e-02 4.152216148360325931e-01
-1.474327643060580409e-02 2.511223263197915473e-02 4.153341429117940464e-01
5.515329377101600705e-02 5.192099460980244274e-02 4.689672543290836493e-01
5.685829112668016466e-02 3.707096120937476702e-02 4.628166252445697348e-01
-4.121457870820270306e-03 1.158426770708839704e-02 4.212162459927576985e-01
3.392386265635671805e-02 6.021432739172754428e-02 4.395718859839067849e-01
5.585734986039209149e-02 4.158867493744229649e-02 4.869755288637185320e-01
5.338330063233440864e-02 4.667547252527261270e-02 4.923311346531202282e-01
2.219293910710443823e-02 4.684882431126210361e-02 4.260689439744582696e-01
3.101581552453214208e-04 1.013414078562794619e-02 4.227062306306196282e-01
5.399844794537578263e-02 2.714491218725089555e-03 5.020107958234473200e-01
8.578085576738917958e-03 2.764583360801021322e-02 4.056614234586729539e-01
1.491907568095900832e-02 -2.341045932348373437e-02 4.374072022573783358e-01
1.066565827873352038e-02 5.119609069896035453e-02 4.143209371282356446e-01
3.155484555422308907e-02 4.601571647791889014e-02 4.343351351707750441e-01
1.919710835329860657e-02 1.109333062149009050e-02 4.307483358892705283e-01
3.302530877056961828e-02 1.208017223188313262e-02 4.372031904556317183e-01
4.675037126724911757e-02 3.427648798640297451e-02 4.473806246393329245e-01
5.687304365711152304e-02 -6.275226998541697312e-03 4.748775610113711854e-01
4.855940495713045868e-02 -1.235623322665940424e-02 4.571044188529779229e-01
-8.139158493232545588e-03 4.796477284504310074e-02 4.076127556593938106e-01
-1.142995899169127819e-02 -1.823299926230249630e-03 4.301524813131163416e-01
-5.222675146015716419e-03 5.490870550969521001e-03 4.254949051920214331e-01
4.698664589616950715e-02 2.942980428915537364e-02 5.090954545987347313e-01
3.992940469484643901e-02 5.796208480995986012e-02 4.429021096923407841e-01
-2.955300182083461097e-02 3.079584133349026406e-02 4.215176560729630983e-01
5.326855725435990924e-02 1.972173511906250704e-03 5.061072377734153749e-01
5.207055300454958846e-02 5.866934373807721620e-02 4.719772880410671445e-01
5.718855432779362119e-02 2.465733774714975318e-02 4.847181687393337102e-01
-3.315122570513122369e-02 2.148378926679835391e-02 4.289780553792013063e-01
5.598905627498385051e-02 2.900438027097441626e-02 4.889690143292153568e-01
5.305361711718755563e-02 3.105814689685528970e-02 4.540668138659703645e-01
4.146884278310090238e-02 6.390943262242705647e-02 4.468195475729795918e-01
4.687630696556018689e-02 -1.140940362016835095e-02 4.536890949977119836e-01
5.419917914525166497e-02 3.644656029148711507e-02 4.956436862963649048e-01
5.154045328821633964e-02 5.526793408132561758e-02 4.837441196410529054e-01
4.303066011450894235e-02 -1.885590581785897418e-02 4.501406001478742702e-01
4.846833309966064318e-02 -5.631545067783707420e-03 4.534551507769266632e-01
1.488672383495735947e-03 2.937824140154048774e-02 4.020483841574619133e-01
-2.781586715236508689e-02 3.964266813543697830e-03 4.324208140769706943e-01
8.767703325292558469e-03 4.859190458937056450e-02 4.119119776416422241e-01
2.818853321031840938e-03 9.796284751898101661e-03 4.237736562214498570e-01
1.935017555840432696e-02 4.819956372877350070e-02 4.233876827570634549e-01
-2.655672657658020644e-02 1.700761573263463375e-02 4.254924589721927886e-01
5.655454016594096966e-02 2.703919136830518211e-02 4.608611842883693077e-01
5.781046612308518573e-02 1.884710002310807306e-02 4.669362262262944929e-01
-3.612972159508173742e-02 1.970802408807750816e-02 4.367101165000680241e-01
2.703257884225043067e-02 -5.842508631434672507e-03 4.357637787187626510e-01
1.192122340106985257e-02 5.651866601924409456e-02 4.188357894592742436e-01
2.380177717122634526e-02 2.824992267872349777e-02 4.291299390657822843e-01
4.436419449893411887e-02 3.020473126308914277e-02 5.134372263739139797e-01
1.167250946390721925e-02 4.321767407657495230e-02 4.128617812605565041e-01
-3.878004202501695447e-02 6.577968406054116556e-04 4.403821054632466314e-01
-2.467899171641594475e-02 2.689250963115608073e-02 4.192785433704969145e-01
-2.516636293280118813e-02 1.012517724585424231e-02 4.289065538779263664e-01
5.753893389785981471e-02 -7.984369743651150916e-03 4.803687978534083025e-01
3.528172009041646850e-02 -1.282423958044430316e-02 4.411897401251050344e-01
5.730039125262810507e-02 3.370156834713292082e-02 4.632609974312000833e-01
5.147784278570868843e-02 1.793414575121715562e-03 5.107255875005923818e-01
5.812954040100396652e-02 -1.325734330031563997e-02 4.848819368552192977e-01
-1.700472622419265528e-02 1.513599452754208277e-03 4.297280871815141734e-01
2.600889598396262728e-02 -1.723570204718037971e-02 4.376354854126109362e-01
6.169358322626601436e-03 1.327143848816025873e-02 4.226261091717185003e-01
4.379269152592984993e-02 6.950274057541236394e-02 4.599965329859163621e-01
4.426994670986147962e-02 4.663378822018068165e-02 5.117487674462377623e-01
5.511963643663508883e-02 -1.472420966748699649e-02 4.738235717098488453e-01
4.552994793145540703e-02 4.335467760834101070e-02 5.107767859153465873e-01
4.881030057388427434e-02 -1.124833976398681087e-02 4.569779832805511144e-01
5.560443154916443892e-02 1.385108480496941366e-02 4.601810981506812559e-01
3.892142356433694883e-02 6.748872602472877347e-02 4.492577267038544986e-01
1.234221872546312562e-02 5.220975161624703820e-02 4.167329374229665762e-01
2.351935631529217946e-02 3.175907214745720547e-02 4.282395203386916704e-01
3.044772810910717845e-02 1.160630335895507237e-02 4.361765986704329578e-01
3.234615412715583643e-02 -5.648435679635905975e-03 4.383987311792595376e-01
4.746738277400984474e-02 6.349776235941853586e-02 4.533457085608089687e-01
5.155634680370278083e-02 5.521423530131928936e-02 4.838512449653015191e-01
5.279365010547122650e-02 4.601292024296408517e-02 4.543215058486732016e-01
3.780608312540303939e-02 3.925530834207270614e-02 4.398694259576402255e-01
5.785239817298343246e-02 2.888494286892061974e-02 4.808546477886453396e-01
4.522322990852593178e-02 4.568820118538655106e-02 4.457893393958328176e-01
1.175780697810398061e-02 3.459382203219826812e-02 4.085734798809196322e-01
4.640987204784489950e-02 4.725319372724718671e-03 5.166050722468932266e-01
-1.135503240808834538e-02 -3.881242083287508859e-03 4.308996201929324865e-01
-2.598280550368089331e-02 2.111027827071154314e-02 4.225168798025059624e-01
2.866233232099131556e-02 2.815201608342762091e-02 4.334497239614993336e-01
4.771422100966440233e-02 1.245850697176335148e-02 5.080511928322836157e-01
4.087447598163188381e-03 -1.461241170837003240e-03 4.300958398665810645e-01
-1.330895160970568120e-02 1.315151275910156348e-02 4.216856804128105152e-01
-4.140638020425111560e-02 2.557541342357994366e-03 4.453552181388977238e-01
-3.305220219249381530e-02 1.394507828267178492e-02 4.341435489261216141e-01
5.583983759585520179e-02 4.785258618342420195e-02 4.630186973349550983e-01
3.044771373702525111e-02 2.339092067102712877e-02 4.349894286423461320e-01
3.461478901799417557e-02 -1.479650245896980444e-02 4.410910834640190403e-01
-4.511994630706045450e-02 -9.531023144906615365e-04 4.431542872760823593e-01
2.681360558168738653e-02 6.807296171810152917e-03 4.352781177618895159e-01
-2.831272001394888327e-02 3.073461379412018718e-02 4.205021511396284106e-01
4.386761199579670804e-03 3.987911959769417647e-02 4.038727750450448184e-01
2.992953833858544299e-02 5.250023698420278051e-02 4.326758981064810494e-01
1.702817837338621750e-03 3.870930033950380905e-02 4.033597626706776906e-01
2.099249092059626842e-02 6.312102141208837669e-02 4.411338374486400982e-01
5.628785781694530671e-02 -3.517365018351060850e-03 5.081578383885859695e-01
4.682637411375813186e-02 1.989411966451386758e-03 4.492985723117539631e-01
5.604252854695340041e-02 3.588130354161426366e-02 4.897901766542259727e-01
4.390580320051635371e-02 6.573438298101468014e-02 4.774363698478268359e-01
3.378204102126960290e-02 3.483257970129844533e-02 4.372654571548083013e-01
2.926144960418809726e-02 5.660149872432289342e-02 4.336054760448944112e-01
4.822739860963930897e-02 2.373708738131578150e-02 5.058496884696248586e-01
1.292351287667038370e-02 -2.109528467402943010e-03 4.315082530940778649e-01
5.723506029401554535e-02 1.956848720685241266e-02 4.635965631332868986e-01
5.281181322938726524e-02 -8.651394581863649028e-03 4.645389080183277564e-01
2.316788687288767398e-02 1.418955575100753694e-02 4.315471066140492140e-01
4.079350221467576559e-02 3.819341821515834928e-02 4.421766487096950304e-01
5.505868597570054424e-02 1.652358461745115272e-03 4.638589308433282432e-01
5.387457915209123427e-02 4.923586762217887353e-02 4.868125634596760509e-01
5.071571662752932808e-02 8.491473784749320464e-03 5.032135525975051094e-01
2.202736829444039424e-02 -2.293824137972265073e-02 4.374018867323359316e-01
5.578871058167453323e-02 -5.013350007356994105e-03 4.692707796373356555e-01
5.202217718036022259e-02 4.300274590225287852e-02 4.998192083176406508e-01
-2.080542358091803587e-02 4.486056149068069765e-02 4.127545597355092855e-01
4.739668567888716266e-02 3.090796263260789378e-02 5.083206630205623355e-01
-6.834170303856379816e-03 5.054247724979898243e-02 4.090938837297017905e-01
6.927025355243785626e-03 4.911076634786685352e-02 4.108702911266279845e-01
1.766757531361263893e-03 2.300363020892710192e-02 4.084926708166594089e-01
-1.166509767879895035e-02 4.774167458962364635e-02 4.084211395327301819e-01
3.681879663188112380e-03 4.019346874169625605e-03 4.282017429763798066e-01
-1.580477486531873393e-02 5.363518132019295080e-03 4.266739203214910958e-01
-2.763089087722245089e-03 6.293590645358764640e-03 4.251211394246828812e-01
3.432466421221710973e-02 -1.820380606523326963e-02 4.417582523767060176e-01
1.796121182439468830e-03 2.844955009218417055e-02 4.021540129964077948e-01
-3.752223132087970786e-02 3.217934073978781419e-03 4.396534771860812207e-01
3.536016885902392576e-02 6.419262888095844492e-03 4.390125926064140649e-01
5.212999373740867526e-02 4.351338455767577579e-02 4.994888866859030219e-01
5.122585608496238452e-02 2.564311484956365537e-03 4.540960231207749054e-01
-2.038295377314547699e-02 4.363163069695350643e-02 4.120108750305750411e-01
1.492806474660003831e-02 -1.132521404889335129e-02 4.336471470626735991e-01
4.945667315837701944e-02 2.720064630323646565e-02 5.037068015610395300e-01
-4.266656835845832052e-02 -6.097930424168900628e-04 4.411547051412747500e-01
4.811496990195512913e-02 5.842557516114228744e-02 4.853710228900023349e-01
3.086690843607905674e-02 -1.802522257512477466e-02 4.396608008480789587e-01
2.752650186228354934e-03 1.551107762354418662e-02 4.189171208271652569e-01
2.696234658578820428e-02 2.848417895714170506e-02 4.320694109011802841e-01
5.113477967862614659e-02 5.477861455420947323e-02 4.865246143236990339e-01
5.363821698582080591e-03 -1.434503959296379305e-02 4.343724463666375768e-01
8.740799292604848822e-03 2.033953837166772860e-02 4.176989040794769625e-01
-2.964559824142128965e-03 1.490863700345089297e-02 4.182653941507060158e-01
9.130380318462616093e-03 5.317392080227117956e-02 4.141478265255729152e-01
-2.840869983240065441e-02 1.211275155918851987e-02 4.302769014412511916e-01
2.127770732361939851e-02 1.784580365113622516e-03 4.336023152482955112e-01
5.307647249112172616e-02 1.393827092643826031e-02 4.938178546491222010e-01
4.543816011774198110e-02 -1.450076527941770608e-03 4.486708942058946215e-01
1.655972111378748932e-02 5.733899174971415075e-02 4.239103943042357714e-01
-6.506533710207698315e-03 1.897234675674913662e-02 4.152279763579256877e-01
5.733139229932733560e-02 2.558142645058851181e-03 4.862277858949148879e-01
1.910550355617800580e-02 1.107209689686738593e-02 4.307177162071727516e-01
5.807714064583369834e-02 -8.534034630802428759e-03 5.093487433107997120e-01
5.660290635061276249e-02 2.880332432268539744e-03 4.904331500987312298e-01
4.773900780587801013e-02 3.081345975525353817e-02 5.076884126606873160e-01
5.100169051733603742e-02 6.145565164464597552e-02 4.609241963611025450e-01
3.291060248414242467e-02 3.405262590509785647e-03 4.382494262469238122e-01
1.331245283771553996e-02 4.668375095553951859e-02 4.163542850161731645e-01
4.714273323857132852e-02 1.356772386904066263e-02 4.479993442603076859e-01
5.125036568712769414e-02 2.104959011251460177e-02 4.520926745883702691e-01
-6.027373036958673033e-03 4.015094676231498183e-02 4.060769971214520657e-01
-3.143582108763200069e-03 -1.222808689668894097e-02 4.328774240948414787e-01
2.228863767969013407e-02 2.541997529618472348e-02 4.281366191391943743e-01
-1.202251793359603027e-02 3.435880848445133084e-02 4.096682760182085437e-01
2.044248706726673609e-02 4.978204719412963886e-02 4.245509761782464975e-01
4.675552190806133573e-02 4.007384144889687694e-02 5.095979437790544297e-01
4.134301718877674003e-02 6.744098748691387812e-02 4.745526898777838176e-01
5.575020606693721625e-02 4.822844226599275544e-03 4.916587991872907182e-01
4.898965350848598355e-02 4.935392644871063050e-02 4.498697838562931151e-01
5.174616427986655776e-02 5.522746321391194119e-02 4.826871693770376504e-01
1.380557567180981313e-02 2.189678977572382529e-02 4.213696497993191237e-01
-7.249679180024936991e-03 3.385257804298506118e-02 4.078381673171002086e-01
1.383993436187336973e-02 4.386417863922495441e-02 4.161422528140814592e-01
5.252061633354673104e-02 4.597934708112230706e-02 4.960497696688363489e-01
4.216754650829372675e-02 -1.884986901865745232e-02 4.489133082029677091e-01
-2.217300347146286196e-02 2.094576860262509568e-02 4.206811781486304302e-01
1.639809353546470630e-03 6.299708939276051252e-03 4.260260271597125503e-01
1.643113972467016501e-03 -1.584862375009401039e-02 4.348059664097082555e-01
4.412894498327686599e-02 2.876476310967796338e-02 4.450392653587638692e-01
5.533779894859149756e-02 -6.915897228323760349e-04 5.047564055572619779e-01
1.113553381020822297e-02 -1.475908325940717206e-02 4.353271014798237304e-01
5.005100912051797107e-02 6.264718514751993483e-02 4.592970985164190889e-01
1.358290964390858682e-02 -1.085855973745361754e-02 4.333622026525750792e-01
5.220043759851757809e-02 5.713395629309176577e-02 4.754993729815327752e-01
-7.839349169851688934e-03 -2.506503864733644268e-03 4.299184577931691731e-01
5.475376142900902077e-02 4.993629653449439820e-03 4.615613109416523696e-01
4.990902301449073875e-02 6.105134408960613546e-02 4.561860452567935709e-01
5.229679572150264938e-02 9.720397479227635418e-03 4.985064289028613427e-01
4.217230605220344264e-02 1.960957976924044763e-02 4.433523414395963425e-01
5.745968473455261016e-02 5.795086775642099668e-03 4.732631618088565251e-01
3.780052055281846873e-02 6.064223554516825349e-02 4.427779503793629612e-01
4.427610602264812900e-02 5.056144927778342957e-02 5.088604365602841240e-01
1.345306517765843327e-03 1.536924174905849412e-03 4.292002784646858915e-01
5.578417246448551942e-02 1.077151057041748905e-02 4.875962708243597454e-01
5.445901449473634914e-02 5.440109489834066281e-02 4.664838873822741427e-01
-1.918960083762088348e-03 2.547542295823798653e-02 4.078444110537634559e-01
4.505610183952312581e-02 1.327610616145615159e-02 4.462007564389076641e-01
1.078439904576243384e-02 5.898993333843634279e-02 4.204508072476969560e-01
5.423261485359813505e-02 4.610906312386355010e-02 4.899083986190043150e-01
3.719754517196422611e-02 6.592606053069506589e-02 4.470444455234638959e-01
1.468044187952378954e-02 6.194118854064025424e-04 4.317041066579436204e-01
-1.479733162238771292e-02 4.266920300264634425e-02 4.089907830788570564e-01
4.415343853340157609e-02 3.756276252616609634e-02 4.449760416142907737e-01
4.239017679834902047e-02 -1.475848236146021578e-02 4.478116152019850360e-01
4.374273375016968918e-02 2.033889262376054399e-02 4.446623941734447194e-01
-1.402464218046759262e-02 3.666265768901647015e-02 4.097393023507986953e-01
5.223627476620600757e-02 5.321928735976168279e-02 4.861673329060672288e-01
5.164360081616094222e-02 2.300180422473878036e-02 4.977137028102174843e-01
5.584011091980917163e-02 3.612012744004995668e-02 4.587281961129803798e-01
5.064283747068531322e-02 5.485574107790230219e-02 4.881022004798229452e-01
2.264041372772472929e-02 2.469647852738495603e-02 4.285857783937917498e-01
3.240130246066692116e-02 9.160624162986028343e-03 4.371381540480608341e-01
5.229159663017756560e-02 2.165882089672969274e-02 4.532123319087438817e-01
5.251361632767972965e-02 9.995067724286165606e-03 4.977540052763519407e-01
4.005024430546464537e-02 5.742740510321296676e-02 4.428326969318372441e-01
-1.074965894454791085e-02 -1.136298634181574785e-02 4.341544911091691494e-01
5.500924282911153623e-02 4.651608751715156920e-02 4.838267866033740816e-01
4.878264228756575699e-02 6.225817394741345323e-02 4.546578250437004476e-01
1.534287146895418029e-02 -1.107227433340486102e-02 4.336150277152349686e-01
-6.631218226524211203e-03 5.278948397202620074e-02 4.123105037795179451e-01
1.502554292667284373e-02 1.505603029810064289e-02 4.265336722870354258e-01
3.742777032271131510e-02 -8.180658174455733220e-03 4.422526468178910597e-01
-3.545144488306718050e-03 1.658976719469802685e-02 4.161095643574489467e-01
5.779495979906665304e-02 1.833242817542532141e-02 4.675559183990720680e-01
4.723152267468517379e-02 -1.668236829092749340e-03 4.506711789397784274e-01
5.348199495821026606e-02 4.008561509281247104e-02 4.554009990762374893e-01
-1.149665123656564911e-02 -5.171093450892075283e-03 4.314093037462397584e-01
5.028117414799518348e-02 5.774488702456949743e-03 5.086134683951102353e-01
4.256770076600303876e-02 6.738696188585430180e-02 4.733913967312960991e-01
3.395690853194046482e-02 -7.336572437014740773e-03 4.395349841957026382e-01
4.258937972582938630e-02 5.495311872394340047e-02 4.445768489750546726e-01
