-2.805212036523811042e-02 3.497455663709702657e-03 4.324863048430937496e-01
-8.818215278056268022e-03 2.821165405454626601e-02 4.108219166383824117e-01
5.472440491444458682e-02 3.558224994024067334e-02 4.937939604180376918e-01
-1.930069831323077620e-03 3.517491857073836575e-02 4.030978003809794208e-01
3.310770993086879863e-03 1.290627844211821376e-02 4.212148545315538839e-01
5.239186548087285816e-02 2.894570444185651584e-02 4.978006673415588668e-01
-3.162258502076136651e-02 1.567161157703219482e-02 4.298006805100003658e-01
2.302026116496426120e-02 2.678928994313837728e-02 4.284653980214759295e-01
5.607208069027549979e-02 -1.259248324706642788e-02 4.764609764709842321e-01
-4.261230826688834974e-03 -1.392483863660266830e-02 4.334169811604949296e-01
4.868688803270284846e-03 6.648338103044039611e-03 4.267960546761599416e-01
7.385356033358078491e-03 2.387405419311093221e-03 4.296182555521155799e-01
1.229403697602338141e-02 3.375127710191444530e-02 4.101158133698131203e-01
4.746832784481816621e-04 4.311504228348705947e-02 4.057394345086286491e-01
-3.104588227368977951e-03 2.565949595985120985e-02 4.084892895150948888e-01
2.022041330558263170e-02 9.353136298077069713e-04 4.332156938258316936e-01
-2.600121873145974649e-02 2.441869300858851705e-02 4.208274772952133036e-01
3.074542431452636712e-02 4.522290692637161158e-02 4.335018927159254853e-01
3.120107670306316791e-02 3.249296032318541722e-02 4.350123145346406206e-01
5.746191315192654414e-02 4.236789591219900647e-03 4.831811803093114532e-01
3.584695547862486870e-02 5.131992882719128152e-02 4.378688969349651128e-01
5.100237991488514033e-02 4.181659988373075121e-02 5.018798820707544017e-01
1.654063160614909628e-02 6.085895041691585794e-02 4.331925246173519151e-01
5.419957910088925995e-02 4.762704618174835869e-02 4.874989230130661322e-01
-3.873780036412238087e-02 3.272693129879802355e-03 4.460050313195841332e-01
5.456881985221519182e-02 2.785064627844782356e-02 4.563595155561234185e-01
5.801945903381037703e-03 4.713539387536267063e-03 4.283609365856620443e-01
2.822352574535536701e-02 4.248346756025486032e-02 4.314593392229585933e-01
5.078893612680929204e-02 5.331160599971702246e-02 4.904426375708601515e-01
4.009726657299452629e-02 2.053354101122764619e-02 4.415692306762410424e-01
5.869144039781292593e-03 2.316762239755565389e-02 4.089170781131259425e-01
-2.824973049164770933e-02 2.129182880235417144e-02 4.237414079120164212e-01
5.672000976084917018e-02 -2.202310743892830006e-03 4.717886502404650684e-01
4.391445058520423300e-02 -2.014682403401356348e-02 4.523813180986015481e-01
5.069558153252576999e-02 4.191476617629185525e-02 5.025192554972826020e-01
4.978008783259515319e-02 4.858351924970802371e-02 5.002834866510867950e-01
4.752345527813918447e-02 -1.595857708316433116e-02 4.561447219572126177e-01
5.332819751691199317e-02 2.965161489721862033e-03 5.039614216241764533e-01
5.820264329073035481e-02 3.351233276056918980e-02 4.684255676211372954e-01
1.010858358406045189e-02 6.382701270160516527e-03 4.289059238678064045e-01
3.421922259050593461e-03 4.691718018350633790e-02 4.069813712012230189e-01
5.773619650964696010e-02 3.537345934486941373e-02 4.660074831769487891e-01
1.229042212953592936e-02 2.874703112169390770e-02 4.137975725592199505e-01
5.081565647385662826e-02 5.474450954545419940e-02 4.526728515799870456e-01
5.359088605402844568e-02 1.957228534570770034e-02 4.923049171822515557e-01
3.444531825286051979e-02 -2.710099291368210303e-02 4.456963127705234617e-01
-5.966097550566073701e-03 5.211010224389608751e-03 4.254981697264509366e-01
4.951642210573883873e-03 3.932727883065074981e-02 4.036037378762509786e-01
4.967061985964602022e-02 2.910398150862243682e-02 5.033168615309973060e-01
2.621152024577871192e-02 4.011001053386452353e-02 4.298611735827375102e-01
2.611027549332509134e-02 2.051064174221087569e-02 4.322486869970224022e-01
4.777931124455819106e-02 5.146957522777566990e-02 5.006589018481729658e-01
3.404772591842084029e-02 6.026192497247640639e-02 4.395278924931843578e-01
5.780740769287921049e-02 1.886632241561498127e-02 4.777118936865658583e-01
2.126302240550014683e-02 5.740240872268213834e-02 4.279743695195389885e-01
5.688234958302190725e-02 -6.492394504951463745e-03 4.753288954287220869e-01
1.041420440393553068e-02 4.748401250416210695e-02 4.123337396674698896e-01
3.385968979421125763e-02 2.764067844969685453e-02 4.371389456872812329e-01
5.634132079037593860e-02 -8.458628527286300713e-03 4.744520225282880532e-01
2.352012105195543795e-03 7.013494651270353077e-03 4.256832010674770350e-01
5.782854186437997451e-02 2.879894784749900336e-02 4.641017302415036405e-01
4.929400083623010353e-02 1.637071193531052654e-02 4.501144132755426908e-01
5.400745253849462135e-02 2.503901876253301559e-02 4.548876102068349914e-01
5.116795524054446043e-02 3.878591410428324643e-02 5.018819466614349301e-01
1.885431690128359927e-02 3.061876455101370312e-02 4.233059487739310733e-01
1.344550124222944343e-02 3.736600281296671711e-02 4.153893071243047741e-01
3.257493828283215820e-02 5.936403861099164014e-02 4.382306390285180542e-01
5.555316813318068869e-02 4.848310964009212159e-02 4.760386334863745961e-01
-2.381939270917285759e-02 2.420245070588610686e-02 4.196729417090084846e-01
4.421531107182707226e-02 6.482816010469379109e-02 4.786078711402535490e-01
-1.637706793710050693e-02 4.797916891933070443e-02 4.110319103203425306e-01
4.590409934198200897e-02 2.027353662170392964e-02 4.466437300875064631e-01
5.499362138328902500e-02 8.440127948536078201e-03 4.914240580104969336e-01
-1.166053297849264578e-02 -7.678942052175124697e-03 4.326575793625383470e-01
5.105355505857892690e-02 6.107508657774714939e-02 4.702723480321419069e-01
4.149754392922419544e-02 5.752145862294223699e-02 4.440005742847334957e-01
5.153265179014716868e-02 4.933712014323957812e-02 4.945009897821162625e-01
1.089515077729885997e-02 -1.960052964655769475e-02 4.368844106239807568e-01
-8.211289087118146118e-03 1.071327710775496836e-02 4.217476335304869428e-01
3.170774264892579214e-02 6.504603574216509532e-02 4.440279106686351174e-01
5.804231546216879339e-02 2.279194454459582825e-02 4.671173347595306002e-01
3.657363332889725788e-02 1.578439619684987236e-02 4.393891946065178189e-01
-2.703688681800605481e-02 2.153536053443769888e-02 4.227980976367392008e-01
-3.304950314507919262e-02 1.604455008948655129e-02 4.325423974568333718e-01
1.337516383640730520e-02 4.208696870322499450e-02 4.147984653081521200e-01
5.062929319808953665e-02 3.314391685867642406e-02 5.022551349256200171e-01
5.635498054389446315e-02 1.868439871506637423e-03 4.927739899318780425e-01
-9.555684928441939702e-03 3.274909806768973308e-02 4.089022421081798253e-01
1.541538261368531268e-02 -6.993399247538150537e-03 4.326468989581352953e-01
1.228151385412711363e-02 1.809810651511505053e-02 4.221040698304016625e-01
4.481669681661129556e-02 -2.212794213287678710e-02 4.549270563899341924e-01
4.282993566757343357e-02 7.026586638705152599e-02 4.571303901961525917e-01
-1.011401902874813075e-02 2.895952050436005620e-02 4.109936040684221692e-01
-1.079929809421075436e-02 3.164554391017576629e-02 4.097831662562576027e-01
5.699326475864283092e-02 3.229296675587537552e-02 4.844735758389728808e-01
4.305614296959777224e-03 -3.205316398654969000e-03 4.303457882042219240e-01
5.099697288442624904e-02 4.350192398893241302e-02 4.520947871192749212e-01
5.836789077821876587e-02 3.022350145990628303e-02 4.748925155282459620e-01
4.522253710420918310e-02 6.052281605503165296e-02 4.868962776741875831e-01
5.784282151548349876e-02 -1.221752070779988202e-02 4.832314690816839065e-01
1.952729360978247564e-02 3.737984557967147931e-02 4.235912727184798499e-01
4.059192842320389488e-02 -1.429728501189215205e-02 4.457627988619973225e-01
-4.590501422213099855e-03 3.073253193077014889e-02 4.070608539162060002e-01
5.684360546428526145e-02 -5.634577974779659756e-03 4.742037483219359584e-01
5.151714676331262122e-02 -9.789263573255178874e-03 4.623898937024050193e-01
4.821800938420538890e-02 4.611396608010592119e-02 4.488781933798969281e-01
2.602761796178259743e-02 -1.233228156694612249e-02 4.363920672830732261e-01
-5.284689878600524332e-03 4.033503743041705336e-02 4.055560114787574166e-01
4.064081332282606929e-02 2.192309543017601295e-02 4.419236472048221898e-01
5.163278771330006428e-02 4.361758284337108847e-03 4.543549472673826251e-01
1.571382951028589547e-02 1.619821061552231128e-02 4.259888435045047217e-01
4.606075918460707241e-02 2.605466932706859001e-02 5.105861111801378582e-01
-2.321119914470847617e-02 1.863759285242702970e-02 4.222721552830605019e-01
3.642622658647384770e-02 6.495095304877301912e-02 4.458673824989679013e-01
5.664000378133411673e-02 2.839472263587238844e-03 4.901798926178008720e-01
2.184937915710142772e-03 -1.840158129996653444e-02 4.360417993023759653e-01
1.633897447487463184e-02 4.257751717743440967e-02 4.194115882962821118e-01
2.469547955989657637e-02 4.130161480349761605e-02 4.283009511006177217e-01
2.467569947850643819e-02 2.580440695341070650e-02 4.301818551134833912e-01
3.811113138678940554e-02 4.865880068386630071e-03 4.412799822227203017e-01
4.994956221473263042e-02 -1.509588842656802744e-02 4.614299719560523982e-01
5.674736511169505698e-02 8.600162264110495364e-03 4.665056896289213606e-01
2.696902481026637252e-02 3.001023376462141207e-02 4.317545451945203894e-01
9.665652308888227767e-04 1.846884108748391221e-02 4.149453411110292089e-01
5.438563854376660123e-03 1.923767216902060387e-02 4.155622587196514672e-01
5.752408344590295014e-02 3.487134932789234115e-02 4.646689897151905502e-01
2.027168382646823627e-02 9.141490064624970685e-03 4.319502845443425332e-01
5.396110219545325465e-03 6.098708323636034545e-02 4.202954104574838090e-01
3.558606886961106219e-02 1.954348776725716927e-02 4.385331983671710843e-01
5.141248357054955392e-02 1.186501529687476915e-02 4.990459570530866862e-01
3.791211529812139186e-02 8.355504379134057191e-03 4.406012888986966525e-01
-6.825719704743750393e-03 2.323069794558169782e-02 4.123307616644014684e-01
9.429810629372840577e-03 -6.854896196811855955e-03 4.316459865345274038e-01
1.377906960991062170e-02 4.604156476851169189e-02 4.165725858355054378e-01
4.719815894694755209e-02 4.861120190321575885e-02 4.476984105892961585e-01
3.195546589608146831e-02 9.180116532588488603e-04 4.379820818409932426e-01
1.754914496741039401e-02 4.680697260357414430e-02 4.210735609220241926e-01
5.687524116877952507e-02 -9.450032299338672476e-03 4.784362806827007764e-01
5.744674905381863539e-02 -9.389785394802506110e-03 5.131498354632411107e-01
1.043322672333647089e-02 2.156939156225112092e-02 4.172845255853389612e-01
4.602242645466005089e-02 5.441762319708996071e-02 4.474081036975848247e-01
5.784355612519382489e-02 -2.980547319926264357e-03 4.941019600653789312e-01
5.627400164994975779e-02 9.369470493944377990e-04 4.953628656321980572e-01
4.203703630418297033e-02 -5.466806106254430871e-03 4.459758492377784433e-01
5.348911464814528477e-02 5.539276251377795585e-02 4.719154409959539498e-01
-3.518079329329192040e-02 1.472120393469469879e-02 4.381335158461696078e-01
5.612891849752720680e-02 4.665860833809676311e-02 4.659229636345037506e-01
-2.363630136551236882e-02 2.576764541374291714e-02 4.189663728045434077e-01
4.624322749596627286e-02 5.614504024296020079e-02 4.930355470738354007e-01
4.991092417341593673e-02 6.153934115623311413e-02 4.749710464491501138e-01
2.686471295339762713e-02 3.882072822297391590e-02 4.305772377666928774e-01
4.485804761465149448e-02 -2.642068250908628964e-03 4.482608154648605181e-01
5.754382183381982069e-02 3.686389758372110581e-02 4.757076941337148313e-01
3.004273908320219053e-02 -2.334879308784970978e-02 4.406930969968673173e-01
9.026856123010299632e-03 4.357971533243733264e-02 4.099433605318460461e-01
5.699723514910219613e-02 3.805147646970898773e-02 4.792619906402664776e-01
-1.947128916263986265e-02 4.573171279970289493e-02 4.116728408630430103e-01
5.825494778328438664e-03 -9.736534571707051305e-03 4.320994508021379077e-01
3.829750467453100354e-02 3.406376124621759982e-02 4.403197335599589590e-01
4.836302885122958917e-02 6.192692068704636066e-02 4.531046335264716229e-01
5.120028231985879197e-02 3.134018757970734488e-03 4.538395624911602533e-01
-5.531305940728445912e-03 -5.948849320954365492e-03 4.308323414478584246e-01
4.560734250972523635e-02 3.615673882166413333e-02 5.113167859527267822e-01
3.229963243216633223e-02 -2.449385495780039739e-04 4.382780754531337974e-01
3.664972941208938934e-02 1.365661848221564820e-02 4.395353136409447803e-01
1.713915884027720354e-02 5.213122879191607606e-02 4.214416673203567609e-01
3.718811717567049868e-02 3.374937285145473975e-02 4.395337387101641013e-01
2.132417916126845558e-02 5.604235704339909779e-02 4.266830336216964614e-01
5.385711098674134806e-02 5.383436119455082408e-02 4.741892451090344296e-01
1.101547050809635955e-02 -3.653016894998188657e-03 4.312962019902186750e-01
4.802831073208632673e-02 2.564006529808457446e-02 5.063882103738027718e-01
5.628379096260649472e-02 4.409301870793908007e-02 4.767704709035238686e-01
-1.331732703710444658e-02 2.356288705660551045e-03 4.284146213791268920e-01
3.887760455019359518e-03 1.351839684783827898e-02 4.209718409165426611e-01
5.771339262637475293e-02 -1.036240978968980091e-02 5.131621922457987317e-01
-3.212363872557832262e-02 2.415892621317283773e-02 4.258956593334481400e-01
1.487428491347803604e-02 5.049345618812844938e-02 4.184850279560207720e-01
5.617667521970621386e-02 4.222283648756096353e-02 4.805165652540619448e-01
4.058326342239201856e-02 -1.784364635524232634e-02 4.467529968339026825e-01
3.986038609974465463e-02 6.891699507711235295e-02 4.506633137658851984e-01
5.558093225177379582e-02 1.914459645638363211e-02 4.591519094773492404e-01
4.920630459408845830e-02 6.445646202520737000e-02 4.602792305163184716e-01
1.978861530064473725e-02 -5.593452267053732052e-03 4.334436896709157883e-01
1.406961028574495697e-02 4.910800282602337946e-02 4.173655618647637566e-01
5.013467692749017102e-02 5.449078717627060114e-02 4.900851507228648485e-01
5.678140047699484910e-02 1.329317741898887288e-02 4.823225776622524497e-01
-4.322712671628065051e-03 7.633944287832797673e-03 4.238211011113417470e-01
-1.424658112512248130e-02 2.967896775739606308e-02 4.123995341042515084e-01
4.048790754427324112e-02 4.887470773555332992e-02 4.416647686519088456e-01
5.118353161520842326e-02 4.731579895486538040e-02 4.523236350804923367e-01
4.465945268864743301e-02 6.742034971087104700e-02 4.699917558547721530e-01
5.670966519862723904e-02 1.872838023850197098e-02 4.833114742140093845e-01
4.640341532928367319e-02 2.406013331701497768e-02 5.098479695624376085e-01
5.702144734346454441e-02 1.872953033112250212e-02 4.632021917955361778e-01
5.191304805080308726e-02 5.860686241481013331e-02 4.724313117469898238e-01
1.909834378437375718e-02 6.072630384659438718e-02 4.348465286923480777e-01
8.812289841195060716e-03 3.042179611906225406e-02 4.035910107142156589e-01
4.271463905839868042e-02 5.656452646988194971e-02 4.448928434591049030e-01
3.256699301709470307e-02 4.623941840310091117e-02 4.350620048548365371e-01
5.553830189931171363e-02 3.161726813689737237e-02 4.582244794232602780e-01
4.266654564647645413e-04 2.751137127598879406e-02 4.037212009248425937e-01
3.264197072627324225e-04 -1.149412053202408801e-02 4.321792729680004053e-01
4.430556684299163939e-02 4.077494379424802945e-02 4.447866982430016547e-01
1.219699474730646244e-02 2.851964688741570608e-02 4.136965838048094479e-01
1.332164765339382585e-02 -6.138618097136831764e-03 4.320581797525837042e-01
-4.473842961372209714e-06 1.836385715045317849e-02 4.147916253686901311e-01
4.515104914938810471e-02 5.159420468801938220e-02 5.045901895675201088e-01
-3.541829157243760878e-02 6.377728434026145796e-03 4.385771738256079577e-01
4.348656708671432003e-02 6.763858561115453083e-02 4.521501473736010412e-01
-1.987221523926478370e-02 3.661753421650223994e-02 4.124366057836151289e-01
5.191416210024259875e-02 5.462900042328337064e-02 4.833872570741555852e-01
5.448916316381155478e-02 4.719909357712102210e-02 4.864602536987248649e-01
5.677380946991581606e-02 7.549577215256423821e-03 4.671520634360267210e-01
4.983389984333207179e-02 6.455675370775426636e-02 4.659794719588287171e-01
2.133267231761218699e-02 3.429731238076461769e-02 4.255701821180202793e-01
3.488453243455492958e-02 6.757166028768986366e-02 4.500022136502160874e-01
4.773842889463876527e-02 1.652652799129415012e-02 5.061032397097248170e-01
3.480784034753395262e-02 -2.646526208126153551e-02 4.456552539597351537e-01
4.948910186628303204e-02 2.235224719794879147e-02 4.501895967663057108e-01
2.530915000283296551e-02 2.379771895494304720e-02 4.311012158566203678e-01
1.820191417183015040e-02 1.574217756875129215e-02 4.279013475827250224e-01
3.783435081913189696e-02 5.032503560846351975e-02 4.395320913922144968e-01
5.306681514258006563e-03 3.021815627470845859e-03 4.290965002484463664e-01
1.682632287932851051e-03 -5.272305206308561080e-03 4.305098730348203562e-01
4.616755049921187487e-02 3.870406565535196297e-02 5.104289218465350997e-01
5.629936613691409464e-02 -2.006677867032046966e-03 4.995510555227847815e-01
-1.587796506696225601e-02 3.886042902996385273e-02 4.095475063073781841e-01
1.462310975540204866e-02 1.694528508411783166e-02 4.245743935420917547e-01
7.489433078147314342e-03 4.396205983726339528e-02 4.087075713479658701e-01
4.422031918022692465e-02 -1.715984731551437395e-02 4.512162347081331015e-01
5.722477655514830730e-02 2.304963645786544182e-02 4.826145028984105689e-01
4.397270202220864704e-02 6.900519625142670366e-02 4.589059605118385732e-01
5.662985116056631213e-02 4.165453892505269207e-02 4.630080862863149016e-01
-2.767633252431610930e-02 3.278334146654931364e-02 4.189414127016229394e-01
4.347371883123359038e-02 4.438908194608064128e-02 4.440434026605528661e-01
5.283702383637994826e-02 5.776537436092135658e-02 4.692304587466483157e-01
5.746750868498329973e-02 -1.392788813217906915e-03 4.761853757044572366e-01
5.725767892823809685e-02 -3.676029480688580015e-03 4.744668087518835731e-01
5.460410680610834622e-02 3.668602955871274468e-02 4.939810871160372763e-01
3.024267014238673015e-02 3.185107359580054143e-02 4.342685254158722419e-01
5.573260558868384229e-02 3.028241150998846332e-02 4.899579500012492539e-01
1.262347976874344385e-02 5.927684892279472262e-02 4.221937693019494064e-01
5.566137501520335151e-02 2.695314008019638816e-02 4.898515847568993276e-01
1.868965865671827140e-02 3.785272176191706306e-02 4.226174753911005055e-01
4.870426571903175433e-02 6.537940770106082100e-02 4.689077891107999996e-01
1.729530943530948467e-02 3.852794148960926590e-02 4.210127876412732006e-01
5.682938156536906232e-02 2.150666726114179583e-02 4.838160396184377765e-01
6.254604090716350644e-04 3.605108218873923857e-03 4.274742344497896585e-01
5.696035823181409830e-02 4.106550345801561475e-02 4.641928932840520550e-01
-3.442495149163070367e-02 1.668540392942589184e-02 4.351123411894518012e-01
5.497872821311197700e-02 4.871460209265592034e-02 4.801008441397048854e-01
4.113394442297575726e-02 3.669398180040365359e-02 4.423829543351049942e-01
2.137554861761035638e-02 4.246079901446395133e-02 4.248607769870081374e-01
3.068851099828687548e-02 5.833258744714275162e-02 4.360584050781554644e-01
-3.315950459192147648e-02 1.758443865946051135e-02 4.317667789247643384e-01
4.322958429233399874e-02 5.110039157244187363e-02 4.441942181162771841e-01
5.815564448446507856e-02 -3.284196942341120577e-03 4.929847503232963613e-01
5.582018853396696068e-02 -5.705032827424406407e-03 4.700627569554883256e-01
5.823686166162241051e-02 -9.014747515127218697e-03 5.091868808425255022e-01
4.779258303212185338e-02 6.679091689395270925e-02 4.648495064185351744e-01
-2.252874224100634079e-02 4.187122760535243182e-02 4.137571008812406803e-01
5.017010791232509592e-02 5.211322780443356645e-02 4.943582303886717710e-01
5.127716090151461514e-02 1.590183702480797712e-02 4.524138032861296232e-01
-1.673902996263077576e-03 -1.079636227860448702e-02 4.322050881445838044e-01
3.174102620640073015e-03 8.608045027065263158e-03 4.247977953266912077e-01
-5.109120188402375279e-03 -1.495237069287239443e-02 4.337882429219391267e-01
4.554542158597427864e-02 6.732434818741646343e-02 4.684254296097146164e-01
5.669518907083568454e-02 2.447936354601705153e-02 4.613796376055657733e-01
-1.727628099043602983e-02 2.919398258317733655e-02 4.140403857387975339e-01
5.696039093582459106e-02 4.248753051791968882e-02 4.658160245869533145e-01
3.796569684275548362e-02 4.976063220936416398e-02 4.396044639049085379e-01
-3.020248412856049031e-02 1.352005840976429341e-02 4.303500665421021720e-01
4.856383847332400305e-02 6.488025288589845119e-02 4.581635553778475312e-01
3.716248741692899232e-02 4.697411881938227257e-02 4.390210512752194538e-01
4.581241526890843935e-02 5.074411993566397411e-02 5.063298306818603267e-01
5.558026655518776699e-02 4.327689357642656998e-02 4.840075791392517979e-01
5.027767496803382113e-02 2.126854466258868565e-02 5.002794217665091914e-01
1.540626493935694057e-02 5.222798692775675045e-02 4.198286356671340758e-01
5.053032277703608383e-02 5.674728427514441620e-02 4.834951712516724620e-01
2.265547118761135348e-02 -1.578733138954051523e-03 4.340157217193759687e-01
4.850073993957035312e-02 4.357109910896710125e-02 4.492044517208171883e-01
4.730478018798514595e-05 1.437983038499458972e-02 4.193025058536573590e-01
1.204307742811049162e-03 4.863539975672942495e-02 4.070378208904643080e-01
3.353335054334596194e-02 6.696107408936019523e-02 4.478839112109901377e-01
4.592057684142613477e-02 3.775408176905074159e-02 4.463604395445863737e-01
5.437899392489600747e-02 3.605786743887876705e-02 4.947741342302092171e-01
1.026956958875676132e-02 4.880859839411356288e-02 4.126937716334845296e-01
5.167838053113842089e-02 -4.367540859225834196e-03 4.588101293499200484e-01
3.731799893678223318e-02 1.663570830882970739e-02 4.397947318836745723e-01
-3.419882409925817379e-02 4.196833171088357531e-03 4.369995744592392595e-01
3.791623396524869405e-02 -2.569123626639789604e-02 4.479203561608431361e-01
5.748502669883116811e-02 -1.168235531204733259e-02 5.148132035035517529e-01
-4.361356865795602139e-02 9.861931851778509266e-04 4.476551778379749824e-01
8.380699946327675211e-04 5.586691307950043817e-02 4.145083138732025829e-01
4.887087940243300260e-02 9.862191896777172673e-03 4.498478800202271310e-01
3.935881666444567689e-02 -4.356810697137822319e-03 4.433038632328187845e-01
5.209277164950877614e-02 1.462113438812409107e-02 4.957980575079138363e-01
-7.390319859117881231e-03 2.467208129239464864e-02 4.118333467553657590e-01
-3.401653296026515422e-02 1.447664229744968951e-02 4.357226815198959602e-01
1.202338080632904538e-02 3.749951162543503462e-03 4.306093173926991979e-01
4.793556906804807144e-02 6.339580507941512677e-02 4.770680750355283384e-01
4.691272889144506436e-02 -1.250093379945293667e-02 4.541058772870139038e-01
-8.014544170541934923e-03 1.694156872873112119e-02 4.173336690973853957e-01
4.892658583486191731e-02 3.610461229609700923e-02 5.057086162965520604e-01
4.804077964426400893e-02 5.641812712602884555e-02 4.498753835142326740e-01
-1.619319580550608595e-02 1.921931484168581733e-03 4.292460470548469242e-01
4.844478667685410411e-02 1.813585323066781857e-02 5.045042320348535059e-01
4.998109645801120798e-02 2.598397727069650526e-02 4.506051196954659610e-01
4.901113059733516047e-02 2.568659258735415951e-02 5.041214228580220835e-01
5.520006100589960885e-02 1.330908132043957109e-02 4.592903129525056638e-01
5.659677065649836719e-02 5.632459198843175682e-03 4.675907023793080541e-01
4.762948550620908078e-02 1.895153787617973040e-02 4.483854742434242313e-01
3.698960327183722224e-02 -1.397757349992478047e-02 4.427023008025131046e-01
5.395705584340872163e-02 5.393500687484875655e-02 4.589188041517571204e-01
5.745484091451565078e-02 -5.600917247012382298e-04 4.910974526772271531e-01
4.824394298670494491e-02 6.633455449809964877e-02 4.655446545917724666e-01
8.606185269394606152e-03 3.630897242567734939e-02 4.072629305282183809e-01
5.689920894394569911e-02 4.194055842650145499e-02 4.643839985487483446e-01
7.497984210311515671e-03 4.901189220198045454e-02 4.109176789565823218e-01
-3.464660408463750979e-02 1.779058347563849951e-02 4.347895585705157107e-01
-3.138255129114801700e-02 7.829228204803575716e-03 4.340646334757842228e-01
5.627241470467917589e-02 -9.034475165673910499e-03 4.746865355948060028e-01
4.621008352707342559e-02 -2.161181006923467568e-02 4.567398831984865182e-01
5.562127195610857416e-02 -1.482760029191952655e-02 4.756686586903222103e-01
4.144321780120783366e-03 -2.294816937313084223e-03 4.301556660282917499e-01
5.507744510667883509e-02 -1.037313690214841655e-02 4.708372496529171780e-01
3.998950002657749442e-02 -2.336126920040473495e-02 4.482651322323160659e-01
2.514101944492725185e-02 5.160048678306311705e-03 4.347224146725894856e-01
-1.431807650091198106e-02 3.129502622490714508e-02 4.115550170552545461e-01
-2.319372022855911014e-02 3.092697881423545070e-02 4.165590642082724893e-01
5.056978887521072080e-02 -7.659333958908118647e-03 4.584956236077892822e-01
3.125807267159563980e-03 5.086060742584768563e-02 4.086742509651990485e-01
2.720151833059094096e-02 2.163410980430650887e-04 4.357586713975086234e-01
5.068273808052482093e-02 5.967191329283172418e-02 4.758749316115489791e-01
4.501192519851589940e-02 4.542347862147545767e-02 4.454686152111296260e-01
4.662436926955258742e-02 -1.522393006452521513e-02 4.544739001186247074e-01
4.627569579654680632e-02 6.462281702979398579e-02 4.523334591690041373e-01
-3.701513396654472314e-03 4.716036140866569637e-02 4.064424616696451498e-01
5.320399853328648676e-02 4.214264282164194991e-02 4.548958738895410026e-01
-6.713938598199367669e-05 2.307427191234859461e-04 4.293892812619631294e-01
4.875902077443090149e-02 4.559702120809558390e-02 4.495043993730948317e-01
5.791934291383762229e-02 3.539418874944599835e-02 4.742206999278838486e-01
-3.012819203161496567e-02 2.131897117509218287e-03 4.338047567976453522e-01
2.290499921622745488e-02 5.943363712595722825e-02 4.310460886813925474e-01
5.736142500764947194e-02 2.136763932462428309e-03 4.877024213766930072e-01
-4.087719234325056829e-03 1.988427279814792767e-02 4.130668800390893125e-01
5.580611072233052777e-02 2.520235942651790836e-02 4.591103155107391642e-01
5.200805577187574136e-02 1.718166406196472429e-02 4.532585014058864159e-01
2.673550289561700544e-02 1.592911435892388483e-02 4.332484432826917975e-01
-2.206316157341599998e-02 4.760590078336193742e-02 4.152918111741517593e-01
4.903725333081435100e-02 5.602033396110314700e-02 4.884423667776552902e-01
5.834174995116384044e-02 -8.592153755656396774e-03 4.893854336271744043e-01
2.533182623503063904e-02 1.041544875972123287e-02 4.336359858390514965e-01
-4.819648646707827208e-03 -1.650728337881638558e-02 4.344128789626396370e-01
2.245148211962762902e-02 3.153281405126773240e-02 4.270659373677933024e-01
5.646800101924077248e-02 3.229731157741428521e-02 4.870302962349779552e-01
4.457676219167733267e-02 -1.324075126849540499e-02 4.505638461672222816e-01
3.789307197310563813e-02 -4.289353748153746509e-03 4.422117342161469011e-01
1.325992483988680526e-02 3.978922162276354174e-02 4.144262788786189367e-01
3.993266053538626487e-02 2.892936326136769098e-02 4.415568050510490505e-01
5.393728095855582216e-02 3.529108988402111791e-02 4.960367853102757296e-01
1.726891327544074345e-02 -1.441176852832800823e-02 4.348880178183145984e-01
4.039117104763247784e-02 -2.438493164484925244e-02 4.499285572371535813e-01
-1.921206405099724554e-02 3.730858782664696338e-02 4.118139113002063922e-01
3.752080262939130884e-02 -5.433305948635363224e-04 4.415940407979861426e-01
3.826584202729486905e-02 2.972219327552439935e-02 4.402948523482735355e-01
3.390665402974009368e-03 1.246649567338845369e-02 4.216954264173340405e-01
5.418114497696117741e-03 3.841809163672814387e-02 4.037848270852175125e-01
5.213832085802636712e-02 -4.603654087011828724e-03 4.600887694809753237e-01
3.346880771833361107e-02 2.732104203931311551e-02 4.368776912228475862e-01
5.794305606941908132e-02 2.162491220440503070e-02 4.664053386737240237e-01
4.592425015949178763e-02 1.853800870661607633e-02 4.467017465020052258e-01
4.462251977015334325e-02 6.748401929947364652e-02 4.534275237867386177e-01
2.201252884932643900e-02 5.100898210557722190e-02 4.259418971598896708e-01
2.304854534840048916e-02 6.260944274587770808e-02 4.396279151274600228e-01
5.683721648228447221e-02 2.506058075568321636e-02 4.856117804115648862e-01
5.617651077300071100e-02 2.883211247466952593e-02 4.880173559337643852e-01
2.873351092029269738e-03 4.401751347339717679e-02 4.061425355112933677e-01
2.746194773780703466e-02 6.503021770003687696e-02 4.440990706847189884e-01
2.880106177911229137e-02 6.498871796754636387e-02 4.430145425970489770e-01
4.466538244035160587e-02 5.622776934555485939e-02 4.937414093914559987e-01
4.682880982214881332e-02 9.874879324265648656e-03 5.115255533653826348e-01
4.085765477856837663e-02 6.693375026826341168e-02 4.753056551427527476e-01
4.974054924082408485e-02 6.213636932653262418e-02 4.571637304219792197e-01
3.241908621449385297e-02 6.082979680262616540e-02 4.389590571821386233e-01
1.887432600013864287e-02 6.089213057587138794e-02 4.353648240377427370e-01
-1.559857596545712044e-02 2.935225147106247309e-02 4.131161714117018158e-01
9.663840414613711349e-03 2.813535020187843405e-02 4.077720161628791695e-01
5.583281324589449424e-02 1.210780053842123311e-02 4.862813950817254649e-01
5.524438468976116540e-02 5.084095996582024823e-02 4.669397764628546166e-01
-7.728258696387980270e-03 5.079407211381786746e-02 4.091360200967907312e-01
-2.645707253094267339e-02 -2.261913888528047090e-03 4.344452906686697702e-01
5.147623013005089843e-02 -1.375257923183405978e-05 5.133696059230252740e-01
1.046078179232780118e-02 4.593361881770553767e-02 4.118305925422831026e-01
1.093300593225220163e-02 2.723479327632300981e-02 4.119027847266502063e-01
4.518006322146922438e-02 5.077147493580621423e-02 5.070152191964436561e-01
5.288911086839987591e-02 2.809834587590728794e-02 4.537054748594712694e-01
5.820015396192303875e-02 2.303041239746280583e-02 4.758561782939221274e-01
-9.294110710632821210e-03 4.877121246350137225e-03 4.254171340815673386e-01
5.002965630887151044e-02 2.593551622371771670e-02 4.506534296827763297e-01
3.109278939567362149e-02 -2.235934889938027623e-02 4.409263658315821788e-01
5.224597510625806490e-02 -1.114556881262173879e-02 4.648780042154493364e-01
5.325840494296819189e-02 4.345523593286738928e-02 4.549082723625597069e-01
2.849610620195826630e-02 1.390274222587587274e-02 4.347282364413473377e-01
8.530310755887266991e-03 -1.905016405472659963e-02 4.370309716605194073e-01
6.913676764266391168e-03 2.590277152636747196e-02 4.051240124236903939e-01
4.479887701998430671e-02 4.564305861357093735e-02 4.452554226499172985e-01
3.144028488261700616e-02 3.401801754594489802e-02 4.351074866347638959e-01
5.126841030914058850e-02 3.176643255151013860e-03 4.539734238788774023e-01
5.507833213767266561e-02 2.553215990478367378e-02 4.573647395369780377e-01
5.167836973837260095e-02 5.920664527714540604e-02 4.592845420371084453e-01
4.999494267336858366e-02 5.642800148674199934e-02 4.855353170497190285e-01
5.834899545125579734e-02 2.672845142265152171e-02 4.728763366034454130e-01
4.754610883764100182e-02 6.273341048463716707e-02 4.791701957332978878e-01
1.781409684316056716e-02 5.820978185849969011e-02 4.258588854530827028e-01
-1.355866987017240177e-02 -3.879186494787619476e-03 4.312386359805175373e-01
-1.291696393150229723e-02 1.009744511631022884e-02 4.231500186050142220e-01
4.081056796823222949e-02 6.405647011627399467e-02 4.462837105699441476e-01
2.186404968048767661e-02 5.864202173514493355e-02 4.295856683589738267e-01
5.402220796172132328e-02 4.088575227680214808e-02 4.950735824499302162e-01
-4.449373393479602590e-03 -1.448053872060738045e-02 4.335801171731520354e-01
3.447087491077156785e-02 6.422081576563967720e-02 4.427101883546827321e-01
-9.555789894939466581e-03 -1.083777625153290076e-02 4.337284662244364486e-01
4.350203771084872745e-02 6.209517087441346339e-02 4.470544531965167101e-01
4.243825444027773952e-02 1.356654803113546172e-02 4.439829410649446251e-01
1.909827525179349714e-02 5.890310646623179991e-02 4.275940432004792791e-01
-3.453360217775009594e-02 1.822974251569946247e-02 4.342332648641019088e-01
8.459191221542502678e-03 2.506582120760126459e-02 4.103710493661448244e-01
5.595233235216300061e-02 4.548908341761574020e-02 4.775090868117505827e-01
-5.066124598948331878e-03 7.783872250812771433e-04 4.288741785358520242e-01
5.238517463223264781e-02 -1.249292970432560809e-02 4.657900100329878113e-01
1.197551908240509014e-02 2.950290777856184529e-02 4.126181082096487263e-01
5.626865564519939467e-02 8.987050649235668598e-03 4.645132275937616240e-01
4.575525577742137889e-02 1.033532315666584912e-02 4.469671350709904512e-01
-2.646861422652395726e-02 -1.382054016249416924e-03 4.340155572686649754e-01
5.747784034421937749e-02 1.193124830131959621e-02 4.777606452836171691e-01
2.468962990648351438e-02 1.892292959970578656e-02 4.315585274521267500e-01
5.181024156983841250e-02 4.095143003237064483e-02 5.002670072567063642e-01
1.208120623165989498e-02 -3.852298186360653565e-04 4.310079722123160151e-01
2.056413875816610632e-03 3.481609496342949472e-02 4.011566312387950251e-01
4.996060573213662731e-02 5.645706508441899335e-02 4.855307342432446105e-01
8.871018544686252311e-03 4.160769823237229353e-02 4.086973837153548561e-01
-1.195277898322864157e-02 4.681312781571802389e-02 4.080789737361889546e-01
2.900873597634778117e-02 3.091431704392871502e-02 4.333687513967960925e-01
8.739109250535746776e-03 1.049662792089093959e-02 4.256902168584718593e-01
1.979569852609273928e-02 5.931634525880231934e-02 4.288951526527345348e-01
4.904020246528443400e-02 2.497768177209591656e-03 5.146086933566212940e-01
4.472527267225499814e-02 -1.934506431562386247e-02 4.529490079330314445e-01
3.097266551397958451e-02 6.112478467142451466e-02 4.383869982555139155e-01
7.466790046616736572e-03 -1.962915398611308343e-02 4.373102817942489673e-01
4.535357191427853013e-02 6.762976763726204210e-02 4.634816436747413726e-01
4.635041121185028146e-02 4.861681108345285857e-02 5.073252010144000401e-01
5.207920294455994914e-02 -1.646625465952506698e-03 5.139441908655066893e-01
5.401513374601118328e-02 3.898320275917407929e-02 4.954080668979398139e-01
5.743105430290054714e-02 6.684011464114911552e-03 4.735201108576443940e-01
3.760883602300876816e-02 -1.362044424660139620e-02 4.430948523881190759e-01
-1.593546403019638867e-03 3.203262263417867850e-02 4.036295285578201941e-01
-2.854501605060187283e-02 2.165038701382961811e-02 4.237891001611957531e-01
4.782542778954858298e-02 5.443168069335412376e-03 5.137425396265671296e-01
1.485707087896639966e-02 6.985886704630639606e-03 4.305769428356711059e-01
2.753554665564101125e-02 1.958694488441148698e-02 4.333058550960119937e-01
-2.755531491313354016e-03 -1.676615852566562710e-03 4.296163033098986395e-01
5.577888785454909043e-02 -1.010819202555188721e-02 4.734623933332313683e-01
-1.535727156084839597e-02 1.123127743148546673e-02 4.230702155885287530e-01
-3.444753213168940537e-02 2.045229775642044140e-02 4.323189570572303353e-01
1.282953313789989003e-02 4.915804414602347600e-02 4.159156735648071868e-01
5.287989610537226215e-02 1.039437751924509115e-02 4.547096654596470278e-01
4.764336469331227619e-02 3.864158642043480363e-02 5.080138789231842811e-01
9.858909447044636454e-03 6.007358619398086436e-02 4.212963142974079367e-01
1.511308923062568144e-02 3.532049708725688852e-02 4.183578776462529292e-01
-6.258835383316703818e-03 3.994947514424921492e-02 4.057300056258323351e-01
-2.686183912416840319e-02 2.545069990083327974e-02 4.209721499183963767e-01
-2.075211459793203927e-02 1.855690093861957213e-02 4.212295020089862896e-01
4.646502428727065231e-02 1.416300819986258952e-02 4.473403708435523263e-01
4.919693312507022326e-02 -1.195166835234333889e-02 4.584388597179255842e-01
-9.202363144869812189e-04 -1.159712940875967657e-02 4.323782192854598305e-01
2.147977566799490895e-02 6.080799542478147746e-02 4.352314043948737887e-01
3.646086233693488637e-02 -3.709575124835939441e-03 4.411081269954097994e-01
3.617093317152531018e-02 -1.120309146679969708e-03 4.406651096847113425e-01
4.335806097875277709e-02 2.892706677359432963e-03 4.458930066986404595e-01
5.040593996331177440e-02 5.830054669474086376e-02 4.803051327674820459e-01
3.619509498914694895e-02 -9.717062811030630510e-04 4.406688503941901813e-01
4.809474295424099460e-02 1.461871744135509119e-02 5.060865432186919532e-01
3.935858202157048458e-02 6.987168413117078591e-02 4.508877829528253889e-01
5.732191801985458274e-02 -5.498869100881674521e-03 5.027026150311200148e-01
4.938826456948026966e-02 5.712158994824144409e-02 4.516135396453027084e-01
3.868654522382565606e-03 1.804063954411256818e-02 4.166374666163425999e-01
-1.296460031069795668e-02 3.314529199518378294e-02 4.101586613802071235e-01
2.573005082860236811e-02 -2.354758908707350537e-02 4.387829381916004134e-01
2.417671379428200720e-02 4.834766878992348416e-03 4.344062938010075370e-01
2.292309913547960903e-02 -3.947201662597903202e-04 4.342068906163220610e-01
-7.377407284898511788e-03 2.792963147081919256e-02 4.103103032392249605e-01
2.161257325784652922e-03 3.849889232838332731e-02 4.028341898422382328e-01
8.571945634793359456e-03 6.123326485954264098e-02 4.246162116032378142e-01
5.809423939550862476e-02 -3.038633525360846625e-03 4.883583462211967263e-01
5.319571322528009877e-02 2.026818345991191622e-02 4.542830853990267870e-01
3.134109319575704294e-02 -2.376455123469017102e-03 4.377753505419345603e-01
4.696677108794023586e-02 3.891354771201139401e-02 4.474282458111935035e-01
1.501923713528553229e-02 -7.746218330833383285e-03 4.327368937394314719e-01
3.214146952201767105e-02 6.231614331126530959e-02 4.396294404994367522e-01
