-1.697786449731576372e-02 4.201122271863274790e-03 4.278183173235347025e-01
8.797639035945083175e-03 2.613134216258673065e-02 4.103648781058870099e-01
5.238130488489309289e-02 4.989713237557645217e-03 5.037325349336720937e-01
4.637503804740629454e-02 6.250761304689328446e-02 4.812377752562154720e-01
2.760385575152089419e-02 6.481070916555578543e-02 4.422353437306687507e-01
4.872641339346678313e-02 -8.075893278508338574e-03 4.549470512795560362e-01
3.458229648430116709e-02 6.442119029388714002e-02 4.438071542844050366e-01
-1.981261028994979814e-02 3.136792494083200100e-02 4.144861354783253571e-01
5.752265675787834875e-02 4.145100502094952073e-03 4.773251391236686958e-01
2.785731860259102292e-03 4.762470186745449557e-02 4.074639486570496016e-01
4.322421871679892058e-02 5.080200857781329293e-02 5.094441207185815834e-01
-9.280362227648301585e-03 1.892888333529647599e-03 4.284500136125051761e-01
5.642757679470468413e-02 2.715507442260090346e-02 4.869895738462409196e-01
-3.426424642715587138e-02 1.921233476348513033e-02 4.325901937677572029e-01
1.064339764003103574e-02 2.527331919155388282e-02 4.160703439991972341e-01
5.462873531166887592e-02 -1.286136858551949202e-02 4.714785041107966146e-01
-1.182787925895028777e-02 3.854865930966653448e-02 4.079318236922477303e-01
2.349316819160737063e-02 4.406704774035447719e-02 4.273032866583090228e-01
3.416901447796994763e-04 2.652968076564509239e-02 4.042000559455141695e-01
5.004426607887658973e-02 5.054036365707141598e-02 4.968158076271025902e-01
5.053708834612410938e-02 -1.308691234416696318e-02 4.620845858619512248e-01
5.603251487921322160e-02 4.562407145794084018e-02 4.746957614200430497e-01
-2.559135161200075045e-02 2.881452008917721741e-02 4.187650317787205423e-01
3.149612350164077840e-02 6.536576470300431430e-02 4.454005217242458792e-01
5.599820906425571898e-02 4.368797358562236111e-02 4.781623943850071834e-01
-8.689303209593365884e-03 1.177385735748930420e-02 4.213445113148778232e-01
4.486784152508022094e-02 6.717394998232859016e-02 4.722813874839102977e-01
3.496065034131946858e-02 -2.638214562573496305e-02 4.457792831678353829e-01
-7.077958899569734320e-03 4.994140525955648863e-02 4.082937402384547165e-01
-1.778344724655461437e-02 2.654130586390632263e-02 4.155656494746602370e-01
1.976265436350205587e-02 -2.149053838420755119e-02 4.369553673805986471e-01
5.274794534306830041e-02 3.019036366362935070e-02 4.538536564117614525e-01
5.380871101964242870e-02 -2.538525730416636272e-03 5.121707132404488272e-01
1.924649051980209524e-02 1.869246592733282350e-03 4.329854518711007683e-01
5.147154117623439773e-03 7.742065056719165186e-03 4.263869450646951553e-01
5.750333521831500067e-02 2.031748168354499326e-02 4.789320258505530004e-01
3.031092593097296090e-03 4.757858048458110667e-02 4.075413154372637958e-01
-2.782076492825620584e-02 5.335198729870154095e-03 4.321431075986646997e-01
5.738366256430684625e-02 9.997285941155707040e-03 4.719378972465790856e-01
4.114414732940648023e-02 3.702144203021415919e-02 4.426540387268999011e-01
5.468008169058095891e-02 1.900553764349061092e-02 4.890605432964459376e-01
-9.065494055517372279e-03 5.116121006286661332e-02 4.101703015924069162e-01
-4.572468598297946447e-03 2.389643839721657809e-02 4.101947629073533497e-01
5.221751696355088346e-02 -2.163629783816193100e-02 4.689409804649335434e-01
5.573178110135855456e-02 4.378950531113200845e-02 4.802352366421095420e-01
-2.890800293787809325e-02 6.153228404244141803e-03 4.325824216801607558e-01
6.851475499121179383e-03 -7.140622899141970195e-03 4.315021088817711514e-01
4.563876790852743753e-02 3.294570805925504942e-02 5.110670232217865427e-01
5.032371725976512306e-02 3.700903995815833791e-02 4.514794834357697684e-01
5.521544903163008028e-02 8.396634969941136131e-03 4.904030511015772253e-01
3.113233319455210868e-02 3.857830277349305614e-02 4.348153675056264933e-01
5.070004637828333383e-02 3.285264873291084825e-02 4.515707194089528809e-01
1.064784452867321637e-02 1.933593805823906461e-03 4.305333058803509916e-01
5.101222405583621944e-02 6.088578593984776167e-03 4.527771651525392960e-01
5.012518004496323981e-02 -1.585611172282102785e-02 4.622946376689063830e-01
3.917952622746361663e-02 2.138411155840012554e-02 4.410576538393791157e-01
1.419147572462297474e-02 1.287180480402475881e-02 4.274614096309741762e-01
5.650033355633390236e-02 3.971041559957926709e-02 4.798392680113939268e-01
5.386880098633210073e-02 2.717514278616064982e-02 4.553387433714005117e-01
5.353199791261384344e-02 5.456035391919926425e-02 4.725899011511043302e-01
5.598609040629144024e-02 2.829872388709451375e-02 4.882477490916564133e-01
5.757514193467882374e-02 1.067179405168422381e-03 4.836112116828656937e-01
5.411296814281051776e-02 1.819007887111882306e-03 4.616585197432107046e-01
4.997055752935142953e-02 -1.334377333173262375e-02 4.609492264778100035e-01
-2.522067046120355510e-02 3.123741317471015466e-02 4.176518785196181027e-01
3.662912818546451565e-02 6.679206141445712119e-02 4.476410060875149477e-01
4.833289609116984964e-02 6.093908789286682504e-02 4.525907234021308012e-01
4.992623597720508705e-02 5.200635628239602681e-02 4.948690271134051355e-01
5.751799662442413225e-02 3.577587728764745900e-02 4.756866456338349480e-01
4.260076730416741814e-02 6.994687844081734496e-02 4.578203901717809443e-01
4.989878078261907740e-02 4.452097345898244074e-02 4.511687978762631834e-01
5.436099445562805194e-02 4.960478443093651463e-02 4.815994624843463745e-01
5.288500501807757992e-02 5.028538192187884809e-02 4.875988075387748255e-01
1.278224794302204245e-02 5.802281843007292550e-02 4.215490485418704192e-01
1.687242938966353883e-02 3.438239501841318380e-02 4.211251215898749178e-01
4.094006267945246580e-02 7.040883920693059850e-02 4.522559220540424696e-01
4.324968594592837334e-02 2.315042516360351146e-02 4.443193957370568103e-01
3.959170712941902787e-02 3.696830562426331457e-02 4.414354500294132566e-01
1.578038425022540436e-02 4.599109161505242349e-02 4.196103152174477380e-01
1.622005966543728708e-02 6.027822503677511545e-02 4.298985809186514073e-01
5.056518025709302172e-02 6.293392615907243692e-02 4.679063600353688956e-01
1.672292594209806582e-02 -8.989000294962976381e-03 4.333927012829759118e-01
2.369891310186543129e-02 -1.396132786090096244e-02 4.360971176686260220e-01
5.325692421731220011e-02 1.067697447771081762e-02 4.557695607401550109e-01
5.512617374154223267e-03 -2.160338102340748911e-02 4.376370751892709743e-01
5.902491122185576922e-03 2.265547030653020100e-02 4.103267213759376197e-01
-3.920165733063150915e-02 3.338094604142628936e-03 4.453186105379942639e-01
5.106704616538702834e-02 -1.720660430908883820e-02 4.651402310891276093e-01
2.994601752213517983e-03 5.498048793870685680e-02 4.140219414129220343e-01
5.191262013690488286e-02 2.505268670070689985e-02 4.971904209792056273e-01
4.741276396600819371e-02 5.083245572049831934e-02 5.030822607331921770e-01
-1.019216231629542849e-02 -2.424154647473028730e-03 4.301719929245067520e-01
1.211526865475431695e-02 4.144982488278501492e-02 4.136785078317616882e-01
-1.030373794037033573e-02 1.986988723788709471e-02 4.160827869852235517e-01
8.386663514458415902e-03 3.358832954184927388e-02 4.023037271610447885e-01
5.024449969848147207e-02 4.259057002728938029e-02 5.029602997057729397e-01
9.969952415150175329e-03 1.596668905248631656e-02 4.225892952568976457e-01
-1.171682560332704646e-02 2.001189070376436716e-02 4.166206464692174816e-01
3.769485892355060874e-02 3.547198561916562430e-03 4.413712741637949577e-01
5.059571612409402563e-02 5.932655722051406733e-02 4.761409715250175534e-01
1.706990591403670723e-02 3.117999035773210553e-02 4.217077788100995206e-01
-7.041801304759794967e-03 4.789969051438187908e-02 4.073732221882754301e-01
4.963132640904623777e-02 7.635231036340415188e-03 5.074704091214593538e-01
1.423878102148120640e-02 -1.898728183833008412e-02 4.363990645423179715e-01
1.432743113684909614e-02 8.041075802890880475e-03 4.299484086103887437e-01
-1.065181744662260094e-02 2.147891163320739608e-03 4.281476477589400975e-01
4.570014915814069739e-02 6.654419515593233692e-02 4.557200522147593080e-01
5.945897177482775339e-03 4.402090784646797705e-02 4.079598929991178347e-01
2.086446958411540542e-02 5.133120312509616839e-02 4.253463535976099164e-01
1.663536999286789955e-02 5.421692665556267221e-02 4.219834882080877869e-01
4.897935237942672992e-02 1.744929743998068286e-02 4.499818637867864513e-01
5.427866329572872406e-02 -1.046306188427835286e-03 4.636800587429307230e-01
1.767413832837885085e-02 8.409189549674843910e-04 4.325447570688462640e-01
5.618104525015907985e-02 2.128862037227027132e-02 4.608034425494078046e-01
-1.506758930239902525e-02 3.862947260820613626e-05 4.301693393274496624e-01
1.107258150419645169e-02 3.036561621594802834e-02 4.112341727838130234e-01
-2.792180526977073446e-02 2.363618502060094856e-02 4.224584752885472971e-01
5.233021513999997626e-02 5.443598537345821498e-02 4.806898679051860301e-01
4.952096041790766262e-02 5.515442940601226335e-02 4.894424197521005659e-01
3.317861232860302295e-02 4.693957608997857689e-02 4.359872956335317240e-01
5.805354401740342452e-02 2.505654263530595130e-02 4.706272365460223983e-01
2.034886805825616291e-02 5.072003782275218142e-02 4.248092497950517465e-01
-2.005826430784825656e-02 4.392652534558725425e-02 4.115872801238423251e-01
5.703801589544416073e-02 9.814279383119678749e-03 4.687718034852519922e-01
-2.925388403587477273e-02 2.382375538632298950e-02 4.233667375273773015e-01
-3.904003068602865389e-02 1.826831884732343925e-03 4.399151606878831666e-01
2.676624163882040594e-03 5.547624766064157553e-02 4.145105808570347938e-01
5.147165260827147454e-02 2.280995194881728014e-02 4.524475809380096858e-01
5.510503392366564168e-02 3.371108051720665688e-02 4.919870533694525316e-01
2.019854487370240440e-02 2.043959627202659654e-02 4.278356006018463886e-01
3.204952724184741836e-02 7.004448986986908793e-03 4.373397891093437351e-01
5.056378086848012376e-02 1.866965184712257586e-03 5.123948259366986058e-01
8.414527782712517834e-03 4.880641085936431728e-02 4.119699192453858960e-01
3.769648586338970181e-02 6.485365519039451576e-02 4.459124919799442588e-01
4.297142606722460095e-02 -1.343427791813951548e-02 4.484767803064077518e-01
4.134984455473268705e-02 2.302378441659310923e-02 4.426451561057680451e-01
2.852636268326174188e-02 2.574707848272102945e-02 4.336180371544704482e-01
5.108935635218133514e-02 3.109262331205078431e-02 5.006178135250487493e-01
-1.959857394263207070e-02 2.601136535825227664e-02 4.167753096322489026e-01
-2.488109027317324598e-02 3.172521987721405035e-02 4.172409284812926278e-01
3.312247821861476205e-02 5.867718350298164326e-02 4.383777197900237677e-01
5.461520841913125590e-02 1.907395206420173239e-02 4.892297352755798912e-01
5.704809515506679279e-02 1.758527374474560395e-02 4.807426947280580842e-01
1.452416699670967988e-02 -8.939840955490623367e-03 4.329520714027833561e-01
-1.000539017703886910e-02 4.363065277360778094e-02 4.075893619102450294e-01
-1.303615546461390530e-02 -1.264209693317255682e-03 4.302120535945421764e-01
2.466252001927544957e-02 5.774819623566168625e-02 4.309106839052036508e-01
4.884644566538529770e-02 3.573553929074256477e-03 4.510793962678018021e-01
-3.421219932144155956e-02 2.108490697578315615e-03 4.362799544196012125e-01
5.306989008607035374e-02 -9.279475240931905206e-03 4.657697020889638440e-01
2.569246830136391949e-02 4.811086773271178174e-02 4.291642788865574487e-01
6.762327030093813127e-03 -1.392413056364105381e-02 4.343128084214079032e-01
3.520122977656586077e-02 -1.745253536800212002e-02 4.422697920552962070e-01
5.648581373392975308e-02 -8.160321331919061574e-03 4.754081510908442221e-01
-8.901115542471870618e-03 2.298184370977330443e-02 4.138896382915726035e-01
1.451726617056783158e-02 -2.309942583021256171e-02 4.373391669364456447e-01
5.195765681725728058e-02 3.242165508699008242e-02 4.991028068506209725e-01
5.612927664971771591e-02 3.658017185986746356e-02 4.873795692527594370e-01
4.555626474215714039e-02 6.817884465675237704e-02 4.609976548228036375e-01
-2.041720612073084223e-02 4.826304717135467687e-02 4.146861977758276585e-01
-2.569522580835651576e-02 -1.763853756647117479e-03 4.339179884192548298e-01
5.441035846163517174e-03 4.081755197175128934e-03 4.288100528822654800e-01
3.529634744651137523e-02 3.705301485588902849e-02 4.383445044778840893e-01
-2.112739650276904482e-02 4.007642873852645254e-05 4.312864228060160898e-01
4.757101448237983921e-02 1.955502029249589838e-02 5.065726262711660599e-01
5.114330722698893356e-02 -8.336082077874489710e-03 4.607227372139502397e-01
5.727540212545637055e-02 6.583483496983955942e-03 4.758309019125462891e-01
5.440763283439606357e-02 5.530255914764858893e-03 4.962050300337554343e-01
3.611677057908505017e-02 9.883198130032922954e-03 4.393084313941212349e-01
4.878474469422516835e-02 5.509355510042853593e-02 4.913820318373716689e-01
1.152078111580948951e-02 -9.164954295130591302e-03 4.326164373126148988e-01
4.771088268227052787e-02 2.236687894960585898e-03 5.168229370703755210e-01
1.761041759992655609e-02 6.034649200412924713e-02 4.324581193224516507e-01
1.604886137542113622e-02 4.129851718456485632e-02 4.198628103231444308e-01
6.252791630872410467e-03 2.018598930053661783e-02 4.153748587516126745e-01
4.581230985431906239e-02 2.269903294672911270e-02 4.467708986331032639e-01
5.662314242280871296e-02 2.140241020203450216e-03 4.704899888325314028e-01
3.526856059966482215e-02 9.896543121521396078e-04 4.398593268375803889e-01
2.316474721268133377e-02 6.176267641989806323e-02 4.377934234711396422e-01
5.605032198654139042e-02 8.530740630767813179e-03 4.644965559949346678e-01
2.190620453203839801e-02 -1.397151674189539040e-02 4.356873249542408399e-01
5.074107339179421278e-02 -1.559628279011287567e-02 4.636100083915750680e-01
4.434507900998192059e-02 3.556979241629956018e-02 4.454423097603150139e-01
5.335685634421116763e-02 -8.503009663112345157e-03 4.659480734450127670e-01
2.145476649373642339e-02 3.393138929218877942e-02 4.261861995806653924e-01
1.796790841710606094e-04 3.512975129661406737e-02 4.020775521582777845e-01
5.790624856877198134e-02 2.951595203683331226e-02 4.780210251042276148e-01
5.813725316686690209e-02 2.532672991836113635e-02 4.745195673183285057e-01
5.722920313131955178e-02 1.893261893942297172e-03 4.734255030862793423e-01
3.755780809606833193e-02 6.578165138338372409e-02 4.467668301366048977e-01
1.648627769214982414e-02 1.086638055295059864e-02 4.297281438572662093e-01
2.636332754571485415e-02 9.829188810008248831e-03 4.345666669674976834e-01
2.890111688255186592e-02 2.403833251555392500e-02 4.339944108847338389e-01
-1.370735174887871208e-02 1.706312863245272246e-02 4.192044935871876432e-01
4.159548782226252933e-02 -2.771589984124866318e-03 4.452748666959532309e-01
3.795100068785588199e-02 1.212267646953259573e-02 4.407145951914474002e-01
-2.025330987630007823e-02 1.705803611846656506e-02 4.219465049208927510e-01
5.599087295690918092e-02 2.358379895931497425e-02 4.601652274726137914e-01
-1.069671415629456016e-02 4.556510834526868170e-02 4.078860081704024920e-01
5.804597999560512367e-02 2.416557526370524331e-02 4.719296960711137356e-01
5.469627373451608349e-02 -1.014125721382623871e-02 4.696022870927336612e-01
5.005396272475282418e-03 2.451459098430918901e-02 4.069345861792270647e-01
5.710520157795200696e-02 1.983218403656225245e-02 4.807771638543982817e-01
-9.693765350372142778e-04 5.781452628393723633e-03 4.257073953610110428e-01
4.961013527163490172e-02 2.607568114676173804e-02 5.024695397548192277e-01
-3.312096008587449292e-02 2.033302413534192332e-02 4.292371415354144237e-01
5.394184919781683241e-02 -2.500055849213454924e-05 4.622032994625916436e-01
9.132863010250779137e-03 3.084752326553035287e-02 4.055661158793709697e-01
1.822620445714357232e-02 1.333318782730998769e-02 4.293708554284889067e-01
5.573277136979146174e-02 1.285689681213206433e-02 4.859170900600772169e-01
3.417424388840007571e-02 4.429131243735447143e-02 4.370539595695259183e-01
-1.195090601044498588e-02 1.036472043409324487e-02 4.228452504000378420e-01
-1.344567596186597123e-03 1.610571639112811163e-02 4.174875525358008321e-01
4.767445897973966729e-02 -1.072210480786297063e-02 4.548447897002069751e-01
5.241773670025617893e-02 2.874194036273761133e-02 4.534513149304474910e-01
2.156733926828452094e-02 4.068747076475857233e-02 4.258545457503697951e-01
4.817462352674288517e-02 1.097740157134362640e-02 4.492291992382246857e-01
2.998122892362470315e-02 2.058233925542603607e-02 4.350443861534002976e-01
5.272602951836825175e-02 -2.108822252023847404e-02 4.699529086582292514e-01
3.050309724787097360e-02 4.183841786528495754e-02 4.339605549415456176e-01
4.506399469097298327e-02 3.927574568834398677e-02 4.457933556006146159e-01
1.034380701375832781e-02 6.000914364113180827e-02 4.221181148424766327e-01
2.793216380579983601e-02 3.723361343215624009e-02 4.320915045073213112e-01
5.250486368599126263e-02 5.141888294266655154e-03 4.562063341804694083e-01
5.263221911798866837e-02 -1.404268922738640020e-03 4.595661464139912944e-01
4.412068596259158260e-02 6.744788072520871425e-02 4.710268016849431527e-01
5.703101521036631205e-02 -9.982432309382834740e-04 4.730709684567785400e-01
4.682957762040858979e-02 3.810076096655545114e-02 4.476305317478140311e-01
1.705561882530760506e-02 5.417797669731799770e-02 4.223958662330793978e-01
7.483513489721374361e-03 3.931385622962292603e-02 4.072382438202351018e-01
4.832512736780027879e-02 7.469565769397457262e-03 4.497350327584597185e-01
3.238810545748543185e-02 3.954024227652674917e-02 4.358447650956411845e-01
-1.257612611276109774e-03 5.351439741819816187e-02 4.109990290220787990e-01
5.312737924403840295e-02 1.498052429989282439e-02 4.549834923046679469e-01
4.908904467126242593e-02 6.511794871787381089e-02 4.643424116490968423e-01
-2.588992733930239962e-03 -8.798326454208039646e-03 4.315682616233694202e-01
5.587754584218657811e-02 4.624140035465636178e-02 4.633474882630223002e-01
3.815939683150340600e-02 -8.406225522895851426e-03 4.428880096177322256e-01
2.909387529225166552e-02 6.562567020752943514e-02 4.465110595526148862e-01
5.645887573928262682e-02 4.390441287644594043e-02 4.735256376432047110e-01
5.641400102592532967e-02 4.203545460710041148e-02 4.769966831430260124e-01
5.689162871690111450e-02 6.895490013323966709e-03 4.839171563034478929e-01
5.204864446267946920e-02 5.619584056701786880e-03 5.037674322674895455e-01
5.006788771312889463e-02 3.523088259104255326e-02 4.510161027684528867e-01
-2.328324298852309238e-02 3.826160866998924021e-02 4.143325549408615749e-01
2.938818571778232733e-02 2.846455851337884035e-02 4.341405316934114356e-01
5.514452619090443042e-02 2.443955037609342462e-02 4.581180457980164600e-01
4.591958661783270002e-02 5.927687738730005873e-02 4.875255836836365764e-01
1.677335754402557375e-02 4.319956355717006341e-02 4.203707070616717889e-01
1.132662275317162896e-02 -1.103272322556319955e-02 4.331601427505425428e-01
-3.691261086886103715e-03 5.292989247680155579e-02 4.113879024914767757e-01
5.752077703213343690e-02 3.719860930379094432e-02 4.734786121908912682e-01
7.655860528202607963e-03 2.572465376143320132e-02 4.085093544601428039e-01
-3.573601123740480223e-02 8.040704040884059239e-03 4.389788072716387379e-01
4.694444119608296578e-02 -1.354703649033005275e-02 4.546123465241607153e-01
5.585500927298389651e-02 1.830662317719427071e-02 4.605120514503123763e-01
5.215201204584857253e-02 2.970299415853149688e-02 4.981594255640456881e-01
5.775986494169049051e-02 2.513278420099677654e-02 4.797595096727317876e-01
4.788012874725036672e-02 2.289609989110399577e-02 4.488010700796712937e-01
5.027301363368089776e-02 2.296152158419462880e-02 5.001978082000374526e-01
5.023155696748516502e-02 2.404826466981375283e-02 5.005328582551140659e-01
5.495764854015502271e-02 -9.672717764529926293e-03 4.701477766334679620e-01
2.384162612908061890e-02 5.355752135959761934e-02 4.281367794099056878e-01
3.882252115127111936e-02 5.180915856731230229e-02 4.407252467704392274e-01
5.184583932637280845e-02 3.122395183078544370e-02 4.990745894515086767e-01
2.292747913773565335e-02 2.491640485945128755e-02 4.290795295910048157e-01
-3.262236768053202157e-03 4.738515863960372776e-02 4.066772886472769799e-01
3.938492911486714959e-02 -2.012453458849003743e-02 4.464722837710917158e-01
3.231965321456027607e-02 -2.588699059196260255e-02 4.431803172124701984e-01
4.959629102148363500e-02 1.372964931487383015e-02 4.506791223970872950e-01
5.537954304491590762e-02 3.886493754967973099e-03 4.942144946753903589e-01
-2.983214279874774489e-03 -7.304237697485943016e-03 4.310342033865771083e-01
5.509268295523186282e-02 4.385639666280736343e-02 4.866936115449844724e-01
5.757022459391891028e-02 1.740321023478601931e-02 4.692757984750064448e-01
5.259272927230643213e-02 5.005230839465228676e-02 4.892526198145491501e-01
4.128785286798911797e-02 4.775666330146105532e-02 4.425922837488053818e-01
4.912385550255809336e-02 -1.904672349115962143e-02 4.614566662691754195e-01
5.710394406157988378e-02 -1.088136399002902037e-02 4.806324797465378329e-01
2.631854258359903054e-02 -1.710088953075497575e-02 4.377021791507996196e-01
3.603078137091244443e-02 5.892480657516019349e-02 4.405837301848158361e-01
4.275462602566248299e-02 5.155340325761454540e-02 5.071264467051276315e-01
-2.098736932506996972e-02 4.871802176102098259e-02 4.161098302548455474e-01
5.769829260745735350e-02 3.331193364700301557e-02 4.778516377818615712e-01
4.794199929503387830e-02 6.647732345858768654e-02 4.652134476675351960e-01
3.469389506734822659e-02 5.493857726291984100e-02 4.378216949160098626e-01
3.861735939021908315e-02 2.164560955911228393e-02 4.406706839447225299e-01
5.675645687914751547e-02 4.205897789709470147e-02 4.656560360410479382e-01
-1.334993673217679463e-02 -6.017343936767732913e-04 4.300556899396966726e-01
4.934066853388587720e-02 9.526932140651868733e-03 5.055834979527191742e-01
5.449881123061402904e-02 4.324184319356812883e-02 4.569173536170041405e-01
4.113604886042040304e-02 6.678442532296792467e-02 4.758470402183166970e-01
9.255448826084406930e-03 3.472350164118830074e-02 4.051856365956903461e-01
2.806551329923558102e-02 5.027072724227144018e-02 4.311394340333772890e-01
5.098011142943852103e-02 5.357361731636800517e-02 4.887752071314694358e-01
4.902755357515679174e-02 -2.092980593334698228e-02 4.621043956488671833e-01
5.798324183913194929e-02 2.697206158094447165e-02 4.665633867409018087e-01
3.530529741420138957e-03 2.837511025954962685e-02 4.016005279573579001e-01
5.514915138506861630e-02 1.718665978032164667e-03 4.992217613361693007e-01
-1.588080998460120533e-03 -5.862583923190360299e-03 4.306611460639769295e-01
5.763838405886534400e-02 1.785269625604722285e-02 4.704397593913350883e-01
5.058475113202128698e-02 2.512340422266729975e-02 4.514571974203581695e-01
2.765554032239812745e-03 3.372569375164011229e-02 4.008302011674583776e-01
-1.926379128525684825e-02 1.612646586567743207e-02 4.220899312304520756e-01
4.457441613728936602e-02 6.564492767036023135e-02 4.770802276524499508e-01
4.692076335453379543e-02 -2.279772783344264850e-02 4.588989085290570702e-01
4.387607484171968802e-02 4.981879306780253452e-02 5.102894982658932044e-01
4.874694553291725879e-02 1.435678979232816489e-02 5.041343490625963542e-01
4.796023251891631811e-02 -1.309123513832289101e-02 4.561990554453437263e-01
8.241544928338223955e-03 -1.184543217704864433e-02 4.331537545169548142e-01
5.698091717641953768e-02 2.885351988845872087e-02 4.624509066379711708e-01
5.787528013130598115e-02 2.248513469648898144e-02 4.681149426104618816e-01
3.035960761971585181e-02 -3.004573206591340355e-03 4.373124635333006660e-01
-2.259503517087066080e-02 4.473338368566681655e-02 4.139099514278368197e-01
5.322716209140397614e-02 5.397502442531509903e-02 4.571216728567928378e-01
5.327056261808692933e-03 4.635456633869460691e-02 4.086044107898987865e-01
-1.218294335341858076e-02 1.270349368368419232e-02 4.215811180239963374e-01
5.741161877550721854e-02 6.703012321848837024e-03 4.777181249404774954e-01
5.524169512158312589e-02 4.650241511220491730e-02 4.589068294097173317e-01
-3.791297505683462882e-02 -6.160466178846502137e-04 4.403487461299092631e-01
-5.664363249075652848e-03 4.755227167449541104e-02 4.070891398926849147e-01
5.012160762963708410e-02 -1.852651531917442335e-02 4.635455852027329238e-01
5.812496657162451175e-02 -5.937472727548345416e-03 4.945540583509959176e-01
2.442605982742769577e-02 3.532229317996889162e-02 4.289554566358425025e-01
5.334445734217912322e-02 -3.761893206563308653e-03 4.627971607801492637e-01
3.292604828093386587e-02 1.428077071573308557e-02 4.374457237959630262e-01
3.116186388322074452e-02 1.063205364767995202e-02 4.365559605058478287e-01
2.917100024049371597e-03 -1.099334865413615541e-03 4.299250986662269680e-01
5.674819089589669407e-02 3.925632955090482129e-02 4.780552433647767274e-01
1.918606885878192114e-02 5.244791628979343645e-02 4.240009897491648361e-01
5.221900764151849589e-02 5.404936551520139049e-02 4.828110852971772560e-01
-1.906653395259485032e-02 2.366927056010753247e-02 4.176383442238468802e-01
5.554173277959319199e-02 2.367047498323537544e-02 4.591073892665221146e-01
-1.423380684981915938e-05 8.120232635283169617e-03 4.241181479114398689e-01
-1.206683005027103101e-02 1.236588419781800736e-02 4.217443964784961530e-01
1.015082613131360230e-02 5.587458130822324509e-02 4.168837627871918028e-01
5.692951137130856237e-02 2.034562366831642322e-02 4.631503594190379269e-01
4.939245797634887747e-02 -2.249944981469274852e-02 4.634202284901952074e-01
5.467313608732073116e-02 5.054621730171267313e-02 4.774369684314485607e-01
4.955083551692997940e-02 5.585565661390044789e-02 4.876229629664519116e-01
-8.322471535624346647e-03 -1.214629637100283870e-02 4.337560356695112640e-01
5.327218494114488445e-02 3.941271352930929978e-02 4.968779741142139161e-01
5.358396560036876588e-02 5.123700893361418651e-02 4.563383995370557389e-01
5.719737877592661474e-02 3.674443752176276973e-02 4.649654013914366057e-01
-2.782151510004264583e-02 5.552932840188111799e-05 4.335786954922691838e-01
-1.523353760189110305e-03 2.868630156339849885e-02 4.047479046051207785e-01
2.222262889916464673e-02 6.314665541205531640e-02 4.409601739017728894e-01
5.724435867203871847e-02 -6.665253485641321751e-03 4.779805693274529754e-01
5.613057349899736731e-02 -1.157205715563666693e-02 4.764194273169809479e-01
3.693021688226682565e-03 -1.741571923149469112e-02 4.360394324361633878e-01
4.778611307729511287e-02 5.480619237028991862e-04 5.182013985743859630e-01
-2.416937376469307022e-02 1.642552932036864949e-02 4.242658885549329684e-01
2.739008533180050525e-02 4.848229612651536874e-02 4.305892347222466388e-01
5.220704174542452336e-02 5.930862494556703862e-02 4.669674539384604528e-01
4.716172926955345540e-02 1.543383774773292652e-02 5.074509416218875302e-01
3.137242069430465352e-02 1.586888493364807529e-02 4.364081103568476783e-01
-2.187576352670701427e-02 4.599205610749458606e-02 4.137541754815775574e-01
4.535240580005042710e-02 -1.063480949225396183e-02 4.511099335818652967e-01
3.583227183428637497e-02 1.692310921717860711e-02 4.390624605401226566e-01
5.628271120337381000e-02 6.003415139359149014e-03 4.883003996612122477e-01
2.093152280833724191e-02 4.451701754915389497e-02 4.249506570638811320e-01
4.903958171574319264e-02 4.551674952042224220e-02 5.043839246674044485e-01
4.497529936436434755e-02 -1.322848128367506895e-03 4.483085467774836075e-01
2.070344078965520931e-02 3.327194342039267033e-02 4.254046415606931864e-01
4.868962399401071534e-02 4.621665280049684632e-02 4.497843350975232468e-01
1.938703645668629280e-02 2.687256824333538949e-02 4.255759387794222914e-01
2.460009785786534606e-02 -1.153394584243357460e-02 4.358395632864910940e-01
4.586175963915496701e-02 2.625203453104478502e-02 4.467996916483911729e-01
2.125034912558614649e-03 -8.048753978067673797e-04 4.298171968649827090e-01
3.833363202556940713e-02 1.573183474059628578e-02 4.407593648937441766e-01
5.755405610818561946e-02 3.044708859723520289e-02 4.638917326170080013e-01
4.616495708441259449e-02 1.969093649088175801e-02 4.471417591411290804e-01
5.260508455048541754e-02 1.667383516292603174e-02 4.944618798015253947e-01
4.786764222723531581e-02 2.334980072309415788e-02 5.061461701820983983e-01
3.884721698054816041e-02 6.776429804758353492e-02 4.722157613671909004e-01
5.866240184633342986e-02 -1.008674169825720356e-02 5.080016886280934729e-01
3.162952947757399075e-02 1.289567526850942877e-02 4.366225609817785402e-01
3.518961358305998377e-02 4.212251766209314935e-03 4.393061760627466894e-01
3.917160193172116583e-03 1.854685243449506749e-02 4.161738703306606668e-01
1.191942319950545226e-02 3.177429979532382653e-02 4.121176486219536028e-01
9.886366320718383005e-03 5.308583946604891746e-02 4.148767785274879438e-01
1.876514206633263238e-02 2.116069726019485786e-03 4.328347778697430592e-01
5.813796122687894113e-02 -6.174103967136666121e-03 4.855540066496232821e-01
4.684016939305803151e-02 6.389305625784320875e-02 4.531374339021844722e-01
5.566793697334673774e-02 4.150884025583716219e-02 4.863650795336853516e-01
1.057079862540751675e-02 -1.241127981115353746e-02 4.337522206821132764e-01
4.829790061784841604e-02 1.083409298206225793e-04 5.178509105013414660e-01
6.177838384741399930e-03 6.108591922944407032e-02 4.222801928379404934e-01
3.549551238472466869e-02 -2.688355513900245880e-02 4.465306180874366593e-01
-1.853891689617528319e-03 3.666883130829298731e-02 4.030747401045625122e-01
5.405926413535523667e-02 2.645963676335724019e-02 4.929827318454605978e-01
5.773178603278772414e-02 2.693412425668047575e-02 4.801913210922266195e-01
4.666498772726048599e-02 1.065172878102981641e-02 4.478530659876599485e-01
3.730814799789387848e-02 1.729335352739072226e-02 4.399256868690791800e-01
4.763966360504717779e-02 5.366453227610855359e-02 4.969224097344581148e-01
5.696559207304867367e-02 2.777386094790061308e-02 4.624701340074122147e-01
2.905610049753255212e-03 -5.830186244545348603e-03 4.306908879628478237e-01
-1.562273356861224038e-03 1.290170836636196985e-02 4.204669132661915110e-01
5.663613895689816741e-02 1.019282229829117890e-02 4.829079443156408802e-01
3.273317873786013577e-02 1.611092297882963861e-02 4.372446135153833513e-01
3.166716367678561184e-02 5.120573591328185514e-02 4.343957292032057382e-01
4.758465179028335129e-02 5.525905718202987760e-03 5.139887111656448182e-01
3.926643081880572955e-02 -1.473622389985336512e-02 4.448020979718691481e-01
3.559385471629587794e-02 1.807096463810918888e-02 4.388700661547246251e-01
3.903200683368979185e-02 6.783510061770763044e-02 4.498073687308406510e-01
-1.039507469903894199e-02 4.364049165489266441e-02 4.076926205156655714e-01
5.352243864007109886e-02 5.155498165925563592e-02 4.828011695914167234e-01
-7.603075171431872975e-03 1.088774434095374742e-02 4.216041075775244229e-01
-1.998356518539423383e-03 8.324227598255511118e-03 4.237423157892691861e-01
-2.011666665046278526e-03 5.009962126728440858e-03 4.261221877615608555e-01
1.383086100441320923e-02 -5.016692086186368485e-03 4.321426115083355501e-01
-1.049865302189623324e-02 -3.466202034379729791e-03 4.306008314531503123e-01
-2.513198619328717645e-02 2.905427778361446139e-02 4.184092072209960600e-01
4.440377236927949695e-02 5.041560314429840289e-02 5.090348606658987585e-01
2.587088817275237304e-02 4.986723117692420243e-02 4.294226371295331579e-01
-8.760354645523290781e-03 3.880822215803880065e-02 4.062898095418053246e-01
3.938347040298912499e-02 6.770255834330832223e-02 4.723624573678100735e-01
9.689850664247160600e-03 2.502270834216988385e-02 4.145378531837773384e-01
5.376562575470604510e-02 5.551433532470727988e-02 4.630977143523716255e-01
4.472318217538887031e-02 4.676975808891302433e-02 4.455215241927936165e-01
1.354330929680783169e-02 4.347613610445381915e-02 4.161255428002594847e-01
5.457271127392061133e-02 6.295785183717418805e-03 4.940025008318341126e-01
1.136353920958317609e-02 4.300655050044335098e-02 4.129047174782765617e-01
2.097382638783219094e-03 4.957091644804915986e-02 4.079745009876714068e-01
5.748965037495146202e-02 3.370392501226027876e-02 4.794904868487521732e-01
4.779892959154623949e-02 -6.552995878923727896e-03 4.531120214772335064e-01
8.331897488148259229e-03 3.161160561828080251e-02 4.025660330425276379e-01
4.491146563040471218e-02 1.760504988812853014e-02 4.459929398280463864e-01
5.334445993569746775e-02 5.514033916226353943e-02 4.721483755366500112e-01
5.038062163565584090e-02 3.241810184878726048e-02 4.511568646730672594e-01
2.293231716227842054e-02 -4.154412395325761832e-04 4.342913465221733826e-01
5.082789804192667377e-02 3.257719564414836982e-02 5.014336106240485647e-01
-3.152703249145585862e-03 5.025046382395156191e-02 4.084705305891622173e-01
5.817857042089180641e-02 3.080114002784330521e-02 4.741160394508358578e-01
4.202592742733178566e-02 -1.480648926185459697e-04 4.453657820343491780e-01
1.643345769690761349e-02 2.700232499839783779e-02 4.221166856418280822e-01
5.793793676524539721e-03 4.147001987635534626e-02 4.063522296380250309e-01
5.502558809653679966e-02 4.466001436238042216e-02 4.575636709759954845e-01
3.543890600019288656e-02 -7.402666986722844511e-03 4.407160524056202844e-01
5.235068644483156786e-03 3.570539777653583633e-03 4.290179039562757035e-01
-2.475474043383450035e-02 4.149948774221656495e-04 4.323861105338049904e-01
5.414084956801918508e-02 -1.632507145041540986e-02 4.720290756737657856e-01
8.692313148392444289e-03 2.890077883812167472e-02 4.063388145505568150e-01
5.505110398628333679e-02 4.567421628785775511e-02 4.825703910252565620e-01
1.349057150379537329e-02 2.866135349215235759e-02 4.179444789354098688e-01
5.735204540953173918e-02 2.051798524058965484e-02 4.644052730717089794e-01
4.418291442803292529e-02 4.266992990402749403e-02 4.449208541795667826e-01
4.802173889186806682e-02 -6.518616335427360013e-03 4.533717457380498361e-01
-1.678220071111493229e-03 3.011175835684954186e-02 4.042066477664107427e-01
-5.484363152310535623e-03 8.975200538564088310e-03 4.228828980785794833e-01
-1.603958112997953475e-02 4.552868202437731354e-02 4.098009138849872390e-01
5.140313654905721147e-02 1.004840440644929472e-02 5.001293352131718217e-01
-3.175744728442762149e-02 1.058037399701602932e-02 4.332383710449818626e-01
5.618454187280543660e-02 4.219569928904898931e-02 4.623452625465536703e-01
2.816116742437182324e-02 1.534687492474634193e-02 4.344231525887684020e-01
5.755258447380653952e-02 8.629849438364259155e-04 4.874222139844132107e-01
5.476645440241438567e-02 5.906491967145197086e-03 4.936786583404657036e-01
2.844527990197100176e-02 4.678913203617433153e-02 4.317111276288968513e-01
4.179813434862200000e-02 -2.609670200291620661e-03 4.454512761177895630e-01
1.490332147463316152e-02 9.904990085846169384e-03 4.293353912335745592e-01
4.939348356384958005e-02 5.828562337385918835e-02 4.827893376646342216e-01
4.401554566383598238e-02 5.547108927247903359e-02 4.958491440465417899e-01
3.479432672722559960e-02 -1.900099195489982074e-02 4.423607048352564686e-01
2.628020182077509675e-02 -1.048499585575445904e-02 4.361713711084421741e-01
3.878174215545270725e-02 3.247740250431477294e-02 4.409064510015203164e-01
1.438665499843829777e-02 -5.902018886965993251e-04 4.317451370111776709e-01
4.464469978255834748e-02 6.745776368946294899e-02 4.699105172622874416e-01
-1.565347942265755965e-02 3.115165533360126845e-02 4.122730782285810025e-01
-5.261187496981869355e-03 2.913921875297506570e-02 4.083516337695661802e-01
5.262645275213072987e-02 2.560673577250952362e-02 4.957461151267126276e-01
5.075059785571560400e-02 1.848528612701078044e-02 4.986842377777185309e-01
8.824110503171679262e-03 -1.347397468195431561e-02 4.343455423662637704e-01
5.414346638821065927e-02 5.201659998861281331e-02 4.777224824683783400e-01
5.814192527304087865e-02 2.586777240485069879e-02 4.737327963245444029e-01
4.508215652200484036e-03 4.890625381053459626e-03 4.279645475074017602e-01
5.358491084940124327e-02 5.295821453829853073e-03 4.991112987717828964e-01
5.546561564754162732e-02 4.468739630186611272e-02 4.595412965433582353e-01
5.470646996978314330e-02 9.838234688611146792e-03 4.911597312890861322e-01
4.914356916876234938e-02 5.880796560743009604e-02 4.525918418463062975e-01
5.571741668717928447e-02 3.807271425308662166e-02 4.596003484515857052e-01
-1.837182276103084197e-02 1.039642442299682293e-02 4.246668874576269848e-01
2.797200570233334543e-02 5.212016694363359737e-02 4.312134583011183464e-01
5.190505611160104588e-02 -2.053469684777127144e-02 4.679494217263450717e-01
2.675998040479702147e-02 2.812231147602157338e-02 4.321766808488265998e-01
2.783453999962655703e-02 3.529071486032089866e-02 4.322132111118932030e-01
4.217086597801941034e-02 6.715353322402381475e-02 4.751739802457892181e-01
4.869998638515277145e-02 6.120408726061352458e-04 5.168267965959173482e-01
-7.014568069921007024e-03 3.332513971162837096e-02 4.076229042239027933e-01
-3.019083244208372457e-02 1.285462304581172152e-02 4.308535959975001717e-01
6.904548029656757020e-03 -2.057830339337158101e-02 4.375884048423434591e-01
4.911115165233942426e-02 5.972988886090155325e-02 4.533650326481942217e-01
5.317644378085476659e-02 4.590421229835481981e-02 4.932737734959670162e-01
-1.239968599488183200e-02 -1.788869781758188355e-03 4.302405074734781398e-01
-3.301288977117344120e-02 2.856221743640791066e-02 4.253606932067021673e-01
3.876975183046177387e-02 5.617769499513892983e-02 4.416062046407461805e-01
1.928601647308072348e-02 3.460636218280995630e-02 4.238071511008392189e-01
3.398318133157596926e-02 3.888167839927414438e-02 4.373056058982762728e-01
4.915083678868160943e-02 2.715677849653120104e-02 4.500170208844930797e-01
-1.540670358397616853e-02 1.554097007074256576e-02 4.208364646467147030e-01
4.177331551795978454e-02 5.429165313412333965e-02 4.438901188549339571e-01
5.254776855847898692e-03 3.064343706700705869e-02 4.019421312218027786e-01
