4.443693426654007905e-02 4.977295004770498910e-02 5.091362934109637806e-01
3.944200858457395931e-02 1.588674245764233606e-02 4.414793422874948026e-01
5.077809307023079671e-02 8.994785648083029883e-03 4.521516182705575537e-01
-1.567520791778779718e-02 -3.076810631654129744e-03 4.314134840487045541e-01
2.667759358292708452e-02 3.168364085819352222e-02 4.314383341443099318e-01
-3.457803231755973011e-02 1.361339613235012375e-02 4.369256210344378832e-01
1.209464124726491877e-03 1.001551555076031844e-02 4.225921101539327762e-01
4.802894668929297284e-02 8.897067186253472537e-03 4.491903675106787008e-01
4.571669373428010469e-02 3.294378075376185044e-02 5.105843933152804937e-01
-5.085378185609352314e-03 4.005371617950452545e-02 4.050741108339765972e-01
1.453813659654870118e-02 1.904989046476461556e-02 4.232572456388734028e-01
5.076654160685278167e-02 3.617330680690903494e-02 5.018482451969276115e-01
2.193016900211122722e-02 2.852488697906053333e-02 4.273802838895567335e-01
3.504367272358617502e-02 3.430076786030468450e-02 4.381149360985042152e-01
5.041839232609590660e-02 7.719034548841065962e-03 5.049237932853857247e-01
2.003198963703840818e-02 -8.328706540817265927e-04 4.331792036173259253e-01
-5.307697933237629645e-03 -1.511768174229098085e-03 4.295170275523276793e-01
-7.477005746258648736e-03 4.528296011516635966e-02 4.066122103897127360e-01
5.480824227306732577e-02 1.611596850883917006e-02 4.580367194414723397e-01
4.851442988837657844e-02 -1.149099938209071498e-02 4.566455236964030995e-01
5.648707321269794135e-02 4.560538097034641872e-03 4.691461266690627463e-01
-1.685113716665179867e-02 5.976156354333957837e-03 4.262817242882548374e-01
4.946477944054780695e-02 -2.265003318780126756e-02 4.635839850417023400e-01
4.744261308207849137e-02 6.570544750815862645e-02 4.731873676659281713e-01
1.161180792792736519e-02 1.112669065707933697e-02 4.266677881570573594e-01
-2.416980357649444605e-02 8.991094487583836843e-04 4.317882718769963657e-01
1.723442305714121929e-03 -2.239844426878419715e-03 4.299020588770155471e-01
-1.361990551143735587e-02 -3.582919495195833071e-03 4.310872402296303529e-01
3.641686362687067413e-02 -2.574553405199131451e-02 4.466683694874215571e-01
5.775142251325288828e-02 2.047401555230092540e-02 4.756378143123138336e-01
4.104530427420549632e-02 -1.820133036735307672e-02 4.472837175171340829e-01
6.266003742079070092e-03 -2.304875720598580438e-02 4.382042234577365192e-01
3.937182196203557749e-02 7.531497524867985724e-03 4.418988939136385130e-01
5.126262947939908693e-02 -1.491767190098127957e-02 4.644920200477340444e-01
4.887128149703805213e-02 1.672400616320972658e-03 5.155969172422761870e-01
1.601314350795786726e-02 3.788871788667800417e-02 4.199682687471785747e-01
2.761795391222738455e-02 -1.196488160485866675e-02 4.368151452907113041e-01
1.038343467082384307e-02 3.135488609471773214e-02 4.079727734045759946e-01
5.766566827930191125e-02 4.367243117896801516e-03 4.799654413671256559e-01
-1.705561421224503771e-02 2.265739127160513317e-02 4.169720240856202298e-01
-3.743836029093597362e-02 3.227893397569227881e-03 4.393395521813974192e-01
2.575932887727466411e-02 -1.503411336724477798e-02 4.369431011033392265e-01
5.459029834392977593e-02 3.599558215425868735e-02 4.932078068879097721e-01
5.406061178257531852e-02 4.148287067767010561e-02 4.937936474418624933e-01
1.583132658904475368e-02 6.079154349733553730e-02 4.325209628102975601e-01
5.744549671596126117e-02 1.367889308809715210e-02 4.724462621969637288e-01
-2.499809791786970423e-02 1.401905046353638974e-02 4.262833129407521127e-01
3.208705831016910731e-02 6.676660000826013797e-02 4.484240970714943320e-01
3.028594000914648643e-02 3.822638408822128658e-02 4.338540288259765676e-01
4.960711920954545551e-02 -1.143784306293277493e-02 4.592828913972786253e-01
3.705178792708424540e-02 4.552424521150180009e-02 4.391042237373635748e-01
3.898153710655737070e-02 6.833760214568075642e-02 4.660496725329424383e-01
5.359033081951636301e-02 5.328725564931718894e-02 4.756022309611743215e-01
-9.730089843154302379e-03 2.927613967758713881e-02 4.101577014424331868e-01
5.678779536630372549e-02 -2.127033121836833553e-03 4.724252327309197419e-01
-1.045922348236455295e-02 -9.052020940424201217e-03 4.330279825535589544e-01
1.167160887447819123e-02 5.340205348576014532e-02 4.166537794570266406e-01
2.580427136762898990e-02 5.012559512381481452e-02 4.290752570474875016e-01
2.185682901325516209e-02 4.905187713690995280e-03 4.335928836126184405e-01
2.831981927484795297e-02 2.296085278486297704e-02 4.335179296297592133e-01
3.579704516102576173e-02 -3.268528517616694010e-03 4.405981412108698203e-01
5.663087458234744576e-02 1.129448945039817145e-03 4.710595348803902072e-01
4.872582618058787784e-02 5.388919970841780926e-02 4.943166546712762233e-01
3.965997561520760717e-02 3.549644611775935182e-02 4.413394392937950994e-01
1.044401172557515682e-02 3.266880354889791383e-03 4.302117332242579306e-01
5.526931701999600322e-02 4.095815028326219714e-02 4.581155511073874420e-01
5.743178838982862522e-02 -6.267719042021849263e-03 5.052388002830148217e-01
4.560108515790102512e-02 2.265886562121251224e-02 4.464389199946103837e-01
4.270702301665513234e-02 6.750770847338995184e-02 4.729713457483414873e-01
-1.209871507364520052e-02 2.999653174602146671e-02 4.108722195789261677e-01
4.333651418318019977e-02 -2.062822121695173996e-02 4.519801296909942701e-01
2.750928145338118330e-02 4.023646110105619234e-02 4.311643296043161100e-01
4.253224990996831711e-02 4.918085601630541731e-02 4.434523764746579055e-01
4.831370969248972164e-02 7.123352706052344524e-03 5.109922941442299749e-01
3.047576057046918162e-04 -1.480102842256057587e-02 4.339208890919812878e-01
5.587137265751018073e-02 4.651029303907943530e-02 4.662338169517795672e-01
-1.792511286026521149e-03 2.253354620965466668e-02 4.083521728044728349e-01
2.223191169557400468e-02 -2.472140214131900854e-02 4.377218252130782306e-01
-1.027035446692267130e-02 1.273093936555985337e-02 4.208196439197250394e-01
-1.967214903070752322e-02 4.925848287607752229e-02 4.151897831628707514e-01
2.651114914454994267e-02 5.750232405268480146e-02 4.318990288842816105e-01
2.630334926404756177e-02 5.988172586061858010e-02 4.338080928972703476e-01
5.366038625682784113e-02 3.885414687913894827e-02 4.558817771521193052e-01
4.859501329244882151e-02 1.316572656720516911e-02 5.050446897151770198e-01
3.971505267853640136e-02 6.192416436732375157e-02 4.442929404845127883e-01
3.237315597672522222e-02 6.041906230233164143e-02 4.386941405194932919e-01
-3.285314054899802268e-03 3.806555986723877266e-02 4.036400893783408383e-01
5.047043315442224787e-02 7.862274315559983351e-03 4.518335717650216465e-01
2.734442400690690819e-03 4.874710086329663017e-02 4.075096494404584213e-01
4.689202933470441176e-02 6.646564816177551183e-02 4.688659233992852338e-01
3.660641222835411650e-03 5.229287864767263178e-02 4.107815823298619495e-01
4.658659342566780215e-02 5.633877075339967927e-02 4.924052799703184102e-01
5.758874658539028801e-02 -1.503097531639441958e-02 4.820235356255004877e-01
5.779524914015701093e-02 -4.342684117448042912e-04 4.866809642879628695e-01
5.031910687168280466e-02 1.575301103454786189e-02 4.992529927420156777e-01
5.027136124073937340e-02 5.575662340160305458e-02 4.524898591416158244e-01
5.699060636282992504e-02 1.683233679861171131e-02 4.806713574998822680e-01
2.925820544422094195e-04 2.041456495301426088e-02 4.113944691044871260e-01
1.705450082807045270e-02 5.086523061316879091e-02 4.212482798112711091e-01
3.637333637516612650e-02 6.078476887898356940e-02 4.417239680297275761e-01
2.077324734404094320e-02 2.926471678376352942e-02 4.260834463365765212e-01
4.978995989327335281e-02 6.289609556637765220e-02 4.601595324005282039e-01
5.709748504376210149e-02 -2.550719506885454520e-03 4.736588909319034424e-01
-5.857610762174354953e-03 3.737436144432488422e-02 4.048650047575856337e-01
4.494799455637477764e-02 -1.346940835587544585e-02 4.513196109900580177e-01
5.464495648294288160e-02 -2.049783553250650921e-03 4.655975118241073019e-01
3.544295498169084541e-02 5.811183023891883931e-02 4.394319747540194609e-01
1.377722915690258315e-02 5.055696844379674315e-02 4.174970832268618537e-01
2.282577531416219233e-02 6.221988481444416103e-02 4.385895332285109083e-01
3.802913828474530772e-02 -1.669706187695102831e-02 4.442190051353525071e-01
4.951928373763273689e-02 8.862612870295369372e-03 5.056387922321790018e-01
5.247172093288197253e-02 4.542698137986106444e-02 4.541018523723018285e-01
7.281293505645511019e-03 2.524384763494851372e-02 4.079155313653141657e-01
5.412784813122697991e-02 3.740999979706630812e-02 4.943773631346358721e-01
4.745797523871726764e-02 6.365097070905506582e-02 4.540635481715426525e-01
1.817958519701278267e-02 1.253714479340630079e-02 4.294925553909731408e-01
3.584771576189981629e-02 4.975041755487164680e-02 4.379011558591404119e-01
4.894931158331613380e-02 1.622284466071777925e-02 4.498775602906130433e-01
-3.595719256606619285e-02 6.584444405689079613e-03 4.391912475765320512e-01
1.106043667436377997e-02 2.778246119220579430e-02 4.123223799904201514e-01
5.125558791455695623e-02 1.026394293865675114e-02 5.001742207143582419e-01
5.745307733958595481e-02 3.070115283071108564e-02 4.808132555321187329e-01
-3.051077814306416697e-02 1.206998866395828096e-02 4.314600988657965597e-01
4.164197403762256999e-02 4.646345263183858376e-02 4.426584972809416985e-01
3.460246646386724162e-02 5.312542916184920250e-02 4.369531021300325224e-01
-4.256291772521562065e-03 1.140352839117990402e-02 4.209957178174914549e-01
5.802685602048115315e-02 -3.031903406628321147e-03 4.872011009783885349e-01
1.278167766784560951e-03 -1.633281229486198069e-02 4.350136523562384561e-01
5.224336432610491437e-02 5.839458975103615362e-02 4.689702763658575857e-01
3.708560027332323539e-02 7.287072131338018927e-03 4.400930606963577851e-01
-3.546086386689891595e-02 1.943791549122689255e-02 4.345993591515527332e-01
5.771329081520365500e-02 -4.809966870330550405e-03 4.959327884280739784e-01
5.552769150891311012e-02 3.981985968148474275e-02 4.882553780254229037e-01
-2.659963017621793172e-02 3.763368428496256107e-02 4.160122114636251589e-01
3.473554745468514920e-02 -2.219068860009980673e-02 4.434543935763399225e-01
5.406616635871704102e-02 -1.707105446585339623e-02 4.721071805840798552e-01
5.680464080052512882e-02 1.269811947956132371e-02 4.812888930939853704e-01
-2.768907504035873941e-03 2.655572819552613067e-02 4.067880696286026998e-01
8.483557852133633698e-03 -1.152796828344481751e-03 4.305352214168314817e-01
5.162391372601005807e-02 2.006864625892952614e-02 4.965214849362890592e-01
4.667904155073934747e-02 6.116926001763361292e-02 4.502475319661154995e-01
-2.085507009735037762e-03 4.852437908603597638e-02 4.062649068746161385e-01
4.732781655291555534e-02 6.592412953896908956e-02 4.712702609968647538e-01
3.492154465169373945e-02 1.588477760768786107e-02 4.384167295875315284e-01
4.889416862316924017e-02 5.809971254289723885e-02 4.835770474030321453e-01
1.497568935434731401e-02 4.169157402407750596e-02 4.177034922850863530e-01
4.473457094387996158e-02 3.206879974884253165e-02 5.121758644391780635e-01
5.437370204761033526e-02 4.665666544303804369e-02 4.858102999293987811e-01
2.084354370367109272e-02 2.316954396062293267e-02 4.274689476086344642e-01
2.279579168506169415e-02 4.671815449868529230e-02 4.265225630474843155e-01
3.171143078878306543e-02 -8.782870534358801912e-03 4.381175909758055487e-01
2.316149637088662713e-02 -1.029720183422624079e-02 4.351338574327859865e-01
5.312982176088982406e-02 4.878890037727259821e-02 4.887423301414192678e-01
2.430321103330164781e-02 -2.357684888220241623e-02 4.382731728777684022e-01
3.974063656083208496e-02 2.977668727096038567e-02 4.414799614156262320e-01
-2.681277160562963932e-02 3.955734592259332882e-02 4.166691285423141933e-01
5.086103823472799823e-02 1.043034238512422981e-02 5.010245034542645248e-01
5.166084660117762489e-02 6.044721616546761683e-02 4.658233989056187463e-01
-2.263645737580336631e-02 3.031991449926410565e-02 4.161299910714247319e-01
5.520904859155399691e-02 4.307204682362292952e-02 4.861083718097632400e-01
1.013468449713749754e-02 -8.010219273890881175e-03 4.320322113997406288e-01
5.609299983385571120e-02 2.133115944046600279e-02 4.605551675661626598e-01
4.712623634572646325e-02 6.832043061331329221e-03 5.133759296037067044e-01
1.350664762535573778e-02 2.496783485554355392e-02 4.195208332524775208e-01
4.930099978389607118e-02 3.586970448464524286e-02 4.500251642929588569e-01
3.357874539328724317e-02 6.376088371373969665e-02 4.412506338524383454e-01
4.848680594301272434e-02 3.712872499655254371e-02 5.059494454583669532e-01
5.211487952196265649e-02 -1.836006801852892861e-02 4.678663268960950306e-01
-2.977011329812388751e-02 1.266462372351221354e-02 4.305124682229419797e-01
3.089816563640940955e-02 -1.496179341077749983e-02 4.388576646144974336e-01
5.645566045469468941e-02 -1.056912960639457000e-02 4.775055463931017763e-01
4.616791793519384873e-02 2.206120286085651999e-02 5.098651497798302179e-01
5.017565293428443568e-02 6.085503548245656258e-02 4.578012490821807834e-01
5.064964376211002900e-02 6.135384558701351826e-02 4.696611700015901891e-01
5.553019080844251443e-02 1.758235283126715481e-02 4.865824518894085737e-01
-2.983387128619661988e-02 2.142989367635510581e-02 4.244434533870533599e-01
3.180381853891325189e-02 -2.569739260136775366e-02 4.425804023708593271e-01
5.797453812405919255e-02 -2.198391721880615240e-03 4.910393557272879628e-01
3.237187531072278218e-02 1.777643522902091003e-02 4.366998929827232701e-01
2.186504322659134358e-02 2.771028655161630883e-02 4.274201499751512090e-01
5.730989087593032355e-02 3.824969932744749085e-02 4.672147279139299836e-01
-3.311972085733861509e-02 1.349564547624362149e-02 4.337952849307652459e-01
2.995391028172119524e-02 4.123623136552192342e-02 4.332678168191690937e-01
-2.183655849823925438e-02 4.357420461873517253e-02 4.126180927429757284e-01
5.731020823205166398e-02 9.617892791967090280e-03 4.741482705657790175e-01
-3.534419376188175504e-02 8.054734888091519621e-03 4.382065675915810532e-01
-3.519203458327765932e-02 9.599691730994751315e-03 4.379462184412823977e-01
-1.133576647780210923e-02 5.014142452480609483e-04 4.291115908116179822e-01
5.164639213857547678e-02 4.567729496580223009e-02 4.977723844510258400e-01
4.590968593200979442e-02 5.389142568243630860e-02 4.976692999955598107e-01
5.557806247941077943e-02 1.037582383718681917e-02 4.620541426854642419e-01
-3.465183991774353767e-02 1.193325476920960131e-02 4.370644737507723421e-01
4.527076379451463323e-02 -1.582992356859390382e-02 4.525559842444475955e-01
3.012221986434333865e-02 4.715661971165498872e-02 4.329089492071865886e-01
-9.785001387326601116e-03 -4.597608750634366720e-03 4.308376644024028979e-01
-4.443838127337652877e-02 2.492645363967155824e-04 4.440364845070751132e-01
1.420909877214337862e-02 3.048960228780365350e-02 4.182761268214146289e-01
2.133478549432219623e-02 5.519873781226490410e-03 4.333390965743789125e-01
-2.362553862084246920e-02 3.776610970222127155e-03 4.301743175460925883e-01
5.789402948818288958e-02 -1.241903330629010212e-02 4.840024836909936345e-01
3.977992712424127664e-02 6.586953499798239853e-02 4.478764586235614020e-01
1.169878694738525453e-02 3.547941353182415547e-02 4.111839214628193462e-01
3.501365523720489925e-02 4.778371992307711702e-02 4.373347205787210257e-01
5.492133105298424578e-02 3.209512104738367587e-03 4.975869583715975542e-01
-1.834061647376075341e-02 1.131756305771164720e-02 4.239470873661184691e-01
-2.404378989096956493e-02 2.719022122630775432e-02 4.182232802581222209e-01
5.345741967288175633e-02 4.829289446049149503e-02 4.553535919077596472e-01
4.877782274405370599e-02 -1.858902865062434309e-02 4.604467173969822302e-01
3.774519704100832984e-02 2.779917648539195763e-02 4.399759946756387485e-01
-2.416330694699986292e-02 1.890288112186754022e-02 4.223051618597685741e-01
5.329366132178714466e-03 3.773090689675848153e-02 4.040150135652454400e-01
7.496622421629579869e-05 -1.024104632625403091e-03 4.295741067862938189e-01
-1.033481903057239561e-02 2.828297675980746828e-02 4.110293158527219548e-01
6.102210677029288807e-03 2.705116083313912137e-02 4.023160997502737146e-01
-1.580196120526348308e-02 5.245204509950797574e-03 4.264729933713255483e-01
4.321900502131009042e-02 1.246790526119546418e-02 4.447171234629852532e-01
5.748740550306218056e-02 2.157479711243905085e-02 4.646173886233128103e-01
5.460880068505165330e-02 1.641014027451993124e-02 4.574508462249545770e-01
4.693409051062108484e-02 4.678450425517341471e-02 5.070698532906218192e-01
8.235336247891748146e-03 1.890697327336915076e-02 4.189221780343754808e-01
5.698510485451310781e-02 2.001882172728328135e-02 4.634081251107326493e-01
4.728488317484472181e-02 2.164078842068225053e-02 4.481140093874083075e-01
5.010012475071262683e-02 2.561919875261952501e-02 4.508533833839162286e-01
9.991611621229995466e-03 2.025915623333069890e-02 4.192742405638945624e-01
-6.197305409117794504e-03 -1.548398505167019636e-02 4.340492871293279431e-01
-3.108075903216181782e-02 1.452604163436869641e-02 4.299163281284462124e-01
-3.066680734168729036e-02 1.234533721953398958e-02 4.313327064646979569e-01
5.133781484481759333e-02 5.780336497210799424e-02 4.567749499963306703e-01
4.731844165398808866e-02 9.428504172227233221e-03 5.110174163779975798e-01
5.606716224517493269e-02 1.227427756779598395e-02 4.842589924493030940e-01
2.884834229180360810e-02 1.877138551107254694e-02 4.343380443624103582e-01
5.203419611736893879e-02 3.059989585444371912e-02 4.529334474854919135e-01
-8.466981025833392877e-03 -3.955316154667228197e-03 4.304107791712210029e-01
5.014596846947414616e-02 1.524787305126527447e-03 4.527614402278529182e-01
1.909434141263118001e-02 3.523815263382733265e-02 4.233190981599425640e-01
-9.502322107070122412e-03 4.655782898308290230e-02 4.072293343002788002e-01
4.861752115610336322e-02 5.029142609103427058e-02 5.006073966657785812e-01
1.401602432400076911e-02 2.806297253855955312e-02 4.186193643427679190e-01
5.398654353407801587e-02 5.107514511953636233e-02 4.806370689012212094e-01
2.912272783527359785e-02 1.850802833504480716e-02 4.345557950580203888e-01
5.387803256034820118e-03 4.321682249879336274e-02 4.066389154105729542e-01
2.962981474082554759e-02 5.657963696102421419e-02 4.340141702371465571e-01
1.831066771703111773e-02 4.863692245906930250e-02 4.223502008946773412e-01
5.093787098877927341e-03 6.041562465635055140e-02 4.184010972389569649e-01
1.997798313544316834e-02 5.384559692253501617e-02 4.248081444831908193e-01
-3.980366144263330908e-02 2.603403260367349002e-03 4.412722066122812814e-01
4.755930334945997900e-02 6.363416927706778969e-02 4.766094873687451994e-01
-4.234967755690260960e-02 2.386215134299423703e-03 4.421705852661370617e-01
5.523091273518727917e-02 3.206254971984324586e-03 4.960984192000102988e-01
3.463203565889572122e-02 5.909087110603497561e-02 4.393827905039464077e-01
-1.442334721701405212e-02 -2.806110028954558484e-03 4.310052992782700820e-01
4.113557309625334724e-02 -1.217547257038004843e-02 4.460416093082098521e-01
5.485905262980232677e-02 -1.241412372723053187e-02 4.720617204858152394e-01
3.688490001412901564e-02 -1.285778764635887514e-02 4.424105014529548519e-01
8.928588017280875838e-03 -1.737272771491989512e-02 4.365686297680427264e-01
1.921724789531091201e-03 5.158580471117647781e-02 4.084177376500825463e-01
4.763870397978818561e-02 4.097427039758775452e-02 5.072132136332412333e-01
5.367097013797193783e-02 1.205110403345796555e-02 4.926591186446193094e-01
4.804096466019620870e-02 1.089821569018333512e-02 4.489935038874584006e-01
-2.945284534585294184e-02 2.621049028664009309e-02 4.224036830500706996e-01
1.786370561296493284e-02 -7.918833813440773195e-03 4.332946505649950542e-01
-1.656890044224865882e-02 4.249171905159648127e-02 4.090442549632496982e-01
4.686554533283154855e-02 -1.999582756153442040e-02 4.570359394443548884e-01
5.261123299122474201e-02 5.656855211908478481e-02 4.590026876347875762e-01
5.300904683050747940e-02 3.812232574418466385e-02 4.973307520452859287e-01
1.740159178924657879e-02 -3.645737988551668498e-03 4.327052956333730105e-01
5.524653803776208988e-02 1.076319395063166443e-02 4.609461452056251018e-01
5.799322645676911053e-02 -4.200938418659788676e-03 4.812817070078332371e-01
5.079629326584065435e-02 6.155866844910123925e-03 5.064319884027593810e-01
-5.833705049250298945e-04 2.777353833354919907e-02 4.036729090521136154e-01
5.188689893460855795e-02 1.024978907055496685e-02 4.534990185582469802e-01
1.566890575960444565e-02 5.336539685341760292e-02 4.204905278329874041e-01
7.976793242351804675e-03 6.043746749200703400e-02 4.214028096348668706e-01
1.222159549455895111e-02 5.401625732839857724e-02 4.174274070484230714e-01
1.656696778368325906e-02 1.650895963072551709e-02 4.263942933223509035e-01
4.048148421868932867e-02 4.740366900278768225e-02 4.417329022649427728e-01
-2.049324361547984544e-02 -9.317603663606733623e-04 4.314242687905817664e-01
3.658807830371096914e-02 3.437301487886095658e-02 4.391954815159629377e-01
6.093556391144099721e-03 3.478724662237991233e-02 4.038754938147731677e-01
5.532935432793419789e-02 3.294634382040398726e-03 4.645482838811129112e-01
4.304422715503182333e-03 8.642313115893609371e-03 4.252681184488498189e-01
-2.252845160188876594e-02 1.322659635133106165e-02 4.249698093686503086e-01
2.911039884007698975e-02 5.242221310448257759e-02 4.318919859427353125e-01
5.804879612701981800e-02 2.446079992185954538e-02 4.769531424184246804e-01
2.019970304621861862e-02 3.607054489588223424e-03 4.331150975207223031e-01
5.779025172840104863e-02 -4.592352729257987180e-04 4.876257451060875825e-01
1.558127102938525188e-03 4.577616687299079258e-03 4.269246756079296268e-01
4.934955823403768677e-02 -7.408735239233208390e-03 4.557303766285123459e-01
3.738272420335290308e-02 5.179871470540260009e-02 4.393525871820384010e-01
-1.489513503656747853e-02 4.354265620634811818e-02 4.085860041761166794e-01
5.798055379272785276e-02 -1.292058376229674246e-02 4.845035651005765165e-01
5.600451472121771579e-02 6.227965948259250872e-03 4.655048212616763603e-01
2.361350872431134534e-02 5.070210229270732255e-02 4.274126078234861126e-01
3.416049147354444093e-02 2.643561814602681664e-02 4.374643276697014471e-01
-5.670031827231072560e-03 2.042169799115894913e-02 4.132143264777200509e-01
5.615726604716630987e-02 -2.570362085998341775e-03 4.701616374198786530e-01
5.334249789274864151e-02 5.654560617988579896e-02 4.613627597890778143e-01
3.132352337285750077e-02 1.660771973755720970e-02 4.361472592816382776e-01
3.409392007839096017e-02 6.739112310220585211e-02 4.488932436589304631e-01
3.700995919949594953e-02 -1.053294491366509565e-02 4.422047321182148716e-01
4.168669610874124049e-02 6.136730510630245689e-02 4.454984915120943634e-01
5.157009516635979035e-02 5.111202472334334251e-02 4.906492006339233658e-01
1.257458096204428291e-02 1.780703541671892556e-02 4.225678324612048287e-01
1.920069959679876134e-02 3.631024084780013622e-02 4.235363522731024899e-01
5.456943752789505941e-02 3.560996324104839794e-02 4.933178057958532148e-01
3.231815483921147373e-03 5.219142350441030587e-02 4.105193451844528774e-01
5.364420836749382582e-02 2.313014097884617815e-02 4.547245703835016140e-01
2.254790241954807151e-02 5.839314137856999737e-02 4.298890198879857238e-01
4.696837421808304491e-02 5.507928570878999758e-02 4.948173644069123744e-01
5.017647587096248779e-02 6.347426164634732693e-02 4.646934270632289143e-01
2.694538998760263523e-03 -5.208843053690887133e-03 4.304692448795192083e-01
5.576545011415342395e-02 3.862493880291371223e-02 4.875911730307411762e-01
5.126451890150156288e-02 1.869126134695750160e-02 4.524284474222587393e-01
4.581443497382746421e-02 2.049495975168504069e-02 4.466647834696856334e-01
3.483351959936068637e-02 6.128801575141661420e-03 4.387324614741330842e-01
-6.304113847758138940e-03 2.866559626193778895e-02 4.087576360780639795e-01
3.692851410232204229e-02 3.840752225521225360e-02 4.391937998765488849e-01
4.982680122353605467e-02 7.417017617094845416e-03 5.071560886342191266e-01
3.349832496980559293e-02 6.047558022101906516e-02 4.393234240093489840e-01
5.634292072347819869e-02 1.325150326477866208e-02 4.634498204995984860e-01
7.853594922260693362e-03 -2.090639205159666204e-03 4.306170903348962575e-01
-3.061402320982903325e-02 1.333946533992322152e-02 4.304882603035064537e-01
4.259458128222595730e-02 2.311402821421690984e-02 4.435585312875812147e-01
5.319706713787532293e-02 4.815271321523905551e-02 4.550230502552876644e-01
2.479079715498093851e-03 3.684617623141664411e-02 4.017343817462233901e-01
-1.387341708134035186e-02 2.996339214169788795e-02 4.117093725030592233e-01
7.604784975463868384e-03 -1.621607972999829575e-02 4.359876965198913323e-01
-9.943638518624620115e-03 5.124529293844524297e-02 4.099514564763563906e-01
5.715561723783054576e-02 -5.557688932306882601e-03 5.058088916461663809e-01
4.711502188410400527e-02 4.751434707763446674e-02 5.062000148048280135e-01
-2.992474544794179736e-02 2.628360780182488823e-02 4.227625445135129167e-01
-1.352003501519842207e-02 2.532247167015634019e-03 4.281873676331042211e-01
4.872110287933843070e-02 9.000422716296509196e-03 5.076855920041998260e-01
1.442687052835588991e-02 5.333018639136123673e-02 4.193267700118087360e-01
3.669174939620609144e-02 -9.959279880214734135e-03 4.418843475136417509e-01
1.977371484240958779e-02 2.702674785270588187e-02 4.256278949892489116e-01
4.001424877252558049e-02 8.533156662204105861e-03 4.423513297179338943e-01
2.671927841562136280e-02 1.535271202192731166e-02 4.333332295909402276e-01
1.465066367070243757e-02 5.507218718464951257e-02 4.199234934570528210e-01
5.663558079369308829e-02 -5.347954591692357686e-03 5.101532537399624534e-01
2.776192263882184576e-03 -1.155411688046929092e-02 4.321753305603635020e-01
3.286094911410921554e-02 2.627024159867820396e-02 4.365727509729552813e-01
2.027997342319030200e-02 2.152882879240619607e-02 4.274023295462563432e-01
5.504055275959990334e-02 4.570640664607165254e-02 4.817155511015919211e-01
5.422549487139671082e-02 2.382467457860603516e-02 4.558819357689688490e-01
-1.287939191684035062e-02 1.820113992485417140e-03 4.286265054533492935e-01
2.817334856131064463e-02 3.976171159082126511e-02 4.318092154960797013e-01
1.682232904380111943e-02 1.140831390757680690e-02 4.294145322423650324e-01
-4.380048098192185213e-02 1.099153798020885767e-03 4.470840802770382205e-01
4.692506629206582430e-02 5.728911972539016406e-02 4.490264545542549945e-01
5.675852963278265467e-02 4.220538059527460806e-02 4.665987060358371963e-01
-1.658823294029667522e-02 3.023086375398365694e-02 4.127727897665851575e-01
4.841533486108379192e-02 1.112096703071844411e-02 5.067894251186414456e-01
1.328425551838234749e-02 1.419457766463371774e-02 4.259116287097621800e-01
1.917726864505201953e-02 2.333463861138521805e-02 4.260143869643117087e-01
-8.384535448038400035e-03 4.915556483634203611e-02 4.073870309996699968e-01
4.790920752399700083e-02 5.585402923988216917e-02 4.498220293682792525e-01
5.745647389751513262e-02 3.192388872950853527e-03 4.770021613226371193e-01
3.252968476374142742e-02 -2.456748127253281788e-02 4.426423315062669173e-01
1.094427813622183242e-02 1.945390936600801396e-02 4.203967147462424614e-01
2.108444886913489122e-02 6.306938746281499919e-02 4.405705488635145994e-01
5.733311517885555930e-02 1.346606979241623051e-02 4.786058530904704345e-01
2.623173057263819899e-02 2.804762579662247249e-02 4.314708519530924824e-01
1.041671249571803591e-02 6.054074037703216504e-02 4.240220572799998089e-01
3.167758761176009061e-03 4.084461626838257683e-03 4.278107156619157525e-01
1.210593445145801902e-02 3.533676942384467862e-02 4.115329343690775632e-01
5.541535318019728817e-02 4.766623584528693197e-02 4.757223633485248571e-01
3.722709491632110457e-02 -2.553706916362667029e-02 4.472508057017540728e-01
1.710542956165036349e-02 5.669426170739939180e-02 4.238102307921321477e-01
2.839014345170632909e-03 1.757676980537418304e-02 4.167086361636125336e-01
2.754179880915017323e-02 6.522879677102921825e-02 4.476103599434537172e-01
3.954282660879532285e-02 4.024283424745458970e-02 4.411146904441641814e-01
3.476985263521002734e-02 -2.156045991892443711e-03 4.397441074751815004e-01
-4.065670062286014241e-02 2.811193318065691431e-03 4.445862448993518345e-01
9.638853222541415161e-03 4.016097410114305433e-02 4.095881335945087964e-01
4.033209071076800101e-02 5.788285231297357614e-02 4.431617724050335161e-01
4.375010096387193376e-02 -1.227255919157722863e-02 4.492794259393365630e-01
-1.857742493613877104e-03 -1.880932878959874592e-03 4.296069806767284782e-01
4.242047788688656576e-03 4.873122605406975116e-02 4.084276329191541266e-01
-1.655415674799612727e-02 6.981985452443502382e-03 4.256266802089608281e-01
1.734502056152800037e-03 5.285083885351998106e-02 4.106459382814991455e-01
1.751377810995565637e-02 1.663047888174433789e-02 4.269782997003082059e-01
1.198617994506111749e-02 1.522027985618580430e-02 4.241458855226462599e-01
3.942975659618297435e-02 6.813752179797774589e-02 4.683096679677451468e-01
-1.967047956618103374e-02 4.153078932746766261e-02 4.102313073021776613e-01
-2.562679843873098134e-03 -1.651679404781725494e-02 4.346657167316689274e-01
5.297484931673013264e-02 4.690103109250417374e-02 4.920531174449670475e-01
5.159869371364182722e-02 5.579409986518991948e-02 4.793372237919696910e-01
-9.257831389948085327e-03 4.260402155997244922e-02 4.069072427823210436e-01
5.780317798888264663e-02 4.608650490398142827e-04 4.822506856548665621e-01
1.927635311876115670e-02 3.599278841252318700e-02 4.235855682532483346e-01
3.432687206630710003e-02 3.000703721204135005e-03 4.389125980577887609e-01
3.266711271393003130e-02 -2.698126011249791373e-02 4.440674920131481018e-01
5.513648980379969727e-02 4.365222222221385590e-02 4.851395573246992665e-01
4.520395127369884053e-02 1.010976320281894124e-02 4.465959500927214609e-01
2.688593127619600190e-02 5.426132774779585805e-02 4.302801229025265406e-01
3.398480545401683095e-02 1.814975522915522957e-02 4.376863048759700447e-01
1.772263649298467386e-02 5.253717761482949722e-02 4.223274777883093689e-01
1.032327046926268845e-03 -1.349973866456768284e-03 4.297014528623764873e-01
5.638965246758355365e-02 -1.057183417731289744e-02 4.771605679700161584e-01
5.804845336858318466e-02 3.249779813637673764e-02 4.737869433906370942e-01
3.419542298850875711e-02 -1.461507874621940537e-03 4.392916540227830291e-01
2.714008830796861213e-02 -2.445295099888771667e-02 4.394098742278810255e-01
5.600693032360091334e-02 3.732102949422663740e-02 4.869709811150044199e-01
5.475154294389980580e-02 1.821794226767604191e-02 4.885920119027188369e-01
1.748527115229429191e-02 -1.064187156542184716e-02 4.338286810747182254e-01
-1.892549022849146501e-02 4.702069904974003414e-03 4.276127928759876906e-01
2.099590813309042472e-02 2.429839769769928659e-02 4.273242548958277598e-01
5.542253762793860478e-02 4.172603718076817181e-02 4.589510263329872330e-01
2.058968657152525014e-02 3.855017059748849784e-02 4.248093940042437233e-01
-1.119698398987792852e-02 1.235310424037786362e-02 4.212627326438276310e-01
-1.418984188389780209e-02 1.599738950795211168e-02 4.197001428049170757e-01
8.396818769485172099e-03 3.110226474368255750e-02 4.028219959036217768e-01
3.863526703455292394e-02 3.462332574145873115e-02 4.406327042180943065e-01
4.677797544000335261e-02 2.313084528728328801e-02 5.084133528471639352e-01
5.812535550762568115e-02 3.026094008176723887e-02 4.718872911034608375e-01
5.627930267862631813e-02 -6.507801530197299816e-03 4.730140339729389520e-01
5.337182490826290066e-02 5.618179541953194356e-02 4.656810790903564423e-01
2.991281069602071824e-02 -4.029651910283418501e-03 4.369242498216344694e-01
4.578827380479353476e-02 6.084415621417865738e-02 4.845732525923462930e-01
5.749168919624152163e-02 5.316369917052734574e-03 4.811815071502563157e-01
5.464920776441551525e-02 7.050061837742207030e-03 4.929400893390247784e-01
-7.206739221803097790e-03 4.351856584565128028e-02 4.064077368501705645e-01
4.126556965260110704e-02 6.320131197306626258e-02 4.459325612600293920e-01
5.647706341616549885e-02 2.547903123226382543e-02 4.613009446035368777e-01
5.465562463962019696e-02 4.543623118115425880e-02 4.859482714297707617e-01
-5.737948620572704862e-03 -1.177787231662640217e-02 4.330676659461413780e-01
-5.138562550879804611e-03 1.409468406546491789e-02 4.181017543778537959e-01
-2.384764142266530829e-02 4.394119908990903184e-02 4.147678978160114771e-01
5.088981747540324146e-02 2.575129663889636281e-02 4.992882701715213867e-01
-2.216748703776887444e-02 2.050034589371049765e-02 4.204067151082167553e-01
-2.498087669054252849e-02 3.272213167819985891e-02 4.165989485020072380e-01
5.009656954605013618e-02 6.028734145955991219e-02 4.754215123023207701e-01
5.094808080919512733e-02 5.561088745375317166e-02 4.537345248577560608e-01
2.729999545616689297e-02 6.507624607649187265e-02 4.462792107776926143e-01
2.428318584876243066e-02 3.888804613582644981e-02 4.283851068800802464e-01
4.135544510990288997e-02 4.330491153110728464e-02 4.424214173980801634e-01
8.566514190719295291e-03 3.830993280480871760e-02 4.080343408696361918e-01
-2.105591483597991920e-02 2.913715564162039709e-02 4.156946022594019685e-01
4.204734655070255928e-02 6.869994743147166127e-02 4.518244864500982616e-01
5.026550220624093068e-02 6.276222485663482398e-02 4.688458427341437584e-01
3.844953418083614516e-02 -2.020837643708122897e-02 4.456294290576977568e-01
4.707158334372028158e-02 9.568572717949743942e-03 4.482319934274837103e-01
5.751662006926103188e-02 1.719739573782837899e-02 4.756961146624036907e-01
2.741040529766648401e-02 6.540642341922534020e-02 4.495364743148704267e-01
-1.528731742196418573e-02 4.923870769526071667e-02 4.124555201030684626e-01
-3.355611559594270238e-02 1.536170139212333224e-02 4.334624555139471314e-01
5.542490655873032190e-02 -5.987933662237104535e-03 4.691318463266702654e-01
5.316526280901753831e-02 4.910767497079510102e-02 4.549827981411634914e-01
4.672400062829423772e-02 6.189894704499375108e-03 5.145922532504089153e-01
5.744034320940093197e-02 2.742075161387183546e-02 4.818440754602474341e-01
5.549314914919614011e-02 -1.636563436231663806e-03 5.071150178476555581e-01
-3.496747420640999165e-02 1.247027151332202530e-02 4.375540164504694851e-01
-1.235577047515281843e-02 3.257997784121399731e-02 4.097332822862705948e-01
2.045505784614876088e-02 4.682578328544598212e-02 4.243440317773721771e-01
4.710496722396981945e-02 4.819874266697286858e-02 4.478124042304847952e-01
-1.137557330579584865e-02 3.855362772992238646e-02 4.072146356674458678e-01
2.034284929896555336e-02 -2.104883080077442348e-02 4.369459382883294496e-01
6.508547046077612155e-04 5.277296140883270398e-02 4.096257150211727871e-01
-1.495475633922549105e-02 2.395374215581443089e-02 4.153932484675076364e-01
4.180446622322409739e-02 -2.106840241147037857e-02 4.495245069760260281e-01
1.878174930921726674e-03 5.194802564530521388e-02 4.091060735705749352e-01
5.663664621224714230e-02 -2.991878348587075770e-04 4.953450282954465766e-01
1.647935134075184313e-02 4.802879790335687349e-02 4.203139776972298347e-01
2.969783597421256707e-02 1.611343153267158143e-02 4.351586340133092867e-01
-3.546734384197405138e-02 1.562393064403395926e-02 4.374938007955966324e-01
7.960898325829964678e-03 1.236272531736940655e-02 4.239650828184175491e-01
2.438045388704546471e-02 6.423651362654113350e-02 4.413761580823940545e-01
5.293336360025467646e-02 5.358257720795364665e-02 4.796479862774311043e-01
1.646501575299809395e-05 4.581690675362723453e-02 4.060226902432418905e-01
5.299931453637934248e-02 5.333887926953358866e-02 4.801602785257490513e-01
1.482744886758443140e-02 2.832423937850299042e-02 4.194923599683206827e-01
3.215806810752038641e-02 -7.186400837932792503e-03 4.382991594226822718e-01
-2.654777484515647226e-02 4.915183969252051935e-03 4.313813179054419300e-01
5.758551742646049465e-02 4.192151898868540227e-03 4.787096434164306857e-01
5.718667650525323387e-02 1.700820882372846427e-02 4.651538666605004591e-01
5.593870482577163045e-02 4.645196198520872705e-02 4.727388903581576374e-01
5.624148289760213387e-02 1.983411453686009449e-02 4.846492627015275279e-01
-2.249911339068794841e-02 8.482057124259329700e-03 4.278418051157615865e-01
5.311392934948602762e-02 -2.978812244109085329e-04 5.106078005211229787e-01
5.364483766227927386e-02 3.874380352016257995e-02 4.956249049801020878e-01
5.434747969316463395e-02 4.142596170117237436e-02 4.925903434156020388e-01
5.651133037062615327e-02 4.375490765941158350e-02 4.713925922738887442e-01
8.583598146740417136e-04 1.640480041611013309e-02 4.174209293790961950e-01
1.917800797029565671e-02 -1.072113814657486668e-02 4.342358370249983501e-01
5.813150662652788458e-02 2.863950265973604775e-02 4.718313526055175067e-01
4.647905405463079870e-02 5.540792519954589046e-03 5.155782416067526963e-01
3.357004768424438901e-02 1.378218500325554055e-02 4.377065794252678055e-01
7.450568925431466129e-04 7.806827227105545865e-04 4.292163526264835549e-01
5.552139668706845832e-02 4.152225088533302577e-02 4.593757879317724724e-01
5.545342211356570766e-02 2.162192843707341685e-03 4.968270338173738643e-01
4.523258493522838708e-02 5.273418867671617050e-02 4.464908201052476544e-01
-1.228744536589302001e-02 2.074345204975854007e-02 4.160270376523029223e-01
5.356638514400965251e-02 1.830057529564691962e-02 4.550638851036760690e-01
4.285128148105827456e-02 4.699123944495477850e-02 4.436315666251093304e-01
-3.956980507919787959e-04 1.036821020193414745e-02 4.221443474239843785e-01
5.248166338835189015e-02 1.339531548950025248e-02 4.950238393089724798e-01
-1.315338914540273903e-03 5.225636930130474200e-02 4.092484918875399225e-01
-2.455343650950047359e-03 5.496318296420196065e-02 4.133962145546300482e-01
4.406860597752287195e-02 3.704860601516470064e-02 4.449369924567171952e-01
