-1.310877468927251419e-03 -1.502496853663279168e-02 4.339369893101088782e-01
8.266843787897540027e-03 -9.731432694750767913e-04 4.306738394248237345e-01
2.925825009724812575e-02 -1.922829465724459203e-02 4.392555795675743280e-01
4.878646023046261798e-02 4.696299561999277977e-02 5.034283874786195101e-01
4.016670326375484240e-02 4.167201240821766239e-02 4.421948938054092726e-01
-3.323770041256406127e-02 2.411308177367849082e-02 4.267797237252741738e-01
8.459927743093070482e-03 2.817617955838536831e-02 4.081536374049983262e-01
3.290721005602524618e-02 -1.065856733900796133e-02 4.393027000365736234e-01
4.377271461438479727e-02 6.751119292630335111e-02 4.716229106099720791e-01
5.180029531265482878e-02 5.674092455409287389e-02 4.747483446482582137e-01
2.996320552557623501e-02 5.410912010837141961e-02 4.337358301025209806e-01
-1.219886215510627286e-02 1.751691431400313574e-03 4.286704844900891542e-01
5.477272295926849388e-02 4.550166938458076460e-03 4.628433276938081486e-01
5.339856173311480214e-02 3.100041355642161114e-03 5.031898640233734010e-01
4.116644569556749539e-02 5.580658622327678425e-02 4.442268662551177583e-01
3.491865945244927022e-02 -3.043500923864341998e-02 4.479104287986260258e-01
5.722467949197298370e-02 4.292227013171895887e-03 4.830756872130093638e-01
-1.981163693675637438e-02 5.087886495732323044e-02 4.189846431211294853e-01
3.674862159153655106e-02 -1.135906704089366913e-02 4.422817247511989791e-01
1.659237125536173682e-02 3.193569004771083797e-02 4.219161642964565639e-01
3.361316852514494719e-02 8.526093200919723780e-03 4.379801246614302146e-01
5.247273081486531626e-02 1.272786642450854724e-02 4.545766704361529076e-01
5.627021598803892688e-02 3.234888062640273176e-02 4.855134799803258461e-01
5.067654546239133695e-02 3.541306736437616065e-02 5.016660095695727462e-01
2.874364628486219056e-02 4.585794140456734419e-02 4.326819363611818514e-01
4.337861515752405167e-02 6.740605564674392869e-02 4.727935808401066975e-01
5.647780566956724091e-02 5.532006669534447751e-03 4.697222020002927989e-01
5.679993684877533699e-02 -5.988783699682661762e-03 4.755889743473624698e-01
5.600345163021918510e-02 -1.714642280744932239e-03 5.055024910363685731e-01
5.755561860672841340e-03 -3.771610888677685153e-03 4.307896241839103135e-01
4.398187947724609137e-02 2.454805316277359345e-02 4.453971158458312485e-01
4.877415345238155647e-02 2.728970306662743817e-02 5.042151077471643816e-01
5.575015619992988378e-03 2.140106497081557813e-02 4.125788529410288619e-01
4.795052164948439971e-02 1.166615663962645294e-02 4.492765230535454291e-01
5.137400055899545015e-02 5.222151146337866701e-02 4.884496859186375217e-01
2.184897514290127032e-02 3.179110695389490704e-02 4.276105476952281603e-01
-3.579540308782006020e-02 8.644108045946726632e-03 4.388290543578157177e-01
-2.647477569521192869e-02 3.070899929533576003e-02 4.185792110368369845e-01
4.821134589629285511e-02 4.716572970255365760e-02 5.043348233342779263e-01
-3.559658579369099490e-02 2.345374320516888100e-02 4.307018715855623903e-01
4.112564636209366242e-02 2.760420111696935616e-02 4.431023633563200281e-01
2.595803331817959567e-02 5.185815817711574710e-02 4.302287596524691504e-01
4.136761325543930438e-03 8.306772659917454477e-03 4.258703503800829182e-01
3.184921604028043834e-02 5.967507775764772926e-02 4.386757310905216589e-01
5.736276467440126065e-02 1.999772525825181321e-02 4.673282133801114901e-01
2.844324217493102158e-02 4.384366492050993658e-02 4.325663801313749390e-01
2.538757506705493008e-02 3.429034867100403533e-02 4.306528418369807709e-01
2.709663965144711376e-02 3.659524308513589785e-02 4.320201905980308732e-01
-1.977567990264487985e-02 4.778332643889003639e-02 4.138403808490665470e-01
1.390611941966007035e-02 5.918721063318728437e-02 4.248231235939802231e-01
5.782726104171346387e-02 2.589127867635793168e-02 4.738514027545379648e-01
-9.033102077699247529e-03 1.080483725311294149e-02 4.219671265168055685e-01
2.490305818196054261e-02 -1.164859764012759601e-03 4.351307924809062477e-01
5.487717600557015171e-03 4.536639111149846915e-02 4.093924236061476929e-01
2.684076614371894848e-02 2.094092256166926388e-02 4.333193157884180913e-01
2.604697285058371441e-03 1.859124446253746996e-02 4.156163048880182065e-01
-8.125813687147390163e-03 1.702136278475054401e-02 4.170927178491273257e-01
1.626228216716150629e-02 1.396191220031285998e-02 4.283212800390732156e-01
-2.002988070152791553e-02 2.546109215748686150e-02 4.171086850642851673e-01
1.192631120224033840e-03 1.602842115381910779e-02 4.184413852187692240e-01
5.565416176154246858e-02 3.614924247763062065e-02 4.605132570383053681e-01
5.682240760345706049e-02 7.502263867957038174e-03 4.826404032021776036e-01
4.785007084216742756e-02 1.332448170862583943e-02 5.068980797379678549e-01
2.596513779458621898e-02 4.419045388351375281e-02 4.302837868826417944e-01
5.127821133013206467e-02 1.881197160296192369e-03 4.552492723439967026e-01
1.143908658165099582e-02 4.122554835931195594e-02 4.140164682154960918e-01
4.463936557947564832e-02 3.660639235371389993e-02 4.460417468493614312e-01
-3.189149420537151780e-02 2.557682142524986268e-02 4.247160533266580162e-01
4.871078339318438144e-02 -2.129569999293364629e-02 4.616628096489560629e-01
4.485204576566934054e-02 5.613954656381622832e-02 4.938735984189266959e-01
4.977625325911133602e-02 -1.390906042118284294e-02 4.609664266894478724e-01
1.090552405897625594e-02 -2.876384230086546662e-03 4.313205923024358568e-01
4.835146810059885031e-02 3.550936884855034059e-02 4.495776009857254119e-01
-2.368947888050875264e-02 8.126084249113308539e-03 4.288485621274101822e-01
4.749712691178482882e-02 5.598625821663160557e-03 4.494615057031997596e-01
5.679681485938659069e-02 1.166628982674925048e-02 4.674068322710132617e-01
3.550433913103172301e-02 5.957066277190808251e-02 4.410939821234095559e-01
1.394288461871674538e-02 1.797191991151211952e-03 4.315125697146396933e-01
8.559562713035834963e-04 3.495625980491608858e-02 4.019461548765188019e-01
5.763793492168434868e-02 -1.488313320500898179e-02 4.822915017186132913e-01
4.587596753388106796e-02 -5.750481800570162675e-04 4.492470305722449098e-01
5.583328921610793139e-02 2.080821320143154060e-02 4.858629394558640069e-01
-4.616986292507329996e-03 3.481340124003950987e-02 4.047151772824579830e-01
4.472974289467002845e-02 4.896989285917775769e-02 4.461190952113754937e-01
5.801886606758793058e-02 -8.487781525205588887e-03 4.874175889757388358e-01
4.924292748508312528e-02 1.185207785943791399e-02 4.506879007651574676e-01
5.718363462673418246e-02 1.504814872423836103e-02 4.696397843515643933e-01
-1.871281966072363412e-02 3.610999366665949145e-02 4.119357769115611911e-01
1.170652313561188970e-02 5.744431154620922853e-02 4.210348049327360398e-01
4.691507019900841707e-02 5.815413646200270903e-02 4.500659687078459315e-01
1.957786580945751476e-02 -4.293594620354904134e-03 4.334116810371970163e-01
5.741029077845894585e-02 -4.867964714412821234e-03 4.783417962189110972e-01
-5.827028798140740720e-05 5.235922589683756484e-02 4.100286027029848568e-01
5.732556947578162920e-02 3.624805988248649968e-02 4.725431616314111349e-01
3.291448755846542590e-02 2.737499978660046240e-02 4.371487603127345856e-01
3.523606867015734861e-02 6.108900920060558737e-02 4.417817379798956723e-01
-1.077414417500647745e-02 5.105314655255049905e-02 4.110997144551846727e-01
3.809273739245626345e-02 -1.152910906667302393e-02 4.433377158989906253e-01
5.824073837126096664e-03 -1.699751887838741801e-02 4.362842331921022443e-01
3.418448568087407297e-02 5.920445759737422153e-02 4.398831268468667566e-01
-5.852787931851993058e-03 -3.060202716784111814e-03 4.300403054621524390e-01
-1.286941499848668659e-02 -6.985169036443071924e-03 4.326452218144193895e-01
2.756568548688586098e-02 6.334283647551111618e-02 4.385577888639676236e-01
4.642679749770405734e-02 1.864811165203092772e-02 5.091112498175331957e-01
1.098204318939842439e-02 -1.538510878249071609e-02 4.357358010617707333e-01
4.523980815650939513e-02 -1.388936946638754180e-02 4.521461581042053313e-01
2.645478012234044399e-02 2.486850153338367869e-02 4.327201549577242568e-01
5.800333503996712992e-02 -2.737319216633902867e-03 4.918879725382596102e-01
-2.841251318772893691e-02 2.145228142579593336e-02 4.235793662724110509e-01
-2.316552353296150168e-02 3.737473429579227235e-02 4.139601146109624374e-01
3.592694978442854264e-02 -8.006380478739161602e-03 4.412759492639156123e-01
-1.040815678660666002e-02 1.211207713508097132e-02 4.215322370217131631e-01
5.749491555501221735e-02 -1.053728765373058637e-02 5.138157806426274510e-01
5.647325807482365262e-02 1.471925418751899271e-02 4.823013188745288171e-01
5.169257792850990435e-02 1.952638188523634494e-02 4.532939479004544636e-01
4.419633208012997694e-02 2.083598916925152519e-02 4.456142301370925596e-01
4.836730944855020115e-02 4.856272757394556466e-02 5.027644391231841370e-01
5.619639649753405825e-02 2.582130121427020364e-02 4.614584221797836117e-01
5.740588160833638709e-02 -4.414534588961871800e-03 4.968439973169763157e-01
9.301619266896939131e-03 6.092060237986002963e-02 4.267327455294652183e-01
-1.784905934806007774e-02 4.250451760741211921e-02 4.101412638959766599e-01
1.257030426565858110e-02 5.781377819731214202e-02 4.221637472246580480e-01
-1.165166103539016715e-02 1.594185790094471145e-02 4.193323432316558019e-01
4.326979340176915351e-02 1.229986887061347567e-02 4.451759880713831996e-01
-2.725252424816463487e-02 3.445621468259890685e-02 4.178253226144568733e-01
-1.921413382796022945e-02 4.292292039114284363e-03 4.281467433043196213e-01
3.485581120722587578e-02 1.123727430986586930e-02 4.386192748323305968e-01
4.665159145938820376e-03 8.112782356613026241e-03 4.261754023545307191e-01
5.224595406570627792e-02 -7.091889441709587835e-03 4.628793942085682733e-01
5.794656893116308105e-02 -5.461752799273496620e-03 4.952528058380415987e-01
4.831773656247860538e-02 1.607201099494829852e-02 4.496616437005006572e-01
1.701386859653802527e-02 -2.406867197654837670e-02 4.374888375570710752e-01
5.255498773853892885e-02 -1.173015250226393247e-02 4.662406435867061383e-01
3.423909830620466832e-02 4.275934282362403756e-03 4.389877100176320379e-01
-3.094969183328284690e-02 7.089571538006508508e-03 4.337729091215942190e-01
-1.280787358209849354e-02 3.988901900425886882e-02 4.083928987032043878e-01
1.541340232490176834e-02 -1.652396285624079669e-02 4.356018867989926435e-01
5.754301401274951322e-02 4.719708308640162015e-04 4.865201251685050132e-01
-2.752486413608096205e-02 4.243090623490593238e-02 4.189770141266196957e-01
4.284151821621152295e-02 5.243693122022047293e-02 4.449841101417123523e-01
-2.887186643846614137e-02 2.272713671558043713e-02 4.233418838859206446e-01
-2.270302656628928745e-02 4.826828791879653191e-02 4.179173988317833599e-01
-4.352147778862289901e-02 9.638763576242537906e-04 4.428875387274869846e-01
2.952772636424132527e-02 -7.678580564444523193e-03 4.369153576261799454e-01
2.408649551228126892e-02 -3.651755140527905737e-03 4.346592846342607896e-01
5.528360630932530745e-02 -3.017479025025971741e-04 5.019771900762549643e-01
1.081631445919409122e-02 3.786183490772943028e-02 4.129708194417975320e-01
-1.407830138329424323e-02 2.012878115957808522e-02 4.173765813789799273e-01
-4.349983608897312753e-03 1.703489200084754018e-02 4.154562255777914381e-01
2.338490263087527471e-02 3.159543937369952392e-03 4.344170651973796038e-01
2.350024334451142338e-02 -9.187487741540573127e-03 4.351724948128402604e-01
5.783324077275591585e-02 3.105582448742118251e-02 4.713403698944223508e-01
3.841932297912567518e-02 8.330851590669968026e-03 4.414101760082796977e-01
-3.279384663089337376e-02 1.632964784960481280e-02 4.305949372186635427e-01
-8.451573788433475176e-03 9.761489806274113376e-04 4.290375002923129677e-01
-3.072055587387423348e-02 2.972239346944648836e-02 4.223662679690435851e-01
4.755711951576323954e-02 -1.517201002609503899e-02 4.562884985962920026e-01
5.384813806568188033e-02 2.354415214076246640e-02 4.917345661948983038e-01
5.136507992371452946e-02 -1.895446898187069101e-02 4.665727794809561013e-01
3.328558776111598810e-02 6.567815253764019978e-02 4.464273937677766813e-01
1.462727855822372469e-02 5.508882980803186946e-02 4.211523900132708720e-01
2.632129628216451842e-02 3.266028666709118455e-02 4.318146685734727819e-01
8.017627559279368737e-03 3.938374760733582419e-02 4.091683223942470526e-01
-9.963450325511472375e-03 5.817147114764976111e-04 4.292320691608010330e-01
5.577577835700001790e-02 2.754726464749996523e-02 4.882114010877751653e-01
5.498946458033426160e-02 4.826135766300822250e-02 4.639811537915374817e-01
4.633645662914207680e-02 -1.792041232753970037e-02 4.550764364004417639e-01
1.418701106339261171e-02 6.094696341612742402e-02 4.330731487710961503e-01
5.412216538176299607e-02 6.819480198834213143e-03 4.601834098278293483e-01
3.958582123056342272e-02 1.027215873644264643e-02 4.422849807387809751e-01
3.906241540793909534e-02 5.710125458915826790e-02 4.426392919128290804e-01
-3.133149119762829171e-02 1.090107596936152820e-02 4.327734702752963902e-01
-7.110844714630536884e-03 2.485000029596666493e-02 4.111126780110748169e-01
1.495627421586588103e-02 -1.640219944070256744e-02 4.356186170177366868e-01
4.750676396410959818e-02 3.749675487738877294e-02 4.488375959762598844e-01
-8.677951304767244148e-03 5.092459045531226927e-03 4.255201404931838738e-01
2.956213875011164463e-02 9.597069003773925355e-03 4.361855078183869416e-01
5.226305028426031507e-02 2.533848306695617864e-02 4.536095869934384517e-01
2.556673780046054070e-02 1.993774138696656137e-02 4.325836558621607431e-01
3.676993281504074840e-02 -7.529105265965268384e-03 4.418593131172146027e-01
4.858129054987703199e-02 4.674152515590818124e-02 4.502614657255242792e-01
5.178695639409434254e-02 3.871630262455435026e-03 5.073767251509969656e-01
5.352712265846557016e-02 8.784905828444170006e-03 4.577831955675173425e-01
5.592500251930201949e-02 2.839502244096579059e-02 4.874662931724451642e-01
-2.687231559689247200e-03 4.269778340981029985e-02 4.062401791723813660e-01
5.115648648637346335e-02 3.444966437340641480e-02 4.527882219297822974e-01
-1.417926070405905667e-02 3.638627267683407739e-03 4.276027733937510233e-01
-2.941711547331397891e-02 2.621427530561670424e-02 4.224931635957657194e-01
-5.410680475535710812e-03 4.149032433913281588e-03 4.264649420563091375e-01
3.009666463028900368e-02 -5.926929646030366407e-03 4.372115408699910888e-01
1.041318441234456368e-02 3.233004723928235846e-02 4.095047564282546237e-01
1.333690295579436844e-02 3.477402903022182301e-02 4.170093507659671239e-01
5.518276601632622624e-02 4.059142949376184917e-02 4.885913545493382193e-01
5.715997504383920486e-02 1.716626090616153039e-02 4.675564058934276734e-01
5.807436751964140109e-02 -1.704688057373277780e-03 4.811005937766095197e-01
1.404267618481503353e-02 1.381815353744406984e-02 4.271502941121579355e-01
4.793770706970390538e-02 4.823874634255316540e-02 5.040321919025992914e-01
-2.774867107169489561e-02 1.610669090126005953e-02 4.265401742683959663e-01
5.649262618868925584e-02 3.555635160685863966e-02 4.839763182251201057e-01
-4.878574716410630577e-03 2.470394811209118344e-02 4.096385645092046612e-01
5.147720568693893439e-02 1.000912406831352963e-03 5.119347408418277734e-01
-3.069075563299997894e-02 1.239569652615491770e-02 4.313812450253531328e-01
-3.314618539131603675e-02 1.736259274894803861e-02 4.306216881383291284e-01
4.000460184403908936e-02 2.973239590450229078e-02 4.422546558810665496e-01
3.812286398910696983e-02 -6.005374165957014579e-04 4.423073773640175954e-01
3.156953535815228834e-02 1.815956962470316200e-03 4.379448825357339370e-01
-3.259575988237647937e-02 1.035679112769598634e-04 4.363075467314848632e-01
4.210207293834623832e-02 7.030065251547808203e-02 4.549212050798885354e-01
4.987950463845669535e-02 1.714980198043732432e-02 5.001595697634384496e-01
5.719317875285302027e-02 1.706772465436062758e-02 4.682452923497620323e-01
5.621111262274418319e-02 -5.513830198512451215e-03 4.724753095317827389e-01
-2.935995236210140261e-02 1.075242772881903827e-02 4.313765943581552298e-01
3.760787478258852817e-02 7.016178120854896227e-02 4.506494235238138191e-01
4.785619510628598937e-03 9.640740112566660927e-03 4.251915327137649747e-01
4.439298168528000438e-02 6.383023063226589411e-02 4.800604430600375339e-01
5.620847632264205224e-02 2.780793367176679493e-02 4.614426110961972749e-01
4.616952945282217641e-02 2.122705314087278833e-02 5.098362883514998556e-01
-2.846209026258230898e-02 7.549320525578355132e-04 4.334754719747367369e-01
6.637265614491112339e-03 -1.467499854962775463e-02 4.348294829707579634e-01
4.845309475630119739e-02 -1.885067854705205909e-02 4.601430926059709159e-01
-3.118491920785489147e-02 2.361953424885900737e-02 4.248036109808110417e-01
-2.656168281425680400e-02 7.218511261865892190e-03 4.309160564117088810e-01
1.379073919731277006e-03 5.472327156879974730e-02 4.141433245013506070e-01
5.068409029144400196e-02 3.969079831681067427e-02 5.018854475957738037e-01
4.667528583237536000e-02 -2.668793943860668476e-03 4.506901585024112311e-01
1.200686937824816010e-02 -1.211226366364799925e-02 4.336649309284793530e-01
4.610353379777690219e-02 4.866631324560335981e-02 5.070876113382265515e-01
3.944699882095555055e-02 7.184472592303621508e-02 4.540214980284584256e-01
5.577756689783577165e-02 3.815555913759347689e-02 4.866291949352447577e-01
5.343189911494096445e-02 3.852646933004734431e-02 4.958736458338787734e-01
1.364032814048449400e-02 2.957747347235944665e-02 4.191058441628718323e-01
5.077124030916675690e-02 5.594265928427439444e-02 4.821392061457166478e-01
3.006999880339408099e-02 -8.907884391544523828e-03 4.372620490412795768e-01
5.217055523497892561e-03 -6.774820926496899140e-03 4.312611508684470740e-01
1.496004587970718204e-02 3.097530098881629002e-02 4.202890599781778369e-01
5.570986351833102229e-02 1.248687710286422101e-02 4.852319868169462924e-01
-1.931513473635779188e-02 3.122091754724994755e-02 4.141359213067866141e-01
5.449291062950809700e-02 9.739566407135153564e-03 4.914569919028382583e-01
5.660005705015400818e-02 2.030311152946265990e-02 4.631001387193015573e-01
4.749407943117912867e-02 5.866580501895425973e-03 5.137683650201868568e-01
4.095440503115446718e-02 2.749467397418625322e-02 4.429513180559095931e-01
-1.021823223690522010e-02 1.722414477295059832e-04 4.293273102042620137e-01
4.840550557926093234e-02 -2.161214782376996366e-02 4.610930265537652173e-01
5.318473474849315374e-02 5.371623987701210079e-02 4.750042384196654921e-01
-1.287050237946347001e-02 3.121474568729091376e-02 4.108175199482616002e-01
1.015207379440937092e-02 2.260402155351433351e-02 4.178090975995553680e-01
5.385341009422577735e-02 4.401101681952730021e-02 4.566521225102712078e-01
-9.155197153658074447e-03 4.309360976600621479e-02 4.076150721146633571e-01
-3.295208026462605189e-02 1.262678158835411034e-02 4.336667636912228119e-01
3.813115483456844257e-02 -6.963420099755760623e-03 4.428231527832408587e-01
2.180965923186941463e-02 3.737574668251530518e-03 4.338784517768763394e-01
3.171986630272599639e-02 5.900459230006004085e-02 4.382006806692304024e-01
1.943992423440689746e-02 3.035720713398395304e-02 4.254525481060072445e-01
3.622861168126523951e-02 -3.288253916209381029e-03 4.411614352903248104e-01
1.211670558944181846e-02 3.579235798074104080e-02 4.147530810921807864e-01
2.130116323859703592e-02 3.139105673285631781e-03 4.337215894523295256e-01
5.774801246002212590e-02 2.739534825376647303e-02 4.686673564426349081e-01
5.142635051523906931e-02 1.287644660130773597e-02 4.978283768864090186e-01
1.566183419809055039e-02 5.684571218685799399e-02 4.238696118040913841e-01
3.833622743875265970e-02 3.194771448788998047e-02 4.409734034662774471e-01
2.577110991472483098e-02 4.655161412210929300e-02 4.299225463075783682e-01
4.486559031210026957e-03 5.398610214729885476e-02 4.139847015272425934e-01
2.367648941238009730e-02 -7.472566729245100001e-03 4.349333890408612624e-01
-3.577961865787581547e-02 2.254649691202650560e-02 4.319123647170228786e-01
5.283969701242913902e-02 5.649022310488521076e-02 4.610605960799863956e-01
2.316861660759600774e-02 1.626953325868138803e-02 4.315567109471861729e-01
2.297183859321985308e-02 -1.538537526605599382e-03 4.343278431169281806e-01
4.156914466229542915e-02 -6.071200179747807471e-03 4.458914791854640680e-01
5.305435672352779020e-02 4.237572298724623376e-03 5.023903520574459769e-01
-3.575173561895778063e-02 2.410854791268777705e-02 4.304809679403577283e-01
-1.798815115303077986e-02 5.704500767065613653e-03 4.269084362247136943e-01
5.741004907272173607e-02 2.137464476545612030e-02 4.782384865614564551e-01
-3.596621666756283364e-04 2.020357852275272981e-02 4.120785768445011099e-01
1.129965260599472346e-02 3.532077725351201458e-02 4.124466674672070954e-01
4.261921008064555733e-02 5.443975212843060046e-02 4.452262049249143261e-01
5.751119697423746902e-02 2.519080500804147735e-02 4.793275380059173751e-01
2.833455941429643965e-02 -1.141965034563529983e-03 4.365916610856802604e-01
4.940377069125049397e-02 1.128101214615255532e-02 4.508855670898808121e-01
-5.702481076832526148e-03 4.969167320495118667e-02 4.089559560955161599e-01
4.518881978999923082e-02 1.331014197735310052e-03 4.482136298042935785e-01
5.645024173644998255e-02 3.139948322279724480e-02 4.619847447537956397e-01
5.723852585073523763e-02 1.374189593326902159e-02 4.714867060452310188e-01
2.898851072782427860e-02 2.778255175147285524e-02 4.343270660460499810e-01
5.478916528283970383e-02 8.031183767243717242e-03 4.615155293613274479e-01
5.768894811524530319e-02 3.150910635013862843e-02 4.764217930405481582e-01
3.230909993242066236e-02 -1.756369865832830418e-02 4.402774507125067904e-01
4.090687814119958743e-02 -1.705464343604103095e-02 4.469684589738541214e-01
3.878538661154023320e-02 1.496979887776275081e-02 4.414695333807526212e-01
2.168556441239342936e-02 -1.170421126879204153e-02 4.351563470341332507e-01
5.549415277867675300e-02 3.515919666575704344e-02 4.900272524929178974e-01
5.208627080907331230e-02 3.517953417967571716e-02 4.541575072322262541e-01
-4.100965515656582877e-02 2.580295704930367796e-03 4.433484860403003602e-01
-1.336054189613355460e-02 1.513582042075155287e-03 4.290978633530097008e-01
3.592371891247367333e-02 -1.893989486092120117e-02 4.432783973820024204e-01
-5.580136780892277354e-03 3.545363966120741034e-02 4.054426575259173493e-01
5.648897107892350555e-02 2.741558068544603863e-03 4.901687567401941670e-01
-2.012957623136875374e-02 7.368610911468092238e-03 4.271262252723708186e-01
5.763676079427677151e-02 2.184160485315063058e-02 4.750532497148437505e-01
5.650361396115943097e-02 3.284508753694934113e-02 4.844766735527310519e-01
4.798361310548430320e-02 5.759454276879998058e-02 4.511319778383657830e-01
4.589956680572467029e-02 6.021264461038064453e-02 4.851894882054855751e-01
5.699189087719259972e-02 1.906222155162930892e-02 4.797904149506625471e-01
5.785958017599475423e-02 -7.691076869500081126e-03 4.855006309432129963e-01
4.928373728993248187e-02 4.835143688699907599e-02 5.009256563175628063e-01
5.291920663964885113e-03 2.594402304946601123e-02 4.044288482245215199e-01
5.490038481691248556e-02 -4.171618272687803095e-03 4.672113723214151859e-01
2.869289051499267912e-02 1.893081719739177216e-02 4.347456918665734693e-01
9.424997572392731365e-03 2.172331963217775247e-02 4.173530896345076791e-01
3.964288069498056455e-02 6.839980031212002098e-02 4.654022161887909625e-01
-4.348223188370233493e-03 4.777408935323762540e-02 4.072888751128735385e-01
-5.187920880442796305e-03 -5.367189870212410452e-03 4.306150798694057258e-01
2.551393599436037676e-02 5.862902474464146141e-02 4.330287937040216972e-01
5.341509176612798532e-02 1.395969595339429867e-02 4.919328534555211796e-01
4.522871142769349651e-02 6.361975968930680403e-02 4.511188792010247250e-01
5.707711766086907834e-02 6.035362274924689630e-03 4.746613611248616249e-01
3.010571474742734788e-02 1.232068510947907907e-03 4.372627349165448818e-01
1.087452071699413284e-02 6.049188183587443646e-02 4.263822860435815265e-01
1.330126595451508291e-02 4.616406088399827717e-02 4.178063940626993711e-01
2.116561865452216279e-02 4.664777361356184371e-02 4.261398594920425831e-01
4.385736252415412678e-02 4.378052464360891738e-02 4.451195936942622389e-01
5.692318805910669133e-02 7.138946171421485694e-03 4.823402900167656493e-01
5.639854225958892964e-02 6.362336263005171147e-03 4.684386435506248669e-01
5.685381285625287773e-02 2.147745644690829750e-02 4.636455539212472332e-01
3.452623616129200934e-02 -1.664494031677039160e-02 4.416240706855047438e-01
4.798762323770035254e-02 1.457382726429610684e-02 5.059342587831809901e-01
1.301805423615185267e-02 3.313143297511840502e-02 4.161709650231031898e-01
4.982203142679494240e-02 3.910154549336784108e-02 5.036680156708107647e-01
5.680304331157135650e-02 -7.903855733081072837e-03 4.775029365609680942e-01
-1.723475510128611582e-02 -1.171473098887840757e-03 4.311537044475960423e-01
-6.667064131301606196e-03 1.176567185468595927e-02 4.208772240134748266e-01
5.575044524936936113e-02 3.678697766292906429e-02 4.876761887414213237e-01
3.557117866570626286e-02 -1.246978044160392679e-02 4.415103916181548627e-01
5.598597478213238055e-02 3.639739215719505969e-03 4.674642207048487763e-01
5.189546649044793347e-02 2.545964518379818624e-03 4.563508206896449426e-01
5.105294687917154295e-02 -2.071837718856159652e-02 4.663500949030240372e-01
5.304168509160788608e-02 8.655046734250224430e-03 4.565812994430926697e-01
5.701689899588192889e-02 -2.501273148140651693e-04 4.734664676014786466e-01
5.743609467687808834e-02 1.912567963867934859e-02 4.710320494917182854e-01
5.267816279578609734e-02 -7.898019984156846775e-04 4.597921129608644741e-01
4.353096997408471142e-02 4.204005431759824662e-02 4.448417379891249634e-01
3.977800304204298643e-02 1.395533554579522079e-02 4.423214633586320388e-01
5.198100444472865400e-02 5.260694868611447833e-02 4.550729220296841349e-01
2.533974095677682739e-02 -1.472708863665040356e-02 4.368331569345541010e-01
5.499478915642922600e-02 -2.788138101163077382e-03 4.670500362057461996e-01
6.715114345113811986e-03 5.368888514584726351e-02 4.140996068994108326e-01
4.336078965563996968e-02 1.654814623671171589e-02 4.449778796602691933e-01
5.241703227913787483e-02 1.768988698041700294e-02 4.944075338387270424e-01
8.187902231042596887e-03 5.286067099830523558e-02 4.144287821856142418e-01
3.846528918150998733e-02 6.781586847204677804e-02 4.723117647042865963e-01
3.247973983373157042e-02 6.112418725646795448e-02 4.397717484246056463e-01
5.255735190453885569e-02 5.170373168375944767e-02 4.853118703404815104e-01
9.649072847963669625e-03 3.831613859123103594e-02 4.111749215019703252e-01
5.359107307517183699e-02 -1.454773455755278659e-02 4.696959636593182608e-01
3.877226191912205855e-02 6.107655335039754302e-02 4.440022978682703902e-01
-1.823389889157370561e-02 8.590897883252120865e-03 4.255364198114666707e-01
-1.444903736454482279e-02 3.654117588041865677e-02 4.097276140334944472e-01
4.596897455582818481e-02 5.763986724347657659e-02 4.898264532777478197e-01
5.709844565448828763e-02 1.704984931233815074e-02 4.666970332354146156e-01
2.777099458390191317e-02 4.267013277968555868e-02 4.320668151447725758e-01
8.852701344624149676e-03 3.899709918349140124e-04 4.304918691518951901e-01
7.655472837149353282e-03 6.041003963594371307e-02 4.228492869257328701e-01
5.126417230931421681e-02 5.671018717155371092e-02 4.566457375671237884e-01
5.687564558299678524e-02 2.944176259942053384e-02 4.838513262625363520e-01
4.190891644514581349e-02 6.626268750005591401e-02 4.771475630355894726e-01
-2.632280039649759207e-02 3.670648624837184043e-02 4.163782244602374227e-01
5.162164587745359662e-02 5.741275145652099260e-02 4.737753044886466869e-01
5.747735777528564100e-02 4.379398831327640032e-03 4.790010704655336404e-01
4.053221248587030034e-02 6.172107010695079138e-02 4.454622301304170806e-01
4.467608233053754069e-02 3.693180989968396222e-02 4.460520216882628008e-01
-7.850344355063678314e-04 2.872279528278589081e-02 4.031341541745822044e-01
4.726729348001629943e-02 2.515005641743690845e-02 5.073244962785218304e-01
5.141008268233214495e-02 -6.842141070009636478e-03 4.606257019252231744e-01
5.048620753329595423e-02 2.278286889687048192e-02 4.517731787658072484e-01
-2.657371875837941100e-02 4.453446751756832273e-02 4.180895021027621894e-01
4.171089814393882239e-02 -2.349286978405499063e-02 4.517142829701071838e-01
5.761721905836523355e-02 2.166209145555804058e-02 4.755964121407804113e-01
-2.414841559253148515e-02 1.526561056011779133e-02 4.249926827115131922e-01
5.241610399341931070e-02 2.543122127118160533e-02 4.537699536976256276e-01
3.966230907978159081e-02 -5.349955813976224953e-03 4.439167105448729722e-01
5.664040845744122699e-02 3.181702433074982961e-02 4.624608204665109912e-01
7.597571376660654068e-03 4.213676657483285230e-03 4.294153913012940804e-01
5.641643657294906355e-02 4.112512136888162029e-02 4.745421144480210240e-01
-1.802689825782061508e-02 9.419252800522526226e-03 4.249731472591631309e-01
8.721182718772004655e-03 3.330746289883064482e-02 4.042064400180091499e-01
3.160264799608031999e-02 3.262887903777877963e-02 4.362215210954911160e-01
2.324459752733589943e-02 6.004307814337622728e-02 4.335592702065755866e-01
-1.848837733925152299e-05 -5.436986542853700349e-04 4.296798639835551770e-01
5.126859569765694624e-02 -1.847173569082468172e-02 4.662793766301380205e-01
4.210848557719334972e-02 5.800655496241649556e-02 4.455056212161916385e-01
-2.034318039532104216e-02 4.552188863449929679e-02 4.124688252989225368e-01
5.776793331583486568e-02 -1.756298380562551845e-03 4.910717560594469178e-01
-3.405375375821011880e-02 2.565482307444875293e-02 4.274119708524166672e-01
5.662895081875403414e-02 4.103605952776258337e-02 4.721041320649640993e-01
4.330559547341767714e-03 2.618771021116500161e-02 4.037959327169579060e-01
-4.115862653887213118e-03 5.515174784549158049e-02 4.153742962203452738e-01
5.448639166446767046e-02 -1.745685011126954511e-02 4.735165684094332916e-01
4.307762023550917863e-03 1.945471672428216239e-02 4.147635922902846439e-01
-1.739345628111300252e-02 2.624286723319622927e-02 4.154552604107080716e-01
4.493031068422386615e-02 -1.956060743581341035e-02 4.536574875520765215e-01
4.945807012068755698e-02 1.309296449689787388e-02 4.508780170408778210e-01
1.910833026344347166e-02 4.252401264731729691e-02 4.238197919525275026e-01
5.650096259081533595e-02 4.110957519088166701e-02 4.663669480512855903e-01
4.697100698938880270e-02 7.909966306695820695e-04 4.500417900959718942e-01
4.656338864268867728e-02 -7.495164293045693954e-03 4.522131999471319941e-01
-3.505295083638840237e-02 -9.565419459747297442e-04 4.384572664873300218e-01
-4.066163911062333630e-02 2.586144434939572929e-03 4.474390625201954408e-01
5.536274302053286606e-02 2.383654991364168516e-03 4.967198519844882032e-01
8.929078831388777282e-03 3.796168326945123517e-02 4.101084558386131063e-01
5.782902431588001629e-02 -5.387609957042793773e-03 4.820673808647196190e-01
4.213283743046379592e-02 -2.162747203740617366e-02 4.508345677196514689e-01
5.651206093336807318e-02 7.097018415943598217e-03 4.853663067468871328e-01
3.604248806169031705e-02 -2.667352829648010019e-03 4.409758298870979920e-01
-7.904355325747436031e-03 1.176182764207710056e-02 4.211878288090884492e-01
3.534284347591716557e-02 -1.405237845144592830e-02 4.416129084828518958e-01
2.926252831902627360e-02 1.991043152040458675e-02 4.349958714183760899e-01
4.016345873280912498e-02 1.916892936820822554e-02 4.422538592038481875e-01
6.784339779048517011e-03 -5.984597475992929454e-03 4.311953760054592077e-01
-4.233645645960748723e-03 3.843625982609775310e-02 4.047997152161086909e-01
4.373009425242455755e-02 5.291207986205259672e-02 5.025644740499367602e-01
7.888322798706234526e-03 5.674731619785958192e-02 4.170118274871887909e-01
5.194744929391281046e-02 2.977799527497518306e-02 4.980140939158904656e-01
-1.346793387797266123e-02 3.209314382949824546e-02 4.107591476769672512e-01
2.066506653609521613e-02 3.311454259719601861e-03 4.335166677961320714e-01
3.366938909372013677e-02 6.018055089583949913e-02 4.400666623255123366e-01
-2.194474457442652932e-02 3.205073061623715802e-03 4.300224413202682339e-01
-1.438873303743596309e-02 3.658262098977387022e-02 4.096869956071673702e-01
-1.798112955236989483e-02 4.901233103828033649e-02 4.147950611835925505e-01
3.207391880957715519e-02 5.196742812757412094e-02 4.354587690229403951e-01
5.327729043972125739e-02 -4.134820102842983250e-03 5.145016810137212904e-01
5.154477285478763215e-02 5.684467337792644542e-02 4.575778023908915748e-01
5.250230625429078146e-04 2.328546979166676648e-02 4.075700035268676191e-01
1.993580950854029199e-02 8.301892128595875220e-03 4.323991637985034053e-01
5.501882683228744714e-02 1.445894836259692395e-02 4.596891343901194360e-01
-4.635378007531700852e-03 5.083625868092127298e-02 4.101139653577181021e-01
3.891492122712934820e-02 6.819139887926287114e-02 4.684840572615024956e-01
-5.767735692934109794e-03 7.141230854050614231e-03 4.242639509117749896e-01
8.868435363232677476e-03 3.918350036885801663e-02 4.101501829897277185e-01
2.858113477746750467e-02 1.845532764213095311e-02 4.347316311467760985e-01
4.028611123477753714e-02 7.083880456261208713e-02 4.524176864862957115e-01
4.278056836027613330e-02 6.665249622353691672e-02 4.758164081320202521e-01
3.579216346212717864e-03 5.528716286352038101e-02 4.152359000729060057e-01
3.279361002374118345e-02 5.244803333043047272e-02 4.361465249874111882e-01
5.522153580479762652e-02 4.703687873602280245e-02 4.629402417813156534e-01
-1.354967292173934502e-02 1.125580118309280064e-02 4.227017209669488573e-01
4.272551929943031040e-02 1.667199298332170537e-02 4.444370173499687104e-01
5.408651015189564620e-02 5.219816632909518583e-02 4.725099801131529831e-01
3.672365901019113837e-02 1.537005909749447272e-02 4.399009729962400916e-01
5.764488287434733904e-02 -1.525376644555838119e-03 4.784844551487812958e-01
-3.335552335976285643e-02 -2.627993021755464960e-04 4.369786932448081473e-01
6.289933426817618731e-03 8.654628195109115643e-03 4.264049650171160555e-01
5.738920131804080976e-02 3.386585214417134337e-02 4.766162110890408976e-01
5.621569432510103298e-02 2.854955056276785308e-02 4.614342902175389005e-01
4.908447673814919643e-02 6.101908342984428690e-02 4.561767772119968978e-01
9.853319401310256867e-03 1.917459026082839885e-02 4.206185998173487817e-01
3.614373170403281654e-02 -7.710405699068419508e-03 4.414075094638502672e-01
-3.064109558485216336e-02 2.958634934250576817e-02 4.223477294392999903e-01
4.366057463767013952e-02 -1.373100504691691232e-02 4.496443841447931855e-01
5.719444547935429585e-02 1.153269165505970036e-02 4.732060591430637952e-01
3.942066962784217254e-02 4.973936979509643863e-02 4.416344154964916280e-01
5.054563646761452145e-02 3.729794538481791266e-02 5.022924280242625494e-01
2.622344697523807874e-02 -1.383488728635744007e-02 4.368930801050610047e-01
5.687781931225027038e-02 1.071066737271948906e-02 4.806797778229753848e-01
4.539738161807704148e-02 1.451467297577852672e-02 4.468745252720972005e-01
5.717544515244305653e-02 2.027931049662996116e-02 4.791591971953782503e-01
5.233628041977495676e-02 -9.281931950539641998e-03 4.644186414439470667e-01
4.958694943546314293e-02 4.239547463736229038e-02 4.513398550531414477e-01
5.275979775818861323e-02 1.237212180715322254e-02 4.549327103915060122e-01
-2.233836341109460624e-02 -7.918755173491965130e-04 4.321380509692136496e-01
-2.539114164526316136e-02 1.060141430095332300e-02 4.284856543740463430e-01
6.387775500982290425e-03 2.080511215328045491e-02 4.147026681771723289e-01
5.256919821276121590e-02 5.385176314359364780e-02 4.565845601067760051e-01
5.152550083544157195e-02 5.871595540174396471e-02 4.604979405478518695e-01
8.453267094109550434e-03 2.523982245851305595e-02 4.125126503381247867e-01
4.791993629984515890e-02 3.884197359318405929e-02 4.493028366226735626e-01
5.229869856044639526e-02 5.136306874504639741e-02 4.551548972073317656e-01
3.554975905050635279e-03 3.371591856111497143e-02 4.020276443242800646e-01
5.704015496674267466e-02 8.954580984237479023e-04 4.734288495377351191e-01
-6.108558986335624113e-04 2.309877103012951405e-02 4.075993138672784899e-01
3.724020662679782684e-02 3.934878019439228686e-02 4.400398861042280063e-01
5.572395400798349496e-02 4.138408132404099160e-02 4.810821598057324899e-01
4.930926117125473962e-02 6.405465617624117591e-02 4.640469234282331157e-01
4.859199185823945971e-02 2.743829013520674223e-02 4.498583536888228207e-01
5.587773621068709701e-02 2.590867782782033460e-02 4.606390562325962668e-01
5.336134984329324316e-02 5.498486199370245658e-02 4.684352409709651721e-01
5.493508036534027611e-02 8.270814663253489921e-03 4.618166532051474205e-01
1.425671562594531955e-02 7.015322439266990021e-03 4.306529524701243616e-01
2.766972212116577609e-02 4.407818676469808794e-02 4.318599922973644367e-01
-2.572070378082040587e-02 3.070361648616361933e-02 4.180442604670385198e-01
1.017757118857091046e-02 4.292197438970745370e-03 4.302211103325508379e-01
3.619559383809838743e-02 3.979206736562328900e-02 4.392446179233033265e-01
-1.037816579318373393e-02 4.678175806478650223e-02 4.082563003036425164e-01
5.719362435981099196e-02 9.761332360355891996e-03 4.793890523807151638e-01
3.533319420455859755e-02 1.183935927497376667e-02 4.390140245300983013e-01
-3.982542035864566204e-02 2.599093079084536032e-03 4.420037415820907145e-01
5.726388801041151777e-02 -5.017839246929890230e-03 4.774092719743910918e-01
-1.098044488885471445e-03 2.788255580933168137e-02 4.039466081581238321e-01
-1.216349619041821525e-02 1.362552072160027120e-02 4.209794438150854523e-01
1.449018303643500455e-02 5.687511966947367270e-02 4.227422907206238034e-01
7.852272064489528719e-03 -1.402506779550559413e-02 4.345889412056891943e-01
2.064561902312909633e-02 3.501288340028393259e-02 4.262250769994128108e-01
