5.229340292398224066e-02 2.910567223629349776e-02 4.538337108784298857e-01
5.402616641910895634e-02 4.131700612272094786e-02 4.931940628562840323e-01
5.315342865826893498e-02 -1.585155364632506725e-02 4.694123904954485837e-01
5.617347423374582926e-02 1.541430953815079927e-02 4.835733028058194494e-01
5.628624935627092596e-02 8.440339827806172396e-03 4.853510052552555964e-01
4.925608403543112884e-02 4.980008021819464815e-03 4.514622056739847067e-01
-4.806036972758567782e-03 4.888716187658537216e-02 4.080411230801026523e-01
2.579243551558117048e-02 5.812602709559107697e-03 4.352020770642293090e-01
5.314487860389526669e-02 2.457215883586824634e-02 4.935838044706883365e-01
3.178817464715815583e-02 -1.344007057137246337e-02 4.390627151575159370e-01
2.212076304679144734e-02 5.961316903844032095e-03 4.339257370541011460e-01
2.138922890714440792e-02 2.439917117797676949e-02 4.285275387585559814e-01
3.422921722589119392e-02 -1.973955729907731632e-02 4.422456387745952178e-01
-3.542861789446410947e-02 2.440760665781134195e-02 4.298345606878340996e-01
4.944589536778685318e-02 5.159317028063321181e-02 4.961942041508942691e-01
3.025165042317493058e-02 3.384978411482834904e-02 4.351119200207191895e-01
1.536091578742049615e-02 2.455736106687654574e-02 4.231326078911490374e-01
5.562439168357275615e-02 -1.956346229943361093e-03 4.683015828657293711e-01
1.907247820372691416e-02 5.695996396992729360e-02 4.273461417406506646e-01
3.796561971201304481e-02 4.419525474278928473e-02 4.406167556382462047e-01
2.478023041300389528e-02 4.000760533384042222e-02 4.298278448755974424e-01
5.368573725594061319e-02 1.386720797286743710e-02 4.911577104276672601e-01
-2.851398852833920278e-02 3.892291821895964982e-02 4.181419678057100575e-01
4.924447763948009565e-02 2.800597578561113063e-02 5.031948372679422299e-01
1.024639821276999638e-02 1.614290398811163083e-02 4.229349932687537228e-01
3.726311923276709459e-02 1.975499419274030343e-03 4.415227650395169845e-01
4.849779062058406920e-02 5.008610381131367584e-02 5.008309312409081615e-01
4.238615174227105403e-02 5.249877372950886162e-02 5.048274695474413987e-01
5.012591276356729436e-02 6.879756571294329444e-03 5.072246417625316806e-01
-7.648844052754118043e-03 7.326251504873300055e-03 4.239455343870539572e-01
4.335201413766954365e-02 5.142792631784928042e-02 5.071108224457255842e-01
4.727929279356200137e-02 4.456988983537543692e-02 5.068919700699298092e-01
5.370779594429521409e-02 4.783146504577899527e-02 4.565088467307757969e-01
-3.464843485101568032e-02 2.534939776430860520e-02 4.283378744724503084e-01
5.495201997705853603e-02 2.656836516217774696e-02 4.903064307528034460e-01
1.835145233287738611e-02 3.335178667198179792e-02 4.238889376187750524e-01
4.392356209057377003e-02 2.444790417034665118e-03 4.468280309933393424e-01
-2.374395858227542830e-02 1.630581005587689383e-02 4.239149675968287290e-01
5.526456046323512811e-02 4.412203339831190230e-02 4.610304223116428735e-01
2.463077886738181121e-02 3.565235659215018615e-02 4.299959098068612540e-01
4.854543959567084177e-02 8.633410594268879981e-03 4.501648118049031422e-01
4.152361227540744826e-02 5.393140593117139170e-02 4.442657004444591218e-01
2.435099807279906062e-02 2.547343145463347794e-02 4.310387672937451842e-01
5.562489020873625373e-02 7.126420366072139245e-03 4.893342791427381377e-01
5.673256481096618231e-02 3.976940670981748277e-02 4.729957756028514426e-01
4.741582752721527211e-02 -5.336947652332677330e-03 4.524434257474360122e-01
4.995215979728381134e-02 5.219468869253376421e-03 4.521171368380935696e-01
2.362077526941810945e-02 4.294258107672586228e-02 4.283985759151689443e-01
5.722702730610799982e-02 7.555915355779944421e-03 4.783128705456909935e-01
4.157792420304108616e-02 2.162248534427260727e-02 4.433019637919154432e-01
3.366727066297239140e-02 4.020929766319788351e-02 4.375583301725042285e-01
-1.143451795271104195e-02 5.096735020980056909e-03 4.257719467340030373e-01
5.718452117799559947e-02 -5.519391312973350588e-03 4.773192927092699822e-01
3.262205322099391569e-02 2.165443088254444953e-02 4.372214462683816083e-01
4.719989220345170017e-02 5.943121287743774461e-02 4.511126936882909888e-01
4.073968985060651138e-02 2.769856500154591582e-03 4.441396010460301191e-01
4.922594589181387981e-02 5.470222178975429200e-02 4.909028174925842980e-01
2.144679716619109916e-02 4.738696165640311070e-02 4.266361514223153684e-01
2.716336062037522439e-02 3.005367311773378750e-02 4.329584159965939039e-01
5.630298295592309904e-02 1.142316784824550652e-02 4.829458682722027607e-01
5.510851629229345655e-02 4.792922679753367637e-02 4.665246270667627315e-01
1.060372884853677360e-02 1.630537506974125139e-02 4.230168074638651632e-01
4.920756004030977376e-02 3.445765785442449214e-02 4.505454589426309830e-01
3.646201237318597022e-02 -1.953304166103741329e-02 4.439006654989131051e-01
1.586250108254637012e-02 -1.144548130778736024e-02 4.338155240174251248e-01
2.667295163699267765e-02 6.122161315426070949e-02 4.363604969416373103e-01
2.537309273069537213e-02 6.195186901405858905e-03 4.350372693224883180e-01
3.038107320342306027e-03 4.936816648669727081e-02 4.095874797813786605e-01
2.344647593079272202e-02 3.660167979463162247e-02 4.289629053168051986e-01
3.489884754106840209e-02 3.558236308422334931e-02 4.386836840560596196e-01
5.411302895415295508e-03 -1.231925781633295969e-02 4.331111099572222956e-01
4.457068293418368216e-02 5.308413537760576367e-02 5.013977696417497576e-01
4.912166678233784861e-02 6.312615384078873459e-02 4.602949755132580978e-01
3.973384338450850622e-02 -2.039838597873307180e-02 4.469521605417864918e-01
3.308127919870984535e-02 -1.833912948088310332e-02 4.409614617259511316e-01
-3.117463020423204625e-02 1.203457835067513193e-02 4.319641131814992985e-01
5.724990875658137607e-02 3.438114381401911890e-02 4.767505673067456429e-01
2.213729074916954975e-02 1.934498554406965595e-02 4.302757387304436687e-01
3.333279428607942296e-02 -4.730466314507658643e-03 4.391372139130970131e-01
5.562443835116827329e-02 4.252570447228832401e-02 4.797309195751053301e-01
5.651094375500421985e-02 2.090062551250011433e-02 4.825683232814557133e-01
-5.541769045366073954e-03 -8.570925167750443815e-03 4.319482225918438445e-01
2.966571612322709342e-02 1.895255622690556960e-02 4.354535748891634750e-01
1.138205284910503469e-02 -2.682877421029070293e-03 4.313815564211987419e-01
4.582516120598864595e-02 6.332341746742570221e-02 4.518623666129448768e-01
5.767459765455438397e-02 2.590569689019354971e-02 4.692715180774046924e-01
5.705497654206823782e-02 1.745054434972878599e-02 4.660305643815977339e-01
8.897681924647635535e-03 3.331555602082129919e-02 4.052211320925520610e-01
4.999959890929898954e-02 -3.987372338097218069e-03 5.182672472887546178e-01
5.521116795116376430e-02 1.916658971541608525e-02 4.596347532078486342e-01
4.349005089136576824e-02 6.765764660245103534e-02 4.674735257152621837e-01
2.943448737437420575e-03 1.815213826608965547e-02 4.163881391678017074e-01
2.025270412391138100e-02 1.350837899982238605e-02 4.306727094265263567e-01
-1.370970851713002731e-02 1.023995272026097594e-02 4.233411988002964144e-01
5.351933545138311266e-02 -7.011700946383522814e-03 4.657451248488851392e-01
1.575517815548337086e-02 3.309237482205121955e-02 4.210437304347266485e-01
6.905179967116962907e-03 1.609011590530347660e-02 4.210352981039247600e-01
-2.248920282528552722e-02 2.561133437397369525e-02 4.183779145502635188e-01
3.117795128976346905e-02 6.517910191935571973e-02 4.453345666766705402e-01
5.409120983812756162e-02 4.995619561815560494e-02 4.590224755709839677e-01
7.073710960712933232e-03 3.904411264455737857e-02 4.083049502901580641e-01
-2.444672680729578773e-02 2.731195061121816786e-02 4.186512573443723073e-01
-3.624825000115101947e-02 1.996914236369727244e-02 4.350708254798608676e-01
5.667263297278180012e-02 1.997150681829360994e-02 4.815170183259338543e-01
-5.169832319994595131e-04 2.851270724668285815e-03 4.280322094680746314e-01
1.698823495142148809e-02 -1.827047473218149434e-02 4.363024196062924576e-01
1.311793172788295291e-02 5.607198742612804626e-02 4.209978524458783400e-01
4.455587781621360433e-02 3.609888911243758214e-02 4.461008510809053029e-01
5.462241494378271972e-02 -3.191921084380979542e-04 5.069156014318035863e-01
-7.947594955718654056e-03 2.794742782914597101e-02 4.102968741466218594e-01
5.680242229669488219e-02 2.281740945344700941e-02 4.633725096332302895e-01
5.604054735908869933e-02 3.693239785086656346e-02 4.624781070950507722e-01
5.329189105575757313e-02 1.729550714525742230e-02 4.921824647482084258e-01
2.682999810774398808e-02 -1.520483835488307955e-02 4.374495934260109187e-01
2.945653802182579203e-02 4.360330892121006691e-02 4.336241642903619908e-01
1.508988905706755640e-03 5.111857278860897080e-02 4.095517415634762348e-01
4.109400604498775200e-02 4.969602908627281102e-02 4.430617689392131187e-01
-1.858108246725833496e-02 4.818012764564679612e-02 4.140966642281426746e-01
-2.825900810700456966e-03 2.077080250572233000e-02 4.105000388914622489e-01
-2.762728324667357294e-02 1.957941103879405620e-02 4.239997089692642551e-01
3.523693915163343682e-02 -6.709489233630678076e-03 4.406640851056130570e-01
4.689074943137886559e-02 -9.635810290927592642e-04 4.504733740003928344e-01
5.046883721059991501e-02 5.992755425931333563e-02 4.594636887189305074e-01
4.491269328412179213e-02 4.104446881752843446e-02 4.462232221741466165e-01
2.531862079301002919e-02 6.459643745765847322e-02 4.453326280692532779e-01
1.040431346554819558e-02 3.042162545614958413e-02 4.117456573590165814e-01
-2.706954126633244473e-02 -3.338709426191121057e-04 4.335700851141562340e-01
-7.422461701028767143e-03 9.785194192170595939e-03 4.222597200318635169e-01
-2.129670678377308668e-02 4.266194713628087415e-02 4.123619926859098950e-01
4.939088618703557643e-02 5.741123049667824080e-02 4.834644873191932257e-01
4.612929840639184292e-02 2.475768872470347076e-02 5.099145227116802515e-01
5.624734031213733665e-02 4.337512968851488931e-02 4.688597907897102401e-01
-1.744676750021761230e-02 7.231767060675431749e-03 4.259293484004325614e-01
-2.168890607528384598e-02 1.102410594132853007e-02 4.259878318629397587e-01
3.815716724260028586e-02 3.913647071472269034e-02 4.408418663096577150e-01
-2.758787887550353743e-02 2.378004472537590536e-02 4.220026527254806537e-01
5.876875619634189252e-02 -1.019979588948910672e-02 5.067039842861624788e-01
4.095359497249314445e-02 6.698245308975889212e-02 4.757421148513973352e-01
2.373657336166109383e-02 3.227318208695043045e-02 4.295050578702275246e-01
4.459351247380042432e-02 8.132157275395767923e-03 4.466727532153805247e-01
3.424212656633720403e-02 4.915877424394925893e-02 4.375544442598096051e-01
5.240850349140829811e-02 2.251925356928728434e-03 5.082480514479358336e-01
4.890379628710252169e-02 5.076815961392955323e-02 4.989021266511606822e-01
4.585558530273257244e-02 5.269154891667142404e-02 5.002740152434613785e-01
5.248398871039032521e-02 6.609846701652941428e-03 5.003467922985174177e-01
1.606314264888006674e-02 3.100639441082107470e-02 4.217126662473698606e-01
4.475408011133270858e-02 5.227920307620489287e-02 4.467752231165240118e-01
2.750887478023831493e-03 1.465423530273419345e-03 4.294158726676018945e-01
5.765171968518569695e-02 2.460825910551030921e-02 4.698063643908327869e-01
5.117428284265039540e-02 6.044310410490744134e-02 4.652289520280646351e-01
4.711790353095336725e-02 7.139889357580947449e-03 5.131533753116432894e-01
5.643626830099309627e-02 -3.088543882992289547e-03 5.056312476491017227e-01
4.823791417747302218e-02 6.000060463507749658e-02 4.531637162057178259e-01
1.977261074558622420e-02 5.997992406298619655e-02 4.335321291855619430e-01
5.267171177933979709e-02 9.383819180670662299e-04 4.589010692475243292e-01
-4.285394149691720833e-02 1.455417560290313793e-03 4.476959133469768370e-01
5.344957760417703638e-03 4.854693688388062901e-03 4.284759832568379445e-01
1.257192843812993642e-02 4.837956156175490102e-02 4.174866767151179658e-01
4.296589126914941020e-02 -1.019920492420694699e-02 4.480060786460724476e-01
5.473061329645598216e-02 4.803912458483193537e-02 4.609076058070165072e-01
4.214131455679332589e-02 4.296968737388152937e-02 4.438313640994275278e-01
5.372137472378448603e-02 6.310098613194184761e-03 4.593830400532867286e-01
-5.154775920558280974e-03 3.792124167708165600e-02 4.050095400972325010e-01
3.269435174522964532e-02 3.926034052021101783e-02 4.368294005640260269e-01
-7.746442592724589113e-03 -4.233842029619429986e-03 4.305559888049949602e-01
5.538248433560355455e-02 2.500022638891968851e-02 4.885677066346381658e-01
5.752815533630870060e-02 6.310064419908167042e-04 4.833287910702105949e-01
4.556245647023386691e-02 -7.452576220003854363e-03 4.507081560358927597e-01
-3.448295286861746689e-02 1.057265350134072718e-02 4.366988714922813153e-01
1.701717555573928342e-02 6.221665719021014090e-02 4.396437945439886641e-01
5.279727761309183087e-02 -1.536648108963186744e-02 4.683418205309453630e-01
-1.087074732093311694e-02 -6.121141555014720896e-03 4.317116981212149041e-01
-2.193816400749872692e-02 3.088554649468807159e-02 4.158019204198257213e-01
5.746463763743218239e-02 -3.955121769286761707e-03 4.780278712308629330e-01
4.959365687421968955e-02 2.474613437090909460e-02 4.509252136987598747e-01
3.382040430388958546e-02 -4.919481898125372538e-03 4.394926107358904654e-01
4.977089037686372591e-02 4.462456651325544948e-02 5.029058753604764842e-01
5.575440636478352224e-02 1.130908446484736769e-02 4.632118220079463056e-01
-3.612464695133602022e-02 1.877092310294373873e-02 4.358886959573538000e-01
4.416524344270449619e-03 5.189496520943159830e-02 4.119331291548720686e-01
1.209287287944608470e-02 -1.421656547234722082e-02 4.350475356396589777e-01
5.324650738388454069e-02 5.530503845505575083e-02 4.639779137722750968e-01
-3.259269211737072375e-02 1.841674791284448817e-02 4.284423299135505792e-01
-7.926895233701641147e-03 4.497946418652973288e-02 4.075903191374234957e-01
4.144113904363090108e-03 3.335995719068074461e-02 4.021987751121547383e-01
-5.478495044825656100e-03 1.715808121592132807e-02 4.155752231709198830e-01
3.587957364442516395e-02 6.097097913770149757e-02 4.423384737039674497e-01
5.537813308635000653e-02 1.553596807328230106e-02 4.605846412585145599e-01
4.695401306268856718e-04 1.181844379821340996e-02 4.216373087093143734e-01
-2.914281945352698022e-02 3.423720098732917910e-02 4.193463128713147414e-01
3.479015445803318451e-02 -3.032701583454018579e-02 4.477763776281842856e-01
4.569052013113053534e-02 6.713546207891644968e-02 4.684636532842823553e-01
5.203214932135348525e-02 3.731116798451300509e-02 4.992448429889739803e-01
4.532851443802879410e-02 -2.137080494755258867e-02 4.553419912121517976e-01
4.937951387829346561e-02 3.763685772904496601e-02 4.510498024910670201e-01
5.624067862808324048e-02 4.001364760035568124e-02 4.778933082235326535e-01
3.761923315283521863e-02 4.046576443949449764e-02 4.404126185968509355e-01
-5.457179181534757215e-03 1.391226669425542177e-02 4.187595726176326361e-01
5.367324575354563004e-02 6.127741695896789763e-03 4.593239237680796228e-01
2.513006819659934984e-02 5.729548528592799672e-02 4.317564368211487258e-01
5.258258091482087559e-02 3.222154798087799050e-03 5.061293054450340945e-01
5.119583415234773421e-02 4.736933905498189046e-02 4.965594093522632257e-01
1.594009639447943605e-02 7.174442731406601576e-03 4.314145321009509315e-01
3.473349942989940875e-02 3.599762182615930117e-02 4.385446768851468669e-01
5.424581925565361701e-02 1.751093927347997445e-02 4.573426760259948209e-01
5.476214776701657239e-02 4.991657902707731520e-02 4.725915655515652847e-01
2.661330491450636035e-02 6.418278733846598250e-02 4.400847933945077894e-01
5.681033565008335173e-02 1.251542304820381889e-02 4.672104115781193223e-01
5.773729711650339713e-02 -3.795564398415163677e-04 4.831664032219144533e-01
-5.479852027195855277e-03 3.678444113649517733e-02 4.048693282878441657e-01
5.645417946737976700e-02 3.890146977296264630e-02 4.775096835394365691e-01
5.605532114951641137e-02 -1.756846450420959703e-03 5.051704364319726803e-01
4.645624338501575662e-02 3.743877744819572306e-02 5.092343526625766614e-01
3.521777597971317841e-02 3.700775660452629290e-02 4.388212152718455328e-01
-1.414039311695701288e-02 4.525727598288765974e-02 4.093005327091593371e-01
5.748563021800135592e-02 2.025882572702867798e-02 4.747076111323837999e-01
1.988039365779072087e-02 4.470505250175774853e-02 4.249612077222639783e-01
3.823490911546886285e-03 5.705244289313303463e-02 4.164365318800103966e-01
5.577894747649241730e-02 4.390069591967024620e-02 4.757311184752825439e-01
3.156054556469755495e-02 3.529727832127930315e-02 4.361508286350215258e-01
-4.049545282967845217e-02 -2.007598662764880498e-04 4.409232384659846349e-01
2.549966618368038757e-02 4.740514067838145357e-02 4.297682204553334162e-01
4.968950182355540840e-02 1.217034145733933773e-02 4.512340709618022361e-01
2.217862128435101748e-02 5.117879633526276062e-02 4.274550725991680400e-01
4.686607302883945281e-02 6.703000910413799140e-02 4.641749441411200938e-01
9.039342665114072448e-04 1.108595970397700456e-02 4.222281451898887150e-01
5.648830680008630478e-02 1.273451196714792122e-02 4.653879593268782644e-01
2.260368906164385641e-02 2.496477814188495861e-02 4.295101069000303862e-01
5.278773975112786149e-02 5.211298672764573536e-02 4.831652997700458529e-01
4.646730024303652451e-02 3.715167927548352483e-02 5.092089117822398148e-01
4.347097550481465733e-02 4.614567365228096352e-02 4.449690254827686209e-01
5.707733251199246377e-02 2.414618146806068316e-02 4.639367135688352017e-01
-3.820937230448356176e-02 3.889140937513160552e-03 4.415194809334787029e-01
-8.234475617740471404e-03 3.382008101700970104e-02 4.078661959159953776e-01
5.488617498521920768e-02 4.559630720496711531e-02 4.808028497541264046e-01
1.948466708434672817e-02 6.169656527897608017e-02 4.383300301951558731e-01
-2.536977533255825243e-02 1.390275346149190752e-02 4.267026334277390642e-01
3.577052248054197331e-02 8.576847461689771773e-03 4.394009938310175500e-01
3.992518822342095569e-02 6.910501179555979256e-02 4.633812267130271167e-01
-2.125024895854437518e-02 4.895023545053147490e-02 4.176323146574643097e-01
7.393541698674388311e-03 2.422741258914261689e-02 4.119844556173668515e-01
5.718836077329175066e-02 2.923724738244480245e-03 4.752410836852810627e-01
-1.195783682061934104e-02 4.704525722022424861e-02 4.088004644395370479e-01
5.592608383748563783e-02 1.929495465448799463e-02 4.614176291121906415e-01
-5.342965395822043412e-03 3.476902310129842411e-02 4.054009532271621308e-01
-2.354619917649175900e-02 2.258783040192623853e-02 4.201213392775962618e-01
3.704903841226969696e-02 3.664099341231116108e-02 4.401124948684201343e-01
4.778731096221121299e-02 4.002473858267804364e-03 4.501767390038224903e-01
5.355877384141805031e-02 5.346086530485697624e-02 4.609624753221757132e-01
1.366531161419635119e-02 6.800831229104770982e-04 4.315680667785062874e-01
8.764439550242999338e-03 1.583663144876048395e-02 4.224401171767547813e-01
5.389040191600766305e-02 -6.949514245629057410e-03 4.665927693485141803e-01
-1.909875889727619125e-02 1.803448177317147627e-02 4.208092921397754149e-01
2.851822076928013303e-02 2.305324085840017301e-02 4.343184454148510398e-01
3.152401715675376415e-02 4.647633823025708322e-02 4.352477282040859152e-01
4.725097384980640053e-02 4.257985547008100169e-02 5.073870803821226572e-01
4.909355858750791279e-02 1.026306542093651311e-02 5.054930367544904213e-01
5.785577842280559963e-02 -9.683912976709693407e-03 5.121623555804750705e-01
3.283044235779997849e-02 4.407676499747327503e-02 4.365669947623849745e-01
5.763484663238830491e-02 2.929248071721952344e-03 4.811168743026962846e-01
4.797843702102430608e-02 6.182969919575772438e-02 4.778877122205245076e-01
-1.273355061117990329e-02 6.913896532286265516e-03 4.250261796320574659e-01
5.244974478835238985e-02 5.756630351618385877e-02 4.620455815953388168e-01
6.440920273910905394e-03 5.836012095332623884e-02 4.179575692765692407e-01
1.983663542178265918e-03 4.428970826708365782e-02 4.070443013702342849e-01
-1.502995708707167109e-02 1.110734680361918220e-02 4.231484738159010384e-01
3.794088503712013394e-02 -2.229857130613284444e-02 4.462849708671698945e-01
5.568257293161972543e-02 1.784594307799140106e-02 4.610323474510779618e-01
2.457700524075767667e-02 6.375348716893963763e-03 4.347584781279595911e-01
4.120012426808319222e-02 9.225872055713291164e-03 4.437404723537961004e-01
5.554023808917753907e-02 3.595483840716790641e-02 4.893041410939366620e-01
-3.547251308942229314e-02 1.770776955839204608e-02 4.352915691298305800e-01
3.368365959360646034e-02 5.787410827389507378e-03 4.385811132918859268e-01
4.975137200888291034e-02 6.269570817026562382e-02 4.619577456742050003e-01
5.004484292062724021e-02 5.603816482835828616e-02 4.850279055421544694e-01
5.469689731526423959e-02 1.792695841269871873e-03 5.009035240484094320e-01
1.010483712315403231e-02 3.564409271160910025e-02 4.119877817415067423e-01
-2.996585540011675527e-03 7.533840552144801216e-03 4.243264447857575394e-01
4.750365370788356412e-02 1.799818302652292021e-02 5.062313555587232283e-01
-2.286540769357172168e-02 4.471386556949603214e-02 4.143786974454468641e-01
4.820817005966539226e-02 4.045355166144369574e-02 5.061940147694795611e-01
3.967525550198464090e-02 4.422296737637892994e-02 4.418976407140839391e-01
4.773077345331064314e-02 2.655791069948919281e-02 4.491061483804708598e-01
-3.030574281365409212e-02 7.453934908513037971e-03 4.330657130580573000e-01
2.165825596386650263e-03 1.362551621424887630e-02 4.204756323429743592e-01
3.633825662410300472e-02 4.565662004978867511e-02 4.393819934706584829e-01
5.230247174365234425e-02 4.446872328552090026e-02 4.547464615596779614e-01
5.677071514769847782e-02 1.502690079632091474e-02 4.655719200170722050e-01
-3.045706267981408699e-02 1.228154127551048941e-02 4.313178963120868348e-01
-3.124899565448441968e-02 3.301961343828441198e-02 4.215902898522853604e-01
1.724293728305695966e-02 2.052882057121757642e-02 4.258970359178389509e-01
-1.985542230562376692e-02 4.660881161247908133e-02 4.126969309066868541e-01
3.695845072491038552e-02 2.154252848529918801e-05 4.414534610314749807e-01
5.554400495043029101e-02 3.234374234992127423e-02 4.890442466642356822e-01
5.453560189392930857e-02 4.127323204540198076e-02 4.909480157196138284e-01
8.152939449384603854e-03 3.038330296902603395e-02 4.057715216829166915e-01
5.205606736735619855e-02 5.713526390254908965e-02 4.715481468631594342e-01
4.692714744710117791e-02 9.663287314968247235e-03 4.484891482378245975e-01
1.078103819552891224e-02 2.125394865905946146e-02 4.194927722257393854e-01
4.528151793695169014e-02 4.209252381461867087e-02 4.466345177867406258e-01
4.272668673271820539e-02 -1.050508690893135755e-02 4.477698776433952643e-01
1.695180425741514910e-02 2.170074908690143578e-02 4.253613568658144994e-01
1.568822519210008246e-02 3.361011799097892144e-03 4.320198702814314617e-01
7.581828801765173875e-03 5.173408177255663792e-02 4.137165628101209802e-01
-1.813357284928601015e-02 3.713634772026597197e-02 4.112805077416488153e-01
5.504258488503670221e-02 1.310245975208909099e-03 5.001986044095632078e-01
-9.368059585668792738e-03 1.767856445542713081e-02 4.171083205212055001e-01
3.548024217091488158e-02 -2.091163522271405339e-02 4.436412558842396936e-01
3.920939394381091347e-02 6.972001487981854817e-02 4.513372017622079291e-01
-6.872831560004068543e-03 2.626561964211023004e-02 4.102876360008061996e-01
5.684719894361003195e-02 2.041678054986502400e-02 4.807333870378463492e-01
-3.149084806572498979e-02 1.078427540920768538e-03 4.351333776205870696e-01
4.801807739182302470e-02 1.964659057036167306e-02 5.050460329201147403e-01
5.714060685801619632e-02 1.213993951784851817e-02 4.760572076207979508e-01
4.412805680958944987e-02 3.147282897093008069e-02 5.131223181046771220e-01
4.942892150762420722e-02 2.414906975956208901e-02 5.019570545934785022e-01
3.528875204226710090e-03 3.651933949738598098e-04 4.297890640214503399e-01
5.214981447226541000e-02 5.412986667227356191e-02 4.805245981954741619e-01
2.646898467858833925e-02 6.495723697374934658e-02 4.453274014779841639e-01
-2.672865315187353263e-02 3.048417257779375417e-02 4.188608216051593058e-01
5.408058112680309837e-02 3.874891932274224238e-02 4.936990827395183468e-01
5.698960261609382905e-02 -8.076492115149337334e-04 4.940233836137907786e-01
1.325798856629213304e-02 4.305011301245142627e-03 4.311372134574307791e-01
-3.574743048522528027e-02 2.245107453083735119e-02 4.317498820283980354e-01
1.497563129877104229e-03 -5.487345233114003171e-03 4.306575541345540326e-01
-1.632934632482757956e-02 1.154387176255236742e-02 4.232870899830832867e-01
5.330812650583838935e-02 3.363518484637027794e-02 4.959028501577989467e-01
1.148803312407144575e-02 5.871572832127251035e-02 4.224471178660854642e-01
3.824683964991636240e-03 2.698170475044527755e-02 4.026867138293310777e-01
-1.793211313712032330e-03 4.115021194412434719e-02 4.057947576642547682e-01
2.250577598114263979e-03 2.888133326381174017e-03 4.286959801625667699e-01
-2.501676083664772579e-02 -1.799488200767258416e-03 4.336614225721017180e-01
2.656909018194102828e-02 -3.682800001900575146e-04 4.357950985030727420e-01
5.127836216970563937e-02 1.140359455014948453e-02 4.992329281686582187e-01
5.100142354984887189e-02 2.318181189172975609e-02 4.980490716407665053e-01
1.552187658369120950e-03 1.812476832870189500e-02 4.159412470207504153e-01
4.619704722307322459e-02 6.645076349763311130e-02 4.710557912997270780e-01
5.538295551262348987e-02 7.394822215863411027e-03 4.635691947970038140e-01
5.370514572203927833e-02 9.404188822208970136e-03 4.941241476304590874e-01
1.848880709061407127e-02 -1.621592238589673884e-02 4.357080352369375742e-01
5.690398422274569462e-02 3.833074733822951913e-02 4.736487929716602929e-01
5.736355364961458897e-02 2.053601858453508316e-02 4.674909699251372786e-01
3.063670689932712632e-03 2.814199515899244025e-02 4.021735312639185822e-01
4.755779231090933451e-02 4.150788777632700988e-02 4.491166207260959276e-01
-3.131784626859204085e-02 2.531796125307356551e-02 4.243454624811584530e-01
6.160123523435842401e-03 3.462374404531409766e-02 4.060010970841440581e-01
5.602913296222373357e-02 1.351055934215975897e-02 4.838844820744097053e-01
3.741946184061365616e-02 2.214171407347401491e-02 4.402810650247679369e-01
5.386936553928898391e-02 4.793470571113751105e-02 4.850472163954482885e-01
5.695574764924819094e-02 5.961412485137943841e-03 4.834358601134426392e-01
5.678899818572963332e-02 3.527247646503757494e-02 4.805492225437923981e-01
5.467170713825517114e-02 1.523037578565820775e-02 4.587119618334734028e-01
5.772528960126819403e-02 2.576543067392420699e-02 4.776819185347469521e-01
4.434283617433553565e-02 3.870177875791201705e-02 5.125742921085577608e-01
4.501870244482405331e-02 6.678542773345044758e-02 4.566586879331768767e-01
3.448754906797317499e-02 6.435346463102613324e-02 4.443148182319152095e-01
5.339103963861028396e-02 5.011921896016789668e-02 4.844935809541962013e-01
8.360063472852410915e-03 2.550996045018615738e-02 4.118394723322051365e-01
-2.895434050710357990e-02 -1.904339562696205721e-03 4.351628051030768662e-01
-3.371412216413973567e-02 3.549407967204314986e-03 4.358570374209271847e-01
1.476501758533380060e-02 4.585045469805378027e-02 4.196917469994521643e-01
1.666823602631440845e-02 -3.231345582668793907e-03 4.326900890717655934e-01
4.027126410398080419e-02 1.590016517493831813e-02 4.426352472237456981e-01
2.455754224052601048e-02 -1.069234606158531685e-02 4.357487984441925644e-01
-1.830803764898247116e-02 6.878806715931890491e-03 4.263572895013685859e-01
-3.932074373676145568e-02 1.574303641292472021e-03 4.402789871924823739e-01
3.657180606166648279e-02 1.104788660724705801e-02 4.399910278308638012e-01
4.704146842994887806e-02 4.753279510203253094e-02 5.061904785588100530e-01
4.390715047016752887e-02 5.564888030601589791e-02 4.467234267224812205e-01
5.772542359634196679e-02 -3.073790892710977479e-03 4.942515238778048547e-01
3.353075717203123779e-02 4.578831196853358487e-02 4.371224247697468313e-01
-9.227199339411124371e-03 2.522112676093444042e-02 4.123713407362609162e-01
1.379522989485721871e-02 4.481929319080394519e-02 4.184508047305905420e-01
-2.106230839045416733e-02 5.262055215097337368e-03 4.284337825548354406e-01
5.727463905336907524e-02 6.458279164330069447e-03 4.780723253520764993e-01
3.775844472934015289e-02 -2.364952091023300729e-02 4.467424150463640831e-01
3.595222146841851873e-02 2.067925339888919065e-03 4.404721061513056091e-01
1.798471751870257124e-02 2.024946458329721088e-02 4.266361554398503952e-01
1.887204224093052066e-02 1.537346876413963649e-02 4.293356281024886534e-01
4.925717359026975800e-02 6.276040827837633951e-02 4.601412687912234678e-01
5.720709668299005235e-02 1.327291803126551956e-02 4.729795978375072041e-01
2.965094732327459848e-02 5.230033164441049570e-02 4.334017069045544845e-01
5.718480349923081574e-02 3.526947234211392362e-02 4.758971917794970197e-01
-3.635810516582357876e-02 2.080076753004411749e-02 4.345548657438194629e-01
3.484736302485553355e-02 4.877339805665399652e-02 4.380523322536749586e-01
5.589369676934083375e-02 9.685177307944070960e-04 4.683849159604973056e-01
4.911019636610460676e-02 9.547940165250951364e-03 5.059614030079306879e-01
5.518057146621209441e-02 4.595685404553120912e-02 4.778045298937109164e-01
4.465958140394352127e-02 4.039948813718598208e-02 5.118473881978830020e-01
1.493621279601955662e-02 6.692313456979761405e-03 4.311878519834172474e-01
1.182589888028562179e-02 6.044920208243553805e-02 4.278076760439412651e-01
8.669168303924166749e-03 5.546488336584937812e-02 4.165864305772304932e-01
4.937006220622224689e-02 3.838066575222445070e-02 5.045042250426039487e-01
5.768091500389678494e-02 2.393559804256896115e-02 4.773285847358680889e-01
-2.227577385632845478e-02 4.703222409151339156e-02 4.155443308477531072e-01
5.266155677636213950e-02 5.471201950893254951e-02 4.582742046417527249e-01
5.911285452311010324e-03 1.886911449419267917e-02 4.180184765115977363e-01
5.725546008463559822e-02 8.800547489405993740e-03 4.796262343777490944e-01
-2.290361497673863017e-02 7.348172263148703386e-03 4.287658578373059748e-01
3.677301550104863231e-02 2.575137520236011474e-02 4.399084823265245747e-01
3.803960644549021775e-02 6.439534453262496516e-02 4.455936087002723145e-01
5.780570335089969813e-02 2.897556037301231985e-02 4.758050485999759660e-01
5.622703516941386648e-02 4.241712547005008216e-02 4.736658081222785421e-01
5.768858023466242463e-02 3.040886222710610653e-02 4.764189583324040522e-01
4.843198826024519565e-02 5.726063720544964826e-03 4.504425455821586821e-01
2.679648524800087861e-02 3.037322610936630043e-02 4.326351891310695752e-01
4.967094392988923024e-02 9.950468503764579170e-04 5.150852719257077439e-01
-1.611921415038751948e-03 -1.426834878284308043e-02 4.334356104881755822e-01
3.449907483151523624e-02 5.241911283347900491e-02 4.378485746487683072e-01
4.196025701375976497e-02 6.836561157751572249e-02 4.522261195441736881e-01
4.965161752272664181e-02 5.591837534575583302e-02 4.867053800953973774e-01
2.803854309521186181e-02 4.277312110720916244e-02 4.324390390093166281e-01
2.429009400279818695e-02 2.319470633223219905e-02 4.312910480825372095e-01
4.392099087959569492e-02 6.679849145773369967e-02 4.748361915524561550e-01
4.886701740249444620e-02 1.213245050864432580e-02 4.503267501316799426e-01
5.749913607745071181e-02 2.550185860611386621e-02 4.794467052949362151e-01
-2.063593859775347816e-02 2.155561675031241603e-02 4.193784839067935533e-01
5.709109479344004479e-02 1.191229365693641760e-02 4.703048033718343901e-01
-2.559087691973144230e-02 4.415089745740730792e-02 4.169450319906803371e-01
3.215250030245021123e-02 6.516904118819129288e-02 4.459508201070128131e-01
5.752946903792603706e-02 3.164963271261646283e-02 4.669311248535404357e-01
4.504095635975226275e-02 2.221491337461651422e-02 4.464848901743451726e-01
-1.350458089222674948e-02 3.172992858546471590e-02 4.109351805826055859e-01
-3.728665589446731460e-02 -6.990676029116475211e-04 4.398957281771161409e-01
4.649073967300234450e-02 2.845967827501180714e-02 4.478842755536668885e-01
5.936117694514685648e-03 5.002640348755146849e-02 4.118294685970083080e-01
3.509578914143160477e-02 5.119260959061439770e-02 4.382885223874712355e-01
-4.301269114633345103e-02 1.893796533777050446e-03 4.455155484013707534e-01
4.805263257740936822e-02 -2.072269896056620417e-02 4.601432554946190412e-01
5.657846056542522456e-02 4.143550939606025635e-02 4.701999514072932040e-01
5.559829048926807210e-02 2.256408635547427211e-02 4.601841608289839458e-01
5.534902335849317678e-02 4.747674322613990722e-02 4.685772401721949865e-01
-2.763228478444598735e-02 3.391813555236712630e-02 4.183121732848809615e-01
2.719374755319513629e-02 3.721822717211359377e-02 4.321919723791063372e-01
4.177109006641759048e-02 -1.468990985296727940e-02 4.472075516027928521e-01
4.669177001460795423e-02 4.039029786839319625e-02 5.087739862560319848e-01
5.340399452145302289e-02 1.880298293889185596e-02 4.553226903884056154e-01
5.406001310092467538e-02 6.040420986350837282e-03 4.604052885450570787e-01
-2.649324246960355761e-02 1.342136317933820440e-02 4.278009303876204039e-01
1.889546424531268407e-02 -3.573893507808942327e-03 4.332119787934109456e-01
4.027578005536985167e-02 7.161065039828910794e-02 4.532573521851391840e-01
2.620048651578936807e-02 3.800139498894323370e-02 4.312514317815261955e-01
5.475786363999789186e-02 3.770610779109175373e-03 4.631811844659763366e-01
5.079680726745777752e-02 7.178334859928095502e-03 5.047412523246588290e-01
1.807549855292881098e-03 3.972556667436149408e-02 4.046218255703067368e-01
5.460781635892242997e-02 3.810528248483029817e-03 4.627593076105248615e-01
5.581105100076003828e-02 4.594944075977533404e-02 4.703589738000301113e-01
2.638825486686254343e-02 3.061495179138223541e-02 4.322809126525609669e-01
5.576890753113602356e-02 2.501472837472507385e-02 4.873578508095512407e-01
4.887491263074481701e-02 3.743489336576568544e-02 5.052122944966817020e-01
5.172522922911834686e-02 -2.315575196270777247e-03 5.150439703833339378e-01
-4.413012741774812592e-03 2.512004668638925884e-03 4.279578483173807069e-01
5.570888220644073380e-02 3.247933638576940181e-03 4.930091210383700795e-01
3.945926209747344787e-02 -1.509663295601180316e-02 4.451844846119211718e-01
5.699971181813013460e-02 2.733953725759176792e-02 4.837286127656443835e-01
-9.483682508065992278e-03 3.778351962044557144e-02 4.069427008923022782e-01
3.278709598209934850e-02 4.803737132553958372e-02 4.363279557341718240e-01
3.685244465224619959e-02 6.680555263640931829e-02 4.477500064178298600e-01
-2.965552844349826633e-02 1.114924357730642107e-02 4.313815053810167721e-01
-3.210547288246376474e-02 -2.164983252157172411e-03 4.372687801091305060e-01
5.740548349244784659e-02 4.675754242578988862e-03 4.783574632101007529e-01
4.520163066291738724e-02 3.013647092124254953e-02 4.466358514969737681e-01
1.188930726763657783e-02 -7.694204092074474841e-04 4.312106487892949924e-01
-7.872879080082124253e-03 -2.128226617691559349e-03 4.298622777643969495e-01
2.276217635781877663e-02 6.204348948218194049e-02 4.388818971704604444e-01
2.017503577219297017e-03 6.055317605680500710e-03 4.265697757923203048e-01
5.595405801082931757e-02 1.969095950078516080e-02 4.614256287533556877e-01
-2.430038244652416024e-02 3.831569866273354386e-02 4.152189385457314419e-01
4.807339653303845106e-02 1.317657286282889612e-02 4.494490880880377959e-01
4.825764756832483238e-02 5.355481197421984446e-02 4.958182844029390135e-01
9.567805325484736792e-03 2.609561456381712108e-02 4.135678219943576539e-01
5.040685353693641346e-02 1.132528780965621519e-02 5.014493898650430603e-01
3.105053413640008683e-02 -1.581343394190330362e-02 4.393149763479978209e-01
5.678444851632426238e-02 -2.968977290516645277e-03 4.730818826064883131e-01
-3.289641448219957770e-02 8.491588768501506790e-03 4.350256885495656922e-01
-2.477074798548103973e-02 1.731002562195232616e-02 4.238385851056203357e-01
-3.679585509471840210e-02 3.272081952001539701e-03 4.381994750687548401e-01
5.697491566300565136e-02 -9.053516031023891089e-03 4.795893069440007039e-01
1.370069450204119098e-02 3.409236322641772537e-02 4.184753216725334846e-01
1.290345560568941299e-02 2.831660664819823925e-02 4.187365647408051728e-01
1.286141428086345039e-02 4.953742920880253170e-02 4.179622396865388390e-01
1.759251152797887408e-02 4.158331027685069348e-02 4.225471405516664780e-01
2.527035238683188537e-02 6.713450642860241749e-03 4.349703976637896430e-01
4.415977282030266599e-02 4.230221821480498884e-02 4.454787105080406096e-01
-3.289904304411167546e-02 1.240708615575464996e-02 4.335956034417173255e-01
5.366460259019203982e-02 3.355280939650545635e-02 4.950924647768403797e-01
4.085109896977637267e-02 3.137790504283414616e-03 4.441738720224517878e-01
1.645812041555693578e-02 3.079531051306521466e-02 4.221988483420104354e-01
2.802479410470976040e-02 6.051432779547347846e-02 4.368040598394371532e-01
5.012069412798092483e-02 5.822278408828497620e-02 4.559490570265077314e-01
1.316187673094346318e-02 -1.830042285864555765e-02 4.363724180863448043e-01
4.005559162934870659e-02 6.963160375880288189e-02 4.619784895446574779e-01
3.626732714190992329e-02 1.871734096699818536e-02 4.395781479397165570e-01
5.427293806596769632e-02 1.784633776733639265e-02 4.573830118669000577e-01
4.545048097065569614e-02 5.148256490969990024e-02 5.047665507321695832e-01
5.271678815249023625e-02 5.670849730761148150e-02 4.648660820547313444e-01
-1.537813231742006341e-02 1.710404666131256496e-02 4.197689864619720823e-01
5.312035814528891925e-02 5.343536811597437985e-02 4.767077133274872369e-01
2.581098425355434628e-02 2.998499862759026330e-02 4.318230524824268057e-01
4.172533368252014790e-02 2.590231139330803276e-02 4.435245086644319934e-01
