5.760906850835617599e-02 -7.100114707712122664e-03 5.082841757681439976e-01
4.603282393045052268e-02 5.568105930669141335e-02 4.941649256552957392e-01
-2.357412638428122570e-02 4.316708529440146241e-02 4.146465605326302706e-01
4.064741108920612994e-02 4.151496654639955791e-02 4.425648058010513419e-01
5.763965768640583187e-02 -2.953472741874043923e-03 4.782479276302161186e-01
3.960204933945875305e-02 4.728730893150524806e-02 4.417198658239140929e-01
5.722266693362423190e-02 1.247641216514917481e-02 4.742666437099032906e-01
-1.805672384532147623e-02 5.574270867349300981e-03 4.269562091420108785e-01
2.046675548661242711e-02 2.415364597338690716e-02 4.276916559230949932e-01
5.200491762743258972e-02 3.563479327253146062e-02 4.541169531568673423e-01
5.723721047082220431e-02 1.272324171487125739e-02 4.727087794004219967e-01
-1.583148371001512691e-02 1.763657670686804430e-02 4.195498621726190813e-01
1.003935061175535888e-02 -1.257493617512751849e-02 4.338324345586062059e-01
4.850925246399973717e-02 4.899087214208196900e-02 5.019703654338412147e-01
5.764096542144742791e-02 3.378137281122610414e-02 4.708332288125185450e-01
2.364689062011122306e-02 2.984243007707765120e-03 4.345013387857709075e-01
2.116071359370804914e-02 3.122764085868630010e-02 4.270148934357144155e-01
-4.372934438155403648e-03 4.195585854743175830e-02 4.062271996399061114e-01
2.208702967887028051e-02 5.834645164177276050e-02 4.305576939200693731e-01
-1.698020792560277908e-02 3.260777087346540537e-02 4.121816163111870490e-01
1.521515160376600215e-02 2.291563181873303850e-02 4.233154174818712367e-01
3.533791093727348814e-02 3.628664120051383959e-03 4.396795566551300327e-01
-2.760296420279288732e-02 6.079447413680142201e-03 4.317756287462771736e-01
-1.786816531235285721e-02 -2.083273887290813808e-04 4.307178776435787171e-01
-1.952177217013497876e-02 4.542237834012109038e-02 4.119898768432895264e-01
2.814627626812243183e-02 -1.472389366324401358e-02 4.377271251878586678e-01
6.696688678427646646e-03 6.022270499846676256e-02 4.218113312921923930e-01
-8.458944364958745007e-03 3.045667454085605741e-02 4.091107770889005346e-01
1.200338023535345300e-02 2.999368732665201251e-02 4.154031135165816568e-01
2.240207789351486220e-03 2.130601579528912035e-02 4.107299884159673065e-01
-2.453976176924575758e-02 9.999812424863660162e-03 4.281405959639817405e-01
5.172488247386610588e-02 2.920162122310731787e-02 4.983430297802101117e-01
4.491844982213499121e-02 2.640197492584547140e-02 5.118388529144152210e-01
3.474332922241030186e-02 6.468930428639804719e-02 4.456084538809337858e-01
4.241151223395125264e-02 1.439073162067288150e-02 4.443406679081718935e-01
-1.736270078994583271e-02 1.133044759013848365e-02 4.237222495526205002e-01
2.353608966434355548e-02 2.749035190059481715e-02 4.298585152759776817e-01
1.372091779836424191e-02 5.990544438038163111e-02 4.273603039306045348e-01
5.819455529533291635e-03 7.837699752062502606e-03 4.266747945034568557e-01
4.963651948494134797e-02 5.077040812654855934e-02 4.968327430249459553e-01
1.190429996075349772e-02 2.313780247931279677e-02 4.196480298450990243e-01
-1.492497116918327371e-02 4.466375612181116422e-02 4.093794767405025681e-01
2.223832901445505286e-02 -1.654078224148021817e-02 4.363822100893584022e-01
-2.627160989607380676e-02 1.359592921068501596e-02 4.274954207755389257e-01
3.071811697371283970e-02 2.698027500967704190e-02 4.355958108510212257e-01
-1.387540422323430174e-02 2.382903157635706676e-02 4.151907372040004041e-01
5.687734547757959669e-02 3.991723829436561594e-02 4.685162571239715468e-01
-2.727234178308713536e-02 8.739041152961955078e-03 4.308448351639101448e-01
-9.756480053631954447e-03 2.608119843125245030e-02 4.121318547378741148e-01
-4.786006151159868244e-03 -9.312153159296563884e-03 4.321081743005344977e-01
-1.895456075486286196e-02 1.079624811349745583e-02 4.246052191538790543e-01
8.375651935828513223e-03 -1.218458592750710535e-02 4.333953233110005021e-01
1.103564125791112009e-02 5.702115570299182146e-02 4.201106555862758052e-01
-3.086140119233965473e-02 -8.148679488956035201e-04 4.357283908974047271e-01
5.755337991933553304e-02 3.343964688603468655e-02 4.677985249737423579e-01
4.960126527825649279e-02 3.586823015022202327e-02 5.039042407168801141e-01
4.627325257076465165e-02 2.161316111089022288e-02 4.475877298366562340e-01
-1.026995579898775171e-02 1.376554587675917277e-02 4.203451740702427997e-01
4.721362836911281724e-02 6.612330380172506961e-02 4.680300818119674244e-01
-1.679489424447888277e-02 3.952030186379096310e-02 4.098073028855426791e-01
5.530589313397363260e-02 4.741585105210502360e-02 4.740138776187857172e-01
2.934257733523737421e-02 2.922955541308666638e-02 4.345474108849735617e-01
5.744857157686857063e-02 3.324127685860149561e-02 4.667889394705500017e-01
5.763642849807674995e-02 -1.976248602391953921e-03 4.781699665731070081e-01
5.525439459901174133e-02 -1.579472702922254598e-02 4.750735966509577746e-01
5.245987027734152347e-02 -3.099795640801019693e-03 4.606079448289613909e-01
3.695784864292640803e-02 -1.021446707411661223e-03 4.414793137398544398e-01
-1.687286439017594494e-02 1.277684020847686362e-02 4.228196333874419399e-01
4.789870707473462691e-02 2.184311272706179752e-02 4.491932597285010487e-01
-1.113022094808250977e-02 4.276420769791258042e-02 4.081267161872428328e-01
2.807889342956822881e-02 -2.206181811036839191e-02 4.393225882272417393e-01
5.146131849381422804e-03 5.987782452370530445e-02 4.190925335829571163e-01
4.854081688984299148e-02 1.836276155103212446e-02 4.498463743745131915e-01
2.204250794383532525e-06 4.490703151769027957e-02 4.068028571504669899e-01
8.930029839040315442e-03 3.884431655945685957e-02 4.102057593633727794e-01
4.537223793641663623e-03 -6.942976841055482212e-03 4.312237332220087982e-01
3.780309100718898946e-02 -2.552105012856197702e-02 4.477958867285063427e-01
1.303446582906425677e-02 6.011284608787727940e-02 4.275463900821608876e-01
2.623598817789665749e-02 2.825394993171301619e-02 4.322517501887679359e-01
-1.530611840764048957e-02 1.609831318153610163e-02 4.202580714123507200e-01
1.057281421073773091e-02 1.266659627491578720e-03 4.306819351320283484e-01
8.770380298171620570e-03 2.616481259481530375e-02 4.109579767487954727e-01
-2.885631206932027550e-03 -1.349354780745848706e-03 4.296263656517823604e-01
4.787159670007559015e-02 3.069948464031155289e-02 5.065486971036334829e-01
1.012723086241280879e-02 5.862827081916852784e-02 4.209320651914246758e-01
1.124338213107514868e-02 6.118099841919038412e-02 4.306925730851671186e-01
5.920532206643520229e-02 -1.128040617071953029e-02 5.054972335726529709e-01
5.151733162523830512e-02 4.523470039321746822e-02 4.983621142478070754e-01
5.056154758689419826e-02 -1.404266757935412023e-02 4.626837898061987309e-01
2.652673276795023544e-02 2.963253104238601585e-03 4.355244083953688228e-01
5.754984215088025656e-02 2.263001734646824525e-02 4.676456145573464895e-01
8.225398528151971894e-03 4.465029187309971226e-02 4.112695750279461993e-01
4.682367245734984224e-02 4.559114034440126667e-02 4.482540814898781090e-01
5.678922222470036973e-02 1.040172344934749485e-02 4.813326695907418351e-01
3.587097098242748860e-02 -1.194161253048587300e-02 4.416585443082076679e-01
1.486134862300861684e-02 3.632017242210087288e-02 4.201910543960230560e-01
1.220962384785022510e-02 3.143613821543415898e-02 4.150013353290319396e-01
4.775756285858986233e-02 4.592593109438531523e-02 5.058265782774625796e-01
5.704449858943706764e-02 3.229468628550768994e-02 4.640652289835489608e-01
5.832864918627335415e-02 -8.943670182762993026e-03 5.067082539934202323e-01
1.297783358670884929e-02 9.943159005825584831e-03 4.284675800273605173e-01
1.264223504334606105e-02 6.000461649344537851e-02 4.265080036539957709e-01
5.653832554409128630e-02 3.544447233198572828e-02 4.837433630716985733e-01
1.094737153869871499e-02 4.705902680598084142e-02 4.150588754050536511e-01
2.047945449667608678e-02 3.832854418102100806e-03 4.334477786080044304e-01
-8.755818532420465636e-03 1.046153814460319166e-02 4.220291372890884185e-01
2.436916709350398641e-02 3.245290517959082549e-02 4.299056226267992664e-01
-2.784063563311264811e-02 -1.757911871298176859e-03 4.346627504825101296e-01
4.427228140983531512e-02 -1.259540077955672438e-02 4.502234383332611167e-01
1.453256077450070308e-02 2.393096829963045971e-02 4.222756470734180256e-01
5.671287713457351387e-02 3.861318230136714241e-02 4.756401477015622659e-01
1.907094120405007989e-02 1.619151560179791019e-02 4.288843353397585600e-01
1.845886211513392272e-02 7.330722835127484981e-03 4.321604916822361919e-01
-2.316604347265922847e-02 4.308457379684996896e-02 4.142062212061650150e-01
5.298435673363658532e-02 -1.581836177401173271e-02 4.689562226173891735e-01
3.863115431967108215e-02 -1.120174483223329576e-02 4.436941812691307385e-01
-4.893604453975133710e-03 6.583103794012399972e-03 4.246866003128180189e-01
-2.219859105505099517e-02 2.486254890212473770e-02 4.184422010911006407e-01
4.628195371105133654e-02 1.017765443496981490e-02 5.119472659959050098e-01
5.000226146913677033e-02 4.922335198773453158e-02 4.977035887653747381e-01
-4.360043943729087490e-02 1.318337909349774455e-03 4.468599360995383352e-01
1.751279625842072640e-02 1.483830938223342118e-02 4.285365022993370965e-01
5.698824976525927732e-02 1.139300513679466706e-02 4.692197227864789988e-01
4.014831261191904171e-02 3.346169160628208877e-02 4.423506673425768310e-01
2.451311670150954636e-02 3.872877815225235498e-02 4.295360065807042327e-01
5.238249327115959697e-02 -1.148865756751453818e-02 4.657001897725335793e-01
4.958971503829472105e-02 7.778094791807684677e-03 5.073049742583984889e-01
4.392998068381547688e-02 1.270188240819896362e-02 4.456701612358406894e-01
3.972644280845793324e-02 5.315020685384910792e-02 4.423679314479059821e-01
4.969244924847157630e-02 1.160853540512044035e-02 4.511735366139971726e-01
5.762591611187654894e-02 2.183317992376743871e-02 4.769184695364994675e-01
4.828402236194643399e-02 3.063961869194335372e-02 5.057741383783327382e-01
5.731972278748886929e-02 1.742133382634141608e-02 4.778542824560492730e-01
-2.200503501911325356e-03 1.309750442504016218e-02 4.202286453199490790e-01
5.476100058672508930e-02 5.367763639708644785e-03 4.624333329068899823e-01
4.641222822901986539e-02 1.011158142706218566e-02 5.118155079038712030e-01
5.322644873885940681e-02 4.377976426268087584e-02 4.952401744474021483e-01
4.454928352513639472e-02 5.211282600742616483e-03 4.469117697742575057e-01
1.272491389709063704e-02 1.362147915862175996e-03 4.311998671081088141e-01
3.917967440467430562e-02 -8.495024479334874201e-03 4.438184280425533368e-01
3.269927258834970374e-02 6.441180027516588136e-02 4.433083734990874714e-01
5.549427550848603369e-02 3.088863057054005989e-02 4.890212584436739451e-01
4.004372999257995586e-02 2.265824840053220005e-02 4.420019603291580057e-01
2.317757169368521095e-02 6.184890988714734916e-02 4.383900960438764649e-01
4.680084952240257112e-02 5.106039190889782170e-02 5.036147150302370257e-01
5.113081525330541444e-02 3.744357029506759690e-03 4.542847144765860823e-01
5.658833779492300486e-02 1.465368093092999160e-02 4.818895046195178500e-01
4.745421002224486928e-02 2.212715159184482083e-02 5.067020208930180791e-01
5.525439275318302229e-02 2.845712849734984007e-02 4.898241308913526826e-01
5.782596177641873003e-02 3.140455210560624821e-02 4.750540149069659157e-01
4.794845628789259212e-02 3.771771862850665374e-02 5.067432008873918869e-01
2.635064539587582064e-02 6.496501385009281759e-02 4.483022490660226733e-01
5.714592537048085452e-02 1.617529661667428328e-02 4.683178410037708295e-01
5.736630503491926825e-02 1.790038474667995233e-02 4.701587805433577461e-01
4.282627918990208893e-02 9.116811589470766308e-03 4.450548791084856237e-01
1.799126509520255351e-02 6.386849538275217800e-03 4.322719560522663151e-01
1.820366365532652755e-02 6.236632898693661442e-02 4.398401689449203955e-01
4.349826966840734943e-02 -6.542284365963582995e-03 4.480497656420450725e-01
5.633057909551768272e-02 1.369437326092869459e-02 4.641881651719205193e-01
1.390045955836510805e-02 2.581407974478336365e-02 4.205614525596107489e-01
-4.085523458378023665e-02 3.019014659186085477e-03 4.452792874423439073e-01
-9.553186814657896667e-03 4.589754618221723176e-02 4.079489431948449263e-01
4.998263915297218585e-02 1.375975844116417504e-02 5.008047028709367021e-01
4.976809264612943456e-02 4.817157973761072853e-02 4.997082174869931781e-01
-3.314014014359050603e-02 6.450206122530966271e-03 4.360993237867277217e-01
5.321209868032654444e-02 1.348470240187161877e-03 5.072239792442027051e-01
-2.507847720576938944e-02 1.337523284936899606e-02 4.267173185481495934e-01
4.580922198730343065e-02 2.877551806937355891e-02 5.104911543249904815e-01
-3.430070245035040516e-02 2.181216344246844283e-02 4.292283707389109582e-01
-8.118837640146033680e-03 -1.288057301322018122e-02 4.338919988267606609e-01
4.967866887953419075e-02 1.175052531986148750e-02 5.029948649794432347e-01
4.683477124970209654e-02 5.167904855731657310e-02 5.016357332838025096e-01
4.308105157298981053e-02 6.382636119416959519e-02 4.487149673960506568e-01
8.452707534894779787e-03 6.061062105842252717e-02 4.248531267967570746e-01
-3.617663896628443843e-02 1.788736265596239244e-02 4.366980879170539454e-01
-3.125519583984280592e-02 7.506207738914623048e-03 4.338555798343044501e-01
4.876501693827400147e-02 4.905789215258998109e-02 5.013277233883837170e-01
5.348180376341298697e-02 3.633173437678215677e-03 4.597141767981485772e-01
2.726725305880877206e-02 5.343393807424395847e-02 4.314094123794758873e-01
2.517328365452058906e-03 1.954955981642388443e-02 4.135256247206249847e-01
1.212512875588235171e-03 3.272898893916081214e-02 4.014826596129342784e-01
3.857585517924529833e-02 -2.660408915045538863e-02 4.490568282022085467e-01
-1.213298011617697063e-02 1.601002863980529288e-03 4.287280550853366790e-01
-4.004325848501355534e-02 2.784438533051441719e-03 4.434358372382434244e-01
4.189258664400002247e-02 5.382486824725898900e-02 4.444478417409042925e-01
1.755226984560035591e-02 6.087762322097427237e-02 4.362439602159465801e-01
3.169607676957563597e-02 4.934879616076273678e-02 4.350940799686027205e-01
-1.909575967909737243e-02 5.013899884605921287e-02 4.175022043319683851e-01
4.952167658588329385e-02 4.982888059558773786e-02 4.983255345203548847e-01
1.941713700503272175e-02 1.004877269436253023e-02 4.315717915654807002e-01
5.725429282252006424e-02 -5.142012152990548673e-03 4.773095604057105978e-01
1.393348989691155920e-02 1.290012969621716354e-02 4.275376148377564856e-01
3.413116609607668578e-02 2.827913644403106871e-02 4.379670377135588821e-01
-1.792742258877464898e-02 4.620432020900874792e-02 4.113954129698138007e-01
5.794988853765056097e-02 -3.410574708869980494e-03 4.888337076482162646e-01
3.876907066224976640e-03 3.450050825230269180e-03 4.287609259654945326e-01
5.075940376503136620e-02 3.867967077536841464e-02 5.018449507556146383e-01
5.785116302309528669e-02 2.876689058323681283e-02 4.711944268946442471e-01
-2.167043139612101141e-02 1.557797040812118096e-02 4.232834897023323717e-01
4.401431057744182446e-02 1.150180833468840251e-02 4.458366360659887784e-01
-1.326509329271744440e-02 3.910474414983611952e-02 4.084685310693645377e-01
4.369518340095525366e-02 6.701584087270310783e-04 4.469050705039043780e-01
5.015849859977029174e-02 3.950845255710814380e-02 4.518945001521579297e-01
5.553548031301068499e-02 -3.106202723855228543e-03 5.096496123850198234e-01
-9.761125762420951729e-03 2.837387001780708462e-02 4.108148449939586500e-01
1.210094247560991772e-02 5.416871159495489224e-02 4.186204304043472102e-01
4.051660732956791772e-02 7.866437982640910043e-03 4.432028592282830637e-01
5.711509797624225726e-02 1.096177952269368136e-02 4.776170842572776132e-01
5.614770693881544761e-02 -2.084997350735546835e-03 5.022647455220394797e-01
5.001112692267666721e-02 5.388929139012211406e-02 4.904076179782972389e-01
-5.862859713392528857e-03 -5.589084265334717328e-05 4.293350855067420424e-01
3.772263735347701485e-02 1.367646494021216783e-02 4.407121771860100790e-01
-3.211491683406075826e-02 9.308085613088578833e-03 4.339137669784757234e-01
2.487087319498127239e-02 -7.604034858333146712e-03 4.352890138597290681e-01
5.628654718068143437e-02 2.146473763309882099e-02 4.845469515307503361e-01
5.785655597834525599e-02 2.849288800654082437e-02 4.720925897472814659e-01
5.724148472875937449e-02 4.269357765743179468e-03 4.830954992994718200e-01
-2.404237678541971263e-02 4.547437042723986855e-02 4.155530078495067170e-01
4.547285866562878615e-02 6.585032439050177155e-02 4.542383268546322794e-01
4.182120850513895011e-02 6.576203973289646010e-02 4.499627305845966818e-01
-3.754099186259358956e-02 4.967034099494366250e-04 4.393989570449483018e-01
4.229658368697732790e-02 6.755715185106841991e-02 4.730902483905004008e-01
-3.588699559197305183e-02 1.117518210251797726e-02 4.388872736663768093e-01
5.183879708968051198e-02 -1.504321850921780737e-02 4.660814481245807439e-01
1.388445176800216611e-02 -5.897364342358355632e-03 4.322679139965063255e-01
-1.934497180036458264e-03 1.696606176704764995e-03 4.284513382141091897e-01
2.218776359968455472e-02 -1.414421265156013199e-02 4.358148901642186490e-01
-3.201837565470070420e-03 4.146244803841969695e-02 4.059745754984341870e-01
4.970227939683891094e-02 2.105291663275537031e-02 5.009381287603601463e-01
5.565679875520584269e-02 3.822417323600007383e-02 4.872706325247455617e-01
-7.250831313429594027e-03 3.411081565243607311e-02 4.071196956740136819e-01
3.893481439282756723e-02 6.478837795100877983e-02 4.464967728463651864e-01
9.007520199217773985e-03 -1.665597397801161367e-02 4.363786951701460470e-01
5.193528124370676291e-02 2.710417546815728496e-02 4.972343505624376436e-01
-3.049484084359749270e-02 6.237009022725723169e-03 4.336669946359262284e-01
4.400258088382848209e-02 3.502857412387171132e-02 5.133554815468088783e-01
5.724839943850414808e-02 1.442727679115518753e-02 4.706705936470843565e-01
5.380854721686413600e-02 4.762865473587793441e-02 4.867734556041563021e-01
5.715912062515449837e-02 1.687134351771618287e-02 4.677026311299727346e-01
4.181414868669749985e-02 2.769917259505562043e-02 4.436751963348732897e-01
6.342136618422138106e-03 5.876375560995581587e-02 4.180708865634998328e-01
-1.955622414747166041e-03 5.315266657466186789e-02 4.114677773035712582e-01
4.982402530033740867e-02 1.801948382782568234e-02 5.004012840930264217e-01
3.053481705588283190e-02 2.117277149525395932e-02 4.356878183631782142e-01
5.146894294158214228e-02 8.103980817923218949e-03 4.535166696043309575e-01
1.358105284602528252e-02 5.189133640219524383e-03 4.310883833955160283e-01
1.122839823004332001e-02 1.881736663760507147e-02 4.216233329676077335e-01
5.520201245922716493e-02 3.411146541973187479e-02 4.588137820515247323e-01
5.175271976762792908e-02 1.777645331682861304e-02 4.535284699426729293e-01
5.076950742118761795e-02 5.798630472197717489e-02 4.764093961458457094e-01
-1.859081132208124584e-02 4.969746059530028709e-02 4.164845924496239915e-01
2.940299740901720351e-04 5.445657827624673930e-02 4.134624667703864498e-01
8.890809319226783414e-03 8.195132764044352897e-03 4.275734682859223534e-01
3.223590931230389117e-02 -2.312607137502789220e-02 4.419076302080012231e-01
3.059636959145897381e-03 2.955145038856862166e-02 4.020446030057554521e-01
4.096933886725007828e-02 1.692904330936945666e-03 4.444165207165817200e-01
1.518929448646978882e-02 2.058919800092666799e-02 4.238383972981922820e-01
5.403091133112900013e-02 5.288580350919343948e-02 4.667433768896673274e-01
4.079226670270110627e-02 3.985681459658593079e-02 4.427237230911812427e-01
-8.432808186173224377e-03 2.694997886695402883e-02 4.109732253589765127e-01
4.930729427014211158e-02 1.678039881712636155e-02 5.016080521748537135e-01
8.600169388493074038e-03 2.803425794935648571e-02 4.084089658682575896e-01
5.562769322390328369e-02 1.408126302032269503e-02 4.857527303237749727e-01
5.417140293789205613e-02 4.796338123887310123e-02 4.829282215752039309e-01
3.892409678173740228e-02 5.987790716251094325e-02 4.436361645091765893e-01
3.925722924987090634e-02 2.419616207206142997e-02 4.415070947105583787e-01
4.698816731929822410e-02 3.181743458968956662e-02 5.081770227436814835e-01
6.545970383117481230e-03 1.562054008839169027e-02 4.210536620595042856e-01
-1.591872520930729534e-02 1.075048408068529984e-02 4.234765289554971446e-01
5.604070958184582951e-02 3.855118289820533978e-02 4.835564822194877710e-01
4.205520489795729761e-02 4.623126438094360413e-02 4.436435858995968484e-01
5.709687297140742662e-02 6.332924405072216413e-03 4.821525128129955373e-01
3.280710838097207482e-02 -2.672685979965354341e-02 4.441040545205635071e-01
1.104225913311446955e-02 6.147095191460173746e-02 4.320619845028987882e-01
4.164180094681778355e-02 3.377912558337172605e-02 4.435955773747924380e-01
5.223254793531351137e-02 -1.348692863690904853e-02 4.662776004925290319e-01
-3.950569490509728277e-02 1.663391969805465926e-03 4.403805765412678319e-01
-2.209977809653814601e-02 2.042082078040580173e-02 4.205931654006717646e-01
-2.585089381176693818e-02 3.869222581412828238e-02 4.164476379309781096e-01
1.170590881102516467e-02 1.273798637909314205e-02 4.263667832894767473e-01
5.117590987470861663e-02 -7.515276388156038115e-04 5.144485006178887154e-01
4.485915660067472249e-02 2.350986477268882449e-02 4.462191794170055070e-01
5.003483833588814704e-03 3.741719041339958834e-02 4.053843302526306536e-01
1.712979505315569487e-02 5.320782895875995899e-02 4.231291898339742952e-01
-4.168859165065456548e-04 1.805863730559813599e-02 4.150449472287507380e-01
5.779787229948941257e-02 -9.054811646451119481e-03 4.849774748391804668e-01
1.590678057788876693e-02 4.708004895174347851e-03 4.318878900282886457e-01
4.198117311169018845e-02 -1.569709251631193694e-02 4.476847563444351641e-01
3.519851220088070221e-02 -1.759268266191275562e-02 4.423617041341461609e-01
8.057986325973168218e-03 2.272427436440060261e-02 4.148751253627746549e-01
6.505804074163228957e-04 4.122449750673821967e-02 4.056177364737271196e-01
-1.378529149782419666e-02 1.782515596083965662e-02 4.185436196324517355e-01
3.911934910258092757e-02 6.822490449923246381e-02 4.660860320154174286e-01
5.721259169685690218e-03 1.855164208336379864e-02 4.180151282398106849e-01
5.369310150441625878e-02 4.369632774991882851e-02 4.930773221408168427e-01
3.363289491733834069e-02 3.151265676740895583e-02 4.376328461680794590e-01
2.616275176714166067e-02 -8.815372403487247224e-03 4.358828310784225168e-01
4.786073962511842167e-02 -3.970238077588865086e-03 4.525091724351839040e-01
5.447578148605653620e-02 3.907750546298716966e-03 4.622340582989464819e-01
-4.722855276658589029e-03 5.502378736902576763e-03 4.255391830685182342e-01
4.673628237857389151e-02 4.400558444196584623e-02 4.481394044408810728e-01
5.507816153397204761e-02 4.682470637271926583e-02 4.613358545154488399e-01
5.266067335787989051e-02 5.707790071007978749e-02 4.634649880183385751e-01
-2.436279640210038677e-02 4.403707937245873033e-02 4.155370688286855185e-01
4.283177204579333153e-02 4.703815228602086992e-03 4.455155473385042364e-01
5.080431452604496079e-02 5.476296175109130610e-02 4.539791502964581893e-01
-7.474573715604998850e-03 5.377822606233469832e-02 4.142100120062118807e-01
1.817614619090010541e-02 3.573659558207691739e-02 4.235908870228705103e-01
5.588686546915665881e-02 1.465291067710401685e-02 4.847731086612944162e-01
-3.551170117827026976e-03 4.517784740818390349e-02 4.066501818295964465e-01
3.375730351702463383e-02 3.931168651701921063e-02 4.375484076722008231e-01
2.508009219759172598e-02 5.585943468055427907e-02 4.303259828383608210e-01
5.249798188255720699e-02 5.596828320204033647e-02 4.723062423071258675e-01
4.833887136066208207e-02 6.217243259675188372e-02 4.761767838494829208e-01
5.710062735119060540e-02 3.435917485347183414e-02 4.652111946796904096e-01
4.110386243236305304e-02 1.379173972090361015e-02 4.433573779165855822e-01
5.178005963264285805e-02 5.801331593411181847e-02 4.601974639971763703e-01
3.077507517349337834e-02 4.724107384288924599e-02 4.343550454530868965e-01
5.123637233901743443e-02 8.852587815658320702e-03 4.530843207395345296e-01
4.400671469156281629e-02 -6.835507880003565892e-04 4.474620152089975322e-01
9.875260853293285276e-03 4.423641012123123717e-02 4.126534009799355807e-01
3.956063882725372599e-02 7.113585664722500701e-02 4.522185619881253782e-01
5.090347797608502090e-02 6.116763746331584095e-02 4.637575125403027299e-01
6.029100352665919815e-03 4.017620161653584487e-02 4.072139515226151918e-01
1.101300728665526203e-02 2.895160144559185203e-02 4.136084693055513961e-01
2.549656564821697197e-02 2.760118680456377302e-02 4.316464402838295356e-01
5.654634816404605080e-02 3.123775044544708016e-02 4.845442271907920428e-01
5.136168314163554877e-02 4.885812094461468996e-02 4.534786514765004051e-01
4.493232099237063487e-02 2.942522416897168369e-02 4.462798005816323021e-01
2.182033538855903884e-02 3.966900203744334885e-02 4.269869250771097802e-01
-2.659735376917422844e-02 3.413966660103418677e-02 4.174355651732150618e-01
4.856837572178723111e-02 6.338109853966943097e-02 4.583633923613558703e-01
1.229486680772214069e-02 5.037684064524278887e-02 4.172937823644716770e-01
4.941308282614154807e-02 4.482912084904418226e-02 4.511934977799399449e-01
1.883449999578849787e-02 -2.177502887253708001e-03 4.330599813873873272e-01
-1.395986174124642584e-02 3.645298863168743020e-02 4.094827798481102121e-01
4.570729485414536802e-02 2.390413527122633996e-02 5.106598801678484678e-01
5.182352508031548566e-03 5.353118792378827595e-02 4.137288246314669848e-01
2.716633355174582001e-02 5.536498460903385016e-02 4.316854517103171363e-01
5.538741381189007246e-02 4.116294508377474348e-02 4.607260996336644543e-01
4.789292343458814022e-02 -5.475306236540075817e-03 4.530092950522452422e-01
-4.174237836512537797e-02 2.414620188662397037e-03 4.418420667321063533e-01
9.592314924720754185e-03 -1.562074838792384783e-02 4.357943354362691646e-01
3.469459808780132187e-02 2.853463124261291714e-02 4.383538781975945264e-01
2.943273571534855623e-02 6.407872074220619107e-02 4.406806386397091324e-01
2.267340307028860996e-02 2.542970361357672904e-02 4.293505858152154020e-01
5.176188579225080022e-02 5.687539809693364923e-02 4.743397749208007608e-01
5.439004673114728600e-02 -1.129763907891821566e-02 4.697282561943034729e-01
-2.999995289703858911e-02 2.311629596857258870e-02 4.239710025463255261e-01
-3.848677291611903029e-05 1.671115229080556708e-02 4.170779595981479737e-01
5.741157579022600210e-02 1.169148728290013645e-03 4.868237968083584111e-01
2.718659861722518695e-02 3.708509488580873786e-02 4.320386703674712892e-01
5.566341977414054898e-02 3.749659821118807995e-02 4.609839769061904180e-01
5.748935900545440458e-02 3.550447137482589527e-02 4.703541388222117203e-01
-2.863827043501516317e-02 -2.608118281362818876e-03 4.354364330059412591e-01
-4.036900387543925287e-03 2.962768816525249149e-02 4.059173183911052862e-01
3.586834520585070740e-02 -2.497789462477872230e-03 4.408147500382626482e-01
-1.670286196863797132e-02 4.676259114935065603e-02 4.109235912802531865e-01
4.299815619519634785e-02 5.622028464163830730e-02 4.947428023585640489e-01
5.638145768534508218e-02 2.232428283141872638e-03 4.700493038759516740e-01
5.484544955893309176e-02 2.895709925504564436e-02 4.580813490891316175e-01
4.498419907126771644e-02 8.159569557075339180e-03 4.469335441356439564e-01
2.042893466219476012e-02 4.717756495254300797e-02 4.254535249835874056e-01
4.003868769313823073e-02 7.132794843818214547e-02 4.565108332090717091e-01
4.143752668772848063e-02 1.840326331426597392e-02 4.432889145161095779e-01
-2.866142977945238673e-02 4.908729886189935800e-04 4.337140784820978090e-01
4.687739794240589064e-02 3.658764919429557949e-02 4.481945644481811764e-01
4.929648895403335868e-02 5.359273124437584357e-02 4.929530381273107276e-01
5.665335889463041230e-02 3.306698563360360027e-02 4.629478673817333800e-01
5.802372536928881303e-02 -1.036020165191519835e-02 4.861375994339327544e-01
4.584537701746661115e-02 6.755479493407619274e-02 4.628411607615028345e-01
8.824237777029536600e-03 8.011065748527751440e-03 4.276648128064017285e-01
5.422529733953720954e-02 3.941767187727627381e-02 4.573040606329467073e-01
4.588934667742829154e-02 3.024884891626725483e-02 4.471839579438353085e-01
4.132429067839735182e-02 -6.213521421832035076e-03 4.456451163881519073e-01
2.052151279336752836e-04 3.811172059226222014e-02 4.037085026401873722e-01
5.642675112804570320e-02 4.480594757307706198e-03 4.696354068055703657e-01
1.616061004218550395e-02 6.049559938088917843e-02 4.339330640723967347e-01
5.163505389504419868e-02 4.855115528769761435e-02 4.938240592000595064e-01
5.613170734684810870e-02 -1.185006105405957133e-02 4.770035048802610533e-01
5.583515727294228320e-02 5.209020955511207453e-03 4.660899455759536791e-01
-4.660030053886590404e-03 9.083945510790558675e-03 4.229188934264711541e-01
5.173578239932496992e-02 1.334120449390165802e-02 4.967796820017276183e-01
4.790815591966710030e-02 2.228994760315815629e-02 4.491978180343978444e-01
5.547277410664019914e-02 4.758108703795457112e-02 4.701701000242057837e-01
5.232226425166994210e-02 5.569711418019123589e-02 4.746430558853250714e-01
-3.594432745546359553e-02 1.921034401949604092e-02 4.351160120766791040e-01
-4.317754652848120739e-02 1.824035330818320113e-03 4.448578862003114143e-01
1.578004261565010835e-02 -1.752042109498899713e-02 4.359060209106752071e-01
5.708921046964705176e-02 -1.212673885597741891e-02 4.807174666454150924e-01
-2.655863002828911384e-02 -1.628216902457539292e-03 4.341597943346419686e-01
5.770331482230559028e-02 -2.512211179658527943e-03 4.936691645913717230e-01
5.731791547584324381e-02 6.452635736061567567e-03 4.808683540579484772e-01
5.726809819504239535e-02 1.437280126050198559e-02 4.728627688748714419e-01
5.566868316064269018e-02 2.050835464753058071e-02 4.604239500749367497e-01
3.637401980089836895e-02 6.211976255061049668e-02 4.429742162549903939e-01
5.540947331185181596e-02 -2.578933175692998611e-03 4.679020482119993773e-01
-1.508079310131781731e-02 2.840471522335280552e-02 4.132675849004341373e-01
5.630326167079884730e-02 1.370236282502946407e-02 4.640782245344365897e-01
1.437110834558216060e-04 4.163391084505504297e-02 4.059251718687905686e-01
5.645615762917863961e-02 2.120435703844758199e-02 4.624677819554877112e-01
7.185043959150374041e-03 4.478972764605165108e-02 4.106461738421689489e-01
5.272107868663360175e-02 3.730193121279190387e-03 5.046691185238622035e-01
3.565079148120324504e-02 1.875376867369233508e-02 4.391157728846660224e-01
1.413387399390145932e-02 2.504517670609738081e-02 4.212331199934553072e-01
-2.837210066126953298e-02 4.925653121209846302e-03 4.324978373157475908e-01
3.703025233264520266e-02 2.056601475136594220e-02 4.398917168416705548e-01
4.432211756774945971e-02 -1.243200965443531925e-02 4.502483856666595896e-01
1.488503400567139576e-02 -2.237064356459314216e-02 4.371508064683469197e-01
2.951114811553061379e-02 1.025739867371111905e-02 4.361196046509125401e-01
1.200787518468782698e-03 1.191845296474779159e-02 4.214946600605021798e-01
4.872296589018362822e-02 2.992132322823719270e-02 5.048659277938666312e-01
4.467261418294837805e-02 2.642555477717055748e-02 4.460459493461847447e-01
1.059173305987934875e-02 4.611906613378594089e-02 4.142597458412116684e-01
5.356322823788639553e-02 4.240656275038838519e-02 4.563309247005352676e-01
2.852911596942749040e-02 -2.137774537553795151e-02 4.393913677614363911e-01
3.065621947172191344e-02 4.387788550102723201e-02 4.345035510904193266e-01
-4.234367902902103770e-02 1.815776931303111517e-03 4.476123265759148762e-01
1.973505615810277475e-02 3.948900195037707145e-02 4.248894943318508033e-01
4.176108300902002524e-02 4.399841691398051480e-02 4.434051826420060127e-01
5.043673885510447513e-02 5.495126178129125516e-02 4.534681178144128744e-01
5.761837636697811349e-02 1.297628940290589637e-04 4.877096855092560856e-01
5.730109079278992990e-02 2.413996486395059843e-02 4.799084531987071744e-01
2.844284194172298427e-02 3.517301230745049218e-02 4.332943279762150324e-01
5.325585882345357236e-02 -1.867445627369033329e-02 4.706105158306301828e-01
5.668509204338734869e-02 -3.421007811222898966e-03 5.015040593022666027e-01
2.545070177322679428e-02 2.183423613080151884e-02 4.323187379869531388e-01
2.505096166900718999e-03 5.510682231587876040e-02 4.149031283456897645e-01
-1.352998101964236928e-02 -1.028957808304029053e-02 4.345521719422474338e-01
2.880804730208155057e-03 2.031567083516796698e-02 4.123599906263401560e-01
4.485493857242285609e-02 5.292531044238295984e-02 5.014673654977372941e-01
-1.307279725539286022e-02 2.319827527987458615e-02 4.151971429179928674e-01
-1.910533308186542975e-02 8.527765488571386124e-03 4.259962654435398566e-01
1.680942657059139936e-02 -9.637764177806557725e-03 4.335868635132435478e-01
2.870786709394467992e-02 2.305244345671568496e-02 4.343321226175282934e-01
2.650044470258510788e-03 3.810926212751116621e-02 4.033714585811700171e-01
3.846136128574062507e-02 -5.741407070400144502e-03 4.429630158433595644e-01
3.240016171755304847e-02 6.568177021983385988e-02 4.463776568832263925e-01
5.094376510761258747e-02 5.302875420291462520e-03 4.533826336064884499e-01
4.852560425471560274e-02 4.878838814205030405e-02 5.021468131983791716e-01
4.427362070875769107e-02 6.754957110175549562e-02 4.669274864624814447e-01
3.790019005497576032e-02 5.181815455862028713e-02 4.404911080067030471e-01
2.710301460106826626e-02 8.986627855674523060e-03 4.353891579011440749e-01
3.940866307513524180e-02 -6.374432799624734670e-03 4.437782258981994299e-01
2.906113795649662573e-02 1.532757747511450178e-02 4.352873322255779720e-01
9.941356274906916826e-03 3.212931879831508464e-02 4.081591918524241080e-01
4.532011775103286788e-02 6.007459447192271818e-02 4.864989809262126874e-01
3.862015430636690089e-02 6.676484449894376505e-02 4.487963983727105699e-01
1.098486136544007778e-02 3.410306226943046748e-02 4.105169776188262176e-01
5.506103780584115093e-02 4.888284926691068705e-02 4.685905779241987812e-01
8.271897482651493702e-03 6.021359760534402555e-02 4.230634685896818015e-01
-4.436982979922632353e-02 -7.810911674472125962e-04 4.423508917383239258e-01
4.673097864602153428e-02 -1.840095933080876378e-02 4.559416412769322635e-01
5.434242899000413241e-02 1.073173982411211244e-02 4.591571882588359466e-01
5.359950911853222227e-02 4.753491689781542962e-02 4.879938679944999524e-01
-3.365427853897021149e-02 1.275383185261054833e-02 4.350200997362718147e-01
6.720660120888583694e-05 -6.471670226838704618e-03 4.308489686688871112e-01
1.956631818668663758e-02 2.320407837593651060e-02 4.271833064066954955e-01
5.011233419428499231e-02 5.214769139350231703e-02 4.933236971128567849e-01
5.437407963163234242e-02 -3.692221360902904655e-03 4.658371223219500146e-01
4.483655326241416106e-02 2.820690299952187396e-02 5.120297141975164168e-01
5.672337408781753798e-02 4.068375288285312752e-02 4.709875285146907786e-01
5.460200951611530323e-02 4.634239093893913197e-02 4.820806283506967049e-01
2.765447218085855668e-03 1.714834465680943609e-02 4.175319154615000916e-01
4.191397964298074902e-03 4.695560901770453460e-02 4.090807069357336179e-01
4.060750822712808766e-02 -2.367557454703040146e-02 4.498110255588180229e-01
2.846969395502577452e-02 5.929134967676835677e-02 4.360439284011330963e-01
7.721636965389704413e-03 4.695220234237626467e-02 4.117183346164791646e-01
4.892901109659782838e-02 4.168625672852093594e-02 5.047939309420468312e-01
5.755710634609643994e-02 -8.742460947682719266e-03 4.830508360971032533e-01
-2.906472519343304695e-02 3.630012433155167806e-02 4.184574243685935668e-01
-5.339037739604296680e-03 1.181161370242190568e-02 4.209117125717457553e-01
-1.561689271302435511e-02 1.972982568864857164e-02 4.181812296559874742e-01
1.101809822097555951e-02 1.497679845095354484e-02 4.242206316807525801e-01
-1.653214725364379311e-03 4.284509626348868838e-02 4.063436144710718678e-01
-2.412722858505750301e-02 2.484587698222181801e-03 4.309809026155042577e-01
4.562604702112837279e-02 5.348685429464423297e-02 4.985224335397311357e-01
5.204715752685665914e-02 3.676855645069100620e-02 4.542526513913839326e-01
4.440537479287639394e-02 -7.130021861335779018e-03 4.491844199533595594e-01
7.796953424611930382e-03 3.981701000533515583e-02 4.089679698540696351e-01
3.487635473058656177e-02 -1.751744188511994600e-03 4.400295476919504067e-01
4.770108569900177037e-02 5.982999547028037407e-02 4.825878990728292295e-01
5.535607964860025931e-02 -1.558312904931805423e-02 4.754597543894548139e-01
4.787285370657710232e-02 3.479410974591020528e-02 5.065856426998263107e-01
1.351768976638630278e-02 5.374756440314779754e-02 4.198245208589524435e-01
5.744806166826547933e-02 2.595039748622575415e-02 4.646443862694583093e-01
5.797805729040230588e-02 -3.650522978409142562e-03 4.890588145955436228e-01
5.067542592884050762e-02 6.168269346741419440e-02 4.640336419781205257e-01
-2.143165815957592812e-02 4.691067475640761653e-02 4.142963477992980259e-01
5.529804557835128753e-02 -3.172717190507724425e-03 4.678089137537773112e-01
5.424330653244349709e-02 3.532532957263456036e-02 4.937557736185173574e-01
-2.126782679989885384e-03 8.409467949141431579e-04 4.290438643725837387e-01
-1.359629207511369418e-02 4.413309421892485512e-02 4.089172591416992963e-01
5.439254476761916368e-02 1.077085614305435188e-02 4.592777833264835019e-01
5.430116155257400101e-02 1.123745048234746878e-02 4.588411846338659172e-01
5.102213703971078540e-02 5.560235995575760898e-02 4.817504541572938392e-01
-1.198429635391736608e-02 1.580816506066191202e-02 4.194015230489352430e-01
5.422758889788201198e-02 4.741324554278811970e-03 4.978240238902687520e-01
2.650171281508134635e-02 1.406544665610075934e-02 4.339453880142870590e-01
4.980650238939734326e-02 5.027489717779058676e-02 4.969609034522600721e-01
