3.174664645452419942e-02 1.194021808191013043e-02 4.367188977211844958e-01
1.198129361895113217e-02 2.397431926668947000e-02 4.186947394436937864e-01
5.312205616506072980e-02 3.439409067078760124e-02 4.964243006000015335e-01
3.410857927071104384e-02 -2.667239138094676040e-02 4.451741111394351691e-01
-2.099089779662796640e-02 3.257816037069702353e-02 4.141920501576947244e-01
4.861233194349387499e-02 2.257052403293180465e-02 4.496900356678652511e-01
5.690421987493443634e-02 -5.029727173534705165e-03 5.076469782277435172e-01
4.121678680662606981e-02 5.246914705089340825e-02 4.432205596171162609e-01
4.990717043994701008e-02 5.501617124351260157e-02 4.523677277511884420e-01
4.737939445982734116e-02 5.706278971326197297e-02 4.882367159219785924e-01
-4.196747684064940087e-02 2.344306783183901840e-03 4.469050536984039423e-01
4.312994040224463893e-02 4.361652710869450694e-02 4.442136489107548769e-01
2.697224860295494714e-02 -1.938553686065123960e-02 4.384339202907981403e-01
5.416182769296216948e-02 -1.799427443443327862e-02 4.727136096295143641e-01
4.467114099488331963e-02 5.491534031614202227e-02 4.967664289118147170e-01
-3.613791643451880892e-02 8.451822275924248187e-05 4.385216878217575442e-01
5.145601902665988825e-02 4.455743934895705499e-02 4.992142172996862914e-01
4.645004996866857611e-02 1.999118267045170774e-02 5.089531737709542814e-01
1.586879754211088095e-02 3.715921365896501100e-02 4.205857990756454723e-01
1.175509963265457952e-02 2.555593192951701245e-02 4.175078116032893694e-01
9.914710744488585553e-03 1.559872751895723282e-02 4.225824197240155566e-01
-1.082805273157387213e-02 -5.094585122354246959e-03 4.311925859145849249e-01
5.547339751575910971e-02 1.856965722280932291e-02 4.599828203956866091e-01
-2.232313384419630509e-02 1.071152444630100314e-02 4.262668074472770186e-01
5.329201563794430663e-02 1.085099755397242547e-03 5.077819840243005256e-01
5.660202010109129100e-02 3.265305643649615147e-02 4.839583466395184219e-01
1.769209352520220713e-02 2.972208492670528820e-02 4.230750216263703400e-01
-1.548797416303619202e-02 9.445038931524599862e-03 4.238882281290380916e-01
-2.761490947020920576e-03 1.532938859074406412e-02 4.172706177950945006e-01
-1.154922350820151988e-02 3.417345232634876051e-02 4.088021704402469703e-01
4.878022558885486415e-02 -2.076354122433001978e-02 4.614841202826092670e-01
5.745895677255723200e-02 1.920572609200292893e-02 4.769388517199737998e-01
-2.079158714710813843e-02 1.604563448832315234e-02 4.223717418222431297e-01
2.384557744895173317e-02 1.834794489685577165e-02 4.314174199239956264e-01
-2.457261573940484889e-02 9.872403380067069911e-03 4.280497507083441122e-01
4.720177105035799209e-02 4.656518104133598734e-02 5.063952566709755132e-01
5.546499783496519273e-03 -2.182316815318004546e-02 4.377024174384013810e-01
3.621564019385992150e-02 6.360273030665662686e-02 4.431301088096357699e-01
4.812096973583710607e-02 9.421628307182594933e-03 5.086682558652750874e-01
3.333865734989908958e-02 -2.867553954607146918e-02 4.456255579933531830e-01
3.552753892664423790e-02 -1.113445216125167822e-02 4.411988381137496029e-01
5.217204538713098028e-02 1.524545277650080251e-02 4.949613067648445108e-01
1.138138198161589218e-02 5.578111037506563313e-02 4.185167942715943279e-01
1.885596711821076882e-02 3.798197944679668897e-02 4.236546278110492891e-01
2.043966029716094007e-02 4.835243865433418858e-03 4.332620120496435412e-01
5.754459865713037331e-02 2.690424143635488513e-02 4.794520205785189892e-01
5.784619886545958739e-02 2.870155321348506761e-02 4.685740733971673344e-01
4.887932208962963293e-02 5.425945620416267046e-02 4.510525138200999207e-01
5.403947892668167774e-02 2.610900985298304430e-02 4.922025185989868934e-01
4.903178029321882819e-03 2.279601846004101692e-02 4.081568731465717303e-01
1.915239252930300146e-02 5.989828068701882891e-02 4.330160358841400603e-01
2.742723081006183741e-02 2.354421057279881130e-02 4.331607888502805870e-01
2.516154162035068309e-02 4.457322224232568297e-02 4.290308682060451351e-01
-4.180015460914976791e-03 4.886757510271749587e-03 4.257838533461706376e-01
9.823967850533382729e-03 -7.687429323081508559e-03 4.319244849880687354e-01
5.827175236338955761e-02 -5.363636661800954934e-03 4.917363232721005395e-01
2.552597654226770180e-02 4.754978580437088653e-02 4.291536850803274739e-01
5.708571493793727220e-02 -1.799601090897601252e-04 4.919772166107025946e-01
1.050935878618577436e-02 5.676294563855653272e-03 4.295628661212675392e-01
4.780213519206557432e-02 1.367461299983336459e-02 5.067847193320615951e-01
4.731141900555017182e-02 3.407752579076882282e-02 4.482833012239331172e-01
4.750811939222959052e-02 6.544559634990258778e-02 4.588810301522325275e-01
1.302334263165640799e-03 3.977884328433772820e-02 4.041610484208333909e-01
5.734572335109371088e-02 3.204888612005055148e-02 4.794694887117359472e-01
2.950323272347458742e-03 3.396064080360671616e-02 4.008964917495645430e-01
4.754113141647151042e-02 4.830903544384920929e-03 4.495022226279500321e-01
-2.190486265092313894e-02 4.148445572218029120e-02 4.124999168093989588e-01
-1.227969233709309479e-02 1.430526482930068177e-02 4.201558214568669736e-01
4.410364090473957444e-02 6.570996648441919386e-02 4.512828020346261737e-01
5.722436040506809207e-02 2.622821708855255576e-02 4.823341217990776975e-01
9.774035304487154602e-03 -1.821879205352557735e-02 4.366767865731219778e-01
4.663898208626303388e-02 6.714868992104866541e-02 4.643572799125802453e-01
4.472257176946472373e-02 3.682698436481984111e-02 4.458232953355801831e-01
5.355380168879182029e-02 2.517782547547000802e-02 4.929097055892263102e-01
5.084545012953795018e-02 3.225479895653235451e-02 5.006280736580916990e-01
5.701934657386385774e-02 1.393195349016624826e-02 4.798213605264878279e-01
-2.515660653970709995e-02 2.754815895799412467e-02 4.186070582547444241e-01
3.701852678103312311e-02 6.668061670988024991e-02 4.473568369952039547e-01
3.625251816952812511e-02 2.047159001639776987e-02 4.391834779255411325e-01
5.549067924458723350e-02 4.675495153430156425e-02 4.737042139825155540e-01
5.615384429604809713e-02 -9.213593331966656377e-03 4.750557446966630071e-01
1.385267286613703873e-02 6.117796123686303905e-02 4.341494091155391200e-01
-2.228029695000430330e-03 2.607799147968963005e-02 4.056884153737046472e-01
4.664814316248836606e-02 3.576801068960623609e-02 5.086800188621121155e-01
-1.677463065404849636e-03 1.088345842694191275e-02 4.216335458538647551e-01
5.816407302230883203e-02 -6.400318741836424213e-03 4.935873278624655081e-01
-9.405998505347835242e-03 9.221197851938721379e-03 4.226064754217991326e-01
-3.139490660937684086e-02 3.228433756811743133e-02 4.217188234960244642e-01
4.426160326907661868e-02 6.569510407203398017e-02 4.767534573315820867e-01
-4.739642631208542539e-03 7.697821800907196123e-03 4.236062563762675315e-01
3.400439698179964082e-02 3.772170732680783095e-02 4.374964113723385783e-01
5.001652426295011278e-02 5.136466572647712531e-02 4.948526785848880727e-01
4.805633705870179795e-02 4.535130258756820548e-02 5.053186978955820363e-01
5.140782348207045827e-02 8.839305280951285232e-03 5.007031040709587488e-01
3.979876324783629404e-02 6.768245653303522902e-02 4.738245106277300667e-01
4.909807745891311276e-02 5.455856225393980463e-02 4.916590050598208528e-01
-2.690669180239008834e-02 8.132691818059801375e-03 4.307445155449158292e-01
1.441194612567116631e-02 5.980064501507444119e-02 4.273407751961353362e-01
-2.277569137323898207e-02 1.124327202057398382e-02 4.261958480064414467e-01
1.176850635640835745e-02 -9.770536826701234183e-04 4.310519383428631501e-01
-2.614149283084145348e-02 1.796608209957665375e-02 4.238719609620587025e-01
5.821987366545287867e-02 -8.379947491197673251e-03 4.892223181368157148e-01
5.339674860490181696e-02 -1.098537327665737896e-02 4.674923398734412427e-01
4.810069935919234624e-02 1.600214805422769948e-02 4.492491670293685679e-01
3.899357187386282703e-02 6.886298248370159580e-02 4.504000856025114907e-01
3.757270148765783080e-02 5.925834463827443083e-03 4.408458803104087220e-01
3.394294518051163556e-02 -9.010292873239008488e-03 4.397650455845529271e-01
4.417738277417146420e-02 2.648649589328637421e-02 4.453268660315660710e-01
1.189805725569349076e-02 3.404262187554938507e-02 4.121672168409730719e-01
4.647810931445329335e-02 3.316614669794407805e-02 5.089612084223745780e-01
-3.964229668286653116e-04 4.376820009704426168e-02 4.060511202892913007e-01
5.230549909281063947e-02 2.063458925228622148e-02 4.945422485320788430e-01
3.198713286923540039e-02 -1.692533468645732522e-02 4.399161465499300538e-01
-2.867866572420607954e-02 8.933077559487637848e-03 4.316081904336219743e-01
5.984211180937877225e-03 3.217305290879891866e-02 4.016342946136185477e-01
4.851116993441901420e-02 -2.064940333886808657e-02 4.608025885593312609e-01
-1.059517971599838876e-02 4.131364647536547169e-02 4.074485521308512381e-01
5.369084252605410557e-02 5.149176289642831694e-02 4.797790979845228398e-01
3.329515994216747897e-03 2.330873985754541855e-02 4.069068009605512071e-01
2.059341120907167560e-02 2.557685744423668708e-02 4.270846399664950388e-01
2.360122974771365623e-02 6.116247697367774988e-02 4.366106053870776327e-01
5.716289264971999989e-02 4.781439251930677883e-03 4.745553128288980682e-01
4.163681878368497707e-02 3.297840460528327078e-02 4.433114153052781226e-01
5.097455749947313319e-02 1.982102149570364596e-02 4.522647692411473352e-01
-3.203182125161328775e-02 9.956842602084176822e-04 4.354184673313289400e-01
5.506436271428089002e-02 4.551305854474952534e-02 4.798365527532799657e-01
-1.806046395950888436e-02 1.996878944799872560e-02 4.187909098189923629e-01
1.364076645455278465e-02 1.924477163785735453e-02 4.226987611180536009e-01
2.499578584703969833e-03 2.755490721670862675e-02 4.014530791969331269e-01
2.936349272232977470e-03 1.701039353997042943e-03 4.291461820500159785e-01
4.469350589628703213e-02 5.444542760863314151e-02 4.976038140596025228e-01
5.006586011949407805e-02 2.220699515355259446e-02 5.000034506862686134e-01
3.108235439681392848e-03 5.080131291624832846e-02 4.097759293775808387e-01
5.696296876722863056e-02 3.687726490713132133e-02 4.761627522484894737e-01
5.605152346082837439e-02 4.288910659229699419e-03 4.671085746510863501e-01
5.824375135125371000e-02 -4.775052093530910563e-03 4.915098427278392079e-01
1.677085586508139312e-02 -8.167131011746618652e-03 4.331708878837481347e-01
2.183688227373211180e-02 2.194818385253631543e-02 4.289085970444984630e-01
3.934301017668904998e-02 -7.055296702357185396e-03 4.436828397478990160e-01
4.488698946580706867e-02 6.164565780498079683e-02 4.843669491921129278e-01
-1.255142837460294925e-02 1.533068037185215948e-02 4.195320799908489051e-01
7.666000160499149632e-03 1.576852433684076960e-02 4.211258887736130108e-01
4.966855028374196623e-02 4.295620754394384455e-02 4.511868992627721120e-01
5.126905294860503032e-02 2.503878298476583039e-02 4.523554469848117821e-01
5.514770225756931987e-02 2.941864408918636389e-02 4.902803579038257364e-01
2.534164639925969020e-02 -1.731969341761417994e-02 4.374165102948698314e-01
4.231963594018380709e-02 -1.966985929689729976e-02 4.496047614932785486e-01
5.697665342069523770e-02 2.242390583925416014e-02 4.635249027406090350e-01
-1.256611202490836091e-03 2.654156023594133121e-02 4.043341900738650629e-01
-9.550222664925471158e-03 4.130008519662352329e-02 4.071592579873516971e-01
3.531324750537782886e-02 2.258575321695319160e-02 4.386687552922191591e-01
2.304221919109955639e-03 4.126813051012111905e-02 4.051287972613955013e-01
5.383626999492851367e-02 5.153570916416718578e-02 4.785509787227002487e-01
1.137722657103708117e-03 2.151611727880202787e-02 4.093698452810120569e-01
5.688041034657118078e-02 1.889879129081346518e-02 4.639117622422919140e-01
4.489719061282349682e-02 6.660945394959318089e-02 4.550105640414555674e-01
4.084844232689339993e-02 5.494472898405147743e-02 4.434321647078103279e-01
2.896166413354772651e-02 3.833393749529311056e-02 4.331032581140306648e-01
5.758171960918237464e-02 5.116180685751751944e-04 4.840515190372849941e-01
4.931952285622361737e-02 5.580447657197363381e-02 4.875711854246855270e-01
3.213254403386718583e-02 -2.645487526137432072e-02 4.433101116901407845e-01
-5.736938829554647651e-03 3.199510796989180755e-02 4.064012495961175642e-01
-5.675963639541881274e-03 4.861758447504294089e-02 4.071490198608824773e-01
2.478725805513638455e-02 1.796883807169929667e-02 4.320195929632328902e-01
1.194826870375147176e-02 4.436231585673324623e-02 4.149070848499467612e-01
1.051259839280864472e-02 1.585275450127336672e-02 4.226826366867800222e-01
5.545498104600695560e-02 -1.389756091135299848e-03 5.067845846820540068e-01
4.770471202033603475e-02 7.593786038337038344e-03 5.117508410111405448e-01
5.221424553890929160e-02 5.531291254054972878e-02 4.762513652208665849e-01
1.140375055750949412e-02 -3.267310074774681938e-03 4.313008412965078087e-01
3.863300559422084418e-02 -1.656010977715400082e-02 4.447403532476285615e-01
-4.896845994896978534e-03 5.279132620177906174e-03 4.254327343016088836e-01
4.380647144116889963e-02 6.762447320750972213e-02 4.641982030822879302e-01
5.533021194934870796e-02 4.214012596592118208e-03 4.933499744792381181e-01
2.802677297241140675e-02 5.045078833136622254e-02 4.312502839460533033e-01
-1.152160445117086755e-02 2.607893530472938856e-02 4.126131813114358726e-01
2.028838010537241388e-02 2.107068622154021492e-02 4.278639500347990454e-01
1.074333179671646717e-02 3.609066441996599661e-03 4.303386828160482569e-01
2.956426339663918018e-02 3.747003835485997712e-03 4.365921338771902582e-01
-2.954421137545913071e-03 5.524690196504521839e-02 4.150291350678401714e-01
3.375623184645144825e-02 9.126406420735186376e-03 4.377377527433644055e-01
1.610653012946925908e-02 4.449673905937809315e-02 4.201949090611040716e-01
5.251705787196089825e-02 2.613528618593677008e-02 4.954723707202078886e-01
1.836126197045919936e-02 8.344375476738642716e-03 4.316348285516795613e-01
5.089591023530824765e-02 2.105360749481057295e-02 4.520593168692375596e-01
2.226541815338331509e-02 1.075844168242877374e-04 4.340320794025218643e-01
1.129082416485593238e-02 1.403433319281058994e-04 4.308102800189671511e-01
2.172322065866405874e-02 6.429398129764004460e-03 4.333075504669141598e-01
3.266138967604678006e-02 3.209430717910067427e-03 4.381781395036242754e-01
5.120001076253601763e-02 1.894859988002663663e-03 5.110393786875168098e-01
-2.265195906801263648e-02 4.650242013557611548e-02 4.147164540733188631e-01
-2.108982109918907180e-02 2.618675580809366396e-02 4.169662632809048031e-01
6.445671820471770425e-03 2.179689641004567413e-02 4.126167011062655265e-01
3.801773502694891921e-02 7.197202543494461702e-02 4.533475774011833659e-01
9.549409110765225139e-03 1.045199901441671783e-02 4.260729910487663918e-01
2.733792332693183585e-02 2.339468732516369540e-02 4.331161959947071871e-01
2.658916189677885261e-02 -2.576392795310650068e-03 4.355845634134503097e-01
2.928261948520569785e-02 6.585582583280122360e-02 4.470788815137382022e-01
5.674386722767170432e-02 8.982046910471660345e-03 4.823306291349993558e-01
-8.604371693412595987e-03 3.432170951375223406e-02 4.073260866453968787e-01
3.091942180676714516e-02 2.620101456365645301e-02 4.354794315383730963e-01
5.628130744711998951e-02 1.811564315313477988e-02 4.836503106842842681e-01
5.717730852229288563e-02 -5.164386429994354336e-03 5.030895081506023825e-01
5.614301256494432651e-02 3.836699821589005521e-02 4.826891857814573639e-01
-6.883660041036366792e-03 5.076203780859087772e-02 4.103052126882393291e-01
4.993419838096731928e-02 2.957579745931177354e-02 5.019761225597799692e-01
2.911310008644623151e-02 4.941991770771957115e-02 4.322719630415298719e-01
1.634805187749953023e-02 2.684675139007879421e-02 4.222788636194912959e-01
1.142516715034904221e-03 -1.299306774647768529e-03 4.297476761950450030e-01
-1.459054383430473043e-02 3.322811578036688474e-02 4.104165973245291754e-01
4.128247604254234315e-02 1.089940763566725132e-02 4.434046824144421972e-01
4.960668690871698761e-02 5.801268577829033629e-02 4.816744555894164614e-01
2.473826010619215032e-02 5.695468852413971411e-03 4.346477711401779409e-01
5.287433885784828536e-02 1.819450805773431719e-04 5.103662158536441673e-01
4.514964060084668274e-02 -2.325136228874663535e-02 4.561914399517673080e-01
3.720376830340020591e-02 6.503398653328851253e-02 4.458513341815585895e-01
5.067606368118562910e-02 -2.039676121014003321e-02 4.654735636182004699e-01
1.873544456894163032e-02 2.194958587056012114e-02 4.263585535722672071e-01
-3.375048327522958257e-03 2.087157330108776673e-02 4.102029046181224214e-01
2.174628350524770645e-02 6.213892100338845592e-02 4.388593272407065315e-01
3.852899130261757538e-02 6.436367762885172872e-02 4.453236793134373595e-01
5.439993301209475329e-02 4.695350888428723168e-02 4.826495172954671786e-01
4.564666647560713941e-02 8.566218315918444626e-03 4.472944769172948476e-01
4.750531429684133611e-02 2.398063499302973897e-02 5.064730316576856461e-01
-4.225744075165490526e-02 2.102947389632198877e-03 4.470424068210382962e-01
5.353527556809924842e-02 4.688635095838839667e-02 4.891331638090724021e-01
3.338312849154714129e-02 4.960125899209602562e-02 4.362282570745070753e-01
5.563421118690774908e-02 7.879135979462241132e-04 4.673701275928669463e-01
-2.723704172319112507e-02 1.384667430290804566e-02 4.277826456087268636e-01
4.736552894493848559e-02 9.613145013561764582e-03 5.107308480709018550e-01
5.571949755033118318e-02 2.151079248321726908e-02 4.864463324177103476e-01
5.720725066140513321e-02 1.163557978392021179e-02 4.755472518218807898e-01
5.327037067661127140e-02 2.415408905306058382e-02 4.545266411189233247e-01
3.837548985059648782e-02 7.854040231672375361e-03 4.411958470026159373e-01
3.781306391277838852e-02 2.695823461280261180e-02 4.402982169617308261e-01
1.152868249341912517e-02 -6.454647061906722792e-03 4.317656125394271349e-01
4.851765216234317502e-02 5.347743012822765707e-02 4.504984050533850093e-01
5.348520525015294791e-02 4.011164101845155622e-02 4.560657643563023611e-01
2.052474332087464090e-02 2.353572322948890502e-02 4.274934787932105351e-01
-3.250901219981240653e-02 1.663185463660728225e-02 4.294496763909372294e-01
2.014972303771287582e-02 4.520453521630280608e-02 4.245667729682380265e-01
7.134624828985558151e-03 5.906355443546437711e-02 4.181606608438828698e-01
-3.716834895451902321e-02 3.568809919954783402e-03 4.392077281238029318e-01
2.550373174388174957e-02 4.984523877952013599e-02 4.292728359914301239e-01
4.887750366733226159e-02 2.377001574516101473e-02 4.499367604207333282e-01
5.558616648271903771e-02 8.947385751114233718e-03 4.883858954988673506e-01
5.626875517384950093e-02 4.617260127976400945e-03 4.892523951092691004e-01
-3.414594883933451137e-03 2.699382171688571516e-02 4.063695733443448144e-01
5.686245265324745002e-02 6.328290282466133253e-03 4.839456545557888623e-01
4.402186348887499739e-02 3.225657186593911679e-02 5.131263585849415998e-01
5.428727520091233827e-02 4.632533274118857958e-02 4.846318495553103012e-01
1.136571450477172340e-02 5.647986658395309778e-02 4.192654641613371980e-01
2.617648442035960116e-03 2.724936724532036822e-02 4.015001088192918788e-01
3.415941631092423575e-02 9.467966164338386184e-04 4.391608307801379563e-01
3.401968940594411739e-02 -2.001013554034897918e-02 4.420804923896741734e-01
-2.350331376620292886e-05 -1.318317057519048478e-02 4.328575724755017728e-01
1.914808595930257706e-02 4.116888423557030913e-02 4.234935305783147363e-01
2.685520734677131899e-02 4.717612434680402977e-02 4.303873415960380311e-01
9.208250787103735777e-03 -1.467987653045818922e-02 4.351003282181090115e-01
5.078626017806071175e-02 5.689661147276982994e-02 4.789659227405065334e-01
-3.295983105777145622e-02 2.239749490868899601e-02 4.267607632850126675e-01
5.361470930831863796e-02 4.562165061474285355e-02 4.560478422797007436e-01
5.551567427312963966e-03 -9.307292291788178684e-03 4.319238243500562735e-01
5.352554876476984386e-02 5.417082108426481135e-02 4.699108124436946476e-01
-2.339942689110755675e-02 3.790418833817940647e-02 4.139117985098932362e-01
1.654147463341102374e-03 -1.152964543552885586e-02 4.320123468561790636e-01
5.492682211058926706e-02 -6.823883411760598913e-03 4.685951365147832948e-01
6.460299559464191196e-03 2.429184074239630967e-02 4.079113662014668407e-01
-2.251828787339513888e-03 1.965027206318534225e-02 4.113167593731776317e-01
3.195507893088841977e-02 1.357680646028376452e-02 4.368470042440996126e-01
-3.557992724774430848e-02 1.670910912852749397e-02 4.362124092048217938e-01
5.016625429375035083e-02 5.641704551302408228e-03 5.088225285355436611e-01
5.193432347463783350e-02 3.253956536854876042e-02 4.533232834897166774e-01
-1.924093207613127715e-02 4.512472372064646464e-02 4.113572026883461907e-01
-1.234149898716537484e-02 -3.981399248726475229e-03 4.309689826062070850e-01
-1.955704634667394110e-02 5.033154532169977630e-02 4.176203914700907238e-01
5.355409263413024590e-02 -1.262812936483956013e-03 5.113467808428097117e-01
5.664574709554801024e-02 3.457413182249900740e-02 4.836648389288910055e-01
2.906949433687856452e-02 2.842001752298250333e-02 4.340525505038776988e-01
8.496482809752139986e-03 2.824131802634031324e-02 4.071638891423359219e-01
-8.824581885340399695e-03 4.511771797140112089e-03 4.256306373552173339e-01
5.147355623071103725e-02 5.861497708723570343e-02 4.599206192043138741e-01
2.271895777678068981e-02 3.587594717707152762e-03 4.340348279608806648e-01
5.779309274851703732e-02 3.230966974197667374e-02 4.705451119318965758e-01
4.990213772820543264e-02 5.458085895692096207e-02 4.892504124480340777e-01
5.627324231385467945e-02 3.692662830291517512e-02 4.627621913715267987e-01
6.599834857503026654e-03 4.851216677184916337e-02 4.109083538512942058e-01
4.569865452091418506e-02 6.699416113663231309e-02 4.691598466224130570e-01
5.238017545101772421e-02 2.085444729474101450e-02 4.943484021675789153e-01
3.375576358347404105e-02 9.796312325659421033e-03 4.376258794410124442e-01
2.641583052877050780e-02 -5.479398757014241131e-03 4.354875687002310314e-01
4.563801830625557887e-02 6.071865909470206685e-02 4.845353791725792725e-01
4.804732779867149778e-02 1.566212509731604308e-02 5.050299287977959573e-01
-1.082686866141942782e-02 5.994279132432011464e-03 4.248221578798535569e-01
5.811854750465059866e-02 -3.042751824356564570e-03 4.828072995044951354e-01
5.789944904425318312e-02 2.955906476432546004e-02 4.703214647858003916e-01
-1.826355898501897182e-02 3.169877113617661918e-02 4.129420080435613483e-01
-4.705177713432190378e-02 -1.942954555715909045e-03 4.447220526830374943e-01
-4.765370556527709876e-03 -1.271420331691022754e-02 4.331738405538361758e-01
3.325629293189988345e-02 1.681380072944326301e-02 4.375640992664802109e-01
3.455529325399984975e-02 -2.267973877337327998e-02 4.435470705196407071e-01
-2.009339448082572699e-02 2.978207498214938131e-03 4.291805736679508709e-01
5.137052832633289684e-02 5.789946953183337103e-02 4.583137589142890489e-01
-2.057782555153073872e-03 5.372686545938950425e-02 4.118722067262978737e-01
3.156778572019582757e-02 4.527592044384386172e-02 4.348019431462864515e-01
-1.609519601750161039e-02 2.825886348923267039e-02 4.133978671291889673e-01
5.304815193971454401e-02 5.897480796004083044e-03 4.996899494613929460e-01
-1.541247632038850440e-03 2.508356446462611453e-02 4.055990111786283991e-01
-2.998985427998693276e-02 1.183970707110608075e-02 4.310713982962616209e-01
-2.457878468378121156e-02 -9.336658574195142671e-04 4.329828521608302672e-01
5.523278035009832748e-02 4.224343733491569414e-02 4.854247355482058102e-01
3.971656804159171689e-02 1.831112960599713332e-02 4.417321571075088493e-01
1.600493753057596544e-02 6.094332037856151074e-02 4.360221667866205353e-01
1.524355215527051569e-02 -1.234487681762518919e-02 4.339201292459399228e-01
1.151057769301902338e-02 1.450645378139719943e-02 4.245435180821190979e-01
5.878406288578012784e-02 -1.024167341567292291e-02 5.065714306076197770e-01
4.914860999562754157e-02 3.258665211802658918e-02 5.041887280570320762e-01
1.982643496320360757e-02 1.545735442747974038e-02 4.294703815816842130e-01
5.310998589671599851e-02 5.461845541838917378e-02 4.719953898569946293e-01
-8.099652544697029388e-03 -3.222132221895447277e-03 4.300946502088060508e-01
-2.068488224157136873e-02 3.866163970594356514e-02 4.117127762364465315e-01
4.515209618113987661e-02 4.446018193197005808e-02 4.461796000579738575e-01
5.672994697365490308e-02 3.087454008019935303e-03 4.711695373562541089e-01
-7.179294944839481087e-04 1.136326606950661608e-03 4.289688437517804598e-01
5.746834846056549789e-02 8.925229310484340730e-04 4.879060553965446356e-01
-1.601352039797186017e-02 2.682142446199110505e-02 4.141295170048384655e-01
2.170687094739044698e-02 4.010158648936959502e-03 4.336832496859169828e-01
2.181095559418136029e-02 -6.238043628989777337e-03 4.341235480879215292e-01
-3.076065309305308498e-02 2.802296580027159242e-02 4.227145509474777851e-01
1.583513029447860057e-02 1.994568039541045473e-02 4.242303093309631179e-01
5.736379690603268106e-02 -4.592705223121615679e-03 4.774314847541907270e-01
5.690630278307997475e-02 2.458575853097039188e-02 4.630351099086136846e-01
5.597441967170863064e-02 1.642955240995536484e-02 4.616181985985520764e-01
1.680078201990090406e-02 5.640376210648347099e-02 4.241484836164397532e-01
5.410822402689535737e-02 4.741655204884820396e-02 4.841313897021463086e-01
4.650588156929254952e-02 5.737942481977541254e-02 4.891796921322405511e-01
3.697290933192759477e-02 3.567117519048845775e-02 4.397136140007455452e-01
2.937064774640616577e-02 4.213755043955833002e-02 4.331031230869882842e-01
5.597281615074427980e-02 2.190898592719758842e-02 4.607055076918225578e-01
8.091906668596333951e-03 -9.728599576919029143e-03 4.323608360706195364e-01
4.303496584471134395e-02 -1.269973362817686940e-02 4.484669505975739656e-01
2.906197941601523782e-02 4.550908537253554875e-02 4.325425572954426645e-01
5.481491966108533592e-02 4.249347492080184086e-02 4.579170329540445117e-01
1.870481278423201388e-02 1.562187475284089119e-02 4.285875912888270078e-01
1.307990858578926725e-02 3.302011326387604279e-02 4.155128893986621552e-01
-6.329885074246078408e-03 -3.360824333354359410e-03 4.299995342529874254e-01
-3.551301288200412604e-02 3.598043701857204721e-03 4.373640013888404066e-01
5.225247785547047080e-02 5.154142730293932717e-02 4.863876125321271449e-01
5.660857798709014593e-02 1.554627825211065892e-02 4.642185902377464757e-01
3.245202612465549613e-02 5.570165722733908670e-02 4.361766541117693130e-01
-2.318918857769501803e-04 5.377926333294522770e-02 4.118400660899479426e-01
4.664291015124159140e-02 1.174343444392733117e-02 5.103122918603264502e-01
-2.860047734882013165e-02 1.793939820557952092e-02 4.252728636183348288e-01
5.492246101475532771e-02 3.419076247094764848e-02 4.579786325353538134e-01
-3.079129817148387044e-02 9.996626176116296669e-03 4.326006326207846864e-01
4.072631529225258923e-02 6.763570410803458610e-02 4.737415201673149667e-01
3.407898963037602619e-02 -9.534011486038301841e-03 4.399259166487695105e-01
5.233780961710712137e-02 1.906798530793345908e-02 4.945280023901065802e-01
4.219759768537986039e-02 6.988606531331492677e-02 4.535415734719242531e-01
5.491357869846861389e-02 3.278229441042639081e-02 4.914552726993028919e-01
5.396805338658414164e-02 5.312674312907545576e-02 4.653918928273978461e-01
3.020387621743752735e-02 2.304301700992065702e-02 4.350895969430351728e-01
-3.236617928307258807e-02 9.867249880021059308e-03 4.337948360485581745e-01
8.731326838334748167e-03 5.899299220946246231e-02 4.194509752164933269e-01
5.378048370438106435e-02 3.657617036531131405e-02 4.950133748460232574e-01
4.622025245797573706e-02 -8.371006767603319729e-03 4.518250192682191080e-01
-4.260391625991941100e-02 2.156869709326920612e-03 4.454851746920036604e-01
5.415705480509035163e-02 -6.518902659054855858e-03 4.667469929138181040e-01
-2.260704917043628373e-02 -7.275968288784787161e-04 4.321092515347075835e-01
1.811706429971121635e-02 1.095328537756706973e-02 4.303344939726478358e-01
-8.201486299460772171e-04 3.654041834143396256e-02 4.027686260462922663e-01
4.434440465821806732e-02 1.008556584568231530e-02 4.460571490587054155e-01
3.110122489726768746e-02 3.187894455949268069e-02 4.355041307456563593e-01
-1.217547958559637641e-02 2.774032074928418565e-02 4.119730823130607344e-01
5.515949620893147165e-02 -2.515345355924872468e-03 5.097748747946236891e-01
3.825539884759814047e-02 3.783387374611149601e-02 4.405289528085248318e-01
5.389395676802093138e-02 -1.528056094686427134e-02 4.707254145043145988e-01
-1.471376710345725057e-02 2.839204860521030507e-02 4.127471307729191907e-01
4.939617106597701812e-02 2.731684093454583503e-02 5.025709989049633730e-01
2.263261428388552154e-02 -5.776759201391855683e-03 4.343204422990065150e-01
5.515143565890227861e-02 4.838973619246021707e-02 4.736755536914895592e-01
4.330385290269598252e-03 -1.672619270988731296e-02 4.357926346562536191e-01
4.089079316970150452e-02 2.045314481327154335e-02 4.425082531968547728e-01
3.411819165767387280e-02 2.182496876244468392e-02 4.378863385715263679e-01
3.321592787243521361e-02 4.371853707371670117e-02 4.364015629770748861e-01
5.287218595899193657e-02 5.020507352939655374e-03 5.016435820363748244e-01
1.294237060231446038e-02 1.672842296242131946e-02 4.237221920404498077e-01
1.488661442388435237e-02 1.704554953675204224e-02 4.249851460879739418e-01
4.839758999500880232e-02 6.357864326881630668e-02 4.732206457401995636e-01
-8.991744722388478328e-05 4.361040232944647654e-02 4.060510100190597438e-01
3.567492598055980318e-02 2.502117471343344099e-02 4.388392104629398327e-01
-7.155773629322586919e-04 2.596080010309963996e-03 4.278511699808058011e-01
-6.148880686595453900e-03 -1.590586819198561500e-02 4.341537499220215479e-01
-1.972159554460421738e-02 4.141093421125286583e-02 4.103041202151015421e-01
-2.389822296457220011e-02 5.684479995482428355e-03 4.296288250788026786e-01
4.265193575242630375e-02 4.823112093378231074e-02 4.438960552794593006e-01
4.764777193876834627e-02 3.110777388739384419e-02 5.068105160726337211e-01
-1.047349111726188220e-02 1.560474659836364256e-02 4.188419477782243661e-01
4.126060268923210234e-02 7.012594795991593244e-02 4.595487078697733097e-01
-4.394674263995412139e-02 1.269488665977310015e-03 4.460124306007670625e-01
4.914790146336888571e-02 -1.822727222379788743e-03 5.180585118113175680e-01
4.742752825477770245e-02 4.450293154872213969e-02 4.486334561786216590e-01
-4.248357775174615297e-02 -9.557220995139829867e-04 4.410090009596093208e-01
5.264983532586985787e-02 5.579179500430753169e-02 4.592500619246291382e-01
5.785588496591720364e-02 -4.137157373954199885e-03 4.806583305388815730e-01
3.373701009902560499e-02 1.562773089980047225e-03 4.388861908822634939e-01
-2.180565818962170582e-02 4.605206478595248037e-02 4.135838055510902000e-01
5.324771234009458704e-02 4.940872094942325501e-04 4.603275678289928119e-01
5.138101882740668536e-02 3.478003968592396217e-02 4.999887993287865373e-01
4.505537050462732340e-02 3.536966081545322299e-02 4.462001718511319770e-01
-1.983553076366237431e-03 2.643819829124492010e-02 4.051877103944590552e-01
3.195940149419044390e-02 -2.901233486090608327e-03 4.381030001452320133e-01
4.133957549958963695e-02 6.788014119880851627e-02 4.691476430044291268e-01
5.638125389861093489e-02 4.017045886933482551e-02 4.767001843360809121e-01
1.454205545277573869e-02 2.358224605623428227e-02 4.219436940666950742e-01
-2.629691831506407104e-02 1.011372301071303617e-02 4.292104598615821276e-01
4.991958525990623785e-02 5.805200971408723543e-02 4.548327097202741753e-01
4.111789389898915480e-03 -1.088080980212946004e-02 4.321624866100331475e-01
5.074946222401677254e-02 -8.882612180964793297e-03 4.603144649413506428e-01
3.203557339880543087e-02 -9.487618328457920330e-03 4.384795047352744723e-01
-2.478963367785373684e-02 3.862061915695123165e-02 4.154977457280127906e-01
-4.334002384465252683e-02 -3.115898142747803353e-04 4.413675197187699739e-01
4.680276080891911106e-02 -2.208336562944506962e-02 4.584545710276232700e-01
-1.655993430186924326e-02 3.212092313787125175e-02 4.117792287385597105e-01
7.218734560741635504e-03 2.631160286972330023e-02 4.058303976476545505e-01
-1.244561751342628149e-02 3.802210570423374125e-02 4.078609391929817751e-01
5.495704252932161887e-02 2.889135102537585681e-02 4.909920327379789229e-01
2.900463382863227926e-03 1.557826728665359303e-02 4.183949639182137914e-01
5.654709093600489289e-02 4.155393774167350646e-02 4.668730430617081817e-01
5.009337043098630038e-02 5.643926288004239011e-02 4.536385274547919400e-01
5.238993916712379045e-02 1.778837194645031122e-02 4.540532169719984079e-01
5.512430189804808783e-02 4.409796368438040348e-02 4.814560867636967223e-01
1.633705908659752182e-02 2.205779285853712302e-02 4.241179312601267570e-01
5.568338946358077080e-02 -4.017449815099368403e-03 5.108489025338112111e-01
1.217012609823301360e-02 -7.865061195690595253e-03 4.322284463588777492e-01
1.029296996600904436e-02 2.592156329398854347e-02 4.139861158666575114e-01
5.007805167531160367e-02 5.935358368383121530e-02 4.761631295516451923e-01
5.375419881596740779e-02 4.081538118569518619e-02 4.563923663690216959e-01
1.861115896732547931e-02 3.089907921155773951e-02 4.238583921829149337e-01
5.750311302616062381e-02 2.697761448701365902e-02 4.797916381258098828e-01
5.192883213707805146e-02 2.408194288491359580e-02 4.530778972720053144e-01
4.757307589789098318e-02 2.490322338093484827e-02 5.064428310700102021e-01
1.852417345389877068e-02 3.762491968551263943e-02 4.233529509031289662e-01
-3.171504460085645960e-02 1.704913953514869754e-02 4.282965145397591433e-01
4.366770267287344715e-02 5.035319702542753045e-02 4.449693637066783336e-01
2.798119702333341785e-02 6.531999495822711499e-02 4.444891502988584375e-01
2.974493545824927199e-02 2.657612096191717260e-02 4.346061287099007853e-01
4.149149788429901120e-02 6.111574020753495623e-02 4.456132893072353163e-01
5.762754764046124079e-02 2.160448723974626659e-02 4.706886901138879753e-01
6.581357998717885655e-03 5.231763442070092029e-02 4.124986437345315449e-01
2.442758977360382985e-02 6.214823647569540227e-02 4.383043039996621926e-01
4.670473619871529092e-02 6.611758153366162349e-02 4.711722654426530599e-01
5.150148107162792060e-02 3.961777821773153352e-02 4.532829342603750256e-01
5.679574354970575584e-02 1.708469541168524536e-02 4.809511725279964622e-01
5.711481205306848108e-02 -5.367977186915905835e-03 5.054323832528043736e-01
-7.613739267283483117e-03 2.302280078599526145e-02 4.117576355439925839e-01
4.757391466239730554e-02 1.686981146419112149e-02 5.058636649565270149e-01
4.464505789708523090e-03 5.812225741985903131e-04 4.296148826396852805e-01
5.704067484261141074e-02 8.368822008700345719e-03 4.812695419272008390e-01
-2.241720815243372980e-02 4.761420909667293810e-02 4.163214359462509839e-01
3.816667840249808596e-02 2.573611882531305281e-02 4.405422428656707301e-01
5.059118968779108619e-03 4.550232193929353020e-03 4.282180041386836611e-01
3.494212732961059220e-02 -1.142982660633230438e-02 4.407878926226918015e-01
9.785263069166376393e-03 2.511832795047784853e-02 4.143175376178180325e-01
-2.318102383781827161e-02 4.217988470147546881e-02 4.139058473930186666e-01
2.777775473882541230e-02 4.758970553032958878e-02 4.312102998825744216e-01
5.249670363487816960e-02 5.691001995502827093e-02 4.688102550420656933e-01
5.629727447846066823e-02 4.139051844640091044e-02 4.754315267984237647e-01
2.031326074546615373e-02 6.060514569757697451e-02 4.352326046061234521e-01
7.976522386534233219e-03 2.189727956704650910e-02 4.145794610497557930e-01
5.646453044073036082e-02 3.143257351829871482e-02 4.617431877710452826e-01
3.572897254351317664e-02 3.029320033959923691e-02 4.388122956003038255e-01
-2.150723422462037793e-02 1.739319191760208645e-03 4.303885950777081026e-01
1.592020693304437365e-02 1.570686489353864679e-02 4.266952957924721179e-01
4.265819935373812988e-02 -1.853738529575973959e-02 4.495643483571151178e-01
5.806874717064147012e-02 -6.521082901320717808e-03 4.866974185203586378e-01
-1.462543247577479354e-02 1.236000330869405084e-02 4.219740922539855776e-01
5.716995099740075637e-02 1.097280459329796551e-02 4.762640998547634230e-01
4.453111986929948057e-02 4.872546839865783685e-02 5.094579472026200540e-01
1.261951392997624072e-02 5.543791872067050513e-02 4.191881967038634249e-01
5.320751238662627808e-02 5.150501746152168214e-02 4.824764469695544400e-01
-9.428837117271578541e-03 3.145975799636503353e-03 4.269374465169294419e-01
3.442681992385796669e-02 5.046502627988332795e-02 4.371267322505741348e-01
5.020204465385380566e-02 3.533923845978175632e-02 5.024858728481057524e-01
-1.723856356369052323e-02 1.481090620763680400e-02 4.215997881154844862e-01
5.690809188233938998e-02 -1.040196474778941338e-02 4.799683341476888021e-01
1.587910981165137000e-02 6.124912041687954889e-02 4.370602344011372264e-01
5.635074518310962538e-02 1.747109483209420555e-02 4.832940926738048537e-01
3.346209831877520330e-02 -2.308930138509598159e-03 4.389714128421839945e-01
-1.009339408462896909e-02 2.257682485204628997e-02 4.139113747812349087e-01
-1.186009998157128847e-02 2.628271844617624878e-02 4.126624219083194767e-01
-8.677599821519447337e-03 3.122600719389106994e-02 4.085485076231564761e-01
4.860796953022644001e-02 6.279119846837014074e-02 4.569850734635050316e-01
2.915978750147128415e-02 8.593162943884248214e-03 4.359489730271527974e-01
-8.472786669479930640e-04 -1.486668293284353765e-02 4.338258405990784161e-01
4.237842259235147235e-02 5.308839135768055745e-02 4.444061106486202339e-01
-1.401777619626770957e-02 9.226836212771986206e-03 4.236691606159018186e-01
3.277770152580684881e-02 5.912545318237028696e-02 4.385242468513961822e-01
5.423259467787600041e-02 3.962085500090808954e-02 4.929920716603293229e-01
1.675268033806546000e-02 3.473823957771811355e-02 4.215050993501061605e-01
