-1.965397996241351891e-02 2.669464459837078349e-02 4.159417384819402153e-01
3.523689994300258782e-02 4.781862637934945065e-02 4.378820557838222216e-01
1.557991238983936350e-02 2.522689043780137336e-02 4.222896671724848394e-01
5.235854456725825418e-02 5.357869795664824131e-02 4.815362173576567817e-01
5.460715230407496568e-02 4.493767385809496751e-02 4.574879714532752439e-01
5.053782138898997578e-02 1.015247247372195669e-02 5.018838639154429293e-01
5.586446524535301078e-02 3.691862993663880960e-02 4.612251305519771694e-01
2.235721488905565227e-02 3.046601450621063897e-02 4.278920091430385431e-01
4.494983861593522534e-02 6.063017297636350000e-02 4.484558512712529810e-01
4.746843751347018525e-02 5.626580963851044587e-02 4.901117538494753068e-01
7.831864104417480751e-03 3.672243065030020986e-02 4.079156979124183291e-01
-3.291415159570649368e-02 1.177694116924492100e-02 4.340192091769916605e-01
4.771518794200354380e-02 -1.042656797713317415e-02 4.548165237750281253e-01
-1.140272149845061520e-02 8.204959010429955027e-03 4.236609747486407840e-01
5.293450919089131429e-02 3.390595378899769613e-02 4.966839032060839099e-01
5.092708174037641894e-02 -1.682329196820939177e-02 4.647246554230297089e-01
4.202400824872480622e-02 -6.009552414623052508e-03 4.461952931225757757e-01
5.168529786064039733e-02 1.804264836931464971e-02 4.532432000121791038e-01
4.722628512848935783e-02 5.241184050358047714e-02 4.488077040427382314e-01
-2.237302753506930850e-02 3.948551242004243178e-02 4.128507217060533030e-01
4.515362069782008492e-02 3.627045402494854381e-02 5.112714919669203439e-01
3.455330230686315396e-02 5.760969642687439884e-02 4.388988381165642716e-01
3.765819751532574478e-02 -2.272253515229832183e-02 4.461888099063138213e-01
5.930091592407329970e-02 -1.205683743160628277e-02 5.091547172260024734e-01
-1.139553550113195368e-02 1.144509423098348608e-03 4.289110293882215097e-01
4.882785768789352221e-02 2.230913844138564597e-02 4.499016780781475155e-01
4.996565848749922462e-03 4.197919182356009415e-02 4.065423812770591616e-01
5.332764886978273028e-02 5.235106312393971589e-02 4.801558366089570540e-01
3.703503174933105158e-02 4.067368789343431268e-02 4.395133158138296858e-01
2.879595920464408584e-02 3.164085107225179244e-02 4.335974445721609283e-01
3.944888739514740283e-02 -1.196542777157584905e-02 4.444145485177684596e-01
5.473605189946354616e-02 2.044491099935971667e-02 4.883005693632642141e-01
4.640114580616543777e-02 4.577645643787342858e-03 4.484686797981510264e-01
4.878925328314093202e-02 4.074497254435404878e-03 4.509818324556617020e-01
7.784475480798858961e-03 5.148448918753721626e-02 4.128641418951883857e-01
-5.449734778046991766e-03 -1.509742506687874672e-02 4.338539814810886686e-01
5.311561843464773780e-02 5.780037952273918596e-03 4.996197203262981446e-01
5.653321800185574092e-02 4.109327673742115689e-02 4.734541994942805809e-01
-1.274835345051316890e-02 2.258103436313926501e-02 4.150575397797700572e-01
-2.785509703350751848e-02 1.047901304509225168e-02 4.301942023921607183e-01
2.732537084672824468e-04 4.421251771243064205e-02 4.061334058656341228e-01
4.863875990492832341e-02 4.301283465597368488e-02 4.499882045712768619e-01
4.412308246614778107e-02 2.621696574054904055e-02 4.452666263843975125e-01
-1.290040416191636299e-02 3.810851413195309040e-02 4.080636731486348423e-01
-1.876028016173494559e-02 2.563254220216578533e-02 4.159489560966897481e-01
4.510448147562361870e-02 4.737115624801462033e-02 4.461287742656036004e-01
-4.102766875981698081e-04 5.248403700314963755e-02 4.095468176640226776e-01
2.720164429719874530e-02 3.473476779842334106e-02 4.319123123807415698e-01
-3.438871103050982619e-02 1.847226803245509766e-02 4.322787738332711793e-01
5.161333801834028928e-02 5.154546369101740966e-02 4.886438551582841239e-01
4.851006550886854951e-02 3.452355103494707256e-02 5.053542718547128221e-01
-3.983051908909084754e-03 1.044357723345062765e-02 4.217311637651676159e-01
4.743945096211554802e-02 2.488859981762781004e-02 5.066935249878504743e-01
4.817498281858053483e-02 3.004543169539306002e-02 4.491473472417610857e-01
5.343018285129703254e-02 3.154354399156446276e-02 4.552944465799591001e-01
5.738366808084090220e-02 1.747641290884118653e-02 4.703067033631871396e-01
4.408707195084007879e-02 2.965374428611921437e-02 4.452857047058405571e-01
-1.731626546573781372e-02 1.647863686412638987e-02 4.206300803278250622e-01
8.804403423044476762e-03 4.687155856148095961e-02 4.117525087968479380e-01
4.332310699139593074e-02 6.575467982889937613e-02 4.507294527247758809e-01
2.648784757700744542e-03 8.177407812046854491e-03 4.249520295462169694e-01
3.294959227185017409e-02 6.441392764819105221e-02 4.431580864681257670e-01
3.625136697521891965e-02 2.117657645154966996e-03 4.404777497211220805e-01
5.634907379899486285e-02 -9.707230826100483878e-03 4.766550109630552368e-01
3.182875783748546211e-02 1.995594423402771711e-02 4.363706595834310198e-01
3.369052673155442656e-02 6.674989749505472192e-02 4.471609835974246216e-01
5.539894482722594604e-02 3.029663661593151591e-02 4.891952480909672607e-01
5.474184484305025938e-02 1.009398912898813380e-02 4.904249474562669131e-01
4.224306378093804770e-02 5.106165551382876172e-02 4.438128080504101236e-01
4.301093818784587630e-02 -1.556660293362127287e-02 4.490851804925714008e-01
3.346831589179252719e-02 -3.979865474759293476e-03 4.390369012234068280e-01
1.497412274809547736e-02 3.838017858988837516e-02 4.194209593043609630e-01
-2.595238277953045708e-02 2.024195107472277072e-02 4.222855749086875110e-01
4.367278695406386080e-02 6.874292069539815475e-02 4.590467043896254706e-01
2.738151388672085962e-02 3.510545888490071344e-03 4.356514899147422293e-01
1.584213719608478996e-02 -1.335241454397163852e-02 4.345440771842590255e-01
4.829136321893576396e-03 3.827321576810175513e-02 4.044943803671593452e-01
5.617973513384544315e-02 3.969200030602045709e-02 4.631070429363348118e-01
5.428231173716623753e-02 7.958180751832176839e-03 4.933359332863410107e-01
-7.359795746872924323e-03 -1.922924270405648728e-03 4.296612112608279022e-01
-2.875317971601087236e-02 1.032486411953229336e-02 4.309567424802012714e-01
5.680455763563411337e-02 -5.923574866322967383e-03 5.105890094363487730e-01
-1.369527229460703634e-02 1.463572612937250744e-02 4.202958373409669823e-01
9.307807155885000627e-03 3.087907139944164048e-02 4.068132490666936385e-01
-2.508254282258800053e-02 3.227061438396464088e-02 4.167050744739366763e-01
5.817779515878021557e-02 -7.178981883348117821e-03 4.896783060980606783e-01
3.567451394102854473e-02 6.202327641538560310e-02 4.421678509143987523e-01
5.786730607181914121e-02 -8.149866036871069100e-03 4.860621721172546095e-01
5.390557822350824924e-02 2.632166497818945808e-02 4.925166447082667820e-01
1.327765971884474483e-02 1.092124933600064664e-02 4.278635767804013224e-01
-2.812353620820472536e-02 1.908254834477769724e-02 4.243183285927943360e-01
1.337837835072238669e-02 3.553354508997881578e-02 4.162466802777244901e-01
1.420538026393296932e-02 -1.094752610720671655e-02 4.333832488033936281e-01
-9.534716679955281687e-03 -8.479393213446640570e-03 4.324739076016796968e-01
9.171018117355737506e-03 4.290836073286223573e-02 4.106640310466967980e-01
5.178284005508932558e-02 -1.357599476042706949e-02 4.652033017744182652e-01
5.182477278036659585e-02 2.171897685783361065e-02 4.956327229396089717e-01
3.148423769637398451e-02 9.072743440283917264e-04 4.378341193349715166e-01
-2.418099608258139979e-02 4.631715822739120025e-02 4.160345467015954535e-01
2.348936893421304378e-02 -2.365256572124537285e-02 4.380079956378030714e-01
5.772386185081074955e-02 -4.911416359933865744e-03 4.958197436881143783e-01
5.188791917220310357e-02 -1.376306425943311755e-02 4.655369116114199124e-01
4.561242339577258748e-02 1.368637942672658314e-02 4.468773455787474758e-01
5.679159367790880680e-02 2.312390254156442004e-02 4.628449323357877732e-01
5.051341926247463615e-02 6.202362379087266592e-02 4.667469551442517961e-01
5.875126327498247925e-02 -1.005408871088598645e-02 5.056911769316173588e-01
8.451712729648619415e-03 2.456721176696112507e-02 4.124463666593731759e-01
1.345665419775967341e-02 -1.436764792831007886e-02 4.351314557637640523e-01
5.768192598997548548e-02 -2.046685899890999302e-03 4.783369225469665253e-01
-3.275222186750961859e-03 5.333658932941153646e-02 4.115409174857301844e-01
5.715943217997437875e-02 1.080514876831884484e-02 4.758092923734145163e-01
-1.808931667674783250e-02 2.775394112822708592e-02 4.145891793474842379e-01
-9.436398774260508493e-03 2.643708932527377709e-02 4.114065982543098632e-01
4.738290996544979039e-02 5.810980428731422898e-02 4.503115815402637945e-01
-2.328250128799684571e-02 2.194598292520221622e-02 4.199808215862706473e-01
5.503027514297696016e-02 3.581509912667731055e-02 4.912165567293007018e-01
2.660966278624467968e-02 6.052571065631917602e-02 4.351597004855547457e-01
-2.189851993291500043e-02 3.891399737530124026e-02 4.123118509107658869e-01
-2.239619349878425869e-02 7.614236156875883732e-05 4.316338838484791163e-01
5.467903942899655922e-02 6.751711832298296773e-03 4.614728578536619330e-01
-1.180745084372749470e-02 4.097581044246104143e-02 4.077159136386468430e-01
-7.055230242829237629e-03 -1.474330846771037401e-02 4.340432707584067629e-01
2.921985116306867122e-02 5.096489513438991203e-02 4.322966718046838963e-01
-1.473566162303661248e-02 4.450910106109456921e-02 4.088309851762029767e-01
4.882220623054435438e-02 -1.375271785955663531e-02 4.586066642476964716e-01
4.273983111942936119e-02 -1.097815964343570524e-02 4.477374392120544444e-01
4.785083872869758115e-02 6.210177238095578034e-02 4.539586992409416766e-01
4.495130089259828654e-02 -2.364183205520270503e-02 4.561929970655530520e-01
5.315805775548906875e-02 3.793348423904719519e-02 4.555959682027718172e-01
-5.922943203952842420e-03 2.237744495459864300e-02 4.110428815109927192e-01
1.717790468444942847e-02 3.947523059853364630e-02 4.216189680218073166e-01
4.751706984041772358e-02 6.216446913801832418e-03 4.491644193213077951e-01
5.613379383072399087e-02 2.444602420392702827e-02 4.860667780499541846e-01
3.800699355396934542e-02 -2.704069289550759328e-02 4.487772121662369496e-01
5.479695521601727487e-02 3.930005670718797472e-02 4.907952107957675447e-01
4.281931854300827234e-02 1.758053613666826775e-02 4.442247876797365547e-01
4.716957946719326639e-02 5.785643548483895837e-02 4.868796140394670013e-01
5.054784284470001388e-02 2.214483267458161597e-02 4.987396068259114523e-01
4.312922930758682216e-03 2.285185105261965804e-02 4.081588775827015847e-01
4.802037201299083624e-02 7.640196546486953053e-03 4.494973194524602422e-01
2.457562800130894815e-02 -8.300349858278157147e-03 4.352290569703146650e-01
1.137942798505294645e-02 1.332949110945584603e-02 4.254896018519774836e-01
-2.248347005036963747e-02 2.246684249240871178e-02 4.193331033472861846e-01
-9.512495255245282527e-03 2.766364240150742324e-02 4.107311309044751613e-01
-1.489743789690098352e-02 4.238919091896013042e-02 4.087393604793038149e-01
-2.833086010787187053e-02 -2.514962737406183351e-03 4.352248260496611731e-01
3.797609066016036788e-02 7.189996334362074026e-02 4.526612782311601468e-01
4.323557888233264118e-02 -1.369492911783137985e-02 4.489072155235639405e-01
4.971341423649965063e-02 4.071192869110701329e-02 5.034262638679012358e-01
-2.783969272378267190e-02 2.026123543472320085e-02 4.234747926500694870e-01
-2.971232178571897586e-02 1.425170234767658781e-04 4.344591333241726860e-01
7.484003500825824745e-03 2.662706713118351276e-02 4.061913120122258025e-01
3.654074976585106049e-02 5.558081221233331787e-02 4.398292648033607644e-01
1.261010308269775934e-03 -9.300435376519491926e-03 4.314452004872645352e-01
2.059432064288091793e-02 -1.618769193595785694e-02 4.358620268952855814e-01
4.281613780878888720e-02 4.202376126467611411e-02 4.439589815246894888e-01
5.340203397545648101e-02 2.560821250953791706e-02 4.933385043716849161e-01
5.459977695918358243e-02 -5.165904036886118100e-03 5.140744801910284156e-01
-2.301044215128656562e-02 4.358698491646296417e-04 4.316863920075414418e-01
2.671162938888736044e-02 -4.688203403511463120e-03 4.355451988411545572e-01
3.819082714612351270e-02 3.854979631675297530e-02 4.404450473430511770e-01
4.259042752314809444e-02 -2.008116313875154407e-02 4.501988647447536795e-01
4.025415450180637456e-02 4.671449603354768665e-02 4.418918186936478532e-01
5.707211312570223405e-02 1.340417983911033027e-02 4.681418340028453140e-01
4.521182466723306509e-02 6.623588186096431019e-02 4.752098282431454490e-01
1.773014119594415114e-02 -7.344260180155872883e-03 4.331757499477336681e-01
5.610575193945634837e-02 8.358576706435635190e-03 4.868670364956763086e-01
5.115382505026627030e-02 -3.946568458651211753e-03 4.578394553517075027e-01
4.624426656529344315e-02 -6.817968961672070741e-03 4.513721338713986286e-01
5.728634795407863689e-02 2.133889620949097621e-02 4.789392052208609751e-01
4.988053762298232108e-02 6.101136747360646345e-02 4.728120816301424334e-01
3.676940850660288113e-02 2.141005466937166701e-02 4.395305330403271871e-01
5.602175098559791094e-02 3.784987021309759586e-03 4.908557668522349204e-01
5.036522087424770422e-02 6.110078724080696827e-02 4.697986044154024432e-01
5.412653286743609321e-02 4.464063543659730487e-02 4.893021603620844595e-01
1.694529484269437572e-02 6.027865443338795842e-02 4.331647380723231411e-01
3.333927638243981695e-02 -1.203253625115999724e-02 4.396488111363303641e-01
-1.975973763818392182e-02 6.168854829862660885e-03 4.271731708444758135e-01
5.407054911276364118e-02 2.953892512574742696e-03 5.010267440565709940e-01
3.172431604926055637e-02 3.794315728863629361e-02 4.355621452400179616e-01
3.165077092642455681e-02 3.493711147976769765e-02 4.357501767231763967e-01
-2.719264548419879704e-03 2.726077984786606789e-02 4.055119763934779131e-01
3.030038112033171457e-02 2.995069953798925114e-02 4.348971788371424063e-01
-1.879683851375123227e-02 -2.724419722231730644e-04 4.307894228642725754e-01
-1.391798399271844400e-02 2.352308456798277506e-02 4.150351789421258264e-01
1.752257533711571238e-02 4.233301273274435450e-02 4.215538051830102217e-01
2.997432732112033024e-02 -1.535837921409517574e-02 4.385188320498066838e-01
5.087548987974082476e-02 2.595113145177804781e-02 4.990247503854482458e-01
5.534701861202378365e-02 4.493303240064315529e-02 4.784522296893503057e-01
1.552175575485083628e-02 1.963919241400247616e-03 4.318276157936997151e-01
3.586229506605440043e-02 -3.033964330150457078e-02 4.485400345842097680e-01
4.980949030537456385e-02 4.918490354435182954e-02 4.513993840635105448e-01
5.148326177440599311e-02 2.981292187081679285e-02 4.526160438179015477e-01
1.668222427351562925e-02 5.979058334705594779e-02 4.298522287214360804e-01
5.531718124214340254e-02 4.550806259540135512e-02 4.777251154668849531e-01
4.599427028484962682e-02 2.729810312548591744e-02 5.099951219058533880e-01
5.201206067565188051e-02 2.841930143111144613e-02 4.973354952922736660e-01
1.456995480400253770e-02 2.265273611731929287e-02 4.223423710304669010e-01
3.541048761614714463e-02 3.993186118337266333e-02 4.383250733024557366e-01
4.683054877199158139e-02 6.596805871112151887e-02 4.724193932049229327e-01
8.369401964583631989e-03 2.565077897830370102e-02 4.101730532814475971e-01
2.789822188810672354e-03 1.062229496946504904e-02 4.229463950268976258e-01
5.338231136515160513e-02 -1.264203860407287459e-02 4.681942520529012164e-01
6.538962071659657968e-03 5.554978532668009700e-02 4.152974742575213374e-01
4.599029230144811853e-02 6.735724028796440110e-02 4.644398717717053149e-01
-1.694292703279680692e-02 -7.742617633680433029e-05 4.303922208520512549e-01
1.650907487306977825e-04 4.459683929928032198e-02 4.061843488563511295e-01
8.277274745489478572e-03 4.060740592432640628e-02 4.088863341939849017e-01
5.828170816948348432e-02 -1.235762950787217158e-02 4.871781438992095481e-01
4.526350837958923595e-02 4.738037097712244350e-02 4.462864786330667521e-01
5.156359800054843151e-02 -7.576420561473932828e-03 4.613763039163442659e-01
-1.463302596518978489e-02 4.244785848755354418e-02 4.086580949779128891e-01
3.864469906588932115e-03 4.103504746122794630e-03 4.281083845779251607e-01
4.523297470443587293e-02 6.632214554648319105e-02 4.750065618964333658e-01
4.999071281089673829e-02 4.882595073922020579e-02 4.516044815678941782e-01
9.126510971613432943e-03 4.458797927502058250e-02 4.111978039866688306e-01
2.782378017904500039e-02 -1.750786663570896504e-02 4.382440906363302968e-01
4.269171865345153943e-02 -2.229334806959602094e-02 4.522726296890768327e-01
-3.227653749161337599e-02 7.112139270425723442e-03 4.348900862739598083e-01
5.599264771441185562e-02 4.202385926577995728e-02 4.774662457023713391e-01
-3.134035593230846684e-02 3.796119000045781663e-03 4.342377804575766609e-01
4.628362110194935569e-02 2.330270093044885943e-02 4.473767744509463684e-01
-1.280638517451783420e-02 4.082489957318817531e-02 4.079819473425569387e-01
-1.739808822345881301e-03 1.822859495301768287e-02 4.137856902984783369e-01
-3.377169246001745367e-02 1.219618067112719986e-02 4.354423634480004135e-01
5.398728148870108462e-02 -1.810800804159932650e-02 4.723026679799977035e-01
-1.734982670406385458e-02 5.227322548705636007e-05 4.303860374231487373e-01
2.433707709919813791e-02 -1.604546566055310361e-02 4.367663192816616524e-01
4.939536690687153231e-02 4.006835897462017460e-02 4.507537588871430856e-01
-2.050946539219838244e-02 3.434420746501890692e-02 4.132023103029339728e-01
5.462480646236998055e-02 1.455992246464444737e-02 4.582516987428406074e-01
4.336100529381272523e-02 6.806091366734666470e-02 4.530192841546997196e-01
4.127308459795792778e-02 6.769084957099537336e-02 4.711404137688374183e-01
-6.768100254349238704e-03 2.215716165770999224e-02 4.119423323746561061e-01
5.711706703232859866e-02 2.562406087064400886e-02 4.824428398333694412e-01
2.647242291555469695e-02 6.501224713859715676e-02 4.482454956839286853e-01
5.707274249378231634e-02 4.188051817642133396e-04 4.905845173640717150e-01
-1.150964503587893241e-02 4.400721855006910210e-02 4.078206459122566407e-01
9.173480551177375791e-03 6.121683177846229396e-02 4.277472618187931896e-01
5.196742439575139511e-02 -3.096055215558689289e-03 5.153672913011935197e-01
-3.532731346449205501e-02 1.683685463950342423e-02 4.356062345932594781e-01
4.884102901989897244e-02 1.720537046379604085e-02 5.026522969434430443e-01
4.719169747152566347e-02 4.779057182398172704e-04 4.501846557126917281e-01
4.397694658707960308e-02 -4.239767805308039192e-03 4.478169577681999081e-01
-1.988926482313859920e-02 1.020149057359822677e-02 4.252171994991497672e-01
4.988793649214421505e-02 7.554211666256332135e-03 4.514162878964228520e-01
3.300509107779008022e-02 6.110734717377698522e-02 4.397436938956079677e-01
5.154228855666660725e-02 1.228583345637843539e-03 5.114129035044816529e-01
-9.844862071651902524e-03 5.331240567377222572e-02 4.139984509146233393e-01
3.499344995531025043e-02 4.853447360456666221e-02 4.376484985891270774e-01
4.788341403635545251e-02 2.945749667956648870e-03 4.503126181566418640e-01
4.711260379527121289e-02 2.906047961563352090e-03 5.170532960374120135e-01
2.739620395547802401e-02 3.035620326528323462e-02 4.326062996085398571e-01
-3.471458356847414300e-02 2.221671666660695460e-02 4.296918613914397223e-01
5.353037732671407645e-02 -6.779519320987219787e-04 5.104024721811660781e-01
4.866444669537673545e-02 2.671985749364851059e-02 5.041781095283038860e-01
3.303915714428887901e-02 5.719566703152297732e-02 4.374754399048131348e-01
2.046338748197900140e-02 4.746768734377648791e-02 4.249618596704717310e-01
1.832924162062562687e-03 4.713378341989122450e-02 4.070743127452635668e-01
4.753404735888212829e-02 1.078510022660519917e-03 5.180668016947728161e-01
1.059124462645900759e-02 1.703816886288848920e-02 4.218384838160142425e-01
5.734360861057465064e-02 -4.672403346864167917e-03 4.774570425586344147e-01
5.076444879457896187e-02 2.971557931447713075e-02 4.517908963993483851e-01
1.446427921413554092e-02 2.275621422417485606e-02 4.222196739320020487e-01
-3.186698214683389430e-02 1.132938136190896929e-02 4.327678433965040372e-01
4.823060660606762196e-02 6.380122602894329475e-02 4.733627055371283920e-01
5.174911979061645739e-02 1.462459925233411222e-02 4.958214196978149024e-01
5.685874467386596576e-02 3.901671089517486785e-02 4.736449060256667232e-01
4.726518951933951496e-02 6.454991358191820849e-02 4.748984191107621933e-01
-1.030988747863812588e-02 9.858883156963206898e-03 4.224510170411838184e-01
4.625596063559323651e-02 -2.165553270166480429e-02 4.569492751230147531e-01
-1.903423533270778151e-02 2.277125281190426134e-02 4.176233103736985974e-01
7.972402389553049501e-03 5.981306183288136180e-02 4.207690192809924734e-01
5.079191658835163770e-02 3.073725040654045823e-02 5.004434796931126472e-01
5.566190447306956085e-02 9.967624043273696707e-03 4.630127303623026158e-01
4.043467329819715184e-02 3.317847433571646798e-02 4.422945511834489585e-01
9.477835006429645437e-03 3.382376619778567489e-02 4.063221918193255511e-01
2.854669450932905903e-02 6.595087963646106832e-02 4.498258713556456678e-01
5.216493455299109350e-02 5.524777576774330540e-02 4.766689088102615823e-01
5.396515564797578490e-02 4.106807503262328157e-02 4.934856746765715063e-01
2.695195795859580551e-02 6.444270388643509595e-02 4.411828316603997324e-01
-1.669881939602431767e-02 2.114915010888082994e-02 4.175209069906596904e-01
1.884932525529902769e-03 3.531456991991292760e-02 4.014927661430173211e-01
5.742283205277055186e-02 3.331524631114114298e-03 4.780512009105093441e-01
5.636425938609858355e-02 3.210982544225519496e-03 4.694531861737297751e-01
2.286054979325946937e-02 -2.945256999827724348e-03 4.341446954681345005e-01
-7.675781313539864655e-03 4.352807358172218651e-03 4.258502854249613390e-01
3.376494025451507938e-03 -1.974243008677131414e-02 4.366645493316870241e-01
-3.259152925210846014e-02 8.698551959544501694e-03 4.345119266111581169e-01
4.709658846522370157e-02 3.942449254279227489e-02 5.080450019443809584e-01
5.417393160243210576e-02 5.120055234562709973e-02 4.600991651490132783e-01
-2.450310947033171316e-02 2.991121118181768249e-02 4.172808637949553257e-01
2.208103657184408430e-02 5.053312735191246158e-02 4.266582598716954777e-01
5.401395753244246645e-02 4.545313735184278170e-02 4.887124510311954828e-01
5.283573761073128566e-02 4.864305389211753816e-02 4.891678314531070493e-01
1.730736241471369022e-02 -7.894148309966421591e-04 4.325135129477381546e-01
1.584085583490917742e-02 4.934058721542937398e-02 4.204767783018611982e-01
8.436939347199015268e-03 2.603172047138919282e-02 4.096037792463487204e-01
4.312908655817760534e-02 -1.300997626574026435e-02 4.486553651237989992e-01
3.361026286338911900e-02 6.419849110705271034e-02 4.427622318071385843e-01
3.301466805079499023e-02 4.161950649448076245e-02 4.363904577621240399e-01
5.334908832314011473e-02 -1.301648146601551426e-02 4.682880817765122106e-01
-5.746161193984578898e-03 1.664451238201435090e-02 4.156775543144550222e-01
-2.723988647593854340e-02 -2.495261169635151766e-05 4.333228955017739414e-01
1.635694317455536548e-02 1.601263717025292257e-02 4.267857293950250153e-01
5.211873772090124673e-02 2.822399052657561733e-02 4.970257227003976319e-01
-3.591694970385701357e-03 5.464970170529073051e-02 4.137944789210586394e-01
5.736169282192921798e-02 2.946170137965549440e-02 4.640620698228642982e-01
3.185109392179479720e-02 5.449591585095587415e-02 4.349459583982882571e-01
-1.293757371736201436e-02 2.794754314384373037e-02 4.122519468869025872e-01
5.130198815067132240e-02 -3.512436020638633888e-03 4.579152164053970631e-01
2.652465308670766062e-02 2.504401399663100380e-02 4.324132518289123817e-01
4.297489904490138860e-03 1.684033513540515725e-02 4.179998264028174093e-01
5.680522929630014289e-02 -7.657075026937843615e-03 4.770993828322716013e-01
5.417294101031470965e-02 3.881486372415841185e-02 4.932979277530457063e-01
5.783274860168999970e-02 3.167608869404450744e-02 4.706004428167365750e-01
-3.918172083758610785e-02 3.011996815509458431e-03 4.467868804218824708e-01
5.004901318834725776e-02 -8.258447473409512253e-04 4.535077726990217606e-01
5.222659285660880696e-02 4.306072584917192830e-02 4.976919421250147191e-01
4.748111075124101382e-02 6.162095680711354717e-02 4.523581639412989630e-01
5.523225976877998988e-02 1.956842967964507810e-02 4.870018021272034536e-01
5.430277480124012790e-02 -1.798736581591000097e-02 4.731146781903325937e-01
-4.475140691976017826e-02 1.163832225899198713e-04 4.445926897260443211e-01
-2.353852169746475931e-02 -1.813241137958047488e-03 4.330038364511453186e-01
4.826810251675780344e-02 -2.127893850556461866e-02 4.606323441772122718e-01
3.542870353099789038e-02 6.161962226389232355e-02 4.418641881496438995e-01
7.996091367803234359e-03 3.001008148405653886e-02 4.041785362805221937e-01
5.720328683308129047e-02 1.094803274230867624e-02 4.739250972381538474e-01
5.268586714657829545e-02 5.587075804132175805e-02 4.594176223973089890e-01
4.246202396882987201e-02 -2.194124660464252113e-02 4.516304582302401727e-01
1.433602884338262135e-02 4.260381919542829618e-03 4.312218026051644060e-01
5.477020285160628943e-02 -4.003112228245696291e-03 5.124884161736730226e-01
7.673200403366267717e-04 5.360196769250138993e-02 4.119575469407444901e-01
-3.977683311800979220e-03 -1.030593290278325989e-02 4.323198335568960160e-01
5.548983525765521091e-02 1.027349986604404741e-02 4.623228936863333360e-01
3.777999340596096406e-02 1.528209305953807592e-02 4.404271756941616767e-01
5.768487494024474027e-02 3.108990914865456673e-02 4.669388406477686937e-01
5.525272400413942797e-02 5.580682877398152400e-03 4.636070871654630055e-01
6.723735087549826545e-03 2.003719162227378392e-02 4.156017441940982882e-01
-4.281349963549231120e-03 -3.698007569823320590e-03 4.300573228731804365e-01
4.999687386934853484e-02 5.624444696669927968e-02 4.531879643798674695e-01
1.402190972275119997e-03 4.771176420847646898e-02 4.071689096381659878e-01
4.532315650478944968e-02 -7.243009725736335516e-03 4.501748847887968030e-01
1.768528137087981358e-02 5.999695488128643783e-02 4.326136824745973053e-01
5.348984844910847913e-02 4.746470104233873472e-02 4.885081002775667480e-01
5.023397045469926714e-02 4.025441879980107274e-02 4.517310353718642091e-01
3.492965055162580018e-02 2.483257085814892517e-02 4.383225860849206401e-01
5.108027887531220446e-02 3.448708023933239053e-02 5.004894601402926080e-01
5.392883542566032085e-02 1.374257996681801409e-02 4.565513923384509898e-01
5.637326967871696820e-02 4.101885324159255941e-02 4.642595345007241581e-01
5.480183421134088989e-02 5.604005982188409174e-03 4.935258047730879394e-01
5.726026629034676463e-02 -5.752380065828157675e-03 5.050391318610868430e-01
9.792349015859807063e-03 2.797499615863838912e-02 4.104350881169807064e-01
3.173118117958755730e-02 5.904824179689512759e-02 4.378922659038465004e-01
-2.754486985801264665e-02 3.356143453879179006e-02 4.180233390771002089e-01
5.524672276482139877e-02 4.846150427730817195e-02 4.714590348594697167e-01
4.642661556250132771e-02 6.427509675771489461e-02 4.536714771635526056e-01
4.009663298368802004e-02 6.772189028615982487e-02 4.717429208999916468e-01
5.715699338833082205e-02 3.847315558950897135e-02 4.688272671443783346e-01
4.829028221932776116e-02 6.539497504905965319e-02 4.629431806865763610e-01
3.094941380212587814e-02 -2.416253605184073838e-02 4.414201249357281309e-01
5.179420584949448458e-02 5.880676328104016831e-02 4.680683622348584261e-01
2.913511704907414610e-02 5.985143999603232540e-02 4.365520110792882602e-01
5.268371052630698576e-02 -6.958894836077192045e-03 4.636257223007809736e-01
5.735465630789337438e-02 1.929911498022951824e-02 4.781092228616233286e-01
3.331130152109250397e-02 5.727327364130564008e-02 4.377634397404329691e-01
4.658481381571945301e-02 -4.408217083993980906e-03 4.509598466666600025e-01
1.602921196844880880e-02 1.920593969736315160e-02 4.247846962179810948e-01
4.418976211636713169e-02 2.391227631814167934e-02 4.453474943449059475e-01
8.948709261088677591e-03 2.767137837260881181e-02 4.085941669837925838e-01
3.354209464643361643e-02 5.303690056439570866e-02 4.364190964819756324e-01
5.769780562468120044e-02 2.212717881492727232e-02 4.747199329026413062e-01
3.558233024342481211e-03 -2.808166386151753763e-03 4.301755784211513944e-01
2.446985556380480015e-02 2.052934767648107589e-02 4.313419266966904142e-01
-2.509990015098976721e-02 -1.571012822288014692e-03 4.334976324358105759e-01
5.425999547659867556e-02 6.561084291366191604e-03 4.947594007691202833e-01
2.630825443685674489e-02 -6.839131318614223576e-03 4.355324834339192597e-01
4.366919741574344649e-02 6.797660705118897806e-02 4.632074641268956183e-01
4.969794577770542121e-02 -1.413207195672222874e-02 4.607617400165987531e-01
5.477430245589726826e-02 4.388238869500468708e-02 4.862792843172752955e-01
5.063916415778150354e-02 -1.905279962095396407e-02 4.650721884271455941e-01
5.164500590790477991e-02 5.696553617918019563e-02 4.747598224644212772e-01
1.144056405769052973e-02 2.013303949613247032e-02 4.205630028667450837e-01
5.173955207495575803e-02 7.138701220097033381e-03 5.019767882116510371e-01
3.828773257169992839e-02 -8.645649901328990652e-03 4.430188726654772369e-01
4.483787348476792750e-02 3.697064045096348089e-02 4.458973900661432621e-01
3.442901193434435431e-02 2.485995178287319501e-02 4.379784799513937177e-01
-8.669468068747430978e-03 3.719591053415662041e-02 4.062009796564264863e-01
1.777252647494317536e-02 2.156650982175977935e-02 4.255617329139642080e-01
2.271680959237037251e-02 3.330684876546971540e-02 4.276923577683247601e-01
4.301752682833412389e-02 3.709668698259529357e-02 4.443579065222769686e-01
4.808252019917490239e-02 4.689454272571393079e-02 4.493833941597901727e-01
5.708282932410039395e-02 -3.942491558093747656e-03 4.983472817186151982e-01
1.662943924128450473e-03 3.048728550695217754e-02 4.008095919887176284e-01
3.840204283081209702e-02 -9.426392034120571403e-03 4.432057849208169698e-01
3.477868342041611632e-02 -1.164599799112519575e-02 4.406920086373887213e-01
-4.718379099399152080e-04 -7.555789903831411011e-03 4.310135260941717616e-01
5.236099956924139542e-02 -1.411332142904934452e-02 4.667739092453512262e-01
-1.429893658661584698e-03 1.533676885520370015e-02 4.178263155482737079e-01
4.381738471058754802e-02 3.736603100868970267e-02 5.133320062180660726e-01
4.654813555353028154e-02 6.609784838923747630e-02 4.731986610322774789e-01
4.563270298297029959e-02 3.655978132737712494e-02 4.466376162379930848e-01
5.733496323412431983e-02 1.646763616664120855e-02 4.744527750378023101e-01
2.729089073478624394e-02 6.397408993953186684e-02 4.388911856243949972e-01
5.605626933698476533e-02 -3.348784703732902730e-03 4.702541532419540760e-01
4.352775080790132617e-02 6.759586303577518052e-02 4.541271085404500196e-01
1.203380953599634748e-02 1.579544033119056976e-03 4.308591998767734577e-01
-1.800240342558946660e-02 -2.400527513270419612e-04 4.306469135821730521e-01
3.348298123960813388e-02 2.878910087566998594e-02 4.372193689638677605e-01
5.486463078337416865e-02 4.971263246380116380e-02 4.676815115601704598e-01
4.757584925537309412e-02 4.746858080192373208e-02 5.050747437431539755e-01
5.740275094752458201e-02 -7.893763310502404859e-03 4.806782787764248832e-01
4.483620467413465538e-02 2.925211994211332489e-02 4.459318682341840145e-01
2.452351723964074290e-02 6.432334664972795546e-02 4.443291178821162646e-01
4.440267456115138539e-02 3.610901418243388922e-02 5.124960314020915453e-01
1.381804937784370489e-02 1.878372175593403734e-02 4.231463344177053276e-01
5.634655826730648048e-02 2.999410633877556270e-02 4.614611610641990436e-01
4.252395306152039617e-02 2.483670829181996997e-02 4.437640119070492828e-01
5.371394320901842767e-02 1.095634953352498135e-03 5.056867812211596203e-01
3.902035224837311495e-02 5.864815844265208744e-03 4.420163066514558592e-01
5.518894233259728777e-02 1.502354889038408532e-02 4.597433219909961011e-01
5.191286949432952214e-02 5.479559487693388964e-02 4.794923887006526386e-01
5.625581552329543544e-02 4.318808268003912487e-02 4.725054699147720472e-01
2.844800426688065542e-02 3.344141771855410616e-02 4.330810393755930021e-01
5.492030799805566049e-02 4.594378296793777579e-03 4.630013819993554769e-01
5.645107335412098692e-02 -5.728104345048599423e-03 5.115715211621340019e-01
4.667831601884823295e-02 6.250573124890412835e-02 4.518255215978095873e-01
5.466544239887106277e-02 8.601292561795818165e-03 4.606863392306367322e-01
3.424423531134238724e-02 3.392169191941400014e-02 4.378488466329721884e-01
2.482625444194093770e-02 -2.103295508378563369e-02 4.380537014557094877e-01
2.041411902981608677e-03 2.775699287492999073e-02 4.013390424062481254e-01
1.491346211057180751e-02 3.887803510094098997e-02 4.192800877898819056e-01
5.634231350372992386e-02 7.664712908803573803e-03 4.859899304491469008e-01
-4.239437885144160811e-02 2.395470767967168395e-03 4.435566986936785860e-01
-2.910741989165873539e-02 -6.668220642427106180e-04 4.345237781787161802e-01
5.046357590377509306e-02 2.068361654212502385e-02 4.516025479119110675e-01
2.281088741175094775e-02 1.984437299779734029e-02 4.301650431717818357e-01
5.795178779074360714e-02 -3.758889190911006255e-03 4.881062859318742175e-01
5.704337044529207701e-02 2.475203433041050366e-02 4.634010429475675652e-01
5.726070059537113899e-02 1.277273982724941651e-02 4.711691676634785497e-01
-7.627185022550048502e-03 -6.149595888338555381e-03 4.311682636020296444e-01
4.877537165229992727e-02 -1.863336244540348199e-02 4.605290822491892588e-01
5.691793100651985210e-02 -1.180035972161191764e-02 4.802110383243880509e-01
-2.348037004493534405e-02 2.018394982373429569e-02 4.210850072796786803e-01
7.427885678637403608e-03 -1.073151556022195960e-02 4.325671178191350386e-01
4.547769831649759592e-02 6.538537989016057761e-02 4.765334106014116333e-01
1.694355304013462488e-02 5.833220341815315013e-02 4.261027012547674020e-01
1.868429395579906949e-02 2.152190245519566836e-02 4.264138479568239104e-01
-2.148842698427382014e-02 2.823693158948626172e-02 4.162252531240677733e-01
-2.251635765380060120e-02 4.360236104892456499e-02 4.132548341424533977e-01
5.588528017828193334e-02 1.925091767325697381e-02 4.609422798074360172e-01
4.990924216539559255e-02 5.328638671684334666e-02 4.917398255623072201e-01
4.801246501121403387e-02 1.236351661257666795e-03 4.508411349037115823e-01
4.617845960788699577e-02 3.657069895582605590e-02 5.095183837555372630e-01
4.655349866788970059e-02 7.300396921952554026e-03 4.482122866560321883e-01
3.050330889862796005e-02 4.355983195105155720e-02 4.339720326927742344e-01
3.319576216503237337e-02 4.792073905975743203e-02 4.361298958455702146e-01
2.867179722371156550e-02 2.655273730116385414e-02 4.338084076847424919e-01
8.486935284200570334e-03 1.993980225945686871e-03 4.299437757535748417e-01
4.319195915967100757e-02 2.285084020191571752e-02 4.444114569999613185e-01
-7.385279387437944376e-03 -6.740313466597889179e-03 4.313738579355119174e-01
4.581466817947966313e-02 4.711229446226033318e-02 4.468315961360297406e-01
3.825453055113677697e-02 4.962211878541231136e-02 4.403533755368120306e-01
3.766521752566153597e-02 2.577954545709685782e-02 4.401709035170197626e-01
3.378769287174916702e-02 -4.887158459857057768e-03 4.392955323974519488e-01
-9.707069132044138238e-03 -4.810534024754593765e-04 4.293386207987571201e-01
5.741704247838627651e-02 -6.166036592668688171e-04 4.907217461265583336e-01
-2.868186419297391598e-02 2.356665271239003628e-02 4.225532590148175505e-01
2.715688077327771052e-02 7.493951446138575299e-03 4.353342167654349337e-01
4.096930569789201948e-02 -2.222222441837852849e-02 4.490787325379092532e-01
6.539217862217461437e-03 2.532148470085366851e-02 4.064422386245649665e-01
2.832613309696054363e-02 4.287124587554397986e-02 4.320822643803324259e-01
-1.416714422611633876e-02 3.574573114904868593e-02 4.093902043550246561e-01
3.325294253961778163e-02 2.770563231903406046e-02 4.370733641457245078e-01
5.587544592876642069e-02 1.075376033264551986e-04 4.981931486383812668e-01
-8.856592931887922668e-03 1.437918803002769669e-02 4.192864959162206362e-01
-1.208166580665168306e-02 2.835709795903232008e-02 4.115926174766619261e-01
3.835752509532427273e-02 6.278381281592117225e-02 4.440816491631565111e-01
2.150179316781984304e-02 6.297337432909477783e-02 4.406179276634058506e-01
1.072953272283923461e-03 1.752033449205228285e-02 4.160307390306542952e-01
1.493638566256994676e-02 4.199918046447174980e-02 4.185685504006599333e-01
5.133034902824363394e-02 1.268461857869144192e-02 4.981450483501044246e-01
4.097200633581590812e-02 3.934369559606679632e-03 4.439397981732526310e-01
5.689380846129062780e-02 -1.701663085127776750e-03 4.730652411309099192e-01
2.165571424574764051e-02 -4.340667798400114560e-03 4.338953517434198104e-01
-2.222379030167576444e-02 4.672505458237932036e-02 4.144292434103047928e-01
1.201835916834793037e-02 2.225520146890615225e-02 4.197497194549628663e-01
5.694809939457722708e-02 3.365653673714258561e-03 4.877837344559781130e-01
1.165897027538945543e-02 4.610699012073157799e-02 4.150060469832207999e-01
5.720741361929344848e-02 9.807797464825211350e-03 4.723024466996036397e-01
4.730572651254193184e-02 2.981829506259812620e-02 5.074540226396619946e-01
1.402209368677971926e-02 4.042764920955872754e-02 4.173087345138024595e-01
5.471174165214634511e-02 2.566873216180277917e-02 4.575643697620869754e-01
1.741018430429398106e-02 -7.059220085260053956e-03 4.330503347814815829e-01
2.021841036407272599e-02 2.714180559936664461e-02 4.264306476944596525e-01
3.710086546837275401e-02 6.466795136772453267e-02 4.454737749084908827e-01
-2.731817428708162646e-02 1.420423290815427814e-02 4.275522890747257554e-01
5.025297329362610199e-02 5.637559759410003951e-02 4.538669493659737153e-01
8.244502434176896599e-03 6.957053541102355132e-03 4.278501200309486885e-01
-4.462912790422539355e-02 -5.575972117719315418e-04 4.433039849503664365e-01
