-6.261043580431162325e-03 1.796422653203903763e-02 4.158351799074311850e-01
2.021879255140569820e-02 -1.526881904260121714e-02 4.356885494752602006e-01
2.772651854677722280e-02 3.724910914698218584e-02 4.327023035717350585e-01
5.582548194107422174e-02 3.250980270646378761e-02 4.602570312938354391e-01
-1.434724547149883109e-02 1.493050535500629536e-02 4.209891095572907416e-01
4.015377591634255311e-02 5.385124241866263289e-02 4.430454381203217662e-01
-2.345860632467393000e-02 3.742241785052544817e-02 4.146737979480272784e-01
5.475397319101345944e-02 -3.708549080731923971e-03 4.666822199252638192e-01
5.739511085779917116e-02 1.693086618797583209e-02 4.778960031149250276e-01
9.399091029233431691e-03 2.465564040627283085e-02 4.159154128045073895e-01
3.363688492387942319e-02 6.651598306004519179e-02 4.475342712572912829e-01
3.530091847047764787e-03 1.957411878106040184e-02 4.147605227149635532e-01
-3.352056263650741996e-02 1.212778426357342607e-02 4.354382255419934622e-01
5.237938438210194142e-02 5.951538249900589946e-03 5.020039524014039412e-01
-2.440322608615116268e-02 4.621943285196952744e-02 4.167602392647919984e-01
5.747025088925485775e-02 -1.543698878876637211e-02 4.817083801145194966e-01
-1.815979768726569410e-02 -2.937885122508639840e-03 4.321442648703994194e-01
1.127252514709907102e-02 2.678331798890995138e-02 4.162667847347473193e-01
1.704324113235582833e-02 2.259970496790689176e-02 4.252826346430218507e-01
4.822453972177325604e-02 -1.803520258914259947e-02 4.591071692183454345e-01
3.687814267414262631e-02 4.213634948725271910e-04 4.414022407950391469e-01
5.697577604459507644e-02 3.885389547091318285e-02 4.670861236914835013e-01
5.238717022795407602e-02 5.799119158087736453e-02 4.618227556717138804e-01
5.342472283260252253e-02 4.889479707398679958e-02 4.875664856128846814e-01
5.778792515105292404e-02 2.765803728384469765e-02 4.671258135687492152e-01
4.470574492959867446e-02 3.576709175644755823e-02 5.126505080407093295e-01
5.175309004523819673e-02 8.557139204480358058e-03 5.002939428352382034e-01
4.805206158265366151e-02 5.384964483669442414e-02 4.964021141218686317e-01
5.397053086829509128e-02 2.170552245835089683e-02 4.911438241439073371e-01
-3.098587237494289381e-02 2.276997871667996859e-02 4.252670207455343521e-01
4.634962102908094655e-02 3.789411233065409501e-02 5.099387740473849684e-01
5.571726375313961616e-02 2.124589549329745225e-02 4.603385206702636512e-01
4.969087524650191157e-02 1.105435789061088095e-02 4.512481656175815203e-01
-3.666656880340696950e-02 1.921829233009607688e-02 4.372425362524792747e-01
4.853753112505627965e-02 6.357787404031334244e-02 4.580046712928048658e-01
4.806501985079733585e-02 5.237847601823215210e-02 4.986606555965685805e-01
5.113358992758643140e-02 3.273369007746022158e-02 5.007355015833876433e-01
6.203909836479544124e-03 6.086259986538430054e-04 4.301883300555778278e-01
5.458238983534938193e-02 5.099528839899132582e-02 4.652681550903696728e-01
-2.590680975334990442e-03 5.455093650337633493e-02 4.142870115045990120e-01
5.243516651436856690e-02 -1.048715044775649051e-02 4.653206435029118571e-01
-1.399704150841420830e-02 3.358796808200674618e-03 4.279787138872781505e-01
4.659044134455216785e-02 1.704949689781928499e-02 4.479864457521013921e-01
-7.225361010908185402e-03 9.976354395213563042e-03 4.223813791355576219e-01
6.554618502785282061e-03 -2.057897176725215216e-02 4.375501360527245809e-01
4.557905026492684031e-02 1.662007112212121260e-02 4.470431993889035782e-01
5.223398412046117295e-02 2.747056890779262309e-03 5.080696963301759572e-01
5.606984034520053062e-02 4.323189040345172540e-02 4.762650951918741549e-01
-1.263349240860679040e-02 7.566969853979596886e-03 4.248503851796380237e-01
-1.141969846014071616e-02 -4.304509474854599851e-03 4.311474884370162242e-01
5.060484085596483189e-02 -1.260603354626230882e-02 4.622416884301349116e-01
-8.243795206899516559e-03 -8.003763172325090288e-04 4.296527437262749882e-01
4.781571297273209259e-02 5.653933893023528612e-02 4.507094538002449080e-01
4.185292791686476277e-02 -2.028833103143727959e-02 4.493626748107718005e-01
2.264194559568559473e-02 6.089558517886875522e-02 4.364631342616610010e-01
5.584444914744520622e-02 -5.130238504535540589e-03 5.124495527281524021e-01
2.439862003202368165e-02 6.299363698957520519e-02 4.399790064230192921e-01
5.646212027409446693e-02 5.070697466797132943e-03 4.883322229267136327e-01
2.905316215421796522e-02 3.538206979809555008e-02 4.339991813610628024e-01
-3.453060051196703978e-02 1.373898219084355825e-02 4.367449170552290538e-01
4.324744337036852404e-02 5.799573344121581459e-02 4.466418484919361664e-01
1.653154722157948106e-02 1.460445839088170099e-02 4.283022113195706915e-01
5.216715721921845461e-02 -2.130619494728480667e-02 4.688234015882989381e-01
5.152889188445332336e-02 3.544296447477562548e-03 5.086160041921339303e-01
2.009031299936850021e-02 3.567397924172494017e-02 4.257846444712036771e-01
4.960919672566748567e-02 4.219767820452560020e-02 4.514233529893045826e-01
1.024169382817904234e-02 5.948474906615877633e-02 4.221236017780516936e-01
-5.736096203707533037e-03 5.200470148857697442e-03 4.259503472756449582e-01
1.315807504684097552e-02 -2.217246474424233033e-02 4.372536631478465829e-01
5.427996096050619751e-02 5.187144113327921136e-02 4.624912896920572725e-01
4.506435470845214508e-02 3.522552298230349765e-02 5.120633618546865939e-01
-3.329839882762184594e-02 2.566867611721605075e-02 4.267208801638239235e-01
5.226308242421080774e-02 1.466959022259836827e-02 4.543070426605553269e-01
3.118510668041358028e-03 2.119737686730015312e-03 4.293718224441298581e-01
5.806458989734728654e-02 -8.155716400448542736e-03 5.067197899912019299e-01
5.483944156762950162e-02 1.708753927022065022e-02 4.587474319052073368e-01
5.110753431202819108e-02 -2.022752847630847946e-03 5.157246298817939056e-01
4.881245566877577546e-02 2.964208394182940923e-02 5.051107610234787382e-01
5.688229462933473007e-02 -6.637791239354234873e-03 4.764049693279790443e-01
2.171817590377519286e-02 4.075734384888435313e-02 4.269973431027790922e-01
2.810895802023653800e-02 4.318133074285996492e-02 4.325264749806219111e-01
5.158730647862711655e-02 4.126561794200175187e-02 5.002507784206525754e-01
5.727835317717352298e-02 3.817650526389603644e-02 4.699032870402261586e-01
1.193205707414269137e-02 -2.196323630137242064e-02 4.373376710593023797e-01
2.481318683972039141e-02 1.624419761536827558e-02 4.326986301244640787e-01
-1.647821330182266258e-02 3.775507941629484970e-02 4.107232745019017139e-01
-1.046526190446060278e-03 3.417713254150601260e-02 4.032088959666065842e-01
5.619250121515510094e-02 6.497007923980792007e-03 4.666793351118969091e-01
5.631783207522200740e-02 3.479625173837605501e-02 4.621137073199144685e-01
3.503949784645578325e-02 5.431183338884061629e-02 4.387862605642144920e-01
2.137521004648304176e-02 -1.240017099312287936e-02 4.353030287097849338e-01
-7.558370304498462922e-04 1.501189356102771225e-02 4.193568198916740597e-01
5.736871676543833787e-02 1.573834670092658788e-02 4.710334055519750374e-01
5.685037496753102271e-02 1.375333436558671789e-02 4.660087651633557093e-01
-2.068160483314750164e-02 1.150582667387979596e-02 4.254187228898551054e-01
5.959204048062091696e-03 -3.582245274243735320e-03 4.308882305765804333e-01
4.915874739350210160e-02 2.732647336425750306e-02 4.504805347670138849e-01
5.221583664516840986e-03 -1.833624706543976121e-02 4.366390893540276208e-01
5.088783807322837943e-02 2.474131721018383093e-02 4.992291364167514844e-01
-4.858686037223470915e-03 4.490554823635499460e-02 4.072811246155899068e-01
3.385698673645741452e-02 5.729377278373049692e-02 4.388431558721165859e-01
5.853582071169879247e-02 -9.669252528101943828e-03 5.080215997459636146e-01
-2.813054635820873284e-02 3.368809727884949923e-02 4.191068114720995497e-01
5.089176683363530462e-02 2.265736494530425776e-02 4.522561710946970681e-01
-4.483663362455339758e-03 8.496066274396264426e-04 4.290608048043257905e-01
-2.166541159554788779e-02 3.898785170237306641e-02 4.129701465216448764e-01
-2.071555100111829514e-02 4.393841455174329891e-02 4.126491348875974685e-01
2.282566462861553014e-02 4.232086333063015023e-03 4.343193082666451099e-01
4.685241306042112197e-02 4.792463406797940056e-02 4.483905051121825358e-01
1.481564184014068537e-02 5.964640078037113102e-02 4.268100896193441351e-01
-1.183022236858077662e-02 2.549746763780100581e-02 4.140390460987840582e-01
4.652260143064908954e-03 5.275161801042529963e-02 4.130269462548280535e-01
1.099651420588139070e-02 6.090896793989175606e-02 4.285912246439640416e-01
4.494385111361495072e-02 4.578547378101449974e-03 4.474158738101823851e-01
1.964427852566838148e-02 8.543515410512000918e-04 4.333479316779163537e-01
5.681138018493601949e-02 3.091129002759621103e-02 4.842997571864773865e-01
4.684570449136803844e-02 2.293046911003832761e-02 5.086349018819309453e-01
-2.751649841007638292e-02 -2.425595577390377271e-03 4.349880945879222582e-01
4.586081220641163164e-02 3.174414054240930205e-02 4.472573761372393153e-01
4.977067767809211993e-03 1.394114058655078828e-02 4.221482539632316899e-01
-4.029051619672242845e-02 1.609933631583963754e-03 4.410935422337474709e-01
4.456778096365971581e-02 2.695288459865789049e-02 5.126815680626652938e-01
5.534633037755303658e-02 -6.882810766487288193e-03 4.699017343325108120e-01
5.464824170080687799e-02 1.598695940252051195e-02 4.583467375598251903e-01
5.434575301119265456e-02 4.810962804946512100e-02 4.829867040701392722e-01
1.468336191935799839e-02 6.049283365389302586e-02 4.310231786699226797e-01
3.458203273811660122e-02 2.187528353425931271e-02 4.385494587650158871e-01
-3.028738893410739055e-02 1.826738023906440342e-02 4.269242903886023011e-01
5.096492336871227130e-02 5.522883787800537958e-02 4.845521780410859680e-01
-1.292392160463048945e-02 2.750958747567138797e-03 4.282046017883066602e-01
5.586337230789716057e-02 1.643470902548691340e-02 4.856230043984745559e-01
-2.323547253100140958e-02 4.026281053336426552e-02 4.145908255964228517e-01
5.378076102288927712e-02 4.828629480780065319e-02 4.870746992452687496e-01
-1.853102951073125684e-02 2.415080060296146205e-02 4.174497970201325181e-01
4.947472085600564812e-02 2.268502668995886831e-02 5.020653581216977246e-01
3.151364882625191932e-02 5.310488310436384946e-02 4.352033996386741599e-01
4.552430819635901182e-02 6.746928711189816019e-02 4.637184057410834170e-01
1.787003165784467607e-02 -1.686767116775832534e-02 4.359257743744934799e-01
1.697009367505476415e-02 8.781446229002331030e-04 4.325670499135406133e-01
2.011804832388450898e-02 -1.192951522343326833e-02 4.349103591878366037e-01
5.011778486010705358e-02 3.094754627681516740e-02 5.025439367272291902e-01
1.573675334251026237e-02 -4.745958515482959043e-03 4.326817281161213780e-01
2.841507890287642280e-02 6.075791997408292594e-02 4.373301763428642519e-01
5.307173814684063712e-02 2.855749363873309049e-02 4.956982141227232463e-01
9.206401059834105893e-03 1.382855243445177927e-02 4.243075965404466965e-01
3.518895673869767982e-02 2.282877716627996698e-02 4.389691588286577240e-01
2.382153041747085004e-02 5.437110765436186516e-02 4.290789304046770947e-01
4.858094815315459891e-02 1.225528861893014979e-02 5.059127400797801544e-01
4.606784176624833388e-02 3.321185899330283270e-02 5.103369518478553246e-01
2.346945552571825383e-02 5.588171756705900828e-02 4.292371874748369676e-01
1.632568575300146277e-02 5.663470962344954729e-02 4.245151744513732117e-01
3.842687954824294122e-02 3.673600873603827949e-02 4.411356971969949137e-01
1.346363326561825918e-02 -1.631548486805388387e-02 4.358110963742670152e-01
4.887451864707739735e-02 4.767505142254069989e-02 5.030280768652864998e-01
5.130486596219297618e-02 -6.185298048570217824e-03 4.598181739570587068e-01
5.233493758470217361e-02 9.087237762268832869e-03 4.983689034620092384e-01
-2.078597762174825420e-02 4.390774094403035455e-02 4.126957513844319858e-01
2.525745180957983393e-02 -5.119975892227306494e-03 4.352196231886118483e-01
-1.118876568561975177e-02 2.941226129909135095e-02 4.115496448658884643e-01
5.216441326649673416e-02 2.708085884574770383e-02 4.971752086243195201e-01
5.089138680256426184e-02 5.750650126866344025e-02 4.565545054365294786e-01
5.716957128250427581e-03 5.974256640610899061e-02 4.189766949970036847e-01
2.665909121852175559e-02 4.506337550027811334e-02 4.310698071381768859e-01
-2.419871814873567756e-02 2.968134673210463814e-02 4.179343658368069314e-01
-2.362016088459594626e-02 3.944488663008512835e-02 4.149521135188383725e-01
5.195175929452789526e-02 2.923614037514580405e-02 4.983481728958070733e-01
1.421148644195978535e-02 3.043067639514850098e-02 4.197405906769003381e-01
3.923130651179273370e-02 6.328654572726839789e-02 4.453514152323096442e-01
2.037014672829256384e-02 2.412823710354695950e-02 4.278376907679728447e-01
-5.622217285124773284e-03 1.814234926192724237e-02 4.153714523673825987e-01
4.955541795008755468e-02 1.267585011756068927e-02 5.028817549787341079e-01
1.946056675364732022e-02 5.930810097580761775e-02 4.310541429969295124e-01
3.753618982962946687e-02 -1.591133161832709170e-02 4.438153464729944209e-01
4.023720840941065469e-02 5.138062701686334915e-02 5.090329950049535812e-01
5.144186829031159591e-02 -1.716459121574101521e-04 5.135711031568712670e-01
5.450931692729221734e-02 4.213163232326513907e-02 4.916372398929594878e-01
-1.573726333642574277e-02 1.360812914445519613e-02 4.223369059478231380e-01
4.788826696049668791e-02 3.680401314439623456e-02 5.072033053043906170e-01
5.214921075750417884e-02 8.464871507008421905e-03 4.992688495496090950e-01
5.771073431884893995e-02 2.646010934739499026e-02 4.664173737805306641e-01
-3.439892198560577652e-02 1.523344985713682986e-02 4.353929012248657915e-01
1.265546590342979741e-02 3.170119545860713289e-02 4.161462153786961160e-01
-2.140683148651944916e-03 -6.016331897197132322e-03 4.308213049225849134e-01
-2.556681696346545414e-03 -1.287656926021990902e-02 4.329973414409667987e-01
5.526443094133705325e-02 2.833846493458383117e-02 4.903936270120136665e-01
3.947478805920084238e-02 6.295197950543137896e-03 4.425875717092688233e-01
2.507741276053677970e-02 3.700986254644367257e-02 4.303994448611984103e-01
-3.359699206545656291e-02 -1.842185755357150182e-03 4.380624276845601073e-01
4.772819321877880272e-02 6.585395991083686784e-02 4.685298085720145944e-01
1.664241828067042350e-02 5.067908034017731649e-03 4.322396880420232290e-01
-2.665850719883424910e-02 1.415887238814573720e-02 4.277447614636968876e-01
4.869747752287910403e-02 5.406123307335131134e-02 4.942914443186868234e-01
5.371785326038952535e-02 3.199112593930136805e-02 4.560505467966663451e-01
4.839715312233553585e-02 3.300211065498339508e-02 4.496450271057246817e-01
-2.868669416224642679e-02 2.314118011557612931e-02 4.233839369793091501e-01
1.285118637644853956e-02 3.761808393760853603e-02 4.168471028625350683e-01
5.748603153557547280e-02 3.469312040267037017e-02 4.671797126185321947e-01
5.520926217731793317e-02 3.463191880010974694e-02 4.586961245019837707e-01
5.470458479085084369e-02 5.132852681094573349e-03 4.623264930873428047e-01
1.248581963011757487e-02 8.643452172193481081e-03 4.290584525453415843e-01
3.271053048595911478e-02 1.995828579410511422e-02 4.373283152281741692e-01
2.629187898408958876e-02 6.486007293175108379e-02 4.457132730076560634e-01
2.002174235557651130e-02 3.084698596551523758e-02 4.261576533576817982e-01
-1.245617544367991214e-02 3.048037353221009702e-02 4.115391451927029598e-01
-1.543466722570724457e-03 2.419616563631688672e-02 4.075658644052074786e-01
4.699391983496509911e-02 1.573481416098085513e-03 4.499279617281292665e-01
5.391139283229626211e-02 8.995151434524038120e-03 4.586465404548583646e-01
4.988165865778979025e-02 3.965862857903168504e-02 4.516413265513676278e-01
4.750230578436585860e-02 1.827959363368657740e-03 5.175441899206912888e-01
-2.106220569102009669e-03 4.696781244733234939e-02 4.074290014711280938e-01
4.199573163639497286e-02 6.764106343647430242e-02 4.711208694386393447e-01
5.711650607656847123e-02 3.853973242446449149e-02 4.677861258432702285e-01
5.290633265870345325e-02 4.248837082578956793e-03 5.031342004621119912e-01
5.742489704507670878e-02 4.307840757457597793e-03 4.773613050922650425e-01
8.372811492271842182e-03 1.359169153142019207e-02 4.240808999995933082e-01
-1.379103080723273825e-02 2.850481596911085339e-02 4.132450711358732209e-01
3.008598027194888530e-02 4.647427731933666956e-02 4.340307383183093504e-01
5.534106741317211531e-02 3.954381710680446305e-02 4.892932294554714345e-01
-1.802420393561485895e-02 -3.546313742479947038e-03 4.323209321862767629e-01
-3.996884397144458145e-02 3.287421102651848399e-03 4.439873175215193202e-01
-2.159774712278644815e-02 1.095590366639399675e-02 4.262496816686800472e-01
-3.313837389351773771e-02 4.711433713330675024e-03 4.366709006194635645e-01
4.691556152177297351e-02 3.569871673379875626e-02 5.088297662728565873e-01
5.219637382535472631e-02 2.870057946634854001e-02 4.976586890016723164e-01
4.615137690866833592e-02 3.585629634152218137e-02 5.102524088710594929e-01
3.381382458860495571e-02 1.270625697248683843e-02 4.382449321279517362e-01
4.892974558989147266e-02 1.117719959155324440e-02 4.504105427084639235e-01
5.683584991314629548e-02 3.546735960509812130e-02 4.818313521579483116e-01
-2.907065290249650005e-02 6.680287202811859351e-03 4.326742717429487017e-01
-5.034368163071583149e-03 3.331073374552393634e-02 4.063706240550576942e-01
5.478173518364016364e-02 4.224819174095053448e-02 4.903678232276890148e-01
3.640883367334261933e-02 3.299665790502959335e-03 4.406821573227693301e-01
5.729541851375496986e-02 1.506362706511642398e-02 4.700156266531427263e-01
4.225763255126003398e-02 5.870608401104419199e-02 4.459594894239227725e-01
-3.405879182878748801e-02 2.547531605928079340e-02 4.278970430559543847e-01
5.488306410431963850e-02 4.881638666559259127e-02 4.774545303726611123e-01
-3.276107154062939120e-02 2.600127445168511769e-02 4.258184114934454034e-01
5.602033265298843323e-02 3.986544714813071433e-02 4.832165471468594653e-01
4.161425226699672769e-02 -1.091150814115589111e-03 4.453153069709093748e-01
4.414366292296813959e-02 -4.809629342701569540e-03 4.483668197194781713e-01
2.143854281838360187e-02 6.212276603140685916e-02 4.393121678396279539e-01
4.924459446267125118e-02 6.225244728752406947e-02 4.583116189568905430e-01
-2.534766833723682902e-02 1.731013975988390796e-02 4.244752957179877551e-01
1.670204386336741897e-02 1.474111412489682860e-02 4.283209545461367229e-01
4.769057778611737741e-02 -8.996029288882292224e-03 4.542806805522054958e-01
2.369008592430331753e-02 6.417461808625234132e-02 4.432365217557739379e-01
-8.590758497349637590e-03 3.906896053705622568e-02 4.070469760244321278e-01
3.562543049482964214e-02 5.156779674957281956e-02 4.388162614253905969e-01
4.274472558342885462e-03 3.182440961816391384e-02 4.023365600133690934e-01
2.922043900382550324e-02 -2.485516313004363168e-02 4.406688483007469292e-01
1.785859381376933910e-02 -2.280810775219884942e-02 4.371771699664004363e-01
4.963397267391898154e-02 -7.151487553383463827e-03 4.565920107225472924e-01
5.226799421106358146e-02 -1.852258804710765414e-02 4.683633105112855466e-01
1.464114640722111171e-02 5.980296952824765144e-02 4.273989001184285152e-01
4.258498108645412950e-02 6.678254001060629497e-02 4.517778296246245939e-01
5.779579391413910278e-02 -1.330083449934379818e-02 4.832196459830734314e-01
-1.044149055103715112e-02 1.826572054908850301e-02 4.176439853775635314e-01
4.639895543999245087e-02 2.912241677925714659e-02 5.097739681845940840e-01
5.595174607893450835e-02 4.488706822509491712e-02 4.651809352282511578e-01
8.657353136392671039e-03 2.716718164564399171e-02 4.095018793367679044e-01
1.743715415588561329e-02 5.028874828130728419e-02 4.230729761963140656e-01
4.984446685593890702e-02 -4.978978275919340550e-03 4.557062425675399986e-01
5.120140263431040978e-02 -1.106713141428482608e-02 4.629305710516094519e-01
4.790632531309346048e-02 1.156255743382661634e-02 4.492762808082449433e-01
5.621494394374343395e-02 1.938747399565075857e-02 4.619413688821610853e-01
5.237181303078677908e-02 4.875762938417656928e-02 4.915983662240328567e-01
8.842434629829826892e-03 5.044048775796437095e-02 4.140436944094682548e-01
3.989739198478840093e-02 6.739498063191137756e-02 4.746946550060559544e-01
3.743767410853073713e-02 -2.593303218834731166e-02 4.477388608336784759e-01
4.865809535712931760e-02 2.703314762575934060e-02 4.499953219970629914e-01
6.143499160018437918e-03 7.648338273437732711e-03 4.271785145954741791e-01
2.158679058145740459e-02 1.306446864784597053e-02 4.315329910747690567e-01
5.224518955938180220e-02 -1.768690354392700448e-02 4.681017670786907781e-01
-2.975991757977490895e-02 9.823444610903585283e-03 4.323638962155474386e-01
4.180063144334730807e-02 -1.930777136176392919e-02 4.488351321358207136e-01
9.638955863143901237e-03 7.897976027586850467e-03 4.283157546268229199e-01
1.176345893673321277e-02 2.101670908449471131e-02 4.210507836740659537e-01
-3.220918984573561961e-02 1.825440384614394895e-02 4.284094619143193339e-01
5.501821956752073889e-02 4.456601925580704754e-02 4.592563041334495888e-01
5.193156950731904475e-02 -1.908836535230564596e-02 4.677455040687718002e-01
4.654475492613868032e-02 1.679847224796856414e-02 4.479410158756910176e-01
5.528955875846525841e-02 1.205965855108089013e-02 4.612212677970209396e-01
5.228855685718487856e-02 3.889743037260321584e-02 4.546615871301228906e-01
5.174151770356516522e-02 1.700011001150239856e-02 4.963512661394595682e-01
5.702679750616872906e-02 1.306595373793849411e-03 4.730103439810727783e-01
8.950044992279086037e-03 3.828503830486206655e-02 4.103831989288555526e-01
1.023655923025422812e-02 4.051332512320762747e-02 4.124465159243111412e-01
5.636376829904893304e-02 1.862218660259918127e-02 4.837712183193827453e-01
5.788146984453199778e-02 2.482225278707396801e-02 4.726071060441994764e-01
5.795698334709310784e-02 2.628465211242276417e-02 4.737924863678619758e-01
-4.967927393460070534e-03 4.930987484490569756e-02 4.087016606319199830e-01
5.256984966181906666e-02 5.411465284983046214e-02 4.794132912692533055e-01
1.442953089648941513e-02 4.879469643964223086e-02 4.196963116584435105e-01
-2.279757659219988977e-02 2.145003173532618324e-02 4.207346108383069327e-01
4.558945117819419857e-02 -1.693970882532770672e-02 4.535995409429639524e-01
4.512536736491092049e-02 6.181462507312283916e-02 4.843988467034663903e-01
4.978167598903619762e-02 2.791204286967973597e-02 5.024140188636904147e-01
-1.742147345887855650e-02 4.365003160534241394e-02 4.105554851466484134e-01
2.127314411487906190e-02 6.024427684206153794e-02 4.343872913133786651e-01
4.731866863997512967e-02 2.286186678467217945e-02 5.074940959013687358e-01
5.416603930719459531e-02 1.690140938524602350e-03 5.030372810470423728e-01
5.751895157007660964e-02 3.408749902791868847e-02 4.763504750417196787e-01
-2.916271134108937724e-04 5.373441385872084614e-02 4.126067598024854011e-01
5.542725348775112693e-02 -4.294367826998497784e-03 5.119903075514325996e-01
-1.420382801485288275e-02 1.155996563351443379e-02 4.229597892870373133e-01
-1.593381399765789533e-02 1.989329368357778752e-02 4.187104565993849947e-01
2.094143676960453365e-02 3.930962472049355505e-02 4.264137394546825832e-01
6.175070679541834646e-03 6.099721692852817095e-02 4.238189103885890430e-01
-6.999517972644118263e-03 5.273258277039751668e-03 4.257699791543263501e-01
4.091336585608684046e-02 2.439564602809285096e-02 4.427888370963201092e-01
3.198861087758676086e-02 4.768122291187536221e-02 4.356619927030003780e-01
5.074964045375331828e-02 6.146027783807889860e-02 4.683772986303557651e-01
4.172916821347001648e-02 3.447091415711785178e-02 4.438097255469630187e-01
3.984214663452663452e-02 6.585857555056888468e-02 4.487734997061744724e-01
4.882739169495620146e-02 5.183252851150776247e-02 4.980541272482749693e-01
5.380944995080201576e-02 -3.066811254310061307e-03 4.639471841612957670e-01
4.326757344294555885e-02 -1.253849207771686770e-02 4.489175730573605749e-01
2.694036194618892877e-02 4.023775891703571667e-02 4.317549015342079244e-01
1.399218493263403203e-02 4.160229524242321092e-02 4.179214288892809104e-01
-1.591882474276480955e-02 7.812637856427736768e-03 4.254617307703932316e-01
1.138156496147685152e-02 1.500450925152690962e-02 4.248192857802266520e-01
-3.682545392598996457e-03 4.369667142984105801e-02 4.068531830319244702e-01
-9.643029468544589422e-03 5.113649374912224849e-02 4.115690970838273288e-01
5.331555561518203784e-02 3.410139511760338499e-02 4.965724830644094867e-01
3.259802744794502299e-02 4.685322956740615996e-02 4.362577773406198234e-01
1.033196522333033190e-02 1.434721391306347307e-02 4.246043303576707562e-01
2.310854681680774014e-02 2.041608197561250657e-03 4.344611086085261586e-01
-5.774950989319673107e-03 5.714341882899274909e-03 4.255629163576586382e-01
5.797072470664847710e-02 2.981341205969574928e-02 4.744915725861166278e-01
4.955646357398541674e-02 1.516676517704505442e-02 4.509793278428333441e-01
2.626317024917937046e-02 -2.263337989400994454e-02 4.388866260983061429e-01
5.643043958787524045e-02 6.233106756714856117e-03 4.682345292335226006e-01
3.646333325332765801e-03 2.693080268250454962e-02 4.035446651411007668e-01
5.456829904313308111e-02 -8.641360021196533084e-03 4.688105034315903086e-01
-7.873826302191510099e-03 -6.414032288753365035e-03 4.314793658193050718e-01
-1.446901829540835765e-03 -1.296103554116691953e-02 4.328647762029899648e-01
1.624162766646812615e-03 4.601986453624888618e-02 4.077165134644171185e-01
5.597074929216343253e-02 -2.930495492469971028e-03 4.698981500612811057e-01
1.770881283958081892e-02 3.712208546249901736e-02 4.233182916896079395e-01
2.126506157981615519e-02 -2.137430398392313816e-02 4.371662351972749883e-01
4.664522491380288655e-02 3.712765277314446222e-02 5.093696523070916360e-01
5.697386837651886166e-02 1.483311378547611664e-02 4.660605885595436870e-01
5.125649273467564049e-02 2.363093905575845005e-02 4.526254683035886850e-01
4.993053212742108726e-02 -1.432236626470960623e-02 4.614267643747635428e-01
-3.062425169656390889e-02 2.180471464892742850e-02 4.252988283756598542e-01
3.930461117799323445e-02 6.849336838570385666e-02 4.657360994167976664e-01
4.154323148384082842e-02 4.758218971464996117e-02 4.434204999990847829e-01
7.632926727837626921e-03 8.802909054139704259e-03 4.269854507976411639e-01
4.178144168746209669e-03 -1.086703179065976778e-02 4.323192756864391306e-01
3.362777122508602001e-02 -9.446679975852882369e-03 4.397557057754858389e-01
-1.956412385612349772e-02 1.915914372338999028e-02 4.206780353178652399e-01
5.384469376553319836e-02 2.714944485861904913e-02 4.935091468050693542e-01
1.155531231461525907e-02 3.146032043102182929e-02 4.134596569665095478e-01
-4.136349197711650799e-02 2.559314109394038132e-03 4.455410623111201174e-01
-3.460620652360807056e-05 7.021243110503790942e-03 4.252419667143483295e-01
5.102980417503586580e-02 5.748180979526245488e-02 4.775831383095641702e-01
1.748043518066432975e-02 4.275408728793476942e-02 4.223143835363357135e-01
5.365697535021512338e-02 -1.537041337007616533e-03 5.115254138695187747e-01
-8.317469695747451916e-03 2.606953359692505343e-03 4.279973420463700218e-01
-3.175209095608155091e-02 -9.211136070072620426e-04 4.363982697745604766e-01
1.094243756582923000e-02 4.635004696091792747e-02 4.150157388740858266e-01
-2.499208269204939575e-02 4.117491278387191977e-02 4.165806944818525870e-01
-2.624285126036450880e-03 1.367413867622055759e-02 4.201804933322350055e-01
4.952340002153505366e-02 4.989162374132895955e-02 4.988757447213433838e-01
-5.047930537310200624e-03 4.746692739385594689e-03 4.263056867719561271e-01
-4.482056221175712701e-02 -8.804784540495031505e-04 4.428816380279950171e-01
3.280119789815615083e-02 -2.481255063833225430e-02 4.431091302518486708e-01
2.120814228307464286e-02 5.385849544541122108e-02 4.271723633458856528e-01
4.940400438671889438e-02 6.005071072243149677e-02 4.786257701273578524e-01
5.932897756492709097e-03 1.385749423814187919e-02 4.227300110008725409e-01
5.629766171685992443e-02 -1.518833280290125994e-02 4.782879733845013526e-01
2.522053067601045043e-02 2.539485453290587016e-02 4.318650829519057321e-01
5.426510670338648146e-02 4.870274020794861103e-02 4.826371397243840455e-01
3.383679448462982575e-02 1.637488389574837458e-02 4.382879356802695803e-01
4.625249549140328376e-02 2.283338023946567333e-02 4.476538086616070888e-01
3.704709060307291579e-02 1.661503424946669805e-02 4.401667052751909726e-01
5.440257275420784522e-02 3.866756670612944702e-02 4.934506392786103257e-01
5.151499618202830255e-02 5.567968846956796586e-02 4.797627645086935400e-01
5.108407511075773594e-02 4.507412113886294369e-02 4.531610633608674776e-01
4.951792227050414580e-02 -3.028158660695310506e-03 4.539826698536181815e-01
-1.452452804362197245e-02 4.799563327120205669e-02 4.114592272838789588e-01
5.837220432973229053e-03 5.696592233407599820e-02 4.169498383240297090e-01
4.404105929563805616e-02 5.052595609663696613e-02 5.095627751211140311e-01
5.771313341615609549e-02 3.007955727852911279e-02 4.662423242607677265e-01
5.186226489854411231e-02 2.146746167027195618e-02 4.960688802154851751e-01
9.009713413880803684e-03 -2.315070837470169576e-02 4.379950268924858170e-01
5.662037812200438475e-02 1.694127120597837752e-02 4.823807987922208440e-01
3.516081976860092884e-02 3.976140590736698677e-02 4.386927488968996314e-01
-3.007329932348871276e-02 5.532283006581807834e-03 4.337763404649873089e-01
4.503466588138235055e-02 1.502355669655794194e-02 4.466313150665684462e-01
5.557355276907791769e-02 2.612393865961247855e-02 4.597288967395823933e-01
4.149907794335395972e-02 -9.673609925707380222e-03 4.463136449458904309e-01
2.880894349272748733e-02 1.161697282104934281e-02 4.356964088975865956e-01
4.872266922229850916e-02 3.725417795872755511e-02 4.502016359251876931e-01
5.624797025259482830e-02 4.435923479881159759e-02 4.687777378162892306e-01
-5.177396124005102102e-03 3.162756295670952206e-02 4.071235509341395997e-01
5.169239656470345223e-02 5.507641216833938230e-02 4.809855417477335582e-01
5.594927129533738136e-02 3.879458287447708903e-02 4.862597814963658949e-01
-1.212062774070177436e-02 2.745968166313087280e-02 4.131078398563807208e-01
5.737753698744060826e-02 1.571591547388322130e-02 4.742563164273164711e-01
2.649512212860157673e-02 -4.521929490413903983e-03 4.356505257837261502e-01
4.802911285705090128e-02 1.586620848466488085e-02 5.053921919092551063e-01
1.941656001416552577e-02 3.216248887406140261e-02 4.252041697520026475e-01
4.855497339918393024e-02 1.272248464043796053e-02 5.057105467982119240e-01
5.098452343205645693e-02 6.145051442541205750e-02 4.657874665328346486e-01
5.694811298940866823e-02 4.020949891611614452e-02 4.713724159295781257e-01
2.228772596215535667e-02 5.782580145388219184e-02 4.303663405760869698e-01
5.554607909324504877e-02 4.441616270080617213e-02 4.792290301114002782e-01
-1.259959378090767627e-03 2.222682902937161628e-02 4.094169447373003368e-01
5.320539420579188661e-04 1.601237616090028446e-02 4.187122157753316865e-01
1.145130869412289403e-03 4.284869780609218415e-02 4.069986337889756611e-01
-7.869760760550943354e-03 -1.884107723426708774e-04 4.295151958567194894e-01
5.629860716525266623e-02 1.503323166525075312e-02 4.835904351314252447e-01
-2.470323071356659433e-02 9.863917926627987706e-04 4.321290942849475014e-01
2.430940168289691568e-03 2.785274647165781117e-02 4.025950226214872196e-01
4.397675377765558613e-03 4.946948016036715329e-02 4.108078272985217216e-01
2.915130896856505532e-02 3.855770960205446088e-05 4.369813963895676223e-01
1.657683380205850210e-02 -1.045032837207175019e-02 4.338004347252853443e-01
5.450988131727047686e-02 3.528449059249865773e-03 4.989414650838109866e-01
-4.081760346599797723e-03 3.783258018133348055e-02 4.049690364323388359e-01
-2.292642042694964521e-02 3.230535263447468358e-02 4.161972861249241817e-01
2.860022716311445487e-02 6.368918924183050723e-02 4.395093142372003547e-01
-4.051578862095965919e-03 2.589246286191287591e-02 4.090822248537308581e-01
-1.495035154454843473e-02 5.752751549631801402e-03 4.263917413709560900e-01
-6.029965098003122956e-03 2.833113863067169072e-02 4.094140847657379845e-01
4.904792326717417189e-02 1.863818464458013788e-02 5.027910880782733294e-01
5.770646860642869580e-02 -1.022694672743187580e-02 5.130850042471004624e-01
5.491730329727648879e-02 6.792487068577916180e-04 4.651878065853921607e-01
4.149730016970739482e-02 2.667307892505204128e-02 4.434287268751760935e-01
5.651426893155148123e-02 -1.082895792919843364e-02 4.781822114968937165e-01
1.129818247138292091e-02 4.888155153036798789e-02 4.161328364243037647e-01
-1.780328637173141798e-02 2.958937751752321876e-03 4.290061475655582157e-01
1.395063507134580716e-02 5.971753973273378341e-02 4.260799096526954322e-01
4.096818445471011455e-02 6.494750774498160573e-02 4.485548798383500735e-01
5.345701178277204729e-02 5.323547196860436981e-02 4.760279131080454862e-01
5.816822847192423818e-02 -8.204007698433185558e-03 4.885947510202718336e-01
5.233860713802804265e-02 5.161931228756140577e-02 4.868537360690123328e-01
4.335302040661036249e-02 5.356021155535986566e-02 4.458266618174904772e-01
4.474377870335406737e-02 1.000571153776827135e-02 4.466414676555802710e-01
-1.964375347124168100e-02 1.960877160088207727e-02 4.204472440012052559e-01
2.061292734882208544e-02 -1.236535255409108511e-02 4.351199500781181007e-01
-3.374713354563216305e-02 1.887087474463197689e-02 4.313037510039591238e-01
4.392626477300693583e-02 6.407610244402198174e-02 4.803801501415013164e-01
-3.375240244026354169e-02 2.705256625764462103e-02 4.268772894645223026e-01
5.111524444474702111e-02 5.433270935592612871e-02 4.862776294957323886e-01
5.572391636195925257e-02 3.853077843571445227e-02 4.877923617378538412e-01
1.573433124003232328e-03 7.913294561096045898e-03 4.252859189052913269e-01
2.074310123228434791e-02 -1.081090173233919052e-02 4.348085923404984565e-01
5.539660871203532649e-02 2.088893923726721502e-03 4.973444795664742624e-01
1.766957805844712737e-02 7.166649756729375105e-03 4.321158464755876505e-01
-4.756093877747611873e-03 3.047415147019960982e-02 4.071295066305189447e-01
1.622989750575975013e-02 5.576099777302693378e-02 4.233741296390514663e-01
5.539949058434935625e-02 -6.040179393599141681e-03 4.694678261449626300e-01
5.170297079494575593e-02 6.698177492384098375e-03 4.544895716781514050e-01
5.805596461610476600e-02 -7.869689272430927668e-03 5.046252771836864381e-01
-6.531999440955360038e-03 2.354503840127895875e-02 4.118321993487739086e-01
5.505083908095422668e-02 -2.904064586195923871e-03 4.671375758991784810e-01
3.778387757401137359e-02 -1.473715609911858959e-02 4.437236862097208578e-01
1.060662622081000490e-02 2.602218802823329583e-02 4.161608953082051587e-01
5.073405273935878423e-02 -3.722770631482523202e-03 5.173736641001155379e-01
5.185609481485452255e-02 2.801717823692816481e-02 4.532661210279118058e-01
1.307768992899512560e-02 -1.802032465156332836e-02 4.363494706562562886e-01
5.130965186162920327e-02 5.752788999923151569e-02 4.761629149522824678e-01
5.749868086016303448e-02 2.734758278052532021e-02 4.645833322449869907e-01
7.058199791188039807e-03 2.190687362126061272e-02 4.144299335191860001e-01
4.848034122830512105e-02 -1.013760472193491174e-03 5.184514195818566984e-01
-1.686763220099712565e-02 4.719861262375558975e-02 4.115383101785211606e-01
5.175474263665380548e-02 8.266255698101410143e-06 5.129467564665916024e-01
2.356262472959855594e-02 4.107410396800257463e-02 4.286443839742977158e-01
5.636172950597660714e-02 1.558159526003273856e-03 4.700688356154230640e-01
5.750277139324037889e-02 2.747796056755657038e-02 4.806848678740947567e-01
5.640042606427766309e-02 -1.937107428273562859e-03 4.712944282643719562e-01
5.320023072577727274e-02 5.286424289666769027e-02 4.804129471649147276e-01
-3.408609860586987728e-02 1.258544598598241616e-02 4.363175132013764612e-01
4.505568889521190806e-02 3.899243440903400054e-02 5.118914730699594129e-01
5.738545859270317157e-02 3.556037338533334785e-02 4.753110352126341809e-01
2.147211336197254669e-02 6.185400937320416348e-02 4.387099064215506661e-01
-1.067612095511520295e-02 3.192494850282678182e-02 4.101223106000002061e-01
4.408719258286970810e-02 4.029053548555949077e-02 5.131175849001238243e-01
4.542753386041503000e-02 6.430864129423760622e-02 4.521026371365215457e-01
3.108377082583331161e-02 1.404151429061801203e-02 4.366799497634862859e-01
-7.949029880425929895e-03 1.032636926266190108e-02 4.222863564913315604e-01
2.348777533969106240e-02 -1.294162410800719053e-02 4.359088590927783224e-01
4.700104618912143151e-02 1.693132792738582214e-03 4.499080489287051177e-01
5.117171113345661548e-02 2.448723290606421611e-03 5.105650040878122464e-01
-2.495594994505142411e-02 4.389548159929425319e-02 4.166181410643728378e-01
4.325221607018116254e-02 6.894777607728884428e-02 4.586772322320048501e-01
4.224626502569573533e-02 6.750405836830891682e-02 4.737641608625924872e-01
5.267265673293169276e-02 2.905791792034413332e-03 5.065133817760586465e-01
5.450335415401674072e-02 -7.490377895053247984e-03 4.681324296011283859e-01
2.759902885638787842e-02 8.439717565661116264e-03 4.357219948829526013e-01
-3.389060877214829237e-02 6.461002962116857082e-03 4.370025433493089362e-01
1.453208768467956387e-02 3.929710838564267478e-02 4.194553436096943866e-01
2.906546509270790252e-02 -8.871971725855678712e-03 4.368835655066619084e-01
-2.087458662197446552e-02 4.883912211420851635e-02 4.171445865770335715e-01
-5.136258591849594823e-04 -1.244176715721495227e-02 4.326111279465346682e-01
-1.717816334837804493e-02 4.624559080887798851e-02 4.113614821852409342e-01
-2.662718047673405530e-02 3.556879516255915391e-02 4.174002668733564070e-01
5.662300067654733177e-02 -4.184361648568861967e-03 4.729153871664588671e-01
-4.074530423518026023e-02 2.585908805709251097e-03 4.431341557655989472e-01
