5.683091269525744615e-02 6.782123818381169400e-03 4.701836540336687409e-01
4.736806197222755838e-02 1.801097022826631412e-03 5.177200217732050858e-01
4.898416474290348543e-02 3.698850824184266028e-02 4.498946791877589391e-01
-1.969931842208579031e-02 4.797905351977374555e-02 4.137244393842858803e-01
4.451897077463252278e-02 -1.608117034226543701e-02 4.513912604555704866e-01
5.792853508703896259e-02 -9.762481288952665117e-04 4.869301366180999180e-01
3.653663055663925602e-02 4.790397078636506045e-02 4.387075837201250827e-01
4.411757187853244250e-02 4.438452230295520523e-02 5.119333495499445164e-01
5.561635939541550999e-02 -6.330854065297129157e-03 4.700865190383441972e-01
5.612419294742610615e-02 1.860401445038603607e-02 4.850944100048069085e-01
4.603373895049795578e-02 4.393201771046797294e-02 5.091518998143947927e-01
1.829110367018925085e-02 4.590858082082068664e-02 4.222802108065786819e-01
-3.872550860637560821e-02 2.615317871809650762e-03 4.395936408423496977e-01
2.657688069278836898e-02 1.953082050307696979e-02 4.328280357993006811e-01
4.718770423606362396e-02 5.641943622026004274e-02 4.906907245637673887e-01
3.448767124728897848e-02 -9.151333921452890763e-03 4.401315712668662505e-01
5.430472714360825431e-02 5.325752481459624516e-02 4.683359124782960348e-01
4.858251458682759372e-02 5.527924446300819944e-02 4.908903820659925588e-01
5.237541772417737135e-02 5.610186638891526828e-02 4.744898752208782100e-01
5.620091024297598631e-02 4.285272347374136093e-02 4.630207083251254851e-01
7.844264639534456740e-03 2.303365635611928988e-02 4.127648042128350125e-01
2.117458257609826713e-02 4.579664080848762364e-02 4.252307026200359830e-01
3.050399148633113622e-02 4.574841153731987187e-02 4.335342708999692096e-01
1.978137314170486452e-02 3.416309931955163054e-02 4.243477747408430090e-01
-3.144364887195096048e-02 7.787020188118927086e-03 4.339047730935315372e-01
-3.361129189795988848e-02 2.561391811775189445e-02 4.268801075584756632e-01
1.580055634822849584e-03 -6.195567625522944120e-03 4.306996944542226813e-01
4.934926693001935594e-02 2.445464482480346098e-04 4.522652281207953928e-01
1.074753279516429266e-02 4.182713784693006809e-02 4.117760680089209147e-01
4.353891285236685671e-02 3.185789219990697169e-03 4.460842337675983149e-01
5.558418507237979783e-02 3.103161024327694834e-02 4.895333462615176767e-01
1.097132009996071647e-02 5.025399896908140651e-02 4.146590394454784945e-01
4.538887491928192755e-03 -9.750902012099615240e-03 4.319021624686981142e-01
4.608434037131575040e-02 -6.715606045964387510e-04 4.492122950681378124e-01
5.495898076742827820e-02 -9.322734752494381966e-03 4.697906179930646520e-01
5.822866729477720743e-02 -1.307274435695396364e-02 4.860217262082247580e-01
-3.097158129256389475e-02 3.032800172042013874e-03 4.341034919449165974e-01
5.743724149573686127e-02 1.496711595974773053e-02 4.771787753399736598e-01
5.802041012066493780e-02 -9.408065296320520382e-03 5.111742015857915211e-01
4.188633111035947043e-02 4.585659673971526767e-02 4.429963592075629730e-01
5.147225816498663536e-02 -1.596642455733022700e-02 4.654357731772336693e-01
5.791283693129275351e-02 -3.344442835796744735e-03 4.797094842552660499e-01
1.529111815294879537e-02 5.088511973909843472e-02 4.197821154002959188e-01
1.403491284575850845e-02 2.095083966407759127e-03 4.313299824982583242e-01
-4.903225550623810207e-03 3.886611537393518893e-03 4.263647139910927697e-01
5.067169788767782873e-02 5.990259882787678236e-02 4.729947163666567422e-01
-1.147815045227106728e-02 4.205291554446530938e-02 4.076890047751704493e-01
5.369033710152370381e-02 2.963432195159256682e-02 4.553943254423167275e-01
1.673156505193719099e-02 4.269772369840667270e-02 4.202519229736196293e-01
-3.981638695473124073e-02 2.571846164796492019e-03 4.400993452746869705e-01
5.474042771444580235e-02 5.101994114174913941e-02 4.658562052103388806e-01
3.017409300642704198e-02 6.598319469894438349e-02 4.469358950418149679e-01
9.092693749713276269e-04 6.319803180024639866e-03 4.255304430640162172e-01
4.939787731065899135e-02 3.791201437691563841e-02 4.504438754560408653e-01
4.826922336109606276e-02 -2.294945134995421757e-02 4.612154884362686946e-01
5.516902288349258277e-02 -1.039051638124050686e-02 4.714855665211216684e-01
-1.516246297987703870e-02 3.667001534104712135e-02 4.096478700582059096e-01
-1.646200848339313735e-03 5.451026773922696550e-02 4.131070564596973083e-01
5.329607322009703718e-02 -2.184463430336937295e-02 4.714379888151942755e-01
5.490619165228075721e-02 4.363992728809967109e-02 4.575020408656610416e-01
8.529257867637970308e-03 5.591064153605948897e-03 4.287435753139484107e-01
5.586513427247630226e-02 4.619008065479342923e-02 4.663332343698690097e-01
-2.403187849588235905e-02 3.338841196219687751e-02 4.157670087310672558e-01
1.816597250329681640e-02 -9.624301276039937472e-03 4.337620135471303984e-01
5.308501861304856795e-02 2.280217906151673496e-02 4.542016060744046291e-01
-2.442375722167491880e-02 2.832092337689790656e-02 4.179923889677625848e-01
5.526911593877529422e-02 3.903839373794273232e-02 4.581899254922472409e-01
-2.864724534973001058e-02 1.726764607942745181e-02 4.259918143138306523e-01
8.109261249115266162e-03 -5.463032609264253242e-03 4.311565674334128517e-01
1.173309948507616357e-02 3.986401443181093046e-03 4.305205102301848941e-01
1.022000473096753084e-02 -2.119103502905993544e-02 4.373331349011652658e-01
1.895558697766337210e-03 -1.015694442300717551e-02 4.316591391014579226e-01
2.132134066472899520e-02 -7.465792861016571150e-03 4.341187049586768820e-01
5.290474382142382886e-02 -1.300985282178599226e-02 4.672383920829855652e-01
4.476211639040267309e-02 -1.526793556365038662e-02 4.515385671015395008e-01
3.846339851998446108e-02 6.821234230606419702e-02 4.678890958763096131e-01
-1.587025877993119075e-02 2.423809791080363402e-02 4.155634176543905323e-01
8.280915010543636948e-03 1.304306962518489953e-02 4.235481821565590943e-01
-2.537059344994864202e-03 4.038216040699417475e-02 4.048071880859651084e-01
4.772634936578235010e-02 3.537065246464943247e-02 5.070409528549998379e-01
4.183867743465979894e-02 3.403384393103761531e-03 4.446036858248622603e-01
4.938077698804513999e-02 6.263314086949123109e-03 5.098377404714405925e-01
5.593821934033970517e-02 -8.444193688104296644e-03 4.730582565278430018e-01
5.748065340713465199e-02 7.262875834810247205e-03 4.792294881401681361e-01
5.629319708098749070e-02 1.700139344972184316e-03 4.932173026110591163e-01
-9.583000543925643613e-03 4.254493940735775553e-02 4.072025411254309724e-01
5.262546495880297825e-02 2.305801983629470961e-03 4.574713864191191637e-01
3.758488837935162596e-03 3.064123719761757333e-02 4.011192020199745301e-01
5.789345269578516362e-02 2.639153872225260405e-02 4.665881799537913155e-01
4.089028196911892454e-02 6.960207288342104559e-02 4.517517651813192092e-01
-1.255229026896046915e-02 2.972713937492230465e-02 4.111596439304030515e-01
5.215495966614665246e-02 -1.743920989442213770e-02 4.676724318050888285e-01
7.333978919452519875e-03 1.955425407189748457e-02 4.167764188986978202e-01
5.744770140557125399e-02 4.128998108294821938e-03 4.763923614966614761e-01
5.504900931643455508e-02 8.058672141538575362e-03 4.911033746885404283e-01
5.092916093459960020e-02 1.029501614126447466e-02 5.010687988030305684e-01
3.166547413894418156e-02 5.783075195736856605e-02 4.367506736764243391e-01
-3.462190171389817328e-02 2.058461114490000785e-02 4.314479382842100197e-01
5.121079485582078622e-02 -9.197372794087867176e-03 4.614774614450273815e-01
3.566517749768807755e-02 6.775441766866098503e-02 4.485721816788681982e-01
3.710097334999491736e-02 2.305706913782249942e-02 4.396877733040508995e-01
2.062950489218201566e-02 5.540518360993772901e-02 4.261104304157104505e-01
3.788442419223694846e-02 6.790771431186021223e-02 4.712174895808037833e-01
2.004965591880899026e-02 -2.175527212295749052e-02 4.369883339024614455e-01
2.922623626740007002e-02 3.530777430554601221e-02 4.333302039574546960e-01
-1.470358857476717317e-02 3.777425855623614548e-02 4.090769780038863712e-01
5.373909736762681050e-02 4.795386804830614920e-03 4.592970118427314175e-01
2.488247276119682529e-03 2.750257886204804728e-03 4.284809591823767749e-01
2.944882292185015127e-02 5.297560097046544181e-02 4.324468243668954659e-01
9.521398725836193594e-03 6.067130835018957197e-02 4.251500305753040942e-01
-4.864348990068516863e-03 3.123625454415035127e-02 4.062165148145768789e-01
4.848184915333951517e-02 2.860542715089164217e-02 5.054087644537027524e-01
5.549769845159314291e-02 3.604655481877782480e-02 4.903594232999661795e-01
4.468911582715590081e-02 4.618350792308131142e-02 4.454710515963712369e-01
4.059967524037272346e-02 5.280175189825459664e-02 4.424926267347334963e-01
3.160092071529328750e-02 -1.499253073346452567e-02 4.392377697916557411e-01
4.319959072369211617e-02 6.717001232165099867e-02 4.518737905138209832e-01
-1.590701673772355971e-03 8.308979472750258402e-03 4.234623065133277797e-01
1.860817948444207226e-02 4.620499215977021124e-03 4.326000989829136278e-01
2.677286196588567896e-02 1.234707552717742747e-02 4.340582684864537910e-01
9.463243816162383859e-03 1.764306324204793427e-02 4.204612839424650694e-01
5.747302984618572752e-02 1.429962537489284057e-02 4.709481818514802964e-01
4.186712693129936158e-02 7.122472809580743247e-02 4.553011198559840378e-01
5.295455587937701603e-02 3.674884636238583829e-02 4.549755092402910095e-01
4.836573403893044271e-02 1.887060118315984567e-02 5.043498328944532316e-01
5.541253095686938385e-02 4.855852920666620803e-02 4.729634753090540822e-01
2.755170481018721917e-02 6.165268832589384379e-02 4.366149113155463057e-01
5.413850358101923721e-02 8.970969148778439733e-03 4.586297691238647722e-01
2.991707302385387957e-02 2.936256619864459350e-02 4.344425817652119992e-01
4.668793976041079458e-02 4.257995840365661616e-02 5.084254718730377709e-01
3.984709683138495766e-03 2.849846027214650995e-02 4.015790849702873255e-01
1.099466532693381404e-02 5.911893222418985322e-02 4.212322576173375688e-01
5.104822042173462471e-02 5.940375728250282122e-02 4.723371765133741462e-01
5.465885375468906154e-03 4.506774442011646231e-02 4.081505507130311350e-01
-1.915996190083350467e-02 4.616285442980656156e-02 4.116470077992973597e-01
2.504561417250731128e-03 5.025258638876577144e-02 4.084718276219799216e-01
5.196734530588621032e-02 5.822596861692791448e-02 4.600333305268032302e-01
-1.263166904276248961e-03 -6.408855584071209560e-03 4.307313819874750149e-01
-2.507919912220022904e-02 1.504109307854983174e-02 4.255680645954029173e-01
5.656268630172105183e-02 1.408668780726918604e-02 4.826060760547017936e-01
-3.088237070385640645e-02 4.317871740806710282e-03 4.343149373837038030e-01
-3.267149384380456378e-02 1.257815079799868771e-02 4.332136075580965140e-01
3.879732093320097802e-02 3.303379216704604299e-04 4.424960959460607635e-01
5.503865205481745654e-02 -1.022474190395730384e-02 4.708250672449123542e-01
-4.282397298479169445e-02 1.918426236259483750e-03 4.466056760253222513e-01
2.271805193631429298e-02 -1.525953201479820012e-02 4.361227504543817579e-01
5.611304051317715647e-02 4.252360568099360083e-02 4.626013124336268989e-01
3.316591560374133885e-02 -3.225196142709397303e-03 4.387715022697465383e-01
5.085734043454779446e-02 5.991033134105348823e-02 4.719357895364736377e-01
-6.363263442820368994e-03 5.226805538210407137e-02 4.116862965898037130e-01
-8.384967294137832695e-04 3.009068183858417539e-02 4.026068967521296282e-01
5.783372207603512671e-02 2.628149299618209520e-02 4.655171689078696495e-01
4.742217090057832679e-02 4.200059991052491198e-02 5.073975580007559216e-01
1.914003608200711207e-02 6.954900275669929563e-04 4.329147318661129562e-01
3.082529761569446219e-02 -1.742237943185230911e-02 4.394753749587269054e-01
4.141977376095116320e-02 -1.164318742933006211e-02 4.462508261563208345e-01
-4.444723502702251777e-02 2.858210273101301907e-05 4.437320308632929922e-01
-2.574741329198584894e-02 4.686860058952569980e-04 4.325573163891208717e-01
1.748086430061621815e-02 5.934835335859865377e-03 4.319753195893311637e-01
5.551635320853060690e-02 -7.078504896194069695e-05 5.004402615310302727e-01
-2.067209934131253313e-02 -1.016420431359596997e-03 4.315152044847563317e-01
5.147427662763191109e-02 4.960760507610681436e-02 4.933345895590345864e-01
3.924915716054704073e-02 -2.016602824011406309e-02 4.463112607204573479e-01
-8.528747339608209327e-04 1.189861482023619327e-02 4.208886474842615244e-01
4.255526907617437904e-02 5.625561729971407382e-02 4.449979586597693215e-01
3.470962227711504172e-02 -1.184831102705974359e-02 4.406072720630359596e-01
5.010998005773742436e-02 1.247252533416554066e-02 4.513002154938455801e-01
3.897975412631342340e-02 2.583641754821156336e-02 4.409757825516712471e-01
5.189791628354142872e-02 3.062412251895147222e-02 4.528868547390287880e-01
1.862979825296724040e-02 5.625850346480565367e-02 4.253591534683562880e-01
1.079186081823633493e-02 6.133284391258708723e-02 4.297298263615099145e-01
-3.187221833776602425e-02 2.212054519359397953e-02 4.257835812626483696e-01
5.214520623136666144e-02 9.973616693455876307e-04 4.568957830958182975e-01
2.987160568652582823e-02 4.048568257686860350e-02 4.334343019256381435e-01
4.019737958928458477e-02 5.681577715032178760e-02 4.430041964131686827e-01
1.365102831941828604e-02 -1.698738423674699474e-02 4.359025842312887478e-01
-1.160583908344312021e-02 4.283060839223962885e-02 4.077680273887985263e-01
4.869963274909701323e-02 -5.918344972480692190e-03 4.539024126285848837e-01
5.561905694129824079e-02 -7.640176973473214624e-04 5.008937085377054288e-01
3.545134329345710211e-02 5.878680585422774857e-02 4.400691495711509527e-01
5.006364236320965527e-02 2.611050969226765689e-02 5.011385629518606555e-01
-2.199156384881461191e-03 2.220707125986094710e-02 4.085729016118627710e-01
4.955981104457690689e-02 5.127372563525836938e-03 5.108365690851001117e-01
2.494749086936845148e-02 9.941369075284216608e-03 4.336542735989458719e-01
5.946488229986868906e-02 -1.191836169674493316e-02 5.048060584305347209e-01
5.841198941528619182e-02 -9.450763123765729481e-03 4.898976538891698373e-01
4.603540358456167936e-02 -1.197992852456472752e-02 4.525847450731955712e-01
-3.439367891767851348e-02 -4.661792112482564601e-04 4.377352256123233087e-01
5.765175368798126226e-02 -1.625629331026427803e-03 4.920024648704189318e-01
-3.141084041527900800e-02 2.067368444891289417e-02 4.258963942623010812e-01
3.409614685467355494e-02 2.308990035422206488e-02 4.376732473935849299e-01
1.270781141354497892e-03 3.510488526978056134e-02 4.016258893435092903e-01
5.223677879641575733e-02 4.928531819304456107e-02 4.910824371601344995e-01
-3.370211061748584064e-02 1.545058639999781665e-02 4.334517506452872926e-01
2.598854775629915945e-02 2.285474878342576982e-02 4.321007178644312718e-01
2.293683832371513909e-02 2.518579346376694644e-02 4.289495459110806985e-01
5.431281812630955885e-02 2.171274466994449481e-02 4.561181497463872581e-01
3.761680940968576553e-02 6.105473076210918282e-02 4.428449398794052638e-01
-2.377234139896726786e-02 1.653842470068909304e-02 4.235797529638078429e-01
3.229841053056653477e-02 1.623662868773075377e-02 4.368867656838265612e-01
4.541268009979333720e-02 -4.268430938634651048e-03 4.493797259675975653e-01
5.697673430492906921e-02 7.547012723886711719e-04 4.909033931774248738e-01
7.834044640793326464e-03 1.488950155192546657e-02 4.219121025937233038e-01
4.991184063190152315e-02 -4.067347475509389479e-03 4.548438457526560730e-01
-1.536515775615899040e-02 5.969763730903012919e-03 4.259260767637396139e-01
-1.408592581204641363e-02 3.868393164912927590e-02 4.084952350937199328e-01
-1.077677828912272651e-02 3.248667633532016652e-02 4.091305266435967258e-01
1.087470161033099719e-03 1.396784082706410517e-02 4.194397459089538316e-01
2.515980736755084671e-02 1.375259953738290457e-02 4.328007546247008563e-01
3.084076834985895882e-02 -1.136323330753238187e-02 4.379489627715066891e-01
5.647363350444963015e-02 1.767686094659702903e-02 4.623775507121238859e-01
-2.765787122939901074e-02 1.488198789452638282e-03 4.325290523112022001e-01
4.634594518952939168e-02 3.215985589678656276e-02 5.095204834121698223e-01
5.404696514605241559e-02 1.339596855254525896e-02 4.907005810740416307e-01
-5.853766802495958405e-03 -4.642748326009723918e-03 4.303265860931387299e-01
4.760576642882654447e-02 4.403315935822631200e-02 4.485467420588470921e-01
1.115551354902037488e-02 5.257859216875525321e-02 4.160690208852245164e-01
4.880747044044594918e-02 4.570958732478249548e-02 4.499397698673467394e-01
1.071858264491328330e-02 3.679981810653630558e-02 4.113979281552211931e-01
4.008375705299953295e-02 -1.488425280889980537e-02 4.454939407020651054e-01
5.582042038057521971e-02 9.458813021070190674e-03 4.632149861309739491e-01
-4.203728416103720382e-03 5.280359425094800774e-02 4.114575772090403039e-01
1.804281304752147763e-02 -1.849524584313016681e-02 4.364120591992176612e-01
-4.188957108640247937e-03 -1.114116509588050641e-02 4.326905843936403318e-01
-3.468819181728761275e-02 3.402434176462227396e-03 4.365232315561697329e-01
5.585578202686466293e-02 3.627536134255194417e-02 4.884188608117389641e-01
5.662175055752199926e-02 6.117247081029252020e-03 4.687985558991267232e-01
1.700038757744158982e-02 3.384416286118756279e-02 4.212366385886480713e-01
-3.198182234819739976e-03 4.994921844652859544e-02 4.082702481583975196e-01
1.932848211159459220e-02 -1.957979564658976143e-03 4.330485125055031359e-01
5.096056566857155162e-02 4.604959884541052345e-02 4.992696137765937348e-01
-9.425839547857618739e-03 2.727225025235574529e-02 4.110538658920315225e-01
3.933228318575406057e-02 2.428060729387444480e-02 4.411956868592154524e-01
5.460544981584730673e-02 2.616951515713603071e-02 4.914691473191211690e-01
2.477988237396131638e-02 3.112238178974019789e-02 4.298293720602008872e-01
5.609578825834721921e-02 -7.711627704311690978e-03 4.731186516870802827e-01
6.264851007203238106e-03 3.026739287593729726e-03 4.292087263166579070e-01
5.755261309841878253e-02 3.397340693827865382e-02 4.770326196354839343e-01
3.522252446368051050e-03 5.275744717892412450e-02 4.117837361148100062e-01
5.485370475406755458e-02 5.062507645990474425e-02 4.735200669707614329e-01
5.726046636287982633e-02 1.622053925456111434e-02 4.662029534921460217e-01
-8.818873351481688883e-03 5.064294990167506755e-02 4.097688728335616148e-01
5.515220239361520727e-02 4.354919843920473238e-02 4.584516977400326931e-01
9.131197995614770066e-03 4.008274650197908573e-02 4.093387748112651825e-01
4.960787281120518366e-02 6.277700763508706205e-02 4.598580546405056646e-01
-3.427649937450581025e-02 2.101828185277726524e-02 4.303199947307498330e-01
4.701726564838102501e-02 4.383994879223683527e-02 5.076250905516229706e-01
1.060738988697648710e-02 3.228359531412611227e-02 4.074282040938810301e-01
4.697251567282725165e-02 4.831605119962183864e-02 4.478369702172566025e-01
4.936130102846066070e-02 -2.331134262980959215e-02 4.635045201994509867e-01
-2.244305256575872959e-02 3.919783188213393083e-02 4.131916174588332047e-01
-3.642667509113487953e-03 3.294517960981963034e-02 4.043549334814713903e-01
-4.564852350116331212e-03 2.619409591923809941e-03 4.275982254813979200e-01
5.329610459885727319e-02 4.556719879317997629e-02 4.553156955103210279e-01
6.292165656972896828e-03 5.284419562388979752e-02 4.124905380365789798e-01
5.760220614233513975e-02 3.478880295846648735e-02 4.751716355000099035e-01
5.699329089744956806e-02 3.893224385061520854e-02 4.747280908214567274e-01
4.923406304337461792e-02 1.210969516384342338e-02 4.503140234057665392e-01
5.415430776701105758e-02 1.834259311496318906e-02 4.560426755321638215e-01
-3.274143039243612892e-03 3.393088401057180181e-02 4.036181986965023394e-01
-3.675155311384253713e-03 1.750059745653098631e-02 4.141017926317556164e-01
4.805653947292214123e-02 6.522873028836749520e-02 4.595955017025259437e-01
2.677761902572352651e-02 -4.729882303964889206e-04 4.356750356542385405e-01
3.931669738606970860e-02 5.308405284200504171e-02 4.414048660080774900e-01
5.790910385817409772e-02 2.317892090234278599e-02 4.707277803723001197e-01
5.631043606157338371e-02 6.205446846373377512e-03 4.880350443014335737e-01
1.061950020298968629e-02 1.305271396463655864e-02 4.249159062742122184e-01
4.088044026720896729e-02 5.680368877693339064e-02 4.436203513402098286e-01
3.971854795700464902e-02 -2.312665875480338779e-02 4.479017595530511153e-01
5.262103629948610556e-02 4.875127543022660104e-02 4.904986555559498473e-01
5.640219348908770414e-02 -1.002620527537844558e-02 4.766950564977011640e-01
-2.079346629048901482e-02 2.543258360540488761e-02 4.172895739121860181e-01
4.152667774699572711e-02 4.596818652831861224e-02 4.427095411293968108e-01
2.300933270158900951e-02 4.782413400219008570e-02 4.269587605664625918e-01
5.585072356870770388e-02 3.255932154538618284e-02 4.596128679739004408e-01
4.426896499393245116e-02 5.515781936994927637e-02 4.964083300311107894e-01
5.419558712149356167e-02 1.631067450846006989e-02 4.901404694808307316e-01
3.056486509694434500e-02 6.643161847230111272e-02 4.498603462151504750e-01
5.761071832855773484e-02 3.642865365224047525e-02 4.708354820545360142e-01
1.754589018268967737e-02 1.425391354898004025e-02 4.283452201734014309e-01
2.424805930324775566e-02 4.830047499135813743e-02 4.279456951054868008e-01
5.534608100245619333e-02 4.910886272385740769e-02 4.693351262433861359e-01
9.434456133216926124e-03 3.753996851849675243e-02 4.094314207956455953e-01
2.655218507638837377e-02 4.623249662507199903e-02 4.298727370389029412e-01
4.027643247309241337e-02 4.595948763989119237e-03 4.431665466150794819e-01
1.932836232157948003e-02 6.130632229947823031e-02 4.371213003266425368e-01
9.087370411331119335e-03 4.337601376630122879e-02 4.104938290778752941e-01
4.237326282537432626e-02 4.492553561587457611e-02 4.433816803550117980e-01
2.149587653832014944e-02 -8.970273780308598080e-03 4.344324779301045325e-01
3.737320548742181781e-02 1.366917765564053602e-02 4.400942276904127870e-01
-2.231998130948091921e-02 3.397793580454418205e-02 4.145408721947401176e-01
5.749786250209104610e-02 1.705364166318358923e-02 4.778504370852817429e-01
1.935569258121673519e-02 6.092747296395776418e-02 4.361018666059000015e-01
5.731212320172541369e-02 3.387995010663415879e-02 4.799292482642021906e-01
-3.749184127270568240e-02 3.642743960456228808e-03 4.399677080292960785e-01
5.495993227001327863e-02 4.801097856657018242e-02 4.595723458294074804e-01
4.045022578912649963e-02 6.303894125249193126e-02 4.454581496892128789e-01
3.145653833448473768e-02 4.812404919063580783e-02 4.342270409860656821e-01
2.307903148981082023e-02 -5.835888219240506838e-03 4.344328191557121355e-01
-8.549852267123445905e-05 1.778057830564205291e-03 4.285860006859369409e-01
4.919936294359144452e-02 3.453954118523167027e-02 4.499180933725708820e-01
-9.002721847838911912e-03 5.059158186661778800e-02 4.096879954829111270e-01
5.036676755578800568e-02 7.542794193154640087e-03 5.054834921138905424e-01
-4.722719715844987676e-02 -2.183946708186340711e-03 4.450672431451563327e-01
5.165083276813438318e-02 5.875271653819238993e-02 4.708580744480175273e-01
-5.525457827772714200e-03 3.947307240051046301e-02 4.053675683115502970e-01
5.719273979882307651e-02 -5.562041262012876880e-03 5.056271692575656784e-01
5.002841908339879240e-02 2.819716804189684352e-03 5.123460781990627488e-01
4.749184274205336953e-02 3.008767105094163272e-02 5.074456417628416816e-01
-4.265056778844584021e-03 -5.470116664653451762e-03 4.304837068373206233e-01
4.816425912511805574e-02 6.154631623841690102e-02 4.534039713351890599e-01
5.020174596351839602e-02 -1.778544717580980011e-02 4.633235732324960665e-01
3.037130485909800975e-03 1.311050014221928559e-02 4.206699229124804540e-01
5.306207276153217245e-02 5.519282879117023283e-02 4.725030052370483014e-01
9.763452206886628210e-03 2.410725240834137723e-02 4.151644647979537139e-01
2.735323557541350509e-02 6.533483726510032341e-02 4.496217167117876334e-01
5.736077536263172599e-02 3.249361854845213976e-02 4.642437062066803177e-01
-3.213198303105483516e-02 1.929976437744783391e-02 4.271756248610560358e-01
-3.718743559874717816e-03 1.669572251466709028e-03 4.281553166250334219e-01
2.010990296984380490e-02 5.622087238563219791e-02 4.265598174775986906e-01
-2.616124766763554266e-02 1.993230110611536599e-02 4.227233140661324495e-01
1.833057950372003753e-02 4.736825827202375411e-02 4.225048446776824007e-01
-2.184948747221600058e-03 1.689891286753440400e-02 4.154385961236657931e-01
3.994444971386081761e-02 2.193268119970161537e-02 4.415590771835608552e-01
5.345396382373834160e-02 -1.826991556514754797e-02 4.708035050783638265e-01
5.666023986230962761e-02 3.830013673139973790e-02 4.790767794336886487e-01
5.780065283289474720e-02 3.522145601144596738e-03 4.805610018963647478e-01
4.118075489396402084e-02 4.539809154846153466e-02 4.424310112153138075e-01
5.767725069945384142e-03 -1.779183113689550982e-02 4.365126455510736636e-01
4.786423360358987855e-02 5.443969550431485699e-02 4.954588322788002208e-01
4.863241451992617731e-02 1.389098501477335594e-02 5.046449952478997414e-01
4.694188910289507494e-02 1.681734050792414378e-02 5.078999319973797055e-01
5.507398284421093776e-02 3.614078882390701040e-03 4.634298404356138046e-01
5.496427856972838089e-02 2.005948992985616061e-02 4.579595039911571464e-01
5.286019370108201859e-02 5.103256382324936925e-03 4.568972747152704739e-01
1.267800596762165728e-02 1.606879182437639247e-02 4.238391989741539523e-01
3.741735221678134382e-02 5.315433061066431042e-02 4.397190124615845130e-01
2.165270867281514008e-02 -2.365776736235776848e-02 4.373614407428418338e-01
1.938608933225401815e-02 2.856456470206939283e-02 4.248387513905340085e-01
4.878640765140949270e-02 6.470089578158667865e-02 4.616943105058840535e-01
5.385957251211410945e-02 9.696765190398411866e-03 4.938022707970338709e-01
1.590264743186720585e-04 2.992544144421671864e-03 4.277112190946055215e-01
-1.099478717087766684e-02 -8.051981270843168795e-03 4.326421140430561363e-01
4.946483452858862345e-02 3.927441790983386000e-02 5.044297148788533525e-01
-1.932095902796175657e-02 4.055363453059661338e-02 4.103473073713888031e-01
1.215776781605840996e-02 3.736635735609970116e-02 4.139187528911225655e-01
5.809584808585784715e-02 2.875624153624047746e-02 4.702942216571343037e-01
1.900421572735891407e-02 5.911687337957510779e-02 4.290579749604730431e-01
-3.427929953574814642e-02 -3.500412255125532300e-04 4.375943630442568066e-01
4.277786910781625207e-02 -9.496056997452380355e-03 4.474090495269734125e-01
5.465551847969447874e-02 2.556698518344001358e-02 4.911172909149133514e-01
-6.947756136701519272e-03 1.999917993616335057e-02 4.140761289137027679e-01
2.964446449811335149e-02 6.572676930543606966e-02 4.460325802295173614e-01
5.005274927447503353e-02 4.533473648258260630e-02 4.513743823184686588e-01
3.257275461539627104e-02 3.312880272608898641e-02 4.364492397806924440e-01
5.057045231108171779e-02 2.309489103470933544e-02 4.514623538039141404e-01
3.844936402693656385e-02 6.740298330616123490e-02 4.489470038841831268e-01
2.310730395076659310e-02 4.020656449156445600e-02 4.273056065223658773e-01
5.068788984046835450e-02 6.223804351146675767e-02 4.661441767060894303e-01
4.752041489370851385e-02 6.411356387391137224e-02 4.756288716811771233e-01
-5.678443112602042306e-03 5.339890944453268978e-02 4.125676996877828961e-01
2.917958366044715382e-02 5.314908270723268241e-02 4.322390844661256337e-01
1.578500215040348764e-02 5.674991973407016166e-02 4.230174836478931000e-01
-9.456018662874444633e-03 3.620175571969033029e-02 4.071676687920781634e-01
6.970860303593335965e-03 2.356813928697567423e-02 4.095904556199262414e-01
5.322033989821910172e-02 3.682421039796808515e-02 4.553584917505354435e-01
5.732872618337861437e-02 1.434457515201732931e-02 4.687133243453662779e-01
3.545539112270335719e-02 2.497714626802720328e-02 4.385332689085463254e-01
4.144952215208211332e-02 -9.839139329431378228e-03 4.460456268462788532e-01
-1.984254159711866528e-02 4.404606726485848361e-02 4.113532114900390613e-01
5.725618225427735186e-02 8.627413466043131612e-03 4.769813298926502965e-01
4.282256319785436582e-02 6.614366699015493054e-03 4.449884191369143371e-01
3.918794768369273512e-02 3.936686518878586977e-02 4.410050689892108244e-01
5.741235188460327293e-02 2.116742208463146674e-02 4.792826952648078787e-01
5.131038924957113945e-02 8.725210479357738136e-03 5.012281573141016411e-01
5.274529551366403946e-02 5.577210867517212733e-02 4.731743851738733353e-01
5.768407986378798480e-02 3.910738222127714200e-03 4.812054759513905156e-01
1.894838937812164809e-02 -1.595867043914984268e-02 4.355730921250647314e-01
3.211916922403324631e-02 5.432791713753651330e-02 4.348888548559531886e-01
-1.799552085223257106e-03 5.032410130659954739e-02 4.080263024732904142e-01
5.762691508161075366e-02 1.817864975273000491e-02 4.719268858627662100e-01
7.254378220348782318e-03 1.443370277252399234e-02 4.220043193246669211e-01
-1.957022637268327619e-02 1.138375822334698056e-02 4.243945612286175728e-01
5.800810089387353069e-02 2.998405097946077805e-02 4.673840776065926184e-01
3.332059630626387631e-02 4.173958654502278945e-03 4.383278933217252815e-01
-2.932658528034792420e-02 -1.933456001627860670e-03 4.353592010760922171e-01
-3.163258326793914194e-02 2.184207291834238535e-02 4.256820883137756306e-01
4.238652413967697319e-02 5.186773304290295643e-03 4.447930610783829009e-01
5.653799232228670646e-02 -3.243368457455754646e-03 5.049472064064821630e-01
3.292430438015971766e-02 2.831657534033432677e-02 4.366654381213356251e-01
5.628997071957161924e-02 4.005732496900885065e-02 4.627175983616244048e-01
4.439246457841546784e-03 4.766375043455757521e-02 4.085059151027831126e-01
4.021043830103154110e-02 -8.636694491313838887e-03 4.446626799500312255e-01
-1.621766676162211124e-02 4.741925904972604799e-02 4.107774671338387806e-01
3.920012549961828657e-02 6.722977018457600151e-02 4.743534631805786939e-01
-2.324704030137918903e-02 2.988473673777383884e-03 4.303987715228042576e-01
-1.071379029142263857e-02 3.572441659666825836e-02 4.080159351008171842e-01
3.197246025063717190e-02 6.288478455776957965e-02 4.400211122860019364e-01
5.004527200388909219e-02 2.433295241284286897e-02 5.008085005058035000e-01
1.371988878455938921e-02 5.357183162822354294e-02 4.189903650316172956e-01
8.351357582370797644e-03 -1.289752795618441528e-02 4.337964095010822252e-01
5.566057449952810376e-02 2.588861181229098335e-02 4.886586085244045696e-01
5.338049436563503669e-02 3.688906461134269094e-02 4.555896676098084574e-01
2.590327915664307479e-02 -2.115529218904202598e-03 4.352980947855354943e-01
5.314513177589202247e-02 1.103433435409850553e-02 4.553782773700221775e-01
-4.020838112609081277e-02 1.865039196278610962e-03 4.408581222883181661e-01
5.060365670452812020e-02 4.861066618821341390e-02 4.970989500256621230e-01
-1.891852743163865286e-02 -3.189737139253780163e-03 4.322631422043488603e-01
1.498901430581120985e-02 1.036980913029791375e-02 4.289456588972719309e-01
4.491121793795232325e-02 3.678589874337340887e-02 5.119879038717561892e-01
5.289498228707237293e-02 -2.083389928183727955e-03 4.605657537500914556e-01
-1.284891045810774082e-02 2.733060238067691605e-02 4.126488977578043338e-01
-2.620614787631881173e-02 2.542777208681201717e-02 4.201843988966443288e-01
-1.307999706179116886e-02 3.202041314507225039e-02 4.102622097262947354e-01
-2.875421161530159440e-03 2.872701976566015628e-02 4.051572273547363601e-01
4.984656908687457033e-02 3.327735038903868736e-02 4.505786023068021340e-01
-6.427309528648401937e-04 -8.390491830881781051e-04 4.295182550613136918e-01
4.627315595327918807e-02 4.852748951420370049e-03 5.166086601647269516e-01
-2.830393775814448939e-02 1.307650226114494274e-02 4.292026063664612923e-01
-3.126524178649237734e-02 1.801615995902117184e-02 4.274011247283109882e-01
4.820963470844190357e-02 5.188157503414166094e-02 4.991947757529789920e-01
3.948890936281882619e-02 5.945387349855391079e-02 4.433675712954141535e-01
4.766270826117643966e-02 2.689133365749742793e-02 4.485390980722702148e-01
7.080382693555119233e-03 5.940525982134346045e-02 4.182470736424647173e-01
5.060018140274217396e-02 2.273031671253184297e-02 4.515028015368815484e-01
5.485287037790421288e-02 2.123980875807741919e-02 4.888579157918861440e-01
2.876475303867398817e-02 1.714054164505045882e-03 4.363248837652473622e-01
4.069357412679710378e-02 3.173128548076594585e-02 4.423425561754492086e-01
8.516659410076439160e-03 4.225514331422938752e-02 4.095511496684397512e-01
5.968889927813560148e-02 -1.266257008782147898e-02 5.056027814514076901e-01
4.906995251690340204e-02 5.073219724034346012e-02 4.988321399751039498e-01
-1.114710162740385497e-03 3.145208533522111938e-02 4.024385030202652924e-01
3.946528438513934728e-03 3.055250902424085785e-02 4.012177147359067275e-01
-1.188103593775955043e-02 3.394355071735823820e-02 4.091106199889487649e-01
5.745800768967917332e-02 -8.059767921575262950e-03 4.805639316995454768e-01
2.816397879621750436e-03 3.708977337998314860e-02 4.023139893617696528e-01
3.560020095349231833e-02 -4.122604359863571433e-03 4.405308501835423773e-01
4.936466690773264748e-02 -9.206459997823244340e-03 4.569343596520371031e-01
5.294792828038132754e-02 -5.267080034290409427e-03 4.627545428485448920e-01
5.663826648845683709e-02 1.355943415011632604e-02 4.645087635433562401e-01
1.748178969364308499e-02 3.067864110490294699e-02 4.221762125660551979e-01
-2.450872965096052847e-02 3.354607321030003003e-02 4.160178626504900667e-01
-1.690205380583468392e-02 1.136350934283258604e-02 4.233513936879654271e-01
-2.899745933621012545e-03 1.694900753849611780e-02 4.151260361946073618e-01
3.964487944459765129e-02 7.008195222766991535e-03 4.422331536997561874e-01
5.243572264751938938e-02 5.600095833003582851e-02 4.744454181288210171e-01
4.511964125097025352e-02 3.253964817481587446e-02 4.460360005853001297e-01
5.032836407530347222e-02 4.896240776719947008e-02 4.974454620819160899e-01
4.814515575938017183e-02 -1.771135322350212565e-02 4.583953875349930374e-01
1.284121858178554655e-02 2.422683603499044616e-02 4.191707123884415576e-01
-3.337026616941883572e-02 2.979360531238438303e-02 4.250046668661252025e-01
-2.077050375130772009e-02 3.211235058165546382e-03 4.293978390418616842e-01
5.000773518247950827e-02 -3.125283486810764410e-03 4.544886773179684925e-01
5.951512052323878685e-03 6.339793870454305674e-03 4.272980998068995895e-01
5.428106354518639348e-02 5.279626235223246200e-02 4.644039156862332929e-01
1.659275190831868002e-02 2.973326009629327638e-02 4.213670079016164638e-01
-3.863043114118298177e-03 -4.567575809338722710e-03 4.302668951249877805e-01
5.231813366619792599e-02 3.162137091488659291e-02 4.979444975497323012e-01
5.637777605287676991e-02 -3.933298342206651040e-03 5.085278958441864505e-01
1.329524233876943837e-02 4.901642689771847083e-02 4.170115271739663898e-01
4.347293160296972214e-02 -5.748062690882067664e-03 4.475313524379533336e-01
5.619855047874958848e-02 2.140865529716240445e-02 4.855607267745706834e-01
5.773084547222220170e-02 3.415585159976178287e-02 4.673402798052275764e-01
5.055387702635683045e-02 1.138700223776742231e-02 5.012302780384425560e-01
5.462584131411860749e-02 -1.250547849865708133e-02 4.710768215622243571e-01
4.649503444557750304e-02 3.363486719323337260e-02 5.092559528454099205e-01
2.911786690385454943e-04 4.038855541225614548e-02 4.044913593095082471e-01
5.668132165268038869e-02 -7.012319823446610742e-03 5.131363016809025179e-01
5.541904281787793374e-02 1.169681062132590064e-02 4.610899836546569763e-01
5.193821620646495857e-02 -1.045129525492288249e-02 4.639026686510713260e-01
4.699522422727108600e-02 3.148899690411083307e-02 4.477907603810871162e-01
2.505136536569955649e-02 -2.790636389486216701e-03 4.348991465237346810e-01
5.795271733577542911e-02 -8.645169545696972276e-04 4.824849989303304221e-01
5.032600853551576214e-02 6.217006853533801197e-02 4.615977709664926820e-01
1.404019788441572547e-02 5.949586704362726935e-02 4.245689175248106295e-01
5.326419309712208949e-02 2.618651070835975939e-02 4.943222561088602141e-01
4.917194310032021315e-02 4.047091722737452407e-02 4.502573241461114151e-01
5.766085157473378048e-02 2.318786063603921546e-02 4.785621468806462442e-01
7.721959640982665844e-03 2.706299118697547482e-02 4.048029867471836241e-01
-1.082592699187977063e-02 -6.193095458464861584e-03 4.316382570747785974e-01
4.569476339197024728e-02 2.018215898826666854e-02 4.466364990511955679e-01
7.350840260402927498e-03 3.590627225307353038e-02 4.066473289647077882e-01
5.114764925038679105e-02 -5.014043163482400289e-04 4.554702395606143872e-01
5.564968953146756658e-02 -2.755653863130032993e-03 5.087615001815418703e-01
1.385368178772193072e-02 5.385394161394235074e-02 4.191766173053912414e-01
5.301618021937137826e-02 5.221436089022233468e-02 4.829100461014203538e-01
4.922460416025106755e-02 5.740046879489033027e-02 4.840966694189448583e-01
5.000239663521433703e-02 -5.226537368851671278e-04 5.159728485618649829e-01
-8.212040484789648407e-04 2.863988162717933175e-02 4.031300815549382355e-01
2.866724702618078310e-02 3.032762322379427278e-02 4.334090652192761906e-01
5.145800962353223873e-02 7.562547344242004019e-03 5.022632470860357579e-01
2.415299072344243361e-02 5.695130516015287775e-02 4.298946195583920882e-01
-3.071836906919844443e-02 -1.505576310770336771e-03 4.359808527771232844e-01
-4.657990680355141716e-02 -2.132037337929607295e-03 4.425730314997811665e-01
5.587859731149662224e-02 9.974371741120272028e-03 4.871332198310480699e-01
4.622216721140872536e-02 3.613801631643754481e-02 5.098015063421283966e-01
3.039177203230079838e-02 -1.910966247063571391e-02 4.396535016463933299e-01
-1.758171208092923141e-02 2.142399738507521495e-02 4.178441825501938434e-01
1.213217762804758362e-02 5.042869557908477574e-02 4.160384040930309446e-01
2.830437583130271384e-02 6.552980652152833041e-02 4.483957436830660614e-01
