5.010586069317263247e-02 -6.919303051325508859e-03 4.578648598607836795e-01
-9.887444307106012936e-03 2.246527623224916712e-02 4.137777996518278156e-01
2.482659697266193302e-02 2.476499845853663562e-02 4.319607632948044840e-01
-5.637174084312559542e-03 2.873293156147740945e-02 4.069902317961229254e-01
5.744852749922741558e-02 3.016450783091640178e-02 4.734365952566611524e-01
-7.501022522918792020e-03 2.638258917714071325e-02 4.100145684626316789e-01
5.766637675738404273e-02 -5.951370711040640527e-03 4.822754398222537375e-01
5.675187415161639382e-02 1.202559294277352232e-02 4.691802428197472952e-01
5.354396018639957788e-02 5.245059056253510710e-02 4.654233448727460032e-01
4.946729100814969970e-02 2.276523595788658427e-02 5.009946902081210407e-01
4.448132636661392136e-02 1.517792320669655859e-02 4.463331802177909480e-01
5.258756875763465760e-02 1.146247629175760514e-02 4.552961738803485425e-01
5.228775500440918655e-02 3.874142364426558065e-03 4.571394688707732246e-01
5.576654773231314727e-02 3.294662318334819900e-02 4.613090142721454345e-01
-8.115723048270361700e-03 1.344834151964969518e-03 4.287655224703026402e-01
2.793068133100510761e-03 3.644793301820159481e-02 4.039123394677696655e-01
5.773024062572106735e-02 -5.480451226726856806e-03 4.959463125996622646e-01
3.160096530196926379e-02 5.212557730445097071e-02 4.356261735201907848e-01
5.488591875601443043e-02 -4.261628905650725364e-03 4.676036246904831661e-01
3.881030785406267697e-02 9.085583296459358305e-03 4.419168574244019543e-01
5.767816611775374025e-02 -1.241642062415495608e-02 4.832840708729843615e-01
4.831582553917632139e-02 3.065783384432108072e-02 5.051443777321125150e-01
9.423987262277781080e-03 2.553252075521722855e-02 4.151536782341453402e-01
2.071985065734668202e-02 7.842771817097521705e-03 4.329050076474309505e-01
-1.390735440475434140e-02 -4.202793059383857013e-05 4.299590847504044522e-01
5.439876028471128666e-02 2.341368298199460879e-02 4.580425130506332598e-01
4.762715593917730278e-02 5.122034677265562691e-02 5.008461570984071853e-01
5.518963873468408360e-02 4.332827449125122715e-02 4.624587897791022639e-01
5.585807511230602568e-02 2.458716948979467170e-03 4.684276466163209141e-01
7.855474745134104902e-03 -1.093885399613620359e-03 4.306732309331252062e-01
4.891829852619282437e-02 1.169533831354659797e-02 4.506322533467367886e-01
5.415472262005163046e-02 1.501244306952738590e-02 4.580246793277219508e-01
5.044348834629820005e-02 5.674458328554134873e-02 4.561408400719523248e-01
5.682904684841265375e-02 1.142821273307160872e-02 4.702517040903925194e-01
4.669404618270026064e-02 -1.663020360528017633e-02 4.554019897758589397e-01
5.134095650977216208e-02 2.904753599841246314e-02 4.983509799869986212e-01
-7.858192571925754974e-03 9.250820063115347894e-03 4.225236736062585319e-01
3.490385851762567958e-03 -1.736411652292276647e-02 4.359997302483196724e-01
5.800913586258733823e-02 -4.692394479693646689e-03 4.924513696703972654e-01
5.060141603734188975e-02 -1.782289374289483530e-02 4.646764215804100595e-01
5.066686896923463385e-02 2.374727394008226827e-02 4.983323438651497961e-01
3.029546505747429674e-02 6.122368427383869174e-03 4.369812405532982891e-01
5.391171117428606059e-03 3.207792072381583648e-02 4.024825866216554804e-01
5.158390729330435825e-02 5.189141302767821123e-02 4.550562840112848395e-01
5.382712886094037641e-02 -9.397821981816158535e-03 4.679771346381310648e-01
-3.803889881708933263e-03 1.131390344791854095e-02 4.214953808279887637e-01
4.515440744922996630e-02 2.307193112768922069e-02 5.110853715122474217e-01
5.682599260448113060e-02 1.023439873536285093e-02 4.709701355237578824e-01
4.783813825284564253e-02 3.401316591934300942e-02 4.494379734452370045e-01
1.461760781837335987e-02 6.014371188251137201e-02 4.317365917315605373e-01
3.521192861270481395e-03 1.848493028017382869e-02 4.156136946897233120e-01
3.238311489246206709e-03 2.482333695464813278e-02 4.047539013596059276e-01
1.313404381912531942e-02 2.483543054994806140e-02 4.210064464885073243e-01
8.676144597642342082e-03 2.845488492301406075e-02 4.103952080488974530e-01
5.000637040319225873e-02 2.145787135107376717e-02 4.995391468323374107e-01
6.605188839464683215e-03 -1.717906910681616002e-03 4.305925241576634144e-01
4.815500891740280565e-02 1.763097801822738342e-02 5.040377039131010983e-01
4.217762239892262899e-02 1.256468935859284333e-04 4.457813746558352830e-01
5.227058773450162649e-02 2.759898655351633937e-02 4.958219862914892140e-01
-3.232235382260897211e-02 2.768900493669538068e-02 4.240337010253792394e-01
4.700865843185247223e-02 6.406465379086966061e-02 4.749516171556801281e-01
-2.879285850606222094e-02 3.527834427120291744e-02 4.183658033621731609e-01
-2.795462463447867616e-03 2.963269956651735232e-02 4.037530062009460630e-01
5.347756393857768659e-02 2.240526141966656462e-02 4.913710929257115723e-01
5.642129985595027708e-02 1.972298282139422348e-02 4.636293648630051556e-01
3.880073577366092985e-02 6.589464394596943053e-02 4.483149274757349256e-01
4.950269458245084436e-03 4.612824398208485027e-03 4.285194231882685778e-01
-1.002454480764202252e-02 4.686433997502498228e-02 4.084285808713325472e-01
5.559069398460680933e-02 4.059344545065025206e-02 4.632352510519183730e-01
-4.136338130783658029e-03 4.447523991902391227e-02 4.068369218704839807e-01
3.991210343876231553e-02 6.875043916396761379e-02 4.637891121508848080e-01
2.284684220909833502e-02 -1.894923537916072976e-03 4.343316477767992789e-01
-9.869765898187086300e-03 3.709575079701530470e-02 4.069745145425787691e-01
8.158874449968302189e-03 7.757365276851391211e-03 4.277291291400082685e-01
5.391582655027729598e-02 5.056487447232133753e-02 4.640465687158972230e-01
-2.439224385932275627e-02 4.430235544094194428e-02 4.154534851865134271e-01
1.825164335595397952e-02 4.837904156894536067e-02 4.241969740996192617e-01
4.460367021188990644e-02 6.123882205730060008e-02 4.493588426556539561e-01
1.489116465150717127e-02 1.679081671225077579e-02 4.259568693521068594e-01
3.386268587646151795e-02 5.518355531559523963e-02 4.385049812249466883e-01
-2.462470445438653260e-02 4.830889005232289098e-03 4.303141747777439186e-01
5.118433419834367282e-02 7.755837847309857494e-03 4.536266608696487568e-01
4.518516637111053003e-02 4.731421155527098382e-02 4.470569517105740798e-01
2.211577368447458641e-02 4.193280232565647220e-02 4.276261566505386025e-01
2.247881447214093026e-02 5.587558943880257395e-02 4.290405760061140050e-01
5.679156372804761155e-02 1.546444096295584991e-02 4.794013921382032639e-01
4.168095497037959535e-02 -1.238168828253093275e-03 4.455079308425337059e-01
4.666783021251159902e-02 6.200949951742363436e-02 4.798381705389018759e-01
4.309455338116043033e-02 6.774241942985209652e-02 4.557553950191629011e-01
4.367107645125661158e-02 3.561632131743062285e-02 5.134133411435121142e-01
4.351318408210862881e-02 4.957133065661657040e-02 4.455639260193784423e-01
-1.417315346021177577e-02 4.189380417267250800e-02 4.090932740281837399e-01
3.839873574368241754e-02 6.356780619975595237e-02 4.451104779231293551e-01
2.285957621199088616e-02 1.976782151744428326e-02 4.309976856827276159e-01
4.464123769649108731e-02 3.017729805553887382e-02 4.464165171574419611e-01
-1.115119369073497638e-02 -8.529433957085738247e-03 4.329892429654238484e-01
5.704629997483151582e-02 1.784776402417186450e-02 4.775896849738517913e-01
4.955348089413755264e-02 -1.767908913173931590e-02 4.621803931663257536e-01
-6.271771045573409399e-03 1.881776883503536585e-02 4.141728000621515693e-01
5.602802572619890870e-02 1.134789204476369974e-02 4.650495421024146148e-01
3.690970287960662621e-02 -1.159891882910222757e-02 4.425123719897769425e-01
3.832349801535890610e-02 1.545499341807764909e-02 4.413386167716952246e-01
2.214953873201373075e-02 6.130440329441548541e-02 4.374310880311846894e-01
3.179794575140385687e-02 7.829705985126691331e-03 4.373833646828477195e-01
4.884818168591432974e-02 6.415459329868278271e-02 4.664149477040753777e-01
-2.768082893293929633e-02 2.142398085110601424e-02 4.227584818441534886e-01
5.390448972573292502e-02 -6.292003830339532380e-03 4.665217634323263751e-01
5.659217254223446181e-02 1.502509240584389873e-02 4.805160705429170065e-01
-2.068094740973182299e-02 4.576142482697001523e-02 4.129522174356685671e-01
-4.738382204822901879e-03 4.899204252986047795e-03 4.260117728887411470e-01
4.370532261117097972e-02 5.236339645415059169e-02 5.040966571550218323e-01
9.861449471849359494e-03 -1.439940295835946855e-02 4.350169761702646909e-01
5.586147516147184355e-02 3.844990701811066419e-02 4.811499973707953348e-01
4.237422176201507268e-02 -1.271767311434741574e-02 4.478394706157506899e-01
-2.760853779138029707e-02 2.277452914815580876e-02 4.221172429087672318e-01
4.551354593978513413e-02 5.176278708191775491e-02 5.038154332911124467e-01
5.232031817589855027e-02 9.492379737034315965e-04 5.102684774318504424e-01
1.980304070656002322e-03 5.213856169697009268e-02 4.122511447961004771e-01
4.840844662559839334e-02 1.341214403203283730e-02 4.500272881458327046e-01
5.912399147616192313e-03 4.487540122591023029e-02 4.106159630504144231e-01
-1.558051182264635903e-02 1.946079625141982489e-02 4.180742199315162222e-01
4.932143497564728252e-02 3.306572801090973401e-02 5.033795941492835713e-01
2.760821432548874257e-02 2.400070817091345607e-02 4.338960971265966027e-01
1.758155388855534018e-02 1.553653994853211942e-02 4.285585519563457346e-01
-1.053348674862196639e-02 2.194224713342178557e-02 4.145016032746919321e-01
4.463710825602226762e-02 6.756212117870474820e-02 4.644039290713862234e-01
-1.994188386193669962e-02 4.930780479614899070e-02 4.174284716743523749e-01
4.467373929646752118e-02 6.823190772171128238e-02 4.616214730428528368e-01
5.094749327335185846e-02 2.452942913849990095e-02 4.525993272198857165e-01
8.639278922648145620e-03 -2.723836231106348347e-03 4.310717860468152307e-01
5.600377831768321019e-02 3.782386529017885829e-02 4.807052187481131722e-01
-1.946004501869187664e-02 4.898681841024642158e-02 4.166038427093077257e-01
5.587091854517275968e-02 2.058916772437039897e-02 4.844539456451515957e-01
5.453558913867288110e-02 -1.576822791218113022e-03 5.097621531488525370e-01
5.119643326704362979e-02 8.326774566903057812e-05 5.136166288149109915e-01
5.670795753304066350e-02 -5.358012308553211298e-03 4.752242089072971631e-01
-2.325294387434906004e-02 4.161803689226103303e-02 4.138508084524752384e-01
2.419367091949548368e-02 6.376929507019216126e-02 4.400082988644591908e-01
5.247684510629866544e-02 3.819103354210628271e-02 4.555343078584087602e-01
6.152493498189713639e-03 5.559269238933556984e-02 4.161600076980110918e-01
-1.515529403948821449e-02 2.718912620988257062e-02 4.136914698315409811e-01
8.194415508671492113e-03 1.631714417573626799e-02 4.216874470680319620e-01
5.371409612844049719e-02 4.826847741121460117e-02 4.825953242729515980e-01
-1.617490550232108387e-02 9.812000183725046870e-03 4.240056654228185895e-01
4.948352440099382937e-02 1.772342835371696831e-02 5.006466798107057636e-01
5.689425042451884407e-02 1.926758712874840351e-02 4.787690791902053933e-01
5.648627565029084446e-02 1.410035030825369101e-02 4.810813763153043432e-01
5.734075927983216941e-02 2.894078085784705309e-02 4.676990175572210973e-01
7.793839694450720341e-03 6.089931052550641433e-02 4.274107454492502844e-01
5.339958918193565829e-02 3.488658756341947442e-02 4.565426275236191822e-01
-4.051329270044947556e-02 2.931425099711778854e-03 4.459925890475529009e-01
5.589187310799582226e-02 1.562337376661452649e-02 4.629358292229787120e-01
3.866420793155610214e-02 6.809327430582817753e-02 4.503905762940796920e-01
4.991463906965565994e-02 -1.502503475666851739e-02 4.618739495210118506e-01
4.726460505786395788e-02 6.556394476350484168e-02 4.699385146046426986e-01
-2.962625556032137328e-02 1.585372846155154794e-02 4.275656219915602296e-01
-1.356315429321094598e-02 1.304489961006030305e-02 4.215008168327269433e-01
3.076706492598216963e-02 3.082626916779480572e-02 4.359560371548192315e-01
5.160555426691122716e-02 8.061198428633791976e-03 5.006106609019218556e-01
5.404559549219985909e-02 3.231319330736895368e-02 4.574071071697590196e-01
-3.541545273144017930e-03 2.653259557347594985e-03 4.277681191112116532e-01
5.035616497920733514e-02 1.661744249029206352e-02 4.985525780265273044e-01
1.253007343959744967e-02 3.931125223832696025e-02 4.171338221734446905e-01
5.546094700729069238e-02 3.016450793975089875e-02 4.874168519671672750e-01
-2.366349873608290452e-02 4.679909547589929109e-02 4.171755564102939129e-01
-3.104923768305898821e-02 2.657942954958946932e-02 4.233592491183468809e-01
3.127730927171586128e-02 5.032094833013728286e-02 4.352534839168854530e-01
4.742831142824491947e-02 -2.269257033841701188e-02 4.598514574507794328e-01
5.723353516089953186e-02 2.094060182836330469e-02 4.767102415804196913e-01
-1.760150636785623099e-02 3.255587339297454780e-02 4.122878975415088521e-01
5.395321554550109450e-02 3.797582215496844021e-02 4.931299529280354643e-01
1.733183235550068068e-03 3.360851360719076947e-02 4.015735782649619834e-01
3.434751030695919888e-02 -2.658815235881577255e-02 4.454157252110707566e-01
4.232877532565191420e-02 6.834535424050577901e-02 4.546734669983666932e-01
-2.167038602783264920e-02 1.048692270080488903e-02 4.260557078325686309e-01
3.717328037977620653e-02 1.401182846036197124e-02 4.405337436491812420e-01
6.087271825869008599e-03 4.965105805846155990e-02 4.123207365192536611e-01
5.296495811912369650e-02 4.128323179426294370e-02 4.561902241113938161e-01
5.622976968414928473e-02 3.538869392651534593e-03 4.899127323719376093e-01
1.698567142464418173e-02 3.996422351340522122e-02 4.227506176060978893e-01
2.610797441758154133e-02 2.125295658351322812e-03 4.355280168087383164e-01
3.370408907497720458e-02 4.301142455756680472e-02 4.377423381781726519e-01
-2.275240943885624423e-02 4.498757523481131115e-02 4.143169798258929948e-01
-4.054940909039152913e-03 1.719157258034124253e-02 4.150774519269397334e-01
4.992696031193104289e-02 -2.334195946608687983e-02 4.647950091226857872e-01
1.956192117751428747e-02 1.406813903806342428e-02 4.303446821897560226e-01
-1.065185659145120867e-02 3.380892495347153498e-02 4.087017785146826454e-01
-1.694364943313967590e-03 2.331053182990750622e-03 4.281031438179985216e-01
2.372342803855089638e-02 -7.117226927387140106e-03 4.349231842304909224e-01
5.618338214872772157e-02 2.053099448857413287e-02 4.827202725470845501e-01
5.247978890496099447e-02 4.915501814918856426e-03 5.031541999927331421e-01
7.335300251431029102e-03 2.875744828610101930e-02 4.068537008102536268e-01
4.098444925143573947e-02 1.441562454340811900e-03 4.446392817318286506e-01
5.540586539428084267e-02 -1.433564113579009411e-02 4.754123488721215263e-01
-1.195911628217924232e-02 3.193003942178115895e-02 4.099196400172330224e-01
5.746404396943545489e-02 2.563637968125476521e-02 4.737637358756202621e-01
1.072979092645699392e-02 4.674172388979627724e-02 4.159225405899900085e-01
5.132583277234004093e-02 2.137189071956885345e-02 4.530801599197673557e-01
5.522339993557448534e-02 1.259747394176935487e-02 4.865700266827288067e-01
1.726330767863094168e-02 4.077493813846660986e-02 4.229192672232165440e-01
-1.080428330793195384e-04 1.867022017888615021e-02 4.139369160153975047e-01
5.577390428157757291e-02 9.555480773376168538e-03 4.648360425367649706e-01
5.560944459789784328e-02 1.324207727928315530e-02 4.846431777108151651e-01
3.203738976571147978e-02 -1.395610583971506995e-02 4.393627329073642729e-01
5.228557516424486851e-02 -2.836240759310563932e-03 5.146674919739527843e-01
1.200101911402657803e-02 2.115627778138239046e-02 4.214251253823919074e-01
4.584851966665853817e-02 5.160947619141503101e-02 5.036616758494741886e-01
4.666336746294776072e-02 1.823620520277162080e-02 5.079709581237944471e-01
-2.689295588124722761e-02 1.856036683447030017e-02 4.239096390137033210e-01
-2.422363369102073418e-03 1.483226333868645913e-02 4.185559777350553179e-01
-8.699147705195624941e-03 4.342815289941104329e-02 4.076549549281929807e-01
-3.308309366377666649e-02 -1.414343852123630535e-03 4.374226766363712993e-01
5.701069496508484602e-02 1.559130256415688399e-02 4.747518901670886859e-01
-1.775731447096066257e-02 1.648595074489723686e-02 4.208834611859603725e-01
3.859785892600956642e-02 -1.990336470458471674e-02 4.458256567953526317e-01
5.550326117160352818e-02 1.180869852698113523e-02 4.629522325247877879e-01
4.640981253137549389e-02 3.731073329499046132e-02 5.087097449633356527e-01
-3.488554634340645597e-03 -4.426298379517002411e-03 4.303634076590047153e-01
3.212973267024604729e-02 3.146821007031749134e-02 4.369489024626833640e-01
5.443291149922578620e-02 2.910837781438088689e-02 4.580402927734723573e-01
3.821047241926493754e-02 -5.119059243018393192e-03 4.428493200444667544e-01
5.598536632682448583e-02 1.946202943236152987e-03 4.692344497826497762e-01
2.392283686083323396e-02 3.995320650020381392e-02 4.295278119464454591e-01
4.828507765078433878e-02 1.125703008022386001e-02 5.067416397774811010e-01
5.133345879435920883e-02 4.949441569233820754e-02 4.921651803461927210e-01
3.199692234091859599e-02 6.407626877008005747e-03 4.377426734872207348e-01
5.236743176164720959e-02 1.067230315029232043e-03 4.584956086304521339e-01
2.344832183973415834e-02 2.289634518833501275e-02 4.309461910800660989e-01
5.372519914226123877e-02 3.910473482551537344e-02 4.572363368307222342e-01
4.892974032789948469e-02 -1.083902033733946321e-02 4.578293473145516046e-01
8.787458671200881061e-03 6.091707253623637047e-02 4.285221788035039059e-01
4.949259653292489153e-02 -3.107222231458633271e-03 4.542569966353466326e-01
5.053933172037276128e-02 5.856379504719753937e-03 5.076226719949692434e-01
9.978344656073438734e-03 5.999229715810678459e-02 4.255077686138055149e-01
5.680612342578438001e-02 3.646712659072153667e-02 4.738917756036440943e-01
4.223037164250258851e-02 6.520379030127290698e-02 4.499664076604190099e-01
-3.072614201828034741e-03 -1.510623382987765113e-02 4.337689907224237529e-01
-4.055300874576377862e-02 2.289131208256024643e-03 4.408815381647948062e-01
4.426358060884574841e-02 4.113332725610650831e-02 4.459625807907497963e-01
-1.209081399966643877e-03 -3.678758459925088320e-03 4.302030402189120362e-01
3.907593169448253523e-02 -2.018020468032989678e-02 4.463381886206267413e-01
4.622475735578551043e-02 -5.121637537408340983e-03 4.510747450145424775e-01
1.981375618466467772e-02 3.989624958024943352e-02 4.257145851700917527e-01
1.768608123130516879e-02 5.560954579479360921e-02 4.256307894821957927e-01
4.841242465720622251e-02 1.268138040861567853e-02 5.054617181971987616e-01
3.145476835669602095e-02 2.818472567938687043e-02 4.364961968028931993e-01
5.123358355834983779e-02 1.194590368458122581e-02 4.986177805664667728e-01
2.541087561657096039e-02 -7.116223254728551266e-03 4.354099459013111573e-01
-2.082274399171881937e-02 3.229481953617965168e-02 4.142802148037135757e-01
-1.705420525259747008e-02 3.112579736689401882e-02 4.125049790521487236e-01
1.679284287219163369e-02 4.700017809948440345e-02 4.226747532816515496e-01
-1.150427659336673847e-02 2.767649920517813861e-02 4.116932827282424046e-01
5.703443550846040017e-02 1.798867007227106588e-02 4.697731222793973815e-01
4.641179295140313021e-02 4.798781353786538140e-02 5.064325180000550652e-01
4.667608889139412964e-02 6.143509421628905870e-02 4.520726551847555341e-01
1.275522615142995683e-02 -9.096112917466144671e-03 4.327736489536341269e-01
-3.103303071472513289e-02 1.297974815495537941e-02 4.308276770671140565e-01
4.635639896050938041e-02 3.812864008585087339e-02 4.481486134156390522e-01
3.248170214760765645e-02 -2.673154903728953979e-02 4.438558942898258031e-01
-4.397602872789682996e-03 -2.019264469918974174e-03 4.297986337246143540e-01
1.836678741290548311e-02 3.797324322712424417e-03 4.329198710581147469e-01
2.296022459917064842e-02 1.647702898603237501e-02 4.316935808318810852e-01
5.002452002254315772e-02 3.871582103048869239e-02 5.026731284603940253e-01
1.520632641706748042e-02 5.062397687631042809e-02 4.215005741241023562e-01
5.466089840010879969e-02 -1.183334774844795392e-02 4.715985112696216008e-01
5.668525998984175196e-02 3.077826079679917698e-02 4.824578179555134017e-01
1.274423682801928762e-02 -1.257294030302960955e-02 4.339962171807391078e-01
3.756694790969168640e-02 3.743180304208476583e-02 4.407180644825649529e-01
4.925470530101461186e-02 9.258334855297803076e-03 5.056228815137797650e-01
2.111669595977897981e-02 8.011578349487413070e-03 4.329896596847375712e-01
5.744233220278768814e-02 -5.312098656746174277e-03 4.798487923581900017e-01
-1.075351996813838848e-02 -1.054617829557842959e-02 4.339551104195021880e-01
5.240445888196370444e-02 5.374564381799096929e-02 4.577809408181920947e-01
4.597400170259743207e-02 4.276464675085345224e-02 5.088332657788580127e-01
4.636496550550371631e-02 -4.593525023511522802e-03 4.510896880219892879e-01
3.866514399755827808e-02 3.561445576830006565e-02 4.415685199805918226e-01
-2.924382225275755018e-02 3.184098092495687982e-02 4.199297826052695304e-01
4.536770525110107866e-02 2.771693021159937070e-02 4.471153730465593501e-01
4.729457219530014238e-03 -1.568498209540540936e-02 4.351929088508517118e-01
3.804143093969259565e-02 -1.995092619223524932e-02 4.453615382943698631e-01
4.553896137197309402e-02 6.163809709322599917e-02 4.506326554514260563e-01
4.397820664845770305e-02 6.098671895718602021e-02 4.866195840949499862e-01
5.417354022047567164e-02 4.452438515840287381e-02 4.583603001112425690e-01
3.558700509044480237e-02 6.691930581092343094e-03 4.396363079709321720e-01
-1.850387593221549179e-02 4.967745777496878484e-02 4.171545260961872503e-01
1.847348114324509974e-02 5.718711607959636734e-02 4.276817185615165440e-01
7.164054862741500197e-03 5.206062389136888180e-02 4.141415793080580054e-01
1.911515363932425604e-02 4.306215224151940107e-02 4.245930671672372148e-01
5.426768696789152635e-02 3.697099260014539285e-02 4.579993521793945255e-01
5.098294870225012626e-02 2.216891413258623156e-02 4.971613288868940717e-01
4.787637153453587480e-02 1.735922409486148274e-02 5.047343004861437610e-01
4.849907701990329584e-02 5.752686603476397237e-02 4.527068110577943116e-01
1.103862665950818694e-02 4.230839931382437968e-02 4.149399539213198262e-01
5.510692267451029747e-02 4.589236282977349202e-02 4.744399606451717988e-01
-1.453063956933380203e-02 1.455216718254556847e-02 4.207235947664084152e-01
1.578967943079270450e-02 2.484088696735190296e-02 4.239933024703040343e-01
2.061440022272819500e-02 2.583468688849924200e-02 4.280185332639528384e-01
5.370459264684888934e-02 7.479220546043743173e-03 4.594521805875732001e-01
4.956843722868708307e-02 3.046038162643064165e-02 4.511451198295832743e-01
4.764288514676509600e-02 -1.530459609392128238e-02 4.567503748049901446e-01
2.539189736571202671e-02 5.352682119427044916e-02 4.304838231754514744e-01
4.732900421000466734e-02 5.497608866461826255e-02 4.948083843358814238e-01
5.424123010349905100e-02 -3.964174339501332425e-03 5.131355495772332853e-01
5.083868776679295598e-02 4.727462147971305678e-02 4.534328538288955879e-01
5.637923662778826506e-02 1.006203913050096425e-02 4.670363177727198667e-01
1.892738894476104008e-02 4.299106308663139253e-02 4.243889647617685723e-01
-5.602870009943019744e-03 5.346599285446437116e-02 4.135850227767270404e-01
-4.787328883720253642e-02 -3.069831709241905085e-03 4.453565129403945222e-01
-1.731451924636580320e-02 4.888834448781564923e-02 4.151243080572149524e-01
2.271782677813628110e-02 -1.161988813555773874e-02 4.353903191282515461e-01
3.675566158777825165e-02 3.299736364848426806e-02 4.402066866457258199e-01
2.521779169761344946e-02 6.247743530592147349e-02 4.375506313307205297e-01
5.425922862082836057e-02 4.364483503510285800e-02 4.882981362597497155e-01
4.360752989321888679e-02 3.270790783943520325e-02 4.455747012380981698e-01
5.351660195553196303e-02 5.212719529117363498e-02 4.733939218459506937e-01
5.454682661828427759e-02 1.000900659045279167e-02 4.905972383984296137e-01
4.892060925038398123e-02 1.445638830271505325e-02 5.028136675730856542e-01
-1.310392700659203033e-02 1.793084739075703326e-03 4.287631298713990291e-01
-1.377829359869862588e-02 2.600412115526103476e-02 4.137261815929240694e-01
3.211574758461557128e-02 -8.472592026304402377e-03 4.386236988083417887e-01
-2.724605390357027687e-02 3.449579478634341723e-02 4.175169004421633301e-01
5.244468528374916783e-02 7.068474691114328030e-03 4.563968745008175620e-01
2.692533695213018136e-02 -1.958285197771722497e-02 4.385273119796127550e-01
4.805454044557336268e-02 9.213779486035897359e-03 5.088770607509930377e-01
-1.181070428867062559e-02 4.574863186001867227e-02 4.087122458911606193e-01
5.334736778382070249e-02 6.834200976281798803e-03 4.970440485911497563e-01
5.689804635735302984e-02 1.788065514469376963e-02 4.675252821525464619e-01
5.225850294464967627e-02 4.225806981709903654e-02 4.552480867660714803e-01
1.153844844636784349e-02 6.876006096435183235e-03 4.296026311411829668e-01
4.420556004363207503e-02 6.526140970610350145e-02 4.521216492199902071e-01
4.701832527029815162e-02 -2.212022994436860235e-02 4.589700543805667610e-01
5.745941242093302592e-02 -1.847385266030744308e-03 4.929810372583158795e-01
3.943024890426620466e-02 2.278499725104966497e-02 4.418619811360953165e-01
5.748128849872204821e-02 2.807505389754273717e-02 4.728075865913864417e-01
3.392314001111949862e-02 6.437713915677341359e-02 4.445206245819953161e-01
3.193934446850093395e-02 -1.316021835539719909e-02 4.391141650214901437e-01
2.398605608060478539e-02 3.725606367953504527e-02 4.298225509062843508e-01
9.911457582069876926e-03 3.054716956411601333e-02 4.118646921614986245e-01
5.100979645661456868e-03 5.971214032045504827e-02 4.203344224187410827e-01
-3.933514249791189403e-03 -5.205656233292181058e-03 4.305427295888564765e-01
-2.739587081963699294e-02 1.628285653604534143e-03 4.323981181215162395e-01
-1.932745976435666299e-02 4.755901028131804403e-02 4.141702819631798982e-01
1.707419614363406279e-02 5.786824756996225561e-02 4.271491057790953727e-01
-2.800526191959120531e-02 1.349043062069352553e-02 4.285031302831655009e-01
4.522861122836147746e-02 1.547347105636414331e-02 4.469789388130674945e-01
4.859404905346681458e-02 2.801932934623770424e-02 5.040992792816041401e-01
5.006541276811296570e-02 1.634225375688254378e-02 4.991963725551306630e-01
-3.074646199108859931e-02 1.526348286278564684e-02 4.287898711102013927e-01
5.614950085288198528e-02 -3.970631777903054979e-03 4.716672135057130011e-01
1.463938412809983811e-02 2.858059234193509671e-02 4.212889005001127507e-01
5.538847610712673702e-02 6.782606000100823915e-03 4.646230491419044983e-01
4.506138678052464680e-02 6.934966251386925039e-03 4.473505387055637383e-01
5.563624647331932155e-02 4.155224683392187701e-02 4.774576863065450594e-01
5.045835614841349959e-02 1.969328164220314828e-02 4.983947047695150290e-01
-3.499206205286375937e-03 3.604743504969644408e-02 4.038707228692569040e-01
5.134064218287216763e-02 -7.379926929143687531e-03 4.612220481348378032e-01
6.047203915645440672e-03 1.795976082604041485e-02 4.190653477243011515e-01
4.752049444275650153e-02 -8.020301513455754122e-03 4.537993118167134576e-01
4.317055885606871368e-02 3.431877589195221623e-02 4.452588252013573999e-01
5.477542757658178385e-02 2.330192726259185630e-03 4.644950230058878526e-01
5.504083326747803706e-02 4.197700609332251365e-02 4.615522747938433645e-01
1.459512926083723038e-02 6.114764001903528340e-02 4.374191565167807050e-01
1.494982169796761282e-02 -8.263103863894857501e-03 4.329601456532564674e-01
5.629810018628120249e-02 2.093932923801183205e-02 4.822093894277046378e-01
4.870757010786952446e-02 1.594074442369625144e-02 5.025232221229528617e-01
5.370010207030569832e-02 3.795819421332686378e-02 4.939450633065489704e-01
3.895821207596868174e-02 -1.125245666611579716e-03 4.431192412276312997e-01
-8.108970405423519476e-03 2.332738749587858276e-02 4.117794800599832161e-01
1.014230311560896346e-02 4.569905360002015499e-02 4.147962632037032749e-01
-1.287251716259814847e-02 -1.593907214036246285e-03 4.302682775970948503e-01
1.320572584477583238e-02 2.691090595539387745e-02 4.200555146659030736e-01
4.644936602592666247e-02 4.019875226905587906e-02 5.086583292301036785e-01
6.836961064847291505e-03 4.298662195818677562e-02 4.105042027637884061e-01
4.269079583132897454e-02 6.765575024431878803e-02 4.715776629668669839e-01
-1.351800002589016551e-02 2.165631431949278322e-03 4.285548364308462421e-01
-1.629973354801609112e-02 1.678159217006940443e-02 4.200521146769503056e-01
8.812019484778166323e-03 2.150073762020848767e-02 4.173632994242610361e-01
3.735606622473944954e-02 -8.413513663122682701e-03 4.424845059190083418e-01
3.753391629035982002e-02 6.828793198048890845e-02 4.686379365119898721e-01
1.795667976055748821e-02 -6.561150703669931319e-03 4.332009656327393543e-01
1.462153212774366419e-02 2.703352781066431162e-02 4.215884013763689930e-01
5.306202415721897325e-02 4.816666410588338332e-02 4.877850700167365994e-01
1.414468324037049252e-02 2.851425276854878399e-02 4.207565400813726986e-01
5.543413765773103768e-02 2.671263856989464225e-02 4.878994565582826515e-01
3.807844209628344356e-02 -8.401980335626783175e-03 4.430374572952846535e-01
3.474003092239541512e-02 3.694049957384438337e-02 4.387601867133431033e-01
1.615247149052674493e-03 -1.356836925517467679e-02 4.333712353561032238e-01
4.816051673619919926e-02 6.226987601156624974e-02 4.750408371772729121e-01
-1.875334394766563825e-03 8.225998138686008848e-03 4.238941267045974182e-01
6.976747217506394996e-03 5.378894663454900776e-02 4.149747535225052353e-01
5.555171583561985954e-02 4.108605158876933727e-02 4.793699708943348625e-01
-1.636638944011484242e-02 3.421517132469761510e-03 4.281875981475287141e-01
5.513894506154097541e-02 -1.104364365016358325e-02 4.728775429207738301e-01
5.675048256388600526e-02 -1.031651061451674574e-02 4.797634015060475710e-01
4.089535949782865942e-02 6.773333533127051664e-02 4.718688864869159394e-01
2.575108816158628786e-02 5.917476290873045081e-02 4.344548616996143919e-01
4.453184451036121955e-02 4.191789407964898601e-02 4.462632415042452894e-01
-2.655579558110594818e-02 3.956204848131580215e-02 4.174803463924684488e-01
2.251033483092896789e-02 6.091548669339123812e-02 4.365575662285150482e-01
3.640299771232331089e-02 6.319436739578117301e-02 4.437484367836761479e-01
-2.625108451658699632e-02 1.484851378898926003e-02 4.262773360858354010e-01
3.672178556533771659e-03 3.317728601638789826e-02 4.034251356240421971e-01
5.688249911269129683e-02 2.264405875149343335e-04 4.737399031247777614e-01
4.971835944898487375e-02 1.030123211332870103e-02 5.036141937755197473e-01
4.542020439089932554e-02 2.643584117571816383e-02 4.471650390595012237e-01
3.029766280734597778e-02 3.634107015065337482e-02 4.353572006420509122e-01
4.439083835253442023e-02 6.398690481246589734e-02 4.511641221873483598e-01
2.656048959087588604e-02 1.490312316314627676e-02 4.340669150427068912e-01
5.423272516216572081e-02 -1.576944408796473497e-03 4.650577561336517451e-01
5.647452287315910674e-02 1.326642381797480362e-02 4.660557824014328054e-01
3.614057617615240581e-02 -1.100884486428702243e-02 4.418509483355568257e-01
1.077522919914460087e-02 3.441578345360086361e-02 4.125971138042340836e-01
9.614500220327571942e-03 1.973419236137657212e-02 4.204264590498684728e-01
5.802066278306462765e-02 -1.346152004939744039e-02 4.853587979400594277e-01
3.608981134305265515e-02 4.134076735640285910e-02 4.395501672843247776e-01
5.734955092685187217e-02 6.774944326630742610e-04 4.886720808329864663e-01
5.617406520543591353e-02 -9.517638278542323027e-03 4.763124069702459051e-01
4.355130118988832788e-02 5.596824033355739941e-02 4.950357638007196193e-01
5.708380910222796839e-02 2.432009347255799717e-02 4.790137108456781201e-01
4.635049350585248445e-02 6.673914335015584953e-02 4.659052386907274745e-01
2.331412750487284538e-02 -9.339744167863418128e-03 4.351726339490617490e-01
5.533256225262274397e-02 5.438073569184851894e-03 4.650313289772924907e-01
4.763976292872240670e-02 2.430532341290846804e-02 4.492800766766674170e-01
5.259928689002351526e-02 3.770674213258019131e-02 4.971786842472796786e-01
2.543797852469965263e-03 4.165159280327040275e-02 4.062444497307360902e-01
1.849221210609203192e-02 6.020637002329149584e-02 4.346589255797534412e-01
2.728279709600769931e-02 2.379124617140963849e-02 4.337030791950081676e-01
-2.502262750911272288e-02 3.904239253756970618e-02 4.156083936764197184e-01
3.170823905609425342e-02 -2.555147593235425341e-02 4.425254178328240084e-01
3.889846494514746095e-02 -2.133455337382213560e-02 4.466067693706916586e-01
-2.016921549381160000e-02 4.182148750061105702e-02 4.112009119902266807e-01
5.256844097136132571e-02 3.262668923945246519e-02 4.550215538640686730e-01
5.494085112456526671e-02 4.767246243451231380e-02 4.715360864848200939e-01
3.813106944514450813e-02 6.860091769123285999e-02 4.503444009962366268e-01
2.656662971796249981e-02 5.580890116102903142e-02 4.322593811882683990e-01
3.892575399028853911e-03 2.150012607299085429e-02 4.105421320908189120e-01
-4.275815691950413111e-02 1.631787912422842136e-03 4.420387902956413040e-01
5.644395171643456360e-02 -1.178931093661417934e-02 4.790677821756361143e-01
-9.883707038349599794e-03 4.744453281096028263e-02 4.084968829101327525e-01
-3.310609397123787795e-02 2.010528965394075759e-02 4.273082464649247680e-01
2.541460870386001020e-02 2.046917871709295553e-02 4.327632214990378423e-01
5.388706964163895996e-02 5.147946069853306245e-02 4.679630097236515685e-01
2.157035448632682942e-02 1.460223335941019177e-02 4.312200196031611421e-01
6.998020635606435301e-03 5.135152227279612264e-02 4.137042072507708390e-01
5.700132609457524147e-02 5.258148109526432877e-03 4.828549984875350476e-01
4.904404389388149210e-02 6.220679966580635462e-02 4.602692063182444726e-01
-1.436978522174834488e-02 4.463911417124463710e-02 4.093796898918732330e-01
-3.257769994390914692e-02 2.414522385005722638e-02 4.254359914457644387e-01
1.405011019178241567e-02 -2.459328126886805091e-03 4.319738444731172633e-01
5.380709551877245478e-02 1.384167970486738231e-02 4.902125964532536018e-01
2.976317184550909128e-02 6.479781651680331656e-02 4.435379626218445837e-01
-2.364877137448423081e-02 4.446276431719697192e-02 4.148838051235074209e-01
4.687601693760763688e-02 2.924943441808893277e-02 5.079500095232527546e-01
1.157964857767899286e-02 3.987953969558668404e-02 4.154255840486825724e-01
4.902680017822404201e-02 1.709485694506793912e-02 5.017754539169184680e-01
4.882510381502439684e-02 2.507912591628731064e-02 5.029727396570845555e-01
-3.480000536884673978e-02 2.045294021364251619e-02 4.303315892426636258e-01
4.706734875646803595e-02 6.575159002944364062e-02 4.688244852209728641e-01
4.957862765834697427e-02 -1.683088802135863579e-02 4.618641589245453538e-01
4.711163198690794529e-02 5.365485872832284620e-02 4.971083010229531696e-01
1.164630616997582718e-02 5.458694801540274477e-02 4.190963376933619644e-01
5.637759816934961171e-02 4.031646805901066555e-02 4.691548835471025525e-01
3.506690621951431830e-02 -6.509901356733413004e-03 4.405992609128031035e-01
-5.179747614039342113e-03 -4.896650518163852758e-03 4.304686464739607699e-01
5.050592303890595602e-02 5.963614616815109820e-02 4.606894292047746808e-01
1.249248533059091511e-02 -7.938515836031494188e-03 4.324089243623058798e-01
5.526996839710021647e-02 2.073772901822911255e-02 4.602535378895870055e-01
5.239194030437609173e-02 4.865629553924862363e-03 4.570175218960553787e-01
5.532402793770328092e-02 1.369383533533768439e-02 4.858919887853767050e-01
5.080790099199268550e-02 5.347195739638357925e-02 4.543886729543471503e-01
5.046226685466594780e-02 2.499138227399623144e-02 4.990908115630838249e-01
5.367994895055566013e-02 2.833321460394487915e-02 4.565729112735762429e-01
2.539337119710496915e-02 3.738460474436757636e-02 4.310272918422059507e-01
3.606868472290614830e-02 -9.607283505211217794e-03 4.416382983161853959e-01
3.724209062955651656e-02 5.747631821376066735e-02 4.417970782039332134e-01
3.439538910936723592e-02 8.815512569906557017e-03 4.385417307101402984e-01
-1.981816494468181117e-02 3.382673609843001722e-02 4.131038640444106291e-01
2.278845562922876891e-02 -3.218352443901726853e-03 4.343059769831854600e-01
2.830599926687169671e-02 6.511729829127502200e-02 4.442597627605135990e-01
3.044969796098098008e-02 6.390101231219114108e-02 4.406692375873656475e-01
-3.167911561097794260e-02 3.054294268004668217e-02 4.225066291934265750e-01
-3.522514435116538833e-02 3.713398937325230586e-03 4.372084055886767961e-01
6.346024508764622034e-03 1.723662752498944517e-02 4.196771689485476742e-01
5.460206065779883711e-02 4.622874595315967783e-02 4.788500509153397755e-01
1.867432845268542432e-02 3.792308759455732120e-02 4.248085723527524893e-01
5.727194642680784320e-02 3.200860767456087386e-02 4.679225347275207114e-01
2.738311547356289330e-02 3.404185879541393039e-02 4.330361305867374000e-01
5.596822067263765299e-02 6.860027975772249771e-03 4.878223106400852993e-01
-2.741961347166616426e-03 1.954302125456441191e-02 4.118218419815037890e-01
4.152634386998835248e-02 6.793872747246601507e-02 4.650249738310106018e-01
4.375060567306650328e-02 1.591804477655103800e-02 4.456505401587782522e-01
1.363460076761352849e-02 4.406674471101258012e-02 4.189279739913798761e-01
5.843513948379187861e-02 -9.471845906881080218e-03 5.083612482894881435e-01
4.204579561538106941e-02 2.879085011516119286e-02 4.442085916067966544e-01
-1.378243243552109559e-02 2.144266205332704539e-02 4.161767969747343088e-01
-3.358207166078543138e-02 1.995082922750611443e-02 4.281208501737700511e-01
1.940512116392593966e-02 1.367745898638919252e-02 4.303634112555972391e-01
3.949037349775922495e-02 3.663909942817766136e-02 4.421896321562391874e-01
-2.843698541756471687e-02 1.502625460398702636e-02 4.275033462945460050e-01
2.527788821657491261e-02 5.599541489102738412e-02 4.313350545549731185e-01
