7.639729938479923599e-02 3.269381509147911008e-02 5.178641362431238848e-01
4.727550703048558067e-02 2.122734375768686038e-02 4.483812823485443522e-01
8.956585867546416890e-02 3.881083572541035864e-02 4.996063528072419713e-01
1.057971823862156047e-01 2.603241140421078473e-02 4.696289515102326506e-01
6.571904944998077647e-02 1.785966408897967164e-02 4.546179705447716546e-01
8.811526066806833757e-02 4.124982018185689714e-02 4.553637007851881191e-01
3.820590815310985489e-02 3.105634535910260091e-02 4.461712883563946908e-01
9.535875382989277005e-02 3.506221412792428355e-02 4.924044243029992440e-01
3.976149117033023900e-02 5.977165297005226224e-02 4.463456308064831513e-01
7.748839963250989116e-02 3.440447284255524624e-02 4.557684152630295804e-01
2.391019059631524502e-02 4.412173500559205680e-02 4.444125808555240420e-01
6.056953368675581373e-02 4.970641680294889814e-02 4.471877817832221602e-01
8.249038051367062196e-02 5.853263134664003081e-03 4.925063168802543134e-01
7.811680776034246598e-02 -2.738241243984560538e-05 4.833434605710351106e-01
2.203509661504942860e-02 4.325612740639039194e-02 4.442805057165520322e-01
8.609319797249630202e-02 9.186576805208465993e-03 4.885858870026672518e-01
1.325813801266478159e-02 4.958436837366766298e-03 4.403271366742754211e-01
1.018351970533655504e-01 2.451769480801447090e-02 4.683365315239870763e-01
1.112837935594335886e-01 3.468308890257887356e-02 4.651400474421025777e-01
8.569483643591532807e-02 1.448908043774464229e-02 5.005850332531165403e-01
8.790036742063787878e-02 1.205463953112304726e-02 4.714743383896420892e-01
7.649855918527451171e-02 2.117527655173524412e-02 4.582538537327817685e-01
6.568074544977885176e-02 4.846402883630630820e-02 4.476691681234842846e-01
9.422199985500773201e-02 5.930372057182111550e-02 4.643759977185219490e-01
5.771593483435865507e-02 5.935192156424219656e-02 4.492883394371107175e-01
7.419350867899222879e-02 -3.393267739746616551e-03 4.909889866396191516e-01
8.190032556562805433e-02 6.671267027652132142e-03 4.704330550591127036e-01
4.783046613934462121e-02 8.832504612531315302e-03 4.484134239860887994e-01
6.798172102170269016e-02 -8.791449535211517258e-03 5.015507726110207676e-01
4.149517626822845501e-03 2.054457283603751058e-02 4.414605194026858248e-01
7.389752641728021543e-02 -5.213575532820809849e-03 4.872068161170065581e-01
8.664247322426379960e-02 4.818553668402793255e-02 4.516315835820589042e-01
8.278770174657358594e-02 2.428939886366893522e-02 5.127890603506216616e-01
-3.671148696249590393e-02 4.106357574681846964e-03 4.466358402642947034e-01
1.593410039377866211e-02 -3.223309942503825576e-04 4.393295756298027932e-01
1.824596578500947697e-02 -3.399100506766998975e-03 4.390248123682324310e-01
7.487300774366083961e-03 1.537428447200807347e-02 4.411914725971738394e-01
6.851403812187926989e-02 -4.811620185934421465e-04 5.073915531393373701e-01
1.142882300961128444e-01 3.225238282773607718e-02 4.685821324303277580e-01
8.189374823698489236e-02 4.287952621169620337e-02 4.521588543054418929e-01
-4.078938388673312293e-02 2.707994063177077745e-03 4.454261704000389566e-01
7.453323130317360268e-02 6.314065257966957473e-03 4.624584465526119237e-01
-8.040607878384457147e-03 1.915296481350710952e-03 4.388869415971387022e-01
7.455661613657212083e-02 3.435332927577988693e-02 5.167785718943903595e-01
-1.213837947811654237e-02 3.058550999895869038e-02 4.447353897808926648e-01
8.121441599643371145e-02 3.148688882290951591e-02 5.138778649330510984e-01
3.144925715804235133e-02 5.054358052093431419e-02 4.450801111940269061e-01
6.376837453825381918e-02 4.916127544975045296e-03 5.211547589051207519e-01
6.882157314349342421e-03 2.922486983046605757e-02 4.423251178850785559e-01
9.886509195711067066e-02 4.629448228497841378e-02 4.845939657092567798e-01
7.519401883129600561e-02 3.645790065946894615e-02 4.539128967069586684e-01
6.935793039326733356e-02 -5.410381111601142087e-03 4.677908244507893998e-01
9.127248177821942199e-02 2.584621922797479196e-02 4.978538624962368653e-01
5.805279029634105581e-02 3.363661708355288049e-02 4.497355526251725633e-01
8.441926383157297153e-02 9.987844970735891906e-03 4.695941412772000612e-01
9.598040490812056319e-03 3.261402308138943579e-02 4.426205157019960645e-01
1.009909896129290163e-01 2.365208029707402404e-02 4.687943335926931798e-01
7.125067159937283068e-02 4.980583844569908686e-02 4.479336659759279859e-01
8.516800333443579063e-02 7.067898307955339590e-03 4.841487968271570019e-01
1.078011683728932329e-01 3.100671962028160242e-02 4.778187436073464966e-01
7.816749009847326346e-02 2.633434782539350802e-02 4.570861270650671826e-01
9.643122528966464879e-02 5.176927487473124284e-02 4.801858531250400297e-01
1.169792219939910262e-03 2.310405719468037328e-02 4.417907013694301055e-01
9.208106364249392384e-02 4.248270230752473897e-02 4.948180503578619160e-01
1.449137633478169568e-02 4.341819037144594925e-03 4.402893147387575423e-01
7.249255658168896055e-02 3.141844480253092042e-02 4.539949199602085206e-01
5.594897973638786326e-02 1.618209794551761158e-02 4.513553056979912603e-01
9.023043935255674330e-02 3.457804669452838736e-02 5.010524436609717913e-01
3.477781117302088804e-02 4.439323321129364647e-03 4.437735803747754892e-01
9.473220088219408419e-03 7.784229398813052175e-03 4.406828401244873294e-01
7.064640931640994714e-02 1.838207211435935115e-02 4.564349538537869622e-01
2.159149526104523972e-02 -3.960476251657748560e-03 4.394067528991275062e-01
8.163747188374526065e-02 2.100717579873636123e-02 4.610621037948854917e-01
7.066028803435729644e-02 1.956903569086887104e-02 4.559766849292277713e-01
9.994536569318980546e-02 4.863178478794080717e-02 4.788574792444950101e-01
6.334314419908296245e-02 1.229266915328355511e-02 4.548255899440117322e-01
6.981821023002864057e-02 8.516918960768811789e-03 5.169405535357519677e-01
1.907618831255043779e-02 1.471629322580511948e-02 4.424244413209649229e-01
1.813216385313945120e-02 9.666382852180301424e-03 4.419069816182682464e-01
9.192451741685163380e-02 2.565201881796029537e-02 4.963643947663209377e-01
3.296843496048624395e-02 5.450970947959635216e-02 4.456788974446895257e-01
7.470207855106265893e-02 8.208067537217325627e-03 5.100871474859871579e-01
7.034538772540975538e-02 1.366288313268721952e-03 5.066569376720018170e-01
3.678049303671460796e-02 3.167633152719347839e-02 4.459955419895895168e-01
1.096499829168599560e-01 3.663320406336009749e-02 4.637578945302655575e-01
5.319167064870591877e-02 5.431246662501195560e-02 4.462767991240215726e-01
8.861919424479723639e-02 1.390657645587741950e-02 4.699690129394019089e-01
-3.804495987054834494e-02 2.117462389296166127e-04 4.409420501860701336e-01
9.768138481186201816e-02 3.886773514932055640e-02 4.887740881902082890e-01
7.443855880550701021e-02 -2.078795615780826972e-03 4.936344941361788252e-01
6.918082411839561463e-02 1.624076756600766752e-02 5.238686655518838275e-01
1.981638781259468032e-02 6.045108575344735821e-03 4.413955706431543780e-01
7.221806568846696195e-02 3.426135434573680805e-02 5.178698676121193945e-01
7.380384457438086965e-02 1.805939075392849064e-02 5.205275162679517953e-01
6.255678929658589627e-02 5.489401031706375462e-04 5.183364566416047703e-01
4.718795811271653956e-02 4.991236577161464738e-02 4.462271353056484480e-01
9.972971077086741076e-02 5.153108890491023275e-02 4.681149598259140010e-01
9.717493927260613396e-02 2.731675350350427564e-02 4.889466177539090186e-01
6.062575817172409509e-02 2.766598266045314919e-02 4.517678271771251586e-01
7.911791165479105381e-02 2.309662662595701743e-02 5.175976413218418282e-01
7.573770280109742847e-02 3.381615644645278446e-02 4.550076863067852861e-01
1.021990474551880690e-01 2.288403046364540991e-02 4.739095425017855190e-01
-1.730250831757584873e-02 1.662765261867028832e-02 4.442139889270232400e-01
8.354348101314316988e-02 1.199145893878137553e-02 5.022769965347753107e-01
-2.136599222261021530e-02 3.062643634008729941e-03 4.404734702173909722e-01
-1.215822584291599215e-02 4.454879910480370048e-02 4.473545201212612010e-01
3.930982764363653847e-02 6.598162364427349880e-02 4.508891886030661489e-01
8.576088297691183970e-02 4.894898676814406213e-02 4.513662824686920927e-01
7.375705399833115683e-02 3.087556149264061595e-03 5.031171114615552442e-01
5.274197113504509871e-02 3.389206605382335397e-02 4.485591882729829671e-01
2.718657709343182821e-02 7.968832623105253504e-03 4.430075551408307333e-01
5.556786147872946197e-02 6.303918017550922022e-03 4.517160362421713260e-01
-1.236992830510042461e-02 3.373057762374638557e-02 4.454015534263250919e-01
5.166244115585641450e-02 5.203462479200619134e-02 4.463486850082235002e-01
8.420153061211033130e-02 4.242794060035821879e-02 4.531683515364322568e-01
2.326681837049336676e-02 2.784650542040700838e-02 4.435806137314118325e-01
1.109598223341521500e-01 3.417677674070423999e-02 4.752410863397335539e-01
-1.923937018303772603e-02 3.717834826620708411e-02 4.494720843972769830e-01
7.052933382270845653e-02 4.102503145878292484e-02 4.501404801624758201e-01
7.302730261414946966e-02 5.866262971377099456e-02 4.515086201949728428e-01
9.150537141268352825e-02 3.770338451774564448e-02 4.979265701567602842e-01
4.519082227767420856e-02 9.189147717408306312e-03 4.472589295670156284e-01
8.470721681031324890e-02 9.151179166345621910e-03 4.709855411437293138e-01
7.197299455355155029e-02 1.099261952851378170e-02 5.167528628563671234e-01
-1.317299379688365718e-02 2.469833563467705925e-02 4.440369000577720771e-01
8.915715931571423225e-02 1.532251006206768879e-02 4.690351000958598027e-01
-2.784858170247337186e-02 1.041921349696848555e-02 4.475287212023860151e-01
7.553708624167722319e-02 2.282660775071359421e-02 5.210160052729504443e-01
8.747148968536924696e-02 3.255613812450793704e-02 4.610321513193847975e-01
9.724324883143582732e-02 3.539689939919376388e-02 4.899735799409192238e-01
1.050020325692309908e-01 2.887647788250610054e-02 4.658272297727112377e-01
9.692491694983763895e-02 2.552280564585212436e-02 4.881248120387907119e-01
9.720758537125590015e-02 2.096552351664888666e-02 4.827191222247409486e-01
1.121199135667551028e-01 3.016234417015527247e-02 4.717348127820280013e-01
7.747377227277305045e-02 4.336135676201603034e-03 5.002957214725108903e-01
-1.016545250368323591e-02 3.361175797805771026e-02 4.448734538612270639e-01
5.470700124302933613e-03 5.480508321684138262e-02 4.467661065213417992e-01
8.776668517343638731e-02 2.275709604989175835e-02 5.040647346408224649e-01
8.219411328908711456e-02 5.772818657990500500e-03 4.719607523698398643e-01
6.460163258225248839e-02 1.308102822785544954e-02 4.552083728728934520e-01
-1.930070701415661756e-03 4.262212835551099088e-02 4.442572395807556362e-01
1.761509442108030732e-02 1.564484191378525887e-02 4.423285322077854520e-01
9.444911263795847944e-02 5.281791831023111700e-02 4.568252204154485963e-01
9.143436531223211872e-02 3.371565640158161181e-02 4.993266227860505002e-01
-2.236318844823761455e-03 2.356647292908816554e-02 4.420679022180451501e-01
6.624405731005676701e-02 3.895531098545548104e-02 4.498846434227322666e-01
9.465346263396587356e-02 5.794081514074336803e-02 4.595327211287493774e-01
1.052005458960950379e-01 4.197743177601774567e-02 4.682536248961600145e-01
7.971561311774326419e-02 5.861764861888453526e-02 4.572411100579638066e-01
7.906129973129499833e-02 3.019917133370985177e-02 5.178478706026758971e-01
7.012637509304397998e-02 3.206640087704383524e-02 4.529878827122512663e-01
1.043900797758200716e-01 4.259718267099190520e-02 4.659092141603224380e-01
7.682020980315912295e-02 3.359931293983681178e-02 5.164390843831130340e-01
-5.725970554253709266e-03 3.988266257196379505e-02 4.448267465288972544e-01
1.051307780709468120e-01 2.451699163665188586e-02 4.743031388402236814e-01
4.561336827744866956e-02 -2.698802133825989498e-03 4.477209362924963187e-01
7.042298417105091746e-02 4.315015821769728477e-02 4.495110387993874745e-01
1.901138239339445271e-02 2.049226864653349786e-02 4.427926416898424478e-01
1.933967397424663642e-02 4.453703784020883460e-02 4.440096979867542148e-01
6.552442899397602216e-02 -6.895484626137698449e-03 4.641164233523508154e-01
4.661132163972001724e-02 -8.146486832296817929e-03 5.302922449255620396e-01
6.188464672583936926e-02 -1.272484776045672630e-02 4.649976180440269502e-01
8.689643564015667176e-02 4.492985805666794424e-02 4.519782878522211611e-01
3.346149255202855027e-02 1.098641144570203579e-02 4.444602939247593310e-01
9.447465370772714643e-02 4.983296828671723161e-02 4.547926966304864926e-01
-2.850202087033798168e-02 8.046551818709783005e-03 4.469580637432921666e-01
1.014491011421193162e-01 4.431575192558212528e-02 4.824253698866144413e-01
7.490992641095847726e-02 -1.572037261765794457e-03 4.936235361822852163e-01
8.878236517865606414e-02 3.826565678862436232e-02 5.007718356702395290e-01
3.464634481255721848e-02 1.882301765092364229e-02 4.452747790513659765e-01
1.837181660040221320e-02 4.355462656664343957e-02 4.439324665732773401e-01
9.770978242773667444e-02 2.019930431786175554e-02 4.725040002475721090e-01
9.154038211302349681e-02 1.989348617789319165e-02 4.919716250521801171e-01
2.019732361922553510e-02 3.257514574165738114e-02 4.435021096454058176e-01
9.767404129190128403e-02 5.019017024473889504e-02 4.585769995118169073e-01
1.030556692978182032e-01 3.776507890965120906e-02 4.825171141467939351e-01
1.075780718737725655e-01 4.040724279366241650e-02 4.718072370836613461e-01
3.469182085160571472e-02 7.834354762070429301e-03 4.443828306053306809e-01
6.446188592915480520e-02 5.873206336150675611e-02 4.522065776096384493e-01
8.843941739724567319e-02 2.478381892964587677e-02 5.038023597156253697e-01
4.900093270188492223e-02 1.436968558944861848e-02 4.489839222971904187e-01
5.253212722059119599e-02 3.822801183802225500e-02 4.479148511071701089e-01
-1.416310947828067039e-02 2.248410006436342770e-02 4.441015190097095111e-01
5.900163844812730818e-02 -9.312555854570294875e-03 4.578769998439292666e-01
1.471074371802879796e-02 5.392568809780349387e-02 4.457891230689364770e-01
-1.216759440692195826e-02 2.724523089444283452e-02 4.442184856355752554e-01
9.350122126661700173e-02 2.016706599347134823e-02 4.684038767997592556e-01
7.088676720738369685e-02 4.764047268181324096e-02 4.482805693946430026e-01
4.152787342616168220e-02 5.457147122733045641e-02 4.457496585465268724e-01
9.142988092911592812e-02 1.386791648071404592e-02 4.833971163949927763e-01
5.342430447175003372e-02 -1.153004714119597492e-02 5.265112462797107984e-01
9.421048924486079279e-02 1.745375809915056947e-02 4.765908951265475646e-01
-1.532605945366934987e-02 2.122114895168185356e-02 4.443648198371155655e-01
5.604152916579616811e-02 -6.836257575036698043e-03 5.230415448501960496e-01
8.840055881464839449e-02 1.306823327300453592e-02 4.896793291062422337e-01
1.059212536025982698e-01 2.595434747707964576e-02 4.699356697729240584e-01
1.622084814408899026e-02 -2.097137806455107775e-03 4.390009135859420097e-01
7.877602988734325185e-02 9.359048443828647465e-03 5.062866540453341280e-01
3.396395438038308373e-02 6.006071474223678968e-04 4.431158244153522996e-01
3.827240526696155942e-02 4.935396271431904958e-02 4.455332375629405539e-01
8.700716539147171358e-02 2.711137491970075364e-02 5.067541999478550885e-01
7.651967519681306118e-02 5.475554832308647535e-02 4.493916217185884854e-01
8.186853455321076167e-02 1.707259551631140973e-02 4.623350158186095848e-01
4.511714026731045851e-02 1.905783539798645496e-02 4.478363180608868621e-01
4.235455147471462595e-02 3.561299295031108286e-02 4.467637152955015178e-01
2.507550134969127598e-02 5.220377225537919247e-02 4.451467672207080062e-01
5.870927907582457889e-02 5.221576763608658245e-02 4.467632943104394294e-01
4.261085649867221020e-02 1.767408050171516420e-02 4.471432204139516586e-01
8.086069671524971636e-02 2.292012221764931287e-02 4.596840394255521933e-01
4.878449367537498679e-03 4.191474436290398148e-02 4.435387464430147753e-01
8.727891387628719522e-02 9.019981402912734259e-03 4.815269909744567811e-01
7.679196826522399766e-02 1.341298430216226328e-02 4.610031715108057759e-01
8.191440110186977430e-02 8.790467005239303508e-03 4.999892012301240807e-01
7.817803092504843621e-02 2.873604354099893593e-03 4.961155435499380317e-01
8.583061539493387626e-02 4.408984043478855058e-02 4.521398977357585780e-01
9.716439913970327524e-02 4.780099037237513226e-02 4.565420125856803346e-01
6.899355280912558563e-02 1.316719833294717479e-02 4.572158907285354679e-01
-1.243335826046152760e-02 4.559549811812031034e-02 4.476671661328787133e-01
6.312081504730934767e-02 -9.218716543530432531e-03 4.630975565047483200e-01
6.764001688367696219e-02 2.408359116978460446e-02 4.542625140225888258e-01
7.106623994197367074e-03 4.060075863892727288e-02 4.433536619838502890e-01
-1.656932393412338667e-02 9.326115425599801334e-03 4.417213440683002701e-01
1.029662361475989912e-01 3.634682030517875223e-02 4.613412074293616882e-01
7.367315663038147278e-02 -5.564385005580332021e-03 4.870334332564240087e-01
9.574423301910833795e-02 5.657524349115233137e-02 4.688206614362528390e-01
4.829455558775389012e-02 5.946569422205662953e-02 4.469312116531131140e-01
7.962435125191859309e-02 2.216575446320524084e-02 4.594099538413056738e-01
8.006707738720231227e-02 3.496003084647451159e-02 5.120129859640478731e-01
9.147746030564679609e-02 3.713903315313095421e-02 4.981401573894422841e-01
6.904459752414383866e-02 -7.658710175375532669e-03 4.996295418030919921e-01
4.756383880626752214e-02 3.647927292801915466e-02 4.475298874008804551e-01
3.655913084434306293e-02 1.273752847780284386e-02 4.452770334926197671e-01
1.078201423185082691e-01 4.012830074042507411e-02 4.730684479287589062e-01
7.278072113663200393e-02 3.243220368073715387e-02 5.214745814254875267e-01
1.044639873148744819e-01 3.054881803485180042e-02 4.803846378982227772e-01
5.146772129318313849e-02 -6.719740949155032436e-03 5.265870273540200763e-01
2.620599845462604632e-02 9.597216854424999929e-03 4.430439953073113113e-01
9.138594075278327900e-02 3.324689428877408703e-02 4.995598545580762218e-01
5.821747216644745232e-02 3.453631703787097412e-02 4.495403491910455185e-01
7.751620218907484539e-02 3.542213423502012931e-02 5.131989271294437049e-01
8.410278612887581162e-02 1.176405702952055925e-02 5.004255937760422324e-01
1.523801233863889514e-02 2.547271657529353792e-02 4.424499773390992430e-01
6.573314955183828801e-02 1.410280560833035435e-02 4.553999864004686926e-01
1.769281202201622785e-02 2.667417749838065649e-02 4.427908631900481229e-01
3.650213456536213763e-02 1.495777730515711335e-02 4.454618378085927755e-01
3.098130185896365990e-02 3.984399942140681716e-02 4.453461231377634499e-01
9.355697274126231755e-02 4.512185915145701387e-02 4.542593537267865522e-01
6.819190608779490681e-02 -1.013275646917085292e-02 4.718542335458510428e-01
5.332512668716651860e-02 2.630418822869631454e-02 4.499274222268890289e-01
9.224093770358236799e-02 1.967389363141083813e-02 4.903595857534097102e-01
5.079238882636994551e-02 5.168267604235241702e-02 4.463371940267542026e-01
7.075777234811696237e-02 -1.418463841193155078e-04 4.639572431598213420e-01
5.443191470981841723e-02 3.141615705851485280e-02 4.494280120352103225e-01
6.585390682595848588e-02 1.346591508455090985e-02 4.555785366891489385e-01
1.038548918288330070e-01 3.743835168167444077e-02 4.816461727902096590e-01
8.062179017984000273e-02 9.961031846656413780e-03 4.655705671260449430e-01
6.622334925295021713e-02 8.324433102041412652e-03 5.210719295805222862e-01
9.399757126876548408e-02 1.682753543582509587e-02 4.819884105398715701e-01
7.528700323614352652e-02 5.694467015803422738e-03 4.635721917857343333e-01
7.190777635788556110e-02 1.801492344357892572e-02 5.223807197795931057e-01
1.027510630247806256e-01 3.127184005658759786e-02 4.626781485014077044e-01
8.402852999103194165e-02 8.390026087803413926e-03 4.939098391785214925e-01
8.034023685062512132e-02 5.246547079570600819e-02 4.499703690952410184e-01
-4.474332135486570189e-02 -4.233887586725911326e-04 4.437765385252207540e-01
4.503977820421079664e-02 -1.386048468729571617e-03 4.474616123913944810e-01
9.628970485772211929e-02 5.577281129085866207e-02 4.702373501382783871e-01
5.051819643501116730e-02 1.036392844630135493e-02 4.495854635247160114e-01
9.460722170984649237e-02 2.357661230090093291e-02 4.899580777042167878e-01
3.744869995712569316e-02 1.503409845704370591e-02 4.457023685088558063e-01
4.852433537925862628e-02 -8.572032640108299961e-03 5.290162449027837610e-01
7.452933334518214992e-02 -4.386734843102651701e-03 4.805025581916848032e-01
7.341689424769613781e-02 -1.139936537192325593e-03 4.969479839888868988e-01
6.460839186926102540e-02 4.160091580345881557e-02 4.488675059210671114e-01
7.957866357368131860e-02 2.496331847724531094e-02 4.579724155432482458e-01
6.505707164142664201e-02 5.495361864138990221e-02 4.477113900574857808e-01
5.164595628834825480e-02 6.318983620622757591e-02 4.526190952865754569e-01
9.290972983509569738e-02 4.997729014416090604e-02 4.895920193590195812e-01
8.965120202217234657e-02 4.186118471564552468e-02 4.978397662285113379e-01
8.163491835781139239e-02 2.202811121225508109e-02 5.141353637706115309e-01
8.748515369573350853e-02 3.562700854146497176e-02 5.042740590008779611e-01
-2.392780658957944367e-02 1.675543716315159443e-02 4.475122452088940994e-01
2.075730808368776714e-02 4.323233276506337208e-02 4.441617652634612390e-01
9.567693179076355858e-02 5.771794222648184841e-02 4.602764062517091248e-01
6.707914910965587230e-02 5.314644203566083747e-02 4.475674219426706291e-01
8.084125518003781527e-03 5.078979121994741525e-02 4.448038156034133661e-01
1.749846629469009596e-02 1.708766721892772400e-02 4.424313165184640684e-01
-6.621697164804103697e-03 1.942044013938058408e-02 4.417608457743658623e-01
4.550342929601335767e-02 5.088178333301976441e-02 4.459368372671339009e-01
8.971284017143481282e-02 5.491345621231164681e-02 4.555247065376928362e-01
6.202207222772237669e-03 2.803313568601652553e-02 4.421942941336215460e-01
9.688448189098070040e-02 5.511832469143269908e-02 4.695654466728388376e-01
6.093924140172782972e-02 -7.204763232427507241e-03 4.583566380629040538e-01
2.568955217557511786e-02 7.652659548477342560e-03 4.427000277882702228e-01
7.595986770898703611e-02 5.520346223350416220e-02 4.493234517395415795e-01
9.836707950043109550e-02 5.314041812594069020e-02 4.644643793195068482e-01
3.931981791158865869e-02 5.327593724867891317e-02 4.457176740345872301e-01
3.400837142448296518e-02 3.813642371847108126e-03 4.434998291773470935e-01
9.954114866783538018e-02 2.790890720609134207e-02 4.642714845335542129e-01
4.717700942566481481e-02 4.343236149933822621e-02 4.468430774057951527e-01
1.146301170810764929e-02 2.423185493650250460e-02 4.421160527373024229e-01
-3.199390430501965893e-02 6.292189505167117454e-03 4.484500688455186346e-01
1.903487593246751264e-02 2.525484998500619749e-02 4.429081595908396229e-01
4.788999028703723460e-02 -1.421987746220650106e-02 5.319292521445025956e-01
7.678129501391051104e-02 -1.329402186119147365e-03 4.879941220922108802e-01
7.231283892327933227e-02 -6.296948860357653305e-03 4.759058367913539533e-01
1.054497640137221082e-01 4.151770863488516566e-02 4.665421757314484608e-01
7.065404331043932673e-02 5.183937257188835773e-02 4.480158408791058977e-01
4.828553215052427960e-02 3.955318788056460394e-02 4.472818726880566365e-01
7.681467569197324152e-02 3.113031045270625574e-02 5.192947104355343235e-01
9.831377992768892959e-02 2.165690805360921678e-02 4.694502083252061753e-01
-4.529241650749532208e-03 1.308413202788683699e-02 4.404549872998341220e-01
6.439516785999506443e-02 4.331385067230748148e-02 4.483907826288938692e-01
-2.994189433640197934e-03 4.706618005140035532e-02 4.450201052063231799e-01
6.461506314720634470e-02 3.819179132525518574e-03 5.189388210070107199e-01
4.519475346367703844e-02 5.699166029116731202e-02 4.462089577920471117e-01
2.745958248054513121e-02 3.580466762826872013e-02 4.447414021102796267e-01
8.495919820686612112e-02 1.313205716277069009e-02 5.007067308502413105e-01
6.096062229607369931e-02 -1.126959996885254847e-02 4.622110150016537911e-01
9.238687364841199900e-02 1.532695708344230558e-02 4.836243832863760250e-01
2.657181525428159788e-02 5.824434025033146944e-02 4.466282684476858833e-01
1.631492223567672373e-02 3.008719049044050048e-02 4.428824332053594159e-01
7.985150635276770659e-02 3.934377768461907315e-02 4.541455403587836281e-01
6.273889257105512429e-02 4.577821021040211907e-02 4.478180763689598720e-01
2.357553009951415812e-02 6.011455363311554029e-02 4.483223654153755122e-01
-1.850348142920027819e-02 3.670906930563938575e-02 4.488332758638169939e-01
6.616453489375997976e-02 1.113415279225636947e-02 5.232203723860832101e-01
3.206582023313309104e-02 2.603446722248895645e-02 4.449927251951161233e-01
-9.562027836955463989e-03 4.952242044955535577e-02 4.488863820128983217e-01
5.027208344569542020e-02 7.186511759307647601e-03 4.494363340606840618e-01
7.855643765366576714e-02 1.089038311034288024e-03 4.891196901077865533e-01
4.307515576030789689e-02 5.058626467669308929e-02 4.458530609581080051e-01
5.163814924148577706e-02 -1.480225330347888571e-02 5.289275249400611223e-01
1.064494907130263679e-01 3.452444894799271830e-02 4.802601071878698780e-01
8.512580953325736555e-02 1.226786560991430242e-02 4.677912494938088472e-01
-2.119379884896111475e-03 4.093279250129394642e-02 4.441076428566231304e-01
-1.679719642170751301e-02 3.358343157913960819e-02 4.472259690210786398e-01
7.225329787547447868e-02 4.561132294550553079e-02 4.490249506776544663e-01
4.468421752795664892e-02 4.516067464615773630e-02 4.463828656856858590e-01
7.634049701792963716e-02 6.568572458629400035e-03 5.054340886417908463e-01
4.432231710679678666e-02 1.954831319328615216e-02 4.476438010477441498e-01
8.363464293400016403e-02 1.675380493695724504e-02 5.072970610279903259e-01
-1.329014995951034901e-02 2.179547466838176184e-02 4.436013669921649583e-01
1.817987918278495679e-02 3.208512222871277852e-02 4.432734585492952850e-01
3.538521097756016504e-02 2.809786464988650243e-02 4.456400798279845366e-01
3.039615340690989681e-02 2.395759463201287132e-02 4.446511528122378820e-01
2.881985027675553271e-02 5.041014527822891556e-02 4.449534011235455888e-01
8.450777910799794901e-02 2.106479885678592956e-02 5.099317817869355451e-01
6.575084701209811533e-02 1.406119596139214544e-03 5.141733530733706425e-01
9.497706329719174390e-02 5.139653002842442531e-02 4.561791218015652238e-01
9.432140876817217412e-02 3.176707114563961931e-02 4.951650899823459850e-01
3.786021599557883033e-02 4.695633728477820179e-02 4.455294270181004990e-01
1.046282404630328733e-01 2.859156788232961044e-02 4.792966266746428450e-01
-1.108809643972696359e-02 4.152704664295745612e-02 4.463413300411295248e-01
6.363395281533022751e-02 6.004932680930771816e-02 4.538133010765634245e-01
1.067210790744395205e-01 4.018888495887011636e-02 4.764044946005284165e-01
-4.378668163244113509e-02 -1.805345169044979270e-04 4.418357618077923266e-01
6.544162609598129510e-02 5.151832184093700640e-02 4.472408955273788900e-01
7.097936918325414846e-02 3.348088080089912238e-02 4.527185588746781564e-01
5.982855658403576915e-02 1.770690725046957653e-02 4.525354350364886868e-01
4.790372410184438705e-03 8.035830268112990893e-03 4.402639784660458688e-01
9.870089100779730340e-02 2.122700132603969059e-02 4.747099285574091221e-01
7.085439203141778719e-02 3.900843230941041656e-02 4.507661602872510276e-01
2.671733598334357154e-02 5.944774160173339761e-02 4.472732761518643518e-01
-2.297305822505515960e-02 1.970232112828443349e-02 4.475207920513227799e-01
6.721454760389843075e-02 -1.020977968566046459e-02 4.702285898939393416e-01
7.812525211126283842e-02 3.546214507256930520e-02 5.128776450199374892e-01
-5.568097836379801505e-03 4.760484843145302430e-02 4.456558768190183595e-01
5.874799159344610416e-02 2.402697611821305243e-02 4.516408287323538384e-01
4.552639020748091431e-02 3.365851145506280635e-03 4.473834846716506219e-01
-4.775670218835879888e-02 -2.936063988500863236e-03 4.424433409283776708e-01
4.517873241227606668e-02 7.749232116921966028e-04 4.474352807804815035e-01
5.317787094492638922e-02 2.620402888350829851e-02 4.499046722306758173e-01
2.874707338996337208e-02 -4.321939871785647480e-03 4.407595317929047241e-01
-1.383878636355986673e-02 -1.489481676606878129e-03 4.383227069862998815e-01
6.567920957753631273e-02 1.980573263010658794e-02 4.543325867852280320e-01
4.407805320807874766e-02 2.407552179969104592e-03 4.468256755908778244e-01
5.576103949929910736e-02 5.215941156481560675e-02 4.466084424227426686e-01
-3.362620090108155851e-02 1.940027803084264655e-03 4.427163211000133547e-01
9.097606854263015630e-02 1.297454899092350886e-02 4.810276925970588535e-01
7.466798818014615258e-02 -4.145965867966762419e-03 4.797677889687615993e-01
2.052290489598268888e-02 4.041153652444719191e-02 4.440832122044993668e-01
-1.019319921685497669e-02 -1.925891267147883563e-03 4.378832677186909605e-01
9.129049383382129013e-02 1.415282942772622121e-02 4.844075417077923773e-01
6.818561093175390386e-02 -7.278778466731066626e-03 5.019842283748252587e-01
7.245031195072336450e-02 5.155105577376714251e-03 5.089466416337669052e-01
8.302391953561555349e-02 2.319936307191975203e-02 4.606495935517770368e-01
-9.421625961255154780e-03 1.918445726321411828e-03 4.388904832431055336e-01
1.083923783386938205e-01 3.212456870316043878e-02 4.777476304208678193e-01
9.420079053162958016e-02 3.581721742828586352e-02 4.940745704928987125e-01
-7.049336520316229135e-03 9.162005533108726410e-03 4.400331461302698366e-01
-1.248365419258683912e-02 4.834739247919545707e-02 4.488667860854044789e-01
3.327690555962339869e-02 1.220052439007381431e-02 4.444959631597609206e-01
7.438572315781022404e-02 3.261944261143700369e-02 4.546458733067155755e-01
7.908846540033735717e-02 3.877613827954443093e-02 5.081855663032387449e-01
7.219380649690140817e-02 3.043195882054235135e-02 4.541344483220843276e-01
3.496204467686993278e-02 6.005691572253132188e-02 4.468246740909131431e-01
6.656875573182867434e-02 -5.235683155314842241e-03 4.639413479965634468e-01
6.407626623066174643e-02 1.159630221844302859e-02 4.552020206369741251e-01
7.240557205536662932e-02 5.127934403846184583e-03 4.617650444197011206e-01
7.940801933852927041e-02 1.029651378062656185e-02 5.065893760771298382e-01
6.559826286715830790e-02 -8.876530551735943922e-03 4.661358183429064050e-01
-3.318156384624895705e-02 5.217824937719509060e-03 4.468390494138415603e-01
9.999849905046427623e-02 2.260537136045262172e-02 4.805112169209937445e-01
6.582441094055850594e-02 6.206817593063295412e-03 5.196462225419676839e-01
8.508378906953627252e-02 1.178181217601290999e-02 4.980065184279081625e-01
7.691740983213718637e-03 2.446527285644972682e-02 4.419119324906950474e-01
-9.035384648636585886e-03 5.059164325427432246e-02 4.490783080558525819e-01
1.081963688414826347e-01 3.691616094989626923e-02 4.619782037359532190e-01
3.899118514924462819e-02 3.816992355749366378e-02 4.463467949978309202e-01
9.277162258144423801e-02 4.959592048074912968e-02 4.537943182443422430e-01
8.993565318948180953e-02 5.485293210130767760e-02 4.555387454244164136e-01
7.637169254934163265e-02 2.377208287622781940e-02 4.570167514724620683e-01
9.977294883647386259e-02 2.337700993673848260e-02 4.820346298882607350e-01
7.342459130777272136e-02 5.465737881384387375e-02 4.489332538080225699e-01
6.442124629611446773e-02 5.787765881816497177e-02 4.504394221373214102e-01
8.736201886007741169e-02 4.294048917632907469e-02 4.995512510614999457e-01
6.165231823783109272e-02 2.571747510304510029e-02 4.523753632996549423e-01
4.886936903070104865e-02 1.200467457584419861e-02 4.489668986766598424e-01
9.314898422145949375e-02 4.489882014775240654e-02 4.540025746758935554e-01
5.743855753132120351e-02 -1.252601985931513923e-02 4.589892292451359657e-01
5.110856538709494107e-02 1.887593738558383458e-02 4.495898188466739276e-01
7.787468295215815850e-02 3.658348264960030113e-03 4.688808681377699683e-01
1.561371387637294772e-02 1.030666401164339468e-02 4.416839117166740381e-01
2.951783546887329183e-03 2.982992051481823861e-03 4.393559884406436078e-01
7.972491584796331798e-02 1.857048669582053030e-02 4.608710230512110817e-01
9.367516496561248407e-02 5.284597502708498346e-02 4.810271772327582296e-01
9.053170334532258112e-02 1.367963263712266946e-02 4.856174064516939892e-01
9.789878580870005342e-02 3.522077879640961307e-02 4.891797048139708837e-01
-6.486632426085358824e-03 5.015452870374994404e-02 4.471308494729760996e-01
7.090530307083182937e-02 3.203316519698402171e-02 4.532086894553309930e-01
-1.538622853893662108e-02 2.908987206863603014e-02 4.455190398294735510e-01
6.950592677481760850e-02 -5.276891763125635300e-04 5.055047403272742157e-01
8.545697531652184098e-02 1.554334480501584799e-02 4.651028896421803838e-01
5.283976549269047557e-02 -1.081985595968666322e-02 4.541348672798002362e-01
9.141993978576035129e-02 5.670711813112932348e-02 4.732223274350254028e-01
7.474508667011002527e-02 5.538286787702485781e-02 4.491504442137718156e-01
6.289552741487003384e-02 -3.965390071036585529e-03 5.141634733334841112e-01
7.967360459510652859e-02 2.355559824535144800e-02 4.587339076001726301e-01
1.653726920556549199e-02 1.559177043803504706e-02 4.422069200805499589e-01
6.700141266484850588e-02 -3.179440960567763742e-04 5.102188346822600362e-01
7.232503158203786031e-02 1.063138999439033894e-02 4.595481007060615575e-01
2.436615401842819745e-02 2.297691370616383733e-02 4.435845969503354747e-01
5.971670395779571372e-02 5.038749817493969052e-02 4.470437371546782668e-01
6.617333955171965376e-02 1.270389595867731786e-02 4.559666786965303475e-01
2.419032210045553993e-02 4.120141625657769424e-02 4.445620176378662358e-01
9.382829472693914041e-02 4.426681800904781056e-02 4.543140015233314566e-01
6.101354835223209844e-02 5.301945752826116992e-02 4.467926731411974162e-01
8.111782516631479978e-02 3.411290921566931256e-02 5.119953142529165557e-01
9.508052005209358115e-02 2.513286948062285961e-02 4.644879873145985605e-01
-2.199795692722732177e-02 4.388987353898688576e-03 4.412451814917535686e-01
5.569186909627231452e-02 3.748411589320583756e-04 4.525050719807776622e-01
4.171724981280835326e-02 1.416700344159183521e-02 4.467270490732215271e-01
4.541207231469314431e-02 3.751083890588395586e-02 4.471209474205342649e-01
6.506794749272995504e-02 3.029229193609856569e-02 4.522383090431487118e-01
8.926271437768559802e-02 4.970791090121199490e-02 4.916180089628339744e-01
-6.082793736898325747e-03 2.725716183100701170e-02 4.432033789528442291e-01
9.407572298587552062e-02 5.162360471439519233e-02 4.850600312716673579e-01
6.803435158417121820e-02 1.708064613003955692e-02 5.255230723168926588e-01
7.128216520413024893e-02 1.205421603570214391e-02 4.586432847978427207e-01
5.795884934787202958e-02 6.315746018824671543e-03 4.528152879781584539e-01
5.838722850035615863e-02 1.743857336202507546e-02 4.520477442552691127e-01
8.942221384291954012e-02 2.331706969234482313e-02 4.633402976680330854e-01
1.265964602660007640e-02 4.208287096050390697e-02 4.435492468761437768e-01
8.391749422028629835e-02 4.424586776385428660e-02 4.513682210055082744e-01
1.012380075896015252e-01 4.751890879810606594e-02 4.769365038223391529e-01
6.971938540019169406e-02 -3.731392654118706725e-03 5.006138030434049702e-01
3.390161612708892519e-02 6.221744928495507448e-02 4.490830078522705104e-01
1.861460786064688538e-02 7.194123770119003475e-03 4.414414052650351139e-01
6.824942294910749108e-02 2.222141917576104034e-03 4.600613038690843926e-01
1.633454936711295491e-02 2.856670543016478006e-02 4.427418818602585349e-01
6.739492568298637021e-02 3.409716691766728758e-02 5.220157646756741210e-01
7.372459009013340725e-02 -1.076163125013812442e-03 4.691441964536688936e-01
3.056125607660837781e-02 1.418520750195836032e-02 4.441214253697084446e-01
9.334647785105058826e-02 5.310462405798905411e-02 4.556846983003054463e-01
-2.671689411731448076e-03 5.173553879458733795e-02 4.460455015075190932e-01
7.245238770898075609e-02 4.625156514642426997e-02 4.488575956738741213e-01
3.849778102411472586e-02 -7.812372733918162074e-03 4.441939669367621635e-01
3.652854413976896336e-02 -3.839770189291063889e-03 4.435182809347784638e-01
5.424258516825455900e-02 -9.756272001373939018e-03 5.253312451402256666e-01
3.259366963168088688e-02 4.439099133430823851e-02 4.452172909740861884e-01
6.144217641251201872e-02 2.564722843103806136e-03 4.550168499384611431e-01
4.155132505981760579e-03 2.939952171985920487e-02 4.424678545541880226e-01
8.292353397453317010e-02 1.622530775024051339e-02 5.079823575063185936e-01
6.851995810329025716e-02 3.334934140057967122e-02 5.228834757690339341e-01
3.181043189179503378e-03 5.169890567683194799e-02 4.454806024027137545e-01
7.536239106865270931e-02 2.524614156279337239e-03 4.998837806504268233e-01
7.625859538059993892e-02 -6.966365875424287068e-04 4.737804275444933433e-01
9.332847973209849879e-02 3.870242167086187374e-02 4.946913771154778372e-01
2.448547260222922774e-03 3.802938515046045548e-02 4.433864115630812841e-01
9.350323178286512604e-02 2.553523981535070486e-02 4.635543590213689336e-01
8.849580746607138559e-02 2.841250697936498551e-02 4.613294471826006049e-01
1.058848721735429349e-01 3.401351746953195504e-02 4.624783725448636806e-01
5.565194717104704480e-02 2.339070252769237523e-02 4.507665702549883968e-01
9.180862525054019063e-02 2.225229668580997258e-02 4.934753206501650835e-01
-9.300282840180942173e-03 1.228351050139849226e-03 4.387091676736278867e-01
7.937291131507193120e-02 3.934342826826107975e-03 4.706734522681558786e-01
8.598695747032501779e-02 4.831315419381781301e-02 4.951844880403642457e-01
7.413168248092150137e-02 5.938841392639312988e-02 4.518639485988331095e-01
6.939076163347478177e-02 2.573563974061251688e-02 4.544097200814813386e-01
1.063431456429643346e-01 2.529072446949222341e-02 4.717671211519880448e-01
