9.130011559261166920e-02 6.074061963451543589e-02 4.626884770553860715e-01
6.534938296268395785e-02 -4.830886111089478276e-03 5.077474506020263068e-01
8.797105147231017164e-02 3.045236525850313070e-02 5.023936643057915763e-01
4.998995622372406217e-02 4.010520486077479019e-02 4.474432342469995549e-01
8.040127205420516399e-02 4.223376995032773230e-03 4.833694431950796289e-01
8.181152669211051720e-02 1.073517651584311727e-02 4.994508690192625555e-01
6.895721016096655054e-02 4.878002556214211527e-02 4.479840514609221280e-01
-2.605358158144741379e-02 4.727635796214704408e-03 4.423200713513449900e-01
8.984971966677095245e-02 3.355465935761415414e-02 4.616180369674402484e-01
3.447220551722633697e-02 6.527654862251719599e-03 4.440682476467813777e-01
8.590918575547004665e-02 1.236922810675022272e-02 4.912110713872238632e-01
8.061994497461273668e-02 5.316519087690992768e-02 4.504179263901999519e-01
2.353424308314399152e-02 1.846033618330716539e-02 4.433466639216722127e-01
7.140957883382426097e-02 4.586931183037305793e-02 4.489932755335593328e-01
5.927443744273031695e-02 4.437867392343818745e-02 4.477870779629513076e-01
8.355787611960131811e-02 5.552589623609538450e-02 4.845813257091295956e-01
1.088546648118796922e-01 3.829149230577930108e-02 4.728187135058889989e-01
7.956876364820503200e-02 3.991406470715590238e-02 5.056638953292725835e-01
7.026961080863725062e-02 -2.448933239125509684e-03 4.670833554117786446e-01
9.322445043161048384e-02 4.327584241440204926e-02 4.905303422973053551e-01
5.780563291947346527e-02 2.272962897594495157e-02 4.515413011860908710e-01
1.481717134947161188e-02 5.782846608039924306e-03 4.406703024911096667e-01
8.279597496371417231e-02 5.306634545704742856e-02 4.510716610565173590e-01
7.421914908961591006e-02 3.514036045062914754e-02 5.157194867963135199e-01
3.794577455063649629e-02 5.570411470173526614e-02 4.457947711521249023e-01
9.637813811107155682e-02 2.144955603278420053e-02 4.719761246813152789e-01
9.264774617710036519e-02 1.785130626138635435e-02 4.807570033385986652e-01
5.844601267576201437e-02 -1.058011195484863734e-02 4.591567933296185067e-01
9.074050319613109761e-02 5.822366154634225216e-02 4.578781126091619469e-01
8.959775651459353507e-02 5.703019745981914579e-02 4.567232088501975706e-01
8.566759050771252659e-02 9.465437796630768452e-03 4.792413611320339162e-01
6.997835947272713908e-02 2.397325439695593627e-02 5.251577775364839606e-01
7.536817123486555525e-02 2.840847824561700246e-03 4.973368907148292273e-01
6.443457366651189622e-02 -1.035289309855137903e-02 4.669813590500054290e-01
8.831363793523661077e-02 2.473127405052980704e-02 4.998995437674603193e-01
6.975848559861343168e-02 6.741681266813725863e-03 5.122970216216224948e-01
6.510474789250564331e-02 4.940534497483433513e-02 4.475419534382288900e-01
4.962527480695513860e-02 3.795487751913430990e-02 4.476974974367334825e-01
7.278734282486989948e-02 -3.713560279710391866e-03 4.741939380668476756e-01
6.285308600651544342e-02 5.632435675199683189e-02 4.480648410890175071e-01
5.124369021277696418e-02 -1.122613661117160058e-02 5.279317676235780743e-01
8.928595969489257211e-02 3.770740732840139470e-02 4.587820666458831131e-01
-2.164024132944825790e-02 1.014342693599707551e-02 4.436618982359044616e-01
1.060615428526771181e-01 2.931341383869299350e-02 4.757517764382311332e-01
6.491596019717009447e-02 6.574889301764138411e-03 5.192534028347158825e-01
-1.464237460486648990e-02 1.220700617528858688e-03 4.392675908420654585e-01
-3.960264148777908194e-04 7.539718745350899864e-03 4.398957174970136719e-01
1.048294294722261766e-01 3.800372952424652118e-02 4.606643550488284666e-01
1.037038066310446427e-01 3.635774110301781548e-02 4.796274922009260422e-01
1.602735729622305552e-02 1.470394009078881611e-02 4.420870633901115010e-01
-2.135459223633210876e-02 3.308861468618640861e-02 4.495955827829926643e-01
7.998543454911599682e-02 5.800842458057704765e-02 4.552650252284995980e-01
8.728303544370151143e-03 2.015861629052247833e-02 4.416994649007007223e-01
8.514147739384259062e-02 1.023717118202799141e-02 4.722483905722605346e-01
4.324908036623757029e-02 4.994381909512926598e-02 4.459723652072373756e-01
7.786108447597193949e-02 4.230243681723921956e-03 4.958048553301334649e-01
8.862369014034612857e-02 2.409558871134467872e-02 4.980548126391245445e-01
6.030204416222170044e-02 5.896326226845507307e-02 4.513562092843198537e-01
8.712041818884813660e-02 2.592510085362509722e-02 4.613016391279967654e-01
-1.387636920514957913e-02 1.016601014142063612e-03 4.390804803127316136e-01
4.441228981738779003e-02 6.119048595136571123e-02 4.476171230153072056e-01
9.040476270961163296e-02 1.556360132167834871e-02 4.834003480482751414e-01
8.075402935458399212e-02 4.700809011370960834e-03 4.767461682367513665e-01
9.176503870566118937e-02 5.311340056963210349e-02 4.832882629763418092e-01
1.095364659751759118e-01 3.595945081864181103e-02 4.729028127309479745e-01
3.649130030676749070e-02 1.744227890497698080e-02 4.456425434732363966e-01
3.186353667996535272e-02 2.559089473915135415e-02 4.450369324982350050e-01
1.691520769661115225e-02 4.777430304554123458e-02 4.443522181016853478e-01
1.223028022833331716e-03 1.966996534768529134e-02 4.412664031097686679e-01
4.798330182473651423e-02 -7.756326471510468709e-03 4.498376117911210836e-01
6.308382216807574550e-02 -4.245165910865622040e-03 4.596913106564924911e-01
9.366705004437014814e-02 2.728058454724315712e-02 4.631468517640481286e-01
1.774286254107729568e-02 1.914732522483846011e-02 4.426050668316453551e-01
5.104971243135435904e-02 1.988179598868402426e-02 4.495947136438925296e-01
1.014698517368951558e-01 2.518532507973514356e-02 4.694920461565677550e-01
7.084444848888336865e-02 3.131962863400410049e-03 5.055243761748604570e-01
7.764399605644002611e-02 1.022960883132349556e-02 5.061166897626658834e-01
-4.700734455484893715e-02 -2.027678258077684863e-03 4.434442972127192184e-01
5.797826416193619346e-03 4.278356928426976791e-02 4.437049960260022186e-01
-2.223315843597777064e-02 1.624556326664917255e-02 4.463456947489294890e-01
3.028591650451599102e-02 6.066016840609642774e-02 4.483118081435855107e-01
8.571151066737592306e-02 9.495226863754924196e-03 4.810778960503080404e-01
-1.659271988472784537e-02 1.343454672298902142e-02 4.430941419086695809e-01
9.633597368686698525e-02 2.494731739179459687e-02 4.844883142732782089e-01
8.684916012598416224e-02 5.732052800439828982e-02 4.745358847506642164e-01
4.494679010508128431e-02 3.655579407184647578e-02 4.472115948272197272e-01
-4.136146643547106150e-02 2.679120075464181024e-03 4.431615393170684758e-01
1.149739099567706826e-02 2.117628251837884445e-02 4.419577388259641193e-01
6.860091548140948015e-02 -5.668288963970452565e-04 4.628999582798296597e-01
8.448171545684277084e-02 8.285874140545813199e-03 4.829969714361403432e-01
9.104608277773719449e-02 2.347418049156840825e-02 4.646912259618918850e-01
8.832820348946357480e-02 4.840138375429690887e-02 4.924423578133718671e-01
9.881768123353763811e-02 4.508942477094680240e-02 4.831250178973213183e-01
5.761666151274445064e-02 5.749629625117614468e-02 4.478275061473071528e-01
-6.686714633289727802e-03 3.132570704211758844e-02 4.438677469137840559e-01
8.805584355324244661e-02 2.082016503651970551e-02 4.967510582870702240e-01
6.993561454626276430e-02 1.658087086547229382e-04 5.031184816202326493e-01
7.973525709574477704e-02 2.385325934480407584e-02 5.153042708121142734e-01
7.837416932111157530e-02 5.877101421098804984e-02 4.554915186991338460e-01
1.018363009947040598e-01 3.055228210540491054e-02 4.797276049264962983e-01
-2.977524459113814470e-02 6.410873119062909797e-03 4.443495637097967244e-01
6.628283040488708311e-02 -1.751605618242687776e-03 4.612630438581653003e-01
1.863750494415545786e-02 5.255023435558166256e-02 4.453703855913192511e-01
9.442723581695224022e-02 2.084119508558448380e-02 4.819695775092610601e-01
-2.269224482214528271e-02 6.332216815913067030e-03 4.421883956127177218e-01
4.495191988357752355e-02 2.466057480514418417e-03 4.473057925386573763e-01
6.575902051514906366e-02 1.010745895307664163e-02 5.212278969139481077e-01
7.726607750979114231e-02 5.409826791552454182e-03 4.677507805124877516e-01
-8.038840713595060000e-03 1.468471396097834752e-02 4.410804100665092209e-01
2.692033765038091137e-02 3.454167111783165711e-02 4.447493383259699673e-01
8.767865273394406800e-02 4.346401865413503096e-02 4.541852953454272868e-01
7.644028953213195809e-02 1.121344817939392766e-02 5.088997488266446823e-01
7.967211787522600341e-02 9.807600477522422297e-03 5.026993709501876850e-01
7.513849197495464649e-02 9.064248953611481890e-03 5.079206485206084754e-01
6.342640726456350020e-03 3.970258956996190747e-02 4.433912415075622615e-01
9.226072129050925941e-02 5.535948148984201622e-02 4.582834331990405796e-01
2.553685154473422578e-02 5.653342560085491270e-02 4.463234643235450272e-01
9.415208438573868799e-02 5.423086650767827699e-02 4.596497922487723931e-01
7.941574808513858497e-02 4.959506945364226121e-02 4.497626320665968902e-01
7.993924335539299986e-02 7.776125424783368253e-03 4.988447853716168057e-01
1.569108915990476832e-02 2.982383096318949947e-02 4.428865779937674607e-01
3.971231213425632095e-02 -6.372674360697249893e-04 4.451910939557197633e-01
1.004162159655200004e-01 4.406412262237714705e-02 4.622131803910570769e-01
7.136549172158541954e-02 -6.413714108410133348e-03 4.895454044512480007e-01
7.660389213067478331e-02 5.657157997172448938e-02 4.498373424507171592e-01
7.383828001236530936e-02 4.614355047880893540e-02 4.492167780724861670e-01
1.392966610764447694e-02 1.098811808212734817e-02 4.415463935499865378e-01
9.930387607733530408e-02 4.790439093891844802e-02 4.630374404458689197e-01
2.485498292440131013e-02 3.035714664051307118e-02 4.441592154042294238e-01
1.076239295434008175e-02 5.152608771569964358e-02 4.452144651248889917e-01
4.736423438150959286e-02 4.682030507888846650e-03 4.481730864905068001e-01
1.094837021584446971e-02 7.642809806399922072e-03 4.407191613179036183e-01
8.495485074184566665e-02 2.175666901941881309e-02 5.061596642616706943e-01
1.859160920704042499e-02 5.625952594171190063e-02 4.467374698595469318e-01
6.217818109101063556e-02 6.812908037487408475e-03 5.224878333019694621e-01
1.805695234893612069e-02 5.475808501284276653e-02 4.462438444307423868e-01
9.542781069286973561e-02 5.535176326927214452e-02 4.653522702545747625e-01
6.331313564277669947e-02 4.855611299789430041e-02 4.475428685565644438e-01
7.294000299396909137e-02 3.788365973176679568e-03 5.027369259095049170e-01
8.764510737196730406e-02 2.297711231506485360e-02 4.633782689144113065e-01
5.408579785785546518e-02 6.110552774613956656e-02 4.515796154867142698e-01
1.218724283402520744e-02 2.843786089801008526e-02 4.425285319011233454e-01
8.792530564502729074e-02 2.736644345737671014e-02 5.023560533189306287e-01
7.123467423656064390e-02 1.428531229138146029e-02 5.181722445552909839e-01
3.548060356597886045e-02 7.139205942104013755e-03 4.443617576522445600e-01
1.023576795829636010e-01 3.541380415117785507e-02 4.812941506026279237e-01
6.343214872751470890e-02 2.058796529751284743e-02 4.535769313089538790e-01
8.791984595124119339e-02 2.276649151102758811e-02 4.993188410349877482e-01
5.592209279226639795e-02 -1.005599972776676475e-02 5.234810565785745773e-01
7.509917457760993675e-02 1.398012436959645763e-02 5.135453238826509503e-01
-1.078571282744266065e-02 9.385598758891722238e-03 4.404724185901536249e-01
8.485243999693418970e-02 1.123711502519506543e-02 4.916630352406734517e-01
7.902024555452381860e-02 2.101684035283881563e-02 4.601313436905932752e-01
7.924617882637334521e-02 2.524310888673589673e-02 5.159859951445694426e-01
8.801443866250351078e-02 1.707457157586971322e-02 4.912701701121248710e-01
9.387220518274227987e-02 4.091226693942882214e-02 4.901149772278215466e-01
9.787178472313129429e-02 4.468514155899024759e-02 4.586362907165275615e-01
6.609586805022212019e-02 1.037475127611146332e-02 5.210429527518428694e-01
-1.164362637116703528e-02 1.697265211899008641e-02 4.420064795171622651e-01
5.841173442414231143e-02 4.021920609226998372e-02 4.482499266022230144e-01
8.544685010257810354e-02 2.424806150035794042e-02 5.062630665715962541e-01
-2.335125065793675590e-03 2.962095965675030224e-02 4.429806731330815373e-01
8.039118155494884288e-02 4.253016595688816938e-03 4.794414494624155698e-01
2.208056649785978404e-02 -4.513164813269095361e-04 4.401394017514974055e-01
9.470655090475753324e-02 5.356243454816282668e-02 4.748165373491935459e-01
6.583267208069198961e-02 2.332209250870646844e-02 4.539753223797913795e-01
1.047835653023956870e-01 4.104992978792565417e-02 4.672093694100856176e-01
7.928086452360708081e-02 2.914406400007877110e-03 4.838357147428812288e-01
-8.864944915773468812e-03 3.771000953204840800e-02 4.452174312803554579e-01
8.975835251097342982e-02 1.555286996643269123e-02 4.853525323399888736e-01
8.653739749293115624e-02 1.104588994875142435e-02 4.847108244198930493e-01
4.837558648984417037e-02 4.928779662556007080e-02 4.465651365056973465e-01
4.686643549150032451e-02 2.951144817136124553e-03 4.480918220681106012e-01
7.544342907015488819e-02 4.860821941944634683e-03 4.661457926524380513e-01
-4.265183915400355685e-02 -5.538339052122791522e-04 4.411707781515010751e-01
3.507244583660821396e-02 -7.636157706906368916e-04 4.434876774899757512e-01
1.046855843598838293e-01 3.156099070961512765e-02 4.646860296860461093e-01
9.621402621479109574e-02 3.763710136852426585e-02 4.599651981428382053e-01
9.217972383131317615e-02 2.355580388098185707e-02 4.901333494195135865e-01
7.032388057038404042e-03 1.790080066677363080e-02 4.414188234637029806e-01
7.201449861084265047e-02 5.587362654976813642e-02 4.489957455289330102e-01
2.165460138392134859e-02 6.943635018292256683e-03 4.418583933996955704e-01
5.907924552488862807e-02 3.916704413806062351e-02 4.486142987960290984e-01
1.004578453539841931e-01 2.533499092921027984e-02 4.679679616509684892e-01
6.935959022740763313e-02 1.629966878483270903e-02 5.218688789021342922e-01
2.712003261178750138e-02 3.929909059180703573e-02 4.450477037090816990e-01
9.777885779249817499e-02 4.724757587512201651e-02 4.589684190736107450e-01
2.131914183207711880e-02 3.260658140596715826e-02 4.438251080457559783e-01
-1.782496767772820748e-02 8.547802599013765851e-03 4.417716306470553800e-01
2.126205112765925873e-02 8.652493323453462615e-03 4.421384656091706944e-01
-1.418588880011573822e-02 4.073097898315055504e-02 4.472854581328362111e-01
2.056041184244019465e-02 4.893726870456704958e-02 4.445561493883344317e-01
-3.848292911096294622e-02 1.578276108639091197e-03 4.418904091342128471e-01
6.800249387884957364e-02 5.103581877678309286e-02 4.475987276892128275e-01
5.733232910827073397e-02 -8.108241364132915199e-03 4.562585426679813816e-01
7.394827191509932562e-02 6.448487461646113840e-03 5.054693470620105211e-01
1.455582037725022815e-02 5.316902626262999532e-02 4.456536339357559107e-01
9.156523905525107421e-02 3.704078976976128007e-02 4.951515390438588904e-01
9.400683833914287579e-02 5.696666568218505811e-02 4.693065117455902380e-01
1.535071048558976983e-02 3.693704784738622432e-02 4.435220009994826351e-01
7.103903693814217490e-02 -6.081979665363433131e-03 4.919198060112490722e-01
-1.164473709429113268e-02 2.552323256718051075e-02 4.438036002859040985e-01
8.854936099314335285e-02 3.684103432327432565e-02 5.004591967196588831e-01
5.750630397148449174e-02 4.472087458301546997e-02 4.476206440521433572e-01
7.635424379058383670e-02 -4.177745494712689286e-04 4.866826531298511505e-01
4.780090844737124728e-02 2.462890967798518280e-02 4.485802325239691135e-01
7.440734429483523982e-02 1.096440733786625994e-02 5.112251014597338772e-01
6.243869232208829750e-02 1.059214511532440874e-02 4.547812466512768381e-01
-7.956883901836603323e-03 1.320585540615165469e-02 4.407820761528829512e-01
8.328737025881624567e-02 3.094798596502756904e-02 5.103055781623195841e-01
4.265345743229546904e-02 2.309723201685599803e-02 4.472887433900479826e-01
5.037627534231719356e-02 2.130545855040669526e-02 4.493232668586307765e-01
1.292147197230953531e-02 1.129199983485537281e-02 4.414649704834771038e-01
-1.774979544678604443e-02 2.292535097673739988e-02 4.454448214178490240e-01
8.018035793257888288e-02 5.695144559457934914e-03 4.713381451495332608e-01
5.126051039755558786e-02 6.010355324356560225e-02 4.480487738937357634e-01
-1.897138941714503549e-02 5.481311368957594507e-03 4.408765310470287302e-01
5.321229051570591090e-02 -8.215841054848671381e-04 4.514982505905316690e-01
1.195249130150221988e-03 2.909001783479035069e-02 4.426172188195468538e-01
7.967817623030511165e-02 4.924690016400732478e-02 4.498606278559189597e-01
8.300489840989149284e-03 4.523834812121204502e-02 4.438989371938665829e-01
3.011392393876702323e-02 1.187986785822023154e-03 4.421728341895637682e-01
4.897398400442058708e-03 3.941065996035360980e-02 4.433799082421938653e-01
2.846937592554281068e-02 1.393677657210646431e-02 4.437524317615099689e-01
1.058763103897549795e-01 3.927857814338217568e-02 4.642552187683634535e-01
7.706343841547232121e-02 4.459964217216929455e-02 4.501090605268072142e-01
5.045940374916032395e-02 2.332096084919842507e-03 4.496875479371377771e-01
1.097168495753266249e-01 3.071209869587134683e-02 4.734884348352242367e-01
9.671186902878428637e-02 4.163468188422720512e-02 4.571911286166546740e-01
-1.682984307235629168e-02 -7.391027741405018642e-04 4.389725114979736165e-01
7.540916876976311300e-02 4.135287775455956383e-02 4.517536068392383752e-01
9.068054896680494137e-02 4.241697231382596245e-02 4.944384077937098998e-01
7.823654740590965662e-02 2.880031761857857614e-02 5.174033074894134332e-01
-1.002476025152222033e-02 1.673406222828046838e-02 4.416621508987749745e-01
6.653649419803123188e-02 3.291384492945265833e-04 4.597557475988269249e-01
7.401055069509314410e-02 -2.913074715402809781e-03 4.766112802997323206e-01
7.531963828696153218e-02 9.746049384141737201e-03 5.086799599659888038e-01
8.121229344603567157e-02 5.075087847177596999e-03 4.818499331221947068e-01
-4.497171908128308124e-03 1.538108043324612657e-02 4.407988423874593664e-01
8.818368128015306728e-02 2.569148875966258821e-02 5.010673010573523101e-01
6.560644223245733209e-02 8.356818076585899313e-03 4.568072340362626660e-01
9.048968361266972182e-02 3.456138811259421711e-02 4.978730298777844787e-01
5.360356641612387674e-02 2.281974117184473912e-03 4.511656647509459384e-01
2.019604972571153317e-03 -8.798799741181338903e-04 4.382823307763406562e-01
2.736904516677696533e-02 4.190046806351495345e-03 4.422103136550320501e-01
7.031624498039068527e-02 1.693940724596991465e-02 4.570660053712257143e-01
6.793347031025036287e-02 9.936062572401083842e-03 5.186024231427848186e-01
8.233212065774278554e-02 2.508663918719853878e-02 5.112742378227972395e-01
-3.211354978500997187e-02 6.074216740624768449e-03 4.478590300289803094e-01
-1.043434546337694904e-02 1.879181383059612062e-02 4.421858745916402156e-01
9.446575834907669500e-02 5.908333802416215058e-02 4.645704761407641326e-01
-2.786565737888984512e-02 6.941547795996436468e-03 4.439048012508279295e-01
3.309666962735015316e-02 5.861041676855133220e-02 4.464524167003337540e-01
-1.575006979860396270e-02 -1.175372660401847839e-03 4.386602949330752343e-01
3.325891199567700823e-02 1.180819160559106211e-03 4.429266876558461963e-01
9.358010166849570211e-02 3.879274759461202177e-02 4.912215000445462887e-01
6.207513096258987506e-02 1.363938613178726673e-02 4.542717093826595387e-01
9.773419087623839985e-02 5.236113857346263306e-02 4.686562210689933505e-01
-3.345018232180296640e-03 3.020795724249447992e-02 4.432024375650336356e-01
1.042226162725551769e-01 2.700557472048680657e-02 4.755131159858395073e-01
9.740514538576776349e-02 5.232328318403761669e-02 4.725532715860673028e-01
8.511963914411924126e-02 3.217403317724543133e-02 5.073160977492650048e-01
-1.799516774253304488e-02 3.573020792147121871e-02 4.481430747509826951e-01
3.800423267405500516e-02 -3.752674758200656886e-03 4.441863415788070424e-01
7.032315555893389747e-02 2.748787680790470804e-04 5.025326875845796959e-01
8.233713690068618363e-02 2.378882638813780218e-02 4.604906417247607298e-01
2.797458971497944133e-02 5.444595211225699422e-02 4.458902838262607249e-01
7.272758428539601028e-02 -5.002573899694850480e-03 4.780654472830755397e-01
-2.790159196246160683e-02 3.366432514774364559e-03 4.421620850623186327e-01
6.760488522774185660e-02 -7.659843819232882434e-03 5.012173089441473994e-01
9.449759081830974572e-02 2.476752877931596639e-02 4.871747867845734326e-01
1.092026764296909550e-02 5.874075420463121394e-02 4.527899198839072104e-01
-2.892312168443966769e-02 -6.692624036461715040e-04 4.405961586009732867e-01
5.306193822620216410e-02 5.812941942922698890e-02 4.474239634987974834e-01
8.392691751226956376e-02 4.813349210438546549e-02 4.511651245917149278e-01
8.202134445567019205e-02 1.001739947225791481e-02 4.684044401344002462e-01
5.948345483048158439e-02 2.137943429434093542e-03 4.542605217782155202e-01
8.785736130249739706e-02 1.693733293865662751e-02 4.678459092850367762e-01
7.260434516259037241e-02 5.631733040271989787e-02 4.491042369076073681e-01
9.363880430476970163e-02 5.973122927655246522e-02 4.611008062671525520e-01
9.555035689291312140e-02 2.347727284988278262e-02 4.838826276191425801e-01
6.737619931000943252e-02 4.974630962825523500e-02 4.476413768809745508e-01
1.043684991157235176e-01 4.197027971521357509e-02 4.728431411180692989e-01
7.662177407652369376e-02 3.789606097529197443e-03 4.972275554329298464e-01
2.926870539934142007e-02 4.584682037021955980e-02 4.450065176232635422e-01
7.394865844194013771e-02 3.647410119693742653e-02 4.538839284217828784e-01
-1.101232260927212554e-02 2.012346642760720963e-02 4.425812729519937316e-01
9.742364692452352981e-02 5.234558787864799362e-02 4.629401740046979463e-01
8.433662775723471672e-02 2.873416790290117886e-02 5.086499957091960011e-01
3.208707854014649502e-02 5.831307490715960384e-02 4.464231345435038523e-01
5.581725919820805515e-02 -1.220995245234066454e-02 5.241727409017462591e-01
5.405177422943720222e-02 -1.453338730043911980e-02 5.264794876605937146e-01
4.808567571083870867e-02 3.687397710382236266e-02 4.476764500884950482e-01
-1.145810256648261381e-02 4.940491487916218172e-02 4.499251456015252448e-01
1.034666063369902092e-02 6.116406409255627230e-04 4.390676181726447247e-01
2.418068971779375326e-02 3.485959349601595869e-02 4.443748835615257686e-01
1.024925656115689421e-01 4.296309226826398875e-02 4.641807306197833771e-01
2.019348285082752520e-02 2.722316888636346077e-02 4.432013065815589292e-01
1.090580237870857755e-02 6.247851900121492545e-03 4.404218575796924329e-01
6.937285113983995832e-02 7.449786314978721832e-03 5.138169482405783306e-01
8.999245409892495107e-02 2.703741430833194945e-02 4.618053017101136359e-01
6.658671534773283329e-02 3.816191848318137986e-02 4.503361493302577845e-01
7.142060292075945449e-02 4.540154445306111841e-02 4.491269148899507124e-01
6.912080764751434014e-02 3.498984035540185500e-02 5.184484141616226838e-01
7.008984513557613150e-02 9.739020467207657253e-03 4.589641297323664437e-01
5.632054296578156011e-02 4.020703731477983690e-03 4.523098592790439909e-01
7.165165280791419011e-02 4.277613707320257258e-04 4.658862115085875555e-01
4.365462345178211523e-02 3.206746252559528748e-05 4.468842167153017075e-01
6.812852664633664568e-02 -7.743579104541212926e-03 4.998293608929683662e-01
9.450214316827525163e-02 4.622376090371661805e-02 4.560596966558439491e-01
8.603027293655134133e-02 3.902089534361918854e-02 5.016143170718264654e-01
8.319542032284144017e-02 9.257219262758459646e-03 4.926951323452414822e-01
-1.936984031482672647e-02 1.490629184942360817e-02 4.445919318593302694e-01
9.540003560544606243e-02 5.328812804595937230e-02 4.603552346968624587e-01
1.040758812665522615e-01 4.233008322975289478e-02 4.723518819468412455e-01
4.430509853010339283e-02 3.044114338408427864e-02 4.474650712650632411e-01
6.712330089386028820e-02 6.568242043939025339e-03 4.581648481072241874e-01
-8.684144941875589219e-03 4.960827613334010261e-02 4.479488399638113516e-01
7.931724648060772820e-02 1.380645422396949151e-02 5.081071503751238838e-01
7.217556282067048856e-02 -1.598149866584189487e-03 4.956679533050633024e-01
5.718027600607664823e-02 7.759333343121109852e-03 4.525005748768281544e-01
-1.146921962611336700e-02 4.232467225651386639e-02 4.464739290198488919e-01
8.994453992207740445e-02 1.410730813347052005e-02 4.781573585379949587e-01
4.698214380060092982e-02 4.785625516375283800e-02 4.465680026232412003e-01
6.304831942449358462e-02 5.552145828065449540e-02 4.477897056208144932e-01
-1.123546025236078598e-02 9.463935371031007709e-03 4.405435660952304322e-01
4.667884531286342620e-02 1.483053571638821150e-02 4.482789628217594968e-01
-9.994275667637247951e-03 4.419603007329750768e-03 4.395766155132201369e-01
9.280020244689375641e-02 3.477590511719717836e-02 4.937844316843245096e-01
8.560837994005289497e-02 5.719036874071862370e-02 4.764496531083089459e-01
5.499615796504072479e-02 -7.172074826451317608e-03 5.235215029199112857e-01
8.269385604045323412e-02 1.063433575486633087e-02 4.970260389990582839e-01
9.249151602697558427e-02 5.734234413092088867e-02 4.590370515615340152e-01
7.271239708432421234e-02 -2.479487446304893053e-03 4.933537843230524911e-01
2.635600447682315967e-02 1.674706859852742244e-02 4.435054378668852326e-01
1.044980575802602896e-01 3.613176770678386968e-02 4.614476426022264266e-01
1.005014880918666809e-01 3.665429160192988645e-02 4.606647424010382186e-01
8.980796588373901601e-02 2.036132490457043254e-02 4.916030436294349104e-01
7.975580207733928839e-02 3.619834117703995581e-03 4.772894258033708592e-01
4.960589357115956222e-02 -1.261505540517902924e-02 5.298629674287793634e-01
4.195481135270785061e-02 3.486144557341779027e-02 4.468611050304487353e-01
6.226132548745601236e-02 -9.873674344963345902e-04 4.568746029218513915e-01
7.986727448588740175e-02 1.748446505825768105e-02 5.106929779083895227e-01
5.678418808265704720e-02 -5.493421514720403520e-03 5.213126134762909869e-01
7.154009854279767822e-02 9.040268903991179397e-03 5.126805190252224920e-01
7.435739075022138045e-02 -2.682748937816799469e-03 4.773773221851216331e-01
6.173077757013942235e-02 -1.214845971380747180e-02 4.650458791964235394e-01
7.002500773619874108e-02 2.361979449107438900e-02 5.249713992806822604e-01
4.833407721264443985e-02 -5.584023587322335322e-03 4.495728034309568466e-01
-1.345772478804755333e-02 3.181191326399079866e-02 4.451750953027403535e-01
3.422723861713245636e-02 6.181192618066418121e-02 4.486582370334647463e-01
8.308947968515177640e-02 1.967838900847710196e-02 4.624394709496315592e-01
8.527696227084767544e-02 5.724056891855437007e-02 4.759030165640675825e-01
9.849776770541517068e-02 5.036234181352571698e-02 4.636227029151726020e-01
5.538686274268606047e-02 2.057325774872538135e-03 4.521459607548208859e-01
9.022029719027488404e-02 4.800709996244637012e-02 4.532517857077845158e-01
3.312041495702131716e-02 4.375656429141460552e-02 4.454584683945904122e-01
5.558977743315825226e-02 -6.847884781441732766e-03 5.229628083082985546e-01
6.554202094951312729e-02 3.746395675081309884e-02 4.503114071054787337e-01
1.065018017285523089e-01 2.857195184624167217e-02 4.747669914811537550e-01
3.826352834656897295e-02 4.900681945027825226e-02 4.457324515082545791e-01
-3.861714503568582091e-02 3.891640351525653234e-04 4.409876705869665847e-01
-4.197295683678196193e-02 2.551173694699771996e-03 4.456551064999275114e-01
7.998702471361462951e-02 1.531496296995727563e-02 5.089674835345344706e-01
-2.288684561670752474e-02 1.879650871867977191e-05 4.398835785511105989e-01
8.044691241571211293e-02 1.654331656129350361e-02 5.092678478147210086e-01
4.895233060631570821e-02 2.458563908403921944e-02 4.488770315675868483e-01
9.461640114325373108e-02 3.943907469061207899e-02 4.895584129427217324e-01
1.267587625792784140e-02 3.641913568197556461e-02 4.431961252194226430e-01
5.646545798457505011e-02 6.003728154130758693e-02 4.511589885821469248e-01
9.279769675201994528e-02 2.086099342616582961e-02 4.860278025134001645e-01
1.036440300679470072e-01 4.206154354332032608e-02 4.749148424244994948e-01
7.853626154723937491e-02 1.008960863704644328e-02 4.646763723230931120e-01
3.363794114753977660e-02 -1.389238462377634549e-03 4.428137623422911395e-01
2.952393551162592333e-03 4.641583389020104838e-02 4.441431722436222640e-01
5.799075205717216935e-02 5.487518768331817870e-02 4.468222550480101529e-01
5.976247509648370537e-02 3.966591185213250853e-02 4.486103185310726937e-01
7.487317394647537150e-02 3.188709419667898597e-03 4.987835664075115916e-01
6.042081029932385057e-03 1.039382532785275426e-02 4.406513432281797260e-01
8.913662761596147233e-02 5.306439587874580560e-02 4.862942737033718599e-01
6.935953752561285768e-02 -1.294568624028585597e-03 4.646507856781542101e-01
4.759908350790929138e-02 5.991935662097160747e-02 4.473946624323901222e-01
9.497314001525318516e-02 4.496533864992544038e-02 4.875947198137032257e-01
6.927017278188964122e-02 -3.062957366557695921e-03 4.664083595313188169e-01
8.615497585600140340e-02 1.485775989509809103e-02 4.679702712186400992e-01
-7.513280107322732951e-03 1.895909895719197560e-02 4.417300067874344593e-01
-1.748650584218936627e-02 1.479917129652798431e-02 4.437816558094213049e-01
9.267783712804983365e-02 3.892141700405018362e-02 4.588462681144769850e-01
2.675096189042029671e-02 2.040871744812459629e-02 4.439680032109780683e-01
3.559928701314211269e-02 5.192735703976712053e-02 4.455369701001319904e-01
8.717154149328873447e-02 1.859102039082289465e-02 4.967822165922671784e-01
1.101086216658527309e-02 5.130705343581438288e-02 4.450967160494644914e-01
5.710223681853381777e-02 4.213900226390653037e-02 4.479333488455859436e-01
5.529957320897192774e-02 6.029771851563713383e-04 4.524315253393383918e-01
-5.412110301141272867e-03 7.525973852320065258e-03 4.398146573951829952e-01
1.080549199848734009e-03 2.460876707042931183e-02 4.419987404533327058e-01
7.170962603773739508e-02 5.475125578114624358e-02 4.488945948663031205e-01
7.256841787732938587e-02 8.033600838638448732e-03 5.100983298132488741e-01
7.151400956075075477e-02 -2.569725554133021721e-03 4.692199842907002205e-01
8.515131517464891164e-02 1.463578009223909064e-02 4.975118752210810902e-01
4.304728097258640751e-02 6.290135657592708929e-02 4.484981905135178026e-01
-1.569084825204807368e-02 3.771301272496908191e-02 4.475332498585752328e-01
9.225577522259970076e-02 2.483853511105630144e-02 4.909627028419267236e-01
8.124774264073435226e-02 8.922295816735027058e-03 4.687039305655316679e-01
7.974065357477667926e-02 3.222930228170978878e-02 5.136742150790921668e-01
-2.256068805360669782e-02 5.771680962877655599e-03 4.419155924763717436e-01
5.340195955872800715e-02 2.425354734015124775e-02 4.501230647382985506e-01
9.070781444537037719e-02 5.067709319930783357e-02 4.535901386823867343e-01
1.863303120920994232e-02 1.371021797231345742e-02 4.422868164325569618e-01
9.325203101231226144e-02 3.484430971497508300e-02 4.614571123709568790e-01
4.622760148277776926e-02 6.439992767495134052e-02 4.530766400361704305e-01
7.854997375073859145e-02 5.275065879210831532e-03 4.695994039460228975e-01
1.677399046924983247e-02 1.544914481457693861e-02 4.422302062199561234e-01
9.147051897944516452e-02 1.788371982084534587e-02 4.848336329423279523e-01
5.507627152036453227e-02 1.147434880572202609e-02 4.514883005874292810e-01
1.052656753347035873e-01 3.084031028450090126e-02 4.768037449667703598e-01
5.430759738070311399e-02 -7.222175549117625451e-03 5.240689636374070703e-01
9.889807794983507261e-02 4.185333815536623758e-02 4.576083850661825658e-01
6.156769667480523761e-02 7.373434417147948020e-03 5.234450097968443849e-01
7.164644038770512369e-02 -4.195876170110143279e-03 4.923861287207156878e-01
7.258281517419962192e-02 5.992637183206221685e-02 4.520105950767918102e-01
8.577816356908057882e-02 4.099904108395562713e-02 4.557070117502975415e-01
3.905084967869749263e-02 4.976591810466027277e-02 4.458380842157368962e-01
5.685489539544765630e-02 -1.167390133159669670e-02 5.229035958841712350e-01
9.201282166715196720e-02 3.380876349141369308e-02 4.954796157446591520e-01
3.072024857075028592e-02 2.227382023418875145e-02 4.447461177289074308e-01
5.980096404302213259e-02 5.796994086374437222e-02 4.490957979799279909e-01
9.704386377161484944e-02 4.237193301151552516e-02 4.566181098420761808e-01
-5.140845703848860929e-03 2.355857952107080766e-02 4.422734078318469320e-01
6.959866662951232075e-02 5.881758187900365357e-03 5.114263471496995894e-01
1.333206865235760617e-02 3.135743393713698313e-02 4.428838369875558456e-01
4.522134433250493343e-03 2.234402085902990887e-02 4.416346334481407454e-01
7.265562322292432040e-02 -4.973177680160916804e-03 4.774401833863192723e-01
3.936701483775102706e-02 3.990782997826980427e-02 4.463586661185428572e-01
-1.804065112444627923e-03 2.362180939369394606e-02 4.420304567377124627e-01
6.767814375364737678e-02 3.420377966408592180e-02 5.220002960966162453e-01
8.862682850867310835e-02 4.334355645893275821e-02 4.546097087082222044e-01
8.560372429717572410e-03 -3.542129445230158061e-04 4.387314069098620650e-01
-4.142683669583713257e-02 2.325964288348774788e-03 4.420492939392766107e-01
9.296527762770109837e-02 4.038026358576511654e-02 4.578723381934020065e-01
1.834148577383861237e-02 4.014645282825003714e-02 4.440047440230064923e-01
7.372843356508503032e-02 1.235542442090766836e-03 4.678406026279223751e-01
7.641019955002083253e-02 4.840565793941008221e-02 4.492209867721958516e-01
-2.750399235390602742e-02 -1.036754916589817041e-03 4.401484008198038311e-01
6.135806922561418825e-02 6.097491355789403170e-03 4.545576541938338155e-01
1.209320429278832459e-02 2.818021381351583712e-02 4.425058668919173432e-01
5.266852514022411086e-02 5.539896896624658257e-02 4.463640032028758364e-01
-1.539698100214304671e-02 1.452757787333205756e-02 4.429397345845076939e-01
7.882267586521207736e-02 2.046571338294343734e-02 4.602015628673458147e-01
-8.012079053880188581e-03 1.289333159998796823e-02 4.407237068237051525e-01
1.029590677167502022e-01 4.276549898578682618e-02 4.650913542587100102e-01
2.202170077112933916e-04 2.822730061876808222e-02 4.425815468929887309e-01
7.029272835570132827e-02 -9.013460489592992064e-03 4.793503016638364644e-01
8.461503732553307677e-02 1.558487232800231763e-02 4.657578103300898942e-01
1.697257068893111634e-02 3.577056049823174044e-02 4.435906841728497474e-01
8.198158639203678710e-02 3.275416208617771413e-02 5.116225441725857914e-01
7.038447999412437983e-02 1.740955455107537700e-02 5.215738556288178618e-01
5.374857227870036974e-02 -1.710733482657298115e-03 4.519113047799682703e-01
9.452122271576447743e-02 3.099696530623547233e-02 4.911776285801375264e-01
7.911390334213054543e-02 2.412167155489058912e-02 5.160672852987837622e-01
5.349446729252196886e-02 1.490610577028272238e-03 4.512910561625693706e-01
4.642670403834368853e-02 1.434436757733359089e-02 4.481992004554161690e-01
8.876431715885160778e-02 1.928937752275448544e-02 4.669137685432842577e-01
-5.726774359095755315e-03 2.297727394824067640e-02 4.422419081427756971e-01
3.600944311748783405e-02 1.550358424969048785e-02 4.454113484326193695e-01
3.582275271727472510e-02 2.619994037940823542e-02 4.458026830888200398e-01
7.566310087885387559e-02 3.246970194914064120e-04 4.919200181099401825e-01
-8.882767276927463346e-03 4.798913074824102953e-02 4.471338367630736665e-01
-2.866249935385258366e-03 -2.465501450800704208e-03 4.377105917983956096e-01
-7.298484456384537848e-03 2.760343162076799028e-02 4.434095325250337893e-01
8.440306207507541902e-02 1.994614373207679453e-02 5.056172112477236302e-01
2.958716298141885262e-02 4.927470742328099451e-02 4.449311054799397480e-01
3.422269333114527634e-02 5.155791504521480689e-02 4.453805384025730230e-01
1.895371888733214660e-02 4.805555766819726016e-02 4.443549721418420528e-01
7.254040288835812700e-02 3.218394318535199722e-02 4.543401800747985386e-01
-5.277211297867407357e-03 2.941757855841143146e-02 4.434526641543595771e-01
5.893012242134277462e-02 3.670382556484922537e-02 4.492559748358430638e-01
8.845816251031832222e-02 2.188793059356447523e-02 4.646937571209877604e-01
-7.604211329862727020e-03 2.671777220963435576e-02 4.432752128917685219e-01
7.447170550017054302e-02 3.897776451124872199e-02 4.527873792377989370e-01
8.788310644795176152e-02 1.591270709924747992e-02 4.687853998941821643e-01
9.603931977058179081e-02 3.505951175901607375e-02 4.887630440708276014e-01
8.771895415798652840e-02 3.054602891197114728e-02 5.028661428155002389e-01
7.199249418731374674e-03 1.724028922100004010e-02 4.413596252635142436e-01
7.883933224431434461e-02 2.652076613577064763e-03 4.795271584395705000e-01
9.293787440690570723e-02 5.535105488029194720e-02 4.732897897151107092e-01
1.664292620254379310e-02 4.640640527863196946e-02 4.442572576478019952e-01
9.459535134313266924e-02 5.565000109560329367e-02 4.713523477163723552e-01
6.760205118639349420e-02 1.678830277321528147e-02 4.557647228123572480e-01
6.873799964432378284e-02 6.801796257231494496e-03 5.139594519884408408e-01
4.825430654076049569e-02 -2.474880918668923967e-03 4.491918442237795572e-01
9.441453582651954113e-02 4.395543345328695173e-02 4.553145169324461783e-01
6.852567613909829602e-02 2.507641081940228250e-02 4.543530076520195804e-01
5.506959736878475759e-02 -6.904305547446774015e-04 4.524855798544426544e-01
9.420975064502432050e-02 3.660568349805581184e-02 4.908115135643070781e-01
6.791494176623817658e-02 6.168162924761506558e-03 5.144128088886179562e-01
3.922044504835105888e-02 3.463803879542822622e-02 4.464210513816692649e-01
6.694694192895488116e-02 -6.263603731209037295e-03 5.034410930690966790e-01
9.078625099912183971e-02 6.131780276066593066e-02 4.614251338858283980e-01
4.592805077292366756e-02 -8.258873678412031322e-03 5.306519894077921240e-01
