7.752082402264859860e-03 1.442412760921753592e-02 4.415424519207111764e-01
2.614329671394749477e-02 5.881853999674584860e-02 4.480985748825528359e-01
5.123248920084224473e-02 4.820627656829435531e-02 4.480483250598514822e-01
1.029173921093174543e-01 2.747858245302602781e-02 4.716915057054626437e-01
5.298785472005354547e-02 4.705112256081225852e-02 4.482929847152396508e-01
7.305895239614627890e-02 6.126795213566347750e-03 5.052334895728554098e-01
-1.051808445257082850e-02 4.118991603419781128e-02 4.462446118527492733e-01
8.045966123037602558e-02 2.696771419860934105e-02 5.136700201142301303e-01
-1.198082744867351793e-02 2.231321915840871889e-02 4.434082571567539710e-01
1.344400338522877200e-02 5.734653984195719340e-02 4.505742456949393127e-01
7.840736911352451377e-02 3.262736003395979700e-03 4.852878586285349627e-01
5.670123059925986919e-02 2.091844097007230022e-02 4.523019869606282883e-01
2.531333677038714869e-02 2.633787306915216092e-02 4.445496969838494405e-01
8.412337717243152657e-02 5.503887862233167172e-02 4.558305809003303510e-01
-2.219584637043680100e-02 3.533894240268351666e-02 4.508183116900669751e-01
8.647494929871643587e-03 5.345887121152936156e-02 4.469875112510200976e-01
-1.855584174345352791e-02 3.877979301168402171e-02 4.492326337734300346e-01
7.044271528615135558e-02 2.090824329480454186e-02 5.234969831392290995e-01
9.505071198263830012e-02 5.035711690758024744e-02 4.824694880889744408e-01
6.439342837240322193e-02 1.131650014981771743e-02 5.234542105088144659e-01
8.325604699156004262e-02 9.352688453775360664e-03 4.736831633305857991e-01
9.266214692742215375e-02 4.274769732239179498e-02 4.581328952498004980e-01
7.099478147545264239e-02 3.488622348469955226e-02 5.181040427731038456e-01
5.133907644127869152e-02 2.776752569598098588e-02 4.504214729652329385e-01
-2.785202467926319037e-02 1.107883312492248182e-02 4.474834726519716366e-01
8.939651238876336614e-02 1.575579459334467552e-02 4.787087510711657834e-01
8.013351215266811822e-02 5.824488412146851951e-02 4.573867542314489776e-01
7.203843237500964780e-02 -1.064151251661767973e-03 4.954507598944185576e-01
4.928535811792525423e-02 -7.408419103514763890e-03 4.511775042723062401e-01
6.671853076899553203e-02 9.059717404213728578e-03 5.190964585047511681e-01
2.454111422725950217e-02 4.319590920447956978e-02 4.455231642344477105e-01
7.124944000701680102e-02 1.059517871696574222e-02 4.607337485296463253e-01
7.208348392303738639e-02 -2.431620445117926681e-03 4.929533969150108885e-01
7.109197305816611356e-02 -1.332314904766177584e-03 4.691461458989342748e-01
9.114671124254987433e-02 5.734556034581286821e-02 4.722829417567471211e-01
7.349616115190905907e-02 1.842350574393337298e-02 4.597345407502776427e-01
5.171817967246367803e-02 6.208599309104253366e-02 4.546437293479079766e-01
1.841171679182327173e-02 1.792256978004169721e-02 4.431202217175268521e-01
5.532291995077228547e-02 2.569206135537662611e-02 4.517018419445744115e-01
-3.962366822626760265e-02 1.471042030900926011e-03 4.416533426230616066e-01
5.270272652762950094e-02 1.681543524241135151e-02 4.511077326587417113e-01
5.209332228606718823e-02 2.839765668365306153e-02 4.505506675261527483e-01
4.626047939595302749e-02 2.022832300022712679e-02 4.489881512787693985e-01
-2.429126569690364182e-02 -8.524039694282866189e-04 4.398576109984201898e-01
6.472585496324062548e-02 1.911289579063841365e-02 4.553697260577279637e-01
8.902736590613995193e-02 5.488425598550689122e-02 4.794141562932667799e-01
5.946139592350745129e-02 3.224576913822681939e-02 4.516999352948706803e-01
4.749652373303779596e-02 3.722379717708248353e-02 4.486584166128735895e-01
2.346402266871041448e-02 1.054891167139599198e-02 4.431218589607904823e-01
7.918343475079543670e-02 5.144947600455940934e-02 4.519341509350441322e-01
2.608902071841780190e-02 5.328966004149562202e-02 4.465372590459382729e-01
8.588198688143827697e-02 1.202153829426162376e-02 4.741847630665615432e-01
9.715327054027897424e-02 4.975805839108912026e-02 4.770388740584632914e-01
8.328400023695055332e-02 4.438533723451876245e-02 5.013577941661807591e-01
8.413346072840111045e-02 3.711252888609414824e-02 5.053022089459510147e-01
9.268354220240861141e-02 2.085040193937158851e-02 4.828347816246131852e-01
9.375199506361660273e-02 2.257154352699744515e-02 4.835132433905940941e-01
9.294534548863801759e-02 2.914577565542170179e-02 4.911652949060236195e-01
8.690830886374333042e-02 2.424565525255831938e-02 5.009599552060329808e-01
7.036919348485171088e-02 7.347604824100172419e-03 4.614063124430493046e-01
3.206844611673723838e-02 4.031027917718246756e-02 4.464434213264342199e-01
-1.760838714467882066e-02 1.835492574868080595e-02 4.445840231790174624e-01
4.480019374368222201e-02 2.060756910668173209e-02 4.486141338314372229e-01
7.445532811448811461e-02 1.567841664556631626e-02 5.156486162366296089e-01
6.909249776448074531e-02 -6.572699313883573202e-03 4.968015915242304792e-01
6.361799541776046174e-02 3.451037038720075611e-02 4.521369858322509816e-01
8.989147677672836012e-02 6.074831997261088273e-02 4.613025546509318953e-01
-2.401757257132587989e-02 1.617657238904093332e-03 4.404150153937005929e-01
9.273909618121731202e-02 2.065521164156603265e-02 4.811641369045966399e-01
8.201680623145182758e-02 1.073329197074076799e-02 4.964839385034649499e-01
3.766417285801251791e-02 5.453622836852487638e-02 4.468593058699534826e-01
4.955830576698392470e-02 -1.221366229937011910e-02 5.298600102910057119e-01
1.063444160610030331e-01 3.373105824551674015e-02 4.766287635602009520e-01
-1.381793219846676364e-02 4.583942069781993256e-02 4.482431172426430410e-01
-2.648211107278224119e-02 1.036508617655743959e-02 4.460902780500569653e-01
8.806071230838879993e-02 5.772287536703189781e-02 4.590013134811921081e-01
8.349826861449652360e-02 4.104435491670721525e-02 4.573825074673749658e-01
4.004425101592316849e-02 4.305282813131230263e-02 4.472410063308766559e-01
7.830270157930729891e-02 3.546220045535640464e-02 5.123548390039466272e-01
4.073354682334074522e-02 -7.745070813051007979e-04 4.461371135015516631e-01
9.861805412725691000e-02 4.098936544234925428e-02 4.838036151612499225e-01
6.245553056885164156e-02 3.548192198150239979e-02 4.515868795553243942e-01
8.555321758653192110e-02 2.172094776328616778e-02 5.029529945439079608e-01
6.306044635486382499e-02 -4.908340026618173563e-03 4.614419307893087296e-01
9.196908951041314617e-02 3.609228362611033997e-02 4.936583572825677946e-01
8.847681230690210286e-02 2.738043401218625411e-02 4.988991218981815856e-01
7.150933950501414671e-02 6.716125040447341529e-04 4.992960478901778965e-01
6.753024612833262441e-02 3.586820784147688734e-02 5.169695199461993296e-01
5.261974051839993227e-02 6.640628273334568503e-03 4.512467439726923768e-01
9.784069479689122550e-02 4.475923467940456923e-02 4.629701845393181525e-01
6.800340164612662941e-02 1.869887912862485194e-02 5.248139198216952295e-01
7.891619298826177409e-02 3.329761606775761412e-02 5.135871856584994788e-01
7.260581108413853568e-02 2.599879561541785025e-02 4.569121492300746712e-01
9.083677465533609996e-02 5.741538362959936609e-02 4.724214128475004992e-01
5.465264321894153232e-02 2.113774338243828987e-02 4.516411483155351458e-01
7.353128096050583207e-02 -2.033158925249810116e-03 4.767185624846296266e-01
2.768441155508158738e-02 3.011840399703782228e-02 4.452808326500361513e-01
4.711299097627427712e-02 2.622624135805457987e-02 4.493704221399671406e-01
5.769611789205314478e-02 -8.466013720235976425e-03 4.574446552696798673e-01
1.069600606706821583e-01 3.776680061730675747e-02 4.672981613358720421e-01
5.539407605942420904e-02 -9.590373833121154656e-03 4.565406159082265325e-01
7.063226023978720625e-02 -3.972278787375500830e-03 4.944688303162395049e-01
7.793032129486575366e-02 5.741646316304738033e-03 4.967806003719233421e-01
7.199456221459439587e-02 6.209934141968190963e-03 5.073511967011932189e-01
8.392375478991480342e-02 5.289591980739959121e-02 4.903261463641451767e-01
-2.695113528847456127e-02 2.608657797760222802e-04 4.405269526038619876e-01
9.631112357459868656e-02 2.459605462442759904e-02 4.692592270543147204e-01
-3.385437042551724986e-03 4.530989919993047566e-02 4.452045085785597545e-01
3.265514423696567331e-02 3.551137109788114060e-02 4.464964623075692862e-01
1.304426037473402009e-02 -1.337730610650395349e-03 4.389041622413299426e-01
2.466770785122235007e-02 5.071223703745206257e-02 4.459343065012377205e-01
1.036699068559709808e-01 3.033048716971196990e-02 4.679250612162760281e-01
1.077354159506506703e-01 3.254791654450792104e-02 4.693814604897554865e-01
-1.523049075896789999e-02 2.068572036999090369e-02 4.440367654178568602e-01
7.428357868691820576e-02 9.908765794082013620e-03 4.627112544643341985e-01
8.651042304629610880e-02 1.752031582079839958e-02 4.687694048151841431e-01
4.951631721693375288e-02 2.193370733205564447e-03 4.499422158307282427e-01
-1.330582933850922231e-02 2.588915473935076914e-02 4.443285508222428737e-01
8.881185851072620485e-02 4.819820094251222459e-02 4.550898690918350753e-01
9.014390547205333726e-02 6.082180450026629381e-02 4.648548090550009837e-01
8.615657156847514320e-02 4.254790491933810315e-02 4.992765003444312732e-01
8.992365446070366142e-02 2.871557115628199999e-02 4.969748664071493294e-01
-2.060443655691649584e-02 1.440023237282929934e-02 4.450711896804998569e-01
1.382747830859162863e-03 4.565867245231493982e-02 4.446768947249895576e-01
3.870552017201358413e-02 1.982024548446069748e-02 4.470106662564518607e-01
8.296345026249726806e-02 2.454606582599075729e-02 4.622725817595206288e-01
-1.246492826711262381e-02 3.308630435096252681e-02 4.454369255352686463e-01
9.909266144101286367e-02 4.647771600600692637e-02 4.767317368104074804e-01
2.669169316227923763e-02 3.860088735999370885e-02 4.457791417799283340e-01
7.046918605114682599e-02 -5.724610471247925866e-03 4.750875524893592994e-01
9.969093942959336707e-02 2.615431634173171274e-02 4.701537655260915050e-01
-1.289189320403611241e-04 3.025909183198387687e-03 4.393329541978991393e-01
6.539311338314361677e-02 4.788896810686542327e-02 4.492828618775053795e-01
7.627619958138787126e-02 1.617216518641034079e-03 4.892963483830322646e-01
1.046792821550616565e-01 2.835451653440707390e-02 4.730167077442928303e-01
5.683096364665199407e-02 5.936825923161580948e-02 4.525574752836985515e-01
5.942286500418459544e-02 -1.121114122202085221e-02 4.620747314739246936e-01
2.236182572062403798e-02 4.664000032409541807e-02 4.453315816353391465e-01
7.574838635108352425e-02 4.065873770525477854e-03 4.696766028061387654e-01
5.069644721512945457e-02 5.082684596150185280e-02 4.477791554046996469e-01
9.808834460321727566e-02 4.823309085662640106e-02 4.769487736136880929e-01
4.163939692351700805e-02 6.312095484412744151e-02 4.499100595125358204e-01
7.389146834379017870e-02 -5.261852251790951826e-06 4.724894949730040206e-01
7.197230032212412199e-02 2.801077283790651129e-02 5.243803123906144448e-01
6.641222641560980133e-02 3.512126673844263164e-02 5.204394169829091865e-01
9.994025378109694380e-02 2.542843977698310692e-02 4.746210264209010932e-01
-3.590069794432023537e-02 4.285831636501973019e-04 4.413731662716748883e-01
9.911194217010892149e-02 4.295270504408426476e-02 4.828905044732934027e-01
8.315646678819260673e-02 4.827181798466585044e-02 4.971328570662772450e-01
9.433728339123283180e-02 5.333866068495526913e-02 4.627980191414083899e-01
9.624900122373153399e-02 2.684470404176308653e-02 4.849305948094341789e-01
4.511227617983452204e-02 4.031293935916169247e-02 4.480242730807327267e-01
7.404569601283596259e-02 2.392725415439577244e-02 4.580030480656810954e-01
7.816319273377184129e-02 7.423995583673920901e-03 4.999879225700814556e-01
5.121071062446517358e-02 2.761612954581336293e-02 4.504033633058470154e-01
5.389308606149675884e-02 4.082293870265854552e-02 4.489269588221267426e-01
3.135726463544405429e-02 1.286537403002331083e-02 4.446727991420005854e-01
4.080155338362485146e-02 3.355898196312369960e-03 4.461784309172393548e-01
4.880941175174774438e-02 1.245859066393045778e-02 4.497356434448682716e-01
8.757244611767361908e-02 2.661550104451201187e-02 5.008153402728875436e-01
-5.271460475648398654e-03 7.649021188464422659e-04 4.386415600973109785e-01
9.292295093397374972e-02 5.746253881907126271e-02 4.674916317032155044e-01
-1.013307289423498805e-02 2.300129271194233799e-02 4.432220962062980996e-01
2.058988252371004440e-02 3.606885426753081436e-02 4.446877560555929643e-01
9.441728200770432844e-02 2.777929595266933477e-02 4.654627656984706707e-01
1.015111902098990160e-01 4.167224443774078524e-02 4.652017756142330929e-01
5.279763787855205198e-02 5.189639508112799116e-02 4.478324659843102018e-01
6.547496201076782874e-02 6.162037691282181220e-03 5.175208151264718559e-01
4.835452909409576616e-02 6.284534021778670487e-02 4.533529794356498943e-01
-1.040891452359634858e-02 1.301876107887714809e-02 4.411855097131215375e-01
9.956294687852598746e-02 3.845594679306502811e-02 4.619721718734552951e-01
6.991231717789303524e-02 -8.924134786011200804e-03 4.899599922094615145e-01
9.876993488492802342e-02 3.624373918590064608e-02 4.844716925746924696e-01
-2.575330637101473641e-02 1.360647066581366707e-02 4.469770420468340277e-01
4.103090834039700013e-02 -2.594229283674888680e-03 4.462699614197122577e-01
-1.157817432717370490e-02 2.223126613292213116e-02 4.433198592869426746e-01
8.417701356914071564e-02 2.669462000782831315e-02 5.078462249632155201e-01
8.519874269970949265e-02 2.376182985619577220e-02 4.638266643919910504e-01
9.235525910251277115e-02 5.387328000340521617e-02 4.607644074471488604e-01
3.717298943872676675e-02 3.624800155289081144e-04 4.447923063797466492e-01
7.305086754629441792e-02 2.493834928163237569e-02 5.225222989699740417e-01
4.341090531694628829e-02 1.278656232243305726e-02 4.478281648960631967e-01
-6.441347262424846655e-03 3.539782964365435769e-02 4.445219595797504919e-01
-2.266607560967446450e-02 1.049660864284935810e-02 4.441430992290346658e-01
5.713675830924939969e-02 4.341462235440013764e-03 4.534545699209456826e-01
9.128447674673696721e-02 2.584378921614002844e-02 4.652826502398167419e-01
8.762635728616108288e-02 5.781374656476400559e-02 4.740367640138682948e-01
3.006779694162094868e-02 3.369567426015353945e-02 4.459649744152557882e-01
-1.473660430605679313e-02 2.976450050597331462e-02 4.452991879776042050e-01
2.733687520748225713e-02 3.395426263409034862e-02 4.455528538697127172e-01
3.455625488731132317e-02 3.119597486127908062e-02 4.465308631060719846e-01
1.110029376187285539e-02 2.570852071726285881e-02 4.427153487605404170e-01
5.017222103335430838e-02 6.194396712906022340e-02 4.528339072581315516e-01
1.054474723609796494e-01 4.000544712536047848e-02 4.707214976487921199e-01
7.401435849950996348e-02 3.049605071557893315e-02 4.569248565857217947e-01
7.251264881570261556e-02 1.549385720354688571e-02 5.176188471021840876e-01
8.953446359508558661e-02 3.941133174026562047e-02 4.968418178067799951e-01
8.693531193472933682e-02 2.567850708491220893e-02 5.019955572893572970e-01
4.949575500034856385e-02 2.944514145634704455e-02 4.498231225690871860e-01
9.766053912173690288e-02 2.928843115442878592e-02 4.658480607354761327e-01
9.447844638993846411e-02 2.235747637164633983e-02 4.761451238857043466e-01
3.937498428707964654e-02 6.141721972882116520e-02 4.485004877620297759e-01
1.667817707422417778e-02 4.454067080983437760e-02 4.448083875959149558e-01
9.746999420444478479e-02 4.901000139288029522e-02 4.660432428194874466e-01
5.208983306298517468e-02 6.980779582156364238e-03 4.509949803673651281e-01
9.811157283183152833e-02 2.705312781432166885e-02 4.816297165104346245e-01
3.574303995133833178e-02 4.752923800415537886e-02 4.465084174554153074e-01
6.939604849136143949e-02 5.574181873872709192e-02 4.503599474595887941e-01
1.570545717896793241e-03 4.643773664495608883e-02 4.447405251193436992e-01
6.364160145743939789e-02 1.084906513793399557e-02 4.564066477917916309e-01
1.738793936099382320e-02 4.395342099070491393e-02 4.447939953366419896e-01
4.883437968168638510e-02 5.456571022355032746e-02 4.474081139477987246e-01
7.718479469563305218e-02 3.946447576207699065e-02 5.086372326601062976e-01
4.204897137759235071e-02 5.887772084227065050e-02 4.476610403517934933e-01
3.907666779558387898e-02 6.473497051149165737e-02 4.518588886682103345e-01
9.269260083112615400e-02 2.780986654407373651e-02 4.906548721432734128e-01
9.284652480721151263e-03 5.162421843886220302e-02 4.460632627292458463e-01
9.206995780975071875e-03 3.781121130787280099e-02 4.438231213645260076e-01
7.840357812353944411e-02 4.349724080159409617e-03 4.907665456605753151e-01
-7.587428555211685882e-03 4.402523704380572472e-02 4.459284875936821990e-01
8.428135354631366427e-02 2.878448852800190652e-02 5.079504592048260658e-01
9.715661965328031835e-02 4.921686220984927002e-02 4.649474660189731878e-01
8.266951866410213179e-02 5.777252660880177748e-02 4.744874851099560864e-01
-6.828683405835042977e-03 -1.404974917869361919e-03 4.380602783278139678e-01
5.011763037905697660e-02 3.874843361089782418e-02 4.487508029780517549e-01
6.399652949885498848e-03 4.395900713692838663e-02 4.443837820106443237e-01
2.188861835483892765e-02 5.279578467560348820e-02 4.462979799719394847e-01
4.430242011632605503e-03 3.589350666133191842e-02 4.435695015167162025e-01
8.833225200486286011e-02 5.260797361554339635e-02 4.552555516829462912e-01
2.853480700858555819e-02 2.567542342556427062e-02 4.451336443315818125e-01
8.782522726245392541e-02 2.306750326071689561e-02 4.961827125924617166e-01
4.388026050917389828e-03 3.035733048635213746e-02 4.429996557409682234e-01
9.166732390315765477e-02 4.503846337233415736e-02 4.914556873313602470e-01
8.636017022119725495e-02 2.667966607170710325e-02 5.039047256765381011e-01
8.335474270637424632e-02 5.322859460600103121e-02 4.898348696545216097e-01
2.052159231633761665e-04 4.832394028228906985e-02 4.451010928146901802e-01
8.529399538912360058e-04 4.664607647117649525e-02 4.448055552594600282e-01
7.248111995454424583e-02 1.401759321575372398e-02 5.164605625850450243e-01
5.368299812106174657e-02 -8.824576002430211188e-03 5.251749305894818365e-01
-1.594079838193074999e-02 2.578132294548828377e-02 4.450771982871751797e-01
9.273324447950291594e-02 5.244509280214767338e-02 4.597979228631658977e-01
9.822126911160178331e-02 2.561546636149937203e-02 4.693363113966841360e-01
1.024264779825975608e-01 4.294074549457831819e-02 4.736683393504990680e-01
7.668255922737057806e-02 1.407857393823136200e-03 4.868022534565075721e-01
5.183789865413209602e-02 -4.813252047396631393e-03 5.253459475031316828e-01
8.475562030309088946e-02 1.222144154930079711e-02 4.904907704999662554e-01
5.758641450549908253e-02 3.421027042479983515e-02 4.508921646282840756e-01
6.083327820998601920e-02 5.017078788034030901e-02 4.486026354626914681e-01
-1.492148885899919394e-03 2.916058795655795954e-02 4.431449740446338215e-01
7.258340534810531208e-02 -2.652331935784905254e-03 4.747640145934482470e-01
7.243943646719908092e-02 4.168378021376486359e-02 4.524747657931317280e-01
9.687917340259347143e-02 4.484406088811567631e-02 4.611756151746899124e-01
-3.396675273351817959e-02 5.093792749412343578e-03 4.468522656323135056e-01
7.622611123954398105e-02 5.807115900601132058e-02 4.543241431819690090e-01
4.718000050769724507e-02 1.816383450486814405e-02 4.492913472810032838e-01
5.008160597428765182e-02 -6.923654174280912191e-03 5.273209680619757034e-01
9.148053204062862875e-02 6.019643993304318874e-02 4.645303204761613292e-01
8.909737703996348235e-02 5.430760026238772714e-02 4.825168753038017733e-01
9.043752761161912013e-02 1.875997964495538725e-02 4.735383024431613630e-01
-2.308691649746252850e-02 -5.020165106555448536e-04 4.398102916808464546e-01
4.687682771118563407e-02 -7.587062262692767164e-03 5.297065699697123264e-01
8.327023808811288841e-02 3.714072615783552134e-02 5.065125525721587696e-01
8.800854443952681183e-02 4.747183729484416581e-02 4.944362673828811561e-01
5.261041669370424001e-02 -5.106529751079098498e-03 4.528402031795084048e-01
-8.144951999760369210e-03 2.331354088258216599e-03 4.390466252558654081e-01
1.085115002160307041e-02 3.526763756171273634e-04 4.392235395841623813e-01
8.886869180689090097e-02 4.308074113332641120e-02 4.960000250855452486e-01
6.996796586010678790e-03 3.033569952672977507e-02 4.429260610164731937e-01
6.749139863024455899e-02 -5.554225778079482662e-04 5.057698051161076958e-01
8.764301390027756655e-02 2.865366593141043666e-02 4.623363355906717764e-01
7.854128782776156892e-02 1.314064038933038421e-02 4.642406400010028467e-01
1.036471334879873057e-01 2.737585194615979253e-02 4.734415169896561970e-01
7.706023714151764847e-02 5.854702701382859947e-02 4.564567727549782572e-01
7.390895454372906070e-02 2.576908984230468977e-03 4.687828839297580319e-01
9.766281385799151227e-02 5.010906813564787454e-02 4.725411392898347662e-01
8.212954228737659457e-02 4.443534153282835408e-02 4.539773903526528875e-01
7.256428719141948258e-02 5.952207783851518746e-02 4.590543915089096982e-01
3.499545164820314080e-02 -7.357534981227581601e-03 4.427279765052473115e-01
6.289025581728555081e-02 -8.413230431821325933e-03 4.642988342311122896e-01
9.718164499307953286e-02 3.175680558258676262e-02 4.853116568536939290e-01
7.957723978069544679e-02 2.110347258497258932e-02 5.130213463019954734e-01
1.997700674187555953e-02 6.143568474894953516e-03 4.417387276927579598e-01
-3.460349821085971500e-02 3.551733366054566493e-03 4.438788339308048503e-01
5.436402910456858417e-02 4.291826402258421685e-02 4.488409845068003223e-01
-8.241530363970619652e-03 3.600579000383770378e-02 4.450422185415646714e-01
4.660170569206587010e-02 2.184177035540642645e-02 4.491210794306681464e-01
6.123092110131456850e-02 -4.714499941650306808e-03 5.149401084901787939e-01
8.234088489718870141e-02 5.633670398918195349e-02 4.834869167816946978e-01
-2.018318445617694936e-03 3.357107812311365541e-02 4.438432242891945378e-01
1.541001237724903133e-02 6.446258657510678565e-03 4.411653726823639432e-01
3.754136062826938375e-02 5.538607000206594716e-02 4.468609769823729816e-01
-2.271923873350794112e-02 6.818455069564067356e-03 4.424216134747310236e-01
6.054245627510554395e-02 2.279336025540919242e-02 4.535032790467565245e-01
6.758883780225877214e-02 1.597895516387639811e-02 5.234367250468090482e-01
8.107018544455910081e-02 6.451524498310739174e-03 4.827738157378353434e-01
9.350345971826150293e-02 4.050422891721544572e-02 4.902094681162227352e-01
1.052180686539753579e-01 3.065822008771537655e-02 4.696851051153588807e-01
8.176213429869383376e-02 4.660499918048719575e-02 4.527935011448043223e-01
9.499341048749929128e-02 5.364091160855173623e-02 4.666390477497148193e-01
1.081174870439265134e-02 5.556386446253861605e-02 4.477932123011463261e-01
9.316841243536813644e-02 5.557014269212702529e-02 4.736298700222002500e-01
2.059954335827998695e-02 2.425961998004544026e-02 4.437354467992530860e-01
8.654459662527609620e-02 1.955852463633982533e-02 4.967643342078721380e-01
9.446264803562949564e-02 5.429388674445771029e-02 4.730047063788532236e-01
7.768804641152576851e-02 6.172864889223750318e-03 4.699318812583293536e-01
9.975408661434957691e-02 3.305794466593978131e-02 4.635338995057946554e-01
9.837326841081146800e-02 2.936434750751388753e-02 4.661136537620423903e-01
5.123877933735712653e-02 5.307479748943466635e-02 4.476603091280065283e-01
6.737309016956899432e-02 2.517832508765954769e-02 4.553164700435759493e-01
7.637618340389380756e-02 5.931535552119792526e-02 4.594974186115086678e-01
8.132377412910754555e-02 6.852209505569624090e-03 4.768893248513658700e-01
2.761504353793203630e-03 3.704865838083062218e-02 4.437540213819461954e-01
9.775656867413129447e-02 4.314144319609046485e-02 4.612161786468803037e-01
4.554383933493285491e-02 5.518884454698318176e-02 4.472754785022857726e-01
9.914237668353731436e-02 2.883525044035588347e-02 4.808734580524226532e-01
8.545333621237582999e-02 1.440371806231482456e-02 4.707344605240141311e-01
1.074939387117110762e-01 3.878439988473056377e-02 4.730195118753950934e-01
7.617949655054723213e-02 1.786407051574658011e-02 5.154697862494677096e-01
5.623858137295646015e-02 2.078852718181197282e-02 4.521577491015166816e-01
7.612764827571427695e-02 3.452886517825095800e-03 4.710383095674201548e-01
-1.838340705406829242e-02 1.051124726980772091e-03 4.396837004694017503e-01
2.581555581272814912e-02 4.153998795171576913e-02 4.457026580527177484e-01
8.841033433292296018e-02 3.632050460225425687e-02 4.623412618235704374e-01
8.361520273062236774e-02 1.601898440446596766e-02 5.012584114844158556e-01
6.972507732043300988e-02 5.457039092998424573e-02 4.503027894754488281e-01
3.375033648326430935e-02 2.304743872411537525e-02 4.460703046458234233e-01
2.821027191405827209e-02 4.720123633228310439e-02 4.458013718171385253e-01
1.990546137382778052e-03 3.201035979928178177e-02 4.433036493908839026e-01
7.423085362565785827e-02 2.580237885196793104e-02 5.216567037537900298e-01
7.293165451758121254e-02 3.193518089643964525e-02 5.218193283234604518e-01
8.094571207841176619e-02 2.740046987645021470e-02 4.598721734736987421e-01
7.846932400043603317e-02 5.684433002182363859e-02 4.539676708024042995e-01
-1.484446381243899674e-02 -4.134035166231952996e-04 4.388162313585747820e-01
9.694693459781326961e-02 4.690788477269092899e-02 4.623686425930309540e-01
7.383378548479292702e-02 1.825386646384788425e-02 4.599533940844565683e-01
3.758505236549333772e-02 6.547609691296187029e-02 4.528008861062292612e-01
8.097683869863661621e-02 2.728188948337574235e-02 5.128526085672802104e-01
8.032729243577615974e-02 3.746061901015338563e-02 4.589538819801144420e-01
8.568895384187472097e-02 5.471127952888692192e-02 4.855149874031917112e-01
2.499904778647014242e-02 4.486902894050541490e-02 4.455477992329868742e-01
4.345542772234754075e-02 3.513213211007939346e-02 4.480852531215460122e-01
2.725249422649239639e-02 5.082828489515020531e-02 4.460728696979570085e-01
8.364472725328130076e-02 3.649503805227279768e-02 4.610329463611869683e-01
5.485664206402890430e-02 2.746476123015941656e-02 4.514546750263225827e-01
8.598239587157127661e-02 1.617375957371332620e-02 4.693587670513532650e-01
7.238754779820544272e-02 3.362244647453102586e-02 5.199481025822114688e-01
9.097553577504195743e-02 2.613086294581866420e-02 4.649773950351435703e-01
9.550779508146031715e-02 3.077815727779184898e-02 4.635460233896775417e-01
-1.521431213078404225e-02 4.778876412316072388e-03 4.402049635126738525e-01
9.262748707361465050e-02 3.186061986019403380e-02 4.931612385697081713e-01
5.680554738465415365e-02 1.209665571935165766e-02 4.530551054771146946e-01
6.949009252894922106e-02 1.992848661431177379e-03 5.054470226337293148e-01
4.937749931407354846e-03 2.233664477443958116e-02 4.420523759307379841e-01
7.551276198321020539e-02 3.201654978777681432e-02 4.576590193218534330e-01
8.776219088153919268e-02 4.598967988185375527e-02 4.957340007127410964e-01
5.541849420323617659e-02 2.377266803188751894e-04 4.533024088798769946e-01
6.756733905460124423e-02 -8.285982074215403684e-03 4.998740088394350023e-01
-1.095709380482351100e-02 4.963688485364949055e-02 4.497102285173001368e-01
2.510408834049272786e-02 2.988731701566646904e-03 4.418412995627054585e-01
1.086695907638725866e-01 3.464944462708301892e-02 4.737936861562389579e-01
7.597245953363689075e-03 5.735404337386769413e-02 4.515173794865292578e-01
5.675165546568897851e-02 1.204214540710302206e-02 4.530342724123561648e-01
8.542827948049225295e-02 5.761640440778229705e-02 4.763778707665228263e-01
8.477254737879649782e-02 3.765832358059489904e-02 5.041183168224904199e-01
8.686329127950728757e-02 1.721154448955502375e-02 4.916770302104112034e-01
6.882296892765732421e-02 -2.514790437337246966e-03 5.003151549425808309e-01
5.025710382627936873e-02 -5.931309527873721357e-03 4.515023359029622374e-01
8.015775974449901309e-02 5.023995884242933585e-02 4.521710100646245678e-01
1.143895947088892709e-02 4.246978377145760319e-02 4.443460762209692771e-01
5.194694534189951696e-02 -1.301062497701632389e-02 5.278999855337596081e-01
9.344652354455669496e-02 5.473286544479404048e-02 4.625742937524869314e-01
7.734262061828535428e-02 1.949662163301343898e-02 5.149898049130777755e-01
6.479225482401677894e-02 1.312344288147888199e-02 5.243342068813504619e-01
1.040054575543605253e-01 4.142711674231710356e-02 4.713632425311504726e-01
8.416676674815681825e-02 3.538791158268837778e-02 5.070531072924816529e-01
8.881303011456642693e-02 3.193444560525367237e-02 4.999189149892798723e-01
1.919600094064846663e-02 3.019599577940499519e-02 4.439833747570621214e-01
4.274898577393407978e-02 5.684374804017002653e-02 4.474263052054147649e-01
4.975333517658925286e-02 4.475177987802159141e-02 4.482539731943493422e-01
1.901564969229994212e-02 3.408934490108188331e-02 4.443173106271447459e-01
1.091930682234766858e-01 3.349728039469036106e-02 4.697425520032106339e-01
4.871336460979305838e-02 5.137989957299612942e-02 4.475908309845546551e-01
2.940988395098060454e-02 5.083164857338316051e-02 4.461672375085548592e-01
6.948903180531100510e-02 -8.764820709070187538e-03 4.776460091832051003e-01
1.051470103479834051e-01 2.964715033257002766e-02 4.715722347701525319e-01
7.909048305869804951e-02 4.029604525828224537e-02 5.059457987076487750e-01
7.295399378264327828e-02 1.211313356987044065e-02 5.138034800974130567e-01
6.116669710493675971e-03 4.379445009360333207e-02 4.443689624852681375e-01
8.115657283693671065e-02 5.782673852224888555e-02 4.738263436992885547e-01
7.454661511825805276e-02 4.176431012955762745e-02 4.533575186216809438e-01
2.824533774960261492e-02 5.777869831656995414e-02 4.474076719815362480e-01
-1.801338819537262603e-02 3.469322266134648031e-02 4.479262655051861608e-01
9.901827131815045535e-02 4.739292197409767510e-02 4.736597728392496487e-01
8.946298078074729765e-02 1.589774161474405770e-02 4.782960775727407299e-01
1.845751158780171292e-02 3.912039232773438513e-02 4.447236378305609583e-01
1.033271020546340790e-01 4.130733498989520164e-02 4.775014804011700753e-01
9.849381811790353103e-02 4.903905995742508656e-02 4.707979993290998255e-01
1.085383011119294000e-01 3.325293831370341319e-02 4.744878409945137432e-01
1.567301768723763575e-02 5.295173280741811289e-02 4.463732146569937553e-01
5.692334208747754087e-02 4.834548202607936995e-02 4.484833094137766207e-01
6.254528372624608423e-02 2.504172797371909467e-02 4.539991273668201877e-01
3.767801213841719121e-02 -6.079133453962329986e-03 4.442970870838920949e-01
3.439658266080276167e-02 5.248288064252241980e-02 4.465245103580234298e-01
1.015022653910659656e-01 2.879239670827570680e-02 4.786613724978627249e-01
-1.005317693853920342e-02 3.168077967113296090e-02 4.446907323518630162e-01
9.463328724999692243e-02 4.976773845967671916e-02 4.595367411848028660e-01
8.345951373823855268e-02 2.129465831550478999e-02 4.638203480261509082e-01
9.338130322311315179e-02 5.705509892909955277e-02 4.665595807740823830e-01
2.028698321719767800e-04 4.592429304310879923e-02 4.447763736117660849e-01
-4.936865923805686812e-03 3.451209599183866633e-02 4.442444374331542267e-01
6.389458216840479543e-02 -2.432377636099388764e-03 5.110903922945237987e-01
4.513425767588156307e-02 1.746290915206694452e-02 4.485925699220647545e-01
1.016306301258592670e-01 3.331647502954657863e-02 4.803478761647531070e-01
8.723257555280840292e-02 2.214757518332138159e-02 4.974637083217923195e-01
7.240000409794429548e-02 -4.243489513625941720e-03 4.874465604482121628e-01
7.509926511823250550e-02 2.536556221891287516e-02 4.579083273499418016e-01
7.044619192067036462e-02 -7.618227063944028876e-03 4.808380093765275975e-01
3.063870538707492638e-02 3.173318014103583377e-03 4.430047093435810490e-01
6.302026627161371082e-03 -1.539584692338983110e-03 4.384773041166933893e-01
2.120095988427094652e-02 3.299227647143612718e-02 4.445386734529518935e-01
8.272095054773899447e-02 5.432736012688898358e-02 4.534217861991707288e-01
3.614098589846514997e-02 -2.657893763194220209e-03 4.439230846893859050e-01
5.220876600215876989e-02 5.877065426668589415e-02 4.490735241356545449e-01
-1.243338639114561182e-02 2.638817805183184262e-02 4.442832966820162710e-01
7.186035206047425294e-02 5.112405605187544597e-03 5.056979860537541560e-01
9.088247452726347375e-02 1.846655987987494418e-02 4.767173726142646117e-01
4.915266847771514874e-02 2.721206129113186087e-02 4.499353155611974797e-01
7.497396780618741097e-02 1.307855498578064726e-02 4.619846728884590692e-01
5.847581802892880959e-02 -1.287182658790852596e-03 4.554865549230475708e-01
4.276290466314022071e-02 2.548729783583774874e-02 4.482088569582494686e-01
9.092952109158546070e-02 2.823972590530145557e-02 4.636292488444722082e-01
6.215934629179429433e-02 4.009558191236452934e-02 4.504338836913111543e-01
8.432159678936486380e-02 2.742147282756925153e-02 4.613334881919285424e-01
8.575577050614709151e-02 1.265294670015156345e-02 4.732536780597551007e-01
4.694748083495708935e-02 -2.849348965695337743e-03 4.490933692072037742e-01
8.327131595944115006e-02 3.185817508707515511e-02 5.095414411566353552e-01
5.180958471763737888e-02 1.251675175162949433e-02 4.509493652972968447e-01
8.975723394293632154e-03 4.489684162563818692e-02 4.444745314103702438e-01
4.564807545080035167e-02 2.055577598688036745e-02 4.488317891895283185e-01
3.772507326739603373e-02 5.483514585690332094e-02 4.468633954861734314e-01
8.948979011360962132e-02 4.557479644202389046e-02 4.555697353472465405e-01
7.718621675036964336e-02 2.965370828572183245e-03 4.747439700979159127e-01
3.971432057215998346e-02 3.122265233066883958e-02 4.474538685692705520e-01
7.077279381438175698e-02 4.142111986538511009e-02 4.518879324628959360e-01
6.986995539663484744e-02 7.198889985265067432e-03 4.611743465414770426e-01
6.726739263185631257e-02 1.599454005162535483e-02 5.237893318782800289e-01
8.722046851578553472e-02 2.954197738176182406e-02 5.026871440238498412e-01
6.877188007530826708e-02 3.876050900019203070e-03 4.616103274945885238e-01
-9.926418986562900171e-03 2.693924188584278373e-02 4.439408829596450112e-01
7.104707797312372064e-02 1.333375579900226288e-02 4.597947586617098237e-01
3.682560748359208630e-02 1.882910967849939915e-02 4.464730995238149758e-01
-2.868474529346505889e-02 4.740868640182618367e-03 4.429651697003035848e-01
9.586736499291631519e-02 4.364961735669748571e-02 4.596467165958664780e-01
8.312171521859709755e-02 3.664078784740948391e-02 4.607261179170475396e-01
4.989974432465774101e-02 -6.405516780480324454e-03 5.272627567139213101e-01
2.484357844263878484e-02 5.774417710549041571e-02 4.475775486119156210e-01
8.752744973558525265e-02 4.252624910045176010e-02 4.978740228836551762e-01
6.442685748586460259e-02 9.447349485796592908e-03 4.570703521626297561e-01
5.059945460280409341e-02 5.517686046867358723e-02 4.475299040077242441e-01
8.877230346480247114e-02 2.064967669812372425e-02 4.918602644599656126e-01
6.648408254480656088e-02 -3.540589008518913242e-03 5.051717703727252040e-01
-9.374260029050158691e-03 1.759088572941372441e-02 4.419013553430791719e-01
6.416055296984818357e-02 7.835104766683653049e-03 5.211861880146452242e-01
1.623432842618376722e-03 1.150688670281321477e-02 4.407100581547568896e-01
6.443156072431743819e-02 5.034335846445342488e-02 4.488531776710806276e-01
6.522382639892287948e-02 -1.085642282925743107e-04 4.603257669206720082e-01
4.105940905697428450e-02 3.663533174269310161e-02 4.476078312365861511e-01
1.102049510495531071e-01 3.445021345141537072e-02 4.706293955295092757e-01
4.057101458901701818e-02 4.259034946559472901e-02 4.473386049346168569e-01
-8.052526388911717889e-03 3.045755046745959871e-02 4.442530825468070099e-01
6.244060162667697256e-02 9.133442601719663975e-03 4.560436868637309793e-01
-3.288380900788939742e-02 4.506433350075383405e-03 4.439174738796883291e-01
4.222912082021956087e-02 -5.625588765886969239e-03 4.468448467465034879e-01
1.190584214778111528e-02 8.681793981249460307e-03 4.413074821481214882e-01
7.587084806574719009e-02 2.323926455689853503e-03 4.937148182423937159e-01
7.752427255107843806e-02 3.737412308656513221e-02 5.110100393601286761e-01
-2.050377928845376063e-02 3.452185572384749990e-02 4.491540073817117396e-01
8.820911766456392133e-02 1.837843883231547043e-02 4.698039229242170767e-01
-2.514607048353366403e-02 9.768081053874793154e-03 4.447760819663408305e-01
7.875443486091529208e-03 5.702972871125734644e-02 4.505711234860938497e-01
7.779237181981793481e-02 3.166823437219742909e-02 4.586231093443381424e-01
7.975690438066268539e-02 1.023014040203977862e-02 5.013868190283716775e-01
7.271678860420278945e-02 5.315227862884450843e-02 4.507076354722175382e-01
-4.369349122612196240e-02 -4.673100883505316126e-04 4.413756362763755492e-01
7.894281329080010678e-02 2.067881860938840938e-02 4.618831259714923920e-01
1.002501464148740640e-01 4.312023810650079253e-02 4.814450903556515282e-01
6.801150289720717113e-02 1.250793664206664713e-02 4.584623755819509650e-01
4.412477473336820499e-02 2.027743170991368193e-02 4.484355162207336876e-01
1.062112106974408138e-01 3.586632883912245495e-02 4.657911876455143596e-01
5.415437231533858781e-02 -1.367767246841505510e-02 5.261869603976319087e-01
8.685616289930414569e-02 1.927519667425365429e-02 4.951489238198963361e-01
1.025602082933549236e-01 4.115558263673346762e-02 4.660904181238024191e-01
1.620238187340445127e-02 7.715422479587032839e-03 4.415726119371481961e-01
7.510414647768351437e-02 -1.872548931479570480e-04 4.781664071853717335e-01
-3.552718803692532512e-03 4.359946018247190525e-02 4.450004743969369625e-01
1.079449522745693363e-01 3.327406344240020630e-02 4.752415264996330824e-01
1.054120866351109936e-01 3.212752395267304273e-02 4.768132416836368681e-01
4.451808598441583248e-02 -2.803726814628899368e-03 4.477941316143069228e-01
6.571186279850646517e-02 1.423704639366491637e-02 5.241662442295949020e-01
1.902353403048253483e-02 1.716862456678013710e-02 4.431066402215493860e-01
