4.029718333107783212e-02 5.603255263338718234e-02 4.467502761333035921e-01
-6.666113064067204219e-03 4.338518132828054347e-02 4.455558055455414168e-01
3.498614806472395700e-02 5.505991674631670330e-02 4.463118946561884792e-01
6.472650812679485444e-02 1.277175201879668376e-02 4.563175414020784193e-01
7.520504175532005675e-02 1.639952381334613268e-03 4.945852366739442729e-01
7.383496770974183609e-02 -1.054724522409097257e-03 4.732788043270326761e-01
9.086248070252883613e-02 1.705972702894141199e-02 4.774676133275833068e-01
7.639603686193999210e-02 1.197030470276227651e-04 4.857648927931594307e-01
1.002355127040914506e-01 4.553590918594242754e-02 4.774233330439658363e-01
5.159240760830266677e-03 2.490665957609232081e-02 4.421281932107868906e-01
8.083478797365929724e-02 1.505896950089694042e-02 5.067479417303185629e-01
9.556204461518916227e-02 4.269179147543223501e-02 4.578747125894476744e-01
1.093627570234944474e-01 3.511149753193112261e-02 4.733945797761820451e-01
2.782325991806787815e-02 6.923646181568282425e-03 4.431176634467736131e-01
7.355752255176099819e-02 6.289695373747412020e-03 4.637777595888987192e-01
6.710855953317834688e-02 -1.040530162766669948e-03 4.626746668330624646e-01
9.161036321723005360e-02 5.813082033543405525e-02 4.607232783304617274e-01
6.385296420340791368e-02 -4.569935045445398109e-03 5.104430277451232900e-01
8.496394411377740374e-02 3.929069848159034289e-02 5.027696774544391234e-01
1.092938360982970702e-01 3.283944011821057773e-02 4.690329414647247952e-01
-4.591844868743792489e-03 5.087970968164198804e-03 4.396919094416399387e-01
6.855672131571853567e-02 -5.559489793821994824e-04 5.042168026654237911e-01
8.815422086783226974e-02 1.356082012806517426e-02 4.820715439534560276e-01
5.665403407589252038e-02 2.876102038890623186e-02 4.514748232883972756e-01
1.444600027509432109e-02 5.486235541897634821e-02 4.469089613555531360e-01
6.320405043413274138e-02 -6.420941034509537043e-03 4.624027034667749780e-01
1.881026623048710419e-02 3.600340208707648003e-03 4.408403382900947798e-01
7.521188054014274482e-02 7.871736305326766311e-03 4.643293811396894122e-01
8.341541516581463256e-02 2.449713548914591449e-02 5.093691664288723109e-01
1.972831553483758715e-02 5.025973669383525244e-02 4.453288981486112075e-01
7.085002588682182134e-02 2.354485883043328041e-03 4.641301877307542623e-01
-2.740098357337812651e-02 3.643064423701366204e-03 4.421715760912754978e-01
9.332670544403798285e-02 3.055567830526915302e-02 4.623004651230439022e-01
1.026517897482672470e-01 2.604185520053208316e-02 4.731940415137655398e-01
8.427216078798174803e-02 4.126944009671104641e-02 4.566863103697119119e-01
8.050737703103751086e-02 1.074488768145448817e-02 4.676878342382247422e-01
9.422870345614771381e-02 3.674571209352261308e-02 4.907501364157417778e-01
9.035895138623963041e-02 3.983828494549137428e-02 4.959522369793906149e-01
1.704987987087668022e-02 4.118205975976067801e-02 4.443764979981246754e-01
8.269287938092928503e-02 4.805863226561910007e-02 4.973106578604589711e-01
-1.343663912985841244e-02 4.922591180367827043e-04 4.388877566449693735e-01
7.104132909583252276e-02 4.868004178455391517e-02 4.493773722658940262e-01
2.718785725587166691e-02 2.236817978182669558e-02 4.445334932702632580e-01
9.166376849221689882e-03 4.968351560311219661e-02 4.449273864836303383e-01
6.358223088411613100e-02 5.475034678174727464e-03 4.568632920181887047e-01
-5.082258529437598885e-03 2.203586652257631673e-02 4.421870785392209013e-01
1.653059809521199158e-02 2.281043283098850918e-02 4.429769424715784276e-01
9.303421127192128270e-02 2.048811226531236165e-02 4.723429699080768374e-01
7.854392400814240449e-02 7.949300061023881550e-03 4.683264224699668077e-01
3.100371401309976252e-02 1.247530725550182948e-02 4.444009544204373108e-01
1.066837296592488132e-01 3.325010449803555979e-02 4.667870799992982489e-01
7.122465737017881493e-02 -3.863180903832237265e-03 4.932426893321195105e-01
4.606469000719665141e-02 2.693107052420877154e-02 4.487973414855653265e-01
2.267567755190243173e-02 1.867225017264511483e-02 4.436037267312830656e-01
6.709246222914803937e-02 -6.293538018744313824e-03 5.027168374931313410e-01
7.365274949745111155e-02 1.274056816254827244e-02 5.139415924757139154e-01
2.537525824648140249e-02 6.448708107550962972e-03 4.425850160042705261e-01
-1.914570779725156824e-02 1.663676582058023525e-03 4.398750377899493524e-01
4.130330598021504651e-02 -4.629716569241075150e-03 4.462860654822451978e-01
8.472293717864540219e-02 1.825790382768744530e-02 4.654810632022315930e-01
9.333774684998753443e-03 8.563486245773943226e-03 4.409774287132525727e-01
6.270489904004010288e-03 6.996463146939909533e-03 4.404296880424269367e-01
8.669232916158260693e-02 1.144305186378516935e-02 4.764558054386572872e-01
2.727971333698448256e-03 1.587785724105112567e-02 4.411700107454132325e-01
5.205285984607931765e-02 1.675947080779097154e-02 4.506189320270470033e-01
2.920947694376403031e-02 3.974257365378090767e-02 4.458665586418366078e-01
9.695490273322696084e-02 4.499085549397591893e-02 4.855193093911214786e-01
7.623241183941908972e-02 2.136919021899334054e-02 5.177985688576380863e-01
9.655850481542603558e-02 2.365147547037215262e-02 4.694916237362418698e-01
6.942636836655044497e-02 -5.895187679325338687e-03 4.970282310317299390e-01
-6.035310294549156226e-03 3.572565147061918661e-02 4.443980632907256201e-01
9.601347607455877620e-02 2.952803918209990358e-02 4.876038407745085790e-01
7.254423317747492328e-02 4.787617678455062531e-02 4.497644281994254145e-01
6.752524924133465611e-02 -1.516733947148699458e-03 4.637056241813588553e-01
7.665669086993670556e-02 5.668272733177913414e-02 4.512567581768531233e-01
1.547417635576606859e-02 1.883084933849575940e-02 4.426375434721703805e-01
-3.771879764815595087e-02 3.924841139569367442e-03 4.467832258204194051e-01
2.634930756069215826e-02 5.525011808418331394e-02 4.466204524363744377e-01
7.218974236509057008e-02 7.299537114712968330e-03 4.620476106214670420e-01
-3.525680418163673613e-04 2.469605385771656350e-02 4.423072653000839627e-01
9.266153226202743232e-02 4.920605444623755986e-02 4.566948809250901409e-01
1.897022302977349750e-02 1.319488039306382018e-02 4.425554752207851439e-01
-3.610066481907035774e-02 3.838193943360425960e-03 4.455262191086744039e-01
8.617339051413830386e-02 2.713309511742070801e-02 5.049299340002315617e-01
7.745616085692477726e-02 7.340175843804967737e-03 5.020577755543426113e-01
7.059074389546957096e-02 5.216184679007496855e-02 4.496176287254843307e-01
8.461188919099867090e-04 2.764047818561373576e-02 4.426985739115266161e-01
7.971365775666611198e-02 2.741549614933612433e-02 5.152947789364485942e-01
8.610164295621895725e-02 3.494923030012940524e-02 5.049990162160503671e-01
7.179664286459928879e-02 1.343409100919462466e-02 4.597270979424575299e-01
1.418664108729533746e-02 3.039720352037417195e-02 4.432062695680528130e-01
5.345281727102685690e-03 1.201507800390520797e-02 4.409601421792866960e-01
6.433316749328328588e-02 -8.965258475026462864e-03 4.663417711100584229e-01
7.484620639085377836e-02 -1.312097906514057312e-03 4.880534200903738351e-01
1.899657217136851983e-02 2.626013222014154588e-02 4.434062249938559575e-01
8.890262136215405786e-02 4.252215814276532474e-02 4.966018138633434553e-01
-1.814127280552288793e-02 3.731816475950860100e-03 4.402239866871668350e-01
5.823653362670138528e-02 -8.775767522440684754e-03 4.579920438018266760e-01
5.172332433436706289e-02 -7.686661747643994472e-03 4.527339813601368723e-01
5.643586054479981379e-02 -6.458200255224423939e-03 5.219920843010076306e-01
9.305481375519800147e-02 2.251960664251346708e-02 4.860371596774214487e-01
4.231127759865370430e-02 6.369190147663991719e-02 4.503645099422268760e-01
8.824747310385135102e-02 1.358184737634204366e-02 4.815070845376220321e-01
1.476422815006938651e-02 4.812694215591337837e-02 4.448513937661304207e-01
7.595587492896037352e-02 3.868583571149498447e-03 4.976144606364482637e-01
4.301764088160993371e-02 4.654366783308833133e-02 4.469903689113653433e-01
6.635907819024333687e-02 1.321428111359872724e-02 5.229203952150328627e-01
-1.473502010797159319e-02 3.570374984517753203e-02 4.466192794163073021e-01
3.349889026758966215e-02 -6.023586761134859394e-04 4.431651715755792753e-01
7.527791077306062416e-03 -1.228526732524484397e-03 4.385784384986891049e-01
2.381300298539482801e-02 1.918983765064683975e-02 4.438111691832215544e-01
4.567538109467049467e-02 -7.592787320665740636e-03 5.305154101350557649e-01
7.459205778945066090e-02 3.965321150438521486e-02 4.538662257853547932e-01
3.092688172390225046e-02 3.479654114390522829e-02 4.458930903193908390e-01
6.728579270172989346e-02 5.092836024061438149e-02 4.485562110794776292e-01
8.513980300481885366e-02 4.552034258665167005e-02 4.989308876057007014e-01
7.327733092670876691e-02 5.864181987747577735e-02 4.512931001210539472e-01
9.254711849862540252e-02 3.632522687604584910e-02 4.617157253985711973e-01
7.293907261115303853e-02 -4.317371849282429508e-03 4.827295939981211537e-01
-2.021013096839882964e-02 2.510795615650555403e-03 4.401719718151477778e-01
7.422864519856865739e-02 3.475307502090271145e-02 5.169808865571471346e-01
8.319729889523785893e-02 3.731336660367220309e-02 5.067610022433745032e-01
6.516386853077328623e-02 3.586058804038769199e-03 5.153752957344578389e-01
7.194772066795042387e-02 1.509761912129635106e-02 5.181206032830512065e-01
3.869182848818799453e-02 5.233353916371456804e-02 4.465333329117860961e-01
8.270894775637437080e-02 9.790984084866125384e-03 4.937642356788800035e-01
9.499490120809876703e-02 3.655957654523700473e-02 4.897639316509337370e-01
-1.934310423819661723e-03 3.494030836549158470e-02 4.438238213005369359e-01
9.992719494043243722e-02 2.587572942748575869e-02 4.791464433482617302e-01
8.640305050511651319e-02 1.927027203326846239e-02 4.985635476946044253e-01
6.701509245316496222e-02 -4.341634997522035924e-03 4.657840490044921067e-01
8.625769913521712240e-02 2.036577174524999839e-02 4.654924613618365847e-01
7.668746349884998648e-02 3.987164068863083277e-02 4.546559126924853422e-01
5.552335824288592153e-02 7.772917118937695477e-03 4.523055610878168320e-01
4.787746055345937918e-02 5.621030603398290484e-03 4.488652691357242208e-01
1.063852939063017061e-01 3.432584821573626821e-02 4.771665493006214676e-01
2.252370986345571258e-02 2.351048358771017435e-02 4.437915437587767187e-01
-7.687348432562053982e-03 1.994146189259035293e-02 4.420763104521774345e-01
6.088962897090858389e-02 5.893782703076980156e-02 4.527785649691090653e-01
9.938229644369317439e-02 2.651094458329530598e-02 4.681721513291102754e-01
6.094241500926411009e-02 -3.910027427351409415e-03 5.159108067266731101e-01
2.630658162968433147e-03 1.424909507604847983e-02 4.409838211753854265e-01
1.598206584624069573e-02 3.804714243146650656e-03 4.404297184008769128e-01
-2.043585918281439970e-02 -3.468959344740413925e-04 4.395685680868797185e-01
9.957277268298501960e-02 3.287178668786468194e-02 4.627841388757483188e-01
3.841220362278559286e-02 1.814140468670056433e-02 4.466286604030914043e-01
7.534842127948840340e-02 5.337059536247298203e-03 5.014934833393667191e-01
2.409016604429991756e-02 4.447395158557625877e-02 4.451602157490118228e-01
8.617391050845857325e-02 3.986346403045779030e-02 5.010793044307504385e-01
5.244972113776047440e-02 6.099596572064980293e-02 4.514976404043189451e-01
9.558167323910243818e-02 2.246406423027412849e-02 4.748693849070916850e-01
-4.023019256421053735e-02 1.274151859518344795e-03 4.414280865350891370e-01
7.297638882974843977e-02 1.229727784537251907e-02 4.606669280203618544e-01
1.059694830381196183e-02 2.993310270440442331e-02 4.428686436351573219e-01
2.694968004121991653e-02 4.675975430570984692e-02 4.454007330156407596e-01
9.925673098159924768e-02 2.882801522039562039e-02 4.661748550306613059e-01
1.003588365440194058e-01 4.536322011439260227e-02 4.774661248359045596e-01
3.181021941694403554e-02 3.380627424618008747e-02 4.459768945306089583e-01
9.618072679025257976e-02 5.311235335997205320e-02 4.711530528305418741e-01
-1.182139152306026231e-02 3.018074479159635684e-02 4.447486682810514180e-01
5.857690308485586500e-02 -7.690511922052559873e-03 4.574176533195461469e-01
3.336965541241997124e-02 5.407601363892036023e-02 4.462452804813116791e-01
3.979103917045245797e-02 -2.377649371329743772e-03 4.455794706377511627e-01
6.662869625541231744e-02 1.592353028215623065e-02 5.245873019258393555e-01
1.005322473790562776e-01 2.584264384127510014e-02 4.776765061274543256e-01
2.559695105392715414e-02 4.610009342648246911e-02 4.453072642351421084e-01
3.496744677835971621e-02 7.244596150316189899e-03 4.445803076972630330e-01
-1.010280557523763993e-02 4.570043337581904119e-02 4.467010605038615467e-01
9.122496494830290015e-02 5.322633723070090833e-02 4.573438071568418639e-01
9.116281408019909216e-02 3.636708501083549261e-02 4.618340797032738920e-01
8.179717082824314311e-02 1.131499374920466247e-02 4.684875957885309972e-01
7.065186944713328088e-02 2.745275441457491541e-02 4.555090192350209621e-01
5.228180467988390034e-02 6.243754873511936365e-02 4.548709819015844813e-01
1.010715023031568127e-01 4.449858160163440435e-02 4.694047453997534647e-01
-1.249533258827280335e-02 4.035667830873890249e-02 4.466005168745768583e-01
7.131983059826359217e-02 -6.714287454277519454e-03 4.808873451767565754e-01
7.280977156285278751e-02 3.986121955925363974e-02 4.529683983491863408e-01
2.705313054857987759e-02 3.460881753048423298e-02 4.452889284810345183e-01
5.446910592637988630e-02 -3.252724619413206297e-04 4.526093495252265786e-01
8.393067889019333039e-02 2.204588499264128337e-02 4.633025497263281722e-01
5.157362877235347615e-02 -8.986560987038355337e-04 4.510926356813723115e-01
8.405154062250262681e-02 3.344062766405982851e-02 4.608972254741974250e-01
8.334212599793682300e-03 3.423680527771827409e-02 4.431999476703016305e-01
5.287912370125842643e-02 6.133078602693543130e-02 4.527822316050562623e-01
9.871700087409253366e-02 2.997581346497221397e-02 4.827060996500749934e-01
-2.387545616964160348e-03 1.375493083543387687e-02 4.406193347348456579e-01
8.677841320410148440e-02 3.718882294267591287e-02 5.024149981415070298e-01
7.942831502511442376e-02 5.234127404346991530e-03 4.922449432660588875e-01
8.479497550647990822e-02 4.394125737927288139e-02 4.545442671417453395e-01
8.671588104745353576e-02 4.275349774116758705e-02 4.561714780665544478e-01
1.467037812853665482e-02 4.746351264733051495e-02 4.448003796273307109e-01
7.409625626610999438e-02 -1.415666034547280287e-03 4.906321459437545385e-01
9.422676225759249458e-03 5.699681833297500638e-02 4.498386676543242313e-01
-2.012964884008898794e-02 2.615991732899430183e-03 4.401866522446358232e-01
1.349419469204973972e-02 1.788260558097416741e-02 4.423398101110009861e-01
3.780216692972900028e-02 5.506114959018158783e-02 4.465106081680701999e-01
8.199399054533569597e-02 5.778840678215609733e-02 4.569076353122299983e-01
5.603213837298313960e-02 -4.544482834577149438e-03 4.546127322526093972e-01
-3.527980246178983020e-03 2.453014213883766143e-02 4.424708034772741327e-01
-1.299406883852498307e-02 6.615004748944840890e-03 4.403425447450104446e-01
-1.352925456390349605e-02 1.311854088871721759e-02 4.418078349766071389e-01
4.152730273697794600e-02 2.201733300636371515e-02 4.475600757858204659e-01
4.350834593555829959e-03 1.338266640298981999e-02 4.409942999066130409e-01
1.001642850963010284e-01 3.814514310398043478e-02 4.616220844684182922e-01
9.265998304180249334e-02 2.337580535375646112e-02 4.879417660100804355e-01
6.253599497987887001e-02 -3.376451210761088634e-03 5.134515855556868180e-01
9.285786398743137160e-02 2.048277600827188433e-02 4.836958577714654539e-01
5.321492457011509081e-02 5.407633080848852497e-02 4.473538367041917652e-01
4.269647181529127866e-02 3.203508858286659156e-02 4.477107088903198862e-01
-1.613110396083164422e-02 3.674309560555193838e-02 4.475523708944373902e-01
6.832167190758055286e-02 3.966004196800882592e-02 4.513389890307634156e-01
7.617477707166690759e-02 6.544904132090856308e-03 5.024084292106373306e-01
5.260751245547728994e-02 -3.319417147014385328e-04 4.515892556319436313e-01
9.263995392384981320e-02 2.757750632117259015e-02 4.915264305080837559e-01
1.029622845874685194e-01 3.541854422295713511e-02 4.805875326727325758e-01
2.129946477973256730e-02 2.716613747252623595e-03 4.410286714514493611e-01
8.950183736371214449e-02 2.306689695660828210e-02 4.660373297214121524e-01
8.296603329680417305e-02 3.117142991746487540e-02 5.105669800264719393e-01
1.012969498154578513e-01 3.340751860134103662e-02 4.814253927920159604e-01
7.220964747218301671e-02 -5.119949746930978381e-03 4.797308684460691586e-01
-9.848191118265275240e-03 3.755584970311577619e-02 4.455888932791015056e-01
6.409779173595335500e-02 3.908367392528088596e-02 4.506280919147990782e-01
7.421978140828905390e-02 3.159250590254299162e-02 4.565757257943607317e-01
5.825282807196616869e-02 -6.388425828491696781e-04 4.548712820360458764e-01
5.562692328076129095e-02 3.597207368093276875e-02 4.497087115947234204e-01
7.715134746350733874e-02 4.627560798243041118e-02 4.509461265360889537e-01
3.583689860354086210e-02 4.185965335088694117e-02 4.464782622113696586e-01
9.335633551020326715e-02 2.739842591919212922e-02 4.901020795818185616e-01
8.697933105183355829e-02 2.135068933675243405e-02 4.655022449256734363e-01
-1.670377550083850318e-02 2.649778279609743895e-02 4.454232839333297500e-01
7.710384337187145554e-02 2.905013192843818731e-03 4.926350957775085804e-01
-3.138390768724822963e-03 3.343814222734935171e-02 4.438392026829751091e-01
7.998296938103345577e-02 2.290324048243300853e-02 5.142010882471595989e-01
9.535593234061309764e-02 2.175621796524816395e-02 4.722176091911724494e-01
-3.355111990460788937e-03 4.182778081139834625e-02 4.446301056327129353e-01
7.681214195182721471e-02 3.089406493584298877e-02 5.190437343156352190e-01
6.945366315997882935e-03 4.954620909000565648e-02 4.449451918991403354e-01
8.373216007145808937e-02 1.200855177614149928e-02 4.702506757990828068e-01
7.319712185466181742e-02 3.583970828891642341e-02 5.149163502986132679e-01
5.291179834744472177e-02 6.043035470241239077e-02 4.504521190417484777e-01
9.751221140059959658e-02 4.528548060834589745e-02 4.847423751333733155e-01
8.741016018851326119e-02 2.359200830987078987e-02 5.000483387775437327e-01
6.455367827254705759e-02 3.140538108642008594e-03 5.158678863049916963e-01
7.884243507656696348e-02 9.356908375423503635e-03 4.672973823115393333e-01
6.054746702938472447e-02 -1.153096279609744021e-02 4.635444114632171764e-01
9.128835115638513076e-02 3.821123117618837467e-02 4.948447915102502370e-01
4.650533178539575929e-02 5.751705820103307498e-02 4.471879699166128597e-01
9.152386271261281347e-02 4.006588766596916318e-02 4.595021809208968966e-01
9.671898156749789144e-02 2.622738680564019181e-02 4.669331912337086887e-01
-1.125912806787058434e-02 1.624691325970755232e-02 4.418875365778784370e-01
2.919469551659323314e-02 4.988920133290789677e-02 4.456448868816020314e-01
6.659895289876847924e-02 1.093988914178350980e-02 5.209176146918963468e-01
3.734630019625696795e-02 -6.098610189698317353e-04 4.446474330194469804e-01
7.734200296416959830e-02 3.730159635257112444e-02 4.568572686054687138e-01
7.941242906751301567e-02 4.074024907178475444e-03 4.827979583018241483e-01
7.243032527988947644e-02 -2.151762157272604434e-03 4.936857816751321626e-01
-2.896861456997204542e-04 3.501108691035868456e-03 4.393996676996932971e-01
3.715674934211065511e-02 5.968344193678155191e-02 4.472415617627722439e-01
8.068151145288980641e-02 1.529857995784229471e-02 5.072680259799144942e-01
4.852914133608654534e-02 -1.282559099615601141e-02 5.309993939176055333e-01
7.121422678839171849e-02 1.717691500782082131e-02 5.205206988497470544e-01
6.846436642288140917e-02 4.809004873503234384e-02 4.491518260169390375e-01
2.920325416171265509e-02 2.142792414131465192e-02 4.448600475212358130e-01
3.279544475358955880e-04 2.790013619537920833e-02 4.427649583689291513e-01
9.576502558891158978e-02 2.357691716989917391e-02 4.691122915880253652e-01
3.375028706495294961e-02 1.533073445067851094e-03 4.434335081998857508e-01
4.893481486874619313e-02 4.052243258235418283e-02 4.480734259402840980e-01
5.364265446591458264e-02 -8.956183321662678637e-03 4.546931679026269824e-01
9.858609524569353355e-02 2.714922687083454883e-02 4.818647883639676222e-01
5.589393489023086747e-02 4.783231371192706027e-02 4.480466442331801358e-01
9.294452104802311543e-02 4.577286379539183964e-02 4.898104083835467804e-01
-1.968624490098382432e-03 7.945216533989930136e-03 4.400510109331480235e-01
5.133400407780152469e-02 -1.381595766201712538e-02 5.286827586929254696e-01
-2.930994820516185165e-02 9.018378096046209685e-03 4.477552908729789394e-01
7.192022109106475936e-02 5.068641906327157887e-02 4.497140337840074276e-01
6.268721357804250827e-02 5.298514109310389908e-02 4.480687985940158269e-01
6.824794564534814034e-02 2.030714920933105253e-02 5.255160341790126033e-01
7.658676270989535351e-02 8.299329614395393323e-04 4.871990372715047091e-01
2.605238830615469459e-02 3.880886649211628958e-02 4.454102393843265006e-01
4.610387624514827171e-02 2.208588181462310673e-02 4.487211631540745094e-01
-7.919820483349592280e-03 7.767899764012596228e-03 4.399530803615995800e-01
-2.346957112881638621e-02 2.838972126304903972e-03 4.408349067959732581e-01
7.073255439651100762e-02 -1.707425780619501159e-03 4.978780855878064959e-01
4.288197216177281473e-02 1.740903546647371014e-02 4.477097359391113418e-01
9.159492585505192574e-02 5.001133468882871386e-02 4.560294282280629163e-01
9.969400287570612251e-02 4.545537409774122461e-02 4.651237137892903495e-01
9.148791134898566491e-02 1.819474792442041244e-02 4.769201695451176781e-01
9.881104015074207436e-02 2.630461325767109379e-02 4.680561395916522094e-01
3.854083984086087433e-02 4.866535091472977415e-02 4.464785713946871626e-01
-8.657573245970620612e-03 2.913398913696275960e-02 4.440830504078395746e-01
1.081848182016478810e-02 4.815793937268360997e-02 4.446989519478544706e-01
8.264278662430545042e-02 2.965433938049250734e-02 5.110034375054682831e-01
6.669610152912455736e-02 1.777771376951158000e-02 4.559851203333193381e-01
1.026019576684037843e-01 2.728302113161941780e-02 4.771542948415458674e-01
4.762925761301587541e-02 -5.813788203881646230e-03 5.284750795194057549e-01
7.266486943817107580e-02 4.505060880970909037e-03 4.643968185923712522e-01
7.324638052627653606e-02 4.354757605592481443e-03 5.026121148143691819e-01
9.219864411538822302e-02 2.118749475856842451e-02 4.695212706505801359e-01
6.218971843351157186e-02 -2.790095817032650118e-03 4.585438803138546238e-01
8.182327416363545380e-02 5.671063408801346045e-02 4.561463935049306917e-01
6.699788575873558139e-02 7.814145629683492619e-03 5.176340419040963425e-01
6.839939138542935892e-02 1.015671699824210149e-02 4.587308022618006853e-01
8.801576373343786286e-02 1.309344905345015755e-02 4.762752233414949132e-01
6.212178699318651048e-02 6.255749966443223528e-04 5.169698223614694887e-01
-1.787785847987017262e-03 1.085341838608221837e-02 4.403673538060354220e-01
-7.612187816135168421e-03 3.946181217897201665e-02 4.453131773717992070e-01
8.661119847190514032e-02 5.718766728934508020e-02 4.575398985365328186e-01
9.744630038712492892e-02 5.164027484031311066e-02 4.704744227276008162e-01
7.624772155149434072e-02 4.172236332831150835e-02 4.534010562350037077e-01
4.459840470265124396e-02 2.009022645684276770e-02 4.483021822902696352e-01
6.845353204448545448e-02 -4.981982431935991565e-03 5.002414195671746056e-01
5.159400955870759031e-02 4.449939727959686953e-02 4.480586639327772125e-01
3.440674150619699168e-02 -6.919976341881881737e-03 4.424385350285015006e-01
7.866480081985598172e-02 3.316936787291373256e-02 5.140653794833709433e-01
7.573872816578343381e-02 9.161208735084773111e-03 4.637322566837436821e-01
7.680078787450535238e-02 1.938748773507895096e-02 4.606419714937399212e-01
-8.698919884951625270e-03 2.357443848874683084e-02 4.430079186332581687e-01
8.395264839857172201e-02 3.719058073358946781e-02 4.596489079447821924e-01
-1.452155052292124215e-02 4.670562853948468512e-02 4.486599346347944217e-01
7.657144044858345266e-02 2.451229553511219406e-02 5.188958168070981758e-01
5.435385705806368428e-02 -6.022974218239511915e-03 4.540051175881139045e-01
7.974608225157892027e-02 1.452205076565340341e-02 4.635237219444582335e-01
6.926727182842076780e-02 7.345854089004811086e-03 5.135611765016132590e-01
7.917169401199281031e-02 1.816839329234282499e-02 5.118906241172616056e-01
8.614388221311723715e-02 2.073781357929738514e-02 4.651135991243148804e-01
3.847702294502937381e-02 3.041311164602186409e-02 4.469752140427766252e-01
3.847734542111160699e-02 -1.872824817153802886e-03 4.449213559841360133e-01
1.864365720297427031e-02 4.196366737100511168e-02 4.446151813451737489e-01
6.167854203139593733e-02 -1.302066692973476679e-02 4.665894688153559011e-01
2.314340799789647157e-02 1.644668472220038591e-02 4.434080434493023470e-01
2.563703098240354555e-02 5.919459468525631318e-02 4.482601491393323201e-01
7.292459892608758876e-02 4.231254358251373970e-02 4.516108327129520483e-01
9.051945148888799336e-03 5.680414356334196474e-02 4.492561322114922984e-01
7.869983711274755600e-02 5.773225060753465337e-02 4.552472309731320776e-01
4.796707274470122379e-02 1.837940155769805795e-02 4.492888785891364645e-01
9.255142148934664137e-02 2.840062670233299905e-02 4.922851840078608099e-01
-3.318989410709261012e-02 2.445182927295485795e-03 4.430388011430355655e-01
6.631717169030790227e-02 7.066489531261006991e-03 5.177166593583465426e-01
8.314383401229651083e-02 5.564637317644142989e-02 4.551832325847023908e-01
6.395625557524099725e-02 1.055453505584771565e-02 4.562636268168819842e-01
-2.692194502323999247e-02 1.365920166883459810e-02 4.479722577982340748e-01
6.373769349750682545e-02 9.018810114671501829e-03 5.226461587405637488e-01
7.575965262200699823e-02 4.271074368162781215e-03 4.987255069154343801e-01
6.121602220306972264e-02 6.084092803848663300e-02 4.555607386080733345e-01
8.446333904289084205e-02 5.582145479108237968e-02 4.829357666753620881e-01
8.780703727514962975e-02 1.357039861879939108e-02 4.737126469164651965e-01
1.992324178568180906e-02 2.817734980949251899e-02 4.436558377256716867e-01
5.114578054113640831e-02 -1.176285758059124158e-02 5.282495372096228659e-01
6.468478093365180592e-02 4.877025483832217456e-02 4.485970376646103985e-01
6.612892209929237264e-02 3.502909302325499935e-02 5.211066091079860074e-01
6.947460061782044505e-02 -4.967738477059004468e-03 4.975199501673630564e-01
6.150154692917704502e-02 -2.866561892619269407e-03 4.576626229990560790e-01
7.959371609888614418e-02 2.915310653897707285e-02 5.154890532087811339e-01
3.925119387937005266e-02 6.449888053508236185e-02 4.504292711048110132e-01
5.381141526749159965e-02 5.399631598170043928e-02 4.474042431803686992e-01
8.354789573546171633e-02 3.987578243960961805e-02 4.577246165653552912e-01
7.163633915844735967e-02 2.100572385902139266e-02 4.574921153236565230e-01
5.972433720670111690e-02 5.961844702951678288e-02 4.537754221936324828e-01
5.313780564911860238e-02 1.137790231022972783e-02 4.512817536507602867e-01
8.123965193787432981e-02 5.877372286834225967e-02 4.595424467161114968e-01
4.555352832664335411e-02 6.244755518285611401e-02 4.494987634934373144e-01
5.789341912182664057e-02 4.591494516381146307e-02 4.483924819370352921e-01
8.542767258363180571e-02 1.028044652020103540e-02 4.788489984544458955e-01
3.710813328985192866e-02 3.260229334285399266e-02 4.466752762640456842e-01
2.203811563229840509e-02 4.077798952065110616e-02 4.449941207288287126e-01
9.225129011152527481e-02 3.123867867305950285e-02 4.941711277920018408e-01
9.299412348982472043e-02 3.332279538685829767e-02 4.625178432148798202e-01
6.758932191079908280e-02 3.543516139724699893e-02 5.180129687022898555e-01
8.645381261658845184e-02 1.147806803138283829e-02 4.813631974886425913e-01
3.316733393986833617e-02 4.086887149044123035e-02 4.462354265145176968e-01
-1.349371547740088259e-02 3.706515304378687342e-02 4.463581498216496746e-01
-8.927456945827248400e-03 2.146537690896984860e-02 4.426311586901828243e-01
6.882516616346089078e-02 4.103601781622697592e-02 4.510505840566848001e-01
8.877796256395036056e-02 5.016098643152473030e-02 4.544758819923958026e-01
8.267195318040608532e-02 8.627868203280904605e-03 4.727393400152897218e-01
4.067267448833083304e-02 3.726249842282838148e-02 4.472531456443913922e-01
1.012353606548431484e-01 4.442433571563467187e-02 4.702404844029348108e-01
1.112638211520930037e-01 3.498237106288724224e-02 4.682916895167982263e-01
3.806685985331870886e-02 9.855817210259690958e-03 4.456454298125085423e-01
8.525990392340342117e-02 2.107918905205107690e-02 5.040500303557523543e-01
8.328263510578842732e-02 2.704181406947153699e-02 4.604675399853545015e-01
2.584764155214115677e-02 3.551661704225930055e-02 4.451649827039005358e-01
8.439689656204273083e-02 9.538880322028441688e-03 4.853841634928288684e-01
7.231414322076361312e-02 2.235810903382796921e-02 4.572145643206691479e-01
4.378928786673894763e-02 -4.063987609403706125e-03 4.473499323697947005e-01
1.505224304986553518e-02 -3.687678979074379519e-03 4.386093363811354728e-01
7.941064065812675210e-02 4.173704493891223360e-03 4.783340239498196644e-01
3.479425183382339748e-02 1.135147179927895262e-03 4.438025244080544551e-01
2.794532520913211096e-02 4.312594467778097657e-02 4.455882110319054346e-01
1.461864655077197393e-02 1.068534718288490122e-02 4.418251854352730490e-01
4.778941284355057301e-02 2.226462624988072639e-02 4.491740666682264016e-01
8.948781268512043252e-02 5.383168530761949649e-02 4.843205218065928519e-01
7.019472334483231601e-02 1.649685545941283627e-03 5.041430354695616289e-01
1.051043163860769236e-01 3.889840027547471213e-02 4.634960285427675575e-01
2.653209517571554488e-02 2.195030853868166001e-03 4.418736965427647601e-01
-6.821606144890472040e-03 2.876560268232761924e-02 4.437478442416469826e-01
1.586997530398954331e-02 -2.806441617572501615e-03 4.389152667095726490e-01
9.743830532267325206e-02 4.659072818411355565e-02 4.839078211614247782e-01
1.006273541185041670e-01 3.311773855888562601e-02 4.820249996735723186e-01
9.104227579095588996e-02 2.021883744878729197e-02 4.876359510184685164e-01
4.320490049695212276e-02 4.126295049146247451e-02 4.473994029175547005e-01
2.264639103010648510e-02 5.551802022348163029e-04 4.406660313979104404e-01
8.124138712418894903e-02 5.021466234386579713e-02 4.518548379266469350e-01
6.355383188817707862e-02 -1.221816066590590208e-02 4.685931882541824467e-01
1.009662716697387053e-01 4.469077299619389487e-02 4.760176467803183264e-01
3.287549239757131536e-03 3.995831953149981547e-02 4.438452102328513393e-01
-2.195887726904403175e-02 1.282046981699826692e-02 4.449123140381427421e-01
9.150143223514668744e-02 3.408410634075457329e-02 4.958431228561503978e-01
6.606792586943097123e-02 -4.258451012709709056e-03 4.644301076163587783e-01
8.382030891633901470e-02 1.615634084355709044e-02 4.662260839749757801e-01
7.751605709226856711e-02 3.237713784514243201e-03 4.727005316832200710e-01
8.816432196922137365e-02 4.528177768467999548e-02 4.959555413212591857e-01
4.068080267724880072e-02 3.515006257166234521e-02 4.472887311154591927e-01
8.015335923930519413e-02 5.203656494689898500e-03 4.762236450289660805e-01
-7.745335884436428502e-03 4.022331148751044638e-02 4.454315367576244800e-01
7.710775947558951016e-02 7.299914155015029688e-03 4.671825287670819948e-01
1.503875068989261703e-02 4.176560304704610149e-02 4.442222289478838793e-01
8.761787106698984418e-02 1.255869630213051619e-02 4.773245527242322428e-01
6.525599121165831518e-02 -1.076830728856174174e-02 4.698330610798926443e-01
1.040685640854757260e-01 4.221339128166168991e-02 4.724796609702626160e-01
-2.003552201764731769e-02 6.860919631885915165e-03 4.417685176934544322e-01
7.841535216643392980e-02 5.760136997631586792e-02 4.546054138832234526e-01
3.510012541405736070e-02 4.880346227061147651e-02 4.460875132832367584e-01
9.412189680941165926e-02 5.849142973745573987e-02 4.643883904422748676e-01
-3.093336605511352345e-03 3.179998497445271632e-02 4.435926687432668603e-01
6.947261072152512151e-02 5.294496662498653083e-02 4.494391469361729285e-01
-2.057081915685974455e-02 9.287760590792698556e-03 4.429722662211638684e-01
7.370237480836165991e-04 3.272142497844106671e-03 4.393914801478697729e-01
2.844363120294884570e-02 4.879139799990552667e-02 4.454784534363493975e-01
-1.309267037345139897e-02 6.530152539404052679e-03 4.403358204019336974e-01
9.164012663178891516e-02 3.577002324003177025e-02 4.950198489912783772e-01
6.760350182917508610e-02 5.334844385478014483e-02 4.490323862707802927e-01
9.937943243405085447e-02 4.783309893148025155e-02 4.736463063702778808e-01
7.972506991387594277e-02 8.235390824214306599e-03 4.989743797607475440e-01
8.176382617256207352e-02 6.634881158491262240e-03 4.783179334977093466e-01
1.009266938579683748e-01 4.285783865874447096e-02 4.812127422041940217e-01
4.605422446770122274e-02 2.884772173723767347e-02 4.486902395656841014e-01
8.947073470244709670e-02 3.829185422621170926e-02 4.979236053965122033e-01
6.909751778314783544e-02 2.248018284809786757e-02 5.255932698812788573e-01
2.603003632718372401e-02 1.789422989411244835e-02 4.439371843390103600e-01
2.099992967305429337e-02 1.886670705055460903e-02 4.434099196775813101e-01
1.376279831702955682e-02 2.697214277716981565e-02 4.428470561016078499e-01
4.935720086020810998e-02 -1.249257561321284737e-02 5.301301532728072141e-01
9.723209820706076034e-02 2.552691831045892507e-02 4.679489031390759446e-01
9.994669674031954332e-02 4.628543052275896352e-02 4.756132023524721752e-01
1.549917459332015961e-02 9.863067697847871171e-03 4.418461864179670240e-01
7.786701354236972260e-03 4.372779248714835088e-02 4.441340988208802298e-01
9.290161244827051246e-02 3.591988808391511495e-02 4.927747573913993651e-01
-2.953044663023000199e-02 6.334462902119371297e-03 4.440287030631921983e-01
2.717889141311083390e-02 4.445066261594693077e-03 4.424619954392727816e-01
9.267574982286570784e-02 4.667605135307523190e-02 4.897510254421761355e-01
2.412051947891113296e-02 5.861775133404312221e-02 4.476425750865249409e-01
5.765319796324580581e-02 1.750268880028157947e-02 4.526330814390171486e-01
7.186735882238858009e-02 1.916802418238402680e-02 5.214032975042743878e-01
8.286541753946309596e-02 2.919094420237427698e-02 5.106316640565026210e-01
7.036506408017366432e-02 -7.205238031828395048e-03 4.921885663312534076e-01
4.721351646747588837e-02 2.242680868287678583e-02 4.490233152147781737e-01
8.021211236634659403e-02 6.261172083362560523e-03 4.931990992594759149e-01
1.732303678453766399e-02 2.330853498684415728e-02 4.430965924458865612e-01
1.830907703884962490e-02 1.591384765656550515e-02 4.427424245105232581e-01
-3.557017264081213052e-03 5.375543151261139713e-02 4.485908305243330729e-01
-3.889096197015521478e-02 3.003778677271448476e-03 4.429066601139386994e-01
4.152665653288230285e-02 4.954894874388594828e-02 4.466149094220210891e-01
7.988904742809423143e-02 2.118732333709062721e-02 5.130890668402829924e-01
4.980505123614246271e-02 3.177672245759827901e-02 4.492055895601422821e-01
7.524512839160361899e-02 1.877718212092071431e-02 4.600311597053576840e-01
7.871373404818386710e-02 8.264452892843323836e-03 5.014497354431999288e-01
2.732948989818211744e-02 3.421704377727995128e-02 4.453057306963118522e-01
2.864269366621788673e-02 4.755448689750992747e-02 4.455183184631264504e-01
7.642707059964833072e-02 9.858491516214075434e-03 4.639418741951468195e-01
8.408488450631901312e-02 4.068260750035969375e-02 5.029144804508437483e-01
1.749607498431845522e-03 3.415498532417734351e-02 4.433939696015486986e-01
1.086983271102169024e-01 3.721043261444691164e-02 4.735012948393753085e-01
4.086656720839394047e-02 6.363862462207114934e-02 4.496193100220480243e-01
9.025837569622775780e-02 4.714621935433346844e-02 4.550435119210650137e-01
1.005347575717861902e-01 4.280256119257064285e-02 4.817048246770668229e-01
2.653520632082191980e-02 3.012294767093997433e-02 4.448438304898835183e-01
3.784190164915134102e-02 -7.279900428212915386e-03 4.441908290471234255e-01
7.296607772688672167e-02 -4.411641305155001962e-03 4.841134622980919899e-01
8.041946822411499829e-02 6.247552087377467207e-03 4.921697402463847126e-01
8.747912215621553300e-02 2.837541973391780742e-02 4.620485534271701611e-01
6.096690286901078337e-02 3.278080232628117346e-02 4.514921840030816091e-01
-6.185654071381830633e-03 4.105414072111886192e-02 4.451770977112768923e-01
9.583242058868524094e-02 5.384184633910855944e-02 4.632064087802065799e-01
2.468586586732188573e-02 3.015949534542311516e-02 4.445712884901548700e-01
2.022267689547125810e-02 5.350186068803489819e-02 4.462827900680592097e-01
5.117658377747651838e-02 2.352357333325396857e-02 4.501615964620855337e-01
6.568698288470582736e-02 2.441038193675605650e-02 4.546035714151143714e-01
1.096566009548504729e-02 5.653447289025639866e-02 4.485953147812089536e-01
-2.484700805569252380e-02 1.254130345331916363e-02 4.458569437408805292e-01
7.179145162822384019e-02 1.361030713132287649e-02 5.170865511618023547e-01
6.211471061329737475e-02 -1.033083094265893967e-02 4.645965067556107053e-01
8.119625348212775040e-02 5.750271567875923223e-02 4.565371322546726285e-01
2.095659569107113235e-02 1.959443983793099711e-02 4.434328654834235328e-01
-3.762487368006732502e-02 2.420484057981320790e-03 4.426275108914850542e-01
-1.541399041318293776e-03 5.373167960276557797e-03 4.397186377704013771e-01
-9.574570022809106296e-03 4.793489012073877398e-02 4.476779942075238550e-01
7.849331695834975420e-02 3.162156567395133649e-02 4.584123257074054769e-01
-3.227938739418378944e-02 1.470923624735996074e-03 4.422988330143068914e-01
4.333022214513000681e-02 1.186073095887491512e-02 4.474084125406594947e-01
