3.667140570787574827e-02 5.014649173713485453e-02 4.464323191073256147e-01
4.947831468769339075e-02 -1.245916138417037244e-02 5.299389133805184615e-01
8.712971310434304562e-02 1.828374069582775624e-02 4.684326340516561382e-01
6.937542457037994270e-02 4.017354240935484128e-02 4.516159766667938169e-01
7.516651541122774949e-02 1.446534899461346044e-02 5.130948941278259401e-01
5.239893850073393256e-02 -1.584810020942332282e-02 5.282740892369602870e-01
5.566580065300869712e-02 3.785757909824249978e-02 4.493711750989440312e-01
9.034748178363792570e-02 3.066342152297275858e-02 4.969476064447365671e-01
-6.032159120242538627e-03 2.437392348275527199e-02 4.427307635122936236e-01
-2.290230267067714168e-02 2.012099337447201958e-02 4.472636988668293179e-01
6.572066183528441075e-02 1.140780990932761807e-02 5.218831312096700037e-01
5.197702877817898803e-02 -1.603651632291772794e-02 5.286938973494947902e-01
7.927807493525550198e-02 5.083480796190328888e-02 4.515033315322589114e-01
8.508290188470514492e-02 1.574949163820744263e-02 4.962702829952275740e-01
5.066304638222738493e-02 -5.829724774657278966e-03 4.516221492191039855e-01
7.601570103369074960e-02 7.604165012625853023e-03 5.034893510218826362e-01
7.795503929050187630e-02 7.460981989436577151e-03 4.685966165309911058e-01
-6.855663673479187037e-03 5.093461652546095453e-02 4.476748336342457057e-01
1.055487756658093634e-01 3.145727695505332738e-02 4.678671950163086346e-01
4.384112728090068523e-02 -1.860646991476187046e-03 4.473883619098157904e-01
-4.118404857370028260e-03 4.747198086661978678e-02 4.455112188980857035e-01
6.080874977055002184e-02 5.580332370085543288e-03 4.550058782213979858e-01
2.697209313386574742e-02 -1.638564554603988074e-03 4.409232739993649841e-01
9.398230652332147106e-02 3.364287304947326945e-02 4.624728596317139728e-01
-2.678652535505589641e-02 1.320437783155407538e-02 4.475978457050875936e-01
7.959685239712251115e-02 2.857990036154186078e-02 5.150075180840841815e-01
9.940888230498620692e-02 2.538532595488123683e-02 4.753840894145509588e-01
1.770416539438531001e-02 5.940716924873037930e-02 4.512479088457435061e-01
7.759678504748689087e-02 2.065352482262508213e-02 4.609043289235364993e-01
5.041563609859681105e-02 -5.520431981425069808e-03 5.265656823156618094e-01
8.490336516884930407e-02 2.674828174141435921e-02 5.064467947518295210e-01
6.022275859557778277e-02 4.300806232822484976e-02 4.490630493117492850e-01
6.359534402597269431e-02 -2.881623356111425761e-03 5.112891932224996605e-01
7.235041473330992845e-02 2.968894395964240263e-02 4.558273210330806013e-01
9.486699468520294609e-02 5.411074970760602204e-02 4.729464545644700424e-01
7.948542217231831242e-02 2.773860247088558162e-02 5.151478557092575850e-01
1.693576634703618938e-02 6.004370387686439048e-02 4.526804070700845561e-01
5.654861942939365220e-03 2.825510106272297733e-02 4.425449902169960592e-01
2.460704641567830128e-02 3.475955095818960422e-02 4.450034115482942587e-01
1.230883926120594773e-02 2.099710513284165636e-02 4.424056576485934644e-01
3.571396743189422882e-03 2.840434359636579212e-02 4.426587421513240028e-01
5.915787835050471261e-02 3.829491411772098508e-02 4.499742782768306193e-01
8.795010905669711776e-02 2.504303291772246379e-02 4.977691396986624328e-01
1.888414894208791106e-02 2.751059971622491634e-02 4.435064606418066546e-01
1.020850795024644438e-02 4.328066832045461554e-02 4.441991012000792161e-01
7.643739156012319125e-02 3.273949881152950908e-02 4.577196933075215468e-01
-2.524388319546619006e-02 4.346111205106704782e-03 4.419409411548751443e-01
8.255498024100876853e-02 3.777862953230819165e-02 4.592552738125273981e-01
8.572084488338256592e-02 1.415349818544528286e-02 4.911206048194696194e-01
9.369408487132524499e-02 4.969431735555483037e-02 4.863888700718608238e-01
9.389873508218794795e-02 3.189784724121624143e-02 4.907919721860749540e-01
1.049326614907325345e-01 4.011556528244071551e-02 4.671933422255739599e-01
7.318967017742161740e-02 1.425811802728592283e-03 4.970686698649849355e-01
8.128458976362386290e-02 7.467156989549483120e-03 4.904826265020718057e-01
2.079195351933330049e-02 4.084554571785264238e-02 4.449205207043310240e-01
9.603348680628245870e-02 4.787729005115921865e-02 4.602623261931435006e-01
9.310322344483279444e-02 2.253056622404037840e-02 4.845087727891261853e-01
1.542037356847027023e-02 8.349550778875043308e-03 4.415531845521263321e-01
9.681452324557583700e-02 2.986684807073534953e-02 4.852557552236653748e-01
6.854333983623389637e-02 4.745619533764151160e-02 4.495028012345764767e-01
-4.341403945401894893e-02 1.703676441124325324e-03 4.442884107871062915e-01
5.165710845765857789e-02 -9.559772158745833553e-03 5.270462300205567274e-01
-2.294753264723937633e-02 2.910640366356923459e-03 4.407191951823263287e-01
7.224340424584889397e-02 -5.194281336602156983e-03 4.848753558515042084e-01
9.340827823988458178e-02 3.228885614793500919e-02 4.917490028569303506e-01
7.630559260576644243e-02 1.324486964005499277e-03 4.881760087433028028e-01
8.921866650346066407e-02 3.504505505930261694e-02 4.988461298006998668e-01
3.296692580418167373e-02 1.621329316742644785e-02 4.451978182654591776e-01
7.572482127164760490e-02 2.938384717941615668e-02 4.572339387990458359e-01
9.274137500547682822e-02 4.442450533754512682e-02 4.565671206688718953e-01
9.351080663680564828e-03 1.239547942029037980e-02 4.414375399237097652e-01
1.544066583486406775e-02 5.872895132429412773e-02 4.514564675946533545e-01
-5.716258000667672617e-03 3.298588439175854925e-02 4.440487534236797207e-01
7.362130958313833906e-02 2.404964990543683595e-02 4.574129645167266389e-01
1.057237843701417934e-01 3.096685883417888557e-02 4.759485861346084423e-01
6.823239330609330577e-02 5.516157719110104801e-02 4.496657430146154266e-01
8.825120223735694047e-02 5.318411569012431589e-02 4.875177928499385693e-01
7.999751934766864692e-02 3.456591640977139945e-02 4.591773380963878326e-01
7.381701767827573979e-02 1.608604626399463486e-02 5.165434754239860426e-01
-1.135453550419776234e-02 5.035227410826717542e-02 4.503680872367483712e-01
8.989280224746021286e-02 4.541899710650145611e-02 4.933380340215429150e-01
9.866144159120410206e-02 3.827456083484619825e-02 4.615596192730543335e-01
1.148991540269361095e-02 9.490762362398217147e-03 4.413608929060429120e-01
3.521015201643602766e-02 1.894469315571280232e-02 4.459212135648491504e-01
8.866363363830684352e-02 1.873689468983223694e-02 4.894798464514711900e-01
3.607086177875836602e-02 5.293461573497848516e-02 4.464782717033682347e-01
3.995301941983359084e-02 -1.038686946665230183e-03 4.456820600356973250e-01
7.622435387090726114e-03 4.097857128727706855e-02 4.439357276944050912e-01
9.283913748525401965e-02 4.091674196858603729e-02 4.593042091875190192e-01
8.697008732768266026e-02 1.275862467360505507e-02 4.809893686001164292e-01
2.163389621886618180e-02 6.300120526475179623e-03 4.419558667122702733e-01
7.236991693513759871e-02 -4.869802200184296555e-03 4.842497779564426952e-01
3.008885096844867921e-02 3.840306873465498816e-02 4.460702464193060379e-01
7.369979522044821374e-02 2.328832863268940137e-02 5.209274174233856636e-01
6.375511721406325327e-02 -9.716708284108886706e-03 4.665909498720008375e-01
7.198710680393380357e-02 -4.475979346132300495e-03 4.884638093200379116e-01
9.900518400246573203e-02 2.462009468047467869e-02 4.728858168890615055e-01
8.503187543017963479e-02 3.594818768171256784e-02 5.051374358465547942e-01
4.274724477623129126e-02 2.859544776034997696e-02 4.480763683253692897e-01
9.204063507678474088e-02 3.736393864118613822e-02 4.931011015961726529e-01
8.644100352923060615e-02 5.619026804252298668e-02 4.569358840366150032e-01
-4.272123387687173229e-02 2.113140078631957613e-03 4.449080939065339080e-01
3.831452261807610088e-02 2.281489246947767877e-02 4.468422129946305610e-01
2.403411143582929663e-03 8.851795407870377205e-03 4.402895603147943260e-01
4.353064841967907439e-02 1.169955829429024201e-02 4.475292411325654252e-01
1.194375496798943947e-02 1.503893868612501614e-02 4.419730034140012531e-01
1.049107037879796513e-02 1.021378656065903556e-02 4.413422472922915452e-01
4.803020551355333123e-02 6.915236410917954997e-03 4.490670503608246156e-01
9.008923198469072358e-02 4.125619559165932815e-02 4.587210053167662394e-01
-2.532678182428960839e-02 5.368278316238904620e-03 4.424222798188078287e-01
4.059215089737540361e-02 3.436391465370530057e-02 4.473687687626170528e-01
8.027263539213608246e-02 7.110771504118000054e-03 4.943191014112446879e-01
3.041110285651245707e-02 6.716094985035072316e-03 4.435966104002665999e-01
-4.253632799512905432e-02 2.963878340177365529e-04 4.414332964405698889e-01
7.958215754922885743e-02 8.606832440778460630e-03 4.693563725078797044e-01
6.881524384425261043e-02 3.170349099129836107e-03 5.082553504554067070e-01
6.613762890905169889e-02 3.619581451744270650e-02 4.519983233776506126e-01
9.985809704537473852e-02 2.518402498589355012e-02 4.732638938513651916e-01
9.788870686807241150e-02 4.452330298249612683e-02 4.841153544322081004e-01
8.495609601918167886e-02 1.043837494585142869e-02 4.787311196530631974e-01
9.700965570035292862e-02 4.449924222722322076e-02 4.850926926669796302e-01
8.338278605066393179e-02 3.892061524066672829e-02 4.586199501947558765e-01
-2.903843090074045841e-02 7.009442998818594950e-03 4.448462817585741025e-01
1.182638328907349885e-02 9.583551778895292930e-03 4.414199846038843189e-01
-5.317688896295422532e-03 2.286825651787412553e-02 4.423347475988985700e-01
8.675168445883803259e-02 1.668824558910144557e-02 4.693899143167336030e-01
9.464649019040229094e-02 2.588004874043633649e-02 4.860993543524003702e-01
8.018030853309796036e-02 1.606441333866220206e-02 5.081369060356965006e-01
-1.923690286915014785e-02 2.231147674991518920e-02 4.459718673820143864e-01
1.051213488073790558e-01 4.094125029031550622e-02 4.713754065990261033e-01
3.605374024684538520e-02 6.589057827292343905e-02 4.522973214944792653e-01
6.585053034787313742e-02 4.203614812467630635e-02 4.504759625038385895e-01
7.639876499155943967e-02 6.630754952096822377e-03 5.014243180419977186e-01
-2.708240426187808348e-03 5.315408857972317089e-03 4.397119912701071276e-01
1.151667216581853462e-02 2.488561040621057111e-02 4.425479035790860216e-01
-5.670109640217747306e-03 4.406701517129520476e-03 4.395711107081753388e-01
8.929362186545634905e-02 3.511441619815403731e-02 4.986887344223522867e-01
7.619178175856294866e-02 4.566785486746991959e-03 4.694302959175390422e-01
7.638024030730686253e-02 2.817752854756330576e-03 4.934415878711045922e-01
6.684959873394932806e-02 3.354623245892398610e-03 4.600714675971848688e-01
9.378350502483853712e-02 5.078490516641707975e-02 4.842879369430291847e-01
9.133878098247305566e-02 1.854715855513493564e-02 4.780789573645439217e-01
-5.962657759962377430e-03 4.795434268347682771e-02 4.459736656997955184e-01
-2.655673198857146089e-02 5.679989307541939703e-03 4.428710834416248465e-01
6.914025066052245649e-02 4.439358216717937539e-02 4.503796464051957327e-01
-1.055790296170820881e-02 5.071891990389770094e-02 4.499476518721819418e-01
6.481356354965125965e-02 3.361681279808376166e-02 4.524519957296316841e-01
-1.620367275355212924e-02 1.745468778314061137e-02 4.437819715105461582e-01
-6.424396105559164460e-03 1.503756089922355516e-02 4.410876746359255196e-01
6.533395937504678230e-02 5.858898610774052745e-02 4.528072091232278051e-01
5.996701608795133170e-02 6.291216708428769722e-04 4.557389026901373374e-01
8.492525117964599968e-02 4.507319235203348373e-02 4.541927402703140326e-01
8.070800914991088648e-02 2.977969237540370462e-02 5.133270715638819093e-01
3.503823360647661395e-02 1.427966015507115168e-02 4.455549995397559138e-01
9.390597714226738002e-02 3.681103847888451963e-02 4.905507470389443014e-01
-2.896300769214227647e-02 5.950439661997276516e-03 4.436495253929065297e-01
4.556987593518508489e-02 6.349701004625352141e-02 4.524503579158143385e-01
8.559844860166364311e-02 1.825598099785883874e-02 4.982843343430137240e-01
7.069251385853349279e-02 -5.725003081027699517e-03 4.756614446145358555e-01
7.876985149226781169e-02 1.947835643528214589e-02 5.127708237168321359e-01
8.199708144829577494e-02 5.878050913966491320e-02 4.595340965838398128e-01
7.653585759702213887e-02 1.280815101342502177e-02 5.095839690711240211e-01
-1.376180657211201197e-02 3.151869021336501861e-03 4.397010620192615682e-01
7.343739191613596340e-02 5.426564840952924351e-02 4.505340831523784173e-01
1.007714779407538064e-01 2.572746950666562893e-02 4.719537545313352567e-01
4.692024520912220498e-02 9.064537475073694908e-03 4.486835510758222512e-01
7.432943698228386409e-02 -7.963749803836960755e-04 4.760428283872824573e-01
5.553778493347372863e-02 -8.360937722523187690e-03 4.559692087285150408e-01
4.291172722556358538e-02 -3.165083589800456697e-03 4.469960117739799621e-01
9.666648241781949924e-02 4.388632201059740334e-02 4.856438239635447185e-01
1.021782447673676986e-01 3.986851420470528817e-02 4.797301512568300508e-01
2.312286411414395462e-02 4.575288105887173606e-02 4.451798438154179749e-01
8.931282611518054360e-02 1.558940553941469236e-02 4.779436605276320971e-01
8.413692005344962366e-02 5.371168490588103250e-02 4.889216158801014678e-01
4.237929309998666322e-02 1.142375997435806159e-02 4.470441354504772202e-01
-1.434170818522856328e-02 1.193348281395900830e-03 4.392420919607620267e-01
1.049161592074874944e-01 4.124435729555566560e-02 4.719176561777087553e-01
9.222916954684977353e-02 5.180235449157136879e-02 4.851874438643950516e-01
2.898383278232990676e-02 6.117184737342265533e-02 4.497767765991519950e-01
4.107900587228828504e-02 1.012584977455173105e-02 4.465176916940435392e-01
7.330298873503107715e-02 -8.249326853759916464e-05 4.945400417713834984e-01
9.415903983902820795e-02 2.642641376905135314e-02 4.658639710738239348e-01
-9.653893142379797385e-03 1.365956173095372005e-02 4.411694850025859593e-01
6.799505418846811533e-02 3.084399989807481025e-03 5.095770327648831977e-01
1.072610257713372678e-01 3.386534782084048983e-02 4.672563320931966135e-01
8.978282238048831965e-02 2.673496139297283983e-02 4.953228802070647196e-01
6.855033100622347220e-02 3.552339584289813945e-02 4.528765332959492906e-01
4.356710704459277467e-02 4.743232077106698807e-02 4.471079229965305712e-01
5.936632210454187430e-02 1.190804458065701163e-02 4.540279221888693373e-01
8.025824765936337424e-02 9.389831922410876372e-03 4.984522142960933211e-01
7.268753626865603890e-02 1.836587579296337230e-02 4.590687494241182942e-01
7.749606846476729538e-02 4.041468027183239137e-02 5.065603491580611406e-01
-4.564303314159441106e-03 1.738496828616362816e-02 4.413096805036921810e-01
8.238241909945340224e-02 2.031040825693002788e-02 4.632986346243767595e-01
-1.218365524912069960e-02 4.357659703102468446e-02 4.470756743073207029e-01
5.527172748894805532e-02 4.687960864217903534e-02 4.481982763576641271e-01
8.199560322406598822e-02 9.002585438100875470e-03 4.720948544083033438e-01
5.614258846986656254e-02 -1.468103426224045757e-03 4.539217710372081549e-01
5.657144749262441041e-02 2.518361956141229249e-02 4.518564148268678915e-01
6.681257736593551599e-02 -6.047148036658546444e-03 4.674161737257359617e-01
6.767157431334498707e-02 7.007051306053981021e-03 4.594790944541277122e-01
6.160227398097960216e-02 7.778128189313288608e-03 4.553726052736346563e-01
6.871804287306325365e-02 -5.195694462552101489e-03 4.987848865114585806e-01
-3.020376434949715531e-03 5.922301311485463765e-03 4.398039682936434325e-01
7.380950038516653766e-02 1.539888713396547239e-02 5.160007875803707122e-01
9.076134200010323172e-02 2.407920220130126479e-02 4.662853110970698878e-01
5.951462420045092183e-02 1.874918455353099048e-02 4.532697825067857345e-01
-8.645663468091282361e-03 5.258121411102335829e-02 4.499346063481464708e-01
8.616852005555350469e-02 4.089049801610338680e-02 5.001185475651008794e-01
5.851228385861570458e-02 5.173079919255997583e-02 4.479493236193047290e-01
4.109380430244297805e-02 4.637080898853135347e-02 4.468746210113807571e-01
5.620600437219874790e-02 5.463958563627277325e-03 4.527988798085807454e-01
1.074601938112022467e-02 1.914153681393698445e-02 4.421355582727690692e-01
6.944815927224104457e-02 -1.961932295309627011e-03 4.671127469113222075e-01
8.961125629078639521e-02 2.802925473719933627e-02 4.969482579105454212e-01
7.561205244874223685e-02 1.876616997780718513e-02 5.165558929114605347e-01
-1.769515490035637739e-02 3.742427759629476242e-02 4.484284880482243829e-01
4.700778182700208335e-02 5.857760407834720212e-02 4.477078247645253639e-01
-3.188015326428681167e-03 6.602358766739527783e-03 4.399062074693140811e-01
7.061155406207654528e-02 4.814385832574347157e-02 4.496125201487294887e-01
1.888963271271439440e-02 7.840362328114044640e-03 4.418219143852998299e-01
-4.688525668331550503e-03 2.607971358899785486e-03 4.390968868557479921e-01
7.286235115416685171e-02 1.216226884814320492e-03 4.686677519193527819e-01
7.569215917540357552e-02 6.404219058847383621e-03 4.668968728007212854e-01
1.038809677810033361e-01 3.946611560847042288e-02 4.621524362657621898e-01
7.442890352933934084e-02 1.453849524702402474e-02 4.609967511804211604e-01
8.651221515338557155e-02 3.464328467184894095e-02 5.037273678812620448e-01
1.070076420536080763e-01 3.693459570715086626e-02 4.651232904334021701e-01
7.192688507649167007e-02 5.190190830107797165e-02 4.500249169479210720e-01
4.322891620153734848e-02 4.577723503424532131e-02 4.471784974513839939e-01
3.742436825152001267e-02 1.480196955600092054e-02 4.461901709817463479e-01
6.969326071673209722e-02 4.932890710246414651e-02 4.492682756302970870e-01
7.419609414119814061e-02 -1.929957308934540650e-03 4.872630224086584305e-01
4.951088581244410952e-02 3.601447391850796931e-02 4.487870066902439059e-01
8.785386432768488296e-02 2.524094089948952790e-02 4.983609460465723284e-01
8.923877635522668716e-02 4.152393792515933491e-02 4.584141653097605351e-01
5.562828501374295770e-02 5.705363712341855395e-03 4.525149313552701003e-01
4.180849734339626977e-02 5.846559482701763066e-02 4.473258835441297765e-01
3.511661743834888078e-02 2.025207584717119216e-02 4.460092554520896924e-01
1.032420661627113379e-01 3.958384473173413159e-02 4.787498780481969085e-01
8.455369241327947982e-02 1.167767705495702593e-02 4.724705199925983701e-01
8.053890998003490620e-02 5.310228100255444394e-02 4.521345640049185821e-01
6.795438133008642467e-02 -1.521211191834887129e-03 5.033548420743821916e-01
5.248437270998445453e-02 5.159723157297640278e-02 4.475422660901220429e-01
9.310784936446392379e-02 4.343645245225758594e-02 4.573774638395525782e-01
7.129985640896110977e-02 3.597607980562137625e-02 5.154785286511873732e-01
-9.667177287820532053e-03 -4.675820641600351643e-04 4.382747465343609372e-01
7.323774616856641717e-02 4.289738370560476632e-02 4.517753387162575796e-01
2.012729739303512067e-02 3.182762090595085691e-02 4.441009105349202901e-01
7.553114780764544345e-02 1.922943464868351587e-03 4.935559734734729642e-01
8.559692763140580585e-02 3.872628954205507151e-02 4.591526700574747322e-01
9.331436209347089561e-02 2.119522850025021971e-02 4.810224741345040522e-01
5.054498784807136269e-02 6.115971585637181018e-02 4.503908436276189420e-01
4.610037951398957001e-02 6.286391956397126279e-02 4.511758508901038134e-01
9.485815407349337813e-02 5.083477581219816160e-02 4.820590087092460618e-01
1.495057085599714279e-02 4.760443446303708886e-02 4.448730587209555054e-01
1.312040434518364253e-02 3.763661286729790695e-02 4.437894546421923270e-01
5.191033583151110492e-02 4.835807027997774538e-02 4.477984089756936181e-01
2.900679584453782003e-02 3.606980742701024895e-02 4.457518519054241568e-01
3.975430427839968250e-02 6.176069552238419580e-02 4.484431525010195152e-01
9.453718719851686436e-02 2.434071594934007765e-02 4.843036185034447216e-01
8.736588234991153612e-02 4.579879278924805369e-02 4.545552391481617049e-01
7.034156983129967455e-02 4.557116045220823558e-02 4.502492871808657093e-01
4.139168571326522217e-02 2.766980912122180350e-02 4.477269103533302874e-01
-1.192193432027363262e-02 4.895532713398338676e-02 4.500211451733236445e-01
8.231443689665884911e-02 4.152489479661091581e-02 4.562856116977689891e-01
-9.251276896162336297e-03 1.137630323053356353e-03 4.386960785702980758e-01
3.025083438772638474e-03 1.648283215826376255e-02 4.412718829994092262e-01
7.004145725825505764e-02 9.639383689016929949e-03 5.147072380296577876e-01
-9.842614906632740635e-04 -2.073004787322127018e-03 4.379628051956680479e-01
7.012723811894538972e-02 4.851012477332856260e-02 4.494533858523536152e-01
3.849801251139954583e-02 3.677855998379025992e-02 4.470689975387662773e-01
4.755794968774652159e-02 2.087130027761664036e-02 4.491811229713574827e-01
1.011084132915947981e-01 3.434818224676046416e-02 4.812685396233236101e-01
3.250516630911798321e-02 9.953954596694748400e-03 4.445541489038397631e-01
7.135319918840930808e-02 5.851217449661549191e-02 4.510439644926211300e-01
7.446041913229371756e-02 3.720477235228134005e-02 4.556200064611151679e-01
4.335851884050882094e-02 1.810392597494771272e-02 4.479305881845666026e-01
-1.528266333680062573e-02 4.191055206367203662e-02 4.480782393821485798e-01
2.426158040322829584e-02 5.627413217168131948e-02 4.469778770402718093e-01
7.316251334737759737e-02 1.793694910640990237e-02 4.594299850629993132e-01
7.580426867211016717e-02 3.658510691493221945e-02 4.565099629671224291e-01
7.395220019910636600e-02 -1.334737890188337009e-03 4.760645976815315872e-01
-2.058500336390722135e-02 3.705521718072859322e-02 4.499580912945369549e-01
5.731632284484297624e-02 4.102725246235371798e-02 4.489915551979014041e-01
7.179363228469742841e-02 6.065239608739021043e-03 4.624703723336138217e-01
8.926977500839554380e-02 2.682900057188524617e-02 4.635611319767626859e-01
-4.116875156207289166e-03 3.673081060841944245e-02 4.442191459494030936e-01
5.813515967360381731e-02 2.533359072306589493e-02 4.523030705696272080e-01
5.056570248271233942e-02 2.971029532954943056e-02 4.498167594004674474e-01
4.802617720577405380e-02 -6.814770134555810446e-03 4.501435026757742430e-01
7.737473585698602385e-02 1.798645031205736711e-02 5.136770289034611192e-01
9.004868207586305684e-02 1.994941150792188533e-02 4.881486964758310343e-01
5.854992673189356178e-02 -1.037176377706207006e-02 4.600854171298529027e-01
9.259536198112916505e-02 5.929166569516160223e-02 4.672613593857410375e-01
6.057825914411863605e-02 -1.911765764628343012e-03 4.568365762582738410e-01
9.779408633938889081e-03 4.958349450375937328e-02 4.449817695929134120e-01
9.829248796584730968e-03 -3.198588410082191334e-03 4.381913076788168659e-01
-8.748025601290178657e-03 3.481521154841888538e-02 4.449024165772396122e-01
8.882825496632718032e-02 2.919870181260702385e-02 4.995933413632701603e-01
1.319177697371756719e-02 1.862540656345664306e-02 4.423858678157592816e-01
8.945571634950291728e-02 3.410854839894769674e-02 4.624792362419994918e-01
4.387040151039892089e-02 5.331401034545874690e-02 4.467857614051876647e-01
5.209167027656153720e-02 6.216798067898290925e-02 4.545194500454173281e-01
3.863832605053726249e-02 2.584889286301150432e-02 4.470190701955353840e-01
7.357384763066845967e-02 2.955052429177947027e-02 4.563196164830540247e-01
-7.431333941994857153e-03 3.403382116108875921e-02 4.444468482922394603e-01
4.954237370505100435e-02 -1.622668377401481881e-03 4.501502673725217285e-01
2.716785835025959522e-02 1.768255178020170480e-03 4.419275397412731898e-01
1.368423710330621268e-02 3.289019997030059872e-02 4.435113942042540058e-01
6.377573976020688151e-02 8.342951529169561828e-03 5.217542414985471000e-01
5.180277363532129198e-02 1.736048834859017093e-02 4.506166910057765040e-01
7.518864386409750133e-02 9.982888661509389458e-03 5.080979483988766754e-01
3.126464805223919119e-02 2.658233996304981087e-03 4.429324300780606016e-01
7.037355330548976384e-02 2.075578617912111901e-02 5.232789783827253016e-01
9.464215240180649802e-02 4.988873689918632559e-02 4.845440616248927745e-01
8.515681216344056503e-02 4.813988975358104994e-02 4.956201282524398399e-01
1.076384614381217242e-01 3.118398074910637072e-02 4.729130618435035127e-01
1.780166917669749951e-02 9.528691655554843640e-03 4.420843763051329200e-01
3.051435283135680090e-02 4.218738585280083775e-02 4.459792588799719182e-01
-7.070527414331426869e-03 1.836394109717739975e-02 4.417231036489165930e-01
8.270939582642318488e-02 9.733920163783747054e-03 4.909393259823446320e-01
6.899857678088011648e-02 9.067050892071255516e-03 5.156276527819206867e-01
-1.466975913650468005e-02 1.886418490790226984e-03 4.395126932307821255e-01
-6.531139187363655015e-03 3.629769467056996601e-02 4.445916323843429607e-01
9.588333413394711791e-02 5.291019910946401228e-02 4.661572800086786206e-01
8.320609723588584528e-02 5.053840960289098655e-02 4.528432640275985577e-01
7.816573950108600399e-02 3.002116616623227291e-03 4.843991376093791379e-01
8.633738216599823323e-02 2.663943581543567335e-02 5.038482858663639874e-01
5.013349573153498551e-02 6.305701418061662733e-02 4.549483928849029635e-01
1.482178335440590376e-02 1.272442167005323130e-02 4.420571176689843118e-01
8.285929932474557502e-02 3.139297718688000005e-02 5.101870916562443181e-01
-1.859591072632343564e-02 3.754107537032653347e-02 4.488895859101643682e-01
7.833009294985085469e-02 5.852111885919490664e-02 4.567236812722141326e-01
-1.214057165940220229e-02 9.172161309199379498e-03 4.406947202811773989e-01
4.300926533680372865e-02 6.425569423077948095e-02 4.526536583909019362e-01
9.533845654509512380e-02 4.379448408669964210e-02 4.871359288015213451e-01
7.423728922818520481e-02 -1.452906577257897635e-03 4.777099452273627644e-01
4.607581072918148085e-02 2.340029231859938608e-02 4.488090389476722120e-01
2.594110682266724532e-02 2.105698121992629138e-02 4.443009984526581913e-01
8.925612058288734385e-02 5.424258730639028997e-02 4.830864794726852929e-01
4.578459173016452555e-02 2.003378370805620340e-02 4.486617465900904489e-01
5.649202211110510713e-02 -8.187763416269214223e-08 4.537709450554183177e-01
6.896847985604531717e-02 -2.139715704729907610e-04 5.032123002132004030e-01
3.160057122826315235e-02 4.882872358462129331e-02 4.458391279800034690e-01
-1.856720946931757904e-02 3.417228252489420276e-02 4.480143915560987344e-01
5.037427925702674114e-02 1.916524986329070160e-02 4.501252874946741755e-01
7.985916057806100032e-02 5.687603043263584832e-03 4.898139162881392505e-01
5.846178181176839989e-02 1.200492857193823787e-02 4.535731647391094135e-01
1.069262687198027778e-01 3.034045535103119251e-02 4.731229382575543041e-01
8.754278825700599620e-02 1.595416755303689232e-02 4.881576001780975060e-01
7.006235248951091232e-02 -3.647306637608211353e-03 4.701703013862629787e-01
6.841628868206151015e-02 2.976379323740295860e-02 4.545406153134829430e-01
1.971702119426063660e-02 4.987733675364725006e-02 4.453341870890672460e-01
6.676255611728355854e-02 3.543498817667189993e-02 5.191746490496884636e-01
8.663360300595392138e-02 5.513952068882756880e-02 4.831318493236197442e-01
5.450819390753134513e-02 -6.950029602245683807e-03 5.238117579997697559e-01
2.215453703222822895e-02 2.590773452916015837e-02 4.438369460305612857e-01
-1.737192734404534311e-02 3.349275654837304689e-02 4.472683926654304476e-01
9.058640941407236635e-02 5.631335219326592118e-02 4.744975484414903910e-01
8.511040020871540879e-02 3.104066776802110253e-02 5.066080020472327750e-01
8.985582280718490411e-02 5.429916461003601869e-02 4.813855105650607369e-01
5.852470381121029769e-02 -8.007522726742009878e-03 4.579390540156482725e-01
1.048747194745768690e-01 4.140599227090167866e-02 4.728317119737696084e-01
-1.621640298241143821e-02 1.021966621770394566e-02 4.417681746748887139e-01
7.031698547694763268e-02 2.437148728028975045e-02 5.248241537190192485e-01
9.399546953537465943e-02 4.947814810125156226e-02 4.860657480958412435e-01
3.452648569832481029e-02 6.761650849416792237e-03 4.444189464317412352e-01
6.741632089724153287e-02 4.139395879585290594e-02 4.509017441945972759e-01
7.057510613074971517e-02 -8.001064142823480912e-04 4.989088716033001081e-01
8.590062364681294582e-02 1.713625312670252060e-02 4.953865499929013816e-01
-9.416690417236958655e-03 1.070735486349707992e-02 4.405886208321561637e-01
6.431858531860916439e-02 -5.080051525736617793e-03 5.089836790375763531e-01
-2.955136593288207325e-03 1.234128357916308358e-02 4.404628579119479470e-01
-1.069623255745040351e-02 3.036492701112158618e-02 4.445884692624755830e-01
1.014477363080484862e-01 4.377218606617221119e-02 4.686207047790636460e-01
1.046277240778731299e-01 3.512823180097672526e-02 4.649723355990311724e-01
9.738392685418073569e-02 3.251804689076529670e-02 4.851625723036447346e-01
2.123396992898513025e-03 2.224032124622560974e-02 4.418117876478944717e-01
-3.001207055328695712e-03 3.911143193908484667e-02 4.442684996716275148e-01
6.862425445883420239e-02 7.150478266566679363e-04 5.051856658482625217e-01
5.473943143460874294e-02 7.825088723910841870e-03 4.520314673374674075e-01
7.497359292740271575e-02 9.553881040278138642e-03 5.077773966217168367e-01
8.308222644376232757e-02 1.106319418227380905e-02 4.937890115777933131e-01
6.354776608784419578e-02 3.079867514268750522e-02 4.529627724972214442e-01
9.045360723009909787e-02 5.274630897323414475e-02 4.863829040626092559e-01
3.055495869214580607e-02 5.607824513007787087e-02 4.467774426413184674e-01
8.047197816404265402e-02 4.750034633089456754e-02 4.519466450281121594e-01
-4.979852346188440651e-03 4.590891716266670003e-02 4.454991375309114154e-01
9.088465208915090521e-02 5.035307159469080973e-02 4.900064846894600090e-01
2.687327984411369206e-02 6.037301726044289746e-02 4.493296100420874351e-01
1.302509382433331489e-02 3.969940918606364166e-02 4.439832032869915346e-01
1.864115105359711450e-02 1.061619969093536252e-02 4.422810563122595573e-01
4.465084510097658277e-02 -2.726657640768065730e-03 4.477479003708554339e-01
6.594800861963180660e-02 2.697552564939401099e-02 4.543464585526440502e-01
4.984203055134864280e-02 1.893568407063405540e-02 4.499636342068669692e-01
1.008387915973687488e-01 4.483447589041882758e-02 4.720057119527176770e-01
-1.067619686399269574e-02 4.364332960174374665e-02 4.464875135056547428e-01
-1.517171804142770225e-02 2.063924493825926992e-02 4.439633723360840722e-01
9.947868331360280869e-02 4.612838956917068162e-02 4.777306049282520339e-01
-1.213518818405338873e-02 6.711779403575624491e-03 4.402698895816540281e-01
1.071139456522272326e-01 3.473499270071282730e-02 4.757165814139422966e-01
8.414601306090616073e-02 1.001808315172719559e-02 4.861298199751778459e-01
1.041154324167735575e-02 3.581266358625623258e-02 4.435005294438125745e-01
9.466715324029788270e-02 3.461717446439064455e-02 4.625561572893477913e-01
3.523704792395131874e-02 9.841644641772626448e-03 4.451153772253584884e-01
-6.029764078239602254e-03 3.116649505350792965e-02 4.439177777400831748e-01
9.511616369178864383e-02 4.290908471586642181e-02 4.580205444754414379e-01
2.378057301564457521e-02 2.528718958994057714e-02 4.440561005543706696e-01
-3.357816720841172355e-03 1.184368457570306003e-02 4.403920540388386318e-01
6.027256395664200989e-02 1.994633652714574573e-02 4.534432889060358018e-01
9.347279207770356479e-02 5.014713893404367656e-02 4.577615522530068537e-01
7.554538516904884746e-03 4.426433366485784532e-02 4.442488581218234645e-01
7.443133694250833599e-02 4.963925291373546059e-03 5.013443277155089639e-01
3.136249107688729443e-02 4.793706728569613329e-02 4.458416870822604627e-01
1.270666973609098013e-02 4.239086714315738053e-02 4.442337780297487271e-01
2.830443110522981240e-02 4.875801432163957318e-03 4.427869834710216890e-01
9.363237862417257695e-02 3.241974480709743089e-02 4.912447887136102698e-01
7.506929248373057917e-02 4.166167835715579339e-03 4.987289492023901372e-01
-2.749997684389368646e-03 2.251633455043273654e-02 4.421273265498347760e-01
7.008247059475822272e-02 1.416028874215075756e-02 5.189009127924019138e-01
6.309285168652378761e-02 -1.101460315088706628e-02 4.669189999328705043e-01
5.110853704907553086e-02 5.888256969744912889e-02 4.485962662868355766e-01
-5.233438227492278466e-03 5.639944681768621626e-03 4.397718754055891521e-01
8.484391532893358068e-02 5.746797955193917035e-02 4.574509399378412500e-01
5.644977349755687934e-02 5.982162468446217823e-02 4.526916990576901889e-01
2.954373604283525283e-03 4.926690329991369882e-02 4.451108276753364956e-01
4.993545534874605646e-02 3.518073253181248222e-02 4.489061852102050887e-01
5.002510771510902676e-02 2.348440649760059201e-02 4.498907764761828632e-01
5.689380034019840549e-02 5.881240667456765631e-02 4.506768851836031042e-01
9.659418597538267648e-02 3.819335265233164689e-02 4.613995337991715906e-01
7.923302315716578004e-02 7.264136265421087049e-03 4.970971441474837937e-01
-2.781009268734653539e-02 4.875376060351772900e-03 4.428029505378363040e-01
-1.548663274696879429e-02 1.101674905317442422e-02 4.417738690742750163e-01
7.970306837767178465e-03 2.341096284897307284e-02 4.422155679772922232e-01
7.948094708805047981e-02 5.750674832986273771e-02 4.558725376967677767e-01
6.858773405541751522e-03 4.719682264578253100e-02 4.446064684639734477e-01
9.568043442794846309e-02 5.329745009182234455e-02 4.713725100142673874e-01
9.925094810882954810e-02 4.249137200329748676e-02 4.610655233996213687e-01
6.675045498815264378e-02 4.143298789776733715e-02 4.507970582321970121e-01
9.020300072293220561e-02 2.399813732069092792e-02 4.660439431292824342e-01
6.074303935196557341e-02 -1.218926679523370249e-02 4.647451433195681769e-01
8.624611234255517844e-02 2.065831023563716867e-02 4.996385577938696754e-01
3.739517356325658404e-02 2.919397166975772409e-02 4.468378205925821467e-01
8.715456840994020848e-03 4.916378777067174910e-02 4.449158908220227637e-01
-1.666990966206687019e-02 3.413018308202590834e-02 4.470953064892742579e-01
8.175650268929582354e-02 1.327437873372778500e-02 5.019875295227329559e-01
3.940620378781219818e-02 -2.521895660719623670e-03 4.454315088383853372e-01
-2.782378197631230413e-02 5.145339821042311038e-03 4.429274672747631758e-01
6.294006794832419927e-02 6.022583091399107830e-02 4.548183727019743938e-01
8.195133688684687334e-02 1.776330733450321234e-02 5.065925902004234649e-01
9.779411984293899518e-02 2.504254229741564516e-02 4.798918219186841805e-01
-1.345937280582714356e-02 4.569830514589384024e-02 4.480038258487391567e-01
8.465839952949469338e-02 1.190250515610525792e-02 4.898886884373257478e-01
-1.932307413452027250e-02 2.800163728006442587e-02 4.468325079360591090e-01
1.037108651008980878e-02 2.025263249467382232e-02 4.421275222295622531e-01
7.566994150969984234e-02 -5.839573357746801613e-05 4.829666922591976386e-01
2.044517942071819028e-02 5.070088279108291018e-02 4.455364517284846060e-01
5.862167433574691500e-02 5.085212912867411589e-02 4.480537320668540602e-01
2.960088603221970247e-02 2.211053499943922349e-02 4.450229648979063257e-01
-6.981186490175554996e-03 3.994279726217171006e-02 4.452198167107753735e-01
1.749913409706149291e-03 4.341069158583400756e-02 4.443040052054164635e-01
4.933869045004364573e-02 4.669183986002190673e-02 4.477760988256900276e-01
8.233112310780868470e-02 9.864315710261264969e-03 4.935336905593570855e-01
7.919966589921419164e-02 5.923039799215607665e-02 4.603771413354349473e-01
-1.835686866698711065e-03 5.865991583008545174e-03 4.397901908441701480e-01
-1.988384562150937937e-02 1.020180387909834160e-02 4.431337791541449245e-01
7.577817289452419558e-02 1.738815599124356528e-02 5.155027789050115050e-01
5.618431913154697810e-02 3.960089951938258052e-02 4.490759268971519780e-01
9.595059577382418492e-02 5.288300951319164361e-02 4.721601549476577842e-01
6.875484014935072385e-02 3.362481324410077077e-02 4.535354452388175028e-01
-1.958819711347774967e-02 2.652126974803046058e-02 4.466305103111649077e-01
7.427117195298264807e-02 6.599807307189857822e-03 4.649865858492041037e-01
7.519541954166494846e-02 4.620551927129509101e-02 4.508255081825019994e-01
1.497755110056481730e-02 3.008102698398431099e-02 4.432808561046737150e-01
5.693170332710260212e-02 -9.089039002574059167e-03 5.219467954697727397e-01
2.119395161270009459e-02 5.031089751629248819e-02 4.454844010243547148e-01
9.218114030747254217e-02 5.370574985806448459e-02 4.596576804573783148e-01
2.441289667468123092e-02 6.041186001443587389e-02 4.498126137633817745e-01
5.932420798215318203e-02 -1.156217202850025848e-02 4.621292952625642436e-01
2.305438514662731201e-03 3.977397472686872160e-02 4.439231707384104220e-01
-9.468950356475420646e-03 -8.916842195341246127e-05 4.383740421629624961e-01
-3.581198332308590387e-02 3.382557895571470293e-03 4.439548300095353395e-01
8.094707036192590188e-02 6.795172263573087332e-03 4.733864556950291846e-01
5.380898238487440144e-02 6.129133185915645876e-02 4.539130331478450908e-01
-3.029169391881216672e-02 4.558089144506424599e-03 4.432620481871841767e-01
-1.885770818878595295e-02 3.195929309154589212e-04 4.395490526660414954e-01
9.599256381070370159e-02 4.034711220515307950e-02 4.872545995747846193e-01
9.613125818391089761e-02 5.288642860763269338e-02 4.698770450121990683e-01
6.043317771941054267e-02 -5.050365289682293146e-03 5.160166570344723036e-01
5.868666764813858239e-02 -9.274600082321768357e-03 4.593208244415047381e-01
6.887083848702889310e-02 3.630997790517016821e-02 5.155203309470780537e-01
8.548750670726527889e-02 4.239016129892258372e-02 4.999805934897098569e-01
8.320481740910230795e-02 4.399650314177606936e-02 4.543667117353796248e-01
1.553629048724872522e-02 4.757672980826620213e-02 4.448704623891353571e-01
1.247719239031937211e-02 4.385026507322069278e-02 4.443668576278630433e-01
1.028109546275841613e-01 3.848694544076533552e-02 4.618707978836630312e-01
7.984428737159429690e-02 2.442444866413016891e-02 5.144200544390675756e-01
6.099042250916407448e-02 5.427006793168295817e-02 4.481718604555811614e-01
8.478776665306408944e-02 5.635923422905364522e-02 4.566844308435633049e-01
