7.132153993854596641e-02 2.238148530661775507e-02 5.236179001089181773e-01
4.874152387979486384e-02 4.916817907408989330e-02 4.478635152111120066e-01
-1.726701691568350737e-03 4.592870525106244883e-02 4.450278065052337140e-01
9.519052156542198717e-02 3.075892080074862922e-02 4.638621877497297596e-01
2.650126340440208186e-03 5.278865015285427731e-02 4.468960769377316455e-01
8.371430006867275342e-02 4.002608431316646148e-02 5.040227424027382552e-01
-3.704477263575901846e-02 3.343471666119273659e-03 4.450643523753033404e-01
5.298796047333957648e-03 5.190998205529185477e-02 4.463399073209390888e-01
7.291546428702558313e-02 -4.794014479350314738e-04 4.951322659684823657e-01
9.524788094265512761e-02 3.873816786850144134e-02 4.893857806090637919e-01
6.909823118375654771e-02 -2.248246212043767712e-03 5.004851979479149060e-01
1.684105818634536872e-02 9.640699843936943736e-03 4.421005629036169338e-01
7.509413710260473551e-02 -6.784081950009920522e-04 4.807277838412042370e-01
5.536110060099384139e-02 3.632017923182750269e-02 4.500863337932555219e-01
7.850985347211283938e-02 5.997199715097706677e-03 4.965982690763075524e-01
7.280722125536551181e-02 -4.204957815895346562e-03 4.836978142880001275e-01
3.531459052971989455e-03 4.775344797964690968e-02 4.448009993002075002e-01
9.228449325095665345e-02 2.488037808318491195e-02 4.669715704366171893e-01
6.909540896264947107e-02 -2.809823113590412605e-03 4.997495762967777422e-01
4.776536134373981363e-02 -1.462615421542736230e-02 5.318995272244363415e-01
4.915260407894307682e-02 5.327518414778499578e-02 4.475418085472253615e-01
1.038751871726265874e-01 3.756255088262051844e-02 4.637113031008334718e-01
1.609268325403834937e-02 2.015530605318971782e-02 4.429646607174438921e-01
8.559877446837929615e-02 3.323539684534961014e-02 4.622609181523179567e-01
1.215778664068741140e-02 4.414847353943715524e-02 4.445160982315806697e-01
4.221167598494432460e-02 -5.145293058848140338e-03 4.468592584638312881e-01
9.295721113896976417e-02 5.433170676326445903e-02 4.619313114662362829e-01
6.620880208320792382e-02 1.877885648764510487e-02 4.561056213099535794e-01
8.401168908536391089e-02 5.601429945174027369e-02 4.834791097547906924e-01
1.462709758153490480e-03 4.604096159391930093e-02 4.446778702676910111e-01
1.589099679214464253e-03 4.862895368407840063e-02 4.449697234491292175e-01
6.207524716199879639e-02 4.164141425903302753e-03 4.564819144126394668e-01
-6.603520478628980075e-03 2.001338761290491139e-02 4.420358166985827730e-01
4.200386750568933097e-02 4.180859885387524372e-02 4.476065076261317999e-01
-2.706136548399392869e-02 3.566402402096276181e-03 4.420692669707026456e-01
-2.110121480354749599e-02 1.391416957378877571e-02 4.451198753990088242e-01
9.004987757785623548e-02 3.230251880708026602e-02 4.985706448110267530e-01
2.966966121019392472e-02 1.063928698521622064e-02 4.441325779087986203e-01
-4.196885424271783530e-03 4.067293951237575811e-02 4.447875249481288429e-01
9.092863769010328667e-02 5.843039243322099147e-02 4.615559946378841039e-01
6.226792369140213279e-02 -3.437064849488353883e-03 5.139136975620661740e-01
8.205167588974252024e-02 5.724081402804995222e-02 4.573281246835779745e-01
-2.361963919588291883e-02 1.267609683617672983e-02 4.454839681677142949e-01
7.858633694810945869e-02 4.428122282609433732e-03 4.911300916459049315e-01
9.741079393843565803e-02 2.736173131424310748e-02 4.841031073339205903e-01
8.523589759537480992e-02 1.750269273052992847e-02 4.992813522343965138e-01
7.235602753239225859e-02 5.879507597310399021e-03 5.065759049423567140e-01
8.722860725857083108e-02 3.249141850899373712e-02 4.629775694161096244e-01
4.421196368906878810e-02 2.105594581053080519e-02 4.485286707528177708e-01
7.259328047503292580e-02 5.966026394483842782e-02 4.536142856876204110e-01
9.425840488074527235e-02 2.254263219900314724e-02 4.833716887609105228e-01
8.388325353330408629e-02 5.689350079855626241e-02 4.805758920057597861e-01
7.480062068606682657e-02 6.024877664888071346e-03 4.664883118937955819e-01
-1.139988570797481789e-02 2.596205641323246979e-02 4.440361349752359743e-01
4.828913274830008012e-02 2.393038436022789164e-02 4.496907672637486808e-01
9.472455473214949628e-02 5.600507929325783396e-02 4.640504281172756484e-01
5.818931094797089726e-02 1.778476722569980167e-03 4.545836033862915015e-01
4.229954485252426094e-02 3.601475072072300720e-02 4.478853336890191161e-01
6.343521269965435305e-02 -4.356660183161997768e-03 4.614936427694794063e-01
1.420521680198407084e-02 8.265929608136522895e-04 4.395560910607854699e-01
8.183428383921877158e-02 1.762932074950048986e-02 4.642436783649754872e-01
7.578717147627496431e-02 1.233583560534760870e-03 4.909730463199892814e-01
8.889762316352625704e-02 2.156986633427760564e-02 4.933520025558196243e-01
3.729558531349853878e-03 5.015127562434001235e-02 4.455836602826542814e-01
1.672191386625882653e-02 3.238896595094727104e-02 4.438827695836657927e-01
-1.409939602786986976e-02 2.049865949370505841e-02 4.436256570085738149e-01
7.783207225558209930e-02 2.726665605279956443e-03 4.823330967376647793e-01
6.908464095192519243e-03 3.711550021065599531e-02 4.436741606650638214e-01
6.770866920249113408e-02 -6.246397851988193424e-04 4.636858551370315329e-01
-5.122835375403972727e-04 1.275648807046917896e-02 4.407236691007285212e-01
5.480000818402867152e-02 2.597768067893080346e-02 4.516229354410145613e-01
9.906691198880021587e-02 4.645923695600225750e-02 4.671340847894863146e-01
7.072721921337191131e-02 4.700024080099519247e-02 4.504438840219370799e-01
-3.180670544761080715e-02 5.263884270094203004e-03 4.443715119689342075e-01
7.997569266137998303e-03 1.712763019460140923e-02 4.417704383003501212e-01
2.634886546473304975e-02 3.734759982402754974e-02 4.456239168528681738e-01
8.771086838504633942e-02 3.932665276754524625e-02 5.000273487034188058e-01
4.039642405889319610e-02 2.749236568449785548e-02 4.477295845517063611e-01
8.806168412569020942e-02 5.663198314773086606e-02 4.768239716147820717e-01
2.262462928508947660e-02 3.885485305339703155e-02 4.451687820185227240e-01
6.740790559992344833e-02 -3.881443456162723959e-03 4.664608966487359676e-01
4.523704691077479884e-02 3.043634341421734210e-02 4.487089477616042488e-01
2.344314079566216583e-02 2.644270577514512555e-02 4.441919773137892324e-01
5.635768659934402292e-02 6.110303972103266201e-02 4.560501562352671789e-01
4.622242203395961896e-02 9.111973718467523964e-03 4.485473806429239874e-01
1.287318061517520387e-02 2.047085578517933088e-02 4.425807200426379318e-01
6.998395566638422605e-02 6.013360022940009847e-02 4.569055662562336861e-01
8.762031359591852808e-03 5.041871095244984669e-02 4.454492676466034196e-01
-1.768929972841448706e-02 4.230698835556515047e-02 4.495552606287868680e-01
5.876935122846430049e-02 3.734524387931148492e-02 4.505445788025547738e-01
-1.068488599615211032e-02 4.579674388608620528e-02 4.470176497599634424e-01
4.592264336988220730e-02 4.790654751627608510e-02 4.476893393093498985e-01
6.694907507005559699e-02 5.826390218416988009e-02 4.529025498569249075e-01
6.391832007416937966e-02 3.413371249528546203e-02 4.524699792615141658e-01
9.373893974058235268e-02 5.810902172779296160e-02 4.656465337666905180e-01
2.878482456199734502e-02 2.385633301262975528e-02 4.451210064413340106e-01
-1.518296350531503358e-02 2.490399576366321335e-03 4.397346632969419411e-01
7.828224033680288019e-02 6.811532403509402457e-03 4.700144450134856600e-01
7.678219750733474014e-02 3.417741519439158882e-02 5.155807684406361613e-01
7.016993523097102281e-02 4.699851092268277769e-02 4.503617313124498867e-01
1.006542069340329720e-01 4.183260653389734435e-02 4.621900664975785444e-01
-3.037803705758210498e-03 8.226200502723213237e-03 4.401173100270092120e-01
-1.207044032016951936e-02 5.008027757585155337e-02 4.508986860049545853e-01
8.993898504061156873e-02 2.806317453588150213e-02 4.971358557420945123e-01
7.571755906522933954e-02 9.888267867593924718e-03 5.078766789138179361e-01
8.469748030459908761e-02 3.288562863426185839e-02 5.077576319818883910e-01
9.430979353605214999e-02 4.445627908651240967e-02 4.584585436360406052e-01
6.990241968964733266e-02 -8.368556079103143391e-03 4.921897796908009104e-01
2.766810302014664075e-02 3.505355559698612039e-02 4.456737274723788778e-01
4.784480327855045872e-02 2.924760989819769758e-02 4.494979541628749131e-01
4.285958873329945990e-02 1.927110163528373762e-02 4.481149029145198859e-01
9.490199735107310297e-02 5.430819196910067342e-02 4.683301587312405090e-01
9.225574152288740226e-02 3.305154620834302448e-02 4.948706223701694329e-01
4.268246140104441783e-02 9.935509072248740331e-03 4.471290318770738126e-01
2.384481222655452856e-02 2.488124785948723702e-02 4.442175494446001238e-01
9.345395682228638257e-02 4.089135345140389871e-02 4.601751751761489762e-01
5.154705261221438628e-02 5.200780749370009781e-02 4.478151649571996962e-01
1.084058449342431563e-01 3.274141782955677926e-02 4.707201109560645302e-01
8.935670307416837543e-02 5.811762667589399217e-02 4.719376869622322057e-01
9.349549375204851964e-02 3.770521055655856602e-02 4.917149905803643306e-01
9.493893513519982563e-02 4.837687351379092726e-02 4.861500822451528259e-01
4.295355197946061632e-02 6.206859220554210993e-02 4.493613695080841408e-01
8.738186837916261940e-02 5.633088098131441845e-02 4.778824983157214934e-01
1.071593403565718194e-01 3.892772600604727656e-02 4.699503131076769868e-01
1.589536068357900317e-02 2.751964211847431410e-02 4.432705251678678571e-01
5.807635835616046377e-02 6.060297710858492115e-02 4.558188893864640323e-01
4.346402336246619341e-02 4.197436091886851822e-02 4.477804784249101999e-01
5.031461154273336039e-02 1.595994155777360340e-02 4.503532535691823213e-01
9.423473291105979865e-02 5.526142022657722780e-02 4.708474972575286688e-01
7.841426103601938091e-02 5.617777476030691441e-02 4.524580689980245984e-01
3.500320968797221433e-02 5.303506087010907005e-02 4.466061092200733773e-01
4.203554016085618919e-03 3.118677786881442551e-02 4.431178475427451913e-01
8.934406261917755832e-02 1.585740770774927977e-02 4.839582090895527822e-01
7.812408653281058268e-02 2.002911235544744400e-02 5.147622940746233722e-01
9.491647587729079572e-04 1.921465547165217627e-02 4.415288779503208638e-01
1.059679022029087342e-01 2.929200917808466934e-02 4.741699536910968238e-01
-1.239041070239249934e-02 2.500310655881297223e-02 4.440354968710208960e-01
7.223195553585504136e-02 -5.060633206447820789e-03 4.831371722923794021e-01
1.010968117569683161e-01 4.186889517018241996e-02 4.815745940218715826e-01
8.265531111855432822e-02 3.955600979106354415e-02 5.054710210121331482e-01
9.899769541131392403e-02 2.630422184250636938e-02 4.805845573804481963e-01
2.969516192376545072e-02 3.749650939814411221e-02 4.461548828983019632e-01
-2.932231604434882427e-02 8.769102109846209359e-03 4.476602806978588478e-01
-2.635350542150083353e-02 8.547842848741644614e-03 4.449310497061633729e-01
7.127066928880293473e-02 2.727525375690424692e-02 4.563574696685744336e-01
7.077040654008364545e-03 -6.082966015971240370e-04 4.387832287437367085e-01
9.680274501470698123e-02 4.897924344664029983e-02 4.631761200923265043e-01
5.445030274603928147e-03 6.470847502434626947e-03 4.403740069488925046e-01
4.185697637866951648e-02 -6.834284413003543189e-03 4.467324279929431596e-01
7.103482609478867227e-02 4.923240869572720335e-02 4.499726390440938473e-01
8.834420702367469513e-02 1.532098882245432232e-02 4.734794913804006300e-01
-9.503393916890371523e-03 2.534685908055476361e-02 4.435691042469442347e-01
4.285420728237468446e-02 7.366261689228831809e-03 4.470179050023662670e-01
1.019964017275304113e-01 3.243332823711608803e-02 4.802943576967260153e-01
-6.044542507208055040e-03 4.911802315661470408e-02 4.462448100351523173e-01
6.142557947612412722e-02 1.018927997195276901e-02 4.554179715457415956e-01
8.987495745893628318e-02 2.244732790333917039e-02 4.923081297137328338e-01
7.685262130600303832e-02 1.781828482606440806e-02 4.617528735740886181e-01
7.536033318038409812e-02 1.584485572061986817e-03 4.938662269167173879e-01
7.810729810648167626e-02 2.754009403348991331e-03 4.853371736509197731e-01
7.499295726785178140e-02 1.156063521560762516e-02 5.107941567252638482e-01
6.298371226830816461e-02 6.032949511455564656e-02 4.554511695984589381e-01
-8.523786252401192171e-03 4.470826153729742791e-02 4.462139891179518481e-01
9.390901896084888345e-02 2.959076967147230772e-02 4.905278164424018983e-01
-4.045669591241339569e-02 3.066033267938581604e-03 4.466943913811849964e-01
7.097502373624957339e-02 3.818347620702581928e-03 5.055331771091945425e-01
6.279367408738710521e-02 4.686201460289088350e-02 4.492422995328731461e-01
3.525391475660709373e-02 6.313897734316092913e-03 4.446164832758127128e-01
8.130077469047349015e-02 3.876989195902108554e-02 5.073129386777925909e-01
8.904115334263774939e-02 5.626395829614218996e-02 4.587981546662723287e-01
8.587097618701183821e-02 4.443761830326407869e-02 4.556617643521236882e-01
3.663954141096796568e-02 5.388245139590157329e-02 4.468402627446084741e-01
1.265984918319581695e-02 2.459808276058141757e-02 4.427264905797621553e-01
5.395926684274513635e-02 2.973666216456450490e-02 4.510446967830714637e-01
6.981903241146349137e-02 -6.357429521341319452e-03 4.740363073959609208e-01
8.297720253294875448e-02 1.222766741153375261e-02 4.972939303172644876e-01
4.848140544821600423e-02 9.420370027758919254e-03 4.496084277514960648e-01
1.040618183534494229e-01 3.329348720033307313e-02 4.789090755290064116e-01
-3.971962261379509418e-02 2.552645807557543060e-03 4.424467588132662277e-01
9.594385325668228215e-02 3.229388885876924992e-02 4.886149222104976819e-01
9.259269939894659851e-02 4.404038911669934386e-02 4.576098855434141965e-01
8.045239236065865329e-02 5.524195321287706482e-03 4.857212554504857782e-01
-5.867658574585910523e-03 4.763636534739565387e-02 4.460100343428521352e-01
-4.172495725058728705e-02 2.577988241471430332e-03 4.459551249515912308e-01
8.490371906789186129e-02 3.868720949194422165e-02 4.597353006772947892e-01
8.136495308147645433e-02 3.906808114436012558e-02 5.069555187882196501e-01
-8.794222202456883700e-03 8.119043117241748694e-03 4.401781948627469521e-01
7.352290746080955564e-02 1.371934503988099085e-03 4.969147376736230970e-01
8.372852505374951682e-02 3.794519197506435182e-02 5.055652627428546264e-01
-1.325324104784971618e-03 -1.813861157014885414e-03 4.380706979100448817e-01
1.589005757734371360e-02 3.670153667451915569e-02 4.442049838465268463e-01
8.382790561828018516e-02 5.721267619134161320e-02 4.794420247150517622e-01
2.989840733737082409e-02 4.246710033279527813e-02 4.461243170046365614e-01
8.072897688400476612e-02 3.794474265179782757e-02 4.590319450124632494e-01
8.597083758163269473e-02 1.437761421124932049e-02 4.914275573396060803e-01
1.692888794105882125e-02 4.242749558291131207e-02 4.446510361539666167e-01
7.942034794138567999e-02 3.927098088410833215e-02 5.079588275386019980e-01
7.331713024659670952e-02 2.196472663515221940e-02 5.213876205709701006e-01
5.163030019626634742e-02 4.123231582565457104e-02 4.487594817600574215e-01
3.031256594583302266e-02 -2.922483903359258083e-03 4.416750557984266967e-01
7.262833092675663460e-02 2.338843352227642017e-02 4.576222937347619313e-01
8.783410326723174733e-02 3.469509639362854808e-02 5.021264609696906023e-01
6.624943469026881027e-02 3.495863659476165786e-02 4.528684621553201173e-01
4.258847744716728195e-02 2.786180410204969551e-02 4.482730335516132425e-01
3.158378097278842500e-02 4.113343196724376927e-02 4.463642865311490127e-01
9.580150196327999468e-02 2.318720944315520727e-02 4.778387696442980559e-01
2.272970755206244788e-03 4.117249231558769984e-02 4.441677692631680885e-01
7.821453226859148566e-02 3.468460751720063399e-03 4.889234841449648927e-01
6.599348137593066821e-02 1.120671275155566728e-02 5.219789610632398213e-01
7.032480454202709452e-02 5.597970986040842756e-02 4.506626828078996172e-01
7.967295513062264134e-02 5.632578405225926316e-02 4.537706543832433215e-01
5.217345706836858804e-02 2.580855869219016163e-02 4.508157854117351704e-01
1.596051822314774327e-02 4.553711349907550721e-02 4.448702465059629629e-01
8.254688268404518359e-02 5.024380645650095012e-02 4.951212597481542965e-01
9.936888421741636029e-03 2.611340017469223132e-02 4.426715659462996943e-01
4.351583282365316385e-02 1.131335544217640723e-02 4.476322533664723879e-01
8.759871723827428180e-02 2.412127307521129069e-02 4.991067983204224290e-01
9.780118370415058493e-02 5.087366682611776936e-02 4.717591475656409683e-01
6.196889348201136544e-02 -1.273104514500149852e-02 4.671096847710561883e-01
7.292550540153461269e-02 3.963212048230719403e-02 4.539767835565557963e-01
1.702693715259625054e-02 2.298495326805173600e-02 4.432270991742319199e-01
7.795334403028530978e-02 6.780084180036148774e-03 4.695721100544211213e-01
4.658225788544902851e-02 -5.621538409603617226e-03 4.491081514166787580e-01
9.105762992955902801e-02 3.362793041953088952e-02 4.631481774791521011e-01
4.130648989494026257e-02 7.591187333128962024e-03 4.465401976497927472e-01
9.953454799393678110e-02 4.116021141833610397e-02 4.607360384111327534e-01
8.388913354994964600e-02 5.514348003036353973e-02 4.555251824360800339e-01
3.469822944790679209e-02 3.073363516221156062e-03 4.440800933173474907e-01
1.097644202459736595e-01 3.291821581687733034e-02 4.735969105305165017e-01
9.001761707093697273e-02 2.427913629812433055e-02 4.934591870173661854e-01
-5.144711792295308950e-03 1.749881860700396724e-02 4.414536768742377548e-01
1.587476702349909993e-02 3.631975296307962675e-02 4.441658867952109069e-01
7.726784076511483690e-02 1.873385050544026410e-03 4.840966626164227571e-01
5.164354016221280735e-02 -9.087348645801913115e-04 4.513917675336314161e-01
3.609897156956642927e-02 2.842679649392355727e-03 4.446003483221325769e-01
3.286109642356208754e-02 -1.393293488029823026e-03 4.428706165150754215e-01
5.531990384722332288e-02 5.444879163628474350e-02 4.479720851199469056e-01
7.146870505068483870e-02 3.252229571088831317e-02 4.556329313086465160e-01
1.023861677207996285e-01 3.602202886952714928e-02 4.636198948290624622e-01
7.132604311502627192e-02 3.478593035637722597e-02 4.549701067768949780e-01
5.582263898788554501e-02 -5.291993376881055922e-03 5.224506425476804772e-01
8.133677950040689442e-02 6.833298281787406579e-03 4.757823671237931262e-01
8.134592027262303737e-02 5.747257138647980657e-02 4.573249967451596398e-01
1.583542714255781886e-02 4.758733216990940207e-02 4.450320018211906259e-01
1.082396601499615446e-02 2.263260681174442124e-02 4.424442417122826376e-01
6.945642231642794318e-02 6.019854745222935621e-02 4.571576558069447294e-01
7.325895275273798524e-02 -7.969706883250778518e-04 4.723354566916365682e-01
7.787553710690298114e-02 3.637358720699897241e-02 5.122086550073733369e-01
-7.163540220401410155e-03 5.088676611328644267e-02 4.479589224326029906e-01
4.574573392291303442e-02 1.948669011068298110e-02 4.488854466314491920e-01
2.132320946153281466e-02 5.803146336032126429e-02 4.479770687881350910e-01
7.850230604737681861e-02 8.839582132504065354e-03 4.682961161397968808e-01
2.805115057659856095e-02 2.747691497739276553e-02 4.451161606580453234e-01
8.688034526405692681e-02 1.688876794939833670e-02 4.920644866147347307e-01
1.838856905299168787e-02 9.420280943817459576e-03 4.422398318209307955e-01
6.785192869133112314e-02 1.109993218951664529e-02 5.196950942476739055e-01
1.007368009130449465e-01 2.682077435625571452e-02 4.788536318244530077e-01
7.473680768101527427e-02 3.510483123187349563e-02 5.163365035358205013e-01
9.313653528113846614e-02 4.873399540688358456e-02 4.581276747349119494e-01
-2.624794636866849620e-02 7.709922116255530505e-03 4.439140053760217142e-01
6.210071385842248770e-02 -1.228043394318046808e-02 4.668676071400946204e-01
2.574205753368537936e-02 3.741553372007271061e-02 4.455340702078275372e-01
8.234277011373966615e-02 5.773138042704498152e-02 4.758672987553731470e-01
7.602594793666617168e-02 1.531272477729978682e-02 5.136381722682203943e-01
8.626838299612558936e-02 5.185999894902787455e-02 4.914988694131403046e-01
7.757654003492940598e-02 1.099850842130207021e-02 5.066449838589006660e-01
7.841085496458845283e-02 3.461025476661354870e-03 4.819244539497536950e-01
8.591382597817193156e-02 1.308609214733230663e-02 4.894525991385114128e-01
7.727260696245201455e-02 3.730295388250041283e-02 4.576117083065684987e-01
2.840911137793749458e-02 1.970246458938160888e-02 4.448030876008399748e-01
9.944828439728310709e-02 2.864477438277183291e-02 4.674940011041107124e-01
6.893736215946308366e-02 -6.406587287718863537e-03 4.716872528549584942e-01
8.865794380513553063e-02 1.811584092038674015e-02 4.894844558654586897e-01
5.847170665458015920e-02 2.011937118250978207e-02 4.530817468079089694e-01
1.335972465968644253e-02 2.617624647586507675e-02 4.429153847201511840e-01
4.819663881159981511e-02 2.567917819411044342e-02 4.497071186061931680e-01
-1.667873339192509075e-02 3.473054924069586546e-02 4.473385256805556542e-01
-2.077052211849609795e-02 1.806211128479463801e-02 4.461104949797685681e-01
8.566321476898566822e-02 5.432505280919983776e-02 4.878002108456763186e-01
6.591883450082242080e-03 2.739951323144680997e-02 4.425573678297971547e-01
6.058541984740720837e-02 5.250772773432666601e-02 4.484541507387517223e-01
7.790026955547225962e-02 1.202719367873035863e-02 4.646809817466894810e-01
-3.224453182259661571e-02 5.574377204221589444e-03 4.463757437287008689e-01
6.183831715402100804e-02 6.972161243730718924e-03 5.231752660079060924e-01
8.995284427736099930e-02 2.734070505296212761e-02 4.964062594133087369e-01
-2.511453707726726825e-02 5.098171250354499584e-04 4.402598260651308104e-01
6.759425875463861977e-02 1.655720062487726213e-02 5.242416028419698559e-01
8.268058428429857221e-02 2.535543772723506534e-02 4.619830590610021770e-01
9.658265955478172182e-02 3.232006458467862053e-02 4.875417884048837691e-01
1.018719530682804797e-01 2.614496942935039259e-02 4.730891508422172542e-01
5.031990452552496246e-02 -1.336064226351553128e-02 5.295419543802436513e-01
8.894198103502655439e-02 5.693855979398004113e-02 4.755946761462751526e-01
7.800493417546079666e-02 2.769537199182884896e-03 4.839645147087131005e-01
-4.513034544599548586e-03 5.352184604237282886e-03 4.397934326510301584e-01
9.507665707390730581e-02 3.872203293662876411e-02 4.896120101549587544e-01
8.381055083167798792e-02 1.035583332139168936e-02 4.894648004466239377e-01
5.912138064798332440e-03 3.731476035595056306e-02 4.436657816220949124e-01
4.396213272891037749e-02 5.605952864785198470e-02 4.473949659217936192e-01
2.459730915806450716e-02 4.921775030115353722e-02 4.455893879070967900e-01
-1.550532107684445167e-02 2.916332846257468914e-02 4.455076650760037005e-01
-4.430577312018799466e-03 3.930847223910265142e-02 4.446470596654779617e-01
7.361001294347982449e-02 1.370875401738510385e-02 5.151201501408947392e-01
7.078962713404875207e-02 3.297102987915323004e-03 5.051371693351689451e-01
3.379900264477364580e-02 4.831098806916907934e-02 4.463051758324742546e-01
8.579535218759782103e-03 2.010234752157819688e-02 4.420882258348468041e-01
-1.023225181591803055e-02 2.098743860593261373e-02 4.428225182058125320e-01
4.933258510493342130e-02 5.721241991708830854e-02 4.477506661786280762e-01
7.307327571444753589e-02 5.882182222572884117e-02 4.522770721252837856e-01
5.882311160949885848e-02 1.562531963903453919e-02 4.538535247593952215e-01
8.150548869889730208e-02 1.251738319861278592e-02 4.679695685376427106e-01
4.210131882492413116e-03 1.658023478243203074e-03 4.392161541460675167e-01
4.478487476206424733e-02 6.804704269725852725e-03 4.477814437382958146e-01
1.315876698127673577e-02 4.603975182542921485e-02 4.447892986748357980e-01
2.329993277396847154e-02 2.679961223911257046e-02 4.442087666297112603e-01
9.204095104431156416e-02 3.999298172668147577e-02 4.931611249933643415e-01
3.928520385761827272e-02 -5.066573012259894052e-03 4.453180300318616558e-01
7.711644358685443290e-02 3.109071113000068647e-03 4.921719515019457591e-01
6.919870700153761545e-02 -7.300343472876325707e-03 4.962012157234327314e-01
3.665248486831129953e-03 2.216313878349616615e-02 4.419530670680495987e-01
5.125514773294585769e-02 4.800887337672885002e-02 4.481557692650344760e-01
8.427377902206557858e-02 2.464732502736348418e-02 5.079546248157701394e-01
7.775783755606209546e-02 8.821868441358215671e-03 5.037132895596223570e-01
-1.336269640732448694e-02 3.463734244256647110e-02 4.459899693546955368e-01
3.965704780234505927e-02 6.434445444975703254e-02 4.508933838678864103e-01
8.020105730901580521e-02 7.232609073424445430e-03 4.955756607043200201e-01
1.452036541392968082e-02 7.881723474555207831e-03 4.414436909235739392e-01
9.544991234981863026e-02 2.362759560265976014e-02 4.828861394858634526e-01
8.969659120401962671e-02 1.645839912549746514e-02 4.840745546115158837e-01
4.744498522855176981e-02 2.132717275073863633e-02 4.493976889932369545e-01
4.549086628383487534e-03 5.460913358944648188e-02 4.476716119339725353e-01
9.747151208113127852e-02 2.476481038212136054e-02 4.702634833713640883e-01
2.312900343697623859e-02 2.228068754824136244e-02 4.440661845468507063e-01
4.970015980013971213e-02 6.054646319852630132e-02 4.494982977390108991e-01
-1.201230198053308135e-02 3.757169834608879017e-02 4.461520241935985620e-01
9.230094309735673019e-02 5.140132765853092783e-02 4.580493919628998434e-01
7.158921317740149504e-02 -6.778639299106164681e-03 4.855373929125080812e-01
7.717164023136208195e-02 2.736830654476811280e-03 4.753074059599843304e-01
5.024337343741659689e-02 6.192872970973345437e-02 4.524140940842295011e-01
5.063104407564580911e-02 6.190064981118820892e-02 4.527701635629407528e-01
4.947152579612757589e-02 -5.992437197247060462e-03 4.510396265462480736e-01
7.574177471152007679e-02 4.931014133657033588e-02 4.510378452172024710e-01
7.938845100507095631e-02 1.104307037189745239e-02 5.039301591254111701e-01
-1.117236563558618445e-02 1.506753742123514983e-02 4.416737228984225494e-01
2.048675419843139223e-02 2.891519402174717868e-02 4.440249261038061168e-01
8.196073863324958297e-02 4.680689080549070569e-02 4.530170285406787123e-01
7.559794117280378700e-02 4.573893761402771790e-02 4.515555615963147695e-01
3.939795973317322675e-02 5.650552872981645658e-02 4.471606512621433827e-01
3.869573674357416199e-02 2.983546945838517692e-02 4.474017009395618860e-01
6.393412261580631861e-02 4.833318306199395342e-02 4.491765217400769949e-01
6.508837713403853309e-02 2.459739000169618856e-02 4.549315948003150867e-01
5.524721504647874676e-02 -1.677137407880751078e-03 4.536158921722272530e-01
7.411233692757945857e-02 3.585139291922254112e-02 5.149033828863703866e-01
4.554089043596225989e-02 3.311415115086379507e-02 4.486143742647547561e-01
4.509068078709824873e-02 3.787764300847332177e-02 4.482812324159078377e-01
9.081011224152170380e-02 5.397226586726509151e-02 4.587378600692070818e-01
7.129489257267727920e-02 3.610265713977680452e-04 4.997141347852914195e-01
5.452426032705563752e-02 -9.751341909293175653e-03 4.559743469311661190e-01
7.086205076329404884e-02 3.389752723890292890e-02 5.206564380389143709e-01
1.465258792663240786e-02 5.373525557367818395e-02 4.466299382105879401e-01
6.101570621671047884e-02 4.793058497647184613e-02 4.489782416216966943e-01
-1.530186162592065552e-02 1.218642080692683254e-02 4.421968631967972407e-01
7.222170795101179319e-02 -4.681751798445892357e-03 4.878045239673171607e-01
-3.490084238138069228e-02 3.454955424895119961e-03 4.437644688395587789e-01
3.282057269737675975e-02 6.116835093685192570e-03 4.440837146449107542e-01
3.839676057210395649e-02 3.815205915688424376e-02 4.473355493718251252e-01
3.447938894547630806e-02 5.025639014818923146e-03 4.441964248985295627e-01
1.002691500713106393e-01 3.250591564263879962e-02 4.822541973181121433e-01
1.090092092783884747e-01 3.484526525074407854e-02 4.745096997452947774e-01
3.777306616009742934e-02 -4.360898180969829604e-03 4.444655335960807641e-01
6.249848341407809177e-02 2.084365452164438186e-03 5.181802607007326422e-01
3.578842096498380948e-02 7.863359245307148179e-03 4.450197564236015868e-01
8.236026384728760419e-02 5.570876866749129713e-02 4.862930729998146684e-01
7.354149680146780665e-02 2.211264656235183146e-02 4.587266869378490708e-01
7.702613970262696397e-02 5.768461524645909083e-02 4.539932050184087298e-01
-1.237568532320344793e-03 2.518681638434612513e-02 4.425381830244247694e-01
8.048214864425952408e-02 9.429540241080589663e-03 4.986949021364436851e-01
4.583206998781026720e-02 2.097386346477025584e-02 4.489477982958937630e-01
8.233217904855781588e-02 2.289373043808983280e-02 5.109525427086457627e-01
8.092257666393565252e-02 6.135207241495773192e-03 4.829985814784265030e-01
-5.255163450378215820e-03 4.675078634687113155e-02 4.457667604793374427e-01
7.390773793152642657e-02 8.966615967378192137e-03 5.090953109608210569e-01
5.548335542935567410e-02 -7.240595677487872070e-03 5.232994472473008196e-01
9.188241222603550640e-02 4.423791617785128444e-02 4.573658095344387831e-01
5.018677745781273403e-02 -6.873329576230383792e-03 5.272988660529280835e-01
8.223170025900754243e-02 1.626439388877511799e-02 5.052882367651208018e-01
9.105900906710157061e-02 1.959564858544781893e-02 4.862413592903713222e-01
8.982025315790093112e-02 5.768254329233461764e-02 4.736247394578694259e-01
5.428001689434066440e-02 -1.424992678550898208e-02 5.263021366228666231e-01
2.419997375614772912e-03 5.178169339646965241e-02 4.464284108664205442e-01
6.385920404178935250e-02 1.971104175267925432e-02 4.550853011063221154e-01
9.410806460378307037e-02 5.269945805113685627e-02 4.617396589673565810e-01
5.233239268265654082e-02 4.928031246533529086e-02 4.481207945101670642e-01
3.472351673403303168e-02 4.491109022785357008e-03 4.442014614606816236e-01
4.020657768471466720e-02 4.289532325238819971e-02 4.473093092591059472e-01
7.162140413252525428e-02 2.762068930318339194e-02 5.250366225933746911e-01
-1.553387316156682602e-02 3.624221111901531484e-02 4.471814856391233550e-01
-1.618934397582230331e-02 1.582050254241379808e-02 4.435661815771868022e-01
6.896832747390796436e-02 -5.267396408456451531e-03 4.984891649668802827e-01
9.904811366264122674e-02 4.406164381038076006e-02 4.638030626827926439e-01
5.087489861018112437e-03 5.261840267703075252e-02 4.466884060694898406e-01
8.973539427954610459e-02 1.713862837322015914e-02 4.853818319425395877e-01
6.851621290984402646e-02 1.154449860146385294e-02 5.192566340798228097e-01
1.005072033077019922e-01 4.393013029189481861e-02 4.656479940703728282e-01
7.288693801755236068e-02 5.297814067169172997e-02 4.508540152273869395e-01
9.530026860629622898e-02 4.903903564196092357e-02 4.598976657406516622e-01
7.248373987153730602e-02 1.305581242593186440e-02 5.159713875502985880e-01
8.363698541774276796e-02 4.569665700887232812e-02 4.538440903498436874e-01
7.107663705351328909e-02 -7.681055236915940859e-03 4.866585644612819728e-01
7.438992477611902632e-02 -1.668196697291132215e-03 4.805829457071283950e-01
8.660719046093229290e-02 1.835760482459299417e-02 4.682826578962371866e-01
-3.621760772286392732e-02 -5.472278033270662825e-04 4.406137863992484194e-01
1.067837583213573395e-02 9.077894433507911406e-03 4.412850446612195388e-01
5.572745524228831654e-02 6.044732115241587683e-02 4.538908102546097001e-01
5.204819565854292701e-02 1.890710476700267414e-02 4.509438445767219306e-01
9.103845475659801123e-02 3.231184866715876292e-02 4.969635373921402199e-01
5.709120434555086526e-02 4.214212178497476514e-03 4.534935267861853192e-01
6.886672572889426802e-02 1.813311554063355355e-02 5.240502359718879344e-01
9.755840806143595278e-02 4.007822766259398761e-02 4.861757263437544441e-01
8.588432267564855005e-02 1.421133390196830000e-02 4.914908204864050778e-01
2.116311593367496691e-02 1.132058774103309601e-02 4.427937613174320886e-01
5.051370470852834665e-02 -5.135382946355676950e-03 4.515351168416788519e-01
8.367413916080905512e-02 9.040086711919543411e-03 4.791626219166931766e-01
3.120265103217238420e-02 1.298324259346833424e-02 4.446807467772783684e-01
4.916421158880303344e-02 -1.599803361450609016e-02 5.310517077974042932e-01
4.277149177698229277e-02 5.691327051624775479e-02 4.474700694503765952e-01
9.937980621026105965e-02 4.447075227950364473e-02 4.645655615497226165e-01
9.152980067872554248e-02 4.262033957774074427e-02 4.585827825689512416e-01
8.745201842509899015e-02 2.235002324934428491e-02 4.978146149041067225e-01
1.751247860570742665e-02 5.423130420912568306e-02 4.468332170584949914e-01
8.451533892538319603e-02 2.764239964479911493e-02 5.079601728018294793e-01
6.675994194692624895e-02 1.811150243454094991e-02 4.564855558897761845e-01
2.787347577847613250e-02 2.259144210587755303e-02 4.448947179013430508e-01
8.964611330952416968e-02 3.042563821201478558e-02 4.628536524057482726e-01
7.576348639070998314e-02 5.752594878731823874e-02 4.522419798087410903e-01
6.023979608850869166e-02 7.490779466272639783e-03 4.548967010412243162e-01
5.131258201505915773e-02 4.583787028909105943e-02 4.483661815744815482e-01
-1.081942221925736615e-02 8.478705329557077383e-03 4.404883708418120825e-01
8.153304697354860076e-02 3.742503968619165927e-02 4.598351109734406528e-01
1.552667523900483522e-02 4.418501020007682169e-04 4.396542862643758598e-01
9.352006369592061330e-02 5.602313141572677624e-02 4.631091246917278248e-01
7.676138612060921795e-02 5.941627839027927016e-02 4.601629279742716627e-01
5.306117344893630794e-02 2.904261709752446047e-02 4.508352397397217270e-01
-2.491090830840445372e-02 1.260437097407333951e-02 4.459316462875483889e-01
7.167653033617425729e-02 -6.444969629924672365e-03 4.849774015783860914e-01
3.947210655200214871e-03 2.331796892316072983e-02 4.420618854312374224e-01
6.150731559912378521e-02 1.456467573382079321e-02 4.550738172119293545e-01
4.028809900621020679e-02 5.945194986192580550e-02 4.477173086309578220e-01
9.928667640540711492e-02 3.112800978734089549e-02 4.654661743333129431e-01
6.523466645005839004e-03 3.697242598898006077e-02 4.436435310724390901e-01
7.015874664682461570e-02 7.107870612484091730e-03 5.118018032345228452e-01
1.005886468505081954e-01 3.641917642728439986e-02 4.834627288471191608e-01
1.040891621299569608e-01 2.850193777694664046e-02 4.717387285447546263e-01
8.694974650715023290e-02 1.286132094947149002e-02 4.832876133624904313e-01
-1.637329147305711247e-02 1.208395807453141804e-02 4.425777948049793853e-01
6.565355213092990971e-02 7.497321284337717801e-03 4.581609562409886816e-01
9.811593546426340684e-02 3.910169227062128966e-02 4.855932299679436848e-01
4.967082772228994386e-02 -3.213241024511738486e-04 4.502548169097594921e-01
3.590983232994832478e-03 -1.381355344798842165e-03 4.383919913836312188e-01
7.854720183324313820e-02 2.574659840874535602e-02 5.169880539524245311e-01
9.187087678247707334e-02 5.855272415799517988e-02 4.702755507365057874e-01
6.850654305643370801e-02 1.010541859975799990e-03 5.063752207848848386e-01
-1.294491606160994880e-02 1.351368875449058746e-02 4.417786463327278978e-01
5.842475407402169391e-02 5.628639251017528156e-02 4.490261046811832579e-01
5.829263425927769249e-02 6.089501869069063877e-02 4.561738540608066828e-01
3.242400007840053056e-02 5.028868362220526717e-02 4.461771228181666826e-01
-2.672062950132610831e-05 2.597319451755600653e-02 4.425982432620215179e-01
5.404499330572082316e-02 6.929538837270973750e-03 4.519469484973501761e-01
1.295238034287232026e-02 1.455399750977160421e-02 4.421423492287862023e-01
4.372259532654348968e-02 4.655660201690991346e-02 4.474942293477162103e-01
8.518642260268674549e-02 1.436496071800055785e-02 4.945519002530130437e-01
1.961973486266650746e-02 5.405073482456106831e-02 4.467618134210086245e-01
8.471025236587763352e-02 5.756754793544363591e-02 4.581715798380153748e-01
6.075062096912846321e-02 1.886452505733738835e-02 4.540497329016593975e-01
9.365378186499258295e-02 3.343351427001286374e-02 4.919005246775846607e-01
-3.777030196867493111e-02 1.811336176475454671e-03 4.421577590148450532e-01
7.296720820978115640e-02 2.327994816806251005e-02 4.578606379731909870e-01
7.240078622546351761e-02 -9.556884939251318080e-04 4.953249420036456296e-01
7.053874648679810122e-02 6.907721114886493895e-03 5.110334887687877359e-01
7.309532324895483268e-02 7.705208388797193941e-03 5.083964825442395252e-01
1.029367541233506961e-01 4.244327591731062582e-02 4.692451882035678090e-01
1.036363668250227764e-02 3.099571958876281771e-02 4.431173439719368612e-01
9.327293054935892336e-02 5.640150010797214536e-02 4.711844236241223283e-01
8.422275368660940564e-02 1.819100718214835058e-02 4.660195875405840349e-01
-4.178576875406837809e-02 2.609081024348459520e-03 4.439443423071435246e-01
5.511463642173008992e-02 6.124950387506136046e-02 4.553012367623522350e-01
1.478267064674922138e-02 4.720438435423017498e-02 4.449972813168104335e-01
1.587405460130106305e-02 1.531466667709549014e-02 4.425396882650411423e-01
5.933849356021727445e-02 4.495518497558913945e-02 4.491559320602102057e-01
1.036364449806101706e-01 3.039983801096016180e-02 4.682154194051124652e-01
8.706767737163569054e-02 3.002649160189954994e-02 5.035882761043318778e-01
7.856589326802586315e-02 5.296604646262394189e-03 4.949043189847563973e-01
8.745163512352385760e-02 2.311858445441223806e-02 4.986271068872660805e-01
1.003225011662127603e-01 4.004134495113386566e-02 4.617085717947970180e-01
2.015431461434500152e-02 1.104496825496859361e-02 4.426330242305297480e-01
8.592602782998096100e-02 2.560150984499813542e-02 4.633793685139490082e-01
2.659170835216514983e-02 2.590327787688382830e-02 4.447763052858297317e-01
-2.251633332709238738e-02 1.222118573961362108e-02 4.448676789026629330e-01
1.050234970783647630e-03 3.474878531875078003e-02 4.436247480537787169e-01
1.035525216651459052e-01 3.655901544409084075e-02 4.641290878177049550e-01
6.387947693192826126e-02 -6.398442405015001416e-03 5.095202734031304415e-01
