1.266553121758929104e-02 3.443375173718163373e-02 4.436328075339679988e-01
9.754615645780603805e-02 3.090587110160556913e-02 4.643272947853570032e-01
8.728138382522949990e-02 1.253391607305383119e-02 4.772906154133049750e-01
9.788694180868973138e-02 4.952365693631170102e-02 4.756852510662665234e-01
8.371319524013721980e-02 2.438743995986047269e-02 4.626770107454720726e-01
2.202451077843855382e-02 7.364358232273366875e-03 4.423444514798955396e-01
8.714231517703614760e-02 4.363941149469374725e-02 4.980922517351633050e-01
2.370931935687101838e-02 3.494475248028489078e-02 4.450199768052940930e-01
3.561749441998406963e-03 4.215629746131542566e-02 4.441769549198484324e-01
5.262496481160667400e-02 3.032518394530932249e-02 4.504858370623000541e-01
7.958236421919333281e-02 5.788791802598019023e-03 4.931862633714612087e-01
2.879617084699969895e-02 1.983684727595402819e-02 4.448619001660852890e-01
4.992678987485707487e-02 6.075995676058222605e-02 4.495648072354057612e-01
8.680711532764072424e-02 4.434519201299756685e-02 4.980575863237177714e-01
1.025152503585260999e-01 4.134250460278927897e-02 4.796770494283200126e-01
7.611213882356304694e-02 2.798767755725620893e-02 5.201564392539771431e-01
2.049670050345108949e-02 7.084270266974633523e-03 4.420250973128542205e-01
9.862751351233889352e-02 4.532320045965500949e-02 4.828923079217570802e-01
8.629536149128871902e-02 5.647223479803484270e-02 4.781230811000545255e-01
9.796653839361833815e-02 2.352099510662514215e-02 4.726371698288708845e-01
1.394679603128936608e-02 5.438312675292608644e-02 4.469392703284945090e-01
9.415577393991403365e-02 3.368395634651503989e-02 4.630483634081721811e-01
9.722319721012069593e-03 7.655092565085848400e-03 4.408915468517575764e-01
8.288274718419190445e-02 1.250436162083587432e-02 4.983760707496433517e-01
4.119034286809002826e-02 3.460310951904017190e-02 4.476828159434491639e-01
8.032992893634650911e-02 4.493700475879052608e-02 4.528176702639765683e-01
3.021681575549784934e-02 -1.957856224745746325e-03 4.418141652033862887e-01
2.685713075865581168e-02 2.750259120048358097e-02 4.448536313218778848e-01
8.818408941693908765e-02 5.347752321274646531e-02 4.559886620760801867e-01
8.045586547143583622e-02 1.061166490149445009e-02 5.011495196219017956e-01
3.402015764191693159e-02 2.221673174321498953e-02 4.460775404941695887e-01
-2.047366925522470585e-02 2.667053924562605080e-02 4.472129451946712519e-01
6.584432302074053056e-02 8.897518777504817566e-03 5.203501677842903295e-01
9.152555619219206184e-02 4.687888546239676879e-02 4.567591685420274716e-01
9.750872934443220730e-02 4.978696571544606597e-02 4.769989870036174806e-01
9.252636176679070179e-02 4.214082189346127216e-02 4.915843305748016645e-01
-1.644316264157026641e-02 2.987791994441907004e-02 4.461161220330190913e-01
-1.254347843085280335e-02 4.365586704295500164e-02 4.473292856760064939e-01
7.773689749151457828e-02 1.430544295161374768e-02 5.104244282667934618e-01
5.666903686410093566e-02 1.954782934382171683e-02 4.523532975844205550e-01
8.645932214300137975e-02 1.182629519543596484e-02 4.814611346666474168e-01
7.089167934465091803e-02 3.489755064269891432e-02 4.545301808305977076e-01
8.674988084345820749e-02 3.183225597312990679e-02 5.040044242636320115e-01
-3.039698273105105250e-02 6.503007779688816867e-03 4.458934140230097487e-01
-1.056104917735077586e-02 3.326126818631300330e-02 4.450537086455180202e-01
7.818240527717300326e-02 3.244353018311200813e-03 4.887257159668123019e-01
7.781601305546881342e-02 2.608857238399648996e-03 4.816229424404253612e-01
7.124710770616368705e-02 2.012050781716999762e-02 4.580713484752280129e-01
5.706112725059778179e-02 5.183742337551782570e-02 4.481271695806088862e-01
8.252321407818459520e-02 1.147697755152899887e-02 4.699686765179221237e-01
6.506440962986136112e-02 3.674670528387483787e-02 4.518227244115217145e-01
8.081689688951271267e-02 4.076868351131143070e-02 4.565876383383228876e-01
9.869228109469771471e-02 4.745257901694985986e-02 4.671715701922820041e-01
6.742510227075630691e-02 1.022646174390691096e-02 5.195184238731297421e-01
1.860606798261804640e-02 9.559005003541514930e-03 4.422726493584706597e-01
1.001822203823093949e-01 2.517362367805563161e-02 4.745273347588651602e-01
8.851350198473809106e-02 2.413486881562557779e-02 4.965455364737307309e-01
2.476583047347004438e-03 3.622993164221349760e-02 4.436717600135494655e-01
-5.620400707990668918e-04 -6.566918677699414529e-04 4.383874452278025413e-01
3.750752961915296106e-03 5.173865654683037357e-02 4.463380533016063634e-01
8.710874287981071329e-02 4.194828195075090554e-02 4.990303984982285002e-01
8.902018872143380168e-02 1.475875188891679485e-02 4.812635111300765933e-01
1.026600239386417923e-01 2.661080334912797885e-02 4.724870661821503059e-01
6.271322525583515259e-03 5.185292695183130185e-02 4.462592539202143715e-01
4.977788743493474083e-02 -4.294008354655623645e-03 5.266985325280679753e-01
8.858178074867517626e-02 1.529387493920080637e-02 4.735784526917020121e-01
8.527238962417271750e-02 2.015904011642576099e-02 4.653597474281210844e-01
1.680601981008289156e-02 1.235573878411097212e-02 4.423394810071359928e-01
-2.891031361129127106e-03 4.870858034017643001e-02 4.455969729817353953e-01
8.225972175619182536e-02 2.710664724836588449e-02 5.113815947349042990e-01
8.445351160430245030e-02 9.644212453027134133e-03 4.783338159505889364e-01
7.505644709497914097e-03 3.145668100144483753e-02 4.430525164838063912e-01
6.595806301519120673e-02 6.386128693085059427e-03 4.586328376978361376e-01
7.277590458977373222e-02 1.223134066770386122e-02 4.609760401799606333e-01
-3.178937728670424429e-02 3.736157339336372736e-03 4.432855425464349852e-01
9.760986322292831974e-02 4.969925760069689169e-02 4.663026272213914858e-01
7.497103048765768607e-02 5.187609253973939766e-02 4.509631705249064204e-01
7.647823453498162061e-02 3.279159668374895947e-02 5.173890808197995073e-01
5.968012066027410939e-04 3.976075778978088726e-02 4.441292098124711152e-01
-2.033587051539257132e-02 3.445241551361620524e-02 4.490821076562988012e-01
2.690478323682275394e-02 3.091013047959115939e-02 4.451903744318623235e-01
4.331738792289034634e-02 1.296724381554792416e-02 4.477899899600685241e-01
8.116229009970088448e-02 1.680829168379249783e-02 4.639428583100202452e-01
6.121012539950915210e-02 1.816824009421781280e-02 4.542263778856563960e-01
2.637989916935187459e-02 2.429643257611318122e-03 4.419906074538552110e-01
8.752708399779353388e-02 5.557007056005303092e-02 4.572644383877281227e-01
8.499359700779333948e-02 5.418997050396228560e-02 4.885109374432947127e-01
8.339627139468440420e-02 3.518553267137165819e-02 5.088158875436613604e-01
7.206330395455315396e-02 2.061952424578922249e-02 5.220721298664693366e-01
1.039614976348602060e-01 4.026210231355089458e-02 4.658450418638819812e-01
5.227644627934828481e-02 -1.623199724873742276e-04 4.515901548917248265e-01
2.444045800669299856e-02 1.502408718440336258e-02 4.435847993920484789e-01
6.971843447453483777e-02 -2.313670649214469386e-03 4.990798780644581378e-01
-1.475405940627512978e-02 3.567304334518739406e-02 4.466637540589418198e-01
1.016052537387976545e-01 4.298053956700304684e-02 4.662816842026740738e-01
7.508559919531734850e-02 3.622088509503211540e-02 4.564851305929296110e-01
8.477824010163921564e-02 1.809007240565554953e-02 5.016995414399982867e-01
4.250285057619498930e-02 3.619349378509968684e-02 4.478403042103752951e-01
8.569576753357163734e-02 5.353762712859256451e-02 4.892319135332887092e-01
5.862679673251149082e-02 4.635404797538491412e-02 4.488077737821039026e-01
1.032216604796816900e-01 3.182129260316919617e-02 4.665322194689257018e-01
7.263075250569903107e-02 -4.309850560159571124e-03 4.808898174111913004e-01
8.727461831536317827e-03 -5.106852968552689706e-04 4.388900830098276251e-01
4.070304324294064108e-02 2.788932885610731147e-02 4.477613003224863442e-01
8.688712291927824793e-02 4.060840328932090182e-02 5.000158851877432031e-01
5.420704446632153978e-02 4.423304163244021897e-02 4.486737739838386752e-01
6.059541875997487281e-02 2.123869880688824055e-02 4.536562644950594692e-01
6.388683458869366671e-02 -6.614939391346470222e-03 4.638907371266555724e-01
7.484509722734025705e-02 4.053242899412189820e-02 4.540770678324543841e-01
5.781553265896910432e-02 2.126700767085771757e-02 4.526438638731685726e-01
3.486156833017309969e-02 -1.527358910034872039e-03 4.436309025434453934e-01
5.026516384183282726e-02 -9.866651619691167024e-03 4.527051189504283646e-01
1.026510867255158582e-01 2.794029411235226384e-02 4.781146333207072496e-01
1.214511280921914266e-02 3.175489140450929448e-02 4.433651742923760408e-01
5.065121738590681877e-02 -1.079755993831271396e-02 5.284792493777498157e-01
9.535943266985627553e-02 5.426756207161632928e-02 4.641172236336866264e-01
-1.188675229946449877e-02 3.821337182491760937e-02 4.461995159914119435e-01
-9.324642690191137923e-03 3.246197755518161199e-02 4.446527723159076628e-01
6.803308306399903638e-02 5.372793801814554349e-02 4.497020862502832950e-01
5.060289914492592522e-02 4.547266819474630323e-02 4.482423875592682627e-01
8.400101712232767304e-02 2.528365325319207463e-02 5.085253135466208940e-01
3.452355910434900393e-02 2.940408520115204982e-02 4.463870886896358914e-01
7.047676435801358830e-02 3.185832442188898331e-03 4.632857890948534618e-01
-7.866442261562599236e-04 1.537354905224704374e-02 4.409816237445682852e-01
9.804373667026647365e-02 3.128281537755472214e-02 4.843923415878612082e-01
6.334953325570481103e-03 1.434162957286897605e-02 4.413556449636383272e-01
9.167517522708373834e-02 3.051224261181095451e-02 4.948430106671594664e-01
6.405893906507380275e-02 -5.466172285357118188e-03 5.096680915837717984e-01
9.421755271195844661e-02 5.497176114798393853e-02 4.732175620811914230e-01
5.415099463342905317e-02 -3.461418104435374371e-03 4.533480578187009113e-01
7.468040541328474502e-02 2.411987116371048720e-02 4.581860367767135456e-01
-9.874676749261178041e-03 2.639427765345999169e-02 4.438329496629569992e-01
7.382281218774269793e-02 3.622316367247507829e-02 5.139936318165959639e-01
4.562450690021084554e-02 5.631880340217308017e-03 4.480681848244148502e-01
4.694159008692129487e-02 5.540013397145283902e-02 4.473318711635356215e-01
-4.594169625017447897e-04 4.463727070032314642e-02 4.446585024294474331e-01
5.076070912972682064e-02 -4.940302436284911558e-03 5.262980256498557274e-01
7.256176518317006274e-02 4.242805357232814351e-02 4.519899617358849042e-01
7.863194199533060647e-02 3.335343123015391958e-02 5.139780532650791711e-01
6.509223688916465633e-02 4.104748829909662944e-02 4.508266828160402695e-01
6.862709567093130958e-02 4.333367094700883021e-02 4.508995834003691749e-01
9.891231290639894425e-02 4.215783170125892571e-02 4.607670476759573308e-01
-1.328986189135616253e-02 2.707384113976327167e-02 4.445207977395101984e-01
4.693725995842091409e-02 4.332010565347878955e-02 4.480492341917399202e-01
3.434616981121374479e-02 6.496901085010882426e-02 4.510806245861041508e-01
4.099766794588569074e-02 2.248514794307481662e-02 4.476760018958996779e-01
7.101335900083542707e-02 -6.972997647300470045e-03 4.809836801673521567e-01
-1.735781654735203683e-02 2.114520720760954334e-03 4.398365000155530224e-01
4.504103819906657424e-02 2.954570846859712677e-02 4.486685014199214838e-01
7.105823287858001325e-02 -6.318231214472841070e-03 4.776054541624962235e-01
8.961723711497471268e-02 3.480058343549351230e-02 4.988902966795232263e-01
3.047888056160184128e-02 5.222168480878483510e-02 4.463880483711392122e-01
1.710838190026030617e-02 3.234167060548152894e-02 4.438914005238203120e-01
7.648314166456961216e-02 4.044433318699509200e-02 5.072054711777922442e-01
-1.794245561010319664e-02 1.204800321466116889e-02 4.431741157862904013e-01
5.809342032524057731e-02 -8.506320603220091439e-04 4.550774841046347219e-01
8.330629918360876740e-02 1.136250865474712837e-02 4.711458316212141506e-01
4.925766917012486257e-02 3.586313565262007341e-02 4.489932268886521194e-01
3.762320062378345792e-02 3.721937611418520142e-02 4.471731517820756174e-01
8.233291905059872406e-02 1.977683535945260959e-02 5.087375559680556991e-01
6.277189976977223806e-02 4.408067025655842963e-02 4.496552137587964126e-01
3.460190845874479282e-02 5.974709951599553419e-03 4.443880807059624183e-01
7.672130017160995463e-02 3.482562378762834449e-02 5.147840962774709039e-01
-1.623961368222123086e-02 2.390792454275313637e-03 4.397985745516816980e-01
3.455470979856290620e-02 5.917456752694429112e-02 4.475032605483014181e-01
3.066630925461459600e-02 -4.475642203542671595e-03 4.414932103301748567e-01
7.037644643019175250e-02 2.285220845659163488e-02 5.247086535498232118e-01
-3.423927968939063926e-02 3.200128755966380641e-03 4.436101553373714146e-01
1.060783743025110748e-01 3.647169350299368784e-02 4.652277020295510490e-01
9.179185861980364292e-02 2.288537767895460623e-02 4.682564266876113601e-01
-1.036102815162219179e-02 3.357743139094760548e-02 4.450817239326263497e-01
3.741196131444621958e-02 6.455503031562510874e-02 4.504856431828586638e-01
-6.730546865002330625e-03 2.190082041325180223e-02 4.423953098063177491e-01
5.322992154329696246e-02 1.045477671876717321e-02 4.515975431038599108e-01
4.670331677347528548e-02 4.765436782991991187e-03 4.485431793220067687e-01
3.551673278004800760e-02 1.775925102535493363e-02 4.460624664351344193e-01
7.425430562210909302e-02 -1.891499175291039975e-03 4.795568568674729026e-01
4.671712531243749078e-02 4.852569708053290631e-02 4.476625977155362368e-01
8.253713417141715636e-02 7.678696616997240237e-03 4.800515840809135848e-01
5.088909579800068167e-02 -9.869559119886154794e-03 5.278447162013987226e-01
2.673758156696819793e-02 2.778687821925470910e-02 4.448570008376370732e-01
7.344704320783564111e-02 1.364121591207030464e-02 5.152979303960022461e-01
8.896896899530976066e-02 5.083921256054773491e-02 4.912132071635647579e-01
6.854777552506845228e-02 -1.433599484051710851e-03 5.029360900202586304e-01
-1.215673495121990036e-02 -1.664493166564929780e-03 4.380064394281524831e-01
4.397796916600718586e-02 -3.701795420744777038e-03 4.475647285746295334e-01
4.166069653776973206e-03 2.342498691410490122e-02 4.420713652988257913e-01
-1.046826921683709742e-02 3.613515736037839488e-02 4.455979202151797991e-01
4.139709024451469765e-02 1.453647699066090357e-02 4.473237850408366412e-01
5.311957546803901947e-02 3.291617400475018579e-02 4.501605515195819529e-01
-5.896350352645594005e-03 1.781541299048844049e-02 4.415781756890698184e-01
7.341305672478451450e-02 1.758856011884870479e-02 5.188045366322601160e-01
6.398327053953367649e-02 -1.582658300002302322e-03 4.600437561541776965e-01
4.968277614268637454e-02 3.301791517359924794e-02 4.493064225804039302e-01
2.052558471950950703e-02 9.317549692295090669e-03 4.424995160031620078e-01
-1.628710755595651552e-02 3.974874463685541814e-02 4.483071079028956296e-01
3.481952308719300782e-02 6.443713894675738574e-02 4.506796797508642038e-01
2.951677416204409599e-02 6.099482011908975709e-02 4.497200542872615281e-01
1.043021923320024136e-01 3.547360875914757489e-02 4.648754371384845041e-01
7.491839551796559971e-02 2.312357041947132180e-02 5.201794652973120714e-01
9.979016883922912917e-02 4.590011784560459746e-02 4.770635678791900758e-01
8.892119062021960896e-02 4.475652277686938130e-02 4.954850789609401840e-01
7.490863266313796398e-02 3.124707572749643378e-02 5.207092015077884328e-01
1.170138764593183639e-02 5.473834627839792299e-02 4.472747017308713602e-01
-1.983644383360728264e-02 6.820242033307552694e-03 4.417253438199388316e-01
9.755730342771337660e-02 4.683271302335839659e-02 4.628694035883966773e-01
6.384865849588657050e-02 3.010034297413566946e-04 5.136051316219570895e-01
-2.560597788792155251e-03 3.759446363551080528e-02 4.441994846192983126e-01
1.985800055999065866e-02 3.462031326890269156e-02 4.444213150024692305e-01
5.870593006346635362e-02 5.717945724439116306e-02 4.493468288757793139e-01
4.341620038523204272e-02 5.933065666350015310e-02 4.478151701477933178e-01
7.559351365794687860e-02 2.630609976499167016e-03 4.711023981337659761e-01
4.212258481367189833e-02 6.712942530447020897e-03 4.467226099366485847e-01
5.568651691833026440e-02 6.061825893964872120e-02 4.542295401891888740e-01
3.363722770261017708e-02 4.131363319963026609e-02 4.465357085991639163e-01
8.698367581779101188e-02 1.238088066786902086e-02 4.810490282740373935e-01
1.841504264461201953e-02 3.574851009610909708e-02 4.443718596462347126e-01
6.954407197057757561e-02 1.714652393175304657e-02 5.225533203532042315e-01
9.738612224429556152e-02 4.713504500529815122e-02 4.832264632406461091e-01
2.998183371862787189e-02 4.768499030213729090e-02 4.458941022532417753e-01
8.703883664884055904e-02 2.924036476322237552e-02 4.625293762382851614e-01
1.154908495631059261e-02 1.042312901501902568e-02 4.415577547820212501e-01
9.565644808100982888e-02 2.288763550221488766e-02 4.811221569346365579e-01
9.702848878538275490e-02 5.120279761914275224e-02 4.663839417010919308e-01
6.178179239206779694e-02 4.804504682920663836e-03 5.217381005966076346e-01
5.892614189143072223e-02 1.112231379403071097e-02 4.540257703299885317e-01
8.430611191692596873e-02 1.621491066360568681e-02 4.673552283358788362e-01
8.576464884538775868e-02 2.673015048338847968e-02 5.055795829469192926e-01
1.063478710068272576e-01 2.982986349252599728e-02 4.752374250147945456e-01
8.039153482732194766e-02 1.062672902365992961e-02 5.013576180418343187e-01
3.310593959171251321e-02 3.110424602279086154e-02 4.462628520552804900e-01
3.218017130625989985e-02 2.410785658454035404e-02 4.457548438483402986e-01
3.791955157364385737e-02 4.508994761534775714e-02 4.467874989342989211e-01
9.653646719892189365e-02 5.136088868548750741e-02 4.643066448043973726e-01
2.739339202470127826e-02 5.013117987556388322e-02 4.458772654062069241e-01
7.970737532061387964e-02 2.169261651203688301e-02 4.619491299181697208e-01
-6.866339897767477496e-03 2.518126415239607674e-02 4.430936671428294393e-01
4.282695397813096605e-02 1.969383333562862992e-02 4.480683859904519006e-01
6.805659561939711444e-02 2.874893017785411925e-02 4.549099567784340437e-01
8.650039812313893572e-02 1.401638101787527554e-02 4.890123482378092024e-01
8.130028208589720751e-02 1.033289408913940811e-02 4.696598639359128025e-01
6.889366058353782810e-03 1.128940673448787860e-02 4.411441218400259934e-01
-1.575873342937477231e-02 2.823352749421592991e-02 4.454222296360065281e-01
3.190108101040168426e-02 4.425932754010365733e-02 4.462137215154501346e-01
2.471060156373383176e-03 2.737644943964221908e-02 4.426869488875508352e-01
6.528054678049485804e-02 8.866903160396927275e-03 4.576038438308068224e-01
1.013024510915837839e-01 4.404266423536935121e-02 4.701364625095699190e-01
9.913091251731895315e-02 2.952320556703954060e-02 4.819474637332492040e-01
6.893265350129430813e-02 1.839483972960619454e-03 4.625939877700738223e-01
1.833075326761939017e-02 6.026573730054379102e-02 4.524208504264086161e-01
9.875741582863944990e-02 4.259367240879573246e-02 4.612731969566302714e-01
6.785303599525413509e-02 3.489361756517848911e-02 5.196720054008310274e-01
9.464123890978472231e-02 4.544924100378718024e-02 4.591884181704042889e-01
4.716877233695160321e-02 4.110370994359474617e-02 4.481946963550844099e-01
6.365406005443767501e-02 5.922192857441476929e-03 5.205196956453304047e-01
1.090825994289839479e-01 3.715827857219457242e-02 4.728758223959624862e-01
7.459341667442333235e-02 2.126725820734370193e-02 4.594591742653200694e-01
5.357971262223391179e-02 -9.312331600732529774e-03 4.549863796984980335e-01
8.698380909663937233e-02 4.362592075522753188e-02 4.563133609802803026e-01
9.677657161347701098e-02 4.942927375412992097e-02 4.631708734254458837e-01
9.821116013522313004e-02 3.193463833512212580e-02 4.843177468730331392e-01
8.021903434020961898e-02 1.298641440751879296e-02 4.658850899779742871e-01
6.865109288744654370e-02 -8.800340408919977986e-03 4.749166145460101962e-01
8.915834285098714340e-02 2.564561925722327537e-02 4.965987359919096789e-01
5.061432059518126969e-02 4.667137049044053909e-02 4.481295906178184296e-01
3.467269944765508094e-02 5.008822971857863904e-02 4.463895853713863437e-01
7.122902096181791230e-03 1.662765688045205609e-02 4.416298656947131862e-01
6.463844090275389434e-03 3.013643929780473671e-02 4.428964432066953005e-01
1.048552037953205951e-01 4.117469090894920053e-02 4.721753868502217011e-01
1.502282989346417734e-02 4.201293427823908286e-03 4.405185155738227110e-01
-5.581579198441254455e-03 -2.344398596378468019e-03 4.378220025471752375e-01
9.147119507807854877e-02 2.737307696057645137e-02 4.644170728607967535e-01
7.861368953364131218e-02 1.022608617331099805e-02 5.043024552682261463e-01
-1.420787458280816859e-02 4.129134180250130376e-03 4.399936152280878310e-01
4.276514751749214971e-02 8.483331788843983395e-03 4.469728009117013290e-01
9.373867787737703849e-02 2.077732723187230429e-02 4.801620239778447985e-01
7.465365450172038730e-02 2.084520887889625487e-02 5.194024055419395047e-01
4.051182660002949215e-02 3.297812250645909549e-02 4.475669713251711479e-01
5.561657309072107203e-02 1.075436421088529770e-02 4.525847021157042294e-01
5.279028313976154817e-03 7.715128047144898145e-03 4.405112707751685508e-01
6.005082943099699505e-02 2.655199027876443615e-02 4.530992350921974055e-01
6.683417931141362456e-02 3.476590590234453215e-02 4.529262889743065346e-01
6.599291543787501324e-02 1.526467172921792612e-02 4.567103317573826260e-01
3.051196187139290292e-02 1.882697418596099986e-02 4.450746397720653502e-01
-1.567546042561895892e-02 1.159242352637275889e-02 4.421180148828712797e-01
6.523468608018716253e-02 2.219677059977272562e-02 4.552198714008626190e-01
-1.713773772117164682e-02 2.509269026231396305e-02 4.454355367639258878e-01
4.348374593105089336e-02 2.530336040669592737e-02 4.483679095308125695e-01
7.838997173682063502e-02 1.124560496996626288e-02 5.058837586730836611e-01
8.786561077568384726e-02 5.336077742438745386e-02 4.878371169296105148e-01
5.565932989635404698e-02 5.654787393386809247e-02 4.485143119753335905e-01
-6.177460664825090882e-03 3.623198039668393960e-02 4.445940242123232466e-01
6.573258626935404858e-02 1.085285293963169501e-02 4.575014907445444368e-01
5.958026681062894570e-02 8.384733313946162586e-03 4.544757141336374651e-01
1.159161709355364077e-02 5.742575174994913462e-02 4.514173217300951890e-01
1.018459475288161498e-01 4.320132754558526217e-02 4.680120633925750062e-01
3.406006509842778029e-02 4.127561332422551715e-02 4.465850049019571277e-01
8.836883585079020886e-02 5.089392530303932932e-02 4.914285890917795552e-01
1.018225811269557746e-01 2.581097538562683591e-02 4.729187178214381837e-01
7.367760727645351893e-02 -2.346654819266596938e-03 4.774399529249124252e-01
-7.077429479225145342e-03 1.810848597950278846e-02 4.417530835075325624e-01
-5.087713406865937427e-03 4.436097071806024278e-02 4.454242868522834686e-01
7.736123862357308090e-02 2.251970554786991707e-02 4.604118649412449193e-01
6.821710330824131904e-04 -1.657608470069212372e-05 4.386012060959880721e-01
4.648227071615457923e-02 -5.249436407692290203e-03 4.489419561299041739e-01
8.488352998872149280e-02 2.664970243978206574e-02 4.619559867106734496e-01
5.430278722132006464e-02 6.883239379747933817e-03 4.520018231293950750e-01
-3.425451945784774993e-02 3.189484354680591563e-03 4.436014865491619830e-01
6.913317919115033461e-02 -7.127597605418283487e-03 4.966645943190245993e-01
3.413276671430594961e-02 -5.002200424497672306e-04 4.435506227896977571e-01
-1.339027723218423095e-04 5.107325095568594070e-03 4.397672437341738072e-01
-2.010892721961095309e-02 2.968806608799830909e-02 4.476772100870357041e-01
2.607077273094111913e-02 4.859416210070742481e-02 4.455512254256099314e-01
7.315735492031279208e-02 5.853735256135503317e-04 4.699975780400302838e-01
-1.962854151778727074e-02 1.598070114524227994e-02 4.450283107539877436e-01
-2.012458734426936235e-02 3.100456637919353498e-02 4.480214983269700246e-01
3.906950431618838593e-02 4.265415655836551218e-02 4.471127692755527128e-01
-4.332113809389890463e-03 7.907183193694988788e-03 4.400516887939617261e-01
9.446785326616086165e-02 3.721706472406313693e-02 4.618918234656259614e-01
7.627310089936531479e-02 1.520962365187947425e-03 4.901485087132798069e-01
-1.035924508610140161e-02 2.145410277919350059e-02 4.429423638291261067e-01
-1.119607577927566114e-02 3.149919222413657960e-02 4.448517391101766139e-01
9.753483063249437923e-02 3.762575788736856330e-02 4.863706341031907021e-01
-9.482802128999635871e-03 3.923842707060687385e-02 4.457864176081459129e-01
8.987363823742049174e-02 1.598513719082582732e-02 4.782383071766362348e-01
7.526687322368608157e-02 -1.075377415344619565e-03 4.849230036622397266e-01
7.249741291492564632e-02 7.680278515778071746e-03 5.094680499545910513e-01
-4.206135010801653057e-02 -1.560346072466318752e-04 4.412028859206153508e-01
-3.365814074120506566e-02 2.652079608129508451e-03 4.431943936917158156e-01
6.909636854993919663e-02 -2.423470912093886580e-03 5.003405870189450155e-01
5.071534146922128394e-02 2.167416226918632977e-02 4.503600059910365938e-01
7.049313615429153579e-02 -6.716705950616395394e-03 4.916702495531096173e-01
3.936617244107734614e-02 5.647854416839081376e-02 4.470925783445046653e-01
7.297858858935127313e-02 2.479524054043764220e-02 5.229066191544172737e-01
1.043023372687683498e-01 3.409473077980717387e-02 4.788680287938830715e-01
4.040090576138009176e-02 1.065393161365234959e-02 4.465334379935687048e-01
8.068151209340364283e-02 3.109660978715312121e-02 4.598175450950007237e-01
9.128808100519424096e-02 1.879518716348265242e-02 4.759636694124853018e-01
6.707199311206379910e-02 -8.327137984568102475e-03 4.704411202144310744e-01
-1.596681537998476813e-02 2.566544847942633933e-02 4.450925118822817717e-01
2.571113407057442832e-02 1.404489064021503114e-02 4.437614565658067889e-01
7.363861925634732075e-02 3.490057562106366890e-02 4.560335032256447318e-01
9.215590861266660661e-02 2.076909163059430241e-02 4.855924839220803202e-01
-3.439661096782402339e-02 4.023665456082860768e-03 4.448148818994897558e-01
2.649624033888686031e-02 4.995762757312244978e-02 4.458003242911345865e-01
7.579809248395774635e-02 1.440127565291117115e-04 4.808486473814527207e-01
3.568767728931378919e-02 5.006841133301445645e-02 4.465104058645957830e-01
7.793828117658897769e-02 1.243926138468914172e-02 4.640320755692945998e-01
7.237957057414547146e-02 -4.218715658301415601e-03 4.776247262577449360e-01
5.743755753580432472e-02 4.995506059812121480e-02 4.483586152114859003e-01
5.791783165840892755e-02 3.218751529920429316e-02 4.513816047744201310e-01
4.748658735960863131e-02 -2.840461202311607425e-03 4.493639739709636705e-01
6.133439642698914479e-02 7.400736690699322162e-03 5.239583881522554831e-01
9.226025218750855128e-02 3.896743127041702587e-02 4.608016899656616761e-01
7.957276083727755911e-02 5.330628858563398777e-03 4.911462708472852379e-01
6.408741429767446374e-03 4.960256496404963356e-02 4.451797350037965395e-01
4.908472576456365810e-02 6.251435815620311198e-02 4.527488313258206110e-01
7.587839142677245408e-02 1.384890025389883678e-02 5.122377855971056437e-01
9.113306320462691290e-02 4.497268011017028361e-02 4.562599932020298121e-01
8.492931747403437148e-02 5.660429399493752817e-02 4.797657858201239689e-01
9.510676772163600967e-02 3.992630238658175651e-02 4.606942567013546652e-01
6.033772012052211059e-02 4.631562150420737156e-02 4.489577658100746271e-01
1.707941954074363583e-02 2.570044188795869190e-03 4.403871571513898742e-01
6.634682876648016758e-02 1.080993560040997142e-02 5.212456292817470027e-01
7.400308244088110374e-03 5.701194649548394638e-02 4.501512176570102164e-01
4.629919529445211679e-02 3.359568635636871886e-02 4.486583019653693771e-01
1.655647698308040927e-02 4.701006371774174575e-02 4.449668880513253377e-01
1.005876897533263675e-01 4.481431121334733536e-02 4.771683103127498660e-01
9.408841757719238474e-02 2.102494982321086517e-02 4.799267998498022436e-01
9.651990748491061367e-02 3.365639356924203518e-02 4.630998208929296145e-01
5.567600333736399953e-02 4.315808755208147725e-03 4.527403315413658369e-01
-8.091822318743993256e-04 1.521297901729859806e-02 4.409624088426927768e-01
2.517045833724654985e-02 5.483915250848879659e-03 4.424255130379186607e-01
7.575887714551929331e-02 1.809625533718350193e-02 5.166266762950680880e-01
9.322934140838168293e-02 2.442990265237859546e-02 4.876906359728976903e-01
4.783427216533422954e-02 5.055100091861891576e-02 4.475768765413672412e-01
3.245231385118260009e-02 4.847434091521659466e-02 4.461135103500338817e-01
7.351021906522026139e-02 -2.622927350666461738e-03 4.889285363820978225e-01
4.383481204833616224e-02 3.776206836999951300e-02 4.479960212325810875e-01
2.257752941685154530e-02 3.319728019044736883e-02 4.447263567307311871e-01
6.555987942695128134e-02 3.514951736358207929e-02 5.209359066028127483e-01
8.971037230556033748e-02 5.713138364564883387e-02 4.741885889553618671e-01
-2.936776699615354508e-02 5.595251829372429112e-03 4.436006826949789872e-01
-3.844719224855575480e-03 5.188410071848164468e-02 4.472259605123689030e-01
-1.027393794309591074e-02 2.041580204367084497e-02 4.426971280975364187e-01
8.355767311296852240e-02 5.708749560583755572e-02 4.797693461456102870e-01
8.562330544498138185e-02 5.746368272858574239e-02 4.769886135446104181e-01
5.833397860252232531e-02 5.006409105271852726e-03 4.539807251005920641e-01
8.631276107537624864e-02 2.469581374951183503e-02 4.637637404408710973e-01
8.173124887567431718e-02 4.964536471548038066e-02 4.958975337455682753e-01
5.489632499924781278e-02 -7.483911620715247640e-03 5.238269902673111655e-01
5.044216063381617987e-02 -7.811719429621435604e-03 5.274446672418504622e-01
4.364071297268044825e-02 2.317910929530955788e-02 4.483641457960014787e-01
5.984113221767955668e-03 2.486390649964578467e-02 4.423007984647073232e-01
-1.698645722045032808e-02 9.768959848125815040e-03 4.419628216794034836e-01
-1.034406569488133427e-02 -1.462991587306587335e-03 4.380486715398220210e-01
2.025530917902604658e-02 5.943042785951120621e-02 4.496542504406666474e-01
3.463245747007341613e-02 1.417308534161548263e-02 4.455761541449029806e-01
9.294088523104165889e-02 4.280008775906844753e-02 4.907230260701468394e-01
8.768963516993345808e-02 5.511920138525167046e-02 4.817057631674686591e-01
7.964481201122776410e-02 4.994308467948853532e-03 4.762926010390228782e-01
4.582659611019168633e-02 6.329560875075843085e-02 4.523438770325400315e-01
4.308763813402088222e-02 4.405395116776457398e-02 4.475139249114603590e-01
9.951406571732124284e-02 3.507963459000505019e-02 4.628164635548789319e-01
-3.801295790920676543e-02 1.936297680029756699e-03 4.422167837819984126e-01
9.652451059881561601e-02 2.580379840747663162e-02 4.840957475614633965e-01
8.657056907256012457e-02 2.104014972126677305e-02 5.001099806658855229e-01
9.104276671727952464e-02 2.680103404373236284e-02 4.645765968905121168e-01
5.512614116916489393e-02 -7.720388531857925660e-03 5.237197952225268738e-01
1.552611264740126271e-02 -3.524538501582377865e-03 4.387795151609710786e-01
-1.801944596735005275e-02 7.140831950506265971e-03 4.414053876275634281e-01
6.564811986748406158e-02 1.262968498085089916e-02 5.234060594984805137e-01
2.317667202059836562e-02 -1.805253801044824158e-03 4.403125013444965097e-01
4.246441934390116774e-02 6.230327323673342382e-02 4.493865494413210038e-01
7.703264954072000688e-03 4.898133581621162691e-02 4.449972725776161764e-01
7.296152511239521743e-02 3.109919858359464721e-03 4.667777472822621232e-01
1.574713186533795075e-03 5.060790251585399468e-02 4.459132926431927935e-01
6.288823077782172699e-02 2.835621781019484824e-02 4.535917869807062353e-01
9.001794407345138638e-02 5.198974190971403925e-02 4.558840817754124530e-01
-8.680506940630829463e-03 4.270341498569724115e-02 4.460140729976827534e-01
-2.481662477305283249e-02 1.355308074061691362e-02 4.463258488536372415e-01
9.698498166550925670e-02 4.534020708469465449e-02 4.609389135774585866e-01
6.936430923714102803e-02 7.791402920907467694e-04 4.642297547029782256e-01
1.190076626853836528e-02 2.244867929038198845e-02 4.425048036434546250e-01
7.057755845330032640e-02 2.826859744154170545e-02 4.557732249965360527e-01
-9.810347172312900571e-03 1.771306829869219099e-02 4.420168444027616772e-01
2.948669248986557703e-02 1.399003802646140229e-02 4.444516057998473268e-01
7.239523279090649688e-02 2.491938744397130187e-02 4.570283568333025626e-01
5.777606925060260051e-02 3.090288523835496917e-02 4.516026540826275082e-01
7.802656034292743126e-02 3.785651050240732007e-02 5.102698873490691955e-01
6.576818970976064382e-02 2.123059439525822045e-02 4.554988717132591458e-01
6.946978833715303225e-02 -7.033688951325896277e-03 4.957411206934406178e-01
8.218724132493628043e-02 1.139495771161570629e-02 4.980011886447636149e-01
9.982174992267359159e-02 4.713445701401345472e-02 4.717182087534211865e-01
9.865153764182782448e-02 4.839648098043742436e-02 4.751005989252169992e-01
6.858320141307776285e-02 4.640542755803012120e-02 4.501050449913123197e-01
1.053228252944008042e-01 3.687489197751968317e-02 4.781104673344783174e-01
-7.238511255747257997e-03 3.048265379538631081e-02 4.441301733479713909e-01
8.239125218337012280e-02 4.967440124342889507e-02 4.956377154799812002e-01
3.808608777567099035e-03 1.891562086830654056e-04 4.388021230516195303e-01
5.238392395057950984e-02 5.655237062859868463e-02 4.479540485545077111e-01
5.049140794125907272e-02 2.982662854440844627e-02 4.500063967118536068e-01
-5.565044184955327856e-03 2.015311559727170007e-02 4.419732926110654936e-01
7.508765972144144929e-02 3.546146295115971958e-02 5.153353993645770625e-01
1.335296978634785067e-02 4.007884436657994237e-02 4.441589795990437128e-01
8.091306061708734843e-02 3.474442380574443295e-02 4.599128538909044717e-01
7.623180024774656172e-02 6.417416915115983431e-04 4.817991253723251655e-01
7.452107062178082997e-02 4.947015382149317318e-03 4.669453028608932521e-01
7.293166640811128698e-02 2.162017215138544932e-02 5.215988626478759160e-01
8.759586731963894812e-02 3.376393247759323923e-02 4.629058623533549577e-01
-2.529302973268842888e-02 1.384132793901865152e-02 4.467791469647368618e-01
6.719498862195201483e-02 3.461274426071461741e-02 4.530758059709091290e-01
5.471917634722411189e-02 5.472231852196336732e-02 4.478141578442815240e-01
8.045598919925206483e-02 5.374026390341447162e-03 4.855144824974405027e-01
3.171140759340770193e-02 5.204931159578156386e-02 4.462945751386885873e-01
3.383078929302531061e-04 5.146680027611200831e-02 4.463853383604411418e-01
2.016138254200915310e-03 2.635214243225116049e-02 4.425492386476316264e-01
8.288162532281061201e-02 4.715187701356101518e-02 4.988772651236096922e-01
7.598962383036809987e-02 3.718117551497768236e-02 4.567323541046499624e-01
4.486187208952081840e-02 3.499110978012701101e-02 4.483102230056525972e-01
8.666057976768211379e-02 2.656664625601993721e-02 5.039536869721025214e-01
5.357263421268344122e-02 3.204784622643445935e-02 4.504132639956898165e-01
5.505071077557569664e-02 -8.424008390002636279e-03 5.239902338478015231e-01
-6.261042202129443041e-03 4.563588473658215794e-02 4.458382255323457555e-01
8.540905637717356724e-02 1.538329619835646089e-02 4.956383657109370011e-01
-2.026759032015086615e-02 3.718164108201102436e-02 4.498351858096505951e-01
9.334517724678326189e-02 3.093804268778312452e-02 4.923642304002894265e-01
4.288963385903275805e-02 6.320636533508111610e-02 4.501429239821223005e-01
7.642854711235093357e-02 5.907052715949403371e-03 5.007657565008396539e-01
9.350322543391018093e-02 4.259662770705870127e-02 4.901663285172428441e-01
-6.543286310194971860e-03 3.989743402152028801e-02 4.452117124920800251e-01
6.881973720405733241e-02 -7.665025111484752643e-03 4.971229489834912418e-01
7.063765941654288893e-02 2.569062705284769210e-02 5.256303517382008295e-01
9.653191686045760334e-02 2.496375893980255778e-02 4.688984489662043620e-01
4.234647056341252214e-02 1.631117358094585565e-02 4.477047485469572985e-01
2.266858843999210171e-02 1.489522451009320757e-02 4.433329597022983570e-01
4.292762190874417627e-02 3.099402242138279712e-03 4.469551814918992227e-01
7.213915578463148126e-02 3.535975145893928417e-02 4.550939837218470618e-01
6.792163899540443195e-02 2.942870657530277656e-02 4.547634936333043720e-01
8.229617898283884958e-02 4.155857789195251811e-02 4.565122959472640574e-01
7.448455962590384838e-02 3.338140611183004758e-02 5.184875995942377358e-01
7.394994548502385745e-02 -1.349125088549047499e-03 4.755703863081562899e-01
5.185654412497331389e-02 2.433551851323412576e-02 4.506608523768785846e-01
8.597281216096372414e-02 2.298572343953411701e-02 5.034675769879344287e-01
9.116009826944034000e-02 5.101741580125332409e-02 4.890500185363195751e-01
-1.452920429972330649e-03 5.067771720274338865e-02 4.461013396567966027e-01
6.304063400492021518e-02 -6.412176006512715180e-03 4.625189649217255616e-01
-2.135250886446497798e-02 6.845767473225152638e-03 4.421148185784469220e-01
9.335354190121782081e-02 3.553924133736368479e-02 4.921447865220102691e-01
-1.807816106209846063e-02 1.848051027899719895e-02 4.448892588997348518e-01
4.193583498748722216e-02 6.432300288933089083e-02 4.522982125911299556e-01
8.991345527711491759e-02 2.000215584416542569e-02 4.895290601531764318e-01
8.788402210265972014e-02 3.427103494651066035e-02 4.629531917673395114e-01
3.482160343902009503e-03 8.454374157436980730e-03 4.404181020388079348e-01
6.534102078990441931e-02 2.015970955638689277e-02 4.554473580389160059e-01
7.069300190862491673e-02 2.099407768448343162e-02 5.236277292095135039e-01
7.627050628607824623e-02 1.105259134297669702e-03 4.781778895403502316e-01
3.173409208882430749e-02 3.703286563810107013e-02 4.464009130810929205e-01
9.402108152323705725e-02 5.122212833721129926e-02 4.598700499855479795e-01
6.581098344749158890e-02 -5.392065632251249324e-03 4.654828328258203141e-01
