8.825070891726548294e-02 2.756001557585967265e-02 5.001156647259277221e-01
-2.856899008453352151e-02 7.702181569094765888e-03 4.464126745638157812e-01
2.867525111168165233e-02 5.865777116393906809e-02 4.478396831895082864e-01
6.427526896669395751e-02 7.867037252102743530e-03 5.214852855699863010e-01
7.509834852715646658e-02 8.514485819881755175e-04 4.750890834609717839e-01
1.032125406748504309e-01 3.967590172543644655e-02 4.631477966971007665e-01
4.465757354307242633e-02 -4.943850957053828182e-03 4.481125262850523261e-01
6.678017586328451050e-02 1.200151939598268630e-02 5.217552265886882257e-01
6.372515480976514990e-02 -4.668545573143597326e-03 5.106099316504559837e-01
6.677759837184549241e-02 1.628685824925401107e-02 5.250204759661583065e-01
1.080022518061793391e-01 3.866886567285410942e-02 4.742312601767467162e-01
3.879202479574956480e-02 2.285576259148638240e-02 4.473649887293307259e-01
6.278115314360251109e-02 -3.544143541237198755e-04 4.582960259817402959e-01
9.276451074041852651e-02 4.518504569739786175e-02 4.586050390210766325e-01
-2.053775857586092810e-02 8.762196036706124125e-03 4.427428190441307643e-01
9.123212165659398687e-02 5.628304686154585179e-02 4.748297871488157962e-01
2.380477665326154613e-03 5.257688179807093465e-02 4.469951940961041092e-01
8.015202764218808118e-02 1.635034587574899292e-02 5.091343048268981430e-01
4.032808130232374416e-02 2.762058542215937995e-02 4.479320628252190239e-01
7.162892317718978774e-02 3.700345912037839025e-02 4.549797781774203576e-01
6.302437370442778852e-02 5.259978159772456946e-02 4.490093698472537587e-01
7.115706320634476723e-02 4.658768420857396092e-02 4.509633752770249027e-01
6.974419909046974952e-02 -8.937903786183722804e-03 4.916661296103562728e-01
1.086652323476017951e-01 3.324081612348107895e-02 4.704370776046546410e-01
8.367845650293222193e-02 3.838893683878303459e-02 5.052550883870881027e-01
-6.907472762277102121e-04 4.863107343833768942e-02 4.453878227674278878e-01
9.253168069374481663e-02 5.244352595870094280e-02 4.836626134394371723e-01
4.798239363449940259e-02 2.836983280398976820e-02 4.498533460169319431e-01
6.727704538457583705e-02 -8.133279962244937145e-04 5.061688658397799356e-01
6.869154070767560794e-02 2.111387317573185790e-02 4.568512080324284019e-01
8.641250311331238887e-02 1.842120674457160129e-02 4.959661756649441089e-01
2.984493052871887986e-02 3.951040972593564127e-02 4.464566622676379715e-01
3.318884201685194657e-02 1.317252023543744087e-03 4.434637653348147968e-01
6.863043241752903034e-02 2.533673419856606948e-02 4.560734300264046581e-01
8.644660321185755614e-02 4.319252934910287889e-02 4.572282039438320123e-01
1.380000111872749929e-03 3.080804396198651846e-02 4.432856695078065123e-01
9.865064844919980980e-02 2.590672003844414137e-02 4.701558652005903283e-01
3.410151328473832316e-02 4.192775803181337385e-02 4.468493075603602871e-01
5.668690840315623175e-02 4.690399421318380835e-02 4.490101424740432501e-01
6.277539176557647704e-02 -8.642526374024138685e-04 5.144537015421760673e-01
7.264545804896839487e-02 2.963052645947589561e-03 4.670823834737188318e-01
7.161774314887330017e-02 3.527307787780738224e-02 4.554087638913335012e-01
7.631773270966242528e-02 4.309182622081298569e-02 4.539598792883808853e-01
8.529874715763791082e-02 5.570894712930429121e-02 4.830384266342525601e-01
7.352951936836914226e-02 -2.521577059855452298e-03 4.791034479517773392e-01
9.555429439959307880e-02 2.298981481849328087e-02 4.750582377312254079e-01
7.670813120160407950e-02 2.006090918100040046e-02 4.613738639400853936e-01
7.723013659139589537e-02 4.347942420710779882e-02 4.539975833900193325e-01
4.284794033609930566e-03 3.151084210680170361e-02 4.432803068276797709e-01
7.001922700052733151e-02 -9.119280044883854019e-03 4.889263830442010517e-01
8.295007880069948936e-02 4.689930890534316221e-02 4.996244050028680883e-01
6.988010225028599975e-02 -1.844275690825393889e-03 4.680955976081039860e-01
4.002249178624464609e-02 3.243880091175536939e-02 4.477659065587558662e-01
-5.163118713181185510e-03 1.971411277451999566e-02 4.419456921914923231e-01
5.221259178870150952e-02 5.500251598893939747e-02 4.480493741973494148e-01
1.151809351329413818e-02 5.202224150388486817e-02 4.462418986420517708e-01
6.481368806357562518e-02 9.513105623810056560e-03 5.221306817203459349e-01
8.896143469684347771e-02 2.619381460048979260e-02 4.972404361623062319e-01
8.374836268881090395e-02 2.113867163479095368e-02 4.645031972427365874e-01
-4.029026575755782075e-02 -6.108983029772146241e-04 4.407524798060656890e-01
-9.490542497074976047e-03 3.870346680847898402e-02 4.458033637972892982e-01
6.050254576585076954e-02 -5.940438529860521052e-03 4.591987561612415614e-01
5.506705428818187142e-02 4.240345752462829076e-02 4.493479156523402795e-01
6.086373124001549090e-02 3.051907455658954896e-02 4.529567810885470336e-01
5.732026015063260149e-02 3.858592975525370478e-02 4.502145315329719177e-01
3.900489833641315740e-02 8.326993753241057616e-03 4.460259801756845666e-01
6.960953192564817149e-02 -7.264580130168227408e-03 4.757027960731345373e-01
4.898071189213604876e-02 -9.528864941729098953e-03 4.518102319460847727e-01
7.435399462923014680e-02 5.945132572238510243e-02 4.600532075505593954e-01
2.730305802561990014e-02 3.328520501483128030e-02 4.456915760817026229e-01
6.764434355995201098e-02 3.067123659547208933e-02 4.549017489630715616e-01
4.457159279310896928e-03 1.690982017544945606e-02 4.415941584513446982e-01
8.763670634077116994e-02 1.346704478810646644e-02 4.787531997303597353e-01
-2.784637929369573883e-03 3.074112808145090456e-02 4.436053789009613557e-01
-2.752466749403117974e-02 8.103222408474209520e-03 4.457081026769350030e-01
8.588025877985360629e-03 5.319553464263172132e-02 4.469971933540167752e-01
9.485005470759328566e-04 3.635785028078321324e-02 4.439029608010535144e-01
4.493919023250673300e-02 -2.000037914825953788e-03 4.481457044386182309e-01
8.988280908959038473e-02 5.282841166130849281e-02 4.572287795221009477e-01
7.094022092888688236e-02 -4.816403951835568180e-03 4.747947917864692169e-01
-1.075374025212363742e-02 2.081020805276500088e-02 4.429281945413897636e-01
5.752058320434379896e-02 -1.035882546134317753e-02 5.218748619813089462e-01
7.527553956176272210e-02 -4.385395763523598778e-04 4.823870708586053269e-01
6.636142386718589525e-02 1.107922430872969669e-02 5.215283007328960219e-01
7.743482418989901250e-02 2.893667841412536981e-02 4.587767303697403154e-01
6.244335356004660637e-02 3.932519546725326415e-02 4.511268224789640735e-01
8.112611044751308342e-02 1.092813556495773365e-02 4.994894017604651903e-01
6.496863218459127121e-02 -6.929766853657273740e-05 4.603084833055287595e-01
8.615381176171664490e-02 1.384657255988256362e-02 4.892760653660674919e-01
9.009541595723463692e-02 3.707038366144681241e-02 4.971917539416888521e-01
2.921140130937199472e-02 2.818281442419286534e-02 4.455521265196543679e-01
3.700214687055234514e-02 5.551809815675364662e-02 4.471268393158933652e-01
-1.973141525475253025e-02 2.870075592140150858e-03 4.402438382354939006e-01
1.003306185693727814e-01 4.434018199753703843e-02 4.666141221009130202e-01
7.427213271120740312e-02 2.477508133564847777e-03 4.698454996367037451e-01
7.099396919948003370e-02 1.927859085108124884e-02 5.227156001097117421e-01
8.822756151013158576e-02 4.949509913001269579e-02 4.555957472517946361e-01
5.182961811590441892e-02 4.316476513919352900e-03 4.511385786902225026e-01
5.470837574189267583e-02 5.422460542033420705e-02 4.482572343034581519e-01
8.492546660610468534e-02 1.112458736930086074e-02 4.871163768090258639e-01
7.655091960543602969e-02 3.560303657080606671e-02 5.141709401261758128e-01
3.708746989873979577e-02 -1.379730366385085484e-03 4.446798596901653799e-01
6.291764709923136634e-02 5.041918406926953339e-02 4.491923136986966103e-01
4.101909582911234670e-02 4.631262920972287721e-03 4.464752033508759266e-01
6.553642309958233880e-02 -6.112234785524062707e-03 5.061978961699189483e-01
8.436393979798197107e-02 4.815306680032783310e-02 4.540667001403180802e-01
-9.419448283645269135e-03 3.625229079949677385e-02 4.454417296664317516e-01
8.666429268080104442e-02 4.755861275262512206e-02 4.956073423546861201e-01
9.996094284596142299e-02 4.211675235822531088e-02 4.630526601782096741e-01
9.363816104916707073e-02 3.289477691743337290e-02 4.918616376996951534e-01
2.980012267735291862e-02 2.455972079131890640e-02 4.455124189795412470e-01
4.170658531336343677e-02 1.703811234914711509e-02 4.478154391636317566e-01
-1.648815843277296259e-02 3.406288749902457863e-02 4.471094910852737581e-01
6.655734624414026690e-02 -7.921967606207556620e-03 4.694818883126420372e-01
4.881680351350207309e-02 -8.138207965495573848e-03 4.511644537311194081e-01
1.447744655080143716e-02 1.806678117151184343e-02 4.427320378547015545e-01
7.093018249074788117e-02 9.169516938481210230e-03 4.614198032631058322e-01
-1.378781866431094683e-02 2.827761119203538523e-02 4.448527159930418806e-01
4.446248856344509753e-02 2.276713979971891136e-02 4.488298585480151037e-01
1.226590823311663088e-02 1.901361677218807444e-02 4.425340632465143420e-01
7.092729143555198679e-02 -1.646190185512883333e-03 4.695795206278257639e-01
7.396872328242115602e-02 -1.710237277260449277e-03 4.892969670126095516e-01
7.031474124206339715e-02 2.868424901520503275e-03 4.639623911371835718e-01
6.616773834009664901e-02 4.422719519619529999e-03 4.597549667934520135e-01
3.402353479922724799e-02 1.553686226571979884e-02 4.457117064992992539e-01
2.828601591728132497e-02 1.933470710415445895e-02 4.448824719375022996e-01
-1.653497438095137897e-02 2.665842830096729760e-02 4.454728155416727287e-01
9.355131238773485569e-02 5.309116034169733545e-02 4.798559442500479055e-01
3.552424985550715897e-02 1.933617482102208476e-02 4.463746106320275464e-01
5.416213500628987848e-02 -6.755302967705659016e-03 4.546049071060022650e-01
4.857842895359588964e-02 2.612956509107836750e-02 4.500508790433742079e-01
9.215151858886798386e-02 2.889887234622291051e-02 4.930401044289819956e-01
3.610285637196128296e-03 5.175987891059837670e-02 4.465416557255926788e-01
6.781249392818122779e-02 1.027562261495943048e-02 5.191686285322404393e-01
-7.025235116626853474e-03 1.201135502775969519e-02 4.406758826715869715e-01
7.176618405965834446e-02 2.790869496565269881e-03 5.024368915490746712e-01
7.080190931143370836e-02 1.223199843502744202e-02 5.171802365655532308e-01
6.660274004457072961e-02 3.521081466177178321e-02 4.532092624769154532e-01
9.353576916390737850e-02 5.537259361248443590e-02 4.739439111320991049e-01
6.506861278571840490e-02 2.366402549988542645e-04 4.601718562984329908e-01
2.963514757114082271e-02 1.969262000436310805e-02 4.451881210159282509e-01
2.202113640053018906e-02 -3.725049703867203913e-03 4.398035514413640157e-01
4.407302698788084089e-02 4.481303350367941279e-02 4.479294719111951428e-01
6.471946938638380165e-02 5.960830031781334803e-02 4.549510288043664974e-01
9.587672773164337969e-02 4.265244603833793363e-02 4.594096129161369668e-01
6.257035020212352305e-02 -4.628037408824755075e-03 5.127367856945083124e-01
1.015246932265926050e-01 3.582881042077359218e-02 4.636492851127421710e-01
1.143200017248927579e-02 3.579102253956771215e-03 4.401598605877989900e-01
-5.046695089924582017e-03 1.000314002334847137e-02 4.402304228706441225e-01
8.554965687569721089e-02 4.008980788315132798e-02 5.019555406096630756e-01
-3.620456895896283223e-02 4.680487414033807775e-03 4.474460426515691758e-01
2.146514502301545210e-02 4.967792252259806141e-02 4.457589791772441634e-01
5.990479449051926836e-02 1.705216170792570388e-02 4.542582613828239912e-01
2.034682545643522189e-02 5.061306720431974285e-03 4.416348641798928942e-01
7.335734494135957851e-03 2.943974973882786464e-02 4.429083809068009026e-01
8.173922389908130220e-03 3.091688481318607962e-02 4.431031529171268191e-01
8.776958056431075073e-02 1.386590673118870756e-02 4.762685698855468885e-01
-1.724184116005682624e-02 2.980579594426227552e-02 4.464792475097856261e-01
8.254546083358156594e-02 9.945367493519709570e-03 4.930217026557623394e-01
-1.469839943405802651e-02 1.984686509619745451e-02 4.437626070477588835e-01
5.877030508694121302e-02 -4.847467673574652053e-03 5.193474377463200842e-01
-2.566003701866924683e-03 3.972515447106517855e-02 4.444730117747469067e-01
8.915576485177643951e-02 3.197227836820223240e-02 4.999084723586256773e-01
8.792823942542855875e-02 1.887885010071231606e-02 4.696779567704162384e-01
4.464610182146327294e-02 6.376184612241279914e-02 4.534451775258377393e-01
-8.868013035636231056e-03 3.326766884790630097e-02 4.447563017926670081e-01
7.083002647809699681e-02 -4.250195485143374273e-03 4.729525653161423815e-01
6.582477532409945764e-02 -1.060044188976863241e-03 5.086637104709105239e-01
7.129977865609948839e-02 3.518724776756176897e-02 5.173808167152073034e-01
-7.339823306699735581e-03 2.296213077154273061e-03 4.390876624997911981e-01
1.002530716913604264e-01 4.500502442477889026e-02 4.713614610300524976e-01
5.194348397268479245e-02 5.772036178541712498e-02 4.488816396425175381e-01
5.297894800163696627e-02 6.124607724626830035e-02 4.541079821603857813e-01
8.478228290027491065e-02 4.569175707799827402e-02 4.546978746247194447e-01
9.450661044659846091e-03 5.800237557909800057e-02 4.533702830546595397e-01
1.825272185204683192e-02 1.026316845609315243e-02 4.424142248403747368e-01
8.441968081927281320e-02 2.981364153544960316e-02 4.619769503590265280e-01
6.879947470296043921e-02 1.181171787475859825e-02 5.192018617563504135e-01
7.889922063891254000e-02 5.891453861838825967e-02 4.592171872666801491e-01
2.113931468138859071e-02 1.392810000944796033e-02 4.431701412667873874e-01
6.822743142295714658e-02 4.334424234295684158e-02 4.513370887894158634e-01
8.014384401937349467e-02 1.410523847601013840e-02 5.065334536713638203e-01
8.104689710182025331e-02 2.752937457380071062e-02 5.132229917087711701e-01
9.763312141299491931e-02 3.968578758471599105e-02 4.860138995236500392e-01
9.587959847308451244e-02 2.349105952104674211e-02 4.765254710651094516e-01
3.399506664661485628e-02 -6.553196343207750262e-03 4.425084561278799233e-01
8.177200682024288181e-02 1.674762266289670301e-02 4.650331292841136110e-01
8.805988418285788655e-02 5.120033195233369971e-02 4.557025052240500917e-01
2.486920307735204089e-02 2.835623740916450725e-02 4.447978248829969616e-01
5.885807207294140898e-04 -3.051078246002927701e-04 4.385730614047387288e-01
5.939536706572782349e-02 -3.684414386906751868e-03 5.186236101398384868e-01
6.459376873767899707e-02 2.060233879172963106e-02 4.555150558726842602e-01
9.788485495102657030e-02 4.638473079223009304e-02 4.828566943355955821e-01
8.957963075652523866e-02 1.615397947155262220e-02 4.833440620407979949e-01
4.297318148432283103e-02 2.216252033019031759e-02 4.484285825808747017e-01
9.798728690807020913e-02 4.851473689179541804e-02 4.681847213608558156e-01
7.639331675747271233e-02 1.243077575036538596e-02 5.100252985848763299e-01
3.760971222230839739e-02 4.855142065317022415e-03 4.453925421789971528e-01
8.481657879007255263e-02 2.205445908793088675e-02 4.647470300671586174e-01
8.717161558727995474e-02 2.513775244080265758e-02 5.013305683113563616e-01
9.766719481757836496e-02 3.294483938345244695e-02 4.855289017662807738e-01
7.221567486611632850e-04 2.009538991251872547e-02 4.417287457086822022e-01
-9.180991656505351275e-03 1.330729874810848354e-02 4.411690413898943230e-01
2.510691821471928986e-02 5.359792526394258072e-02 4.467656472198919260e-01
4.034370397718275991e-02 2.711746006379184976e-02 4.479156107505430917e-01
5.815704524492251032e-02 3.806896821401167808e-02 4.505259034258732864e-01
7.668446638268477944e-02 2.855657587445619219e-03 4.926233457791528436e-01
5.145546161807241364e-02 -6.968791200496964738e-03 4.526639931223094826e-01
7.238285536366201312e-02 -4.514514016300702828e-03 4.822710003180609717e-01
9.153845493608685213e-02 4.529601879716142060e-02 4.921394740289553038e-01
7.815695167505760932e-02 1.412796355137698606e-02 4.637809366989287807e-01
9.318539392735417093e-02 5.371441603398238035e-02 4.776141317631816263e-01
9.201884339280039238e-02 4.350408843858163260e-02 4.919802885669177228e-01
8.715003071292007353e-02 2.352412359430505751e-02 4.997234094726875075e-01
1.909563499525381014e-02 5.335965253096401628e-02 4.467081056663450567e-01
2.784945689077140615e-02 4.234988017487011092e-02 4.461145909173698798e-01
9.564317113002235304e-02 5.311008534238048640e-02 4.704988163754848518e-01
6.567223109621790622e-02 -4.828048198497946093e-03 5.065797463926925426e-01
6.747280466898364359e-02 4.160968135108219362e-02 4.516564606586092601e-01
4.884341961745119337e-02 -1.077769281302095455e-02 5.300508587614221057e-01
2.723524843027287992e-02 4.786095005426886650e-02 4.459294002218824327e-01
7.584341588279275292e-02 1.556837016684371744e-02 5.141892276610757762e-01
9.164655070969533746e-02 4.445424503006886741e-02 4.923346873575009663e-01
9.129565961080384623e-03 8.271708178954104151e-03 4.410634835619797744e-01
2.158524074559120542e-02 1.892468952100653801e-02 4.437970704503592656e-01
3.652706918582189488e-02 5.566259975761896767e-02 4.471088184239833119e-01
2.501776223410511965e-02 4.192100344297028380e-02 4.458009791035793534e-01
-1.079315190231864077e-02 3.477220856232241669e-02 4.455248890702404596e-01
-7.905059755327251136e-03 3.464512951620839221e-02 4.448441365187880137e-01
1.070700861467116655e-01 3.403589047021445685e-02 4.769989714412234960e-01
8.463239776324947561e-02 1.023617907425818443e-02 4.780346856282350343e-01
4.627386324587373645e-02 4.084686332870561543e-02 4.484461610855912661e-01
9.872127718951104192e-02 3.976402604360827764e-02 4.846626505871890478e-01
7.703358640417966308e-02 2.338167362441773145e-03 4.891564104390380141e-01
6.540102240757605934e-02 2.764497584934745567e-02 4.547810369741901448e-01
-1.370410983923631837e-02 2.471298671523838170e-02 4.442511789911148257e-01
9.855137127456385648e-03 1.466514960317637575e-02 4.419136618968080299e-01
4.844747349021421082e-03 4.586451136274892482e-02 4.447359994279055928e-01
2.074079033867540917e-02 3.229148056840356468e-04 4.404596934802787467e-01
9.676468270329684207e-02 2.425344190671175487e-02 4.777475878925121489e-01
6.505562632318144523e-02 6.039972789431093114e-02 4.559245449192945165e-01
1.728837388823703178e-02 1.313911850175607243e-02 4.425913444763556748e-01
2.628956040972981953e-03 7.919795183457823892e-03 4.403591785652120061e-01
4.489094214314033604e-02 4.000895122260735015e-02 4.483252984554639275e-01
8.129587844811200781e-02 1.330734571918437692e-02 4.674139011489185092e-01
7.342467374217617748e-02 -3.227211712992844681e-03 4.868571649074421304e-01
-1.495353108231191851e-03 -1.736687081673561573e-03 4.381180979712895884e-01
4.823356144280037394e-02 8.977583232911342040e-03 4.496362491559757757e-01
8.689232126972259995e-02 1.722513729767174984e-02 4.920683365652214758e-01
-3.339691344220309388e-02 3.293057156358788172e-03 4.434743652613423737e-01
-1.431207979431702026e-02 3.939927815286279472e-02 4.472346230904750142e-01
5.734758383983627750e-02 -3.503531016698575948e-03 4.555975724174703423e-01
7.766838478353388364e-02 7.766395174454771531e-03 4.686528986293946319e-01
1.051637590159359981e-01 3.718625193940516827e-02 4.783610260102986178e-01
1.982731237430500337e-02 6.029459250055952541e-02 4.517958474704905636e-01
7.605442889509585191e-02 1.605725981402683633e-02 5.144653174850467581e-01
7.460508047269841236e-02 3.086862535000294699e-02 4.576516403840894531e-01
-4.549625562749629731e-03 8.114384264182834122e-03 4.401212767573617901e-01
7.371776492311170326e-02 3.740114768380604915e-02 4.560359532160296880e-01
9.444585598163496298e-02 5.325786940944739895e-02 4.635844367488859419e-01
7.807231858660605706e-02 4.564335174361474137e-03 4.937318109316784498e-01
8.756798097711113171e-02 5.539182537839512643e-02 4.805453346528041902e-01
6.612560922751485604e-02 1.316772403411052908e-02 4.576963891852099398e-01
4.188028249524818752e-02 -3.437099215683434321e-04 4.467953711009878814e-01
2.592657473075168223e-02 4.714262929323079915e-02 4.458255586219531108e-01
-1.923293919387277298e-02 9.082979283000121307e-03 4.425547823738092967e-01
1.066271861933502929e-02 3.781410169891140892e-03 4.401678403803744311e-01
-6.974773187788392559e-03 3.891786054633333825e-02 4.452723962498843502e-01
7.707759085483484318e-02 3.647743225264053063e-02 5.127164656881290083e-01
2.440879533835786652e-02 2.115104761768277913e-02 4.443783297459364401e-01
7.098524040883508190e-02 3.487619715421977351e-02 4.551584804233330117e-01
7.973891392347692841e-02 5.247523797003147972e-02 4.528042284998989309e-01
6.843833105374648451e-02 3.378718788389287880e-02 4.541762671594116729e-01
9.740349333941814014e-02 2.564570620553277211e-02 4.822430520716474156e-01
9.401289249108581159e-02 3.176982192891949358e-02 4.913956628981830943e-01
7.754042471408593637e-03 4.723989576184425832e-02 4.449059637721762273e-01
9.454585793290108675e-02 5.000228185367768668e-02 4.849972217902296934e-01
6.511758408171694490e-02 2.317126629762513920e-02 4.554298343992310150e-01
8.857289626009975936e-02 3.275708609567885843e-02 5.008726233269089612e-01
9.579301692611504049e-02 5.260205381601556346e-02 4.745506358632192723e-01
6.272360549546798780e-02 -1.881270817581538052e-03 5.139607817240439136e-01
7.531290401107477994e-02 2.755820230621331898e-02 4.580555259724308215e-01
6.598369347563726173e-02 -3.219937886059058563e-05 5.097219199894383879e-01
7.189766823354659664e-02 3.689818506705060813e-03 4.653232022199352835e-01
-7.675936419588045255e-03 4.406861111978928325e-02 4.460405670862134242e-01
8.974643319330513624e-02 2.741478357320435363e-02 4.967013334528019297e-01
7.665861511646426818e-02 6.874653021599383407e-03 5.021047335862530714e-01
5.489229743173733300e-02 -9.811858525695029299e-04 4.533684728683096132e-01
-2.037081768266631177e-02 -1.347014463356059795e-03 4.393720788175984882e-01
8.790033038990048564e-02 2.264915427298514264e-02 4.669875006527459682e-01
6.553083908653360712e-02 9.917792958303415715e-03 4.578959777636015804e-01
7.449502276933323008e-02 1.794746861632282725e-02 5.180358983279393925e-01
6.437910061647686422e-02 5.177335639650355870e-02 4.491701132032823729e-01
5.627707598096449992e-03 4.299736391845931927e-02 4.444062590409239011e-01
8.549265151925558581e-02 1.273678411651042383e-02 4.897571064868327939e-01
6.972411320778851285e-02 -8.158186784505437605e-03 4.937282342924660949e-01
5.425314991438631718e-02 3.522445442350414374e-02 4.503780173900190920e-01
1.031003561241407018e-01 4.036158596490045658e-02 4.650328349198425415e-01
8.199727086856965774e-02 1.287054483696103459e-02 4.685530801905869458e-01
6.521055382786458687e-02 3.301397524555450130e-02 4.534959590859072298e-01
1.052837580943798840e-01 3.287532520890862342e-02 4.779334910269026349e-01
2.857633158994606418e-02 5.528837686935288848e-02 4.472332534594741227e-01
2.333370545638829147e-02 2.985116784800530276e-02 4.447332760186244460e-01
1.012418545302635059e-01 2.655552416714067332e-02 4.721367113072389987e-01
8.506765092461349154e-02 4.513304576392614814e-02 4.552302986870159773e-01
9.942206258407194908e-02 4.486174192182198345e-02 4.817257749050503635e-01
3.834239660463471810e-02 4.551023711222316331e-02 4.471344841414937044e-01
6.298458373939486155e-02 -2.464355289561204112e-03 5.131139628994313417e-01
1.002567484019402932e-01 4.488180480899241209e-02 4.703885703728348799e-01
1.098033290802195999e-01 3.600300051502559884e-02 4.697153673840812060e-01
1.825153406265197717e-02 5.551334086194626566e-02 4.475191234260974538e-01
9.052127428631973061e-02 2.508330017609697316e-02 4.660806246309527889e-01
8.762046907688422759e-02 4.891517921860318030e-02 4.940056730204452906e-01
4.666984318374138574e-02 4.831539555616237019e-02 4.480448371035325450e-01
-2.139278743539727023e-02 1.493076416711814139e-02 4.456464774238838578e-01
6.609669573463523851e-02 2.572774206324826042e-03 5.126942124430001746e-01
7.338580419328034031e-03 4.296345114974447349e-02 4.443896873518183854e-01
9.640227012247339078e-02 3.230127329862177155e-02 4.876541109438266575e-01
9.180248467585459815e-02 4.088410205903426908e-02 4.931218908918592048e-01
9.754782373466527878e-02 4.672716318520039880e-02 4.832041589995794695e-01
-1.320662252992884332e-02 4.133197329997167352e-02 4.471843260769031159e-01
9.219532640206783147e-02 1.997524996136455788e-02 4.774346034927889892e-01
6.912185236953666267e-02 9.026436268366917759e-04 4.643185326663872292e-01
-1.547492784609569988e-02 2.034517521580712224e-02 4.441364474625749681e-01
9.054561443871388116e-02 5.176015576624021231e-02 4.887284531785642261e-01
8.454622277269793762e-02 1.014162691606482897e-02 4.765355207708263374e-01
9.653642255525744786e-02 2.803149610690432170e-02 4.669567266091914082e-01
7.434833491118621185e-02 5.209266940978257016e-02 4.514299530859962051e-01
6.994406043072798340e-02 3.237221414148239770e-03 5.066906233117048908e-01
9.298271806245798909e-02 2.040784249001742490e-02 4.790695169858177893e-01
1.060569421008766000e-01 3.994172342407618925e-02 4.724988462112314491e-01
7.441462057560548071e-02 2.304066898930880875e-02 5.207906721055878263e-01
1.044569786819399965e-01 3.941753319660096233e-02 4.783257446498528909e-01
7.930905546236328985e-02 1.344073042232978195e-02 4.652513984493472643e-01
5.250716651141992819e-02 1.529469243172220175e-02 4.513449220723287358e-01
9.917757762762186013e-02 2.606972984485761771e-02 4.798721150130730861e-01
6.866037633625714232e-02 1.590846556165958353e-02 5.226951302409269529e-01
6.833020831103280013e-02 -4.895728568316557242e-05 5.051926121529975999e-01
8.251978706331027091e-02 2.347061289293132791e-02 5.106398063613046823e-01
6.212247907142653264e-02 5.863819454308379781e-02 4.537335999724389501e-01
8.404160718200630320e-02 4.302230077043704692e-02 4.564349956669939701e-01
9.496368684090540635e-02 5.000910319632639184e-02 4.610545055597767838e-01
1.189509124257567309e-02 5.733207708957414883e-02 4.513785871626218027e-01
1.248624307461796736e-02 3.434458229162608289e-02 4.437843885211942840e-01
-2.601680135603396185e-02 1.187435708899737055e-02 4.464616085101740794e-01
4.000721415207498383e-02 4.195174673799774087e-03 4.461253979319789176e-01
5.605333112758250497e-02 5.995086197226027341e-02 4.536716545014377600e-01
7.016618892316864309e-02 -7.611078586006140602e-03 4.778555302829429752e-01
1.040623466727856744e-01 2.833985404514025377e-02 4.755095958586857408e-01
9.768501680672685150e-02 2.958380283002816705e-02 4.841778143293115066e-01
8.115784430985839570e-02 2.170162535735419007e-02 5.118996694965503025e-01
7.457193641682956231e-02 2.679091476686723886e-02 4.579290148678798467e-01
-2.733703913901494066e-03 3.266533613570808681e-02 4.438907129481290403e-01
2.002169163021038333e-03 3.721712956906476910e-02 4.439264632581821912e-01
9.330994639167300431e-02 5.147269715797454098e-02 4.842374918818205809e-01
4.331963692578554015e-02 3.943756268511009605e-02 4.481638337250954951e-01
2.433025775945730010e-02 5.789313071933625127e-02 4.478941567689879166e-01
7.222879865547926492e-02 3.560910449912416814e-02 4.556624803632939869e-01
-4.522376074085856373e-02 2.729611507951246012e-04 4.459590819252194915e-01
9.822201842852662512e-02 4.913877710054974368e-02 4.704519205692994643e-01
7.643109211021520411e-02 2.649079651018297621e-02 5.197311668975388432e-01
4.307605704060658847e-02 -9.022800406646063268e-05 4.473329998195320067e-01
-4.028918858166946615e-03 3.664189316475154751e-02 4.443976157182209508e-01
-1.500722319699501935e-02 3.016556539052971109e-02 4.455886169278338027e-01
7.252074656347061443e-02 2.752506170781109790e-03 5.008386703836323894e-01
4.246709835947128087e-02 4.517119049923908752e-02 4.476952257871742447e-01
4.608513282330171934e-02 6.180549712922698419e-02 4.500036899112308530e-01
7.414855578189322172e-02 5.284367164562700156e-03 5.028204940217836372e-01
-5.069621146053998606e-03 4.462992540130995833e-02 4.455551164916327633e-01
-8.219386731743398913e-03 2.542011259058983216e-02 4.434104936581954592e-01
2.587378721019186617e-02 1.982103083620037273e-02 4.444804358553347545e-01
6.896836449448767725e-02 5.110055023857537106e-03 5.110416078878554647e-01
1.533219066622090905e-02 1.666440297777553939e-02 4.427228249347962552e-01
8.991373243228027723e-02 5.328510882052069769e-02 4.865464725546596592e-01
6.211891702869366816e-02 3.217334550344726901e-02 4.528754875456201257e-01
2.518814318236961211e-02 6.765556847578433480e-03 4.428475433197423539e-01
9.662088143789835173e-03 3.941586572934632077e-02 4.441130000715257098e-01
6.587801790662579926e-02 5.725988449250286882e-02 4.520512469807627109e-01
4.446535229119993188e-02 -2.675309485355450989e-03 4.479134230249930959e-01
-1.163545707562974041e-02 6.016507224362952627e-03 4.401876165267900043e-01
-3.667661432850446296e-02 1.786998527525393956e-03 4.422844889593839368e-01
7.482719611982152630e-02 4.331789789730720874e-03 4.685108150674907046e-01
2.065931115653297720e-02 5.462117287285818412e-02 4.471501018358971513e-01
1.520761017267381263e-02 4.478734533948534186e-02 4.449520884877120053e-01
6.542508931816402862e-02 2.142622392549414778e-02 4.557432318496865142e-01
7.057843803301805385e-02 6.763677559690984588e-03 4.620674436548196096e-01
6.772735199316277932e-02 1.710984488668243139e-02 5.246171866982430876e-01
2.765570811605767149e-02 9.701552217608645085e-03 4.437966433550484813e-01
1.010686665104853638e-01 2.628449648821339774e-02 4.724091311535967841e-01
4.050170429520542209e-02 -3.463171363745648317e-03 4.461838311919704148e-01
-1.224365827391740670e-03 3.412433988345219688e-02 4.438985128730906227e-01
6.864743554520948143e-02 -9.112848496763990835e-03 4.760147018708847932e-01
2.215374923825112752e-02 6.497873638100993415e-03 4.422839318732605940e-01
9.600844668232957901e-02 5.214293987623176696e-02 4.759317007355986506e-01
5.074597685834032063e-02 -6.439744180811952066e-03 5.268604048370557624e-01
7.561576771377437334e-02 2.038416338646029113e-02 5.181630414816956742e-01
5.459015185123671648e-02 -4.201174005024737798e-03 5.231368958024407156e-01
4.353381189093215309e-02 4.828349810090887262e-02 4.476318629583811992e-01
4.858121267395219822e-02 1.709414790557674951e-02 4.499816106397396820e-01
-2.092919399861349269e-02 2.049430354047414998e-02 4.465790215234974325e-01
-2.352574520251581036e-02 5.288261710263273373e-03 4.419925594616986864e-01
3.700650266897122231e-02 2.371310513053303745e-02 4.469745556757468985e-01
7.848303542310736125e-02 8.528858014097204579e-03 5.019123475594550188e-01
9.791334205997138940e-02 2.931477103114976321e-02 4.836226470486312823e-01
9.990637345274792913e-02 3.887065918430879924e-02 4.833476307704084318e-01
8.896835892515708721e-02 5.130324028915292378e-02 4.910814775575164659e-01
2.820358596924729330e-02 -5.267471711535574516e-03 4.408379150746948305e-01
8.472104551135214989e-02 5.761606631926097927e-02 4.586527651231742664e-01
4.290097666322357367e-02 3.874580085516482475e-02 4.481296695150075449e-01
8.574772636315446117e-02 5.052855622174008687e-02 4.933745140095925352e-01
4.698393992420388243e-02 3.146630614799343639e-02 4.492196536359819858e-01
4.341176681985896291e-02 2.407343843523682830e-02 4.485921196474807471e-01
5.496223028224953011e-02 4.096726995009630432e-04 4.532303044212194765e-01
8.355737681407089668e-02 4.379374197041224770e-02 5.019501907239029004e-01
4.271799539474793045e-02 2.092203158375536588e-03 4.470835116749914961e-01
8.028483908922198764e-02 4.447086422371834130e-02 4.539136316523927905e-01
9.331667288738761112e-02 2.726070284185984002e-02 4.660003239042654344e-01
6.681930825826387643e-02 -3.292640145027364573e-03 5.048100928382965868e-01
6.749074442189169354e-02 2.417395716606558428e-02 4.559364734514670947e-01
8.681238057235204919e-02 1.256936886381124913e-02 4.755634001774720065e-01
-1.448431714270416795e-02 4.357706516439098510e-02 4.481313746468010284e-01
1.477706266302434776e-02 1.943251985254386763e-02 4.428728162165497806e-01
6.753008616416208976e-02 3.977145609292852269e-02 4.521254468028048090e-01
8.146937038174685564e-02 2.586477943270725638e-02 4.614873310054176114e-01
3.539934283201261883e-02 1.742408892809398438e-02 4.462100418346724440e-01
-1.424921736699902297e-02 3.590794163527939037e-03 4.399126962319007128e-01
-1.624680648209449879e-02 1.569480464465053751e-02 4.435896049975826538e-01
9.205166091713748444e-02 2.686398442870801401e-02 4.917117329551297655e-01
-1.697972570997956926e-02 2.896511413243770330e-02 4.461440595294279832e-01
6.442758157212924441e-02 3.071170100435783624e-03 5.160418164326604495e-01
8.073545359845683833e-02 8.679279014251136543e-03 4.966376651663120256e-01
9.357672675976103083e-02 4.945108369207831811e-02 4.874104073103958101e-01
9.551052566212035744e-02 4.179869412406141127e-02 4.883648321695864269e-01
4.228967603378792212e-02 1.393748957596050407e-03 4.469137569523859432e-01
-1.523215491421921024e-03 8.429798858584242396e-03 4.402299055019158747e-01
4.420506946952354466e-02 5.333595441757520844e-02 4.474001314073099422e-01
-3.453594234384634726e-02 -6.974007074767987540e-04 4.405547323872165411e-01
-1.626219487352122475e-02 1.841514297960308855e-02 4.440807981329631948e-01
5.947324355398353468e-02 -1.150820771173171990e-02 4.626066023636121738e-01
3.637130331712084413e-02 3.597529381170781748e-02 4.472572148759261790e-01
4.751034124537955455e-02 1.016435419770225258e-02 4.493817536671414481e-01
3.288659498518413382e-02 4.834699344970158630e-02 4.464598026122877372e-01
9.081277119015140897e-02 5.138008131267664952e-02 4.890050801803487168e-01
5.844632198327946032e-02 3.848035948697235697e-02 4.504833030755407974e-01
-1.344347638746419549e-02 4.207507516475679499e-02 4.474247679986299020e-01
8.795128008256103413e-02 5.287058697324036743e-02 4.558274392675709108e-01
5.752917028761658086e-02 3.312714442550482308e-02 4.515116003742650208e-01
5.509901053347804334e-02 5.973283463576570945e-02 4.522734172094162730e-01
-2.659233586589318521e-02 2.882035185740484864e-03 4.416508216114166108e-01
2.420097983268557768e-02 3.479993413834441690e-02 4.453098568040118055e-01
8.986380031347326880e-02 2.880913608395545278e-02 4.633392708899889967e-01
9.047677234404077895e-02 1.896991594341797260e-02 4.736770026332867145e-01
4.374610530259528257e-02 1.216263086138322583e-02 4.480457413761600449e-01
6.147570274275701574e-02 -3.095546461758480646e-03 4.585510365554860135e-01
3.983802594704561467e-02 -7.115557369428955961e-04 4.458642245298848339e-01
4.068124352181517675e-03 3.755315033502602123e-02 4.438411365325996560e-01
2.207103202940252640e-02 3.392804254109872686e-02 4.449112552650308916e-01
1.809258065366527862e-02 4.037249301489428260e-02 4.448995560293025897e-01
-3.645293776471274921e-02 1.525996504458171366e-03 4.421206566860304554e-01
2.490633391352803025e-02 3.954019597591898472e-02 4.457585908043461553e-01
1.034238953179940357e-01 2.880530256751973051e-02 4.707758789202119987e-01
6.339231137291347420e-03 2.921178636279249743e-02 4.428986018142161973e-01
3.597369438397162583e-02 -4.227554921601886506e-03 4.437172966751252168e-01
3.472862088215691173e-02 4.234305946274775218e-02 4.468998309037338634e-01
7.163778560727848688e-02 3.842365044476553446e-03 5.043094920888230304e-01
3.858550325470243986e-02 -7.804471768577049984e-04 4.453710638596515836e-01
8.114836338915068503e-02 8.257313809311939146e-03 4.945498229024419823e-01
7.031906256646779096e-02 -7.394886427759596662e-03 4.779336650816434218e-01
2.096664469743462350e-02 3.010950254801901191e-02 4.444024986885776740e-01
8.197549410313852147e-02 1.361909412635518152e-02 5.027288630035029460e-01
9.318738034796618386e-02 4.790295676182856899e-02 4.886674811199050450e-01
7.679495235808316000e-02 3.930036442028931459e-02 5.094078380202320400e-01
9.112381483125887860e-02 2.796871588266149414e-02 4.942213055830163571e-01
9.246990927682646050e-04 4.893228356163881188e-02 4.453184960060622144e-01
7.780603830098982432e-02 9.573991464600663942e-03 4.672066278268707795e-01
7.389813038046062765e-02 4.263607670986576531e-02 4.531268474076294295e-01
7.203207704188478722e-02 -3.387297320734512351e-03 4.909510798660884356e-01
6.005402614262789901e-02 2.900009134408124134e-02 4.530977295141397354e-01
3.565090743053571376e-02 1.083533079807001351e-02 4.456223692471220632e-01
2.279433266661830271e-02 5.052365783400965260e-02 4.460036213204547351e-01
8.450810557235294285e-02 4.712316674922435028e-02 4.541639990248692582e-01
7.387021433301609041e-02 -2.526922553141050781e-03 4.833624418502779352e-01
6.767348270038418823e-02 -3.967195463886876577e-03 4.671667760987660567e-01
8.171092643142131851e-02 7.178153441838550607e-03 4.813501978927814395e-01
7.440547404609354487e-02 2.228812138074463822e-02 5.204744687729445651e-01
3.602750903643669317e-02 1.769531449713893784e-02 4.463957391194763313e-01
4.041811446114718098e-02 1.975023692365004968e-02 4.476715646419132111e-01
1.008579757983940478e-01 2.592577737615907318e-02 4.727921111122194708e-01
3.561425239791218139e-02 1.269326952570314429e-02 4.457771415632205136e-01
2.857169668945920213e-02 4.804307771958145346e-02 4.460428308174791967e-01
8.113091072216045696e-02 3.966464384515119151e-02 5.063757416748658757e-01
1.567159966205181748e-02 1.714809929111305725e-02 4.428084554893227387e-01
2.819055617160022217e-02 2.949901709508977871e-02 4.454896261773037547e-01
5.588468063086335369e-02 2.523269549421938013e-02 4.522285340797062014e-01
8.310542899765333003e-02 5.522133309342731194e-02 4.871233478774596448e-01
7.088504492715246019e-02 -5.721186310807465335e-03 4.767838628021850989e-01
8.848147401815521784e-02 3.852728657590139688e-02 4.608173232358419025e-01
8.868058737077419429e-02 1.886586406329924734e-02 4.902358683556821695e-01
-9.195357533624663477e-04 3.375663868524188954e-02 4.438370814566636180e-01
1.264951894749471832e-02 1.939310199626783152e-02 4.426098764766093208e-01
