2.443551090305851742e-02 2.281697045484853970e-02 4.445570598851389388e-01
8.447965039725091607e-02 4.316621216230704522e-02 5.011521191877186254e-01
4.108930648857209156e-02 2.017017273882920972e-02 4.480336744257252257e-01
8.465754172072796624e-02 4.611301374195153624e-02 4.991595964846607947e-01
3.712050104036616893e-02 6.181440026720388253e-02 4.492173968289882580e-01
4.466561005081717828e-02 5.377045720929871792e-02 4.476974657875997798e-01
8.038019654120917568e-02 4.002003919058524234e-02 4.580119565138967563e-01
7.205220579598892172e-02 3.589121080205434980e-03 4.660817164270543156e-01
8.350083903194648050e-02 2.076049742726829642e-02 4.648053607611676297e-01
8.717025576334934411e-02 1.371751966723081667e-02 4.832489377056883306e-01
7.992438561467535285e-02 1.430741787872046381e-02 4.656445076609898592e-01
1.495164965648621176e-03 1.273994742988351740e-02 4.409790844547884503e-01
-1.980165436154638324e-03 4.483705796750939859e-02 4.451294770214529462e-01
4.098260532428896902e-02 8.286563022997874700e-03 4.467176175948356920e-01
1.180653117871932438e-02 5.884129715052884013e-02 4.537957751759419400e-01
7.882113509560847997e-02 2.613402976561435276e-02 4.605013074397968365e-01
1.519343593729581728e-02 3.022522749368875342e-02 4.437434657736391008e-01
9.465351123847133563e-02 3.114194439881440291e-02 4.639740726069262466e-01
9.386406142185325929e-02 5.578239237185567828e-02 4.655702814719723803e-01
2.031058278862154370e-02 3.294401143634505258e-02 4.447175627865959657e-01
1.903913638286331561e-02 4.504709763585426630e-02 4.453459811327003526e-01
4.173421040258246811e-02 2.259869066900799250e-02 4.482944284679929448e-01
5.107313686621552801e-02 5.664121289432730300e-02 4.485145613326445568e-01
8.958268578583731406e-03 5.044309848037843019e-02 4.458222064295412901e-01
9.440279464806466958e-02 5.080829982859189076e-02 4.618133336643501785e-01
8.400071631971406383e-02 3.574788257681038584e-02 5.071233026937839172e-01
1.698145884471240902e-02 2.790652711649991430e-02 4.437224038169595985e-01
7.613704841606991347e-02 3.272593065428608394e-02 5.178849783372746485e-01
8.161004980784057616e-03 4.541709025640489061e-02 4.448098410827621141e-01
1.141989187717620292e-02 1.759483783561861109e-02 4.424190693407691333e-01
8.924768504727760565e-02 5.590603838609518872e-02 4.770163401669085812e-01
3.982376666389058489e-02 6.469099540334047327e-02 4.532280526145922028e-01
8.183226531730898590e-02 5.399409133477384853e-02 4.541492517852592781e-01
4.670265893500501891e-02 6.555697008055946622e-03 4.489310263547000579e-01
7.792306060308151761e-02 3.597827628018168342e-03 4.777258550772116585e-01
5.122945682625087982e-02 7.017339156320762800e-03 4.509698769279668618e-01
6.097974361961862322e-02 1.806686873359580892e-03 4.566815533008066197e-01
9.022163333492784487e-02 3.801128251723615015e-02 4.962650058875043846e-01
3.908503103993330591e-02 4.937592362263958090e-02 4.473907331955477296e-01
9.168630535008613636e-02 5.377721524324632213e-02 4.797308366540999902e-01
4.865193245095062596e-02 4.873682878900942317e-03 4.497832175399950061e-01
6.845658731370971029e-02 4.175164060654686440e-03 5.104674694516644351e-01
9.701204396059190382e-02 3.607396879576354326e-02 4.632443249428264687e-01
9.090238855939621054e-02 2.746018106683263335e-02 4.937139503306580690e-01
2.042277190941904977e-03 4.870492863761759911e-02 4.453224530662311942e-01
6.800191353524114024e-02 2.996236375306019981e-03 4.617628682319085964e-01
5.163932419619690628e-02 -1.395189386469428312e-02 5.285458836197322041e-01
5.391985518796511834e-02 3.545687008296402598e-02 4.505116676785505536e-01
7.604177704075476552e-02 5.987419241189544800e-03 4.688390295894915294e-01
3.049727714268869738e-02 4.768250500547756808e-03 4.435023537822957995e-01
9.539476744900118876e-02 3.855811944854374562e-02 4.624363002168399572e-01
7.235009579455779771e-02 8.242471291675882578e-04 4.694029491393773013e-01
4.023303419311480278e-02 6.201991534807328732e-02 4.496442502663926533e-01
8.725496271079025146e-02 2.765553047504526810e-02 4.634418627230511567e-01
8.492288945074556727e-02 5.625871123431932380e-02 4.581350445374031133e-01
8.966921493480776995e-02 6.092329122286424536e-02 4.634559240012783854e-01
-2.569627816116858837e-02 9.948511855578299340e-03 4.453194658823506069e-01
-6.623144548256343182e-03 1.024126707492829629e-02 4.403175691946255577e-01
8.038918160342304470e-03 9.337750056288871697e-03 4.411822647616245319e-01
8.838461200527902156e-03 2.109142444236455222e-02 4.423935190763366165e-01
-6.587358778905589088e-03 8.688343986715408446e-03 4.401405830395515029e-01
-1.629899248904317574e-02 3.295764417900697713e-02 4.467704850061476329e-01
-2.598845165339476113e-02 1.021542103102740517e-02 4.456665746061668765e-01
-3.822900257333102653e-02 1.253301568288094602e-03 4.416779497394780485e-01
4.155691982961885744e-02 3.872353347443525245e-02 4.481763434896312015e-01
2.380661762555702846e-02 7.784689371657621364e-04 4.411693508617277049e-01
6.797133261526105974e-02 5.042999736307884201e-02 4.500768735352168592e-01
6.436870386250703735e-02 -2.426085723852374008e-03 4.617484261432956982e-01
8.173283200483066890e-02 1.249189193381852400e-02 4.691653559936866946e-01
4.824078216877585035e-02 -9.495878674856813792e-03 5.297998615224124297e-01
-2.788150112911301493e-02 7.634618101785541067e-03 4.447151841068598399e-01
8.591723766089823244e-02 4.954769863623202653e-02 4.942450035558988986e-01
4.959577833628313337e-02 5.886528691200037383e-02 4.493565114030169116e-01
8.598533264367143325e-02 2.750888985142709020e-02 4.629630203041321668e-01
8.512948361444683254e-02 2.129601569977501718e-02 5.036289663664434979e-01
2.990946338968226287e-02 3.244438684095039827e-02 4.462430558633990740e-01
6.415368507018387456e-02 1.601870114194626354e-02 4.562801171848542281e-01
8.688798745370686361e-02 4.296947437248597318e-02 4.987521487025528000e-01
1.017877427210709118e-01 3.038003771908470013e-02 4.795019810412290417e-01
7.582463831529737130e-02 5.957765734464057911e-02 4.625412366381352891e-01
4.677279607004832668e-02 3.781937747170650149e-02 4.490421809965213229e-01
9.440757654075478816e-03 9.174311871762616186e-03 4.413281299669206681e-01
-2.541633619048538906e-02 -1.257674671165972917e-03 4.399032530835646493e-01
9.703616098322222216e-02 2.905801649775311205e-02 4.846128237486107548e-01
8.310135531735460268e-02 8.883896400075173144e-03 4.849835313665239456e-01
8.685232700956363461e-05 4.063977042849038768e-02 4.444880916603861087e-01
9.655606154972318222e-02 5.030134390479439749e-02 4.672207146207295048e-01
7.072678005200011553e-02 2.983989671894096002e-02 4.563148963670563552e-01
-2.154990115803368314e-02 1.415580358255115641e-02 4.454118542937863245e-01
6.297631638661206968e-03 7.520993789917791023e-03 4.407287210802036115e-01
-2.739368489346677427e-02 7.379950997870187226e-03 4.440404933113361041e-01
9.062581253307482043e-02 5.388561304888890569e-02 4.815239142204154610e-01
7.203225957342485053e-02 -2.860429066917185171e-03 4.745070544713762550e-01
8.144634560725014238e-02 1.012152690477160187e-02 4.714207228651031700e-01
5.101280350127004176e-02 1.811643064060412117e-02 4.510121741533132944e-01
9.865451414406550823e-02 4.458369479065262680e-02 4.654322010756957173e-01
3.519507584737760486e-02 4.182517885203901331e-02 4.472021841828355826e-01
3.206827089767909367e-02 6.853032681187283884e-03 4.442806783785502867e-01
9.721028306780028772e-02 4.806877800024018932e-02 4.807810017657147550e-01
6.147242931866456206e-02 4.911416137853585190e-02 4.494952005913942505e-01
5.668270664096460715e-02 6.025293210837345120e-02 4.555882462167480385e-01
6.208230815360484683e-02 3.073451771680246400e-02 4.535277302962455459e-01
9.159943024870159656e-02 5.419269995280450586e-02 4.616650550644519901e-01
3.498534628703467431e-02 1.069540864824158801e-03 4.442281592661233014e-01
5.918166583751328924e-02 6.039361870887098582e-02 4.562695747781412847e-01
5.205479135767935445e-02 2.314952277430459143e-02 4.512741338053951057e-01
4.084298036389050895e-02 -3.547716393594766392e-03 4.464257923811469353e-01
2.156368437865355953e-02 4.062068162895656614e-02 4.455686235991214161e-01
5.363109181228677136e-02 8.486988400250108228e-03 4.521341450657510586e-01
3.671985921323745600e-02 6.100220934957337193e-02 4.488363384307891835e-01
5.317085133325133439e-02 3.923873273909622011e-02 4.496609006696615229e-01
-7.912165130857459067e-03 3.787365813491280764e-02 4.453940804923602337e-01
8.949452927954223980e-02 3.886059840436110330e-02 4.972608929361397867e-01
9.136259494951384785e-02 6.007923655427811066e-02 4.637007610711290084e-01
5.292514119154014679e-02 5.987454570348225286e-02 4.511504032841264777e-01
7.558752400356789913e-02 9.363735658150943234e-03 5.071468033740585968e-01
8.857415019108470788e-02 5.472056095987810204e-02 4.814980805537613651e-01
4.937906333475441251e-02 5.322784727169862368e-02 4.481392275962521321e-01
8.689438428056647790e-02 2.139808286812823132e-02 4.975055243158155727e-01
-3.188441233260414648e-02 2.821805633349987186e-03 4.428865451260065034e-01
6.704695853393784211e-02 3.309490752409097181e-02 4.542868831060479229e-01
-8.887618537640973315e-03 4.452548987711669320e-02 4.464302155857829968e-01
7.170326059597612045e-02 5.416194417069005243e-03 4.637884794038552583e-01
5.189817755350021461e-02 4.169311500216552058e-02 4.492810260118041410e-01
-3.089070978939064543e-02 5.567573790704404002e-03 4.439805997810933880e-01
1.781997527026879524e-02 1.628045989881451994e-02 4.430826007998108773e-01
4.427180734223140623e-02 2.113153745019431123e-02 4.489085369660272273e-01
8.530369537769363908e-02 4.107305224668118815e-02 4.589847498823230176e-01
5.082682891147030646e-02 9.013850089426300033e-03 4.509334590766646000e-01
8.519432204320867563e-02 2.501929761878315256e-02 5.057333365458868135e-01
6.710571127335843156e-02 5.729879754519442286e-02 4.523717690402838665e-01
5.173815698444900191e-02 5.294164332613345014e-02 4.483607912350096036e-01
1.884628592407452258e-02 4.872797733221139599e-02 4.456316329243667496e-01
6.197749754181219178e-02 -2.117099864582167902e-03 5.151503114363039648e-01
8.842116028932349436e-02 5.330445091592486001e-02 4.877542894967021314e-01
9.731177402725049719e-02 4.314554941802976884e-02 4.619968178733898090e-01
-1.458207841691306142e-02 2.836873176088687554e-02 4.451248709797497871e-01
9.456304214517349815e-02 4.662950967868607216e-02 4.874767266944081134e-01
-2.876060384016635579e-02 7.186752417765084056e-03 4.449165770209752013e-01
8.059886342093176836e-02 4.928352434444319141e-02 4.532490642863319930e-01
8.503016123161771800e-02 5.798005873612308014e-02 4.734340601056898912e-01
6.603169971259660598e-02 5.461269068102120317e-02 4.503398513919130153e-01
6.132098079056538115e-02 3.704233220915752883e-02 4.517181755168004353e-01
6.746065736945673630e-02 5.689384931534795936e-04 4.628555725665507992e-01
7.571416816405075745e-02 5.730356877149166833e-02 4.531975850019667185e-01
1.830977443442535421e-02 5.563050407623727767e-02 4.477593706504945925e-01
9.591919163614273658e-02 5.231425731277306729e-02 4.713941954564660475e-01
8.904584790967530472e-02 4.618602276620442648e-02 4.944447060243886138e-01
9.446657954357771947e-02 5.094893755930147289e-02 4.620433898316959609e-01
9.057807547433222028e-02 3.444258485674694253e-02 4.968772630063352236e-01
5.809878297132371056e-02 4.884029110224469110e-03 4.542810517338756737e-01
3.116862504080188459e-02 4.745928514103768536e-02 4.465316886204422353e-01
4.585146065272565491e-02 4.865693743375180264e-02 4.481804339887305311e-01
9.057162924013144323e-02 4.367053462778491130e-02 4.939720346969886378e-01
4.756567126204540481e-03 3.809978323561014069e-02 4.440048373914513014e-01
4.082827756830788302e-02 5.034825324948191683e-02 4.474752340779549198e-01
5.224090477042733077e-02 7.993039408948413721e-03 4.514854621222887943e-01
8.815874520547428705e-02 2.895588739175573856e-02 5.009979149019709865e-01
7.640159057315702718e-02 5.850508735080669348e-02 4.569491724273663236e-01
8.093788084915630454e-02 3.112992516921100211e-02 5.134255664611645509e-01
1.464557836432964916e-02 1.762550765031323588e-02 4.428188152128754163e-01
-3.201878747952408358e-03 2.279930054354530750e-02 4.424333265244151381e-01
4.741242866521509086e-02 6.298238292169729136e-02 4.540393604746745804e-01
9.153652851369493970e-02 4.568870705526497517e-02 4.584051310705942739e-01
7.452962319262242119e-02 2.889710558357148559e-02 4.578430634162741764e-01
2.483032895443991472e-02 4.984607403561910205e-02 4.461733741107083429e-01
9.263899570735818767e-02 3.297118823938715443e-02 4.932905109887275041e-01
1.497725553367982437e-02 4.802238894607903374e-02 4.454239263269466620e-01
-2.364577656014173884e-02 3.160296218148599123e-02 4.509438391046061145e-01
8.141066791822242077e-02 4.708652657573916128e-02 4.536407038993945373e-01
8.631933987589318624e-02 4.538894627794781700e-02 4.980410950560733574e-01
5.010327282860255887e-02 8.682663920110304107e-03 4.505905912795533652e-01
8.007485718784829176e-02 2.104765038701467139e-02 4.631499131361968558e-01
2.668599404559024099e-02 -1.558943077773794700e-03 4.411098051477304050e-01
1.772637981722122169e-02 3.745697283924027607e-03 4.409344155605575688e-01
-1.048699898443359972e-02 1.902217670988463893e-02 4.425221668083402227e-01
-6.884037273108836730e-03 3.374123587446876266e-02 4.445497183527251650e-01
9.122124376852967786e-02 5.244227736430504688e-02 4.593693794100267569e-01
6.957368977975937618e-02 4.334353046171983415e-02 4.518492706105672885e-01
5.433542416331368224e-02 5.457429572784844307e-02 4.484988948723639401e-01
9.264354491208048881e-02 3.119398877765772529e-02 4.930411578821150553e-01
5.457477894704534233e-02 -3.009982038883883548e-03 4.538696456402347978e-01
9.194527434824940892e-02 5.340868186703121023e-02 4.613016330445649515e-01
2.585814588103376929e-02 4.871826976537710178e-03 4.425803063087240807e-01
8.265425757004914165e-02 4.578297115667757933e-02 4.542750703949914870e-01
7.779205702786759491e-02 2.452008707731366532e-02 5.177491199762509488e-01
9.841391078503120005e-02 2.589619475923995301e-02 4.706566940677993083e-01
3.629459729342796037e-02 5.549252772515753801e-02 4.473412855051377979e-01
1.067457679510107060e-01 3.682607426577148846e-02 4.760476514200877585e-01
5.691121767502010931e-02 7.152616100758677972e-03 4.536438727057908182e-01
-3.603184710383950176e-04 5.145356222887961795e-03 4.398579220765173603e-01
7.964865992615662027e-02 1.578180178006735601e-02 5.091407890560449845e-01
9.290215431409787339e-02 4.048924224826158658e-02 4.610117158369559376e-01
5.442510547559506473e-02 1.811393668647981459e-02 4.521490507414908655e-01
2.592103301082217259e-02 3.016863326647502286e-02 4.453320331609458838e-01
6.437461722019732768e-02 1.394253112194891037e-02 4.568616162013909854e-01
9.793365261539181688e-02 4.906751989872435576e-02 4.729690162239893469e-01
7.083665162845480257e-02 5.636326767167308682e-02 4.515415817889951167e-01
9.256670990865682735e-02 5.216423974817322590e-02 4.608197711041677191e-01
1.426452390335907275e-02 1.490780600885282386e-02 4.425103512946545470e-01
-4.624364273010680634e-03 1.995005071872020270e-03 4.390552958434336128e-01
1.019132578551617818e-01 2.818350954719372678e-02 4.785782363478909285e-01
8.129056351123997021e-03 4.061752213781143900e-02 4.443345097343273098e-01
6.881492464033753254e-02 4.550546154718693864e-02 4.512018356212365577e-01
-1.815296929501947557e-02 1.578913523289115009e-02 4.443082454836958517e-01
7.647325831647536210e-02 2.973544020243404362e-02 4.587364428610722356e-01
3.405307024945866679e-02 5.142763437371029867e-02 4.469443753532418850e-01
1.774743253863301715e-02 2.028049604137446144e-02 4.434134931506634181e-01
4.466750055485818605e-02 1.770330174526562467e-02 4.488419869878649826e-01
9.217280897651813909e-02 2.054509397153262557e-02 4.768510778803222716e-01
7.049045292484062974e-02 1.505842464291100302e-02 5.197332711219890822e-01
6.589194721459745718e-02 7.423273954610299860e-03 4.588501978516657531e-01
9.268522750206639738e-02 2.658623321160178896e-02 4.898295775447458200e-01
9.363653758187162612e-02 2.874078887810400593e-02 4.655874225184026272e-01
7.879271049572093844e-02 2.580534502345252154e-02 5.164825550309347646e-01
5.520106079935670207e-02 5.885281603902083741e-02 4.507714469982065375e-01
7.882176286130905540e-02 2.605722961672787830e-02 4.605366787803992223e-01
7.086296164619890203e-02 8.553333971600785707e-03 4.618523077739983274e-01
6.384970719336034717e-02 3.579970979362843888e-03 4.583966690362888396e-01
6.436577236648598210e-02 3.991220620835063404e-02 4.516937338649569256e-01
4.660443181348161712e-02 6.172723313074242324e-02 4.503769462910346411e-01
1.659789610945930707e-02 1.849612500507433893e-02 4.431292192864528245e-01
1.028138391094207266e-01 4.178228615310905503e-02 4.705575547499831757e-01
-3.851121932741145490e-04 1.287520489338390972e-02 4.408751482670114630e-01
1.156218044671789187e-02 -8.981580276900724864e-04 4.390492127728629068e-01
2.838194306426618241e-02 4.377979730875945210e-04 4.420872470756716521e-01
7.704682176736458998e-02 3.564366807399747122e-02 5.134557270585976552e-01
8.049189291181280126e-02 3.700806336348869824e-02 4.603045947303919805e-01
8.568332981162089801e-02 1.206647055759525571e-02 4.749729981609341900e-01
4.229064612861080374e-02 1.103325031702846216e-02 4.474259218954222961e-01
5.158811077887192481e-03 2.079824410447432548e-02 4.421280623186736314e-01
1.243460237870390450e-02 5.586984022958742246e-03 4.407620895653178161e-01
5.206663481707456825e-02 -9.784649909522723926e-03 5.269670220391667881e-01
2.393530752805286821e-02 5.521332423938213330e-02 4.473075591212400948e-01
8.574294551717460966e-02 1.166819824865731985e-02 4.779981356326082342e-01
7.152997471467963109e-02 3.353263027524062273e-02 5.210442097778105186e-01
5.075649305856338306e-02 3.145032822049445564e-02 4.504339587802868583e-01
7.311192747803657577e-02 2.968343382964484800e-02 4.572539400444262658e-01
4.487221277417745291e-02 6.240239787377466901e-02 4.506891097122194267e-01
2.240137507133358255e-02 4.581231073300215395e-02 4.457117641462080004e-01
9.176366227226694094e-02 4.176600394481765066e-02 4.924924178181965262e-01
7.456483419463920403e-02 8.826035773755978864e-05 4.915027988692930450e-01
7.070365763710573237e-02 1.046245454824608866e-02 4.610942942501884412e-01
7.394814702559414366e-02 1.187508645136089308e-02 5.123886862604389858e-01
8.910726114790729069e-02 4.364829665900726852e-02 4.581023835573239666e-01
5.895333645342870632e-02 5.730327367362363783e-02 4.502226912810293191e-01
7.457768037383653847e-02 1.394945649107578664e-02 5.138361085618055046e-01
8.405682823157058225e-02 3.776516069487279026e-02 5.052090809933988957e-01
7.655796007066600906e-02 3.321571590173311855e-02 4.589199914783684831e-01
-1.554988564449438088e-02 -1.241165917806605692e-04 4.390624067650596429e-01
9.894971279043596191e-02 4.593457518102173065e-02 4.794747205603775986e-01
2.495842038872472454e-02 -1.817334798596858441e-03 4.407556300075118338e-01
9.983773099339082746e-02 3.400624371971814469e-02 4.641672659342521712e-01
7.689294694281584297e-02 5.041849641169181273e-02 4.520881516219398821e-01
9.873606058556068377e-02 3.258070168927834631e-02 4.646845694574465169e-01
5.777273190014305809e-02 -4.633831878519584918e-03 4.563159138990608987e-01
3.672008103379460764e-02 3.468133916033115660e-02 4.474326832274713173e-01
7.689588729463031624e-02 8.151274273034050249e-03 5.035992988074361465e-01
8.425205001862114129e-02 1.015852943489801985e-02 4.802034532278694479e-01
7.624539940129189397e-02 3.588360797744016839e-02 4.582286020581243791e-01
5.621466902025928913e-02 4.894616941029714119e-02 4.490488055588846006e-01
7.888379480485389894e-02 4.873222859544316249e-02 4.986074832651438693e-01
6.753936716066005763e-02 -8.521552394750676537e-03 4.997226136256953111e-01
8.601415216935190400e-02 5.414469160282087828e-02 4.877780348484876960e-01
5.023436332965876966e-02 3.004842730688307012e-02 4.504895044803857163e-01
5.775984485404880853e-02 1.425931788821918449e-03 4.547639039556031215e-01
4.987155129912228951e-02 4.122507987831289245e-02 4.490678156533223220e-01
8.452565293598703067e-02 2.016899453142046925e-02 5.038052044517860040e-01
9.355229308694951174e-02 4.238098015606481944e-02 4.596432088151458650e-01
3.611764536742575332e-02 2.741858104277037494e-02 4.470834423826497428e-01
4.125706384443140334e-02 1.417435058494780076e-03 4.465507878503534589e-01
8.169283601229442027e-02 7.399280943441383443e-03 4.842752897274540946e-01
9.565363542701975363e-02 2.480055127004569121e-02 4.833590085027615335e-01
5.896651825513380546e-02 -6.646634344198361875e-03 5.188727163378573648e-01
-3.101277140666904020e-02 6.450887796913122064e-03 4.468857312247276337e-01
3.175879608159601353e-02 1.398264051563972814e-02 4.451377530418593742e-01
8.375838555565333354e-02 5.523498767746425758e-02 4.862042520130372969e-01
7.838276302444041957e-03 5.158598808878411823e-02 4.464304113631913928e-01
8.140565936349207499e-02 5.576637898565055262e-02 4.868540675016971297e-01
5.182871475471804296e-02 -7.483432225168385604e-03 4.532823830510603891e-01
8.328814011427516928e-02 5.372466035297877862e-02 4.900572334237526251e-01
1.163289270673304593e-02 5.782643068619107429e-02 4.524063661627205080e-01
7.278876034385575733e-02 4.856871356700770935e-03 5.036154544469615413e-01
7.255852643150821624e-02 -3.402947632965606060e-04 4.956153195834896441e-01
-4.531373745785056105e-03 9.276706958185190061e-03 4.402431069506956840e-01
7.976473086686523828e-02 9.361900527286620005e-03 4.700342451775898489e-01
6.449196612316490662e-02 4.716418437964290528e-02 4.501266254049053894e-01
8.916852474932897288e-02 3.537287795594241252e-02 4.990324803019316469e-01
6.525705514886356862e-02 1.788313669636595014e-03 4.599161890752683779e-01
-2.932264227055336736e-02 9.182184967951133661e-03 4.477976971070213863e-01
5.333436702346244090e-02 4.173281268602602179e-02 4.494427588720245059e-01
6.738072038030162858e-02 -2.109011773511000956e-03 4.653893741514479321e-01
9.372890654697037249e-02 2.174445662971675672e-02 4.809388901422765317e-01
-2.944482016762278026e-02 6.627487834041706841e-03 4.443293266220831872e-01
4.121845182965255816e-02 5.790852501062039581e-02 4.480950455785026598e-01
4.593024807304237067e-02 3.623485337252243393e-02 4.489734304251823405e-01
9.966367380668034182e-02 4.518593186099340714e-02 4.717489502695680903e-01
1.001931727087374269e-01 3.108035529243658932e-02 4.812005715063947253e-01
3.914549985135108018e-02 4.307101057254060505e-02 4.476414219353098134e-01
7.965620090920151608e-02 2.156783317960528357e-02 4.628138348896291832e-01
-4.496087007214893266e-02 6.278153213758253578e-04 4.458852750345224103e-01
7.907747442644254277e-02 4.627580808341425107e-03 4.831206033399015332e-01
5.631405627693687743e-02 3.616297330878920357e-02 4.508609523114544548e-01
3.866982907875032849e-02 5.959580510524926239e-02 4.482381937839408081e-01
7.512894018080776282e-02 4.029524858081559580e-02 5.085484576625839415e-01
7.237596846036413456e-02 1.087395415369752597e-04 4.703992874475921293e-01
3.142642195825773310e-02 5.205807034124833310e-02 4.467784701608104592e-01
8.844040965057894943e-02 1.565097346054096158e-02 4.759343083149225051e-01
-4.606043154031748930e-03 1.084068280586011901e-02 4.404074499571457024e-01
-5.740659789605083094e-03 6.841389570520184718e-03 4.400401942091839436e-01
5.973758580776029892e-02 -5.130850403567902354e-03 5.176846270548741691e-01
3.547892604178191217e-02 3.737289185404929492e-02 4.473915354491790342e-01
3.212732528318755498e-02 -1.415894981803843961e-03 4.427311606238891750e-01
9.115228200376034040e-02 3.538599103822059194e-02 4.636253368662953123e-01
1.751392691916885819e-02 5.236351019536257534e-02 4.465051006729393035e-01
7.503811169249537116e-02 1.162421029080571919e-02 5.106284152215622152e-01
8.723726464198772179e-02 3.624373989333124629e-02 5.021282499136531241e-01
-7.730308179449879406e-03 9.486721937454740614e-03 4.403325480294967287e-01
-3.037378784863799253e-03 2.713976973660958344e-02 4.431269530863365391e-01
1.678712713779097199e-02 2.343028032855095505e-02 4.434753096414528195e-01
8.567112127478636319e-02 1.469340738730101625e-02 4.916220170677400580e-01
8.206511804484471762e-02 4.622807781673617805e-02 4.539128851022070088e-01
-1.229085033638972757e-02 2.287338639767433346e-02 4.436934587073584901e-01
4.607700847772609742e-02 4.702958094056760435e-02 4.483075636722011481e-01
8.271390713452778098e-02 4.603637414770068298e-02 5.009850314215270606e-01
5.979979751235908400e-03 1.951748424857515599e-03 4.394733229463360646e-01
6.465442904869549146e-02 -6.867904122537021525e-03 5.076218354081151185e-01
5.684986430020660259e-02 5.073791849924872560e-02 4.489394349553605945e-01
5.965104869191603654e-02 2.673561161401367611e-02 4.535757517740890976e-01
8.369023942404513194e-02 3.497248746737733477e-02 5.083149434276689194e-01
9.959310264558299264e-02 4.581401024222910706e-02 4.740603081781598060e-01
5.099742748975714945e-02 3.069740330276969631e-02 4.506044925943564206e-01
6.965985368069267658e-02 1.768075351844899251e-02 5.228665511113519404e-01
9.430877808769588810e-02 5.304578518707201568e-02 4.640205597888910627e-01
4.619418193253109484e-02 4.832160968501670456e-02 4.482462873853855778e-01
8.326208587752356727e-02 5.779815286902380278e-02 4.754022457886827868e-01
6.307419286130920566e-02 -4.349815434935575334e-04 4.588596377800031045e-01
9.619850653681698283e-02 2.452756930384157597e-02 4.704634549300978907e-01
8.105523388106687654e-02 3.666429268602232339e-02 5.098418448835414507e-01
7.164635065999351571e-02 2.688573710359105917e-02 4.571577195367310664e-01
3.505348936218390804e-02 5.829798117877839359e-02 4.478126375718717855e-01
8.994359349486452659e-02 4.233052037110921623e-02 4.954519815585054499e-01
8.439784738820790833e-02 2.493178733711185965e-02 4.636897045682366603e-01
8.855890841493063714e-02 3.638374389231451012e-02 4.632360675818698592e-01
7.389325682944407336e-02 1.588930372220569154e-02 5.169082513871672280e-01
1.428657981544636385e-02 4.812851289578420899e-02 4.454271797174025882e-01
3.336063504096179605e-02 5.725192342459944211e-02 4.475818508048107214e-01
6.958825118484024408e-02 -9.437799824181017025e-03 4.823576699590031436e-01
7.866856786439871407e-02 2.181046238938488119e-02 4.622410291945586169e-01
6.279201278292707855e-02 3.898764918817861080e-03 5.198473229742497370e-01
4.845401331820390484e-02 8.023541687749845275e-03 4.498158449723861363e-01
7.319994419785688655e-02 3.191502900724380726e-02 5.216247921787895425e-01
2.158020185966878259e-03 3.233764082323929007e-03 4.396071202500486108e-01
6.924673188140303970e-02 2.603860222716124218e-02 4.564437904955918057e-01
7.548945368761952879e-02 4.066112693123453969e-02 5.076520590213142725e-01
1.160033500600806192e-02 -1.029107272977570695e-04 4.392620707720598094e-01
7.438193156424934005e-02 2.458127152516827521e-02 5.213922106884935070e-01
3.738996108559940190e-02 2.047000845996395542e-03 4.452433833920330097e-01
6.932076486783515790e-02 5.999509805925992700e-02 4.584504811289201176e-01
9.929914068371537006e-02 2.685418285362203492e-02 4.801940324890205947e-01
4.401515070407405195e-02 2.946292094669104161e-02 4.489724294617881140e-01
-4.956942227126080736e-03 1.121647795354248009e-02 4.404231929137544799e-01
2.829107645520481662e-02 1.222507086116940249e-02 4.443377386304315779e-01
9.995862148710059347e-02 4.205798690802237810e-02 4.824506175331672031e-01
8.997713752649921792e-02 5.651049150701895757e-02 4.753938496739394948e-01
3.618773400495903930e-02 6.556113438758677525e-02 4.531496177232349765e-01
9.095840869257508510e-02 1.947182925278947291e-02 4.848412042685118495e-01
1.136803972940587243e-02 4.783573905133774173e-02 4.452772071062366943e-01
2.221595636255584844e-02 6.417508628103071010e-03 4.423457806711112994e-01
-1.062703378929080213e-02 1.332616802312050486e-02 4.413685441398986220e-01
3.270361006141769139e-02 3.719762217078003298e-03 4.437386015082175894e-01
5.434410529788304134e-02 5.241179269310261568e-02 4.485908037149030081e-01
7.757862619521742852e-03 5.539426496194890109e-02 4.482760800442238125e-01
8.101602369681144833e-02 1.181785770041561892e-02 4.689910357278878061e-01
7.995647061445507187e-02 1.271686282620765329e-02 4.670498313747972197e-01
8.238835328614947662e-02 3.502890934997314465e-02 5.101021281638691285e-01
1.071855632228975279e-02 2.625519199969328019e-02 4.429829961554439532e-01
8.356786552217727870e-02 1.158560112238294498e-02 4.923737138312029860e-01
1.807963009235021706e-02 3.387502526397850877e-02 4.445093890043018692e-01
7.986505406681054797e-02 2.306746777097141293e-02 4.624820220615075694e-01
8.133431197727579443e-02 7.029701094274821635e-03 4.843250726834694708e-01
6.008019008626082347e-03 3.147626833499131416e-02 4.433426624922845449e-01
8.432583846570138042e-02 1.677472591525850168e-02 4.681832077226452116e-01
7.907932920036524205e-02 5.891553652391825352e-02 4.601532361128109483e-01
6.405178547069553807e-02 5.551379741608672425e-02 4.501964824454081637e-01
3.893834347924045314e-02 2.176301421438826475e-02 4.475410318508388219e-01
2.465030060901641368e-02 4.646198053446265464e-02 4.459291516574211967e-01
8.221309718247257758e-02 2.513233970278547225e-02 4.625363424414655755e-01
7.129040202785834335e-02 5.018621601382428077e-02 4.509270519393941412e-01
-4.659062303763896254e-03 4.477435367394444476e-02 4.455689885698341790e-01
3.123125587330739458e-02 6.226236662690518009e-02 4.509211706195412894e-01
9.690733393010389496e-02 2.657459744675583213e-02 4.688207898578524158e-01
-1.649148103734901852e-02 1.256778624549095141e-02 4.428346273376457809e-01
1.233738117969608583e-02 3.907945210670887327e-03 4.403343350362725062e-01
8.909528978602017368e-02 1.725816800013914992e-02 4.741762003320157959e-01
7.260111829815786566e-02 1.900820674792653292e-02 5.206525909838130017e-01
5.331002745526072784e-03 1.099675136602113953e-02 4.410828324022746938e-01
7.701699367430385468e-02 3.344983228383796841e-03 4.920838295552149022e-01
7.333025035036132289e-02 2.888337810211948249e-03 4.992546377846440175e-01
-1.172945734775797735e-02 1.336602386718610362e-02 4.415098149949998607e-01
4.934695526822294870e-02 -6.290139026770363850e-03 4.512694913033279964e-01
6.556492741692312998e-02 -6.253669768706369286e-05 5.102063365864554223e-01
7.635521642950085508e-02 5.253265961930581734e-02 4.522346034646460566e-01
9.943613234535267353e-02 4.020931082727889627e-02 4.620619601067411653e-01
5.216826891410208250e-02 -1.440853948426797440e-02 5.282198467710259582e-01
7.322370530344746165e-02 1.057731931739573639e-02 4.625091109492909802e-01
8.821991805749783422e-02 1.699400024255561664e-02 4.880861923884680098e-01
1.278654138299494328e-02 1.115102087510423320e-02 4.419463162733622830e-01
1.067940313954591769e-01 3.229664655242517335e-02 4.705524447203999205e-01
1.341864890552060124e-02 3.389327179661804496e-02 4.440003907714953346e-01
4.572468032843478303e-02 -9.375864959409981395e-03 5.315922502884449230e-01
8.962713778931720443e-02 2.259233572519527694e-02 4.684990757589956867e-01
1.111538975623717687e-02 4.819842413175278589e-02 4.453077562646381438e-01
2.993944422435560609e-02 5.155531290215910334e-02 4.467694076698301986e-01
8.955752407859948749e-02 2.082501302382434513e-02 4.702405509838476494e-01
7.589782461919743206e-02 2.799854650534737074e-02 5.203785825238474994e-01
8.458110293319114070e-02 5.194313404514119825e-02 4.923754869074911666e-01
-4.640467539266478376e-03 9.738326688078018448e-03 4.402713075656718433e-01
5.421066598023240035e-02 4.844536440023041596e-02 4.489148607928912238e-01
8.280570541007595264e-02 8.740161534730546064e-03 4.779935289280761723e-01
-4.792414824194761100e-03 3.148078486338463239e-02 4.439984093026197454e-01
6.533217301986044001e-02 3.606575795080287083e-02 5.173099163649093057e-01
8.339566305065909679e-03 4.778385328953426575e-02 4.451625288451068196e-01
8.744806629193732639e-02 1.759830584244690896e-02 4.707603796340783520e-01
6.989533347961561505e-02 -9.291037439767921985e-03 4.885476652172744960e-01
4.828288248520498649e-02 -7.212999267121586455e-03 5.286725546277111221e-01
7.083210068048548247e-02 3.685272134765223140e-02 4.549960890896952437e-01
7.846192601203362538e-02 1.562034484066939302e-02 5.107304693836918208e-01
7.008264710751989368e-02 2.895022707866068065e-02 4.562382331009752767e-01
1.045993726889584002e-01 2.877581772120749518e-02 4.745595912249123693e-01
6.756947526651987945e-02 4.137904848110963985e-02 4.520210290287732247e-01
5.228796104485398943e-02 -8.895929712153268984e-03 5.264838913977667456e-01
2.522546041448364695e-02 3.717619736736258590e-02 4.458312844499460748e-01
4.648271692605603078e-02 2.553986591614139032e-02 4.496561101256526527e-01
6.143318435073645556e-02 9.637671428718040667e-03 4.558452717118730013e-01
-3.512641597773927087e-03 1.592831426561436975e-02 4.411722931127213809e-01
-3.057360395706449491e-02 2.718923336830769699e-03 4.425265185629683740e-01
5.069029641451493901e-02 5.766721380455114287e-02 4.489637107332982158e-01
2.829901978941739421e-02 5.682048630426263236e-02 4.476982288245787700e-01
8.473260381695470189e-02 3.888609868046619816e-02 4.601537266518406222e-01
-5.715655883272649507e-03 -1.072960042183165571e-03 4.382164767813658823e-01
6.320507302806753144e-03 9.079547982514660220e-03 4.409412175939705358e-01
6.104224234855182285e-02 4.560427502424789503e-02 4.498093048034689234e-01
1.593843308312438770e-02 9.368030365746033133e-04 4.399392200317474022e-01
7.249669125427488092e-02 3.510562657575941672e-03 4.667741898256260180e-01
9.629083691465671613e-02 3.796643682068025910e-02 4.876746384347385721e-01
7.929288338902118483e-02 1.924775568341908355e-02 5.123466829133851430e-01
7.114644832404345975e-02 4.036648679628958986e-02 4.535791028745355113e-01
-1.361988594532588049e-03 2.230787366620936088e-02 4.422563758122002864e-01
5.413082491264283643e-04 1.572971282022918305e-02 4.412681090011089102e-01
-2.129208135092948428e-02 3.239102952391686996e-02 4.492129109631180506e-01
9.320474788177647574e-02 3.305581553175399034e-02 4.921182798282952575e-01
7.137234583043280955e-02 2.174462151144234898e-02 4.583475771224618245e-01
1.137402378552830086e-02 3.519417326364642634e-02 4.438822309478738792e-01
6.964254746383281847e-02 -3.676866927326092639e-03 4.704047217198059072e-01
6.736993628186761784e-02 5.809493256469355771e-02 4.533428787778129854e-01
4.736200443530875354e-02 2.525077256719531621e-02 4.498893072629321921e-01
7.784952518425837520e-02 7.555738687646447807e-03 5.009032104357017401e-01
7.014264919260243536e-02 5.919182807674248925e-02 4.533229623190928592e-01
7.899168360718036852e-02 5.742517240142466090e-02 4.572177210129254044e-01
6.289028106260047268e-02 -2.931881212028322314e-03 4.604191025132013393e-01
9.689043172576392027e-02 4.477127381840691894e-02 4.857735478823737019e-01
2.208886328966756796e-02 2.529095411516234584e-03 4.413444932108493424e-01
4.557405619622202642e-02 -4.042511700599946481e-03 4.486666361975945594e-01
1.037093818164229603e-01 2.836852879556856291e-02 4.753851666655201091e-01
5.868435591039766752e-02 4.479593390687010117e-03 4.546600452975965156e-01
9.766385427939137942e-02 4.134612071502414415e-02 4.609630193119008679e-01
-1.234782949849442396e-05 2.396196633610327142e-02 4.424497577528724301e-01
5.600008870144918688e-02 5.484446469845512956e-02 4.486455198465429395e-01
2.978096412635520412e-02 4.207209156481374335e-02 4.465521156470500519e-01
9.444048481477607809e-03 5.360617275025159056e-02 4.473167778229445446e-01
6.053796321889549220e-02 2.081050670996456228e-02 4.542508507332510548e-01
6.001782893450711281e-02 5.110176461932173370e-02 4.491690656043179630e-01
8.978604041927465418e-02 1.860728480424772915e-02 4.734128397631164886e-01
9.031703205815079516e-02 5.766218833254723591e-02 4.621398312522621010e-01
5.696588297874821682e-02 -9.058046787960157345e-03 5.220931115803216782e-01
7.452933815593537625e-02 4.248904512459838329e-02 4.539355895265504426e-01
7.102812237277729424e-02 9.266897268926325287e-03 5.132715738411400830e-01
2.771821638459052300e-02 4.406627650317492678e-02 4.462587196762261010e-01
8.822725767703118449e-02 3.661071797094722635e-02 5.002487646848253755e-01
-7.504962111868913877e-03 3.670336226786311690e-02 4.451207544298512175e-01
1.065356867998337176e-01 3.075581066792244800e-02 4.740826189015035497e-01
-1.080915932923638342e-02 3.490688006999535103e-02 4.456136410152933824e-01
2.780680554300863846e-02 6.111595917726275751e-02 4.506927598826854231e-01
1.228624458068365739e-02 4.947642916947395109e-02 4.455247040648783741e-01
-1.132056174413772001e-02 3.619418090002460286e-02 4.459290370812867832e-01
3.634089548379897117e-02 -4.379632652188842484e-03 4.439283306871547041e-01
7.475919889784091166e-02 1.244246100641285824e-02 5.118907014391910204e-01
6.011172366040760939e-02 1.101418915831710657e-03 4.562980599598320253e-01
-1.603954022708907814e-02 3.857773835985978117e-02 4.479700167758532969e-01
4.160045240664167476e-02 2.691479511989353091e-02 4.484072142000070094e-01
5.618108340855283017e-02 3.893071855458003078e-02 4.501617359216439351e-01
8.641638901215385749e-02 2.706008886983943956e-02 4.634247351611059385e-01
7.538553972460293462e-02 2.214861511609080361e-02 4.604021196578405584e-01
5.894049410058179589e-02 -1.223118551249491488e-02 4.627657750730248543e-01
5.121830566943114810e-02 5.960192337222094440e-03 4.509710176007596383e-01
-4.101887325384005051e-02 -1.846981624290572506e-04 4.410170828742467908e-01
5.518119308508545595e-02 5.995682532024766698e-02 4.536158627320014958e-01
6.514722349009578750e-02 4.052763200187440434e-03 5.158657071100386515e-01
5.197958753040078650e-02 6.075732416500671806e-02 4.526456595693424401e-01
