8.547181636298867291e-02 5.511404285687627330e-02 4.854247152874663906e-01
-1.562255651995862922e-02 2.471594973385103644e-02 4.450044734625051013e-01
8.224834730826896534e-02 4.375452201025786109e-02 4.590715216130171195e-01
7.020332604528492504e-02 7.144452952843029225e-03 5.101712564147132811e-01
7.333608357932805411e-02 2.320096032428128549e-03 4.730442320809212231e-01
8.404627292955274553e-02 3.249230311093538603e-02 5.064345768260113401e-01
-1.368775005023309572e-02 3.042420679544788689e-02 4.455277354026093706e-01
7.063550149530901934e-02 5.971407839741256496e-02 4.578391222705844310e-01
7.130524845122783451e-02 2.257767571559248648e-02 4.603690123111568999e-01
3.038610628633129154e-02 3.172577371114746608e-02 4.473655580697318279e-01
5.402878007647251429e-02 3.132427891950296736e-03 4.535510699225761555e-01
7.279947819574889012e-02 1.090378067100293211e-02 5.113984190410973962e-01
1.265307018630189295e-02 4.050411895839001880e-02 4.454569126015265335e-01
6.117626034797536000e-02 1.277371649560325034e-03 5.185335018874704938e-01
7.636732332916908172e-02 5.471172763397920240e-03 4.736232680937698114e-01
-1.053609033172602655e-02 4.578807304726925653e-02 4.473366009803027010e-01
9.343500169342542835e-03 9.006110758846171127e-03 4.416462275768135992e-01
6.996395161594547163e-02 -4.388549633740288815e-03 4.924718911594903048e-01
8.620714036820238679e-02 1.546167552203486957e-02 4.799510924404485346e-01
6.928285937578662623e-02 4.389603263140418044e-02 4.538911499058355670e-01
2.296512027702134976e-03 1.855852902894016693e-02 4.421787962115089621e-01
1.992158682106841879e-03 -1.700412927700038854e-03 4.384830702726958962e-01
9.279959465312832834e-02 2.506585399727124380e-02 4.717203230785984025e-01
5.054422038736671591e-02 8.163297422659428204e-03 4.517047036136779270e-01
5.407172504822283648e-02 2.024122898979088120e-02 4.532587973396169923e-01
6.146036296213150396e-02 1.574410705020411888e-02 4.567627236148049108e-01
3.531626701388849987e-02 6.352032458600170850e-02 4.522101931599183944e-01
8.776652997209676010e-02 2.357170443157083004e-02 4.933286977006003937e-01
9.677791718304164237e-02 2.732588807654673033e-02 4.801719532427926040e-01
8.260743637547471319e-02 1.648427989950158185e-02 4.999509317811258180e-01
2.518244192589578351e-02 8.966150372796246118e-03 4.439006586355768169e-01
8.145123097690129196e-03 2.654884654888604867e-02 4.434894153441155673e-01
-1.478018456929229910e-02 2.838368513894233905e-02 4.453392192674318628e-01
-5.927305535836532163e-03 2.906513673563931172e-02 4.442751269154502358e-01
9.443083111857730749e-02 2.892304764112427207e-02 4.691212676934921610e-01
6.164787793162228996e-02 6.068572449589621637e-02 4.585291632260543038e-01
1.331435824510370826e-02 2.053083873408990956e-02 4.435296308350492045e-01
-3.548291246536875582e-02 1.453353700702258045e-03 4.421577592916410282e-01
6.235852925499366095e-02 5.269842209112789860e-03 5.210677763732485257e-01
7.940659005633889100e-02 4.376575010294796869e-02 4.579677076898713284e-01
7.821512382674225550e-02 3.203497420826666858e-02 5.157984732383817938e-01
1.930822456381353983e-02 2.415603318069109093e-02 4.446323267983143257e-01
8.828338739362856513e-02 3.528221895237482197e-02 4.985377223668175928e-01
6.724907583656059007e-02 4.470319511615764886e-03 4.624660383011237053e-01
2.768240804228836588e-02 2.551083696205257156e-02 4.462513635221077024e-01
3.448699393603130159e-02 6.261554846387906714e-02 4.515162707876194670e-01
1.224872590315075754e-02 4.820080484744134613e-02 4.464151114682165522e-01
6.534069117880147992e-02 3.167331772908225235e-02 4.562095544876057507e-01
8.640288655240943583e-02 4.506144013628764905e-02 4.596028030160790867e-01
8.829751520453724134e-02 5.336626773423992776e-02 4.875495168708759985e-01
7.620784780493899957e-02 3.834295870783947097e-02 5.116464067013107853e-01
6.740016464846504407e-02 6.969875958853506519e-03 4.618855344817316411e-01
4.666669525616126690e-02 7.428735194712385650e-03 4.498802487402437933e-01
7.238981561258271691e-02 2.708781174269473194e-02 5.240600229320356851e-01
8.496462740820746873e-02 3.465412238580756893e-02 4.648622212609012649e-01
-3.961932700578462557e-02 2.878150511120522101e-03 4.446133885791370144e-01
9.092249345905971392e-02 2.440328949866168301e-02 4.711701437335095721e-01
-1.541282090278197313e-02 3.475045779930099887e-02 4.468648373989847489e-01
2.168699978980002940e-02 1.761866037570074955e-02 4.444047205803037803e-01
7.991388958323149272e-02 7.832131354628924305e-03 4.859640170012506921e-01
6.011145889840148471e-02 4.510333675829269334e-02 4.518198122058207922e-01
8.173086914921336155e-02 5.016842969678186881e-02 4.970269405111904515e-01
7.068057767167029715e-02 9.649221749407081022e-03 5.128259685729730233e-01
7.502023188806657139e-02 2.228640696290497270e-02 5.189743375344654241e-01
7.391966108504519073e-02 1.674897385069324188e-02 5.165295931285267539e-01
2.949611726975774270e-02 3.994006518882495249e-02 4.478188158329623469e-01
1.645469933693095507e-02 2.217871870520988012e-02 4.440969282752260661e-01
8.192516247581567435e-02 4.365757176515095567e-02 4.590030063517110404e-01
9.388974117818008058e-02 2.947457322948819972e-02 4.685535142074051529e-01
5.840212483601556898e-02 5.410213066289900480e-02 4.509105642934821412e-01
6.421528742276202961e-02 2.449602991508318534e-02 4.568271859230201848e-01
-4.695109430373779411e-03 4.028419333111533246e-02 4.454206144946897816e-01
9.035177887741335789e-02 5.537640583243597092e-02 4.661364553190809890e-01
9.175732750921014591e-02 3.093646645297286335e-02 4.663215480455975004e-01
8.275672865604337403e-02 4.160970646439768328e-02 5.034666369903273431e-01
7.159208294982337406e-02 4.114125061457396537e-02 5.094928009699599691e-01
3.684048485131589945e-02 2.967407005451117713e-02 4.485868421927779459e-01
6.922770042384775169e-02 1.042552714828385609e-02 4.620764961168601914e-01
5.595122973864129906e-02 1.927551436233820512e-02 4.540312889088164439e-01
8.586589397759117337e-02 2.270208323260593242e-02 4.964556385569983132e-01
1.903866090918771709e-02 2.533994149104760313e-02 4.446635771296364448e-01
-2.182836399009075237e-02 1.927815147047853839e-02 4.468135946923014745e-01
4.427065681084789428e-02 5.937887852570558622e-02 4.507133177068576302e-01
7.752654381430840180e-02 3.385656918397778048e-02 5.148831422227055921e-01
3.430299575049612637e-02 5.309271111325092329e-02 4.486690006846667522e-01
6.557830878814540840e-03 8.790268023336553563e-03 4.412952149108933519e-01
7.027270488386126723e-02 1.927077069999618905e-02 5.228385307104083113e-01
-4.743842364339409534e-02 -2.628632286505454448e-03 4.456176124474829914e-01
6.263128505125249712e-02 -2.385570998265882769e-03 5.127323805025585379e-01
8.471059572376836433e-02 1.593410629962894315e-02 4.903701744902215776e-01
5.105846866342807905e-02 -1.413951614928322248e-02 5.291685135663881656e-01
5.646478142057147209e-02 -9.180435658790947820e-03 4.585971051333354032e-01
6.385766347180665825e-02 8.917086673505623950e-03 4.588166194670819653e-01
9.962079453340801083e-02 4.325697602357873178e-02 4.784492928916145305e-01
8.090771984657298133e-02 9.334412083276382582e-03 4.887219392299855247e-01
5.844835696027981392e-02 2.952507889269118460e-03 4.560793703730793291e-01
6.891835358625535146e-02 3.599010320801510759e-02 5.173400339179019536e-01
1.037873374027346446e-01 3.970422851011081583e-02 4.739049092689154863e-01
7.446697390006505601e-02 5.944022311766913175e-02 4.617679787476794973e-01
8.872573167864615529e-02 3.594946340854118100e-02 4.974717673467038970e-01
4.944807846972018583e-02 6.144556760010863941e-03 4.511100420558809554e-01
8.180903271422854117e-02 2.480739392893670930e-02 4.652712851760029689e-01
7.052305365764854894e-02 -4.981730965120712701e-03 4.811020132145377159e-01
7.302213423414870286e-02 3.160174069426869431e-02 5.221680556644449078e-01
3.443402274562903237e-02 4.268328920929331111e-02 4.484368661734263739e-01
4.395459533555829551e-02 1.980378659065546235e-02 4.498106851124433203e-01
8.885077729119213175e-02 2.378399008558060995e-02 4.910424075721815940e-01
6.141810834605349045e-02 -2.565634833003903499e-03 4.603870701794735010e-01
5.107539099162382301e-02 -1.269658147308812962e-02 5.287262425217118533e-01
1.062564122629681279e-01 3.576201585282507561e-02 4.717172723796373424e-01
1.105166171005714758e-02 1.788894963421798490e-02 4.429681904499088163e-01
-2.276461269096707526e-02 4.033834486489966398e-06 4.399319587481937410e-01
5.239898115463917719e-03 4.565849326291765431e-02 4.457187247894361937e-01
9.501275336529944882e-02 2.519633007297265165e-02 4.739592975304808276e-01
9.758386547550689655e-03 2.920774025892011738e-02 4.439109505013628110e-01
8.687489507800559563e-02 2.227871064284668579e-02 4.938656702875180438e-01
1.047158685540937675e-02 2.895386872253944560e-02 4.439484247526782612e-01
-2.867274844890960531e-03 1.695843463019666361e-02 4.416773482383887228e-01
8.454547966116872371e-02 1.763383970723395033e-02 4.716335835182161040e-01
-1.610089512585360927e-02 1.567453777687702332e-02 4.435888892508593750e-01
-5.967075822926498282e-03 2.982624085955524335e-02 4.443668919094464487e-01
6.622411531913618976e-02 -3.931705827024345457e-03 5.042110477168160187e-01
1.058345312674337235e-01 3.670234193899340330e-02 4.709088326055057006e-01
-2.897087590490791953e-02 2.973056018210510319e-03 4.422267077077672859e-01
8.990883021345374981e-02 2.623984261529370768e-02 4.687497491367533242e-01
7.575637686178005037e-02 4.333514876737236746e-03 4.944242148720330299e-01
3.282657695779431228e-02 6.677003651002261578e-03 4.449112736857767092e-01
3.366149497959844417e-02 2.238119012144941869e-02 4.473238234829242654e-01
7.131253714555611800e-02 5.449743106785964047e-02 4.539276872560567555e-01
6.801185136806664477e-02 5.550783883714274086e-02 4.534037142003596310e-01
1.568541671735874943e-02 4.105574613439333040e-03 4.410435413867099252e-01
-7.021388725505397013e-03 4.393656849130644915e-02 4.463850971148832780e-01
-2.745931796194747004e-02 8.221305467562774888e-03 4.456129454556314040e-01
7.689771062225951581e-02 4.456595633331682932e-03 4.828384943632246795e-01
1.019510029122272926e-01 3.145644023531661559e-02 4.731772108136406141e-01
9.089242930907778795e-02 2.472300587046042525e-02 4.873260342066778605e-01
6.969235108117115274e-02 2.455272202594472805e-02 5.258650775946603906e-01
8.466738161715971211e-02 1.850393693561147579e-02 4.951037176106410920e-01
5.755266223140421272e-02 1.116552776401516511e-02 4.551009109820039478e-01
9.151165378563758113e-02 5.168931070984916082e-02 4.642554944630559732e-01
4.638137934991368172e-02 -1.568083046714091860e-03 4.498035770977363845e-01
2.121776876175653775e-02 5.412464593426871001e-02 4.483261999223016048e-01
4.312864965712798204e-02 5.108221059457027091e-02 4.494079571966869691e-01
9.629648855103284388e-03 5.674307710162302537e-02 4.528064944644088485e-01
7.458428779767761752e-02 2.196324397465131140e-02 5.193025250254846847e-01
7.023246922297751715e-02 -6.534650341490433507e-03 4.849603345353190043e-01
8.025993807635600774e-02 1.317026361151736082e-02 5.012773816450372122e-01
2.524277782119509206e-02 3.696906032301245509e-02 4.469642946735205569e-01
8.387609239758370139e-02 2.244118210131914801e-02 5.040633404206900092e-01
-2.123966382413904064e-03 1.983956141427854931e-03 4.392625844826170689e-01
-1.249580611348538248e-02 3.778138020179949708e-02 4.466993629699199664e-01
1.467708451904933299e-02 5.314177020133181023e-02 4.480221834274241699e-01
6.136058340384997062e-02 3.717040027598190327e-02 4.536004009379961399e-01
7.455451353532148440e-02 2.159894568010425897e-02 4.623879600301245563e-01
8.572415332290496404e-02 1.581507640412709026e-02 4.875391142765296282e-01
6.613521366069348428e-02 2.399251699623673479e-03 4.622811615335141733e-01
7.934498951561876068e-03 3.838603931995225593e-02 4.449240543344554766e-01
8.096185410313194719e-02 3.769799890859285019e-02 4.628107055635614087e-01
7.793756350100364272e-02 3.022573877281058141e-02 5.167462244586287223e-01
7.650845982430573566e-02 2.819693196972014593e-02 4.610237772767076803e-01
6.961132416208433427e-02 -4.994909692235286955e-03 4.941177005131191513e-01
9.265881148287505309e-02 3.930870222273791237e-02 4.642385425519598430e-01
8.401691086704221600e-02 1.358259734350006527e-02 4.753955893423651435e-01
1.483053181269034654e-02 5.641982570400686653e-02 4.496809693138454356e-01
7.909043076877163292e-02 1.244712413645842307e-02 5.032971791814230267e-01
-3.218697326752912886e-03 3.213545726737755681e-02 4.444141739739553287e-01
5.076966314076476056e-02 1.941591291992036949e-02 4.521291093050365251e-01
8.429518292860277429e-02 5.040399635520630139e-02 4.577701824307518486e-01
2.785107213772823956e-02 1.375831274074017230e-02 4.450866428743475156e-01
-6.860747542034689153e-05 1.868452092118596738e-02 4.420121711480273219e-01
8.158957895696146434e-02 5.642790045710053409e-02 4.851376104324171545e-01
5.535256796434832177e-02 -6.042527320437640626e-03 5.230953727510622153e-01
1.436480685472306569e-02 5.339701330379994365e-02 4.481299058255703849e-01
9.378746023602964332e-02 5.043557905787179885e-02 4.813516202463467009e-01
5.058730525378439535e-02 5.983315818162154159e-02 4.527736401993715520e-01
-2.985616358040846241e-02 6.019279411031393592e-03 4.439132020943062917e-01
-1.477953905342147684e-02 2.937437062667779333e-02 4.455134786595725815e-01
-1.259473993566379013e-02 7.313100022115392312e-03 4.406675752730130902e-01
7.443307240756510956e-02 1.520685693017999676e-02 5.140393622151681052e-01
8.885990221653114127e-03 5.619992484500747898e-02 4.514408149672256010e-01
8.048249942085698022e-03 1.610960437709153814e-02 4.424042359787263567e-01
7.448679879569036766e-02 4.508877787756097183e-02 4.552375105908794128e-01
5.885459827479374434e-02 5.532901845259804996e-02 4.514222905640322692e-01
7.320656812378206757e-02 1.327478171332599488e-02 5.135513335372050570e-01
2.028732801110199463e-02 4.056811508893284901e-02 4.465181614861583048e-01
5.662199945744742641e-02 4.097107927063325244e-02 4.517183750789972585e-01
8.299567662642710897e-02 3.345655547054549039e-02 5.084689382295614068e-01
8.076305704119907114e-02 3.206812552976692765e-02 4.630548301171490411e-01
9.791294622322918584e-02 4.493741964897033508e-02 4.771119759208817257e-01
9.821395728744349019e-02 4.140921635938660250e-02 4.831442924520371607e-01
7.012838034890982175e-02 5.994906859492417361e-02 4.581512706888463127e-01
8.481415165836776737e-02 2.878249165114159930e-02 4.645570399458923694e-01
8.784446993621407296e-02 1.943918378992375018e-02 4.755670881860215582e-01
2.556158378560621433e-02 5.133038352954910621e-02 4.478465514200092312e-01
6.305242360467752660e-02 2.263562126826052911e-03 5.160894216072865470e-01
5.940485896882072986e-02 1.043760904069007331e-02 4.560804289231585873e-01
1.004671103625257578e-01 3.098321995101689652e-02 4.712844227123169638e-01
1.674848748954530647e-02 -2.335513193650333615e-03 4.396151621987907654e-01
6.089506540064479334e-02 -3.800056115553867263e-03 4.605327793408550696e-01
7.878655737300288564e-02 6.706202785259299075e-03 4.829730459794765451e-01
-2.278581248247826471e-02 7.461815922768040912e-03 4.427607244950053089e-01
3.550280622320618751e-02 2.050048328591556196e-02 4.475422478892346345e-01
3.291541338073034756e-02 1.443420261063427940e-02 4.462311822196152744e-01
5.881784644768017767e-02 5.628005691426423568e-02 4.518486482903324997e-01
5.308370684917788213e-02 2.654437521005516623e-02 4.530083102925224758e-01
-5.948890401028862976e-03 2.888705660645022807e-02 4.442580190375854943e-01
6.131048067504049626e-02 4.481221403983301488e-02 4.521640358448772989e-01
8.888490457994896454e-02 6.028350472049924524e-02 4.697653345102038580e-01
4.566872729696886540e-02 6.098524067938256715e-02 4.518698399143127875e-01
3.364602144970276626e-03 5.025166826732753445e-02 4.469983662832301974e-01
-6.703105705715246658e-03 1.685220294780464395e-02 4.418830533985977360e-01
5.242936407291026030e-02 -6.387820925760073418e-03 5.255530923659692544e-01
7.130251271078301423e-02 3.215694384471938505e-02 4.587334562714350805e-01
6.707076404361353612e-03 3.603007474692467710e-02 4.445797816087589394e-01
1.904290734743057864e-02 2.403098418255763744e-02 4.445868069891873442e-01
5.089549125742667823e-02 4.221906172322285183e-02 4.507369716162120676e-01
7.464073228919455849e-02 9.853712108385515554e-04 4.851537607839990218e-01
-4.386334976284352385e-03 2.713698655219178024e-02 4.436823266291115009e-01
1.841418694918952118e-02 -2.235639231938322050e-03 4.398949297865418218e-01
5.728526792858153888e-02 -1.042429900036466114e-02 4.606181087954703268e-01
6.780813324714903001e-02 -2.816807035437380625e-03 4.690612519115523460e-01
5.229534209406347389e-02 4.890396414441781220e-02 4.504575551481779239e-01
1.059143941665673661e-01 3.710610833810012998e-02 4.742475191404411095e-01
-1.029894024296758998e-03 1.432535014662541031e-02 4.413710285275435075e-01
8.771709713114272944e-02 1.774710602043789304e-02 4.801078015883888939e-01
3.575339600580808297e-02 7.944506765441523150e-03 4.458239244168131221e-01
8.507236196382916837e-02 3.109876036216749698e-02 5.045078284168365013e-01
3.272207721189596824e-02 1.192991258797038157e-02 4.458670085772390990e-01
8.077916952630193048e-02 3.910443176076639632e-02 4.617332314894319056e-01
2.614491363697923898e-02 5.970015339189495285e-02 4.508176755874884756e-01
7.966738154667310501e-02 3.305986677685495562e-02 5.135943371124334078e-01
9.776534495270514102e-02 2.764713548985150288e-02 4.789822611048529799e-01
4.240765289038715344e-03 4.784287205712822039e-02 4.460573363765343302e-01
1.085715888128124286e-02 2.245300470621775304e-02 4.433005098856247495e-01
6.416667882335927442e-02 4.989610144635017036e-02 4.517766430236004327e-01
5.825542741917121015e-02 -5.067737810224231566e-03 4.577602817927660106e-01
-8.728108331970775569e-03 2.078325623062515781e-02 4.428685831465211109e-01
-3.651278317029944820e-04 2.856026523960875432e-02 4.436846955693907746e-01
8.599589523531858681e-02 1.747517980512749286e-02 4.737646882029983297e-01
-2.355875785811750202e-03 7.464766442886303435e-03 4.404396108574368807e-01
6.447384984493974291e-02 -4.939885422372926110e-04 5.102119787157111119e-01
6.746704661109823031e-02 3.458259519776149538e-02 4.563131696173782781e-01
2.677002300920668793e-02 3.205255590993015546e-02 4.467372210342423489e-01
9.925107350475194379e-02 2.845981798059306345e-02 4.779464746634035088e-01
2.271255532612646497e-02 4.902309378356164982e-02 4.471229211451206442e-01
5.507742740432788886e-02 3.854003883565761124e-02 4.518883209378208310e-01
8.347060354131057014e-02 2.703926505242853010e-02 5.072785496376719383e-01
7.441773567391911370e-02 3.217386671391805203e-02 5.201768447470649370e-01
7.622541941365579277e-03 2.400840160284552216e-02 4.431860522135153690e-01
8.438503142857553541e-02 1.701160469189136673e-02 4.937343759156379575e-01
6.294905822766234949e-02 2.403011177310551000e-02 4.565005208795497871e-01
8.479462708104354429e-02 2.711791593599091610e-02 4.655357911448533836e-01
7.340511462118458341e-02 2.201242331810584346e-02 4.616772480262520406e-01
5.319207700449912063e-02 5.596018838222111685e-02 4.506734715271216163e-01
6.730587267179134747e-02 9.109874273055897781e-03 5.175347103156400230e-01
9.378366903227766671e-02 2.461109012122594808e-02 4.757615283994767186e-01
7.202344471741470300e-02 1.097054916943621984e-02 5.126395791526232593e-01
5.113465535158872449e-02 2.836804941110674869e-02 4.523344147055344266e-01
8.900292624726022228e-02 2.364823726551250338e-02 4.905134611367721331e-01
4.235878313924243410e-02 4.438046336162687622e-02 4.495224556206909305e-01
-2.342924600910587310e-02 1.685702881439520365e-02 4.470430001392226571e-01
4.465848920593899762e-02 7.617471131078763953e-03 4.489399873973486388e-01
8.033680120772725142e-02 8.720243261788603734e-03 4.788677091459451196e-01
8.610323111361775292e-03 4.120641097894034433e-02 4.452688882166001005e-01
-1.118309204757244810e-02 7.024261103240080940e-04 4.387780049752464384e-01
4.871913845992599523e-02 -1.429475991290277831e-02 5.312548590304253526e-01
4.893573329871807320e-02 -1.148978372836233566e-02 5.303909317676887003e-01
9.595208231543890867e-03 3.595558921192455737e-02 4.447071368610551190e-01
6.623940111364300110e-02 3.102000949782375734e-04 4.641160423588747697e-01
6.834482414394217609e-02 2.296320331068454554e-02 4.584911373581893046e-01
7.394816216968995437e-02 1.014791575746922143e-02 5.086823215267882725e-01
7.344618018607546039e-02 3.692054673065815751e-02 4.592441141010672467e-01
-2.153142516000751405e-02 2.641019105220444516e-02 4.476422519786689147e-01
-8.984867054520817228e-03 4.085288787883477324e-02 4.463768163624060037e-01
2.716465325739793324e-02 2.828208195655262935e-02 4.463488438388256152e-01
5.047343025947465672e-02 3.055382510788971773e-02 4.520266995450321623e-01
4.466318514192643002e-02 5.431144097136985510e-02 4.494343687233942619e-01
6.417927718926348668e-02 1.168258547341009031e-03 5.127645723990117421e-01
5.280207436884185035e-02 2.049055022986759345e-02 4.528324368286529289e-01
6.930361761248406138e-02 -7.009141194784867038e-03 4.921989023901505722e-01
7.805196063200975365e-02 1.604351433704507765e-02 5.100782132390341284e-01
8.094861580917087074e-02 9.272248288458103185e-03 4.809403948004241092e-01
6.950404419320267702e-02 7.558471533152354496e-03 4.631196417212498084e-01
-1.267405126079489130e-02 2.625228598027667948e-02 4.446808174970388050e-01
-4.327965051112201735e-03 1.625131349948545287e-02 4.415846983596316000e-01
8.907193952212015542e-02 3.258052351425700516e-02 4.970023951088862746e-01
7.839990021817287713e-02 2.724730716558278892e-02 5.158756335341602162e-01
4.372452109164932932e-02 4.370219627033150069e-03 4.484313798734083645e-01
7.079564347589538398e-02 1.751550742981408670e-02 5.207745717414120623e-01
6.386369721871365535e-02 1.028874214296044733e-02 4.586502398688073190e-01
-4.958405049972274513e-03 3.047081040498918897e-02 4.442973845739376371e-01
8.689318581227485627e-02 3.603794806882244794e-02 4.651100250063383568e-01
5.898293531147325713e-02 9.741933720073574915e-03 4.558465977343790776e-01
3.888630910381247335e-02 1.971395541688050757e-02 4.484147191491214546e-01
9.559766191635334087e-02 3.473274093968652804e-02 4.655473743998381764e-01
6.257324744068402944e-02 2.544078420197771508e-03 5.174195178635216941e-01
7.529627937885573219e-02 1.066615734273838531e-02 4.670608124059767996e-01
2.636544714954231622e-02 1.775511667973971074e-03 4.423798680718341036e-01
4.114350701843428985e-03 5.066754199231869593e-02 4.471769301861018286e-01
4.384600576368061914e-02 4.966163360050368514e-02 4.495609187090412462e-01
-6.520044127148428952e-03 2.087246875772645616e-02 4.426433927197843676e-01
7.194770362122429597e-02 -7.070691734155322081e-05 4.947912145333479561e-01
9.484301406333085771e-02 2.951931167048345989e-02 4.689833252828403132e-01
7.577752943315113621e-02 2.937173622512031373e-02 5.198084701669695162e-01
-1.411768731687968251e-02 2.424021896082808377e-03 4.397438107872492230e-01
9.843450553539405401e-02 4.466936103379691436e-02 4.763762847561242020e-01
2.414888618439584023e-02 1.701579630940776994e-02 4.446733426745595463e-01
5.119816656335467869e-02 3.945867283042110707e-02 4.509806704316567938e-01
9.142884581334838334e-02 2.261003282765359362e-02 4.800873504027275973e-01
9.881413593242138055e-03 1.477354093237360014e-02 4.425064781408488135e-01
8.852000033859325212e-02 3.866188994657279027e-02 4.637761520487428402e-01
6.715278556589217296e-02 4.544768860284451734e-02 4.531507974877647671e-01
5.956640856622729373e-04 4.211286590305450550e-02 4.452855286123459377e-01
8.608523072056428749e-02 6.135104629708346136e-02 4.646908715756586372e-01
-2.061374781256707089e-02 3.909920566903878764e-02 4.503874691434243682e-01
9.004055367499863571e-02 2.146008355352188590e-02 4.833666506736184476e-01
5.807514590411645694e-02 5.788273710061508925e-02 4.532080676968365252e-01
6.084272561935558793e-02 5.917140523378219830e-02 4.564916204947401801e-01
7.544895529070468065e-02 1.322994863540302019e-02 5.104030328059462329e-01
6.824925956755267809e-02 3.551878662052820185e-02 5.185668539412077171e-01
1.649532638340450025e-02 1.762874191196666870e-02 4.436678150652583752e-01
1.775842749120971897e-02 2.568196162974919605e-03 4.409828285868374609e-01
4.740072962417800351e-02 5.294379461091111572e-03 4.501143500177078316e-01
-2.672767743692631981e-02 1.427165336117213780e-02 4.478903806379270769e-01
8.603048245813352257e-02 5.459313890639130862e-02 4.871518922218750491e-01
4.204752195923765201e-02 4.651707096546831705e-02 4.493959373199346019e-01
3.304546941238661883e-02 -6.072802251816660814e-03 4.426661368553311271e-01
-4.402079941187001313e-03 2.699590031412868116e-02 4.436532025598991513e-01
1.441328031440652739e-02 4.256479784366493796e-02 4.458333546085063714e-01
8.421924766101257509e-02 3.843476414907499167e-02 4.629067241833533242e-01
7.853710854134793307e-02 2.712555013412849825e-02 5.156407660296988826e-01
6.443044244555751199e-02 8.826873357718445848e-03 5.213693754124050228e-01
4.224780856553556757e-02 1.765400959882429399e-02 4.491025770385171922e-01
7.878077828666975313e-02 1.542719862121684146e-02 5.078909787383552032e-01
8.021329431281423727e-02 1.524089242137555318e-02 4.687379704036718775e-01
7.015258965501672273e-02 2.299961758659247249e-02 5.247034329994565427e-01
7.307508042562468192e-03 2.751779354938564681e-02 4.435343318415736480e-01
3.139308133984017313e-02 4.613914866595084097e-02 4.479558129292747770e-01
6.837279450264313607e-02 3.617367830284745622e-02 5.170624988582201986e-01
7.062502227671195454e-02 3.459744485428457861e-02 5.200497969788173691e-01
9.357186644954809673e-02 3.491005626916820342e-02 4.898628092775765275e-01
-5.250029991397099638e-03 2.226567734746855848e-02 4.428275517290803931e-01
2.351477002498368954e-02 1.589367668313079046e-02 4.444368116691250203e-01
-2.210557233322645726e-02 2.373711104810963864e-03 4.404137023132164708e-01
9.793295801413463841e-02 2.775106187447235959e-02 4.732915986825236287e-01
7.745731960047937126e-02 1.160053712787145752e-02 5.052148905442249704e-01
9.479107482426181452e-02 2.594299295527369847e-02 4.816722810490540185e-01
7.489092157125684657e-02 5.080841926604362686e-03 4.717450358116313525e-01
-8.080788174779175714e-03 3.271425906300615832e-02 4.449923219675243624e-01
4.605222160711242713e-02 1.505191010393596915e-02 4.502654546452813378e-01
8.957278073177578348e-02 5.700426849448381184e-02 4.730857433240582832e-01
-4.241358420799996171e-03 4.013600735603373160e-02 4.453078128189540963e-01
7.576845574991736276e-02 2.828507467880982292e-03 4.839389958380024281e-01
2.010117884869797381e-02 2.470662521697417069e-02 4.447788271059086029e-01
6.028854746335640669e-02 3.055422977258061279e-02 4.548679119113372415e-01
7.106308242722605972e-02 -3.051629884710223631e-04 4.720408930897596611e-01
3.574529273955964065e-02 1.128930755287051516e-02 4.465030598717978361e-01
5.401249846396133369e-02 3.191327770334383140e-02 4.527754972831335434e-01
-6.508958134044649096e-03 5.211139944984051475e-02 4.493598595479997293e-01
7.026170511509281791e-02 6.810177407892539780e-03 4.638054676426905387e-01
-4.967406776625347964e-03 4.679496358519929372e-02 4.464262028735142551e-01
9.326911174801882920e-02 5.166571512553179424e-02 4.799630448986053066e-01
-8.738875470168798107e-03 3.354278148596639975e-02 4.451892006835251325e-01
8.066968255885337280e-02 1.004353154492700247e-02 4.923586023810739287e-01
9.918518371142592827e-02 2.810021409927652286e-02 4.772246716162259483e-01
6.282857560747484582e-02 3.314986787235936483e-02 4.550513384894663838e-01
5.991924534828049764e-02 1.045141150947680175e-02 4.563463355166255120e-01
8.734373106140493059e-02 1.787947916272997206e-02 4.860790859885136816e-01
5.309575684009689572e-02 2.531621470655428738e-02 4.530241759025201431e-01
1.047522906081583827e-01 3.732454384392740188e-02 4.766213937724226302e-01
-4.415761120362723252e-02 7.288370776382334902e-04 4.440695295325012282e-01
6.407398051729515376e-02 1.298182491440772260e-02 4.584669900338706472e-01
-3.588365986168155861e-03 3.553609053128262141e-02 4.448330660664843172e-01
7.590671137237836597e-02 3.229560448054703825e-02 4.608356653785460888e-01
1.585213042838626643e-02 3.071012952948073624e-02 4.446994561197942231e-01
8.809014333772970107e-02 2.199860605727183352e-02 4.906363921645017223e-01
6.763944475636220199e-02 -3.059437119702860391e-04 5.040487102318924606e-01
8.988683616575918189e-02 5.286370591707711952e-02 4.855669173374996261e-01
6.016358283504867621e-02 5.640342051951048596e-02 4.521151848780470273e-01
6.164461274533016705e-02 -1.107366406332439129e-02 4.672247382379046687e-01
7.148070122598061682e-02 2.620616306144867708e-02 4.591993471547351491e-01
-1.049608618458053137e-02 2.556984221377930563e-02 4.441660882091217344e-01
6.882392693198720324e-02 1.270330477240231085e-02 4.611460843964222955e-01
9.633683614075802537e-02 4.758336399197340971e-02 4.745077867189343435e-01
8.635919612750564411e-02 2.477356967369320068e-02 4.973068825725612818e-01
2.908748225094676468e-04 2.214541588635406122e-02 4.425654606787476353e-01
6.965580794060026448e-02 2.720962007892191101e-02 4.583616950704441639e-01
6.592774179416516223e-02 6.048082480785092058e-02 4.577411648586804938e-01
6.622278089099392639e-02 -7.592480130372791097e-03 4.713572060818967957e-01
7.457615453945758144e-02 4.117453221961912130e-02 4.577353199157873087e-01
7.140980051540220253e-02 3.199986554242977704e-02 4.587696676325150325e-01
9.480702558830569893e-02 4.688499038358594911e-02 4.853958660139995884e-01
7.101179924091653717e-02 3.097024019605658374e-02 5.253876690818575224e-01
7.309775043774652259e-02 1.089422307971909306e-03 4.747576445625792396e-01
5.776203296674339328e-03 1.341265901511713016e-02 4.418493362164919724e-01
7.285013740448478825e-02 9.363992084922407449e-03 5.090311077113434113e-01
4.440850389119464087e-02 2.768238010440290595e-02 4.504686932854886083e-01
7.067060222698154370e-02 2.054792759347377762e-02 4.605313402326357552e-01
-1.121431035653594130e-02 4.794806555944595983e-02 4.490120565942605779e-01
2.943033945137249474e-02 4.981158312301969121e-02 4.477428197131034793e-01
8.196007071764162266e-03 6.391469938815660078e-03 4.409572748655273822e-01
-7.779680894555635051e-03 -1.943396540359928690e-04 4.385667023189457336e-01
7.884196428842533966e-02 3.926581882960501757e-02 4.611163080181748253e-01
6.164973650435140451e-02 3.634311721547643648e-02 4.538392652645229508e-01
6.670478118364943365e-02 3.120999530238428420e-03 5.107042066734767127e-01
8.942712761536247834e-02 5.369466775382740475e-02 4.846303800503652393e-01
2.215625348779654696e-02 3.206062949968762482e-02 4.459370104292713632e-01
2.621716502014917460e-02 1.160145083405977233e-03 4.421518924800030836e-01
-4.664957165862901323e-02 -1.557828408058398086e-03 4.440059466144676836e-01
8.568095154416702219e-02 1.514788952238083075e-02 4.853093717498865312e-01
7.661081182247271582e-02 2.277888043317092062e-02 5.173772629541214529e-01
-2.012382789383006590e-02 1.470604635377023052e-02 4.449177427377764560e-01
7.068403362610936602e-02 4.538068883775846912e-02 4.538045841068610864e-01
6.243533050091586156e-02 4.862347763703008668e-02 4.516531869414858180e-01
9.073111233071541604e-02 2.275208032106049855e-02 4.763884984913280829e-01
8.377372768295743288e-02 3.529677697703535733e-02 5.067294264598072306e-01
6.169475990523105857e-02 -1.883986420515920950e-03 5.149419545791703579e-01
7.068728992405953759e-02 3.020863243230547182e-03 5.024062003486077232e-01
6.852710025209414468e-02 -6.216852489190905807e-03 4.752653755857565443e-01
8.225881096196054065e-02 3.500264941090049098e-02 4.639364137786221587e-01
3.342265791188304969e-02 2.584005469241838424e-03 4.443588919124799586e-01
8.844101290651497360e-02 2.173205022591268021e-02 4.894741606636577314e-01
-2.008664883344065191e-02 3.024878670893543092e-02 4.478340082764721286e-01
6.421607949578134189e-02 3.493696858038616848e-03 5.155630818262850745e-01
1.775023915006004177e-02 5.932187234529796849e-02 4.522827595954067581e-01
-1.859410806413519003e-04 3.917608531923827409e-02 4.449855984625503136e-01
3.949732241060322641e-02 2.112809150543222547e-02 4.486964677686576808e-01
7.511851383125479897e-02 4.499155873101907954e-02 4.555178363771369976e-01
7.278691148034567571e-02 2.336858132360224508e-02 5.219983430489449905e-01
5.128174663449663884e-02 2.505071324129688401e-02 4.524069683282307963e-01
-8.162271488041760240e-03 -1.745553358209035949e-03 4.381398897582208796e-01
8.408081249394175338e-02 4.587867321078806238e-02 4.996520456712347791e-01
-3.126904818984029000e-02 -1.428524319096208684e-04 4.410378347426715528e-01
6.186521177174698904e-02 2.913349072925753083e-02 4.555500282180069416e-01
8.801157452042977780e-02 2.346969218758910083e-02 4.926438810821883174e-01
9.241715242278202014e-02 3.604285332187390917e-02 4.914171952973200863e-01
2.810707674025279476e-02 5.611009263823589499e-02 4.488521688721913150e-01
6.363801993567307080e-02 3.093325995796005617e-02 4.558321154498010674e-01
8.750214679625267777e-02 2.816108163953545684e-02 4.979070380286242381e-01
7.701078829593356601e-02 4.952078575377213271e-03 4.906423586987416208e-01
7.570410739508409703e-02 7.886298403605867396e-03 5.025858428838763103e-01
7.572357400421732276e-02 5.943576785246338333e-03 4.984496647185428508e-01
6.060390540129938913e-02 1.910337455882029148e-02 4.559579030934347021e-01
1.028176965788755032e-01 4.058459320672499343e-02 4.738951742896961861e-01
9.435231642534983032e-02 2.667907006972874279e-02 4.711447704267641146e-01
4.547556151009962688e-02 2.455858822039741485e-02 4.505734345500589932e-01
7.212588392784927138e-02 5.103045493108119939e-03 4.678931804533021932e-01
9.700651637509068170e-02 2.976974712425850544e-02 4.698752364582257646e-01
7.754272445810971026e-02 5.829129052217907683e-03 4.771608690371088590e-01
8.737899013586419850e-02 3.291822401824932853e-02 5.004408621743975383e-01
7.706599152924137330e-02 2.008235888149844175e-02 5.147078311195402156e-01
8.202672243413254571e-02 1.141273551070715736e-02 4.749014005271640637e-01
4.813754318490911371e-02 6.101406378284289500e-02 4.536435609237422506e-01
7.310347204062898896e-02 3.011797677513501637e-02 5.232774776166390085e-01
4.450623956302256212e-02 3.392282170661754109e-02 4.502577899666408423e-01
9.624855270806230434e-02 2.819844956060570465e-02 4.820577188376112820e-01
3.708186745248821456e-03 2.198026590921790466e-02 4.426734423720070644e-01
8.559661999731157933e-02 5.283366015383543501e-02 4.585961616417378872e-01
4.100593394835282818e-02 2.408956174617568266e-02 4.492947887402559681e-01
8.086315974319681354e-02 9.000532622642871614e-03 4.839152121305187459e-01
9.195426715073314050e-02 2.378061240891028369e-02 4.768817776811137277e-01
7.161535550075098788e-02 1.514069762509850578e-02 5.178605840513517133e-01
2.760309460305957960e-02 3.298573029954370017e-02 4.469833020107847332e-01
9.397575930658381982e-02 5.095669382380479950e-02 4.706715130815221637e-01
1.112740039052194201e-02 1.405734524343104155e-02 4.425605940955784634e-01
6.966196881708784650e-02 2.963449273405267988e-03 5.044904533258947055e-01
3.007188655023310120e-02 9.514339865523635531e-03 4.449672647590701691e-01
4.736222305936296784e-02 1.785913346884614172e-02 4.508831006487390436e-01
5.156511391520997301e-02 -1.461074184426781018e-02 5.288291285926256524e-01
8.333878516853000795e-02 4.175115577312555476e-02 5.027252140129526703e-01
2.729016026412231510e-02 4.095059539358989614e-02 4.475035693828083860e-01
1.039719346634722236e-01 3.520550502457454878e-02 4.783890018583444315e-01
8.393657332293844031e-02 3.088952205865147516e-02 5.068738233657630321e-01
6.950712900094453695e-02 -2.096619407432891331e-04 5.000045699309935143e-01
5.693008431785866186e-02 4.675032258649376715e-02 4.511149222591394059e-01
7.037784741396570232e-02 3.151227132867811739e-03 5.032476473680197460e-01
7.482395750984613403e-02 3.464553343468915886e-02 5.169206985779271069e-01
-1.556314535468671101e-02 1.679915137665711003e-02 4.436050754668386942e-01
-3.780489096989422294e-05 7.009566981279415424e-03 4.403848338314751421e-01
7.544136034401038859e-02 8.897623862219868757e-03 5.046451511040506155e-01
6.099072975715693484e-02 1.121142909521598112e-03 4.581685663484180715e-01
3.415297729123844411e-02 3.664081720178936907e-02 4.484061863528714942e-01
4.758497074652206366e-02 1.774076112704323083e-02 4.509541866237132823e-01
9.517303885645982120e-02 2.515620763448096417e-02 4.745164234313744567e-01
5.411865709240817196e-02 -4.583155216025888365e-03 5.236418698755850309e-01
6.840961676486956300e-02 5.334257188951777723e-02 4.531610411045112197e-01
7.650037328065228959e-02 3.131035303010515358e-02 5.185341433567758340e-01
7.965592361902962271e-02 1.395949052935005832e-02 5.042865381926068258e-01
9.199144013540748455e-02 5.128244084146744985e-02 4.849584654245219784e-01
6.336686127959753612e-02 3.746259812500702530e-02 4.540617443778355300e-01
7.819439568242655958e-02 3.339176178629699870e-02 5.148195150802815645e-01
8.267856596752778953e-02 1.602979018428371885e-02 4.990390701747990931e-01
2.389348879803162434e-02 5.534521494790439755e-02 4.486928101184428641e-01
5.312580144274300920e-02 2.468873456522995002e-02 4.530208846049144644e-01
8.416375596917978485e-02 5.757239623149572327e-02 4.790601227737818490e-01
4.369917084016015918e-02 6.059556777802625055e-02 4.513181733318795685e-01
7.852176572911592767e-02 2.555968733195086370e-02 5.155960744919190208e-01
6.220104935060873086e-02 5.352001419329423942e-03 4.582865414611418942e-01
-2.526872511591249718e-03 2.263843877894711979e-03 4.393271749750997657e-01
5.136295836761044925e-03 3.142192925023224587e-02 4.439740643044422508e-01
