-1.586802760897055437e-02 4.298953437074729683e-02 4.487423337682028279e-01
4.234041618685294162e-02 3.538538533346729381e-02 4.501573333019382450e-01
5.925767350368087855e-02 2.558489457940041345e-02 4.555063102942466524e-01
-1.401111885556090113e-02 1.607752603533075045e-02 4.429275941895229884e-01
1.009350688259470635e-01 3.839783192851914384e-02 4.684296769929425786e-01
2.550297200624689412e-02 2.505947466043172839e-02 4.459985715147100072e-01
6.095753109075081194e-03 4.509344914768292217e-02 4.458551248715899584e-01
8.660973432451139764e-02 1.757415792988602232e-02 4.847975490408257260e-01
6.511355409287561402e-02 -2.335729855102018637e-03 5.069839081528585423e-01
-1.476659263822570518e-02 1.004404981810197092e-02 4.414116903772523637e-01
2.300587976150922712e-02 6.079409560809041074e-02 4.529252556952145237e-01
9.774458171677109786e-02 4.182502257940409751e-02 4.656362140984918740e-01
2.213964410786201792e-02 2.329498215317085674e-02 4.452339801338706105e-01
7.117987622669574854e-02 1.114371857587106995e-02 5.133020224649853525e-01
8.974055534097365172e-02 3.159325786005761499e-02 4.661665435519961043e-01
7.147873533383103384e-02 1.969552265809555724e-02 5.212165520681257824e-01
5.224742252207460746e-02 3.415436616645659701e-02 4.525123788983557160e-01
8.291716530874931879e-02 4.894704108936864112e-02 4.975916895390361527e-01
8.520242949025559620e-02 3.814902110024757237e-02 5.022907563593344005e-01
9.840023418278651124e-02 4.397749547990863206e-02 4.729828480655829392e-01
7.498644757579037146e-02 3.982649556694160126e-02 5.108058240863579957e-01
7.508825744095160015e-02 1.262839043332063607e-02 4.664527614371153375e-01
8.085075489466002352e-02 3.819144356762103898e-02 5.079769087459506949e-01
8.513046668411126949e-02 5.526962887701966642e-02 4.613826218841847182e-01
9.868355366372878745e-03 5.142665117469640002e-02 4.475224691572571301e-01
8.911452523417914828e-02 5.895360902256582131e-02 4.679706677172336682e-01
8.239358348922412589e-02 2.453258473639256462e-02 5.077094071814852727e-01
6.537930342975983855e-02 1.832103915234499503e-02 5.270573044760377135e-01
1.038170175601813711e-01 3.932708704922840276e-02 4.765794143309264874e-01
7.698892865526431317e-02 9.251564330903239153e-03 4.715765956955121907e-01
4.055575588377898638e-02 2.610489622561637524e-02 4.496015926933819018e-01
9.898247301977526613e-02 4.200873582461347316e-02 4.686515904893381324e-01
3.823769233678962071e-02 6.162997116374484968e-02 4.516479005680858472e-01
5.900450597252758500e-02 1.000967879596027267e-03 4.572398169061335782e-01
2.660359888518869752e-03 1.490094247086982959e-02 4.418168113748556225e-01
4.931262799712927969e-02 -1.273765289858119591e-02 5.303616368186135910e-01
8.098885465278267415e-02 1.640773823762484845e-02 5.031990571645453825e-01
6.246032431421527642e-02 5.109034032299398370e-02 4.519902194238742954e-01
8.501106805489476448e-02 1.888597177427521132e-02 4.918255120367261979e-01
3.469053997030283054e-02 2.406098787733952291e-02 4.479234046251336365e-01
-1.782313296976752517e-02 2.298525784444045705e-02 4.456128344017254439e-01
3.739119541445806022e-02 -6.086546890772039434e-03 4.450112637488141676e-01
6.174709481858062232e-02 5.394924645576790884e-02 4.522302507149417172e-01
9.314789730644722210e-02 5.093702802955203668e-02 4.803440487731678865e-01
9.855206440611596896e-02 3.121841139791793271e-02 4.806528435492712359e-01
-6.395768812084819989e-03 4.886897785542018702e-02 4.470707467123187784e-01
7.796313396243448324e-02 7.147932659493947370e-03 4.916397097823871354e-01
7.659391677306819080e-02 4.493803763320257903e-03 4.867002035289744177e-01
7.332772442702728544e-02 4.494349883188056283e-02 4.560857499960817574e-01
6.538363789949648563e-02 5.877033511676383465e-02 4.553365211619185837e-01
3.599757334804289111e-02 1.240445189061667626e-02 4.468697255307782501e-01
6.278771101697537549e-02 -5.194276808374866453e-03 4.646102405255593260e-01
8.625081852114335756e-02 5.808014196334389256e-02 4.772111669829936509e-01
6.119268912979505814e-02 7.971822604558191638e-03 5.239731226667835307e-01
6.723143357633662442e-02 3.376984565495662338e-02 5.239467071341811222e-01
8.287003592831958254e-02 1.754881382000573337e-02 4.983695255090896392e-01
3.113329248936916316e-02 5.167227721523176553e-02 4.485197528098781028e-01
-2.535442051675755940e-02 1.098110110584630400e-02 4.453390274858585185e-01
8.667941588286019738e-02 4.411458346460312568e-02 4.972999859441619153e-01
1.013339030777538619e-01 3.550595314184776946e-02 4.800056311969733147e-01
7.883992799181364919e-02 5.083652853343832712e-02 4.978856860726130207e-01
-8.717681104569425729e-03 2.600921737654182664e-02 4.440324713309136140e-01
4.439671800450317729e-02 -6.076502208250881068e-03 4.490265215937100374e-01
8.350973856672853565e-03 5.627078921402268313e-02 4.523834335695687270e-01
7.410852693669432723e-02 1.205064867662124922e-02 5.100403966927584687e-01
-2.515896901310953060e-02 -8.936581037087016482e-04 4.399525184521576038e-01
8.201094599734209262e-03 2.973721439007908501e-02 4.439977157661887941e-01
5.669469498438668709e-02 5.502051964203400619e-02 4.514465248928425933e-01
4.621380009226857578e-03 1.797936594957656731e-02 4.423901621602438494e-01
4.753155974461782673e-02 -1.412597604905235522e-03 4.506128112967340282e-01
-1.978657077724710334e-02 1.848816585154561959e-02 4.456827352452045754e-01
6.921824426075975922e-02 5.968707700231466740e-02 4.571793267261970994e-01
4.845623424516508349e-02 -5.085732162031316242e-03 4.515759410231137139e-01
6.858559028735310148e-02 -8.051606875035151323e-03 4.810723345034009779e-01
1.012658836667971185e-01 4.090060126848843458e-02 4.711298095469831360e-01
7.553934152045564676e-02 1.216595665531735801e-02 4.673987410746196502e-01
-3.072422838552534702e-02 -1.403673474388843559e-03 4.400760003184113200e-01
1.447585365682828307e-02 3.099391819022574365e-02 4.447946877027919022e-01
5.966334361732340830e-02 2.654752884523138567e-02 4.556524430480229926e-01
-1.440582609107368683e-02 4.437747484373437412e-02 4.484761341487726316e-01
8.686655144360055925e-02 1.790336078368327463e-02 4.807764976355327624e-01
6.604521410107337676e-02 5.658624295369530516e-02 4.538602117890063736e-01
1.639583582374069815e-02 5.870157834195308816e-02 4.522042280802183734e-01
-4.117631667155453173e-02 -6.566220405819348828e-05 4.410831972510320664e-01
1.015890979846179182e-01 4.164084386153875383e-02 4.744713955003070915e-01
-3.520409581477198374e-02 -5.071640399373218396e-04 4.406652671218873052e-01
-6.259055642027474067e-04 3.095635236330859449e-02 4.441389702851634702e-01
7.772250570402323977e-02 5.827290248654472954e-02 4.610807230561965731e-01
2.618011181322758840e-03 4.662950088703568530e-02 4.460310774720635529e-01
8.870529207418600959e-02 2.073634134592601194e-02 4.841035364862454338e-01
-1.767065622913343778e-02 1.586616253319279857e-02 4.441631031806042018e-01
6.151586842164042529e-02 1.868267331123014616e-02 4.568440854838686227e-01
2.829578349411844898e-02 1.842829211493662508e-02 4.458791997526772577e-01
3.152820416072158599e-02 1.265993773352942775e-02 4.458414920692007066e-01
8.205848991788654290e-02 3.042781708527841217e-02 5.095411704269132702e-01
7.519688813085054213e-02 3.446412137302308498e-02 5.165117384431336944e-01
6.810967939838670493e-02 5.345509299169068362e-02 4.537993152598556734e-01
6.227666913764428464e-02 5.723367231113912768e-03 5.211363927209496927e-01
7.764873497098568299e-03 3.597839327312839230e-02 4.448070100837986374e-01
-2.277254319403392360e-02 1.418267580749917045e-02 4.458546277336364883e-01
6.644216125974261589e-02 -2.186294028567564197e-03 5.038900964452891484e-01
4.291961725229943153e-02 4.463634380762821624e-02 4.500114944399123962e-01
4.187107656807488587e-02 6.244113689772636672e-02 4.533120547670653755e-01
-4.422724458858180024e-03 1.230503079189031353e-02 4.409522426069812373e-01
2.997383328712483266e-02 4.191211626011609979e-03 4.438397147125854869e-01
1.003041114727767497e-01 3.081321942704248751e-02 4.781353203501815807e-01
4.143868617773222712e-02 4.159903272936811558e-02 4.498648031213895448e-01
6.666016169064273300e-02 -6.494010824107726218e-03 4.718581588383893854e-01
2.227053716242191270e-02 1.652501589566451531e-02 4.444934796528992038e-01
6.707416525405948682e-02 3.055780765429760501e-03 5.091253690783731356e-01
7.253256835122361135e-02 2.339264308234131201e-02 5.219041359006850733e-01
-1.583840373225978843e-02 3.077495032961639898e-02 4.461548289227760256e-01
1.761928626925135521e-02 2.936536484657422189e-02 4.450506373783346126e-01
6.811132094192372255e-02 6.809507201145129432e-03 5.121775289429525424e-01
8.888825654478858806e-02 3.718862688444411757e-02 4.958814279608654285e-01
7.663995197807939308e-02 3.809977056483046520e-02 4.617169381359778058e-01
9.925862214757294466e-02 3.183672527666546459e-02 4.803252624316358133e-01
4.695868627658775218e-02 2.264851657922598363e-03 4.501907607121430899e-01
4.893007953437995827e-02 2.499473115575857884e-02 4.519801721023159469e-01
8.204213683000086133e-02 4.810285943122270813e-02 4.575873800800895896e-01
6.412324751699201644e-03 3.141755067527125800e-02 4.440927469617798606e-01
3.202613881906442306e-02 2.927875598503163965e-02 4.476889274407340191e-01
6.443714766389609105e-02 4.095261341347269241e-03 5.152537901954082900e-01
7.226490946165592399e-02 5.830806348032277486e-02 4.570083663125350526e-01
7.033726241490612097e-02 -3.179235542734394626e-03 4.771405414730644501e-01
4.150760286828181905e-02 5.595094296651190180e-02 4.498578684113818116e-01
-2.845109968081288923e-02 4.664601646074786542e-03 4.428483985969886016e-01
8.342622052353465545e-02 5.551812704914756841e-02 4.873946045115137848e-01
4.121736347512112292e-02 6.340367096245659584e-02 4.557805347860509615e-01
9.970333998706776626e-03 1.861741107758060204e-02 4.430291274523369682e-01
8.718735181049483418e-02 5.046562915253351850e-02 4.607658687613124249e-01
8.646392781598054300e-02 2.588144024274547511e-02 4.964558472182082904e-01
6.524402494214683046e-02 5.190443189001435476e-02 4.527198936248286176e-01
7.212837128053598001e-02 5.716770167956321085e-03 5.030960143099484361e-01
7.193453020177030532e-02 1.431658453939733955e-02 5.159384471170604947e-01
-3.214387156916464344e-02 5.552780150160550876e-03 4.456492555960554491e-01
8.610564125712588668e-02 5.746951992515942492e-02 4.783532726956478132e-01
8.193508707066916863e-02 5.034419969487340107e-02 4.967919475603335688e-01
4.385071331151980945e-02 4.405089479758801663e-02 4.501708618913166093e-01
9.300671766625526193e-02 4.936629431033724702e-02 4.677518562639081390e-01
7.757265717618447298e-02 2.866960167500214735e-02 5.167137241538688475e-01
6.694026918167771123e-02 4.057164282031133079e-02 4.553313134815510921e-01
6.432607729064376834e-02 4.660364320127215187e-02 4.530476900880817115e-01
9.062230692448106084e-02 4.571599116021680953e-02 4.911366626639560029e-01
5.002675488638264056e-02 -7.383207839901069838e-03 5.276789214175965359e-01
7.802414338605785649e-02 2.893396124702293098e-02 5.159593643126847429e-01
6.213574761029330012e-02 2.414296435087953316e-02 4.566883970724710529e-01
1.568130127829834436e-02 3.296244194476097289e-02 4.452415516000518547e-01
4.559137904992970752e-02 3.567573396483450510e-02 4.507885452173857610e-01
9.180097424085618962e-02 2.494729785622403634e-02 4.783233951049203347e-01
3.910035002158646772e-02 2.131381612458877264e-02 4.488635036734320849e-01
6.912234046915881336e-02 2.108663582632501823e-02 5.246457661939022410e-01
7.416564855858291672e-02 2.313314541546625594e-03 4.909654184367930330e-01
-1.360223371479192186e-02 4.063761367786541956e-02 4.473999353761418107e-01
3.287039821394746597e-02 5.664189332623754264e-02 4.492052946283205950e-01
2.235805592965897995e-02 5.864537896593255417e-02 4.506105709751089816e-01
9.042246144235575184e-03 3.239426799407493437e-04 4.395134916434008665e-01
-1.501613222097493427e-02 4.215780711859279384e-02 4.482484703669541992e-01
3.567313461094744759e-02 5.754678953005779030e-02 4.497053575502031886e-01
5.302668325694801649e-02 1.486317405376053058e-02 4.533919931194440034e-01
7.248095263297432700e-02 2.274295888979689303e-04 4.920537805810549781e-01
5.300313660280313310e-02 5.558633627316000164e-02 4.509892023438033526e-01
3.861351502192733598e-02 3.526461050789181373e-02 4.493915314540974926e-01
6.025379263762990593e-03 4.702712464405652687e-02 4.461696055315489406e-01
1.026504745514590644e-02 4.938479144047126790e-02 4.467334672335019907e-01
7.638295637177598685e-02 4.324112526078430566e-03 4.859165393517830833e-01
1.636595714449202987e-02 2.802967068805128567e-02 4.446785725712750770e-01
6.999753064990867080e-02 3.006492742432146509e-02 4.586864963163738151e-01
6.290313645270770304e-02 -2.471064155759020945e-03 5.116104053837746690e-01
2.085223007467273959e-02 3.551318503027410534e-02 4.463285153187856458e-01
7.401672745559571831e-02 1.172848965434931598e-02 4.657732927522125754e-01
8.962072596408618419e-02 2.229551632185698684e-02 4.825860524288909104e-01
7.669443105376938519e-02 4.734363690395079760e-03 4.859763340099119144e-01
7.408927723177961833e-02 9.537060723504211385e-03 5.065319742539813319e-01
4.823816332514149763e-02 -8.849897091370306085e-03 4.522803524709969603e-01
6.840421680998864939e-02 -1.140626456952302005e-04 4.683515040940492979e-01
6.474011716834934815e-02 -2.568350064295627476e-03 4.653604808810319349e-01
8.271743387924951341e-02 3.844062398256712504e-02 5.055909551957599168e-01
8.958140770004111020e-02 2.839275065721198754e-02 4.921434930194055202e-01
3.925419804852264133e-02 5.758147605289254400e-02 4.500068095368505161e-01
7.539528281023331890e-02 2.100630145691962172e-02 5.172247116834595149e-01
8.325690308746389046e-02 1.393277502157258541e-02 4.895309443575717179e-01
5.903277752888223123e-02 -7.724640249750960863e-03 4.613565614066728604e-01
4.765184295063224634e-02 3.935675806047802400e-02 4.508935851048881949e-01
9.283708549172456359e-02 5.062414514429453005e-02 4.689946658886918751e-01
2.436501636976123875e-02 4.588912198765311007e-02 4.474556909844886188e-01
8.191700825849083933e-02 1.124300604337140179e-02 4.845230703202750289e-01
-2.696199787731580824e-02 1.269152018220705280e-02 4.473093751186681954e-01
7.051276056247890445e-02 3.524645611126880212e-02 5.191015319242817672e-01
7.416545900053730933e-02 4.400203691661016409e-02 4.571540945629997688e-01
6.964624832857962966e-02 6.477532268565264900e-03 4.642689306479249045e-01
6.925162933527552467e-02 1.114169650997651889e-02 5.162053642665564990e-01
6.557866545107501888e-02 1.650809035498649116e-02 4.592323196955934161e-01
-2.944143609080062535e-02 7.087308861639749630e-03 4.455541154094186940e-01
5.647772971486052229e-02 2.107437534609576252e-02 4.545716717837643417e-01
8.833556043454514339e-02 3.918056859917013607e-02 4.961932943799746143e-01
8.512033631400056644e-02 3.646913511845585598e-02 4.654107171273480503e-01
8.726315668726253305e-02 2.320136100089647060e-02 4.921859773866962828e-01
5.852676796723261382e-02 3.965510961052819139e-02 4.530267895314725179e-01
4.924813376627037997e-02 2.295278264436427518e-02 4.520266778912154226e-01
-8.874637107940661074e-03 4.108412817306306836e-02 4.464520624428639506e-01
6.242752661454886720e-02 5.085180665235033981e-02 4.520119259813627499e-01
7.383618573477822300e-02 1.738743679602191769e-02 5.166316168286768651e-01
-1.739762035951362279e-02 4.401407401688201687e-02 4.496731073619705255e-01
7.903567349718730595e-02 5.266269583714040803e-02 4.570202051441548674e-01
1.054990804087792278e-02 1.379539469886066974e-02 4.425669847694436720e-01
6.043548599555628731e-02 3.912766030752858407e-03 4.576572963234332714e-01
7.467862566623284515e-02 5.843106840311127620e-02 4.601428352016781465e-01
1.501474003991012246e-02 3.221409256740860594e-02 4.450497081965651969e-01
8.035798638849943332e-02 5.275417013349580769e-02 4.947966100777344001e-01
5.544457725199984643e-02 4.782709754881524916e-02 4.513766205371811391e-01
7.749676938488612998e-02 2.144020920528683788e-02 4.646811384354271879e-01
4.999224397131944719e-02 6.062860636704690137e-02 4.556842276919893520e-01
-4.360425808497946781e-04 2.886602555288037344e-02 4.438379733954273543e-01
9.739114480431053378e-02 4.469654304721847743e-02 4.820982755397032471e-01
-2.610005966209363176e-02 6.231693533085696200e-03 4.430567175140601721e-01
9.407831452902647856e-03 4.054753924356908901e-02 4.454553656335666911e-01
5.854010399431838763e-02 2.530766407578403238e-02 4.552457800943883748e-01
5.965146716508573643e-02 -7.482896674735177618e-03 4.619680579616295968e-01
9.204693597641946945e-02 4.962462968666675467e-02 4.872941303456704287e-01
3.960621051878385201e-02 5.047383233561120869e-02 4.493541091591395364e-01
1.974954543034996429e-02 8.138567049371889586e-03 4.428486415618281269e-01
6.370231388217181823e-02 4.177506375536722827e-02 4.538952216107211557e-01
6.125675480876395518e-02 -5.357981160832266283e-03 5.135441315538554763e-01
4.986786297891689784e-02 2.180135223214934442e-02 4.522031593388565196e-01
3.982226635917653773e-03 5.533242994938087495e-02 4.498525573585973047e-01
3.679843561779686922e-03 2.976882386611616471e-02 4.438540854146253989e-01
8.406520370873876713e-02 2.000948643797120785e-02 4.972832144953381328e-01
8.284333684433359268e-02 1.282408293892748838e-02 4.873484492947847690e-01
8.824321959012342009e-02 2.160008611460666195e-02 4.760031755096211792e-01
7.553094893178952107e-02 4.030759290688148110e-03 4.906122090306768158e-01
7.900519885799318909e-02 5.600268170195474293e-02 4.898213049635157801e-01
1.078331659215409771e-02 4.160260712562407343e-02 4.456902402043655953e-01
2.353763605747025839e-02 1.207382041185579499e-02 4.442395385147138720e-01
-7.816007932281007417e-03 2.240953587704016398e-02 4.431217677814180966e-01
1.052744437578984615e-01 3.600047261077617133e-02 4.734049736177266543e-01
7.318586600179906310e-02 3.908474339174000667e-02 4.595140804446161686e-01
7.727389802497609816e-02 3.954573443178201198e-02 4.612682452484246354e-01
6.032405618637300820e-02 2.753498245002438879e-02 4.557459476535526965e-01
3.115603913310937417e-02 3.943380950258747880e-02 4.483787982414959572e-01
8.810616302552098933e-02 5.979521926234903501e-02 4.669913605348556818e-01
4.503744904222067164e-02 -1.025345918387802428e-03 4.492774365718908980e-01
8.438549206890913479e-02 1.918265030527542547e-02 4.715929451542281714e-01
7.506236047255825106e-02 5.300470182321449439e-03 4.968634974026822082e-01
6.331287113022639190e-02 1.302593196742665455e-03 5.137764636260906403e-01
7.865762820796942667e-02 5.676488374407379772e-02 4.874656937531143264e-01
-8.668172490873329861e-03 3.779443208117704012e-02 4.459557513429263653e-01
5.748439195152219711e-02 3.830460133395724442e-02 4.530561740046157304e-01
-8.418791279049965548e-03 3.345851644051849039e-02 4.451959017945842922e-01
8.454033236946487118e-02 2.717411632600241767e-02 4.664282917064424550e-01
5.610711665424827910e-02 3.410677671263793315e-02 4.534571783744764106e-01
7.383907838422698600e-02 1.469062963036393832e-02 4.642110707055117635e-01
7.652976322757878980e-02 2.537142489941075427e-02 4.631164372703283072e-01
6.027579881020264652e-02 5.243482880613245523e-02 4.516326402184793753e-01
1.029525149642910725e-01 3.879100008373711356e-02 4.697626065152821218e-01
7.459812366142520856e-02 2.831006409634819615e-03 4.796809152712432911e-01
5.697983952025076348e-02 4.225624609017614164e-02 4.521321799766356841e-01
8.154701827430066441e-02 5.795324055657399831e-02 4.809503698876618771e-01
8.700984192296513930e-02 2.922487665808388632e-02 4.984124325779060727e-01
4.670802251131770527e-02 1.466941950543159713e-02 4.507455571671168948e-01
3.238569351864316326e-02 -5.159826226021807342e-03 4.426402395005654689e-01
3.326679120113658350e-02 3.381423675070822921e-02 4.483397813352391070e-01
8.471055540762889580e-02 1.478971476185118004e-02 4.807804581324172100e-01
3.238464301970643555e-02 6.467211635041562878e-02 4.535698943353334567e-01
7.503428407694419378e-02 1.123637894263931902e-02 4.674749589977770237e-01
-4.454073181203889453e-02 -8.504343226277593162e-04 4.425391373758295610e-01
6.362188478312266748e-02 5.389599451964383753e-02 4.526679345863793835e-01
2.835781280377391161e-02 1.462171075936723359e-02 4.454328650952568136e-01
4.772159272448256440e-02 1.002477369581631327e-02 4.508606366723932890e-01
4.226111825750953482e-02 6.186298487052055428e-02 4.524470597699954966e-01
7.548380431833055793e-02 3.241509559906222571e-03 4.850452612800354446e-01
7.095445870575653458e-02 4.371727475742787777e-02 4.557672581492049901e-01
9.166551291099298004e-02 5.369609271121827954e-02 4.780695548167813169e-01
7.071891683328951350e-02 1.121200851968312887e-02 5.140809881213154187e-01
-1.171186158290047664e-02 1.916557156392852471e-02 4.430132339130567476e-01
8.066829190338752065e-02 5.920976423800142219e-02 4.634285578749530177e-01
5.245653385627787810e-03 5.617210883486597334e-02 4.519714516100102331e-01
9.841783771894417610e-02 4.263994509036599101e-02 4.690541952815006077e-01
8.043473892268865333e-02 5.041964755572946044e-02 4.979886272387129553e-01
-8.480242679819022938e-03 4.050843901232738936e-02 4.462970705443771169e-01
6.373913649724076425e-02 -9.630053711656275973e-04 4.627295353510185727e-01
7.292056897373826174e-02 1.270806803834964409e-02 5.125153076776137739e-01
7.515290994491205523e-02 3.663529982064355622e-02 5.143814418775680686e-01
6.790385815608061815e-02 3.228969836621111561e-02 4.577345822938981290e-01
9.005329117251804905e-02 2.822317584553888509e-02 4.685293422408561281e-01
5.734485329594179309e-02 -2.971501951185420015e-03 4.570239400134831764e-01
5.213524867530634765e-02 1.684319479914374307e-02 4.529652663687895875e-01
7.637900578911556437e-02 8.447319744921450921e-03 4.716232474864905377e-01
5.159138085942676505e-02 -5.253719165816566651e-03 5.258301139700267690e-01
9.407390302342197308e-02 3.623341289743182980e-02 4.880239908742338706e-01
7.884429053582762970e-02 1.947499762724605454e-02 5.109458736801304468e-01
5.128124669849316170e-02 6.131086535600523135e-02 4.589526236360541578e-01
8.235096603326130804e-02 1.374552572336212170e-02 4.927374464043522972e-01
3.187949676189610893e-02 3.471022300431672418e-03 4.440803062824182912e-01
2.602802969523290363e-02 -8.484576751588575848e-05 4.417941333540551518e-01
-1.518751319533156140e-02 4.475329091864509168e-02 4.488492961788475011e-01
6.340075927207006190e-02 9.293820694423514731e-03 4.589315644597460331e-01
-1.081135310733956356e-02 4.374232667601703900e-02 4.471910544795491549e-01
8.963064485567268438e-03 1.827502744240851185e-02 4.428593450889309335e-01
6.699623854750121066e-02 2.048436642305267313e-02 5.265800786370289366e-01
4.885901657932520403e-02 5.594464799174320158e-02 4.503886961914074782e-01
7.629236415619014555e-02 3.138072658278458216e-02 5.185748256660728250e-01
1.966301767501696732e-02 -1.366271352299996533e-03 4.403555501292464314e-01
4.096536707104209141e-02 3.543348208239388564e-02 4.498848953744526979e-01
-4.323632282526067294e-02 8.460696505010981572e-04 4.420282970578611748e-01
7.100265803313231261e-02 2.900720873661422755e-02 5.253827274642867140e-01
7.782512615043393929e-03 3.863687636138209147e-02 4.451394078943489707e-01
3.160496744445343703e-02 2.620694758054495366e-02 4.473748608857733289e-01
8.436570783186211897e-02 2.316402465165167887e-02 5.005722592415414729e-01
3.036224380769588643e-02 3.893074711374202006e-03 4.438537415382783347e-01
8.411359358806234920e-02 5.014584950199996866e-02 4.586075044885674634e-01
6.434476800853963785e-02 -5.193899936462478828e-03 5.073948408474896477e-01
7.336123128647362157e-02 8.384463141750654602e-03 5.056865822314549064e-01
5.835171377352090655e-02 1.254952257297796241e-02 4.558804557361105236e-01
8.110998167610056209e-02 1.394028210468174767e-02 4.980589028462116263e-01
6.789386320968013311e-02 -5.820446084758876086e-04 4.680462109383294877e-01
3.880248177428338718e-02 6.374018118033339397e-02 4.549984248657452102e-01
6.341587240347981713e-02 2.452124051873174129e-02 4.570568030212613375e-01
5.269377385223998102e-03 5.430187155328715376e-02 4.492550197070900309e-01
9.096311820950593596e-02 5.225807410272303305e-02 4.660171022499552396e-01
6.420822897150903208e-02 6.061006771273999387e-03 5.181087712920440236e-01
5.566212736401759259e-02 5.312449317642114338e-02 4.510611201853357843e-01
3.953779346985869525e-02 3.415356207627525016e-03 4.468363381003538914e-01
5.741122515818437855e-03 4.509641524528845008e-02 4.458522441431642114e-01
-2.156460684867425245e-02 2.919169138345559592e-02 4.482096192224493958e-01
9.336662911522328190e-02 4.942847811671242930e-02 4.689774440800281718e-01
8.189604730567828783e-02 2.209788638704042463e-02 5.071781871246521245e-01
8.973985175093901479e-02 2.274132715351690273e-02 4.842880772970361569e-01
9.016542632291102422e-02 2.405527896565161708e-02 4.860335635016660438e-01
6.061331333951119893e-02 -4.624103731657993807e-03 4.612844051195311157e-01
3.900824939429376609e-02 1.215367696847801868e-02 4.476084356360948147e-01
4.999110506017568484e-02 6.016246942322310554e-02 4.542618206846308349e-01
6.830696596807007970e-02 6.025316731156074232e-03 4.633625055196363696e-01
5.480409560087258491e-02 -3.937859295251228998e-03 4.555723900571038709e-01
7.598502776765052313e-02 4.834094634044916981e-03 4.777512301100242387e-01
7.987165289987523120e-02 4.427961424339292573e-02 4.589165170699969210e-01
8.041655240730434528e-02 5.101958501445647692e-02 4.573011736654471471e-01
8.410171081955414296e-02 1.554092476541759846e-02 4.749879563893360523e-01
9.099703183659188510e-02 4.902555369831300414e-02 4.889980981212652678e-01
5.586015664173896861e-02 -6.732077122819049575e-03 5.226045780935942853e-01
3.616823966111377964e-02 4.877329879594622525e-02 4.490027442958913761e-01
2.500241994934966280e-02 5.104488535773087088e-02 4.480676997498084790e-01
6.713207277577575016e-02 3.639796748342716964e-02 5.172995942962226312e-01
1.397798598277351888e-02 -2.392539619924832339e-03 4.392354033436778327e-01
7.063994093046691014e-02 -3.979999688254156481e-03 4.819891418478013945e-01
6.777674594385213469e-02 -7.237779387854206825e-03 4.759191464139832517e-01
-5.332005538311286943e-03 1.606027571682767854e-03 4.391221187511279433e-01
7.172482536315656632e-02 2.059297832957921598e-02 4.617420395478291639e-01
8.622156157963765943e-02 5.683101130722114508e-02 4.793469349382688538e-01
-1.089510766062592182e-03 2.044876164806840035e-02 4.424060384836789872e-01
2.838370850833014936e-02 1.907812599907496125e-03 4.429717478305932321e-01
7.389774509817012560e-02 2.979818061937972856e-02 4.602762457031788212e-01
9.830258526990054424e-02 4.393367600535140471e-02 4.804770718443566735e-01
6.659133017819772460e-02 1.021133563704844111e-03 5.072258028385128181e-01
-4.258135858811561494e-03 2.576773094806305772e-02 4.434672515481146160e-01
7.742754452478413374e-02 1.730753204206336715e-02 5.113522209116740935e-01
7.657736457555458509e-02 1.439397058660513672e-02 5.092636147671338875e-01
1.159784576092545011e-02 4.517243270154734647e-02 4.462289095335726929e-01
8.138544252371254784e-02 5.601356333842150842e-02 4.875539215039463858e-01
7.285460342621750962e-02 5.906504640707889442e-02 4.598003003228566810e-01
-9.851454524321519302e-03 1.098905740865292573e-02 4.410589707459562359e-01
5.172102459683650816e-02 1.633456334817987368e-02 4.527831117129824112e-01
-1.968004982725886365e-02 2.528702291360408055e-02 4.464446927671261167e-01
4.826511300049859954e-02 1.069106561459358395e-02 4.511764973094872788e-01
7.744459516979007585e-02 4.314799231309029981e-02 4.589534575072095612e-01
2.639940016707923581e-02 2.039303969432855294e-03 4.425541065643997518e-01
2.490267280727332874e-02 4.578313667273065449e-03 4.428521243301488108e-01
7.045356818034008428e-02 3.201279522735708122e-02 5.243789147240121018e-01
4.581444813347541195e-02 2.700624119581037166e-02 4.511689739765802343e-01
4.306076415544202174e-02 6.322899583016695912e-02 4.566332843355495053e-01
6.387892767676528472e-02 3.528612248944279495e-02 5.217027696550312621e-01
6.594342785789170103e-02 3.729901553914007767e-02 4.557002019086764388e-01
3.639701623424582838e-02 6.100372704481114849e-02 4.509101564168160881e-01
8.329196724222516501e-02 1.512968335582733949e-02 4.922791438149849985e-01
7.024297588217583155e-02 1.833349175947560084e-03 4.692185127900560526e-01
-2.351998308642098967e-03 4.008532420403104757e-02 4.453242673877007007e-01
1.126802080732213288e-02 4.243365960723414348e-02 4.458318857222250964e-01
-1.314682643402234966e-02 2.761739333209424843e-02 4.450384136861911810e-01
8.866887915920000640e-02 5.486033794340608449e-02 4.811959441281652983e-01
8.170549843134500279e-02 3.334242507394078597e-02 4.642522774038433386e-01
1.017884123607060015e-01 3.857988110804214804e-02 4.795648066944559473e-01
9.054964634373534327e-02 3.194836223981527279e-02 4.662931474008648047e-01
4.361632584305611543e-02 1.175793189886674070e-02 4.492044801042777702e-01
7.245814713493121950e-02 3.286868067862825683e-03 4.715115027403817827e-01
6.775466762460614911e-02 6.043541745615928218e-02 4.574984075229695524e-01
8.367854287478282416e-02 1.407446735438020596e-02 4.881784955471107912e-01
8.324268592741233819e-02 4.897491495520903126e-02 4.974377459258623735e-01
6.967219099034910323e-02 5.245495632861866403e-02 4.539770994481958644e-01
-3.558335539044405610e-02 1.783306521461421263e-03 4.423730884471873126e-01
6.463221456461015757e-02 -1.553352472892749296e-04 4.632421543373758110e-01
6.600326490743495256e-02 4.301484257794400273e-02 4.540773357425542667e-01
9.101364719987084517e-02 4.286278923981066274e-02 4.914872756914129281e-01
4.842898319137148300e-02 3.945180331380465644e-02 4.510024967520412376e-01
6.039733036010953154e-02 1.073923289552820674e-02 4.570196936690752998e-01
8.220677377449375767e-02 5.121501730648847506e-02 4.580313796218959954e-01
-9.566049775713604542e-03 4.032742001567136969e-02 4.464924241417512762e-01
4.566560186646952124e-02 4.116567560278711069e-02 4.504625653790835238e-01
5.223722411266829707e-02 4.607561718227048270e-02 4.511088990379135133e-01
6.026949542244284391e-02 5.865356409232454910e-02 4.560888168716375479e-01
7.295360302649310513e-02 3.362078326168123875e-03 4.722729668909571576e-01
6.087398929934050018e-02 9.679775389141956343e-03 4.573766823425106653e-01
8.302532026500317186e-03 2.725810530847988522e-02 4.437438141768829114e-01
4.290800615300197768e-02 2.790347428447743309e-03 4.482926996923664031e-01
5.728528056016780889e-02 2.595573380989880941e-02 4.547974103991631600e-01
8.480058352164415725e-02 6.094538780798954003e-02 4.647983047586967120e-01
-4.039057892918789666e-03 -2.082302844791546030e-03 4.381159442901818579e-01
9.221513533644445926e-02 2.478703142635428625e-02 4.735794295844409918e-01
9.971280761819943661e-02 4.302396001457417518e-02 4.794477395385641216e-01
5.002709583682693473e-02 2.990847271351892989e-02 4.523443348783912632e-01
9.508945225663328893e-02 4.823564127172980803e-02 4.779645385005377722e-01
3.571774520410934961e-02 5.388204240068089623e-02 4.491765770588662665e-01
-1.867385114902486666e-03 1.515191294950547773e-02 4.415001495298245815e-01
6.447060310459751253e-02 4.560857454222874349e-03 4.607153764504545723e-01
-1.039372382726576859e-02 4.565936850455243334e-02 4.473689456477887849e-01
2.393839392001432392e-02 1.170257727037136465e-02 4.442587124831470224e-01
1.237405830090096415e-02 4.169552467118507050e-02 4.458173525941645510e-01
6.228951803404373516e-02 2.640896789185475518e-02 4.564749056722265386e-01
6.495521737957871133e-02 1.861498668973825960e-02 4.584581609112906575e-01
7.410220022935366802e-02 2.608150872991746652e-02 5.213636316179870445e-01
6.960206237704319454e-02 4.348609839575698355e-02 4.552245200945796988e-01
5.699085054981953280e-02 -9.658995303562940490e-03 4.601835896843344820e-01
8.381640010344813818e-02 3.685461743348112523e-02 5.053582635986744176e-01
2.044181055712642608e-02 4.166499794001098100e-02 4.468941989321285058e-01
7.218194247587043921e-02 1.872703409164236735e-02 5.198006361986363677e-01
4.843289719462583187e-02 -6.198343888922680511e-03 5.283159191209282346e-01
7.494115063636920537e-02 9.838759102807435181e-03 5.058262426132765777e-01
4.344256053129379180e-02 4.387200397395422946e-02 4.501141902931904415e-01
5.466729289925988805e-02 5.610913901354890737e-02 4.516072984910944887e-01
5.333226910163677698e-02 5.909568244251719310e-02 4.545289583848208803e-01
7.493134468604345511e-02 5.956947321807807422e-02 4.619960209579661581e-01
1.144946497683228294e-02 9.384439325075207700e-03 4.420268795314604149e-01
8.926283464350520669e-02 5.562066327334656141e-02 4.667907428311431350e-01
2.645944050718590512e-02 5.922734775401230362e-02 4.504986764692939794e-01
1.303938810010434220e-02 3.600407202715365934e-02 4.452972632347371174e-01
2.701730750852950752e-02 4.107200590737577345e-02 4.477759156854660416e-01
6.656891797331671891e-03 1.048105684253136660e-02 4.416482727830475241e-01
8.443315440600478172e-02 2.948689791481962433e-02 5.048255845852456236e-01
3.151481421747336087e-02 1.686511810281374549e-02 4.463787926113257365e-01
9.397935677968341506e-02 4.457575734445055199e-02 4.649969302000332427e-01
-1.358405942935172681e-02 2.367383926717554418e-02 4.443550962689244987e-01
-8.770000977618713431e-03 3.447487475785981741e-03 4.395729064192419044e-01
1.070162078875420628e-02 4.356163002005735557e-02 4.459354771011095342e-01
2.672139461613708480e-02 5.165444988549903332e-03 4.433761175375031671e-01
8.062172191188665682e-02 9.621743450808829812e-03 4.863527375500644179e-01
8.680169050948099985e-02 4.161365967997339432e-02 4.981628611445220178e-01
4.035643667876338825e-02 5.028227662491078359e-02 4.494739209411626746e-01
3.830677350192654429e-02 1.503008631387199590e-03 4.462550630407223773e-01
5.290236699802105397e-02 5.136352726749841141e-02 4.508722559703876587e-01
8.009011786951129863e-02 3.360986088362338114e-02 5.122972967267781508e-01
3.516478038339632822e-02 1.558452625462509143e-02 4.471804709618920626e-01
9.166515263720173556e-02 2.418806115469434095e-02 4.819619461666986293e-01
2.975576077567316721e-02 4.129562939254613485e-02 4.481567886955816205e-01
6.976214645559994376e-02 6.009277719321310524e-02 4.644734478174490366e-01
-1.996505878382513408e-02 2.929637075482012173e-02 4.475397001003897923e-01
9.084461296915390116e-02 5.422840280501707577e-02 4.803129755589784500e-01
7.749865343224365821e-02 1.685845986618571615e-02 4.658675417259896534e-01
1.000222997276040415e-01 3.189091615822693682e-02 4.797582710757046232e-01
8.409642286472440720e-02 4.119756289096774410e-02 4.624998807558573510e-01
-2.127414370811643585e-02 1.584578071639790309e-02 4.457219387243386288e-01
8.351765237153517540e-02 5.603277868294461589e-02 4.850561989115902417e-01
5.523816186297371422e-02 2.725084538126264916e-02 4.540886847247918578e-01
8.803241873882848567e-02 3.289237221159826280e-02 4.980781251550888689e-01
8.632678329474509360e-02 5.449480433458925299e-02 4.878637289832317703e-01
8.973011876586632629e-02 3.425574358651675699e-02 4.655636250674842214e-01
6.739447646092017186e-02 1.136403776962053094e-02 5.191804644169533134e-01
1.620262875345869144e-02 5.939510210300351367e-02 4.536785647594819282e-01
8.668591576964980450e-02 5.317376589788302271e-02 4.906270966952021029e-01
1.886673641478118710e-02 3.179736332604820442e-02 4.455723813907027098e-01
1.031184948791334793e-01 3.363532664541876716e-02 4.750428362910476543e-01
8.435678790484875400e-02 5.561265370096145355e-02 4.856800350753362472e-01
7.259052201008329985e-02 3.201720540875532817e-02 5.220066983896622936e-01
-3.348722487932800917e-02 5.727403079001939373e-03 4.477650672039387159e-01
6.363550134238789291e-02 2.023489210443134984e-03 5.141008772267168236e-01
4.933788502983322416e-02 6.106235568663238161e-02 4.562996031514962025e-01
8.145073487167067694e-02 2.689724490406831398e-02 5.102565960610810913e-01
7.690578292865318799e-02 1.890314225314179697e-02 5.133411194467084604e-01
4.058011944048469863e-03 4.679294051468073368e-02 4.460813088903119450e-01
7.931945616545930944e-02 8.347721321991036919e-03 4.831289145638468785e-01
4.115693555191278497e-02 -6.451780853340960669e-04 4.473972632193297660e-01
8.131167882559994786e-02 2.640489951759802598e-02 5.104613948928955480e-01
5.801450617250181879e-02 4.709973727353067297e-02 4.517284445157776496e-01
-1.446006809607992306e-02 2.292036613370831630e-02 4.443357566864917230e-01
6.224903311183738880e-02 1.067672366951654198e-02 5.249337098776076793e-01
7.889091802637018813e-02 3.709848959163017379e-02 4.629928750062941023e-01
8.498020886072679692e-02 1.551105726057623937e-02 4.855002772425365820e-01
7.937556435637185825e-02 5.924518499362316226e-02 4.625822706787052763e-01
-2.135946118034236924e-02 2.317061139504970196e-02 4.469356882844198187e-01
4.945126935860934964e-02 4.928149851473625359e-02 4.505935713991339187e-01
9.431352198994368344e-03 9.099282140866672697e-03 4.417475781310914451e-01
6.469727022882976186e-02 -6.612774791183973454e-04 4.637788113831631254e-01
8.353395843057051517e-02 2.320078564852731326e-02 4.681075164998930727e-01
8.006376097225681443e-02 5.654387232823979842e-02 4.869490690883927497e-01
-2.153324173744556105e-02 1.220604957032453766e-02 4.444932107038925273e-01
8.264367737447937678e-02 5.798792604082444319e-02 4.620001295981673861e-01
6.833912310668786849e-02 5.333514645348144852e-03 5.097066473332899639e-01
7.823390138194001586e-02 2.382230665759804342e-02 5.150915069193321427e-01
3.176605308923367843e-02 3.065551792673508469e-02 4.477539409740893817e-01
4.104892884117194302e-02 5.387697294412967242e-02 4.495212411406978581e-01
6.730992938470108100e-02 7.355136288497198319e-04 4.660783246804022228e-01
7.661223321106537532e-02 5.848003943378920350e-02 4.773680460726210106e-01
