7.463074863269616999e-02 1.261045909139361411e-02 5.105886869746815160e-01
-1.169878783459133570e-03 4.011654003222015624e-02 4.452905501867636673e-01
1.020019200896612188e-01 4.182703042442829228e-02 4.754518533346372977e-01
7.719149484923962246e-02 5.637422684579133231e-02 4.573619872583629120e-01
7.944399194416104648e-02 7.963323622470409868e-03 4.870531509751681587e-01
6.841838933253713284e-02 9.638024788168704157e-03 5.161961934735389557e-01
9.279745248904477939e-02 5.247835243882723044e-02 4.785050597768927827e-01
7.875617415566821267e-02 1.595092277441437223e-02 4.679138321223864638e-01
2.836370757379515911e-02 6.143732853137087724e-02 4.525996415205063017e-01
8.524721483841382619e-02 5.044815463719286991e-02 4.595330710417530606e-01
7.743679118616321466e-02 9.706021887272611726e-03 5.015443936107956135e-01
2.887713195648919026e-03 1.055220229302953477e-02 4.412336245603857843e-01
8.488463622981946843e-02 2.292025492774289394e-02 4.992628724642454996e-01
-2.127670908386862167e-02 3.822594873238757684e-02 4.506139408639023292e-01
6.966467388334576794e-02 -3.265047141571622569e-03 4.745565321807401205e-01
-2.127842222168869687e-02 -3.315693237501129639e-04 4.397293339391774580e-01
1.943876527715303684e-02 4.638670465369043594e-02 4.469388774782936946e-01
-3.301855557313232437e-02 -7.938894713667144203e-04 4.405006496361096868e-01
7.241554949871058244e-02 2.550548470546960128e-02 5.235182634331558837e-01
9.834816949931458885e-02 3.353129758085383189e-02 4.824037131293388292e-01
5.814588667534130451e-02 5.419745283500022187e-02 4.515892765440921997e-01
6.464033361397536481e-02 -3.759957379058076563e-03 4.661093268290072977e-01
6.100103314190945952e-02 4.083377748922953354e-02 4.535320689463511190e-01
7.196528132125694366e-02 3.187522961270777833e-02 5.230761239982061328e-01
7.679092626057533455e-02 3.637109003132832363e-02 5.139478632946076209e-01
6.874265789674997851e-02 1.913269748971002659e-02 4.605497073070634606e-01
4.754691340003287803e-03 5.484377640656255132e-02 4.495382008016859388e-01
9.408521534308054990e-02 5.044181284192295056e-02 4.787611063176260284e-01
8.416953866233702064e-02 5.176715343604563341e-02 4.951745636233795822e-01
2.568151286067482664e-02 9.145479217979906456e-03 4.441824395234701961e-01
7.044970294151974705e-03 6.195241172898570230e-03 4.409221300046858305e-01
6.217026155652008446e-02 -5.333670662404173604e-03 5.120879904040316344e-01
7.049603895458741998e-02 3.590819513592371625e-03 4.679679249909469152e-01
4.753718023673171589e-02 -6.973559223002694270e-03 5.292220412123541662e-01
-1.148844487847342161e-03 9.581825195905059947e-03 4.407817181960050346e-01
5.817406966293411225e-02 3.877833931921066679e-02 4.532774059324814475e-01
7.694620617748655633e-02 1.081496361909209392e-02 5.046231944151856608e-01
8.278372235912274946e-02 3.298259526928160740e-02 5.087715382356772231e-01
6.410131705305546941e-03 3.929412818851397982e-02 4.451735597034824909e-01
-1.964039035720601192e-02 2.291040303266891204e-02 4.463054324859982436e-01
8.374526851563912633e-02 5.610894167931860382e-02 4.848442353316679831e-01
8.332060374806711522e-02 2.241948495254421012e-02 5.048899891691355224e-01
6.623856648176788819e-02 3.620840614239005661e-02 4.561530620104619627e-01
3.859529489131560687e-02 4.346165408402835606e-02 4.494859356753925783e-01
7.643353566637388352e-02 4.801204181639972049e-03 4.807615992434762786e-01
-1.908961030685321983e-02 5.261371201541053741e-03 4.409539794018489389e-01
7.487728196113910273e-02 3.768329300696945244e-02 4.609173395439729037e-01
4.442672075129188575e-02 7.524034979703978290e-03 4.491188920441951948e-01
5.274934370304155962e-02 4.358462262246497188e-02 4.514994089869484029e-01
7.913577891048584334e-02 2.212697323987981857e-02 5.131734978979666240e-01
9.206911741058088072e-02 5.068265426051173084e-02 4.863781981372443108e-01
2.703296021049195544e-02 4.455610559449627028e-02 4.478188494580538914e-01
8.325830094314980168e-02 3.653889141662447493e-02 5.070579686067528957e-01
6.869059742794667023e-02 6.880202755568554963e-03 5.118236857963772701e-01
9.249652592305540599e-02 4.936545368285885638e-02 4.877181011516338871e-01
8.121417146200442250e-02 1.050807870348372842e-02 4.889477502084459415e-01
2.464219465794164135e-02 3.435899658520949473e-02 4.469031741998965024e-01
7.378539450005057454e-02 4.972893510706443559e-02 4.549525461042687180e-01
7.833013583004574953e-02 1.327275813730228841e-02 5.053525608095723598e-01
2.386654169535974007e-02 5.049590291588920005e-02 4.478876368839682098e-01
1.394471822306930786e-02 3.503976101298069551e-02 4.452978946315946374e-01
2.677907940429474082e-03 4.678407870611150238e-02 4.460495392777603096e-01
2.972978897522015468e-02 1.078541280673649821e-02 4.452425941634388651e-01
5.018207480959462757e-02 -5.343703863792607749e-03 5.270225827733305834e-01
9.399070082962517059e-02 4.845248666766667489e-02 4.851906113025520884e-01
4.272323961807474035e-02 4.037664887466968500e-02 4.501765663512644067e-01
7.937722908950634038e-02 3.244691158426252914e-02 5.142985562053299375e-01
-1.176457666469596722e-02 4.245823888009202934e-02 4.472365160726668454e-01
9.551744440334888897e-02 3.688192579576904384e-02 4.662329532022871925e-01
8.202127442364846865e-02 5.867800158780637348e-02 4.781569238085436879e-01
4.828094172046347443e-02 5.659218540279396803e-02 4.505642003137604323e-01
4.716671406789751941e-02 1.676395557470430203e-02 4.511205662433645514e-01
6.759842731976731245e-02 2.444664571554813499e-03 5.076935800899020634e-01
4.562062758422670561e-02 5.789528607944113836e-02 4.507104671598998191e-01
4.811656625076942556e-02 1.299210305781385577e-02 4.512595978953737874e-01
8.561039998852729149e-02 5.587725353313111737e-02 4.824982807762167036e-01
4.096841605792785057e-02 1.134574513970006832e-02 4.481220026102009646e-01
8.004295828131938184e-02 9.399616350838640652e-03 4.908120872064712925e-01
9.632972810244715134e-02 3.167541641724978124e-02 4.837290637321506881e-01
-4.741535994257862520e-03 3.631006313285656956e-02 4.451375134585569548e-01
-7.680851798702443417e-03 1.788804100139709460e-02 4.422491490295848982e-01
3.515408620205513063e-04 2.504388722273902593e-02 4.431988281449477096e-01
9.744844755359362634e-03 5.375470997008210267e-02 4.486892971918016726e-01
8.519708930569327987e-02 3.826414712154977554e-02 5.029886711502337127e-01
3.092645220421116198e-02 3.023637635131682516e-03 4.438257222584366946e-01
8.910206765864721323e-02 2.125774902084933207e-02 4.852556036246666316e-01
2.167308496666280407e-02 4.964556453610410869e-02 4.475318112346567956e-01
5.205401443486158686e-02 2.504503443246878375e-02 4.531578742613194821e-01
7.913091262383324664e-02 9.125692002313161300e-03 4.958215467735319626e-01
5.511712963479637600e-02 2.582601076409930460e-02 4.541854399931110620e-01
8.835929379053407418e-02 6.035910922458056355e-02 4.713644183049765513e-01
-1.024102823409429527e-02 3.932898364302098160e-02 4.465261375767543561e-01
8.804637095558517923e-02 4.156176549965157757e-02 4.636764222793651191e-01
7.340287848005554172e-02 1.525491826177942725e-02 5.154144344554261181e-01
9.270307294867989600e-02 3.313328109341902999e-02 4.667029775566058358e-01
1.820132360030798230e-02 3.434571507232184878e-02 4.457561415005911742e-01
7.666683429219797383e-04 5.350422918897813213e-02 4.489739350323242451e-01
6.350644459302695610e-02 2.538505751959412374e-02 4.571495753365488190e-01
9.115911569771414924e-02 3.240097602261850229e-02 4.931400237088982563e-01
-3.803854930473765661e-02 3.094325391333186109e-03 4.440249592078098217e-01
8.864479050602945553e-02 3.343812878861281840e-02 4.658148325376840204e-01
3.736909124615331312e-02 1.676750411650783368e-02 4.479704332186529303e-01
8.282998531181497148e-02 3.130420920890668313e-02 4.649050696119613191e-01
-1.778485123076458101e-03 5.189280853604896770e-02 4.482375964942080238e-01
7.441423586831588666e-02 4.403308741068250910e-03 4.970009160857260522e-01
6.138392743182376210e-02 -4.513377088824314931e-03 4.621052189707070545e-01
7.222296289182476847e-02 1.852125716144576925e-02 4.625877301763994254e-01
8.900054744996893641e-02 5.972889536325536736e-02 4.691279730924580171e-01
2.837378947661745726e-02 3.696665598147563792e-02 4.478436013580034403e-01
3.732659551982505514e-02 -6.070029725354554422e-03 4.449968281501365808e-01
6.095920895046433308e-02 2.228353185756843519e-02 4.564336699487946958e-01
9.371541345272327295e-02 5.027216772355080215e-02 4.818554872732229710e-01
7.224702819362430195e-02 2.439313699669190538e-02 5.231983139291206397e-01
6.951418116051191753e-02 -4.687214045868574007e-03 4.940292795445947460e-01
8.013037975693695913e-02 2.676422420448090062e-02 5.129636687439603770e-01
2.943845486308801010e-02 6.031110154388426986e-02 4.512296365807748622e-01
9.140165913688544364e-02 4.058731381311725395e-02 4.924349062122774234e-01
8.009022402146050157e-02 9.378908050643400968e-03 4.773762802775303737e-01
-2.075806787399415640e-02 5.812495783207994107e-03 4.415990687002952497e-01
4.074851105225758136e-02 2.573032360010879885e-05 4.472904991829048105e-01
6.891365894837715722e-02 4.804003026502902396e-02 4.538129771066530260e-01
8.530808295345584935e-02 1.812675927454718630e-02 4.738238950094389446e-01
-2.807439725871630626e-02 5.945492187856648778e-03 4.434339568749950944e-01
4.813188377120704992e-02 -5.703106056133971924e-03 5.284404142954683969e-01
9.885593088917615789e-02 3.460126478645737108e-02 4.693924052793945201e-01
5.929816017347025459e-02 -1.072619616327563988e-02 4.641209548101679072e-01
4.757180325958733358e-02 4.942283474677294786e-02 4.505171556839001057e-01
6.810711706176927893e-02 -4.018785230035291575e-03 4.989432339791640136e-01
1.044739853981281469e-01 3.617475450164427814e-02 4.779635302839356226e-01
6.319639971118332089e-02 -2.082720122179533995e-03 5.115640183255301121e-01
7.832628858061108090e-02 2.972361960552433874e-02 5.160720533889902040e-01
1.655000734018445205e-02 3.122717375935480169e-02 4.451157049060105453e-01
5.048083151585173317e-02 -1.441877973078720121e-02 5.298322183226321647e-01
6.993586302640684635e-03 4.101156122936631954e-02 4.453984475434912271e-01
1.351684962563080156e-02 4.717694819868287551e-03 4.410608410796824086e-01
-5.113435842383070792e-03 4.824905306068701799e-02 4.468141644413409774e-01
5.942679248403148068e-02 -8.608840022254711510e-03 4.625418061857735630e-01
3.854317333599464185e-02 6.957844781115578824e-03 4.468674485891708792e-01
4.011184689763203082e-02 4.508450711587402848e-02 4.496609130903496121e-01
4.587719989666833031e-02 2.725226803051720298e-02 4.512994812975483216e-01
4.884807685353815924e-03 4.558076928504837394e-02 4.459143147752370195e-01
7.991068306396552356e-02 5.737261151424428302e-02 4.847428618934970235e-01
6.433892452554138344e-03 5.195143884998942863e-02 4.479678872114892241e-01
7.214478509021839125e-02 -1.075165457880224943e-03 4.904924193404667232e-01
7.941793562440996324e-02 3.752385641411750544e-02 5.110690665808332867e-01
8.240608221822849633e-02 3.975369759288767402e-02 4.629831441969053940e-01
3.091415952962572877e-02 3.827369852524317023e-02 4.484117463373147872e-01
1.165795080469309193e-02 4.169497757466925775e-02 4.457776159742179445e-01
3.413301467041778003e-02 1.888531044950166569e-03 4.447513864132722761e-01
9.304765201872480102e-03 1.372557697088079565e-02 4.424414893258885040e-01
3.576478110058090715e-02 3.080886760203855809e-02 4.487539103859831124e-01
2.972774555050869492e-03 5.110381254595219858e-02 4.476609544842691801e-01
3.107255031257278449e-02 8.712768280983588035e-03 4.451875130430157923e-01
4.648553763807804044e-04 -1.704896435062537227e-05 4.389225056979355610e-01
1.486406978762642821e-02 5.430327703689299262e-02 4.488265203144576887e-01
3.707886869389086931e-02 7.610032270339560714e-03 4.464309649692047577e-01
7.379713308775583125e-02 1.445791576029395800e-02 4.643655329960920120e-01
3.830211174578488503e-02 1.460174510874816776e-02 4.479293678517726196e-01
5.308889801669737507e-02 -1.307822653261022511e-02 5.270873680791654525e-01
1.044652336119131497e-01 3.787806815805380700e-02 4.774340788958562065e-01
7.283418884564517304e-02 7.690957226936931054e-03 4.675995234062459427e-01
1.617858368700061944e-02 1.429281242280716797e-02 4.433633214688934565e-01
6.873115363564588111e-03 3.925111081504483596e-02 4.451880183059601093e-01
9.011090297201028443e-02 3.351598603796818177e-02 4.952802269742038743e-01
6.425119109351044855e-02 7.688140672986587890e-03 5.205522353356969445e-01
-9.066941096426597846e-03 4.727202286083841132e-02 4.473616639745838230e-01
4.361137753198760653e-02 7.699543640051793349e-03 4.487634134303026268e-01
-1.164222530320140406e-02 1.369923811231600445e-02 4.418194765943792568e-01
4.959043134539387054e-02 -5.267888109394170890e-03 5.273747257162244573e-01
4.534111358543227444e-02 6.291569505293112541e-02 4.575199895826818075e-01
-7.110545279074927463e-03 -1.504160751242889123e-03 4.382606183204558192e-01
7.404330746846844724e-02 7.318465455032921625e-03 5.035991643858849232e-01
6.384566731760474290e-02 4.602423557836245963e-04 5.122565008698969358e-01
7.740494106189914347e-02 5.918230451256142888e-02 4.619928992220012076e-01
9.567465295741139908e-02 3.344511744231479927e-02 4.854712628749146552e-01
-1.172098058389599642e-02 1.345181813215993311e-02 4.417801317753657364e-01
6.003016774379672793e-02 3.765854631915472456e-02 4.539187686778645703e-01
6.849810533980732474e-02 -6.095240365236044566e-03 4.961819092713645740e-01
8.447038239276696836e-02 2.285935257563924752e-02 5.010289108272902858e-01
7.608543524987047835e-02 3.568748011021424284e-03 4.871670884532899315e-01
7.120734228545674838e-02 3.439267067136474176e-02 5.206412746556913218e-01
6.523722802736744986e-02 -1.808560874577555848e-03 4.654319753854381791e-01
7.245915948701676934e-02 4.422398480488457309e-03 5.006685258493148716e-01
-4.616764695128426632e-02 -7.415013728809707709e-04 4.455939671330797491e-01
7.100322059425813459e-02 1.419006081683258681e-03 4.984676201810469554e-01
5.622514232538645962e-02 4.850079025014220058e-02 4.515912278507810962e-01
-2.239136093507333725e-02 1.622189060601100796e-02 4.464056271150081412e-01
1.000617954511314051e-01 3.650474469174695702e-02 4.692065843410513915e-01
3.388385094478759546e-02 1.906490196801069112e-02 4.472780921345576588e-01
7.142869971977151844e-02 1.243924417023553261e-02 4.635122393736961222e-01
4.498765075137790836e-02 -1.641629354841061617e-03 4.492765882700774371e-01
6.535283841104176650e-02 4.149939009444465234e-03 4.615498044675776512e-01
2.646819098840787893e-04 4.060885108980324086e-03 4.400192946824791340e-01
-1.898098153155125187e-02 3.969735521895816077e-02 4.497239212582662682e-01
-3.189440201566352828e-02 1.892228046429860096e-03 4.424225025025989022e-01
1.967599329263869032e-02 1.478097703269839677e-02 4.439259157826440649e-01
8.813740831584807034e-02 3.215677424198847001e-02 4.984467734651035209e-01
5.203122058649949089e-02 9.340515787673361187e-04 4.530104268397325828e-01
6.595396240510940922e-02 6.905423157512399768e-03 5.167219803338943818e-01
-1.120985066724189579e-02 3.779377489163076448e-02 4.465203681476221931e-01
9.639941851445517351e-02 4.437071218271611966e-02 4.686949546947088430e-01
7.037914785236848436e-02 3.295621441255242035e-02 4.590803425981352381e-01
3.830774477222465696e-02 6.219012479371288649e-02 4.520809445107543123e-01
5.643407579718905109e-02 4.939021367523813849e-02 4.515622731494435271e-01
9.833858864743519335e-02 3.081669039321228293e-02 4.814529535753657163e-01
7.994663270251259335e-02 3.190319314929066646e-02 5.136263724293652633e-01
1.111651098137482821e-02 1.731159399142311386e-02 4.430822847243246487e-01
8.829400715711696601e-02 4.493659028368260366e-02 4.952697105143193945e-01
4.690312576449599813e-02 3.219076247993363227e-02 4.514038170852103238e-01
7.522738725619780575e-02 2.684283452046791040e-03 4.849864008798026038e-01
6.371331228881810249e-02 9.133054313500425098e-03 5.225608806133551498e-01
8.194405336091298286e-02 5.098717583256172359e-02 4.967253446100373115e-01
5.236047515902222602e-03 2.459464860424587229e-02 4.432206886323442618e-01
5.398636490773889296e-02 -4.614275736014039793e-03 5.238106242361773024e-01
-1.294738634044098440e-02 1.314908032760474937e-02 4.418567927090852332e-01
6.744622639170566591e-02 3.618004964230425724e-02 5.176924872484081064e-01
1.865471376202302092e-02 2.323000681209171081e-02 4.447064511066714521e-01
8.398024048503224814e-02 2.447092751481125261e-02 5.043876720385918055e-01
-3.423467766784672457e-04 1.773366683786124776e-02 4.419848151608485320e-01
5.284534586343371532e-02 5.337846575675415928e-02 4.509002236108706763e-01
9.234487123445803136e-02 5.337019989299678080e-02 4.772625520517329023e-01
9.004509790108476686e-02 5.738115109118380186e-02 4.682526727748034800e-01
4.653472074444124640e-02 3.852630336689898734e-03 4.500309852414687284e-01
4.257761579730198753e-02 4.783727046068396438e-02 4.499646563786895426e-01
7.089242565732338519e-02 -2.262577144933372586e-03 4.916798209871318104e-01
2.000872548946524415e-03 1.072376432923395802e-02 4.411781610675098997e-01
-3.205229401902785769e-02 1.889365142794311586e-03 4.424575503677947719e-01
8.189310747169500915e-02 4.790566200827387627e-02 5.002761153641608338e-01
7.064883617175381214e-02 4.570405909135242389e-02 4.547422643930406627e-01
4.248395938134828798e-02 5.082264796976664750e-02 4.498726064028815141e-01
8.597499640880541805e-02 6.185168050940073603e-02 4.670940262783235819e-01
7.177802888870933595e-02 5.995555527632773912e-03 5.046124901429969167e-01
5.491542381658766347e-02 -4.058291757098506612e-03 5.229104097563826992e-01
1.263500757514642199e-02 1.878925177966507543e-02 4.434370172352207762e-01
3.996162403952664699e-02 1.878383190178212550e-02 4.489305865952650798e-01
4.006944494991624556e-02 1.059849905178440743e-02 4.477343573047681824e-01
4.260709441633062089e-02 1.720138810354828601e-02 4.495176484550721385e-01
5.616252728123498350e-02 2.373936237758582021e-02 4.545277568878942076e-01
8.384978246146850001e-02 2.967459056348072804e-02 4.651355804528443660e-01
6.913244772391988202e-02 3.152751978044122244e-02 5.260866502479979445e-01
6.998209814930474171e-02 3.112820094749071259e-02 5.261447961874866630e-01
7.022327384462939692e-02 3.159270347778504739e-02 5.253538493831126921e-01
1.657941265192222971e-02 4.605345940443479613e-02 4.465717350987811751e-01
3.637316427392255080e-02 4.003124751379934926e-02 4.492257851137678171e-01
9.128555197973112212e-02 2.642953428855950027e-02 4.880960135386863130e-01
-2.121406466758208112e-02 1.390739715199005785e-02 4.451955977965983968e-01
-1.515468851408638407e-02 1.580281615217187310e-02 4.433306469356859125e-01
9.777131814777771657e-02 4.117687664817182291e-02 4.657643995903107959e-01
2.808542771919153840e-03 7.780205251000428014e-03 4.408442623463244558e-01
6.558875948616363361e-02 6.050261015667660752e-02 4.579061320913813127e-01
8.286973514346725189e-02 5.596374003741273750e-02 4.608018119663327972e-01
6.888594052665335254e-03 -1.372111813409522540e-03 4.389423784911278825e-01
5.107130665959947434e-03 4.603381019061144469e-02 4.459776777478340337e-01
-2.796989158111402168e-02 1.869262403809517949e-03 4.415089358234589589e-01
5.402400693073837468e-02 1.550184346773235064e-02 4.539277362251014081e-01
1.014083835770356740e-01 3.937136660435842234e-02 4.684390855142553378e-01
1.057956102744619375e-01 3.793958138340479402e-02 4.736821532060975781e-01
8.683618767787319725e-02 5.631310416515436512e-02 4.647020902751425320e-01
5.881998736272730545e-03 5.563644792245730358e-02 4.498670806897298591e-01
8.731025545757881146e-02 5.586913985438055064e-02 4.648144871713002502e-01
8.136162187633561027e-02 5.682951267819594948e-02 4.852940575630990683e-01
6.868371842706524899e-02 5.591255938186388830e-02 4.545003718298325501e-01
8.635156851276441781e-02 1.794272228217034387e-02 4.765135180794378145e-01
7.638237941965246580e-02 3.092065803315118683e-02 5.190437686113015259e-01
1.565938215920404872e-02 -1.320103798951503468e-03 4.397828549883090465e-01
-8.907068675012206477e-03 2.610420443562931972e-02 4.441022905165868950e-01
7.122329600800844651e-02 9.519837314369010602e-04 4.972748231617434844e-01
5.826063822665149966e-02 4.126283129056816656e-02 4.527664897442441605e-01
-1.535170039900547387e-02 4.424548987314541604e-02 4.488488633636245617e-01
7.705003535290248784e-02 1.332704819060293901e-02 5.078123125745134248e-01
7.044688591769091013e-02 2.794155858210367951e-02 5.262492935003878491e-01
9.350622240930372975e-02 3.134521489175059322e-02 4.686780018458582275e-01
7.169349119665992254e-02 1.499178989811437990e-02 5.176656136707555866e-01
3.034937615152116103e-02 4.800994814779990100e-02 4.482421717908885439e-01
6.035499482526458792e-02 1.818426458544378232e-02 4.565617190560080640e-01
5.144482841498901338e-02 -3.799553401524618894e-03 5.255910746344180096e-01
7.038530099289445896e-02 1.464236977099158191e-02 5.187995367954548742e-01
5.157115484635023395e-02 6.399752995931371966e-03 4.524732580560384965e-01
2.029751153723013957e-02 1.404579772415196805e-02 4.439175002810374360e-01
8.159862789374228154e-02 2.660146647006528253e-02 5.105989045449013108e-01
-6.188492787403082271e-03 2.671794680396048782e-02 4.439125402490690098e-01
7.495713011581531249e-02 2.155893841049848127e-03 4.873990808354482507e-01
6.102828262723402307e-03 2.801281431400147459e-03 4.400320732815319325e-01
7.209892952085737716e-02 4.042233431936261001e-02 5.109233762437084270e-01
-2.114242707085230155e-02 2.886859669679755352e-02 4.479803588953853999e-01
3.319754475623895584e-02 1.084451353017169828e-02 4.460806954969430693e-01
6.932831937589771509e-02 7.165134575645042136e-03 4.637509492043856985e-01
7.492916183357194171e-02 4.769915342068330177e-02 4.553854084682023573e-01
4.781822428611209874e-02 1.104061355502587716e-02 4.510757816303148648e-01
8.737603075699910959e-02 3.006195800961373316e-02 4.992587997758899943e-01
6.186598758829744277e-02 5.838819372693978410e-02 4.559206289409146184e-01
1.925250260361025326e-02 2.798180532362725195e-02 4.451459644063855414e-01
6.744878165473784659e-02 1.171500721207733523e-03 5.061640091470374081e-01
5.926020798821138996e-02 2.128969432105393828e-02 4.557990831087722627e-01
5.665060168751680225e-02 4.698004929137716140e-02 4.517404947350598388e-01
8.105534496018108881e-02 1.092220390745400962e-02 4.908582595609288224e-01
1.019320250828374685e-01 3.121239092809541607e-02 4.769102111229190366e-01
-4.019326662844552832e-03 4.305948449557149560e-02 4.458413798368998648e-01
2.066909961706294482e-03 1.738394377435225832e-02 4.421336759544022277e-01
7.233384381860023804e-02 -9.192447471879413440e-04 4.902493144133729941e-01
-5.184030241530768537e-03 2.844059908228912387e-02 4.441738307195752800e-01
9.804531070231313483e-02 3.343671964115882411e-02 4.826747418170349024e-01
6.939214297171217294e-02 2.724934018711885897e-02 4.590040088530164542e-01
-1.679153587549155058e-02 1.632617200383018954e-02 4.439943315001479984e-01
1.558539526309519682e-02 5.906569849403287692e-02 4.535859308394679656e-01
7.921425903123596735e-02 3.426212072126512409e-02 5.139469592555272470e-01
3.892969155099695877e-02 1.515547044281313933e-02 4.482028007604444420e-01
7.500312942557649243e-02 3.870740286566407007e-03 4.937906317705763604e-01
8.286454303720915127e-02 1.238192539527704916e-02 4.782625376457974586e-01
6.176445685131424362e-02 5.735643657148927627e-02 4.539367497637020743e-01
8.595600338666221918e-02 6.023018550717643832e-02 4.656621850437576149e-01
8.458343512903827854e-02 5.568224999246923490e-02 4.855119849737801196e-01
8.537980530977819227e-02 3.822181167047051381e-02 4.650446573547610263e-01
2.899446993362975178e-02 6.087460364631999341e-03 4.441271182318217714e-01
9.299901127099470532e-02 2.532702255106551725e-02 4.777258331329153340e-01
-3.012265485632815293e-02 3.943000487730313058e-03 4.429391672706520233e-01
-9.118463190974370261e-03 2.086460828405070980e-02 4.430297238693857720e-01
6.837282644814188237e-02 -2.628083781380643157e-03 4.990426020266783835e-01
2.710301019094930874e-02 -3.244868467706567196e-03 4.414150658166755559e-01
1.847602367987088295e-02 5.690918608563882986e-02 4.497200073569035395e-01
6.131135537050683842e-02 7.437039875002604550e-04 4.589423771492581183e-01
8.334271663120787488e-02 1.953508277663731571e-02 5.008298213630989482e-01
-1.256728537854488563e-02 1.265800068580066537e-02 4.417194591626312228e-01
7.786682134482653117e-02 5.941304546764985400e-02 4.631868250893975691e-01
9.417167914666477180e-02 2.581024564201660904e-02 4.766786067248445224e-01
-1.122574542937649321e-02 1.819407669344426381e-02 4.427428446494517944e-01
1.008507549924244767e-01 3.560274089652264162e-02 4.702301449334307382e-01
-2.245966255988256569e-02 2.015235960381200550e-02 4.471195773594377476e-01
8.938125322015459673e-02 5.882866979954170378e-02 4.689022729452924643e-01
6.530834076876343430e-02 5.908507805105519400e-02 4.561815215576441318e-01
2.369113101817028888e-02 1.285456311152279908e-02 4.443913985797573463e-01
5.955260052111691765e-02 2.668680918033191230e-03 4.573256216118191664e-01
7.186542230376539997e-02 -2.218215836498063469e-03 4.827154500417767946e-01
-4.468521580002505350e-02 -4.047101662531956377e-04 4.436644548116921993e-01
7.340407136308393921e-02 4.099603240772058815e-02 4.584474617287764842e-01
9.340074190389233144e-02 2.917676949193989677e-02 4.877759523151977139e-01
6.672819515782092703e-02 3.525163747944706771e-02 5.199088627578850597e-01
1.000076302062068989e-01 3.037695011538721693e-02 4.790564614859211257e-01
1.042845848844051702e-02 1.771954088937397614e-02 4.430294337586330733e-01
9.284920521242539040e-03 5.175402751663837897e-02 4.477239002279055913e-01
6.527391679027148841e-02 1.907955082715927231e-03 4.624557679451249403e-01
7.200322438005149484e-02 3.364332101399170570e-03 4.995501977911345204e-01
7.145580924380642851e-02 1.090036337216519421e-02 4.639863650949670459e-01
9.116253261509942030e-02 3.212057319554823681e-02 4.667470196718698783e-01
7.241517630927310489e-02 7.254421808626741568e-03 5.057676082900829373e-01
3.834066578647098156e-02 6.287474459652807324e-02 4.525758315503213836e-01
6.555027330170548616e-02 -5.302617944498020514e-03 4.685735295991590443e-01
8.431458286255022472e-02 5.586340698524888682e-02 4.850613613323255802e-01
-1.983739642001567521e-02 1.376381131193734307e-02 4.445833829203784671e-01
8.487346478637464164e-02 1.483800110914550163e-02 4.777721614384958237e-01
7.001736039157872848e-02 6.086678759950175585e-03 4.650989348163662718e-01
8.808864608220920434e-02 4.377135993342481241e-02 4.622546044617091288e-01
1.993753262411237723e-02 1.012893839602000898e-02 4.433645413663065415e-01
-1.110548507511869773e-02 1.909637015949633768e-02 4.429338851282035860e-01
7.637232039118665994e-02 3.663801770163323951e-02 4.619085662955467186e-01
7.745073574504614256e-02 1.169312043521672333e-02 5.048646136750190028e-01
-1.183353269931770521e-02 1.081283998507720674e-02 4.412801404850790199e-01
-2.655852218489439254e-02 6.797813047149103838e-03 4.435099516827007982e-01
5.320147628089177960e-02 1.977789842228285314e-02 4.534082604315045617e-01
6.882708592818984061e-02 5.954503300383644920e-02 4.562688116714765374e-01
2.187266514759773905e-02 3.486681846328416184e-02 4.464648071661596607e-01
8.172556176177747655e-02 3.538250529271372985e-02 4.645681991791870691e-01
5.586923181384666204e-02 -5.298928356124827169e-03 5.224240696978669218e-01
4.310866045176598577e-02 8.421454220839681704e-03 4.485818623822667717e-01
4.917180034062315630e-02 5.196075629424594389e-02 4.505576472781766539e-01
8.653275922023961897e-02 1.767176235443751811e-02 4.866984274226912599e-01
2.935607098840214632e-02 4.732095086669053409e-03 4.438835729244601236e-01
6.412417150461444115e-02 -3.680127557777809668e-03 4.653232907560945764e-01
7.733646754394697675e-02 6.061316973165975508e-03 4.912857089020467583e-01
6.802911869047101323e-02 7.798272829583249507e-03 5.142940864992807670e-01
-1.690158175484685749e-02 2.359429867157076741e-03 4.399767684824181790e-01
6.659517470243608850e-02 5.261407797676286718e-02 4.534414245027442170e-01
4.717365506511438100e-02 -1.046879876981456417e-02 5.314068663139912552e-01
-4.906236652145881151e-03 1.858323225342048413e-02 4.421926010484788505e-01
4.103984311386414674e-02 2.942491743783600885e-02 4.500586594394235251e-01
4.447736784127855059e-02 2.412400892529592902e-02 4.506548672156211466e-01
3.276902683904740071e-02 6.128865347334222502e-02 4.514084845695590098e-01
5.620894592857124394e-02 4.449017480786932738e-02 4.518639020226243863e-01
6.819172316300636805e-02 1.157551251822864710e-02 4.617850070059976164e-01
4.623742675588807249e-02 1.842662739104240777e-02 4.508976583110886338e-01
8.085031276564894065e-02 5.513558156554083933e-02 4.583354069690051547e-01
3.853073701135178997e-02 2.454646184847734773e-03 4.464712029351801115e-01
-1.883671542223377959e-02 3.368157832787700701e-02 4.481798300172695759e-01
9.570757126319774655e-02 3.929814219902532518e-02 4.869682503261771322e-01
6.879356221474511313e-02 -1.152879108699609526e-03 4.995993237575450663e-01
8.855495303671320761e-02 2.037490439268256279e-02 4.851769039761930080e-01
8.236601972555806367e-03 5.466679618257698492e-02 4.492354223428872695e-01
6.839564414030961659e-02 5.756235473448125667e-02 4.546795871165681402e-01
6.374030613505865528e-02 7.962982286805364573e-03 4.594690215174790926e-01
5.712365961658869701e-02 1.939171294843268153e-02 4.550378748138432794e-01
6.205450389559349911e-02 7.291957341860438348e-03 4.583422177472926129e-01
5.729636889593334170e-02 4.858058350999791900e-03 4.554999657655198764e-01
-8.784162212991820234e-03 2.067295906015516327e-03 4.392207793612752376e-01
4.247771790950706505e-02 3.546918685111549036e-02 4.502799780195131385e-01
8.925038723562303544e-02 4.346805507584778488e-02 4.940428813032652910e-01
7.212127701254351930e-02 5.986678558400522487e-02 4.631233424429418433e-01
8.061075670746166433e-02 2.181993254038649965e-02 4.663483829406337988e-01
9.333320537923980864e-02 3.700412868357741414e-02 4.903263932547669013e-01
6.136494748844728564e-02 4.058000624490269714e-02 4.536758899416981627e-01
9.197555513137541106e-02 5.378924761422440581e-02 4.712792026462909178e-01
4.497227007572729418e-02 3.061928364332753422e-02 4.509952112372789812e-01
3.988884431171471623e-02 5.344481327282334798e-02 4.495247106450220298e-01
2.249754205430747576e-03 3.541551721092027483e-02 4.446269650177445687e-01
1.030931351856376327e-01 3.647399667606085472e-02 4.796591037114951162e-01
7.342569433082178632e-02 2.596584766471370445e-02 5.226073307901853982e-01
1.308069304007565201e-02 2.520588564218775515e-02 4.440071233929890337e-01
4.384479120316559647e-02 3.806669212806607083e-02 4.505112289578706020e-01
7.163544532092160078e-02 6.213968671938798274e-03 4.672886485426566150e-01
7.526593423379324133e-02 3.482318205544619044e-02 4.614714511451852852e-01
2.366772198812047007e-02 -5.246657442909911494e-04 4.412641196265860710e-01
8.885419358184896976e-02 2.741038367192779462e-02 4.937272535680913288e-01
-1.451013896035801415e-02 1.041091711123755432e-03 4.393852539387289036e-01
6.524721439286733371e-02 5.380512359768156033e-02 4.532839940543821888e-01
7.788003944800048206e-02 4.188968788149237399e-02 4.601654305897466268e-01
8.773437870771499947e-02 1.938252886600017044e-02 4.859395438900445674e-01
3.750563501705229952e-02 3.489682491084797333e-02 4.492070342006971306e-01
6.755422170527392023e-02 6.015869350976113528e-02 4.615887658170624852e-01
8.950355144952688857e-02 5.803825344164059707e-02 4.698797726566935617e-01
9.021752033952588901e-02 3.800634528485510172e-02 4.652920660483135240e-01
9.831068278374081870e-02 4.518946320216923190e-02 4.768063212664986339e-01
4.000528131903532958e-02 1.234901943784169273e-02 4.480038876408578563e-01
7.846358721704286068e-03 4.805400209110728682e-02 4.464008340885589621e-01
6.842166572877327047e-02 2.750700975686714081e-02 4.585890952046681734e-01
8.415771914746512927e-02 5.888254291575213684e-02 4.772121034697166531e-01
4.996817678888971354e-02 7.166441554934723998e-03 4.517089812314433739e-01
9.637689768322599271e-02 4.666545635212360210e-02 4.798308910455694742e-01
9.536214400128299740e-02 3.069044710279071261e-02 4.701105008087304582e-01
-2.619103257755610054e-03 4.715091275289565176e-02 4.463231791508677770e-01
8.332998231974009240e-02 4.463072244802997884e-02 4.604260890983304377e-01
4.647532369720594643e-03 4.320090465287880488e-02 4.455924654211440017e-01
2.271457282396373636e-02 2.893770345241453157e-02 4.458684102595285581e-01
6.873658843192892443e-02 1.733224445621928470e-02 4.609163349903387941e-01
9.452267303733292991e-02 3.419212476308128995e-02 4.667694116428481865e-01
5.291316096299852889e-02 3.075775794343739433e-02 4.532990060644788155e-01
-2.448048671130310591e-02 2.918665936033959952e-03 4.411662926071560076e-01
2.552867080721125601e-02 5.540093460487752891e-02 4.491684921194255553e-01
5.265896217393329498e-02 4.696425985080288773e-02 4.512530106778470107e-01
9.169113714350744793e-02 2.449658207597832024e-02 4.774737330484136733e-01
8.937867712126797148e-02 2.192836874728593122e-02 4.858011158683444575e-01
5.220924930065221070e-02 2.469201634953328145e-02 4.532006573202707056e-01
7.567533737776462738e-03 4.547476792674449292e-02 4.459499639576437469e-01
7.433842147870953210e-02 4.056852231402914566e-02 5.099072658118853907e-01
1.614434303161024417e-02 5.896129372253248319e-02 4.529674976882531734e-01
5.914614628366109822e-02 7.370487500214187998e-05 4.575971483268193030e-01
5.960054872271685483e-02 -4.257890020695307733e-03 4.596313616821858239e-01
9.387624842939865100e-02 5.067841797930160153e-02 4.791472184898118436e-01
6.375791591509052947e-02 1.231497265136639180e-02 4.589099398870589708e-01
-1.956875311552589564e-02 1.788546144022368223e-02 4.454867124410322177e-01
2.291974321219880303e-02 2.969555026198773470e-02 4.460137892460419584e-01
9.227959430965981813e-02 5.343358878018571179e-02 4.773583479528022422e-01
7.968152550882325047e-02 2.194217347306150895e-02 5.122591619741024838e-01
5.481151151576250935e-02 5.119458186828510643e-02 4.512513114262143299e-01
8.462944557015665559e-02 1.768301341159266363e-02 4.919906125722340873e-01
1.062812542895113371e-02 4.230180685844151661e-02 4.457773122330241922e-01
9.182538008378783589e-02 5.402937736378052996e-02 4.764113509277666525e-01
2.154647052316157468e-02 -4.333005986425319048e-03 4.401003276819374088e-01
6.865109755284318216e-02 4.103853153629492129e-03 5.078621034868960882e-01
4.845420039566805670e-02 5.554788726640742108e-02 4.504546142902450812e-01
9.823216421377589658e-02 3.810383835153379611e-02 4.668913368886692949e-01
-1.688133849595156721e-02 6.715538642957791238e-04 4.395964080877257096e-01
5.370160241178205396e-02 1.236332882616213158e-02 4.537325028693422468e-01
5.816975588440419058e-03 3.803485136466908112e-02 4.450017089013896254e-01
6.128435485582733530e-03 -2.297696736578000096e-04 4.392044635631103811e-01
-7.268777205009626166e-03 2.281552866457143072e-02 4.431774273601979397e-01
8.267215132943299405e-02 3.952819844383417824e-02 4.631854142266554897e-01
6.568599729611079852e-02 3.609023574040916282e-02 5.182816623124976152e-01
8.547512347379744579e-02 3.207436285160372019e-02 5.036134370941293126e-01
-5.960101669894904940e-03 -1.710616490420345482e-03 4.382177773766304796e-01
9.128492471933820351e-02 3.936447037258012510e-02 4.927665916972991944e-01
7.647716168214614696e-02 1.866711728929146275e-02 5.144373205824575024e-01
-1.818550944806568426e-02 2.375752298409209567e-02 4.458468873172902747e-01
5.560325878045369041e-02 5.034458562190924358e-02 4.514034150053793382e-01
3.269881314730532090e-02 4.822041477467339105e-02 4.485455851900791990e-01
7.512258283303461376e-03 3.616409894905121131e-02 4.448362988652155847e-01
8.839175864408096994e-02 4.720567162129155753e-02 4.941526086553834629e-01
1.347730146558998032e-02 2.420086906471637100e-02 4.439983965843971592e-01
6.527854632460599119e-04 4.660057802748342887e-02 4.460009973412898954e-01
7.347553945406204434e-02 1.021032557415682378e-02 5.091126898533726575e-01
-2.714928611519727697e-02 9.997063749052167991e-03 4.463343541823970861e-01
6.771319065615560850e-02 6.003039552236044685e-02 4.628728653915751279e-01
-1.189203159540268631e-02 1.364274473546660607e-02 4.418360957579202664e-01
-3.002646991406154528e-03 1.167189291453133923e-02 4.410062169283973099e-01
6.699227144495945030e-02 2.770123040388967981e-03 4.638144094416099539e-01
4.796916331707165582e-02 4.372301168044594177e-02 4.508767641293168760e-01
8.126030792028801630e-02 5.712246469128182819e-02 4.842071749695565086e-01
5.015398882466751834e-02 -1.654681195132759117e-02 5.305125271517828756e-01
4.825609507136943352e-03 1.948081716955348680e-02 4.426266675889908853e-01
3.946894268895672492e-02 4.014929754373420395e-02 4.496955598687976674e-01
4.750975574641791432e-02 5.103877950988025547e-02 4.504294526852630765e-01
6.642162387344628660e-02 7.501291231489410315e-03 4.616199161644303217e-01
8.182239396083268446e-02 1.116517347183032180e-02 4.798099641905455570e-01
4.240862064859127895e-02 2.111890724601656749e-02 4.498515022061735924e-01
3.507535624187822082e-02 -6.500073787273001440e-03 4.436116926511480263e-01
2.859563055393674752e-02 3.267333715653288756e-02 4.474497683499141232e-01
9.352636919936127557e-02 5.217986080409789396e-02 4.751245545954388971e-01
9.776379724761853629e-02 3.378626333711530483e-02 4.831980114925082392e-01
6.181110034144059878e-02 9.545411694736256544e-03 5.249505712646406197e-01
8.126331643720342834e-02 1.922562263771526031e-02 4.682380026541775320e-01
7.432136482919556031e-02 2.417769307352929387e-02 4.624468772738379307e-01
8.665345527597963227e-02 3.446450855091164750e-02 5.015921647226737612e-01
