3.750162135671933350e-02 6.414738806628984824e-02 4.548729507534300387e-01
6.934391260905319043e-02 4.867366356294255958e-03 5.081868301417792333e-01
-1.203023797309440805e-02 4.445039802651841454e-02 4.476969950822146105e-01
7.969319996592295896e-02 8.274219290695754986e-03 4.834446322972592025e-01
5.659776463791391793e-02 2.083188050376966888e-02 4.548720043988797035e-01
8.579058749760071212e-02 6.141645555833790543e-02 4.711670678963671421e-01
3.036455285225033232e-02 -5.429005910049279626e-03 4.419564178198400195e-01
7.295270987069008006e-02 5.994367461079334186e-02 4.649610352815218284e-01
4.895758679074212888e-02 6.946984735068475504e-04 4.513202883591077019e-01
5.123651860888282089e-02 2.397828216052773354e-02 4.529643893276312783e-01
7.038730301340345719e-02 -4.392575811562989679e-03 4.787959852675348627e-01
8.556768316771098948e-02 2.968846296326375228e-02 4.661042253929558732e-01
2.752333859185028542e-02 3.478864681742883415e-03 4.432509357495704738e-01
3.241030548299735081e-02 1.461869302540171056e-02 4.464234325460067487e-01
-2.017793757038214425e-02 2.480418914542738273e-02 4.467480421248671285e-01
2.916855245446046963e-02 1.104807726340361826e-02 4.451987084919072357e-01
1.619592884997063387e-02 6.497819523085611448e-03 4.419384498348185586e-01
-3.620224827147872776e-03 4.552109140800289500e-02 4.462085645451483451e-01
3.416288571138811903e-02 -1.129238357035674970e-03 4.442925106372039856e-01
7.976089520194722116e-02 1.277960702658265113e-02 5.018361196788945211e-01
2.055285275076885673e-02 1.300741168290048960e-02 4.438674790273161586e-01
1.468578192044359479e-02 1.731672130836885842e-02 4.436052001917588083e-01
7.488122004325729886e-02 1.690952023444551935e-02 4.645983826913557824e-01
-1.334465453953827090e-02 5.578292322736945995e-03 4.404570887952006797e-01
1.089419678156632390e-02 5.594229171703769127e-02 4.508584715606616666e-01
5.977142663954376767e-02 -2.619893255572451098e-03 4.588694418985100332e-01
6.239209572075164745e-02 4.354490209624951869e-03 4.591917588330641231e-01
-3.641477511544881362e-02 4.020818505939880924e-03 4.460722492398186412e-01
9.461846481118935115e-02 4.634701538609192761e-02 4.679347580233046977e-01
8.677304949958512814e-02 2.615361310689129706e-02 4.979180212590477717e-01
2.697333212131554012e-02 4.266957053783011072e-02 4.478692597522743735e-01
7.743642899344382879e-02 2.069379989532424066e-02 4.651452543640337001e-01
9.334536127008319362e-02 3.811120716498594962e-02 4.910506229544854273e-01
8.543184973553415162e-02 4.114110222808330802e-02 4.635608306946079615e-01
4.840531861180789180e-02 2.885923623988085468e-02 4.521912560649913870e-01
9.266725581347626250e-02 2.443656269641620790e-02 4.757836007912031873e-01
5.678380075898380175e-02 -1.061923980647501431e-02 4.606107618514575508e-01
6.046661252000494480e-02 2.246126518640085418e-02 4.563820836832889194e-01
6.060188298152456576e-02 -1.103291275511860195e-02 4.662114275012365638e-01
9.005229529499437363e-05 1.190155865262639001e-02 4.412920316951073341e-01
6.082265155545116264e-02 8.558733485790897752e-03 4.574771139596779945e-01
4.027912451502851932e-02 2.020848337710071455e-02 4.492620499787536859e-01
1.000249448620482151e-01 4.028287218941260101e-02 4.673011340170325489e-01
6.778918810521691873e-02 -7.456019291945744851e-03 4.977779103142509487e-01
2.363421444439230829e-02 3.308397254373710711e-02 4.466295856956014609e-01
1.863874142380221241e-02 4.855329244356498125e-02 4.470855199941441427e-01
6.966007878340330084e-02 3.366433789175196645e-02 4.587685843008181830e-01
7.914410884855845041e-02 3.288404093060116190e-02 5.150531684410896149e-01
9.178469025252973534e-02 4.306578859793520203e-02 4.638332162860335228e-01
1.022680023059387711e-01 4.125895360946267576e-02 4.733182277760748513e-01
7.442316744923142824e-02 4.164301579034142275e-02 4.587716417204596997e-01
2.525839140415068670e-02 5.080236526812172831e-02 4.481015349626462640e-01
1.821148441749973618e-02 1.761308955595533229e-02 4.441408419069857172e-01
3.773251263535604832e-02 2.065933525126086023e-02 4.485703782306713627e-01
5.636201860268520020e-02 -8.172203700081709030e-03 4.581812013872108569e-01
2.856540104342438283e-02 5.605674996468638233e-02 4.492849289528632051e-01
4.973341865807070356e-02 6.051562104331177638e-02 4.545467506119719170e-01
9.046921075405457702e-02 5.373189587824216129e-02 4.665478082127869075e-01
1.044772019708059968e-01 3.926846051337766486e-02 4.781666284125929423e-01
8.027199771636983616e-02 4.073279845568426177e-02 5.076611227230377610e-01
1.531791170373087221e-02 5.054663685137479601e-02 4.473338979886240518e-01
7.349726685031073015e-02 8.538181378640288116e-03 5.069852921657306277e-01
9.253270565144203208e-02 4.917136242348239816e-02 4.661205416232618859e-01
1.819243787793319717e-02 5.709048911320577235e-02 4.498152644195779204e-01
3.353984969593326593e-02 3.343725324620032413e-02 4.485052024922289715e-01
5.483191211372088342e-02 3.567511975697378046e-02 4.531999595742169928e-01
-1.219017263079119964e-02 3.572642270163146894e-02 4.464488514316153345e-01
1.274871035320809289e-02 3.258562693833498558e-02 4.449162644788119403e-01
6.608636701096434751e-02 3.406054268330608453e-02 5.238536044641257661e-01
9.636827873543582501e-02 2.866996270954586326e-02 4.726510006068816994e-01
-2.957240152419317487e-03 -9.690779687341385257e-05 4.387542025080578556e-01
6.234135284575720304e-02 -1.368401400189362977e-03 5.141379432995417664e-01
8.969021796431449201e-02 5.221290418125424521e-02 4.637843398278654328e-01
8.365228901430925290e-02 3.457920633503317603e-02 5.075713718246674944e-01
7.717529047745087800e-02 3.307014769658568609e-02 5.164532508482395645e-01
6.850426960492941864e-02 3.613414387422352134e-03 4.651036995307801791e-01
5.199651115887916897e-02 4.081230772152284053e-02 4.516947331182017411e-01
7.191551689830451288e-02 5.133008925808059397e-02 4.547063348251917381e-01
3.975078909714066522e-02 3.848613813364008818e-02 4.498151190750688255e-01
8.518024878157401392e-02 2.278652667557687014e-02 4.702061299259545080e-01
6.445041539581497503e-02 9.752875159886481050e-04 4.622137242642838095e-01
7.427552390366996826e-02 3.553141292324053097e-02 5.169744676135251682e-01
6.486413724499420774e-02 -4.385612954508165753e-03 5.073176643031442890e-01
4.893918648071464428e-02 2.957320080061053361e-02 4.523085567604480661e-01
7.649412666840919861e-02 1.841793097976226687e-02 5.148588390842621099e-01
7.581928902692007533e-02 5.041141977766938446e-03 4.748906353742315956e-01
4.352054969109649812e-02 -5.473703145142408411e-03 4.485360800783448898e-01
7.745823210921380653e-02 3.676462610574850187e-02 5.134071162708251368e-01
4.285839437778930783e-02 -2.636646726200520593e-03 4.482226057635650407e-01
-1.234957987690665261e-02 4.481558953804876122e-02 4.478911407623386576e-01
6.712956840571759898e-02 5.087876306369014390e-02 4.533700217485567840e-01
8.951878189879051984e-02 4.153572083102161083e-02 4.643832564423232001e-01
4.814358681323499534e-02 2.103114097967212145e-02 4.517961092942653356e-01
7.022692959393256329e-02 -6.571842780174495802e-03 4.863361872568158772e-01
1.781947733562110059e-02 -5.462836074836812522e-04 4.403420626893732592e-01
1.073720801036982635e-02 4.042423798613841573e-02 4.455676403973121147e-01
7.523898981856588786e-02 3.419078585635270534e-02 4.616374197951083058e-01
2.511551101870818092e-02 2.974027481781891386e-02 4.464631980411186696e-01
6.442819739259299239e-02 2.307582934873448049e-03 4.612533716710270348e-01
1.651431696375249211e-02 8.534897708905603980e-03 4.425363653837401379e-01
1.002177535369138117e-01 3.665191244877564342e-02 4.695077941206859395e-01
7.537186025605811801e-02 3.160740134977072652e-02 4.614646837975427962e-01
4.875337042406755611e-02 1.055225435098752079e-03 4.512099753163877902e-01
4.000726382929312153e-02 3.197822505091318934e-02 4.497989989708494618e-01
8.095152893645295167e-02 1.447315592361429586e-02 5.018803446849660066e-01
8.042849129408319309e-02 9.095873831512293894e-03 4.834622572534597040e-01
8.937614912601074546e-02 5.401918336356586331e-02 4.856053916261598435e-01
2.363683314673616261e-03 6.698746632869689160e-03 4.407063114394345060e-01
2.734523788583368212e-02 1.373691432626064288e-02 4.452672472786306512e-01
8.397670250309961781e-02 5.266282358623347593e-02 4.946111989032407896e-01
4.210764731483299800e-02 5.971010194975923807e-02 4.511598018174644564e-01
8.331488809008821828e-02 2.163172890284208519e-02 5.049458177565566697e-01
3.234128755715506148e-02 2.763041062971791084e-02 4.477604619668208441e-01
8.702636964877900894e-02 6.141451878728172026e-02 4.703255435946045449e-01
9.480952131771262781e-02 4.526904276729289134e-02 4.881515248869408019e-01
7.792016851212241191e-02 6.092872316398514204e-03 4.843164884773878964e-01
9.226552985856358025e-02 4.056279248431542139e-02 4.653830415043039848e-01
7.566521309293122027e-03 3.471868433425799594e-02 4.446468975261155254e-01
-6.007479348348446040e-03 3.615013285798908405e-02 4.452645520178067917e-01
2.133111037019930906e-02 1.908778030300616740e-02 4.448293512672629180e-01
-1.298668812704367043e-02 1.297490929413483950e-02 4.418639668587255875e-01
4.110577058981738224e-02 -2.852258602097820263e-03 4.474137568145207799e-01
4.378872833921824970e-02 4.095034750801991585e-02 4.504451291749521635e-01
8.304992357321083762e-02 3.341869526143684960e-02 4.653469525317121547e-01
6.219230453778484824e-02 -4.185838564350797750e-03 4.629152896001426098e-01
8.552186875364449492e-02 2.747171711571788980e-02 5.024540447802033905e-01
3.780232748661429415e-02 5.443536750765607529e-02 4.495177426116780950e-01
4.892110123762153165e-03 4.345783975987681930e-02 4.456448973874181929e-01
4.075558152145929841e-02 -5.341491125970853834e-03 4.471669924132371521e-01
4.893697410804574016e-02 1.788306205584098627e-02 4.519296763607943412e-01
5.720372101979435964e-02 4.431397916408267440e-02 4.521876338872662382e-01
6.820763611249668068e-02 1.694318011544299410e-02 4.608455763234738933e-01
2.360605998388008546e-03 2.418534015716049517e-03 4.397306411232426715e-01
6.934628347905240353e-02 8.716995018064450929e-03 5.139214372933804675e-01
8.744604698063181136e-02 4.914720339107664371e-02 4.611557701915339202e-01
2.333747004266795849e-02 4.948578284592064502e-02 4.476479558286283744e-01
8.794204394417790005e-02 5.264197175052834354e-02 4.911130026415522210e-01
7.879258819043356843e-02 3.981229939731342760e-02 4.622967932007691072e-01
3.677580809740285672e-02 5.716492903494723582e-03 4.462375286729972634e-01
2.923477702956932961e-03 2.110951275058416815e-02 4.426923246920762001e-01
-9.138858419533778948e-03 9.289686997675055541e-03 4.407554072411706270e-01
7.218784772585115639e-02 -2.878293723664352918e-04 4.933204383794017600e-01
4.441981248722164100e-02 4.121422163711595948e-02 4.505330569580389133e-01
7.270879051080260391e-02 5.502528722292789401e-03 4.692994320662934316e-01
6.605373613480686190e-02 1.496457371854948912e-02 4.600130368939601699e-01
7.668946382547632556e-02 1.100015594709188513e-02 5.059843904887342259e-01
1.021514656822587602e-01 4.159659558820235498e-02 4.741211311351686830e-01
2.601030270797877186e-02 5.816084136434771651e-02 4.497825383096581420e-01
3.326625518813015880e-02 2.690845204144227606e-02 4.479265787083145933e-01
5.532828968074679499e-02 -9.413064916239301944e-03 5.241791014623264910e-01
5.880433107494557887e-02 4.688435874073015874e-02 4.522087470885291505e-01
6.957849996699159989e-02 5.994704845765662371e-02 4.636183713568934328e-01
8.245951439075317746e-02 1.157297538151035032e-02 4.806212142311982460e-01
5.113591681676967621e-02 2.468606642524954348e-02 4.529511397964842145e-01
7.425050157446418109e-02 5.712891961113090999e-02 4.564707747623746315e-01
6.106915629940654761e-02 1.425843565897537803e-03 5.193332908032057826e-01
7.614543578917443156e-02 3.483676138235877739e-02 4.621131590182733784e-01
4.941738224263782231e-02 1.596929845687727889e-02 4.519853661909938314e-01
-3.107634377902813647e-02 3.660993750480295936e-03 4.430617789479432966e-01
8.249404026759789288e-02 3.930341823473637586e-02 4.636441955104820822e-01
9.422828581234400647e-02 4.541888804664755142e-02 4.665122671000562771e-01
-1.934105999685609492e-02 9.014967022495819909e-03 4.426654987467177338e-01
8.406119670431566604e-02 2.623010106845974354e-02 4.671510952869625810e-01
3.694869366088959078e-02 -3.472622734387849439e-04 4.456380315887792931e-01
8.830904964303867843e-02 2.583819862658567196e-02 4.699767766943152569e-01
1.365763825731204639e-02 3.374915872901968622e-03 4.407231498213710075e-01
7.492855148541521793e-02 4.577735677838352599e-03 4.737512465785085891e-01
7.662473778224770937e-02 5.338332307454082479e-03 4.773490216267573527e-01
9.385104439463547166e-02 5.100602283838989032e-02 4.803213709265485298e-01
3.502774637029425903e-02 4.010906006888927122e-02 4.491074827752350451e-01
7.134061467895072561e-02 -3.754469940995064717e-03 4.874529316219531894e-01
7.457444485746776708e-02 1.444210145458587301e-02 5.134537258035546392e-01
-1.525791231697302096e-02 4.393251780335704834e-04 4.393183320896262845e-01
2.409757003972488529e-02 6.094235136373554046e-02 4.529721291261874505e-01
7.280708696361459786e-02 5.726188265876695771e-02 4.560571095788975571e-01
6.797103877196286614e-02 2.313500660548477653e-02 4.592487841625078060e-01
7.150899164412320708e-02 1.110341673123885209e-02 5.139925908134393984e-01
4.173947961980811749e-02 6.187532592164284029e-02 4.524702165677954024e-01
9.589995204759232950e-02 2.656249880121836632e-02 4.768485549963938364e-01
5.250239125208060881e-02 1.927224855707169310e-02 4.532754144827116360e-01
-1.541864536400629204e-03 1.532726997710025241e-02 4.415981731033873370e-01
2.745327333798175395e-02 3.488203846736090408e-02 4.475116682022239334e-01
7.052945543336257284e-02 9.794248558231044913e-03 4.638542188684627310e-01
4.543357864196659150e-03 2.971348970602182005e-02 4.439017784906733599e-01
6.603088022798252188e-02 2.444213902587577796e-03 5.113344180386095728e-01
8.363930976413556928e-02 1.593793195070669633e-02 4.947530732911346596e-01
1.005621325445794356e-01 3.498662164815843911e-02 4.820893163214665100e-01
6.906111398629674603e-02 -5.293010709296167710e-03 4.763403858328932317e-01
4.097420840597144898e-02 5.269186310332384798e-02 4.496867273234669837e-01
5.859936076123752752e-02 -6.262142904884269133e-03 5.194011581487520957e-01
9.554766922860975786e-02 3.143019074411529390e-02 4.700337534629313585e-01
7.065688324056604297e-02 2.054489035785461021e-02 4.614619787675350859e-01
2.760933913317383318e-02 4.327903739527286936e-02 4.479628124213778095e-01
4.991289224754175829e-02 -1.621827442330106214e-02 5.307414168180187852e-01
8.353766139195241414e-02 1.814454199043967486e-02 4.715323781736950881e-01
6.421815115884731140e-02 -5.359360088567181879e-03 5.083435744723824312e-01
5.339730559682154265e-02 5.778850728195442099e-02 4.523808806662635296e-01
7.439549310752958944e-02 1.869209896231852075e-02 5.182155631750924307e-01
9.513139270196170616e-02 4.776578380821740882e-02 4.708032940416162493e-01
9.280090118444337191e-03 5.399896607296831436e-02 4.488440115642848838e-01
-1.871960984868711181e-02 1.370973966187265247e-02 4.442244524467131028e-01
4.407836721620156384e-02 4.158961889771470993e-02 4.504794818386961275e-01
1.298144613016336685e-02 2.942809514783390271e-02 4.444605077512777669e-01
3.749754837645329075e-02 5.216498092467865971e-02 4.494123181851316651e-01
7.329766303565631025e-02 3.399156616055214880e-02 5.195761435755403834e-01
9.049392404667817857e-02 4.738476629606247492e-02 4.923620904955235411e-01
4.616919739816047891e-02 2.304058058530252667e-02 4.511880150934294287e-01
1.565920749702380543e-02 1.181434704409400037e-02 4.430274968060829988e-01
3.795774326486993366e-02 4.542079766358049497e-02 4.494078817516822255e-01
8.822456764996006173e-02 2.191348555031756226e-02 4.735615195526677312e-01
-2.985223706400318838e-03 -3.720443215905152624e-04 4.386789087501085094e-01
1.250730116341665712e-02 2.560333033068452890e-02 4.439843081082491816e-01
6.612579440420607302e-02 5.922295421247415759e-02 4.563767480297714063e-01
8.596168700179224187e-02 5.449061763276323578e-02 4.615174946185288118e-01
2.762753829119717064e-02 5.237352411548282238e-02 4.486284110488655275e-01
8.298860178665255771e-02 5.694626606829372023e-02 4.827452718087459904e-01
-5.470702798374398740e-05 1.318016386742271173e-02 4.414276295830266150e-01
-5.157036545645045031e-03 5.192016984693814674e-02 4.489520490924983065e-01
7.026648197929361017e-02 1.770863051443837682e-02 5.221801009008886219e-01
9.262073563133985110e-02 5.277279121080542118e-02 4.806287764866332690e-01
6.166413817439083539e-02 1.786490870645078555e-02 4.572896378591834732e-01
3.225698382663232111e-02 6.517300083821331302e-02 4.543955473443718196e-01
5.498626608106303715e-02 2.986763534819900437e-02 4.542071455684625336e-01
7.978316554017221562e-02 2.267661302014904040e-02 5.133502148115178798e-01
8.664481186370084909e-02 4.703637400124786871e-02 4.601515483618985325e-01
7.580836077407722418e-02 3.333534755515598410e-03 4.843453159473130598e-01
7.261738911158663323e-02 8.175625141619690534e-03 5.076121010651726273e-01
6.945780845092199007e-02 -7.233601159796120006e-03 4.895466544856468816e-01
8.643142988010779626e-02 3.877240034283552933e-02 5.013249803143600136e-01
-7.870100338722801209e-03 2.729136435101221086e-02 4.442720475885502118e-01
8.303837314914154499e-02 1.229912183961377747e-02 4.867056153922989514e-01
9.351481116266707749e-02 3.196133225666383804e-02 4.684625757003560986e-01
4.019777086490503026e-02 1.491417993788889465e-02 4.485775673061397351e-01
7.346876433796833972e-02 4.152326146043112953e-02 4.583562807837840425e-01
6.551587128386469894e-02 1.351398801361760986e-02 5.243814466750670311e-01
1.332074740984715358e-03 2.999378149093319314e-03 4.398263483816703401e-01
8.026846025717714050e-02 3.842875812456984091e-02 5.095883026704493002e-01
7.495384330229923342e-02 2.951460716896239789e-02 5.215892231274218416e-01
-1.221994339065496024e-02 2.109781413476268658e-02 4.436109262329068770e-01
8.259820950466188749e-02 1.325841942103385927e-02 4.928573444858315722e-01
8.049491773295369690e-02 2.288082860645191188e-02 5.125031189921986918e-01
7.762236324202938242e-02 6.478111336024891878e-03 4.933191591947376775e-01
-2.186448963653858310e-02 1.671494943353506180e-02 4.463386865332676368e-01
4.148392564774366215e-02 4.444796733122169732e-03 4.477087552874998710e-01
1.414833644680070501e-03 1.142846431477804320e-02 4.413002656521494704e-01
6.446440995475770375e-02 5.009374602341404217e-04 5.117042255900975389e-01
9.200475337431021639e-02 4.598765918371038736e-02 4.645409887498285761e-01
9.891983862083457424e-02 2.945511347419863327e-02 4.805106062842294801e-01
3.578838705390583602e-02 2.238838341814811811e-02 4.481957522579231301e-01
4.922354014495618213e-02 4.005530019605912234e-02 4.513363075334462793e-01
4.784879021617153422e-02 5.800356989411382946e-02 4.513465398608270673e-01
-1.137723793561770148e-02 1.736271107427593899e-02 4.426124051470100018e-01
4.602556253245775747e-02 4.957123774056885340e-02 4.504822329535332903e-01
8.513012995340302203e-02 3.973843604813246527e-02 5.029196969448048726e-01
9.920961599108742146e-02 2.936629057219781319e-02 4.796753484157846859e-01
2.604520564243290037e-02 3.832134939043586874e-02 4.476081801769904445e-01
1.580720964019182231e-02 3.189230069791099131e-02 4.451417354405770022e-01
8.621495601878138848e-02 2.198538382270444347e-02 4.717796026638155227e-01
5.007484454972632726e-02 5.328127117872814150e-02 4.507757540946691344e-01
7.147969756756476778e-02 9.858958723536908469e-03 5.123261978297978247e-01
8.763119574524370903e-02 5.078318601681410666e-02 4.614607716679401395e-01
5.805851062573416654e-02 8.889198016258249152e-03 4.558373120347348761e-01
-3.153779281464520745e-02 5.035965605081954479e-04 4.415461891840057329e-01
8.217126832313642604e-02 1.113923160107548570e-02 4.821770357848587096e-01
9.012615339893272071e-02 4.573652610076203023e-02 4.618946995982993742e-01
9.283363725438931180e-02 3.913000301720832158e-02 4.915876137970928150e-01
5.704666814394051405e-02 3.296575312599843433e-02 4.542015807070174382e-01
7.222212007327924455e-02 1.405942052914255572e-02 4.636626976177551929e-01
-3.933633712274263450e-02 -8.464388756142990876e-04 4.405130218652825724e-01
1.339550348704558400e-02 3.725872915166043853e-02 4.455264918305968380e-01
1.032222228451499246e-01 3.240685883626332614e-02 4.784017663423817956e-01
5.358093908415751533e-02 -2.419188992901396152e-03 4.545559877590404363e-01
8.419675928861540537e-02 1.908119890992825488e-02 4.977389481214230527e-01
7.588734333477005489e-02 6.262438396262612512e-03 4.731457466298394920e-01
3.997986279230229117e-02 2.234347094118666749e-02 4.493458189786190271e-01
4.864238977078365334e-02 1.037345298935907559e-02 4.514592226737936809e-01
3.272091186939041219e-02 3.727061094259658675e-02 4.486911022052744724e-01
2.912267708728352028e-02 6.008978026478881129e-02 4.511155953627108972e-01
4.453963246054215563e-02 5.344965933512044187e-02 4.501187848005525627e-01
3.403340546961895058e-02 2.706808165753599171e-02 4.481156148797989514e-01
-3.612029119125447635e-02 3.354015190972426362e-03 4.444188352581490697e-01
8.074881771560721289e-02 3.084706274159620260e-02 4.640462515958648781e-01
8.218498748941077681e-02 3.865841285666640759e-02 4.640132916988077838e-01
7.573418940876963656e-02 4.580275689363914882e-03 4.761370543155643564e-01
6.257256939849488442e-02 5.113971348845904735e-02 4.523836142468843913e-01
8.164893610610741981e-02 2.828968388835105194e-02 4.648666328815937998e-01
8.461676070303739139e-02 1.623785720611901559e-02 4.908952976101154664e-01
2.397753338194526934e-02 2.669123194198087801e-02 4.458897541120222519e-01
8.142287626661097802e-03 5.484226467005470784e-04 4.395905021343452512e-01
4.165906143354796559e-02 1.539226936993512256e-02 4.491363948994651079e-01
-1.174871477138822624e-02 7.756778337178655419e-03 4.407757015147350521e-01
4.456689100438231826e-02 -4.557127874056062997e-03 4.491076663200977426e-01
6.542677232442771842e-03 5.610416832730095310e-02 4.512474317384690958e-01
7.132741357418131978e-02 3.450389480977587853e-02 4.595921771847312209e-01
8.965934071816364370e-02 2.931504588896339386e-02 4.946012530101977500e-01
-1.354021279526823954e-03 -1.628610936233551142e-03 4.384271881725015918e-01
7.299758576051443293e-02 4.106334975447726438e-02 5.098060277821879760e-01
2.447297114346708071e-03 2.205396368485935260e-02 4.427500320561189584e-01
7.316168880180622114e-02 3.156298890296027615e-02 5.224868725027790317e-01
9.392248278410464390e-02 3.006962015262032092e-02 4.881317674440610044e-01
7.151228924802498221e-02 4.812865614317878189e-03 5.036641472468450509e-01
8.824084115661605388e-02 2.676451178073169235e-02 4.690727260819434474e-01
-7.404035868120675823e-03 -1.447842185706528896e-03 4.382974934630687325e-01
6.139219623254438263e-02 3.048945662848818322e-02 4.561095417465543256e-01
7.882310198065249629e-02 2.145957411637444343e-02 4.657395362331039901e-01
1.027404265615636594e-02 5.747087400628140413e-02 4.538912945045694980e-01
4.109848502880531634e-02 1.419391428582498713e-02 4.487179521853335573e-01
3.868760745281575597e-02 5.890283928950081072e-02 4.503646110745881392e-01
-4.146650956279834127e-02 2.674754850632211477e-03 4.426954375151387899e-01
3.795188865845249698e-02 3.037373480076254600e-02 4.493807728543497415e-01
6.744549498664764720e-02 4.029417621782840908e-02 4.560193939281382280e-01
4.893325860626932672e-02 -1.050428521076848982e-02 5.299930848771405856e-01
8.850155333250907252e-02 5.234977828710732362e-02 4.623877221168585794e-01
7.461714417414559708e-02 2.926184472982176071e-03 4.775008093926654817e-01
7.958721789555733839e-02 1.259630710323484358e-02 4.717405163239574151e-01
8.958080418356197117e-02 4.413658319689350851e-02 4.942482636204268420e-01
5.493888751566667478e-02 -7.683652258756615110e-04 4.550824207674027955e-01
7.531113085018842357e-02 3.315184513950444889e-02 5.185009835721628990e-01
6.574679911853249792e-02 -2.472645213631316508e-03 5.062175392308697619e-01
-2.922632037798817556e-02 6.776245942868543842e-03 4.442567423544232508e-01
9.109488781064513374e-02 3.159555229707108892e-02 4.935110155609022109e-01
7.717324775101977452e-02 4.036069527736482754e-02 4.610545377212340590e-01
7.863486696487856364e-02 2.481747464967565958e-02 5.158972654216180675e-01
1.505974318900608379e-02 -1.783319709234718053e-03 4.396174958036149771e-01
-9.748660320901625723e-03 7.158509834145751136e-03 4.404512857805337744e-01
8.524761632587916915e-02 5.825812108752935481e-02 4.647352007330959878e-01
9.403567774985852057e-02 2.535697807328740616e-02 4.763354804817176991e-01
4.555447765466987681e-02 2.664923932765864145e-02 4.512653992811146986e-01
4.401587008795131151e-02 2.952062635651310843e-02 4.509315945003157799e-01
7.479718412341936074e-02 9.564900073383172246e-03 5.068681279662703432e-01
-3.556480759976877321e-02 -1.081362972325212090e-03 4.402262886539188291e-01
6.860933339508151763e-02 3.825254806131623414e-02 4.572587490545972355e-01
7.481644365176129408e-02 3.090601793879452566e-02 4.611398695547352378e-01
6.567527036084389036e-02 9.633908086338077367e-03 4.605378695635130026e-01
6.840672624524173073e-02 1.735188648833536299e-04 5.032209926843161929e-01
1.593561932007077353e-02 5.954585573055235642e-02 4.543326323273979006e-01
8.310631408442273327e-02 5.742424693362375987e-02 4.818574530686946522e-01
6.069869455877528047e-02 6.768883758542513368e-03 4.574597022200138641e-01
-3.335058263973279119e-02 5.207147503913597559e-04 4.415168039258430266e-01
-3.316332734851620487e-03 -8.447293704577564944e-04 4.385347263589263189e-01
-2.369018038103245377e-02 1.120984590882753533e-03 4.403205413450148042e-01
-4.413042719725303493e-03 2.878150314628981354e-02 4.441855312531964861e-01
-3.063622150111770803e-02 3.726876100705263199e-03 4.429901620853261002e-01
7.321790340367594074e-02 8.510100363256303119e-03 5.073276568037042855e-01
3.856265239482264268e-02 2.491841617985398466e-02 4.491246319104528761e-01
7.976025823700710893e-02 2.647899293949878760e-02 5.141119372860406544e-01
4.850680409758538481e-02 2.380762345904221308e-03 4.510417427957163494e-01
2.604593527209872125e-02 2.523871594484768111e-02 4.462163087495975011e-01
4.190383667389442623e-02 5.830949886282542349e-02 4.504533833821650068e-01
6.472389566348604739e-02 5.858190883455519082e-02 4.562540239177877988e-01
7.296704180641311321e-02 3.271011827094660873e-02 4.604351405583204104e-01
-3.926734083781133200e-02 3.517396413353137199e-03 4.468698455016860693e-01
8.121564068663135461e-02 1.136740323475058170e-02 4.928381525574137001e-01
7.514106821834522221e-02 1.533312396878509440e-02 5.137348135796245829e-01
-1.918640213165608011e-02 3.974032880308187021e-02 4.499092767572342999e-01
7.463411764461277964e-02 3.728088694193003056e-03 4.748297332622096190e-01
3.608780150542032633e-02 3.429245081881115292e-02 4.489810917513314958e-01
8.615776986412226890e-02 5.268026142946181933e-02 4.606392185533589312e-01
6.961777107693145616e-02 -3.985909874257577076e-03 4.755891028904064011e-01
5.268535496200255075e-02 5.741685634935838473e-02 4.520305399616516007e-01
1.041403940700023900e-02 2.593853387626432819e-02 4.438306790647256750e-01
6.942117171644013318e-02 1.408268408145266345e-03 5.028526456132618172e-01
9.571726889114762216e-02 2.811067254290744097e-02 4.727415741472259514e-01
1.001853332756670739e-01 4.358294920078976259e-02 4.795314292115094856e-01
-1.370165431531677330e-02 1.375171117975782474e-03 4.394147554243395537e-01
6.659719793032087276e-02 2.000035465009990590e-02 4.593317658239958745e-01
8.241095821802595089e-02 1.155901908990758162e-02 4.878979645114637775e-01
-1.939484748735324088e-02 1.426161253213219411e-02 4.445731792092117440e-01
5.382315265572028967e-02 3.922047565812371295e-02 4.522609337240321437e-01
8.051557213482485320e-02 1.954202053113680143e-02 5.092990092605585994e-01
6.142747979898977723e-02 4.037909335618364293e-02 4.539131410752550999e-01
3.568676638986054833e-02 6.228468579531895588e-02 4.518119336361183791e-01
7.974060835882706977e-02 5.075622255014358708e-02 4.574015173718102845e-01
3.905252715841818489e-02 6.054606288975079853e-02 4.511030134382408296e-01
2.363539305066480675e-02 2.011672160201869244e-02 4.453308880242672352e-01
8.831599331847803103e-02 5.824654074495404926e-02 4.742416229953390627e-01
-1.420373857602277509e-02 4.596728658607067419e-02 4.489482533200568892e-01
9.381084262045538691e-02 5.067619927296301841e-02 4.818910337852377324e-01
6.272206416507750126e-02 5.358052310459411605e-02 4.526629197617943468e-01
2.229663032317547727e-02 4.614211079283381950e-02 4.473091853584102995e-01
7.331761270381367823e-02 1.968668758434252274e-03 4.751576922842445927e-01
2.683288560430163033e-02 2.792539974054208951e-02 4.465975745121118501e-01
6.787971109964552330e-02 -6.197403049434284557e-03 4.741160376521365016e-01
8.732535074754797788e-02 3.140803090699073596e-02 4.659495276034351652e-01
7.934386046164501605e-02 5.761576086124550050e-02 4.848761741434802763e-01
8.365002911585200929e-02 1.871996330702251424e-02 4.994352891479198475e-01
-2.791443271424369748e-03 5.198106606724849088e-02 4.484149426029687691e-01
8.853918655191073822e-03 4.673618391220452778e-02 4.462461910417238053e-01
5.891542922807232324e-02 3.291055995730178541e-02 4.548113988808146768e-01
1.032383390439467613e-01 3.672270853515489930e-02 4.805309512317441079e-01
8.282811137677441315e-02 4.481003167980204122e-02 4.603300588018143236e-01
4.080939723251534451e-02 1.753511754548136431e-02 4.490982639707269963e-01
6.721359472906517085e-02 6.016290454077184713e-02 4.624315568748648131e-01
3.498593059720125908e-02 1.547572372064664505e-02 4.472527535710209001e-01
-1.150062376794084781e-02 4.091859395061520771e-02 4.470127527071302009e-01
3.459322022438528904e-02 -5.180807087477543385e-03 4.436717512854160272e-01
7.131252919113073574e-02 -3.805691157114434245e-03 4.874758196372309671e-01
8.835173984773728173e-02 1.962055640986349464e-02 4.806247646992768408e-01
6.207570807173155847e-02 1.987126611331979480e-03 4.593784273376800842e-01
8.177968430648135945e-02 1.064499379481623730e-02 4.874281161039124566e-01
6.979576985600600969e-02 2.047680215451723809e-02 4.610011713428210367e-01
7.515894029884152838e-02 3.922692944912483520e-02 5.121212310687570657e-01
5.775720288249699963e-02 2.001938507413462270e-02 4.553707656334809450e-01
6.712639754546642634e-02 4.329799672255013610e-02 4.546515756353211590e-01
2.557724032138005560e-02 1.169834547595722737e-02 4.446480466064097192e-01
1.881776545658840963e-02 4.664614919345617949e-02 4.469010940457755487e-01
-1.498814575661508268e-03 3.657195664417667302e-02 4.449136439352168737e-01
6.464548781412671197e-02 4.133826803944145906e-04 5.112778217241097378e-01
1.118251896110542334e-03 2.982414179110263672e-02 4.439788613153914931e-01
7.470042495718630382e-02 4.466894977493611474e-02 4.572208763671444798e-01
7.630477540957356086e-02 6.089826656539535851e-03 4.739827259357871081e-01
9.932958879645199801e-02 2.994211324920652978e-02 4.808059616304679595e-01
9.381694903153189879e-02 4.023337911311915260e-02 4.901353942051641099e-01
6.360927872606771116e-02 8.602649128479650936e-03 5.227198158219832358e-01
7.480916799741739454e-02 4.044400138694791147e-02 5.101202314100720114e-01
8.404347394147258787e-02 5.256217576181109602e-02 4.594580097994423462e-01
5.674068182245274594e-02 3.925721391138536215e-02 4.529835585704132250e-01
9.206211937539220125e-02 3.777797516111623677e-02 4.927938235371764342e-01
-3.902055384064137544e-02 2.976940761342294732e-03 4.434473263866655635e-01
3.300309061526193050e-02 -2.437788269973951809e-03 4.434954886066721502e-01
2.708771879744346217e-02 2.987275838598865002e-03 4.430420434572761579e-01
4.041790459906838273e-02 2.635860847039809760e-02 4.497457743628507365e-01
1.107256924133625045e-02 5.575503913991165794e-02 4.502202983224258270e-01
4.813619104800449106e-02 4.639197770471094329e-02 4.508846988054622806e-01
9.872410722100813385e-02 2.812558757706101753e-02 4.763279177678350629e-01
9.519275221400887166e-02 4.091080589704496062e-02 4.882957366740735550e-01
2.775999193870943779e-02 1.127404271265053555e-02 4.449544219970220094e-01
7.186969211861837792e-02 1.121535701869926308e-02 5.135770721649449699e-01
8.159145528124135682e-02 1.300563292004996985e-02 4.969073640895446675e-01
-6.768736535926578313e-03 2.340844431449536772e-02 4.432856072809952530e-01
4.862744285482470397e-02 -7.354196888499234600e-03 4.521578153670770539e-01
3.669235699333372319e-02 2.977840035761530890e-02 4.490006398217902817e-01
8.362720245977545153e-02 4.044328400583432903e-02 4.632191597415731832e-01
7.422780692466311725e-02 2.529807048608503743e-03 4.936519422621358233e-01
8.845702162075320951e-02 4.888643241109730947e-02 4.619652862267084603e-01
7.009476323504799933e-02 1.622940381423051579e-03 5.016349453642743317e-01
8.101403251802180572e-02 2.473833889527215710e-02 5.119994081792081930e-01
6.341304475071014857e-02 3.465184790283374477e-02 4.557906680555220413e-01
-2.092502762102369310e-02 3.166442516421000969e-02 4.486622168403751054e-01
7.532525202432489853e-02 2.841420725837878400e-03 4.833198071016966413e-01
6.198007510606322323e-02 8.452852822672406174e-03 5.243672736553679492e-01
6.950239948097590437e-02 -4.906856526231085855e-03 4.945118824060619200e-01
5.541013047797718055e-02 -7.158767345045420963e-03 5.235458643662540545e-01
5.062029462558237380e-02 3.264459685949488987e-02 4.525384039162316241e-01
-5.277963707859161142e-03 6.215622645351101191e-03 4.403080559133197291e-01
1.217579898947346480e-02 3.103609971580618618e-02 4.446065393099163376e-01
1.596737345313966466e-02 3.581031498441979849e-02 4.456864001851602586e-01
6.794426877128531550e-02 5.153382106307866778e-03 4.635041473207252016e-01
7.828844700520132260e-02 6.766097546718433109e-03 4.908611491206669730e-01
-7.495665419978952103e-03 1.523787331940631203e-03 4.391152324064072632e-01
5.308598837781132451e-02 -7.367584976877802547e-03 4.555952830347721472e-01
2.192333317561296485e-02 5.993059330777671806e-02 4.522087008099603400e-01
6.257871930655492521e-02 2.577028026183945247e-02 4.569994289437500634e-01
7.900675805155715770e-02 1.476410185839333554e-02 4.691234710969228727e-01
9.638346803291709952e-02 4.694856525947953274e-02 4.745550789428774618e-01
6.153989197967014296e-02 -6.679854030949627453e-05 5.162907570253235656e-01
5.445935738170767232e-02 5.940430678406732196e-02 4.560663235733470877e-01
7.097339514984750408e-02 3.142507136877098484e-02 4.593814309318535738e-01
9.109362825445936618e-02 4.422780774334746784e-02 4.629090150798895187e-01
2.230341522015909239e-02 3.549938555859843275e-02 4.466441849493995031e-01
9.251313809386291220e-02 5.362306967275078801e-02 4.765644419459099113e-01
7.881909670687872738e-02 7.035327970965612673e-03 4.861130833377897420e-01
4.774271227803045248e-02 7.903971975912207903e-03 4.507856010308655681e-01
2.741937753447711013e-02 5.289079551062139672e-02 4.487288406401331309e-01
6.982610665920302440e-02 3.180624829311900353e-02 5.254142765293174921e-01
8.571529533133888379e-02 3.170078138691074382e-02 5.039302952344605346e-01
4.283174088388742168e-02 6.267160740322640089e-02 4.543300456632645701e-01
2.729628922545055542e-02 4.679597837423436768e-03 4.434806522400604467e-01
6.509069900120684204e-02 1.486231521694333577e-02 4.595074877705435101e-01
7.266736358118275341e-02 1.109279543748472978e-02 5.122031316808640655e-01
4.706906244551005425e-02 2.611119185776658233e-03 4.503602295491983543e-01
6.487989506190700029e-02 -2.720309146781987354e-03 5.081428009996904471e-01
2.721755559568132463e-02 5.686546208133769209e-02 4.494666949485391916e-01
8.421730105151918611e-02 5.915158189259918375e-02 4.641546947169488124e-01
-2.864251914463161741e-02 3.759836667335481053e-03 4.425453585201870599e-01
4.805612811518265859e-02 4.267803750379418198e-02 4.510403540473133521e-01
8.214263785069526869e-02 3.801583714053904939e-02 4.648029327288141221e-01
7.579944973148380893e-02 4.361850986455628569e-03 4.931007051869452096e-01
-1.806230159109890876e-03 3.905515835640839539e-02 4.452099667116558024e-01
6.307204417273927499e-02 3.978438217794188006e-03 5.188191487524752565e-01
1.213894860545967729e-02 3.814151966350306372e-02 4.454037005717246256e-01
2.218276384922221803e-02 6.049883559251099940e-02 4.528049946010649918e-01
6.146482823937959167e-02 -2.089748825227242656e-03 4.607799230717180561e-01
4.062877673549922242e-02 4.099797018233779927e-02 4.499622613189803721e-01
8.755144571310508050e-02 3.338781808831766534e-02 4.661370625328165040e-01
8.558623738737598796e-02 3.204917592932318010e-02 4.658597051323271621e-01
2.457614366507564554e-02 9.501675200990528265e-04 4.418843749673235233e-01
6.616010301425671869e-02 1.580312347510214044e-02 5.254578821540263345e-01
8.654989503580803878e-02 3.037470554989087773e-02 5.022797476013487472e-01
9.241914442307995470e-02 5.262981981066722909e-02 4.691382086489287451e-01
5.825289594781228597e-02 5.536614787733536158e-02 4.521525059044236849e-01
1.003613397546018332e-01 2.943921249104390625e-02 4.773821900436748256e-01
8.616690809295791953e-02 3.113786918980802204e-02 5.031517116561752268e-01
-2.540925779526974695e-02 1.652773608855526155e-02 4.479678392055855274e-01
4.580799574527028711e-02 2.465301114714862213e-02 4.511964357299699246e-01
7.861125451401237973e-02 4.968657374713745384e-02 5.001991497613046400e-01
1.048894211726420916e-01 3.389533879895947899e-02 4.784152510171243988e-01
9.474991533901004626e-02 5.007776557188903244e-02 4.783092322438139976e-01
6.644942382896301680e-02 3.526049033533698585e-02 5.199089761264614751e-01
5.643905130325609087e-02 -1.200664779787203283e-02 5.236339912502641081e-01
