2.641596360851588068e-02 2.983713124839170935e-02 4.471178407145586786e-01
6.692501587036604749e-02 3.354388101271459088e-02 5.245103372547160747e-01
6.725194801917670773e-02 4.790162174753481023e-02 4.546288273177908623e-01
6.391539175287977437e-02 -4.336085372581792614e-03 5.098011918366287532e-01
7.325401780791682138e-02 3.038152337073722360e-03 4.737507921848478354e-01
4.759968839561232873e-02 2.628742549665240638e-02 4.523898166775281449e-01
4.944049784960301286e-02 -1.151822849055869711e-03 4.520303755498759624e-01
8.893211063288447571e-02 4.646300283820332250e-02 4.630297320046672938e-01
7.710715318104298388e-02 9.538166545188582479e-03 5.033638944902086854e-01
8.528250603289282139e-02 5.167559273371812728e-02 4.961481898535248236e-01
9.219075181701009980e-02 5.170583970903990662e-02 4.694689936518353646e-01
9.192351481278582259e-02 5.293328084915863152e-02 4.829527625610580688e-01
5.591061487021622978e-02 5.963560522935697911e-02 4.584967506636376533e-01
3.644145837208646183e-02 1.614265679767992734e-02 4.480767326697776554e-01
-1.204452872257615569e-02 2.515016239311215762e-02 4.445945469627605173e-01
6.548750341444579959e-02 1.797475763990635279e-03 4.633264274939832839e-01
8.398771287222525639e-02 5.135458066575481623e-02 4.969919685431233858e-01
2.504398420932846953e-02 2.536330579054661000e-02 4.463626618732829954e-01
7.538658326112962493e-02 1.758643372636868943e-02 5.164831179101050385e-01
7.383093760108181552e-03 4.941087494453315354e-02 4.469865854626311474e-01
2.356204963469272703e-02 4.068136959165486594e-02 4.478048222689698377e-01
1.009660536148621474e-01 3.682195746746517312e-02 4.712031066733666229e-01
6.684215313639550737e-02 1.898893316990358029e-02 4.603379162714083539e-01
6.514329516239387996e-02 1.460664233293727104e-02 5.263349341168737094e-01
8.529639635133949571e-02 2.873575965807240173e-02 5.047041119125688091e-01
-7.663570958494438090e-03 5.266196572860786657e-02 4.508184171019504749e-01
7.597928220996090498e-02 1.867947954509205019e-02 5.164124081791443555e-01
7.474397767906038048e-02 6.731556037273956142e-03 5.024619266546498375e-01
-9.561175104463994628e-03 2.613137614915797546e-02 4.443915933449344990e-01
1.888073535244483292e-02 5.834753384753005312e-02 4.507109942064623231e-01
8.194801701134200866e-02 1.614986122101694926e-02 4.722758006551988075e-01
4.375804208643684426e-03 2.976729841170351956e-02 4.441600441710241709e-01
9.248564327859246093e-02 3.960394603098992689e-02 4.926206471511784257e-01
3.963726507897422785e-02 3.044740775038207864e-02 4.502917694619036348e-01
7.657088068135198267e-02 5.712469615316615769e-03 4.767518859997879610e-01
6.714390660865239557e-02 1.085883622282587599e-02 5.206579221602887220e-01
4.784764852016062942e-02 6.083289422571693666e-02 4.544435265380942779e-01
8.539983929282207731e-02 1.523157178619809551e-02 4.827170255516052833e-01
5.742163036407617327e-02 1.211776468837823251e-02 4.560341565352750148e-01
1.443119604795834593e-02 4.803436695123192851e-02 4.471352942845184808e-01
1.786124138403454020e-02 9.503252464157844331e-03 4.431575191184600193e-01
7.522994375423754099e-02 3.374856682480061737e-02 5.182281513454790600e-01
9.677683105580728307e-02 4.602923020789496944e-02 4.830769330659883121e-01
9.111714177386229241e-02 3.487229545734844144e-02 4.947762237722035938e-01
6.253501826202245359e-03 4.824387418852615211e-02 4.467332187354883244e-01
-3.434488584814276730e-03 4.322088581386673845e-02 4.460569580610222462e-01
4.454903961222477643e-02 5.146084494955351779e-02 4.508823821791419495e-01
4.573558229858803309e-02 3.491195392051291840e-02 4.516693669076241591e-01
8.994709450667834338e-02 4.130231792613182212e-02 4.656430170435695848e-01
-4.977537481098854959e-03 1.679489987029339840e-02 4.419992683289219459e-01
1.032558034791999785e-01 3.473047183527790821e-02 4.809144366664789283e-01
5.018228424317082437e-02 3.613243753326517149e-02 4.526405045392987714e-01
1.037877242134494123e-02 5.181402727268553249e-02 4.480755697180419661e-01
2.826255364173305834e-02 1.893484901737893522e-02 4.463755842734565826e-01
4.475245069298861011e-02 -4.709051738434779158e-03 4.494523344349038441e-01
9.063971040799738421e-02 4.442531096329804807e-02 4.937238691883445996e-01
9.423054917485777782e-02 2.839610949138132376e-02 4.872193709218684554e-01
-6.324259488199549840e-03 2.620986428550226705e-02 4.440253279637076389e-01
2.090878931162592352e-02 -2.910442156745929234e-03 4.404354402757567066e-01
3.796270839038805300e-02 1.959426862915542369e-02 4.489429204662098716e-01
-2.087171748033154334e-02 -1.077712488227940482e-03 4.395815704486603637e-01
9.291858862925052309e-02 4.714537000430642916e-02 4.673130892337241105e-01
5.766784304206969830e-02 -4.253213707287293449e-03 5.207473802989676104e-01
9.269182335115283555e-02 5.149699330748618714e-02 4.838775108507379352e-01
2.360646580355825475e-02 4.196674621559301488e-02 4.478138502478782312e-01
-1.739435270147452264e-02 3.250837731382955759e-02 4.474031692404072391e-01
8.600889869556541806e-03 3.185101923251109496e-02 4.446118912558499892e-01
2.534459461162201499e-02 1.781875343665805661e-02 4.455580595203372241e-01
3.546135617940182616e-02 4.319653898730576452e-02 4.496416308191900635e-01
-3.715810574615450307e-02 1.178989859239434890e-03 4.417594614861550806e-01
-2.293843237119769229e-02 1.266474883716663113e-02 4.453525176102762773e-01
5.833869520448435597e-02 1.047861004579500946e-02 4.565085328749098892e-01
-9.060229131539310199e-03 5.708470835637881151e-03 4.402275291559129000e-01
8.568053554371063418e-02 4.932665865895972945e-02 4.610676967718515540e-01
4.706768014319423488e-02 6.239853027631940552e-02 4.588978884789408630e-01
3.462889052584254557e-02 5.236078546338965994e-02 4.497782155569032825e-01
3.984083417408813832e-02 4.547460640480585625e-02 4.502973559410717308e-01
7.265635741289630523e-02 2.518877250727293189e-03 4.733188866458914457e-01
-2.196628078275222190e-02 3.402570500182406504e-02 4.501387660041152317e-01
4.188335247702887343e-02 7.432423998478099314e-03 4.483911992910520894e-01
8.888829726719062185e-02 2.201220494502095781e-02 4.768752098312952215e-01
5.584557327213715561e-02 -7.151999099678870223e-03 4.577650834445052830e-01
7.362193140555960136e-02 2.902939270583484305e-02 4.614667253476787412e-01
6.956262932097655172e-02 5.989836481190999318e-02 4.652536358834017949e-01
6.941930372790949821e-02 -6.423081096547877955e-03 4.919153563939184237e-01
5.721694043111279909e-02 5.768657707011932978e-02 4.539143869095794148e-01
8.078871800331594022e-02 1.145383928069182780e-02 4.959699869940736305e-01
-1.698166808653086071e-02 2.295214105686171208e-02 4.455329143550645354e-01
3.198714756318616487e-02 4.642814479563206302e-03 4.447216766886015749e-01
8.958537057230260559e-02 5.814819687601117254e-02 4.703996596261177943e-01
7.624885157498471899e-02 4.345603933839969728e-03 4.828876042227142618e-01
5.400994038948736531e-02 -1.238372130252701243e-02 5.263580247863575146e-01
8.687307574892866313e-02 1.866326109647623022e-02 4.891640297171206964e-01
1.416701932876942953e-02 5.337834499698723006e-02 4.488285902414541062e-01
-5.924931117973629598e-03 -1.940656479408495129e-03 4.382580590082544303e-01
7.580486097616905006e-02 5.443609140948000094e-03 4.972231979485171594e-01
7.712227298296904510e-02 5.837409877218858317e-03 4.790110571825793029e-01
7.397539984746719088e-02 2.665799063377898362e-02 5.231339003695791856e-01
3.475808114729885684e-02 2.542683160869462639e-02 4.485908215146878764e-01
8.062373328263425232e-02 1.657431371141853890e-02 4.703864802086178409e-01
6.856463031925778828e-02 -5.850440994943344013e-03 4.762509280453596783e-01
4.521142145379096478e-02 -9.801843177665804999e-03 5.324571316095059181e-01
6.134337210524756084e-02 -9.201680365901803924e-03 4.661057484395033645e-01
6.592609049432621160e-02 2.144366579835643369e-02 4.593496077198659933e-01
6.338775628634570058e-02 5.768375861699141099e-02 4.560804342104208264e-01
6.847194813699089555e-02 1.066897705456066117e-02 5.187694374017191024e-01
5.270338595745696630e-02 6.025825068078676655e-02 4.582997541851300816e-01
3.958291944054529582e-02 1.098542743816991601e-02 4.480549347048913833e-01
6.120946658275933788e-02 -7.167236082396707085e-03 4.642615241356456424e-01
8.850288874583495113e-02 5.766000985710505178e-02 4.685776658690639640e-01
6.264581697090740309e-02 2.370844408276815557e-03 5.179553702613728383e-01
5.392616053778597277e-03 5.648189147831070983e-02 4.531867287430071944e-01
8.534559697180756077e-02 1.830997708714259334e-02 4.924789361246919572e-01
6.688938664763371955e-02 2.477988004794094354e-02 4.592472288405356484e-01
6.123006440095975222e-02 -1.174840054218044723e-02 4.680161604804990994e-01
7.046123409550418548e-02 -2.160706031305823470e-03 4.945578471041989777e-01
2.932328273438462515e-02 2.281935584798804560e-03 4.435659735587708097e-01
8.170420556741245233e-02 5.586871993845410334e-02 4.890494514399332804e-01
8.419501209272854669e-02 3.497331740295786529e-02 5.070894710561910657e-01
4.514814380040921282e-02 -5.852694549248813397e-03 4.498184974422573257e-01
9.389644094138366315e-02 5.132093912200881569e-02 4.758556994681753527e-01
9.607184545406153783e-03 5.104155372180143452e-02 4.477292061604519202e-01
6.789036547123925014e-02 -4.537292305155031513e-03 4.999631986989575005e-01
8.622989177619629075e-02 3.908472768917424511e-02 5.019888863867946194e-01
5.867967317357075663e-02 -1.043966139007618948e-02 4.633170332661593060e-01
5.360050055206116992e-02 3.578804128033058474e-02 4.535603088877190880e-01
6.079128387387967847e-02 2.133295990968284497e-02 4.571481464420389385e-01
8.050096746099778822e-02 4.320781635783437630e-02 5.064918897647783247e-01
5.598276958330303255e-02 -7.373266671512696858e-03 5.231291922490783897e-01
-2.456100587754498146e-02 1.722423133290381519e-02 4.477743726680656344e-01
8.940908440117555089e-02 2.654746725521443459e-02 4.933988426606432665e-01
8.017885344141369164e-02 1.606636284888129929e-02 4.702636928268782435e-01
6.943717796237516837e-02 1.330832259676316930e-02 4.627936161595147535e-01
4.111806670642169370e-03 -1.099694697809545409e-03 4.389800291847119063e-01
1.213138300230187649e-02 4.025622000794061572e-02 4.460000880040655979e-01
4.913892173014370451e-02 3.725846025510304305e-02 4.523007268369787504e-01
3.212344227552086512e-02 4.087145287830023371e-02 4.491400563135262147e-01
3.014255335990130569e-02 -2.119326912006858857e-03 4.426822408340925774e-01
7.110888249269595174e-02 2.908154392843546529e-02 5.268032147240112595e-01
4.840839451072850852e-02 1.253830411409981652e-02 4.518997670148935941e-01
5.901611406060078280e-02 5.286737304444304869e-02 4.526334360636233844e-01
4.687140954025469097e-02 2.558418802999948283e-02 4.521054913665467634e-01
1.971222869843208131e-02 1.295028326960979102e-02 4.439738541952896744e-01
-1.265170956803335182e-02 1.370189366526105082e-02 4.420970631975627008e-01
9.605912065979545222e-02 4.641912260304849325e-02 4.720752024358392807e-01
3.334718242055489945e-02 6.302781171500625168e-02 4.529807049876229952e-01
4.503651937896011731e-02 3.253630497952227085e-02 4.515494272653231000e-01
8.492066843684574484e-02 3.596575299066297193e-02 5.055004871738942862e-01
5.785294404293003789e-02 -8.105807347666495882e-03 4.604711906020493295e-01
6.173113885397471523e-02 2.384337032077426741e-02 4.574780099514426657e-01
1.459835513847487949e-02 4.179509638209101541e-02 4.464452696535396448e-01
-1.123061219763718359e-02 3.638052799810542748e-02 4.465154474360382708e-01
4.639371327606999461e-03 4.335355619295467450e-02 4.459292672252676559e-01
7.290537110119429953e-02 2.604543944858504073e-02 5.244417380752607327e-01
8.178472672976197511e-02 4.380205076056038066e-02 4.615635115927483323e-01
8.939714969178792769e-02 4.418914621536241399e-02 4.636723333330735608e-01
4.281986032251351021e-02 3.254531001944489799e-02 4.509989882630152658e-01
7.333470762536864473e-02 -5.878506124036872275e-04 4.875608300470972711e-01
4.253361481300126784e-02 5.141215270318173075e-02 4.506150642742600132e-01
6.118642347343291460e-02 8.841050960360422734e-03 5.261066923708667131e-01
4.954758806126020876e-02 4.416294760349978588e-02 4.518804473115902720e-01
-9.931801422217289427e-03 1.738056626701157958e-02 4.425308979719711489e-01
7.116359857323400692e-03 5.173783640451165566e-02 4.481857653660430429e-01
7.553623064975134582e-02 2.924291045569447911e-02 5.212584199056570222e-01
8.508086493416694429e-02 3.239112583193064221e-02 5.055054087187345058e-01
4.924441551967691927e-02 1.317772084334637231e-02 4.522890595368403432e-01
9.642530316653061262e-03 3.005392265134573110e-03 4.405074045823246798e-01
5.777030303216165036e-02 -7.710524304098210872e-03 4.600520976496260683e-01
7.910356227463043177e-02 5.655171417877098705e-02 4.889170166808157192e-01
8.238162826473588440e-02 1.181219389884325885e-02 4.781073649330743747e-01
8.581125579529283454e-02 1.634383154734639007e-02 4.879149029079908884e-01
8.423711107913743612e-02 1.613466302748899420e-02 4.754056895923234882e-01
6.791817247649409306e-02 -5.974833659661676552e-03 4.743817550541268857e-01
1.074016224986823476e-02 1.758162896349007437e-02 4.433233891435623408e-01
8.897194267569352721e-02 3.290800860768181013e-02 4.983263976925181304e-01
7.597978511992849182e-02 5.069881962824858423e-02 4.568910701009724074e-01
4.186008851430156330e-02 4.857993201863750748e-02 4.505616289819533993e-01
8.397627550914750494e-02 1.343371711638750160e-02 4.799315414929526402e-01
7.339344909416352369e-02 7.073811170576799374e-04 4.796801435768265898e-01
8.963062761352075247e-02 5.803964472800949431e-02 4.703837999409403170e-01
9.046478455935377805e-02 2.380984316937253403e-02 4.876276802350373862e-01
2.260456519086278399e-02 3.012424625029798408e-02 4.464275238834610748e-01
4.794534327379085248e-02 -7.359593567926154233e-04 4.511949649988549749e-01
8.099914027096963287e-02 5.707021084485244811e-02 4.854000295364145900e-01
8.063216832233122133e-02 9.323957166370477195e-03 4.890579181091156413e-01
8.313368185241816477e-02 1.242898194036231446e-02 4.854674694843216232e-01
9.163370344264383516e-02 4.900188945032022542e-02 4.905447218262563025e-01
4.234044896533080415e-02 3.770881689740566978e-02 4.508922294963696453e-01
2.245700596983835756e-02 2.106528357290699677e-02 4.455533819622569669e-01
6.674404791311279450e-02 4.153467667336076252e-02 4.559183843214035248e-01
4.384827591875488720e-03 3.507022235340083449e-02 4.448499263292681194e-01
4.382962753743208095e-02 5.888795683034474954e-02 4.517080723522419738e-01
6.202327924132339937e-02 3.096665632080891281e-02 4.569513303956667105e-01
2.665131622610636408e-02 5.342942412084995818e-02 4.493402013367013281e-01
5.300085279438855601e-02 5.641232123933394987e-02 4.523881762559176511e-01
3.711664864890141646e-03 -2.303591315184925700e-04 4.391971461261321430e-01
7.216231260385450041e-02 5.675355677696538627e-03 5.046238093781048040e-01
8.458465517312727111e-02 2.882026398777626230e-02 5.063553039786747867e-01
9.304285658045170770e-02 5.187633800100011072e-02 4.731324065256780620e-01
3.839858794605416348e-02 4.036281203644575405e-02 4.501788046524707876e-01
4.542362270297516103e-02 -5.466761485043917027e-03 4.499503587125373572e-01
8.983798978345675090e-02 2.265798266598378213e-02 4.784875431721252736e-01
8.937821229421116787e-02 4.713661025397086757e-02 4.640130312809621627e-01
6.486369928294988263e-03 3.756299694810971007e-02 4.452885377563410851e-01
9.457960535538074975e-02 3.144699500901518979e-02 4.878082791218685821e-01
4.004671488868808728e-03 4.766330311858775481e-02 4.465477407104575525e-01
8.122924391373621822e-02 1.203133817578985569e-02 4.954157042435446412e-01
6.318765599604390937e-02 2.812222079679620179e-03 4.605723061226359438e-01
4.140767769878883620e-02 6.258782199993809248e-02 4.540809872498657862e-01
6.899696223412687957e-02 3.446137311864862912e-02 5.212407398553082771e-01
2.228747831185019443e-02 -3.382792005872843903e-04 4.412728101342104914e-01
8.860649779811718973e-02 4.693719045690751546e-02 4.633181990992342181e-01
2.741027453661389057e-02 1.378087779149459423e-02 4.455717881042753348e-01
1.871280308222141031e-02 2.761004797702018218e-02 4.453834607177007965e-01
-1.269941895242021699e-03 4.133794737559134957e-02 4.457034497200673684e-01
8.976322931389475734e-02 4.760407079252112345e-02 4.643208778410402582e-01
7.223935393925273729e-02 3.269901524366256029e-02 4.609515515654566409e-01
-1.353896830834019557e-02 -1.273719019923170298e-03 4.385506310317843770e-01
4.571266348314474703e-02 -5.034671802070735461e-03 4.500848632823625795e-01
7.981337247831638004e-02 4.028130614429899919e-02 4.633135075345511389e-01
6.544435557592485908e-02 2.728141122594507362e-03 5.132555193105896585e-01
5.486000113782645710e-02 4.056483746366175425e-02 4.529519565976520834e-01
6.302937280087596295e-02 -1.335761134429067250e-03 5.130887552864736856e-01
9.189977084222598902e-02 3.776630751156160454e-02 4.670709271332824652e-01
1.656312694281127790e-02 1.894250027264012676e-02 4.443012005209993620e-01
8.038807855761491428e-02 1.135931113890354532e-02 4.976156426547084233e-01
9.127645197008374400e-02 2.650763761944519709e-02 4.897574793336067489e-01
7.269538393045961444e-02 4.079999824163612482e-02 4.593593153246494087e-01
2.882277448654501847e-02 2.394446044088545042e-03 4.434823759348228145e-01
7.078026128033590436e-02 5.652185741393444401e-02 4.562924638413677347e-01
-2.240009497575811553e-02 6.724670287396249460e-03 4.424722718820383038e-01
7.567279866354434392e-02 4.169658911555479408e-02 4.603524337626961338e-01
1.062013049784486449e-02 5.731209512489675306e-02 4.539437071727836503e-01
5.178870789913551931e-02 1.045415517969326517e-02 4.533140285865732144e-01
3.652866862679328419e-02 1.056854756629832526e-02 4.471066613661321965e-01
9.936400986026966420e-02 4.350720185281156671e-02 4.826103409161692781e-01
6.935658441739568636e-02 5.997971023229548004e-02 4.594741988105618402e-01
6.774066809332632624e-03 3.059837900789130413e-02 4.443003902641897707e-01
7.170649256772196334e-02 3.415516153718526141e-03 4.705166700790902601e-01
4.032300710445325953e-02 3.400052444843319754e-02 4.504396285083891449e-01
2.834670298423645242e-03 5.214895065580422290e-02 4.485144344716478493e-01
8.757344664892165176e-02 5.945975891152940895e-02 4.753899439297337715e-01
6.825214932224694941e-02 1.929695286591178675e-03 5.065578761899581783e-01
8.120799837606486327e-02 1.278899324419269928e-02 4.979099261814159960e-01
-1.289945885894830564e-02 -9.588007955621830752e-04 4.385694840990623233e-01
2.362834053489481362e-02 1.188717886849073417e-02 4.445918894160535428e-01
4.924153735218739225e-02 4.087396206822265649e-02 4.518926279095760723e-01
5.685071599304735920e-03 2.975870614395673130e-02 4.441599178417814930e-01
5.148402472545916125e-02 -1.135747065104331967e-02 5.282679097299443072e-01
7.558198871650238793e-02 5.715331054054467730e-02 4.590416303628568340e-01
1.261070999280876001e-02 2.397077771853872372e-02 4.441659180903615445e-01
6.808729394256397838e-02 -7.795947727253301970e-03 4.776293708750451450e-01
5.024216709328230973e-02 5.007070519665405423e-02 4.516237173222985568e-01
7.423778279477437347e-02 2.601173922465596991e-02 5.227352410323928833e-01
8.702557759708018370e-02 4.811135677428676760e-02 4.620849103171023042e-01
7.209074801985242142e-02 5.864226077456392849e-02 4.589995049117807646e-01
-3.665040300146736596e-02 3.280249079492570784e-03 4.435891265517621362e-01
9.327429352036366306e-02 5.102446271009072887e-02 4.825628792175441495e-01
7.647760297579807298e-02 5.769861670187968750e-02 4.616770491737567927e-01
-1.174021747300565792e-02 3.099588282783409879e-02 4.455780467560851443e-01
6.296791045927568886e-02 3.437769973425645886e-03 5.188413806665043149e-01
8.208183915863868918e-02 2.104848024905412937e-02 5.077441488612588483e-01
2.885647526828799894e-02 1.943268608009108417e-02 4.465808977147153191e-01
9.141685299485220739e-02 4.186564481878980726e-02 4.935698668346483742e-01
-3.291374472285759495e-02 4.758871731666925418e-03 4.446799858843679121e-01
9.711411828059275317e-03 3.883230826474970421e-02 4.456099911536020586e-01
8.526266673519540540e-02 4.407524459305848380e-02 4.629260620621490907e-01
-4.095345833967865834e-02 2.745207673736577755e-03 4.424782986080665892e-01
2.785019970153455524e-02 2.366327192737889204e-02 4.468342675351661408e-01
6.449819611043533518e-02 1.619647127010876309e-03 4.623428157066340471e-01
8.900859238938522988e-02 5.056860465584671338e-02 4.637116425402534325e-01
4.339430592405921217e-02 2.410411892023969424e-02 4.509078953528359857e-01
7.847934538575580821e-03 2.408610016174272690e-03 4.402156308169227206e-01
8.348596495582495669e-02 3.162154362289525816e-02 5.085940476689131406e-01
3.179452892430316424e-02 3.273344124870480355e-03 4.443502283439846878e-01
3.712914992061497332e-02 3.414242859622637627e-02 4.496902513587475725e-01
3.822091573153192645e-02 -6.397750636280464739e-03 4.457221112054418066e-01
8.435689496533912979e-02 4.398760058783335314e-02 4.626283430055584955e-01
8.385660119028469361e-02 5.056010878072385306e-02 4.601676842444295534e-01
1.537376196313203908e-02 3.126495746068436166e-02 4.453145967166196595e-01
5.118682158046940212e-02 2.909911803675792677e-02 4.535827360681313203e-01
-5.449623502837639376e-03 5.314781210894204549e-02 4.504213978379352779e-01
5.231595459685655508e-02 4.284935933953797071e-02 4.523369939214903490e-01
-6.474133067038504927e-03 4.865211639766294643e-02 4.473157709102923985e-01
8.518101451556013559e-02 2.827521523473037687e-02 5.047354242280520653e-01
6.161943158305139417e-02 -5.265449830989460574e-03 4.633566956204870357e-01
7.259506269479053253e-02 2.435109811288765306e-03 4.978134009485079559e-01
8.673642672205630899e-02 1.832656574023293350e-02 4.779148569123353174e-01
8.659855628338929134e-02 5.098569351988214982e-02 4.962238330057923696e-01
4.270606026156862495e-02 6.057776455832766804e-02 4.525093473204129801e-01
8.650806082010543963e-02 3.350617815884918832e-02 4.670005921583640363e-01
8.828906322576204890e-02 1.971286046623943466e-02 4.816875571709224313e-01
-1.859112511074467039e-03 1.361789552794731573e-02 4.415008009105118036e-01
2.881122827123236418e-02 5.954450583698567279e-02 4.511199657059571932e-01
4.680958861287872613e-02 -7.774781648541392171e-03 5.302860931597691563e-01
1.253361713653538059e-02 5.872612832727717655e-03 4.414906097048698075e-01
8.080266882621367497e-02 3.167401314517788447e-02 4.650441552873904039e-01
6.936071959293374500e-02 -6.936712371677479852e-03 4.911935142027035184e-01
7.419243335790837168e-02 3.839646351663109081e-02 4.614859646032615226e-01
6.371048826516303998e-02 3.108038686575853062e-03 5.168536544065057692e-01
8.506827888066731402e-02 4.701834802444469774e-02 4.608879724197586514e-01
-3.014510706374754281e-02 7.975202313755112848e-03 4.478152450949201002e-01
6.609847394329623760e-02 4.952677394102820291e-02 4.540807234504311563e-01
-2.228423830324506583e-02 2.623553607586042065e-03 4.405866551395941078e-01
7.959321294291142601e-02 5.750397573189586220e-02 4.854333501301030251e-01
8.133329533216222818e-02 1.035105414937400291e-02 4.829177255818802306e-01
-4.378566900990410460e-02 -2.703961261615152670e-04 4.417006898701273387e-01
8.847877149585801904e-02 2.081168649692513237e-02 4.879702539801750172e-01
6.433407302664037597e-02 -6.036979242147747643e-03 4.678333231621994992e-01
5.729588543778930954e-02 6.888011732635306028e-03 4.558301879519336963e-01
8.392218559280061052e-02 3.477907097794384617e-02 5.075608503580973929e-01
5.437819381918109624e-02 -6.808388667664137806e-03 4.567451383990559499e-01
7.826096437794834160e-02 1.224256500559930613e-02 5.052854498371143199e-01
9.756267697279792650e-02 2.802208830592685732e-02 4.796726433686282487e-01
9.368884671892369065e-02 4.206678872096080574e-02 4.907101228096020229e-01
9.393526078740824237e-02 2.625689624274921141e-02 4.814282761689795409e-01
1.258268103833202339e-02 3.196740976153815417e-02 4.451075899544752468e-01
7.274581002684864239e-02 7.511745005902771555e-03 5.068730519398438883e-01
6.392203912468281957e-02 -4.421501609558839592e-03 4.660269046330272058e-01
4.640300882910863844e-02 4.440634616361970738e-02 4.514192258004857128e-01
2.956920009851022463e-02 3.925589098722254144e-02 4.487547441222630162e-01
9.319928848625919082e-02 2.491179795221590276e-02 4.756889436579644359e-01
9.462426769292207884e-02 4.623252907149769803e-02 4.694332870365893196e-01
9.691881116637644789e-02 2.800415588736099651e-02 4.814122601887207420e-01
5.945597532763018805e-02 1.988797770614716617e-02 4.566892549760807607e-01
4.285286994610143507e-02 3.953726010632241383e-02 4.509501979733452903e-01
-3.313930959363231305e-03 4.857801857239066323e-06 4.388634006602818993e-01
2.167654264036668679e-02 4.717716588095228342e-02 4.476995753462492122e-01
4.984882035430584363e-02 3.142744390999632070e-02 4.530674713281789279e-01
6.526797657842035860e-02 -5.941002878289884312e-03 5.058236767009829382e-01
9.700832192631045348e-02 3.453047900488721844e-02 4.692981961363230647e-01
2.634734272773581621e-03 1.941109023583801815e-02 4.426712967238815577e-01
7.953958709929034865e-02 3.126271895945619689e-02 4.643718542583100684e-01
6.747485240005887674e-02 -3.458025377569343833e-03 4.704994987840955267e-01
7.186456164526471013e-02 -2.909183873009372340e-03 4.871589880973945519e-01
1.706530887400979288e-02 5.896580429420410479e-04 4.406499053914750275e-01
4.354202771424682539e-03 2.131318681133597195e-02 4.430479733389145469e-01
8.119227816273204279e-02 3.875129383600368904e-02 4.645982776001953973e-01
2.807138717570073841e-02 3.743611356863598555e-03 4.436403139464928924e-01
7.703354589476646419e-02 5.964892059013974547e-03 4.780449885201658033e-01
1.033616976506299689e-01 3.719780494035291457e-02 4.725999308292285206e-01
7.535693343653510068e-02 7.071707098495895460e-03 5.020393432930381206e-01
8.264130124021019930e-02 2.022882666357464498e-02 4.700334524470100028e-01
8.605060481020349039e-02 6.164455948573295541e-02 4.679612440140250573e-01
9.400305058880584208e-02 4.281602519898245612e-02 4.655227102863810917e-01
9.225491762120338612e-02 2.460434098581504650e-02 4.846942531193443315e-01
6.647487509509757142e-02 1.279550891121904524e-03 5.093843850738527523e-01
3.063569639060411201e-02 2.347666812288289051e-02 4.474545451123300155e-01
6.998113880798020880e-02 -7.163593382580067670e-03 4.869098429971013831e-01
-1.064067653819098132e-02 4.355600232450249076e-02 4.473667960269626098e-01
7.436683214875243475e-02 2.840306851484372327e-02 5.227985985903622623e-01
6.958042478191499292e-02 3.275610914783008004e-02 5.244990253196998298e-01
8.836387599456341224e-02 5.976261387469583575e-02 4.731280843134699765e-01
8.199765555603347189e-02 1.641808591898112277e-02 5.021112311002761119e-01
7.631911059126678110e-02 7.433446101660160996e-03 4.732856989417451032e-01
6.898217420117067067e-02 1.397477315601945887e-03 5.041801500028990635e-01
2.933287268116862440e-02 2.375175323842084255e-02 4.471633275494194537e-01
3.073905345745889250e-02 3.543520181932138802e-02 4.486455467424664278e-01
7.579840586800279389e-02 2.584774163893742080e-02 4.636806284384213384e-01
7.816618800291144642e-02 4.759595576435286107e-02 4.577438785228076790e-01
4.862679885239094141e-02 3.528467767320892651e-02 4.522875964659949788e-01
7.340631221215584978e-02 3.313136464689207805e-02 5.208086760387646841e-01
5.430870249951286199e-02 2.953236943268271360e-03 4.545819508735928771e-01
8.114247517707216806e-02 1.030026663094271017e-02 4.899833003689809119e-01
6.810975602531699202e-02 2.224986249289503601e-02 4.604202545087275333e-01
5.143209439792695292e-02 5.655682004222415543e-02 4.520892476832870099e-01
-1.688990106525840168e-02 2.798398873509978443e-02 4.461323709791288339e-01
7.351857669217509716e-02 3.268760578577343482e-03 4.738849066357679329e-01
7.383804551929742943e-02 1.550769424344777825e-02 4.649897556921102071e-01
4.511365881429406713e-03 2.074304510427239095e-02 4.429929882284786569e-01
6.671757283943907657e-02 -6.216977954171280449e-06 5.069603052175545299e-01
3.799886983936923146e-02 1.541502273339817770e-02 4.484239952728988898e-01
1.635540269816607856e-02 5.327233666063687506e-02 4.488421661207676050e-01
2.894026293777549400e-02 5.003416896280817733e-02 4.486606393330638820e-01
8.390275028019346382e-02 2.017953217118782783e-02 5.009001785545668106e-01
9.309535141173959361e-02 3.686128862511965643e-02 4.921822794933602974e-01
4.786293190894966992e-02 5.348507101866587649e-02 4.512129624104109782e-01
4.239898913391680624e-02 1.246438456076034464e-02 4.492671218881528761e-01
8.075320891186402172e-02 1.283825959597593991e-02 4.992425474826449605e-01
5.196429235815215597e-02 -2.374260406650588202e-03 4.538288086082727935e-01
6.401581100476368136e-02 4.074226212079446255e-03 5.176282460669672236e-01
4.205920218267941019e-02 5.043504865816009208e-02 4.505555163046576217e-01
3.580261666584140523e-02 -1.562339745090310025e-03 4.450745433106596538e-01
9.730538472177831071e-04 -2.085593685065468932e-03 4.385236838203310783e-01
8.468161800878734602e-02 1.973669543775516053e-02 4.968768010057037499e-01
9.992647084647185429e-02 4.135784168889852092e-02 4.701456483357140392e-01
9.774652077645187842e-02 2.914104650050649420e-02 4.746690288995831786e-01
4.931400186981560463e-02 -3.028580796658168588e-03 4.522194209658467745e-01
7.717278534416171197e-03 4.865549943329283006e-02 4.468601199603910445e-01
8.458160371761649921e-02 1.436594029231266084e-02 4.852410772899999336e-01
8.423399125723418646e-02 1.886260080347134521e-02 4.973632090930770744e-01
9.086938366053831651e-02 5.317028198063241534e-02 4.850422172415743693e-01
7.568501166595976992e-02 4.957627933303895146e-03 4.963596698402959473e-01
-1.286634370449105808e-02 2.508243408234413219e-02 4.447141929992355358e-01
2.487166502582225519e-02 5.269861657925647980e-02 4.490214385680174614e-01
4.680170618720726206e-02 2.613469678164101126e-02 4.521296300828985815e-01
8.831576707385914438e-02 4.927804141091626788e-02 4.631214099957320918e-01
-1.328728938323003525e-02 1.151459217223898927e-02 4.417218764381530272e-01
6.931795114112691836e-02 1.770293877245209674e-03 4.684890381655745228e-01
1.453171728835021825e-02 5.642907144044508050e-02 4.505757688191485144e-01
8.679931217628732154e-02 2.490303473733499959e-02 4.970736376914973165e-01
1.489987374244947874e-03 4.182630126785726737e-02 4.456752831202315246e-01
-1.297181118572818953e-02 3.140501079783098587e-02 4.458010383967739299e-01
8.506028833331763517e-02 1.553115100352276713e-02 4.889605214831140856e-01
7.789136630974280440e-02 5.701538523773880263e-02 4.613940951462677798e-01
2.006091967734850018e-02 -2.878427332822604788e-03 4.402966689760062780e-01
6.530325215242810399e-02 1.610842441059575497e-02 4.600215053454152492e-01
5.154230139554397128e-02 1.971469458792098062e-02 4.534498881396007430e-01
8.225617083432804066e-02 3.489464550007927851e-02 5.104241732879842841e-01
8.733619200802794288e-03 7.333676153981370099e-03 4.415132735277368936e-01
-2.496408406576646616e-02 3.729472884215442787e-03 4.417188319741572888e-01
7.502493845282637297e-02 3.973435611003366813e-02 4.613480119565431248e-01
-3.613387092970773984e-02 1.203262540054355484e-03 4.419114838849000360e-01
8.228623104144149047e-02 2.259874372897205733e-02 5.088568924420046047e-01
8.310626828133882427e-02 1.235753772314572563e-02 4.828074556468489043e-01
2.192645538912885508e-02 5.124648395849709659e-02 4.484290853969084556e-01
8.645818884753374289e-02 1.816157377728416095e-02 4.770146581502279215e-01
4.591239502777963444e-02 2.119429315627392035e-02 4.514954140956835005e-01
5.762539740233863644e-02 5.599721363629028142e-02 4.531710298453457963e-01
7.846499169038105570e-02 7.265849264788045228e-03 4.804200790128866361e-01
6.920541869544315217e-02 1.026932190248518173e-02 5.169388568292508923e-01
3.302135586366169995e-02 6.393455093178904147e-02 4.536774971315835625e-01
2.512322923928251087e-02 -1.190733582377480467e-03 4.415947939903139274e-01
8.292813259222546474e-02 5.870171674766466730e-02 4.787550156572039639e-01
2.324014378352072877e-02 6.783768966063075806e-03 4.434318798111637205e-01
7.351632341393161962e-02 5.729081420328287211e-02 4.573194984452446099e-01
6.654145709346326321e-02 8.578855521913746410e-03 5.191610450127962517e-01
7.026353455618515598e-02 2.719953153492121745e-02 4.603238368046715379e-01
8.849106135725194611e-02 5.219370273455398862e-02 4.637031049936328753e-01
2.791432043132314328e-02 1.848087564507521624e-02 4.462323268414035704e-01
2.618393072476165456e-02 5.733082594512044217e-03 4.437106234650686210e-01
6.980658498027246528e-02 -4.602319287893053695e-03 4.927468370799081843e-01
8.779849839433119529e-02 2.488052378127871000e-02 4.714896908690148769e-01
8.555439913399134899e-02 5.869961142643058405e-02 4.664606115555339216e-01
8.549412077258984610e-02 6.005834185159533711e-02 4.668409351735864909e-01
7.738966418233386713e-02 1.412155514596421212e-02 5.095877890834263901e-01
7.455749394792343665e-02 1.729189877130742070e-02 5.175263508558375358e-01
8.428292434995465765e-02 2.876026936623097413e-02 5.069203337249950092e-01
8.876611608935959519e-02 5.811252639527886288e-02 4.689249228739035269e-01
7.984820541756962320e-02 1.815536996887750013e-02 5.096621728822577913e-01
-1.950296815022160499e-02 1.629726601426005964e-02 4.451992634060785714e-01
3.354123055959373767e-02 3.950789575133843018e-02 4.493940095343861851e-01
4.990256681641421638e-02 1.529880877307108165e-02 4.525953143923633903e-01
3.369029825325117050e-02 -6.933236233892652381e-03 4.431377530873678583e-01
6.214038088217534866e-02 -6.144170540045507459e-03 4.647653166242886047e-01
8.394851348567526628e-02 5.874313578170217709e-02 4.789327852484492887e-01
-2.502996213482544963e-03 2.533892187423814578e-03 4.396031034119907144e-01
1.133201278454070045e-03 3.548303921637224051e-02 4.449386779961742588e-01
6.095643353912529039e-02 1.337172577437803836e-02 4.578753081970948213e-01
8.869482829077442176e-02 4.699826338237383938e-02 4.952438157566482757e-01
9.202730002153246269e-02 4.408188886374508897e-02 4.923402052897988823e-01
-4.442030665778273768e-02 -1.244810203079106323e-03 4.414481023386487846e-01
8.693166709540964265e-02 3.244982338316965143e-02 5.023533179460394349e-01
7.391838841387018619e-03 4.825437962720240809e-02 4.467752464186250383e-01
7.068564326000555120e-02 6.833844203673935733e-03 5.095806788519428032e-01
2.060252311286363963e-02 3.534906308780608880e-02 4.466972602047517005e-01
7.055947059806388921e-02 2.719296410550882392e-02 5.271289662352829364e-01
6.166655297939312164e-02 1.576730609644959660e-02 4.581133238088969661e-01
9.484562929362552741e-02 2.633725049603644411e-02 4.792344965363981024e-01
7.477695869910763737e-02 4.526558933756409664e-02 4.577133169254553602e-01
7.319921924910938182e-02 1.267196729318986444e-03 4.773149571309336925e-01
3.160324976104771783e-02 1.709965818535634161e-02 4.468827508219938016e-01
-3.429145569001904731e-02 2.033841908689411684e-03 4.426775593680127852e-01
6.417634481638066768e-02 4.424771712456568307e-02 4.547115734486986693e-01
3.658772487371123039e-02 2.194017111892679686e-02 4.487548961320962371e-01
2.471996971054552308e-02 5.119930194831559533e-02 4.486401898578701308e-01
-2.434813930054258949e-03 3.408708032314334418e-02 4.449799830115969690e-01
4.754316291387719606e-02 3.381935788028643183e-03 4.508985314853771742e-01
8.939693885431039544e-02 5.659761986427438996e-02 4.749874870206807764e-01
1.027252722761138326e-01 4.018379921310046704e-02 4.738233488260646942e-01
6.235553769868536211e-02 -7.421809095596467939e-03 4.660901444440320729e-01
3.168370252508550394e-02 5.645248989557014041e-02 4.498320630826069810e-01
3.277273295487740518e-02 7.757266887832987325e-03 4.456508418844821739e-01
5.703647889237563329e-02 -1.064954237543884290e-02 5.227481492414396413e-01
8.648782620758560524e-02 3.039989364662394611e-02 5.028015528748929208e-01
6.230319433480804858e-02 -1.095499390403790324e-02 4.689349827922013048e-01
-1.184658613588468468e-02 4.260173906652270359e-02 4.474724858884708278e-01
7.539964846909413820e-02 2.918445984964733453e-02 5.214498661145331448e-01
7.309982643557885740e-02 1.539657329789908321e-03 4.762508669323888832e-01
9.398032671479870925e-02 3.803605998400857308e-02 4.673876363647103127e-01
6.890630170806591112e-03 5.464546266783835982e-02 4.496730378034906606e-01
3.091740774374267253e-02 8.526622092177960771e-03 4.454307083507705878e-01
8.105259985082198526e-02 1.310274023317905406e-02 4.988925812373988244e-01
8.442133807941271106e-02 4.816506573134016894e-02 4.599894379120043619e-01
-1.694385181109891308e-02 1.766711646045076439e-02 4.444463317292740023e-01
2.834283275939875925e-04 4.613987507906548713e-02 4.462218273443355754e-01
6.683696617827136754e-02 6.155922739796899391e-03 5.152443714876840941e-01
2.913272049662095353e-02 -5.063321515699296602e-03 4.418583916111142873e-01
6.624858488736426465e-02 2.982987633295833621e-05 5.080130281565002903e-01
3.261158349515427823e-02 3.658006374440993941e-02 4.490929781758451478e-01
5.210719386856126067e-02 6.172079381266611618e-03 4.531835382307264903e-01
5.502890809301824032e-02 2.703626685129227256e-02 4.549006790919665200e-01
8.019731541713401302e-02 9.597363554166142910e-03 4.921864268778983198e-01
1.130747784626129175e-02 2.788888004727026887e-02 4.444261674320654776e-01
-7.329364344423570932e-05 1.478745687246176173e-02 4.418116968029643377e-01
2.055814523301123867e-02 4.603559011892487812e-02 4.475239237261913194e-01
4.545665356612826197e-02 3.518198836456383483e-02 4.516019494511974708e-01
7.818983173695029376e-02 3.775278026430067130e-02 5.124476829302087033e-01
2.165160226120024095e-02 -2.222073179853487328e-03 4.407276058109422245e-01
6.755996393578564407e-02 5.580790061507297055e-03 5.131146662694656690e-01
