-6.388419330470367086e-02 -6.539849392184339527e-02 4.380255805749650455e-01
-6.245409387536023788e-02 -6.019890660690754847e-02 4.375833466307688102e-01
-5.049393001703954970e-02 -1.204022763181028105e-01 5.040293484183842043e-01
-5.520783127912846228e-02 -7.450245464932807316e-02 4.425903481251579064e-01
-6.480439804066698284e-02 -1.079939430197901368e-01 4.662874505985904472e-01
-9.985451077582306600e-02 -1.210779959621956781e-01 4.760972825742464387e-01
-6.320985012521315727e-02 -7.634994835605500574e-02 4.412885288161413899e-01
-5.119699359172024539e-02 -1.096570587511863509e-01 4.727133475336298130e-01
-9.388751458240808534e-02 -1.107793492740299091e-01 4.585312578603111255e-01
-9.428776269372891872e-02 -8.904276018699359974e-02 4.461362656149474581e-01
-7.977037981442780534e-02 -7.090290971724094726e-02 4.376193611090103963e-01
-9.243956891595694891e-02 -1.214324917832014794e-01 5.017992179337534830e-01
-7.756585690935165200e-02 -8.285142017245981927e-02 4.419318799075277471e-01
-1.893334430980675095e-02 -1.180031169901325505e-01 5.530983033223600964e-01
-5.344731197240795706e-02 -9.965040839845537568e-02 4.576570174528515889e-01
-6.317908271260677666e-03 -1.283998753879879162e-01 5.123452431104859039e-01
-7.163525985449969991e-02 -9.119533711937485854e-02 4.480516825121799718e-01
-9.156324421518660661e-02 -1.142143905744471138e-01 4.602006227646381897e-01
-2.699098013882578889e-02 -9.690900129438596855e-02 4.568923982642817405e-01
-7.622137435920631199e-02 -1.122380194244447654e-01 5.255286313931161191e-01
-6.417218128046667247e-02 -1.200608268198618683e-01 4.981050360841118296e-01
-9.902478668428413289e-02 -1.209060956979547685e-01 4.745017541929900107e-01
-1.064273882180123282e-01 -1.150799843111205423e-01 5.031555840267589730e-01
-2.849395730837227941e-02 -1.064400203589603022e-01 5.538617414185134091e-01
-4.554845610049262222e-02 -9.523698581922487860e-02 4.558828548776481249e-01
-3.337307004609216254e-02 -1.190636017504149574e-01 5.418999824676041799e-01
-5.804951428138142855e-02 -1.201340007182872122e-01 5.201443326357561014e-01
-8.299165772867646285e-02 -1.215456527565249023e-01 4.967003994203595396e-01
-4.991848106566712517e-02 -1.183745437675163409e-01 5.308269632117635917e-01
-2.873810685450863336e-02 -1.236770996737527328e-01 5.261665016622377733e-01
-3.258959159122527816e-02 -1.164475270222305459e-01 5.456467092994747858e-01
-7.131849683009687524e-02 -1.206789237158687467e-01 5.134423214098873256e-01
-7.023721958206373406e-02 -7.132676168654197846e-02 4.381338104790873933e-01
-8.323585147649958937e-02 -1.094929455985658301e-01 5.226462029940868170e-01
-1.205514204137005940e-01 -1.128392189588911243e-01 4.896925952733195420e-01
-9.066394133670004074e-02 -1.218317594964026251e-01 4.938456370948859364e-01
-7.434453544890888554e-02 -1.210439617083794439e-01 4.961355227400366941e-01
-3.830845765914916295e-02 -7.695552035081214270e-02 4.448954531207989782e-01
-6.985632660357582457e-02 -7.515702498046263058e-02 4.393177564712484884e-01
-2.132864591445489746e-02 -1.254280231227254683e-01 5.187304057191011175e-01
-3.144290736868893266e-02 -1.231853654674215787e-01 5.231107183403573835e-01
-7.067231248367626673e-02 -1.041135067544829568e-01 4.595001864689169380e-01
-2.326515790701085690e-02 -1.080953560339956571e-01 5.600294640721311668e-01
-2.514327745097583514e-02 -1.244099259089888471e-01 5.150500239006655656e-01
-6.841891172000671983e-02 -6.623912539356488494e-02 4.371741455545966604e-01
-4.781926124200080314e-02 -6.704759951647942806e-02 4.410861257573705507e-01
-6.130451997574109385e-02 -8.566280569641127052e-02 4.459394738774014599e-01
-3.576495413508208598e-02 -1.225015505319317216e-01 5.211680484644682920e-01
-3.311511321129963908e-02 -8.724894759147194812e-02 4.508406907025260812e-01
-3.876339477372385545e-02 -1.221007661914388781e-01 5.193124275429885639e-01
-8.682535180080282189e-02 -1.187287244429791333e-01 4.720125523647486498e-01
-1.127119317560585920e-01 -1.137543532397895935e-01 4.999033265443689755e-01
-3.281282182042417200e-02 -1.229476357890938315e-01 5.237796870075431821e-01
-8.701045911394118815e-02 -1.179152188758747777e-01 4.701799625736019506e-01
-4.332004288785270413e-02 -1.215859681701858541e-01 5.185544310259025957e-01
-8.495435152770405840e-02 -1.212688254595480075e-01 4.919653526119588394e-01
-5.351187280433819526e-02 -1.210877167555980682e-01 5.115577704915355017e-01
-8.321321801634579129e-02 -8.457761731768825841e-02 4.431249959937569316e-01
-4.778596928110931397e-02 -6.778250758433546075e-02 4.412912108604427064e-01
-5.700871206709595684e-02 -1.208099722974105839e-01 5.144684646597126321e-01
-4.490999540406291624e-02 -1.149800564026021987e-01 4.830972611492575508e-01
-3.799073630765358034e-02 -7.521986318144285866e-02 4.441406370371148160e-01
-4.837318436420519341e-02 -1.209177536336903530e-01 5.085170127753462221e-01
-1.762295354565113562e-02 -1.245523533963275309e-01 5.010413248050440416e-01
-1.384871978976462414e-02 -1.262404707460873798e-01 5.295955707826927039e-01
-8.901304131108558892e-02 -7.403679591389031311e-02 4.431090483047473438e-01
-4.865172472731551373e-02 -9.458868300776984706e-02 4.546181972225176171e-01
-1.161666307287111989e-02 -1.224449445640392597e-01 5.433053078625459387e-01
-3.593967872207051023e-02 -1.225081190666796466e-01 5.179941018861178303e-01
-3.923734976245785849e-02 -1.172145397906232955e-01 4.883162505593565683e-01
-7.413984238500977153e-02 -7.169280114079694399e-02 4.376848320894036748e-01
-7.546126064225873453e-02 -6.661980658190388982e-02 4.361536498730715916e-01
-7.668733316707476710e-02 -1.043056196013888021e-01 4.583699202789013327e-01
-2.820797799024417699e-02 -9.341744334087165313e-02 4.545999203098734509e-01
-1.065303700894031508e-01 -1.219788816019329453e-01 4.860223496528042753e-01
-6.972919156238346905e-02 -1.208008219803507755e-01 5.119779119246502530e-01
-9.630952782587452743e-02 -9.030429536085439468e-02 4.476148662986332294e-01
-8.488850365502491335e-02 -8.062750157771969572e-02 4.417685281677766196e-01
-2.920684527538248976e-02 -1.103400228553242379e-01 5.521871138099839760e-01
-3.058667631940790999e-02 -1.233572457987493487e-01 5.210405808512985626e-01
-5.922502257783951451e-02 -1.171717854908262413e-01 5.276053241655470627e-01
-6.542698489610122847e-02 -1.119265153125612866e-01 5.288444132975652634e-01
-9.511506297320343473e-02 -1.129066191225116811e-01 4.596613239877245238e-01
-1.162179660876309917e-01 -1.196868430680129575e-01 4.853620373026509283e-01
-3.447830022990844290e-02 -1.168110263345378680e-01 5.436838986537403384e-01
-7.562184405988986446e-02 -1.191094189782301027e-01 4.861994492040023763e-01
-1.767799487608724684e-02 -1.239660884557237663e-01 5.378972105793885516e-01
-9.074349010074053701e-02 -1.201533869079266514e-01 4.713912110197023275e-01
-5.240498245872429045e-02 -1.197648289672090666e-01 4.996535278633830179e-01
-9.204372172425007159e-02 -8.218127007744088774e-02 4.443031075749779291e-01
-1.094602897254892127e-01 -1.197971676846816269e-01 4.967301358940172662e-01
-3.079192657625242843e-02 -9.961531464595643759e-02 4.604618404144900090e-01
-1.900869282015680770e-02 -1.241117836478105863e-01 5.002918434294756356e-01
-7.718080005837101021e-02 -1.210727048696187552e-01 5.102351103949436251e-01
-3.115058063435658178e-04 -1.289696692259292565e-01 5.173808989846543360e-01
-3.892339334939363960e-02 -1.105493368044132840e-01 5.421728321345031798e-01
-1.111399768391820725e-01 -1.023598820703454509e-01 4.567460179318492686e-01
-9.180050574061261737e-02 -7.724407245776734876e-02 4.456098966334191003e-01
-1.153840368697779534e-01 -1.176180471910797387e-01 4.947465830855272695e-01
-1.012553390313007118e-01 -1.174677636718574891e-01 5.072495428863694755e-01
-7.090646781377081542e-02 -9.564193613568781893e-02 4.515506926003748367e-01
-4.428292796599994641e-02 -1.213111585450660224e-01 5.098527131713388449e-01
-5.803130359403507743e-02 -1.054532223195412399e-01 4.641789880294211468e-01
-1.170450998938268872e-01 -1.138654742675012099e-01 4.725214014620305880e-01
-3.540611532289627411e-02 -1.197715025798765931e-01 4.953012611743401461e-01
-6.866737853337985531e-02 -1.156045448711172652e-01 4.799433491887734604e-01
-5.230419842400840791e-02 -1.066263218865378254e-01 4.672672278999343565e-01
-9.527529420287492168e-02 -1.218081879898585684e-01 4.698763707565318803e-01
-6.416405626905011261e-02 -1.209844613931008034e-01 5.052228793879789404e-01
-2.692367549372903443e-02 -1.033862523949637680e-01 4.632542108585498974e-01
-8.435077444501447308e-02 -1.160977758144294547e-01 4.693525555934826565e-01
-1.110641078486731964e-01 -1.098628119843646361e-01 4.630150377397018735e-01
-4.628740383120293761e-02 -8.247546962263109516e-02 4.470236349699727718e-01
-3.067227027904816800e-02 -1.006075959193697550e-01 4.612988647803226150e-01
-5.032744448391224951e-02 -1.185532116382994605e-01 5.303175845179333159e-01
-9.001263858631983195e-02 -8.741885814636603247e-02 4.453301868925979567e-01
-9.847091504182223232e-02 -9.915339711806961387e-02 4.517528848188592794e-01
-1.012765936128657007e-01 -1.189729883312723308e-01 4.667391945622442195e-01
-8.007308654623550292e-02 -7.082759556046311356e-02 4.376154175693076631e-01
-1.220573340065081967e-02 -1.258755316875362629e-01 5.013543511307426703e-01
-4.510350915667696303e-02 -1.080761689820494975e-01 4.708638983834396718e-01
-2.302046775572363577e-02 -9.703714660282763971e-02 5.606019008016585037e-01
-4.785819807508143175e-02 -1.175504992777006152e-01 4.897874215405749743e-01
-9.507119563867887091e-02 -1.216922371936440816e-01 4.977045890352043700e-01
-1.849827228897729312e-02 -1.142756668655646318e-01 5.585163561734083348e-01
-2.508417107104353450e-02 -1.178698863503644390e-01 4.856387937376579478e-01
-8.935529793368306162e-02 -1.215853429896307514e-01 4.923132950671693653e-01
-7.393548315919638847e-02 -1.215459618467926856e-01 5.048356861258722628e-01
-7.365371601129354351e-02 -8.828388505858536517e-02 4.458618236333680707e-01
-9.786735058044210289e-02 -1.210041068480673110e-01 4.657648037845090738e-01
-1.009157834070056187e-01 -1.220806377506507140e-01 4.933048260991816925e-01
-9.768698318802954139e-02 -1.214561431150194271e-01 4.984867777233950026e-01
-4.558328133011643052e-02 -1.211475842527082597e-01 5.238855494507406174e-01
-2.583324150939169533e-02 -9.321182547803526230e-02 4.537580573450055721e-01
-9.871251780429858569e-02 -1.219979008164704948e-01 4.941720985359692730e-01
-7.614126593853756675e-02 -9.468531182086056819e-02 4.502456827418500063e-01
-3.874077487033873723e-02 -1.159712117723163960e-01 5.404514491908926077e-01
-8.008732530916376491e-02 -1.216707106766823504e-01 5.032891908409969917e-01
-8.953471575875969479e-02 -1.189742222115037495e-01 5.113564349634396322e-01
-1.141084827985456782e-02 -1.221805449714621628e-01 5.441393265221412534e-01
-8.510980361964118335e-02 -1.212183894836931092e-01 5.075593093772358122e-01
-8.791235201303457258e-02 -1.215280203059824482e-01 5.023859369241772121e-01
-1.438697610851363308e-02 -1.018378654713463366e-01 5.658898921500066237e-01
-5.417694929725200281e-02 -7.860922704764176927e-02 4.441750276892310056e-01
-5.239093849464428188e-02 -1.058176058929942848e-01 5.374845694782325323e-01
-3.664987193206107469e-02 -9.861767133472110203e-02 4.602490303062407584e-01
-8.779895328545427036e-02 -1.201301383887463659e-01 5.091362939405457144e-01
-1.072811780824620559e-01 -1.183332958438904903e-01 4.725778262809274821e-01
-3.429519837290537221e-02 -9.679136721528876219e-02 4.586350644677610888e-01
-6.494282410192704635e-02 -1.210662603896112688e-01 5.058293911574124335e-01
-5.024530907094149935e-03 -1.250672020360987791e-01 4.958470753265777353e-01
-7.987670317433430422e-02 -1.165943567601777781e-01 4.751131266236764406e-01
-8.224124861253558072e-02 -9.227006218338004717e-02 4.477930345984345584e-01
-2.517788860019169045e-02 -1.085803638322913045e-01 5.569196620366032580e-01
-2.652879574859116907e-02 -1.073501756286956155e-01 4.684408558916288157e-01
-4.592160429303457359e-02 -1.213102035477380408e-01 5.124935518966309278e-01
-1.978187530748983305e-02 -1.239616468863359855e-01 5.003429500195036850e-01
-6.926498306313405573e-02 -1.210101965471849922e-01 5.098348742472934569e-01
-8.808508571370632367e-02 -9.803180784500936662e-02 4.510028722540031509e-01
-9.568921987757407488e-02 -1.149581106841220807e-01 4.607189360683855428e-01
-1.121689398541261679e-01 -1.206528178023690556e-01 4.900094323139910779e-01
-2.844862113579321033e-02 -1.148929476271035588e-01 5.508668878699143345e-01
-6.836948606747736412e-02 -8.073675246089927204e-02 4.416310986667172367e-01
-1.531794294591085764e-02 -1.222837800227161431e-01 5.455836675097182065e-01
-4.173958283344948034e-02 -7.660185187921385308e-02 4.448531134399671405e-01
-6.879258706418216185e-02 -1.176620759062337596e-01 4.855320508255599465e-01
-6.513645046836380459e-02 -1.120689991384693773e-01 4.736903426331001143e-01
-1.012533977414704633e-01 -1.208656875857246904e-01 4.711206724743771668e-01
-5.343565241529300847e-02 -1.209254737349570452e-01 5.161730786442796370e-01
-3.971696034351015342e-02 -1.220039765912454693e-01 5.185759605398211347e-01
-1.114382416682050403e-01 -1.153841777613267838e-01 4.691970713855002639e-01
-9.796911845814119946e-02 -1.126195601216657127e-01 4.596683112959167872e-01
-3.924191392018868546e-02 -8.482081534157706604e-02 4.490592203158659812e-01
-6.683573172449999711e-02 -1.164002393482206771e-01 4.828459747626490106e-01
-5.438524642878611592e-02 -1.174132520547100378e-01 5.294206744622091954e-01
-2.355714006927223797e-02 -1.247766270335488037e-01 5.281299357291135976e-01
-6.445118079719534820e-02 -1.210455403516677436e-01 5.106513723783432379e-01
-6.004337842825643173e-02 -1.129450059279255292e-01 4.768672523676160124e-01
-4.045472849140540478e-02 -8.312459853828889356e-02 4.479767936312475940e-01
-5.629269904407437075e-02 -6.109540426099514115e-02 4.386260606232165182e-01
-1.042453961295865816e-01 -1.217881870747086342e-01 4.818523877707547864e-01
-9.630798451558988948e-02 -1.207194267199404314e-01 5.046126906505782328e-01
-3.053529086663499953e-02 -1.188464782907098227e-01 4.905892675017555216e-01
-7.199216813595168962e-02 -9.127591570218250572e-02 4.480881246227997883e-01
-3.868158607712091773e-02 -8.748440493991285760e-02 4.507080209106971158e-01
-1.180384628351095616e-01 -1.163366734175203671e-01 4.790823688802182123e-01
-6.490628557735710069e-02 -1.060776628473629052e-01 4.631497732619587748e-01
-7.571226720524822096e-02 -1.192481440685873167e-01 4.868617384891578692e-01
-9.785901835437961493e-02 -1.217872394954212095e-01 4.961473736054134998e-01
-6.647020935849073942e-02 -1.210352090127503333e-01 5.105822344666403056e-01
-8.215251955579003229e-02 -1.095507044717162759e-01 4.618395258791511693e-01
-5.131655936062418794e-02 -1.171898485427351755e-01 4.886007089859851771e-01
-1.394982080164408438e-02 -9.743393260607884077e-02 5.681212795363077550e-01
-6.155267253962113522e-02 -1.088239553551145350e-01 4.685139903904220748e-01
-7.614512720208443941e-02 -5.617693520991579731e-02 4.380936691909431135e-01
-2.500195735304648267e-02 -1.140878195533353567e-01 4.785142787213491067e-01
-4.928290057982104289e-02 -5.856682748624872370e-02 4.388602969555581712e-01
-9.909815973519427168e-03 -9.499334428059315327e-02 5.704136859400599224e-01
-7.383915744046189167e-02 -1.128172319027664489e-01 5.258714010055032251e-01
-1.995264284636208071e-02 -1.138905429441652295e-01 4.752362610470882154e-01
-1.453721397083844631e-02 -1.265830691914636430e-01 5.083792101866935198e-01
-8.739776789922237832e-02 -6.916796727121538035e-02 4.428322478594075018e-01
-8.950487708764491568e-02 -7.688783112088942717e-02 4.431845057305979219e-01
-1.742572665472908941e-02 -1.251007871122724324e-01 5.328941566313112332e-01
-6.505223416055465335e-02 -7.136849195175430649e-02 4.392553448113234449e-01
-8.656455061723448974e-02 -1.192729957872087493e-01 4.757956460995513281e-01
-7.287533851140520769e-02 -8.412360180454894754e-02 4.431851281169156276e-01
-9.300934139455684091e-02 -1.204572774163332471e-01 5.067258631335059826e-01
-6.865253374386083574e-02 -9.287145450650383105e-02 4.496355679291639262e-01
-5.205017975964217752e-02 -1.117233780565677209e-01 5.354694143858955702e-01
-8.482964592029889478e-03 -1.266006451712718972e-01 5.024921562473065872e-01
-1.028471878487144525e-01 -1.222430638955190468e-01 4.889284205723429810e-01
-1.449011446309585172e-02 -1.214986702768896670e-01 4.883444103597172625e-01
-7.784811959412246685e-02 -9.693436849285080870e-02 4.516331232342425950e-01
-1.127790145568781099e-01 -1.173284190652335857e-01 4.732469151084247594e-01
-7.898968893226046561e-02 -1.190911563799260525e-01 5.168953773464746160e-01
-1.067724812741954743e-01 -1.180743620548911355e-01 4.712509236451466466e-01
-8.226699285627263325e-02 -7.531120427905370340e-02 4.389111821497246324e-01
-8.143608111844558017e-03 -1.283525169314277126e-01 5.199911220766624265e-01
-8.158684174676623935e-02 -1.210806879928296165e-01 4.927652065699699713e-01
-5.380456531213838323e-02 -1.208143030488484093e-01 5.082509632415651568e-01
-6.197609442037733951e-02 -1.110816088907612964e-01 5.306118436830270513e-01
-7.980294623073252991e-02 -8.251185908150308890e-02 4.419211721052200836e-01
-6.141816666724170953e-02 -1.197774518330657623e-01 5.199680212457957751e-01
-5.561512524011982123e-02 -9.005737689604124963e-02 4.496934112934334871e-01
-7.833126988718179529e-02 -7.097985062994199845e-02 4.375985975087155477e-01
-3.121303497369419880e-02 -1.228339918837465378e-01 5.294028910152607237e-01
-1.615353934618561638e-02 -1.262171177671503330e-01 5.087041637676563699e-01
-6.347973784757897364e-02 -1.089226319510527147e-01 5.306481774479867575e-01
-6.833992064808655509e-02 -1.200537326900751323e-01 4.953994097614786707e-01
-4.363116816635237427e-02 -1.094196040871923542e-01 4.731297084744313652e-01
-5.092779239396002383e-02 -1.138629586032803148e-01 4.804638832058089615e-01
-4.008117923067132382e-02 -1.210938828992553784e-01 5.308181342792956947e-01
-9.537815525362780544e-02 -1.214745916572915474e-01 4.991064954059916126e-01
-8.087565672545503348e-03 -1.283305423756656294e-01 5.226390725301142126e-01
-1.071834174687826408e-01 -9.275721810928827527e-02 4.543882531833310368e-01
-1.051497141359106630e-01 -1.221263958911514291e-01 4.858375240922807037e-01
-9.095743172108340657e-02 -9.740995029750329492e-02 4.503667973405415803e-01
-8.957825792116666519e-02 -1.107585391326375152e-01 4.600910488001312415e-01
-1.037997216298622433e-01 -1.201145975110169545e-01 4.737855494401805867e-01
-2.376077387850783484e-02 -9.780802536931829105e-02 5.592288785639798476e-01
-8.980119981386677774e-02 -1.198323690747886833e-01 4.808058272757555485e-01
-9.700892620806711442e-02 -1.208484560739679636e-01 4.747660514321773717e-01
-1.941986218356776470e-02 -1.232215587570043985e-01 4.970352565214636864e-01
-9.913350037638765655e-02 -1.128370856127889343e-01 4.603965327055890566e-01
-8.461131653769127237e-02 -1.192946082863370616e-01 4.844775492385805515e-01
-5.589535541039320626e-02 -1.166425667337244593e-01 4.868571874117053611e-01
-4.486378356795879541e-02 -1.210520729224361519e-01 5.266263745189659895e-01
-5.360086425092434881e-02 -1.166860015191762967e-01 4.869056589827808201e-01
-2.631130639529537588e-02 -1.178884202338588566e-01 5.495797946891631813e-01
-8.914469519416159948e-02 -1.176149161833674184e-01 4.674413755270742099e-01
-5.516717555448256288e-02 -1.208342913171131239e-01 5.160421640010725008e-01
-8.076408852561819951e-02 -7.915242487070588140e-02 4.403289636199792523e-01
-9.462713486444031263e-02 -1.041355530196619028e-01 4.546462830452637216e-01
-5.932676217633767873e-02 -1.038444944940431353e-01 4.615401138998955211e-01
-2.407449975337227002e-02 -1.030283649696113607e-01 5.601653391757021039e-01
-1.884266279911173819e-02 -1.231376496462793513e-01 4.962959163167171006e-01
-1.009748907675410007e-01 -1.219564543501489157e-01 4.832789569764607274e-01
-2.046492241582437838e-02 -1.246617691759944191e-01 5.044971249259968538e-01
-7.789565250847486910e-02 -7.144361001044149950e-02 4.376825175681070546e-01
-9.711850507447708503e-02 -1.210195078461791529e-01 5.017950866436777790e-01
-6.762962423056387284e-02 -1.207989575603217736e-01 5.124406349695431739e-01
-3.184427165656457392e-02 -1.194190042218295639e-01 5.422960191560246557e-01
-6.784614776220063148e-02 -1.053590833089222134e-01 4.615105270712123176e-01
-9.331303793193454488e-02 -1.215775671228079280e-01 4.991444919072899888e-01
-1.141121318397827766e-01 -1.201925661507552007e-01 4.872958633601435219e-01
-6.199841440192351699e-02 -1.197340812711568253e-01 4.973696804591068443e-01
-8.494291610182624908e-02 -1.189204661255539447e-01 4.791651699794157726e-01
-3.529880186914455265e-02 -1.133447863597115135e-01 5.444835094976637757e-01
-7.471528812578048795e-02 -5.658112095344812464e-02 4.377846145277216605e-01
-9.293768206524388731e-02 -1.204629997334578928e-01 4.680724943529295801e-01
-2.244822309312406033e-02 -1.078750557903787599e-01 5.613951673182679958e-01
-8.349571438424088776e-03 -1.264508168344592731e-01 5.309476108965978103e-01
-4.840762371258028329e-02 -6.824430755225943668e-02 4.413721265707164498e-01
-7.959277423346648728e-02 -1.178997008756379611e-01 4.789961060475086962e-01
-1.724470867987453609e-02 -1.193644180089411116e-01 5.510837617981120262e-01
-3.659039011147815351e-02 -1.099132664484326061e-01 4.734419020471298256e-01
-2.716412782791246400e-02 -1.168021952853677964e-01 4.850291607442968056e-01
-1.947558843981472138e-02 -1.127915740188423638e-01 5.593154444596519781e-01
-7.058255364293555822e-02 -1.201575473004177358e-01 4.941632378129797165e-01
-2.593727766783752997e-02 -1.165981785662717346e-01 4.836889987267525282e-01
-8.303760142748335682e-02 -1.213667495352179632e-01 4.949562888501624625e-01
-3.778949634806860747e-02 -7.761077021145762478e-02 4.451643048802678693e-01
-1.146684580476906856e-01 -1.200650173129545334e-01 4.852515778512870859e-01
-8.791318308246523494e-02 -1.208837652611794988e-01 4.873967311887969500e-01
-4.946519531303597561e-02 -6.647015983661148930e-02 4.408021583633291995e-01
-4.187857520989771154e-02 -1.138458643456394664e-01 4.807555730964124807e-01
-9.880175058701558266e-02 -1.216311620851151937e-01 4.969189228879435927e-01
-7.328777348200435360e-02 -1.155843925112173126e-01 4.774082916541333432e-01
-6.425911690993914294e-02 -1.082800165981708251e-01 5.305130218211753235e-01
-3.884415463941075924e-02 -7.424831419960352397e-02 4.437463878619109514e-01
-8.106907819528415271e-02 -1.190552583735419168e-01 5.160255471904845459e-01
-9.049521302796859068e-02 -1.026133646359515400e-01 4.539033587530695302e-01
-1.246025188381624099e-02 -1.225722724943717340e-01 4.902778195588424759e-01
-6.915658537076921353e-02 -1.206852323748508482e-01 5.130248288428934655e-01
-2.415322547474600678e-02 -1.080231895627765393e-01 5.586924055432589409e-01
-2.308063761890670473e-02 -1.156351171031931441e-01 4.799371175113124610e-01
-6.802426784642527646e-02 -8.476667728617402753e-02 4.442190089022786670e-01
-1.155607756715307244e-02 -1.176756525967311007e-01 5.542663950806400175e-01
-8.114543901367317347e-02 -1.194791035338597096e-01 4.869889447571416619e-01
-1.210907652340393117e-02 -9.575013034495509501e-02 5.696687730281400075e-01
-4.438517833671428575e-02 -1.213374036190471850e-01 5.237085435175111714e-01
-1.902599246697570315e-02 -1.199973063260936779e-01 5.492762500511476631e-01
-8.155739901309132234e-02 -1.204044356264660637e-01 5.126138132943682812e-01
-1.690493844295870920e-02 -1.080170958843785223e-01 5.635242855819146968e-01
-6.720312239877627991e-02 -1.211809455902260607e-01 5.057092140205096120e-01
-5.480537120746230978e-02 -7.961786023374051169e-02 4.444318813975730587e-01
-4.796219376101183707e-02 -1.196978880150942615e-01 4.989727577904974898e-01
-1.041754644905565352e-01 -8.548869020391833273e-02 4.547227100829074331e-01
-7.618626514191974286e-02 -9.193926992183189262e-02 4.481548238795290962e-01
-2.048562541434799031e-02 -1.151812865897862970e-01 4.775615580162657081e-01
-6.776531528859489062e-02 -1.207226266276701793e-01 5.131297713888369749e-01
-1.610390863062988870e-02 -1.265796229208037693e-01 5.147950922904905857e-01
-7.146054461263866286e-02 -7.414833913233401241e-02 4.386797401812058683e-01
-8.963175031858507114e-02 -7.925962327309948874e-02 4.429623217553128045e-01
-1.387388878819172805e-02 -1.094000338607992312e-01 5.633208434376032470e-01
-4.467692675273839120e-02 -8.872377157739623488e-02 4.509391426106202361e-01
-2.544723956649101032e-02 -9.416648460983975677e-02 4.543613653261814322e-01
-8.653592554789528435e-02 -6.789685985610124930e-02 4.416249585289718227e-01
-7.535188848364329783e-02 -5.852351426307376980e-02 4.370356859039671860e-01
-9.376749929013093732e-02 -1.212813988697795248e-01 5.022028050050946213e-01
-5.625258547469262627e-02 -1.027008834020271127e-01 4.607871240237329524e-01
-1.651402293951410860e-02 -9.990144585529514565e-02 5.654057848318543300e-01
-4.656862181477161577e-02 -1.000285573177496085e-01 4.599980509187418520e-01
-1.174172760387028058e-01 -1.156203812362153055e-01 4.758639245380076876e-01
-1.187738441058527883e-01 -1.124697099044366377e-01 4.740131586324901058e-01
-6.475953240344058115e-02 -1.062606429329896879e-01 4.634522420180093305e-01
-7.469067251282197895e-02 -8.670639984633053687e-02 4.447555088649239874e-01
-3.522187841147638582e-02 -1.028686130570710261e-01 4.642784373384826746e-01
-3.913177417021056204e-02 -1.064333537660517165e-01 4.683871327926261707e-01
-6.839034247455959281e-02 -1.123515370602717056e-01 5.275219431928512837e-01
-1.000881244942521120e-01 -8.766198165582586577e-02 4.496793368678539404e-01
-4.615173645043962880e-02 -1.124929491027876621e-01 4.782073665556177966e-01
-8.088032965751479342e-02 -7.709233818602972965e-02 4.394759045944022779e-01
-3.411041012704386227e-02 -1.182917334913747565e-01 5.423366869576151661e-01
-9.532402154975411213e-02 -1.214733757368408468e-01 4.991323959372202523e-01
-4.734594200845564788e-02 -7.246773778830513379e-02 4.429359219974325357e-01
-7.306096895814595538e-02 -7.014637869801598757e-02 4.373088159336704916e-01
-6.875945022543664131e-02 -1.140207066577224732e-01 5.265885567676711343e-01
-3.199792690985726190e-02 -8.620203639946533158e-02 4.498987014656650740e-01
-6.008559569707268289e-02 -1.204822640312596393e-01 5.157288680996782171e-01
-1.080561702943231284e-01 -1.173803399642637940e-01 4.707989601214778719e-01
-1.039074085225038663e-01 -9.195884659742767364e-02 4.507666902708653556e-01
-9.624087107418183296e-02 -1.165286565111968708e-01 4.615345249275915607e-01
-3.889077389296922288e-02 -1.220015077205838794e-01 5.237012287398475907e-01
-2.351372335661355839e-02 -1.052124669230506127e-01 5.607774664542314325e-01
-1.064864750367610219e-01 -9.462828743026167888e-02 4.531293361313179502e-01
-3.570045976372933361e-02 -1.225168265614431512e-01 5.206227759547307210e-01
-8.801735299905887044e-02 -1.212987208686133467e-01 5.053583906458559705e-01
-1.440596750869552536e-02 -1.267850768780105497e-01 5.113602644400773167e-01
-2.061020096917264011e-02 -1.256216207826134634e-01 5.235975575359148593e-01
-6.098919921700488023e-02 -1.149935969390904061e-01 5.293579909116766791e-01
-3.351404927905073626e-03 -1.289418654996507541e-01 5.155738083364757030e-01
-5.773705494152967660e-02 -1.023661304615750417e-01 4.600641918268429387e-01
-9.296342413176644781e-02 -1.014277194875754240e-01 4.530272454304570262e-01
-1.052553625486568195e-01 -1.062278684125875505e-01 4.576968378799712300e-01
-9.321507361205272346e-02 -9.292192367564570954e-02 4.481593503374637910e-01
-7.195684901671971223e-02 -1.199485130251920634e-01 4.919702050008099015e-01
-6.391574048433069921e-02 -7.366121545162497564e-02 4.402114724344141639e-01
-3.250267173356529565e-02 -1.225740068121939641e-01 5.086033866600864206e-01
-9.355336811967908395e-02 -1.211690109013684319e-01 4.727360635598123473e-01
-9.867094600580088304e-02 -1.163829584514869397e-01 4.627322936042368995e-01
-1.039865098399268828e-02 -1.274281059285771733e-01 5.252435363900972431e-01
-1.421933478963418804e-02 -1.256783334022417153e-01 5.028430473274037027e-01
-7.945459544431295040e-02 -6.628795035285517390e-02 4.371471038542180665e-01
-8.098968256706427782e-02 -7.345218186522033121e-02 4.383062700043287019e-01
-1.140892094209970259e-01 -1.177871679736064714e-01 4.965832705264994762e-01
-7.002239358849490780e-02 -1.179411407483356433e-01 4.858458866144467203e-01
-7.060863698854270842e-02 -9.840695428846679693e-02 4.538297364347180229e-01
-9.084323452404170773e-02 -1.192147215096902163e-01 5.105285772494992935e-01
-3.547553122032268136e-02 -1.225804435863624003e-01 5.175062005991918346e-01
-6.278241440505524795e-02 -5.709284554525514976e-02 4.370027940905375496e-01
-9.742630487553041729e-02 -1.042977025967439936e-01 4.548784154035173111e-01
-8.298319261701406213e-02 -1.152967463922109359e-01 4.692970488344506697e-01
-5.004291253174472653e-02 -5.622875796863155418e-02 4.383868202501676192e-01
-5.022093213568255832e-02 -7.725738683480298796e-02 4.444406880211115851e-01
-1.802575244764088869e-02 -1.261564849856477710e-01 5.162606168246657301e-01
-4.149977532287074666e-02 -8.914888916139809827e-02 4.517982965306066023e-01
-1.195696084267575121e-02 -1.276179667457868760e-01 5.203678703466110278e-01
-9.752002152492539322e-02 -1.216819349888869500e-01 4.713149500324632091e-01
-1.035162656031892864e-01 -8.634877980194133329e-02 4.530363127798682776e-01
-7.448572659317741207e-02 -1.168182551719072759e-01 4.794610086521016723e-01
-3.907633965511532470e-02 -1.121137753715006624e-01 4.773978726294614283e-01
-7.768386877035322879e-02 -1.094444045625006384e-01 4.637512134943997943e-01
-1.277529686422295904e-02 -1.224391275184546907e-01 4.900124618508593932e-01
-3.019129963870326172e-02 -1.231309010262225806e-01 5.106006494607261414e-01
-6.707506204430141450e-02 -1.184906863307171876e-01 4.888687645528613790e-01
-2.294566000483121149e-02 -1.058776500548030963e-01 4.649966148179485170e-01
-7.041278911530082785e-02 -7.068171376481606483e-02 4.379102541133495508e-01
-4.343744543697634214e-02 -9.058990032024975825e-02 4.526803051205101625e-01
-9.341307585024623272e-02 -1.152522124766063860e-01 5.132303554567071435e-01
-4.137895597679757537e-02 -1.136014011229000142e-01 4.802835052942810989e-01
-3.548778987478503483e-02 -1.128511987954488316e-01 5.443969828963948210e-01
-6.772259758695527154e-02 -1.039982967971467970e-01 4.599149833191645831e-01
-5.296546569493454371e-02 -1.082420000880379984e-01 4.696125514905507004e-01
-9.797833135433818563e-02 -1.173447903171061790e-01 5.096878407239245901e-01
-8.096033715505571160e-02 -1.213573695712734657e-01 5.067613108871752425e-01
-8.776850682376499679e-02 -1.193703918845475526e-01 4.790546397238784615e-01
-1.141324441462091971e-01 -9.713680796111506810e-02 4.599245362659252767e-01
-3.754110521541756396e-02 -1.086694775879629288e-01 5.432116135281055413e-01
-1.489877749365796367e-02 -1.220406072328645009e-01 5.464267741512177645e-01
-6.649032366247636938e-02 -1.185884571822961864e-01 5.212414222399752717e-01
-6.247782737871775821e-02 -1.085615866216668446e-01 5.311992925593901349e-01
-1.063090850532784765e-01 -1.213967620630448108e-01 4.943049844697978146e-01
-1.184866008752681610e-01 -1.149645932848861324e-01 4.917944120057664570e-01
-1.083879520774242711e-01 -1.079041067010943905e-01 4.600665163949865244e-01
-8.611846552109461705e-03 -1.227439970260666563e-01 4.899682208900198455e-01
-6.435849241531321763e-02 -9.540876868080244710e-02 4.520692039320944322e-01
-3.474953930181817752e-02 -1.184995038062130468e-01 5.412406565479230824e-01
-7.552982126115077854e-02 -8.478143166097251715e-02 4.434305001847267391e-01
-5.306368532648444991e-02 -8.587091388856912810e-02 4.477002303085881874e-01
-6.468648863101809920e-02 -8.981566864228239522e-02 4.479252999258447887e-01
-6.546783314184792535e-02 -1.204517939797104253e-01 4.995292124944097356e-01
-3.478945470296962439e-02 -1.195447621638600494e-01 4.942185656887183587e-01
-5.043710253333254234e-02 -9.951683389296589466e-02 4.583526886934065625e-01
-8.965597343112402529e-02 -1.079425112801017661e-01 4.579726663548393528e-01
-6.519405214267345872e-02 -1.115809709497180280e-01 4.726312020506768241e-01
-4.463183487197885241e-02 -1.018234633460304017e-01 4.625403899688068643e-01
-2.222573988337962422e-02 -1.225929303612153243e-01 4.971838184234661506e-01
-2.128782386722813044e-02 -1.021954583499892766e-01 4.596661686630884036e-01
-3.364646511870489354e-02 -1.195134533483718786e-01 4.936746033945267342e-01
-8.608553331173927903e-02 -1.057929473774027879e-01 4.571856755334825495e-01
-2.914542841709357249e-02 -1.180600161989064645e-01 5.471561870332047883e-01
-2.383997977694845075e-02 -1.190771043483808272e-01 4.875069066439554621e-01
-1.078179040131810040e-01 -9.199751121087340611e-02 4.549836860211020628e-01
-6.985376041554521714e-03 -1.278580853565012276e-01 5.082246831737177173e-01
-4.459545679678184743e-02 -1.184259387778101719e-01 4.923855216894701958e-01
-1.773435511700506562e-02 -1.258115857330741605e-01 5.081907436173200843e-01
-9.763502726930127495e-02 -1.222814823914339516e-01 4.685514212033253800e-01
-5.051657137565970096e-02 -1.119173385882246824e-01 4.766740259938430091e-01
-8.822467462260358273e-02 -9.081615434588924396e-02 4.467772660969276943e-01
-1.120644496363455422e-01 -1.100958907983762419e-01 4.638020190951216981e-01
-8.922990498459376640e-02 -1.197797114241565264e-01 4.740599793731103406e-01
-3.703373048444908583e-02 -1.171622034570562743e-01 5.405907760640924486e-01
-4.628230761197565241e-02 -1.211000587664759209e-01 5.231296246929650895e-01
-2.752830249585123609e-02 -1.127565893007217296e-01 4.770041977565956937e-01
-9.569407693388298775e-02 -9.778595828111084909e-02 4.505588899091068078e-01
-7.423696813772386049e-02 -1.199800437887958843e-01 5.152647866154645984e-01
-9.258859212883151224e-02 -1.030584400925044081e-01 4.541096582113494651e-01
-7.670918771036237815e-02 -1.002822556386605418e-01 4.544223204462447541e-01
-1.183936996038654349e-02 -1.256476232053908570e-01 5.001922888361637343e-01
-3.753892705026791454e-02 -1.210755771921936258e-01 5.021539554002240058e-01
-6.557683062823030373e-02 -7.792205980111754915e-02 4.412090599988983675e-01
-1.694797024326986576e-02 -1.201363428709936731e-01 4.859944434333979268e-01
-7.955434250695564424e-02 -1.200531979476407440e-01 4.889750215263043986e-01
-2.702037274390237803e-02 -1.201070828403482532e-01 5.446075095337639116e-01
-6.192730668110164871e-02 -8.650157905145884618e-02 4.463098991738136956e-01
-3.425326508724179514e-02 -1.222095264718533192e-01 5.296476352868860760e-01
-4.409766218581603198e-02 -1.126415574856034080e-01 4.785551146554827828e-01
-8.204832651404272981e-02 -1.091562273509606024e-01 4.614977913500933338e-01
-5.743809943876298368e-02 -8.212629309451359438e-02 4.448702920969918595e-01
-3.457325452653281506e-02 -8.203743964962770252e-02 4.473818404963258999e-01
-6.171561931276458440e-02 -1.025798991364317431e-01 4.594608300329843797e-01
-5.448156527503543456e-02 -8.637205752583325402e-02 4.477192308926788988e-01
-5.033413279052016687e-02 -1.207256547737242391e-01 5.066966081728391247e-01
-4.073983689733921137e-02 -1.148658868814302486e-01 4.828876050342451043e-01
-8.120542832276240672e-03 -1.196117336784394830e-01 5.493534085325670890e-01
-1.104778416810282965e-01 -9.618741992144635988e-02 4.549496015698734075e-01
-7.228253322877421783e-02 -1.211391685560327947e-01 4.990663220652792331e-01
-1.102393940556473245e-01 -1.184695163803279050e-01 4.740592112799761337e-01
-2.939154185629442792e-02 -9.441719140163291890e-02 4.556972302044970391e-01
-8.110657438021989796e-02 -1.200856837753172257e-01 4.892902120269089217e-01
-7.392187857291726560e-02 -1.215010187334396724e-01 5.053256277022818432e-01
-9.900706108498839864e-02 -1.206519376839423618e-01 4.660643259394454119e-01
-2.745728167228893291e-02 -1.165303954852015128e-01 5.507388343520071006e-01
-5.198990939291513874e-02 -1.211476312349503565e-01 5.137157289426308449e-01
-9.715129878422190321e-03 -1.251412128973851401e-01 4.977041256605994612e-01
-1.253241978301437333e-02 -1.200305287370806440e-01 4.845173600060446173e-01
-5.696383843440295386e-02 -1.088744235700823682e-01 4.697286830461648299e-01
-7.200915230898702335e-02 -1.106930495724354341e-01 5.271595355750839929e-01
-6.696251995448461447e-02 -8.730284339524296833e-02 4.458798128935734240e-01
-1.058197278928737356e-02 -9.474562802607423839e-02 5.704514165564291694e-01
-9.959842476346406070e-02 -1.222304963244212062e-01 4.869564528958133520e-01
-3.107826016921381995e-02 -1.102970007250605039e-01 4.735670486465000661e-01
-3.580882896332029247e-02 -1.156952532259175187e-01 4.845226393915916807e-01
-9.496760601952582148e-02 -1.097975688510305220e-01 4.580472925886385771e-01
-2.441675498695190794e-02 -1.244983476018922119e-01 5.123990448720110447e-01
-6.911325524450327717e-02 -1.213507156339846405e-01 5.063965018999709855e-01
-1.191729074040630276e-01 -1.071036192458200836e-01 4.688042759050746189e-01
-5.323225594119637000e-02 -1.031546231594728386e-01 4.622395560254104474e-01
-1.355008316930267701e-02 -9.842654356456254083e-02 5.679331366359119393e-01
-1.733888770529382062e-02 -1.090699706564918631e-01 5.630564206795642956e-01
-4.982154875491133506e-02 -1.036319176775017392e-01 4.637454492836161069e-01
-9.439095111438945696e-02 -8.487286587567828555e-02 4.454759936663818531e-01
-4.276085533145509293e-02 -7.674582740974898731e-02 4.449502295071479097e-01
-7.105979611518660477e-02 -9.613673603497793763e-02 4.519170260515920079e-01
-2.906425997781926854e-02 -1.186946902668739173e-01 5.461925603519345307e-01
-7.226493961426178059e-02 -1.179083259363460784e-01 4.843532331415955627e-01
-9.859559995912961505e-02 -1.035469057295569373e-01 4.546048049844046979e-01
-3.972600406847218157e-02 -1.190263886867606175e-01 4.938900589075990166e-01
-5.021193761576069059e-02 -1.169096313523099173e-01 4.874878654315258353e-01
-1.288262889078271856e-02 -1.256738755264980856e-01 5.011352248959438649e-01
-9.269711137275890578e-02 -1.194479346434346723e-01 5.095975867460152964e-01
-7.888399829480476078e-02 -1.212003023730467838e-01 5.086660945385941268e-01
-3.617089517660840303e-02 -1.131821231381590354e-01 4.793447304021728472e-01
-8.475365115199123833e-02 -1.144403697372668727e-01 4.666576455618201003e-01
-1.151879168539702084e-02 -1.256936108832474863e-01 5.323562808490747145e-01
-2.242725125925156340e-02 -1.251562488373875182e-01 5.242841879289041884e-01
-3.854746824027312224e-02 -1.220725645903495277e-01 5.220090301052049409e-01
-6.028293369733851020e-02 -1.204718736611208318e-01 5.156566322099361832e-01
