-1.629898459870788782e-02 -1.193473412027034747e-01 4.837637312918292576e-01
-7.747010523913060165e-02 -6.646337178759069431e-02 4.356971793552338879e-01
-4.224406475058159471e-02 -8.284637473859871037e-02 4.474217816132337044e-01
-5.029710218469303495e-02 -1.062196499301805847e-01 4.666033033011451336e-01
-2.699645033963667118e-02 -1.225864420816310252e-01 5.367186558449976719e-01
-2.303136562550289410e-02 -1.243906967273313152e-01 5.324608611050022366e-01
-7.047550990517913172e-02 -1.180241109759415236e-01 5.205855158472857402e-01
-1.810429957975585175e-02 -1.257405915447788458e-01 5.298768052746004598e-01
-4.754365230907126039e-02 -6.310134911484881204e-02 4.397355197865474574e-01
-2.031720547672677749e-02 -1.083166525314939871e-01 5.624023748887976293e-01
-9.315839151516186467e-02 -1.063776341556752908e-01 4.553747347233424447e-01
-2.105886304570482939e-02 -1.255445041448113586e-01 5.254463488208064303e-01
-3.240903398146682823e-02 -1.229023222273731980e-01 5.114201199426594568e-01
-6.402222463601246749e-02 -9.249431174507888320e-02 4.494273408430673467e-01
-9.716629097476059407e-02 -1.219717573026732199e-01 4.973309415177508686e-01
-5.001081074698098677e-02 -1.213526159732824239e-01 5.143863038432793244e-01
-8.768135527243679783e-02 -9.614322560604320056e-02 4.490534010374520602e-01
-2.000859795234466443e-02 -1.230284522687882798e-01 4.964550579168360844e-01
-5.991082029556112770e-02 -1.208926676690636193e-01 5.125985313686944878e-01
-1.806108708358471898e-02 -9.741020623316333504e-02 5.655237734787504911e-01
-1.056373700904783414e-01 -1.215789322817591583e-01 4.951750357537570424e-01
-5.456764360120330837e-02 -1.102149808121573038e-01 5.348031109282979090e-01
-7.694470606224232401e-02 -1.218431585576373738e-01 5.041917755433868997e-01
-3.357130998488677687e-02 -1.120916856971209963e-01 4.766374128168819335e-01
-5.712849626875955711e-02 -1.170636504555579854e-01 4.868523058781563106e-01
-4.774599855107864582e-02 -1.210349492226094614e-01 5.064212090671911248e-01
-4.524484145927769319e-02 -6.686511747904644309e-02 4.409672766589748383e-01
-6.004189452313980768e-02 -1.108391821453939413e-01 4.714131408118848454e-01
-3.389998711355771133e-02 -1.228687917470372426e-01 5.243942178835220291e-01
-6.058313582707575834e-02 -1.207848045023416361e-01 5.028372886884735493e-01
-7.032418853391450564e-02 -6.623505341822841230e-02 4.363855379063295015e-01
-2.124908918125888169e-02 -1.248423327159413065e-01 5.057594209836207000e-01
-4.113676206523878692e-02 -8.690470766369048916e-02 4.498395912524767448e-01
-7.758430751828412908e-02 -9.679801111219568654e-02 4.509218332571888199e-01
-6.962380580079235992e-02 -7.768073800495792214e-02 4.396898297907238518e-01
-2.683457977404477002e-02 -1.233573863397787462e-01 5.326040613098947940e-01
-1.181661685695500896e-01 -1.086114602925748740e-01 4.676864595980556039e-01
-5.201493161938266357e-02 -6.257186675621514982e-02 4.391209304932015001e-01
-1.211298775536393257e-01 -1.110465718367095178e-01 4.832188390842729886e-01
-9.774207449826013971e-02 -1.225786495896566408e-01 4.891890332269729913e-01
-7.757338104572804316e-02 -1.143069128030152759e-01 4.710280265501182728e-01
-5.416642642028382526e-02 -1.083878038059653270e-01 4.689108471539383260e-01
-4.449986789063840181e-02 -1.085861735663748162e-01 4.712187825976180688e-01
-5.212684354030645492e-03 -1.205999725272039746e-01 5.420050896876248414e-01
-1.076913966875761852e-01 -1.177395005516404247e-01 4.695087442462355654e-01
-5.838343409599718037e-02 -6.165228981371972949e-02 4.381684841206574532e-01
-5.158413669115059080e-02 -7.584903954008104243e-02 4.433279136049851910e-01
-1.193719662854641345e-02 -1.220550220072833675e-01 5.451159702892347525e-01
-4.934066163056517046e-02 -6.095704037901925748e-02 4.390542980891086189e-01
-1.081471926532480421e-01 -1.065993849649385511e-01 4.578993367251233959e-01
-4.125686101150991686e-02 -1.217427907577874474e-01 5.250190738442577221e-01
-2.229724482939537608e-02 -1.147725723655805552e-01 5.561305257708131222e-01
-8.158403694764879144e-02 -8.307019096511203404e-02 4.417431234710728627e-01
-6.685252087868445714e-02 -1.163552177371375146e-01 4.816557543001398489e-01
-8.913872260078842258e-02 -1.201698191968711693e-01 4.711499126208095745e-01
-1.837221036863008472e-02 -1.139782886403899881e-01 4.743148285371814321e-01
-1.864926532287589089e-02 -1.220403400809569466e-01 4.920251208518510166e-01
-6.476550398525743324e-02 -1.210193350454139699e-01 5.131608940896661419e-01
-2.325598210267769070e-02 -1.158507851244689885e-01 4.802168632065443310e-01
-4.440173681924750732e-02 -1.120163975752717506e-01 4.769730991415373489e-01
-5.192579254582224690e-02 -1.151223551059715466e-01 4.822092947349583270e-01
-3.698473335731921469e-02 -1.221223915257313025e-01 5.267825298422098568e-01
-2.039430739167396450e-02 -1.207572853291999787e-01 5.472581239409015641e-01
-5.790493769567550686e-02 -1.084630073684987317e-01 4.681187000922091834e-01
-5.253398614141083223e-02 -1.179551078248228246e-01 4.906270107262369895e-01
-4.964426810940231194e-02 -7.084200917053393165e-02 4.418778178327192330e-01
-2.833346361122283594e-02 -1.160895129170187723e-01 4.835791309021607032e-01
-3.350938764708680934e-02 -1.031761234913440156e-01 4.641755570352664173e-01
-4.528094588683193727e-02 -1.126207360904881855e-01 5.379790430198609918e-01
-4.046679774587856604e-02 -1.162157852622109772e-01 5.391341170356203083e-01
-7.946164353495278887e-02 -1.148975990847198175e-01 4.707938625435980629e-01
-4.179398822120727885e-02 -1.182040239067325138e-01 4.908414644111935843e-01
-8.235174072836416725e-02 -1.215967367019290396e-01 5.070217322605624632e-01
-5.188088153596296520e-02 -1.068459280328163674e-01 4.670867697561541521e-01
-7.744907254602108326e-02 -9.908892414106107438e-02 4.526526045907942053e-01
-6.102930112538544616e-02 -1.113832590962243463e-01 4.722821475618126930e-01
-1.035960613478595499e-01 -1.142338741568148380e-01 4.635392453634994969e-01
-7.376490921749653817e-02 -9.662194827328589308e-02 4.513706127136630775e-01
-3.923365651915410035e-02 -9.868829559563742360e-02 4.595535906407618998e-01
-2.953963163226647204e-02 -1.159919249211727454e-01 4.840283656611510388e-01
-9.100454265613422411e-02 -1.176844204138906974e-01 4.610334296356917716e-01
-8.871842578031318566e-03 -9.621983698467824475e-02 5.698532770292416005e-01
-5.634960127037765693e-02 -1.120408243965051315e-01 4.750426429647802706e-01
-3.191607393438614104e-02 -9.721465994953081002e-02 4.584104660040773105e-01
-9.869763430033616503e-02 -1.226251070554065931e-01 4.891865552368626635e-01
-9.464992620513940080e-02 -9.409554054582486282e-02 4.481387777345796075e-01
-5.693705928695894786e-02 -1.211587768978469593e-01 5.102729082893935342e-01
-4.495804913637770073e-02 -1.215050039064284326e-01 5.187036521877322892e-01
-4.259200152860541377e-02 -9.435708301899617401e-02 4.554557354770416011e-01
-7.730480747759013727e-02 -1.139986715214288959e-01 5.240478113152569062e-01
-3.029301252287342622e-02 -1.193967956039944794e-01 4.913724890220724228e-01
-2.634230521407059794e-02 -1.100072911573501400e-01 5.553640993434290074e-01
-9.259869496727274329e-02 -1.212199455300225492e-01 4.714593830707958788e-01
-2.632077532268240622e-02 -9.726391282895681389e-02 4.567827451658513782e-01
-1.145741866712705025e-02 -1.031560508261575720e-01 5.668183058778232253e-01
-8.324603966239911557e-02 -8.599701266637869990e-02 4.434472224922458850e-01
-2.439151040414691204e-02 -1.169791184316823912e-01 5.523645207018221814e-01
-2.436336143952576652e-02 -1.067423254238221014e-01 4.666452414066521448e-01
-8.424279896145750457e-02 -7.058209478153724958e-02 4.385331492713117618e-01
-5.643419288859642148e-03 -1.275282355123777134e-01 5.290095244089663140e-01
-6.062309688062037655e-02 -7.835609063053618206e-02 4.422187002211941387e-01
-1.038367454623682767e-01 -1.003777990294821704e-01 4.524465428788242982e-01
-4.658732093255096851e-02 -1.084608487901550095e-01 5.393680209848764617e-01
-5.162668389376696976e-02 -1.171133753628811058e-01 5.315360692042878643e-01
-8.825150040111737204e-02 -1.198848355421672091e-01 4.756366672429999110e-01
-9.146109520354413214e-02 -1.101688838961077804e-01 4.581010833256685677e-01
-3.766150527762129885e-02 -1.223244542182122391e-01 5.198434285991931914e-01
-4.516180930964347473e-02 -6.255333813790829589e-02 4.397984751644175572e-01
-1.199148995840415705e-01 -1.160536591622331748e-01 4.823381770235409260e-01
-3.636381246178733290e-02 -1.149036962768375802e-01 4.824164351680140794e-01
-6.836397733120819220e-02 -1.169040138956770614e-01 4.824319310669613614e-01
-9.181456182244368547e-02 -7.624017626065780762e-02 4.455007571366730312e-01
-4.260566326233915929e-02 -1.150234364566351253e-01 5.384466213457642647e-01
-6.895797115690770196e-02 -1.094696274419761084e-01 5.280310073699959750e-01
-2.168477062282526957e-02 -1.254555529503981193e-01 5.203516208474668892e-01
-6.431453838014011826e-02 -1.162130669517366238e-01 5.257932625729238030e-01
-6.075769529892011134e-02 -1.022768008987510052e-01 4.586815171224778442e-01
-5.001262510141342432e-02 -1.164117741651467808e-01 5.333400404083333823e-01
-3.359642394276956406e-02 -8.061772539825043382e-02 4.461845358637805958e-01
-3.293588158325045506e-02 -1.201229797251561482e-01 5.399564783378177912e-01
-4.918966503572591575e-02 -9.123454521366586301e-02 4.513799006370239897e-01
-1.746812991415985089e-02 -1.245487663898553060e-01 5.004528648321220352e-01
-4.852230225032376498e-02 -9.593974071354988142e-02 4.553228468064207668e-01
-3.047686226228243575e-02 -1.144107200512111400e-01 4.810005967565727514e-01
-8.655918849923988079e-02 -1.107795041972262640e-01 5.190552060309758797e-01
-5.649174868805275501e-02 -1.165557016488247555e-01 5.298020955502428242e-01
-3.505693741453268231e-02 -1.108364349982679797e-01 4.744806189583433143e-01
-1.067607299387851871e-01 -1.200180695430368150e-01 4.742991826158485802e-01
-9.687568903672881537e-02 -1.173222663633307905e-01 4.611975261341929588e-01
-1.814141699739435509e-02 -1.252990604969420607e-01 5.320722998862171815e-01
-3.036528515905890374e-02 -1.162587118246374979e-01 5.475840426796781957e-01
-6.353794890503365600e-02 -1.211546059011655019e-01 5.045513898844026235e-01
-3.175972419245273043e-02 -1.227718010904908785e-01 5.081278173692780342e-01
-5.268385190845838173e-02 -1.209995214327290181e-01 5.182728487951020480e-01
-6.904101316752371022e-03 -1.240086345875606733e-01 4.928704944057494264e-01
-1.067099137726519320e-01 -1.183648402948470624e-01 4.701998725345910568e-01
-9.663662519841322712e-03 -1.202048219015074831e-01 5.488518511674851386e-01
-3.647905418523000876e-02 -1.202742730400515603e-01 4.969537371203319176e-01
-8.517272957510037268e-02 -1.152705623265094237e-01 5.179171651204371729e-01
-9.847362610488703816e-02 -1.021292028320747447e-01 4.528712975986592393e-01
-4.153872168571170337e-02 -1.202017636062938516e-01 4.986487319176322042e-01
-5.427098012302820906e-02 -1.209439712753886537e-01 5.177765578255493217e-01
-1.016273312329484813e-01 -1.107635656785591755e-01 4.591747487643977332e-01
-8.553883974457884842e-02 -1.144472283113866506e-01 4.636592565135342348e-01
-1.245421219186804151e-02 -1.245440646962415188e-01 4.965037378205190421e-01
-2.280793406800694229e-02 -1.073760755598126004e-01 4.667862447989009067e-01
-1.163372307902565961e-01 -1.133560688350753881e-01 4.957660125999822642e-01
-8.901517943019321422e-02 -8.193814440899965801e-02 4.427192824173942776e-01
-1.021581513094410310e-01 -1.205608139271640844e-01 5.004317520413964493e-01
-6.875711647753370015e-02 -5.485930421432186344e-02 4.376769036674179048e-01
-2.639371495077897853e-02 -1.075402206502874825e-01 5.558725519513756375e-01
-4.660295283158716328e-02 -1.213356794046989290e-01 5.187212908058811411e-01
-3.222276442690435311e-02 -1.116863148280822227e-01 4.758326825687905215e-01
-1.307234090812459809e-02 -1.255022604900471739e-01 5.002374860667004874e-01
-1.206898144684204061e-01 -1.111823945920037277e-01 4.790441300201501162e-01
-6.518626613556996463e-02 -1.187760336285835078e-01 4.898297193988308540e-01
-6.742822579466546673e-03 -1.258535978876111350e-01 5.324566520186154728e-01
-2.871917861719820719e-02 -1.233521986941749221e-01 5.300290188366897359e-01
-3.345821486261171818e-02 -1.227596251432965108e-01 5.128631434396998534e-01
-6.660753389260280766e-02 -1.089469125906357971e-01 4.665730399839076448e-01
-4.569967178305080896e-02 -1.173301769974663400e-01 4.885073238931010864e-01
-8.600651707848734617e-02 -1.016711017376309839e-01 4.531016945439888532e-01
-1.016852187759474113e-01 -1.180936993368076199e-01 5.057572652145904124e-01
-6.164965255213726569e-02 -1.013315033649386382e-01 4.575132923419120701e-01
-1.195496104266480404e-02 -1.255981164899719893e-01 5.325591809704710577e-01
-9.082279611922763896e-02 -1.205588949181504860e-01 4.726860893720141177e-01
-1.151003101622626590e-01 -1.205268654537594436e-01 4.894416330710233964e-01
-2.553040013052690696e-02 -1.244545870606339338e-01 5.174420904535881327e-01
-6.784802295808523009e-02 -1.180369887023040854e-01 4.858568546983786374e-01
-1.416647776067084252e-02 -9.886556428432477506e-02 5.673463686829128827e-01
-1.058887678307091074e-01 -1.139884858621766223e-01 4.639447251225037872e-01
-4.982188155543497421e-02 -1.017462382692245343e-01 4.607523200436648980e-01
-7.643841753241874259e-02 -1.165668739759726097e-01 4.764452256360908744e-01
-9.968913335103349316e-02 -9.420523253660892382e-02 4.489016995923852393e-01
-6.350715100733742013e-02 -1.003955352539933343e-01 4.562272900980539614e-01
-1.060474409802417833e-01 -9.533493991234714970e-02 4.520740593070424751e-01
-9.061309691070498773e-02 -9.793047257813657092e-02 4.500108261106143259e-01
-8.200301004025301044e-02 -6.922698045510990161e-02 4.378517730243171591e-01
-9.500126890256468948e-02 -1.122828979511886482e-01 4.585367752705241662e-01
-1.117074876765573738e-01 -9.951011972571449649e-02 4.558492873024095893e-01
-8.949192203831440873e-02 -1.020841066729702568e-01 4.528961098694670451e-01
-3.536837613371395656e-02 -1.160343053599805357e-01 4.847418293759667152e-01
-7.672554055229434400e-02 -1.038950329001055994e-01 4.571944346874773912e-01
-7.977960759587521267e-02 -9.964465941359476608e-02 4.527079372222272968e-01
-1.031429042794182599e-01 -1.020637137826304747e-01 4.531555060111563948e-01
-1.077301421604114212e-01 -1.144159694761508056e-01 5.025511034768964658e-01
-7.259306030710906132e-02 -1.169975140712489758e-01 5.219013343971841135e-01
-8.398479005861538005e-02 -7.988938551421197187e-02 4.408240846050900941e-01
-2.606044191314838693e-02 -1.187219686779921041e-01 5.483300891774534058e-01
-5.172666752387453104e-02 -1.163446629126660553e-01 4.850792350646763174e-01
-6.583277475643564691e-02 -6.328689691928887640e-02 4.368294788647671956e-01
-2.315530931849074311e-02 -1.067804794026988163e-01 4.661561582589345831e-01
-4.756961123422928650e-02 -1.211782781408406034e-01 5.091654571880283031e-01
-7.218710904507820436e-02 -1.173726982487892923e-01 5.213095358216297548e-01
-5.425947563345209085e-02 -1.056534267618850775e-01 4.647780287465434479e-01
-1.425676858495960805e-02 -1.271086795408535031e-01 5.161500419988542809e-01
-7.876062916507696465e-02 -8.285602887946871831e-02 4.414915731496286133e-01
-4.394752772078436981e-02 -9.611573406026542588e-02 4.566061209048186686e-01
-7.131101654444214899e-02 -5.919447928936390907e-02 4.361149746875273570e-01
-4.765370341371273633e-02 -7.275637128577726320e-02 4.427141322793795020e-01
-6.027957200173644781e-02 -1.075472117623406804e-01 4.660074019550601854e-01
-2.843265229644914224e-02 -1.131195170309093334e-01 4.777600955911039393e-01
-7.756815786614652819e-02 -9.626417992284391767e-02 4.505478633823070123e-01
-6.517712854248922105e-02 -6.779823630882580998e-02 4.378450738441986845e-01
-5.997227861031754342e-02 -7.645297652189399218e-02 4.417713070527647945e-01
-3.469636162440617455e-02 -1.184922602602212910e-01 5.412939947836966637e-01
-3.491370076056211219e-02 -9.015636736471283053e-02 4.528507169159073364e-01
-9.100959715739101452e-02 -1.143767181667830618e-01 5.147084960888053118e-01
-1.169087812765524925e-02 -1.260448628546830541e-01 5.014223784498746950e-01
-8.856294853616972218e-02 -8.100502914649596042e-02 4.423643647434509218e-01
-4.778088594772820358e-02 -1.213868946096008233e-01 5.127152051099754804e-01
-1.263263297672703733e-02 -1.227334691635308950e-01 4.904549058470280554e-01
-1.181486105799365305e-01 -1.018839234301043561e-01 4.668305700393298729e-01
-5.388884041687668630e-02 -1.081223732465377008e-01 4.685351743924270340e-01
-3.703266656365665488e-02 -1.213968177541501631e-01 5.031582302735631007e-01
-8.060043307600037177e-02 -1.220217215031879909e-01 5.022741691654197815e-01
-4.985444164606400025e-02 -1.150464847581848804e-01 5.344141080126317833e-01
-6.442386913739667209e-02 -8.307265039941490181e-02 4.433279523039903580e-01
-7.892087320698791542e-02 -8.629491978842980526e-02 4.436162870853450624e-01
-6.842929303270721408e-02 -1.192575981435492621e-01 4.895496332502276005e-01
-5.371779382113494455e-02 -9.658851954208245993e-02 4.546115690449801239e-01
-5.023918304757999526e-02 -1.212114471378627351e-01 5.165859474627099157e-01
-8.829611448970786647e-02 -1.191929264648908943e-01 5.114144568209342268e-01
-1.891912458546852333e-02 -1.259733037442834769e-01 5.150369591996651897e-01
-7.492080365594973312e-02 -9.674676421816127969e-02 4.512852311440559983e-01
-7.589663362772391952e-02 -1.212482089453284922e-01 4.944926682396590389e-01
-7.747048015562323087e-02 -6.400655133012131404e-02 4.357505629788246404e-01
-8.527338769119691131e-02 -9.546884865276428211e-02 4.489164377512994686e-01
-4.487567314912545291e-02 -8.813731220630510732e-02 4.501133822380276039e-01
-7.196163905191586829e-02 -1.067718345939862590e-01 4.616160497710913857e-01
-9.470326193285960592e-02 -1.201087764641103894e-01 4.625925153327283823e-01
-6.368007730797727028e-02 -7.177855694699898648e-02 4.393562308669456407e-01
-2.562089842588880992e-02 -1.163120031007197075e-01 4.826946558813918209e-01
-2.958336323968888820e-02 -1.190882796181554210e-01 5.448664326535630487e-01
-8.875952907985500476e-03 -1.265118889956498294e-01 5.019001506085732922e-01
-5.853198956050016666e-02 -1.192703091727338044e-01 4.950653917844528018e-01
-8.470993940209030348e-02 -1.178882426899979102e-01 4.711023287213981781e-01
-1.943228848460158698e-02 -1.000204099911570221e-01 5.644087533803925361e-01
-2.470170831628904981e-02 -9.592562751793090592e-02 4.552567388083526567e-01
-1.066833087777009983e-02 -1.209265964575559904e-01 5.475042439971862240e-01
-1.190890510803140623e-01 -1.094150435403229427e-01 4.692648987441372377e-01
-2.398125878646650139e-02 -1.078975485623954733e-01 4.681330530971064552e-01
-9.946845568978628094e-02 -1.211305355085869201e-01 4.658795036262090017e-01
-6.232405171054958282e-02 -5.677762265167457523e-02 4.367107770772300501e-01
-1.005573745348581627e-01 -1.145429072935364306e-01 5.094060503885565749e-01
-1.141397336354899039e-01 -1.192224194318558805e-01 4.763331092728568805e-01
-8.451334763614637424e-02 -1.095952103472985911e-01 4.601214667241885214e-01
-1.435080393992390832e-02 -1.269833327975862514e-01 5.136183856888677512e-01
-3.213685538500630351e-02 -9.368062482360296761e-02 4.554427165907605768e-01
-6.758640953040041810e-02 -9.637545741838693392e-02 4.518992036513020394e-01
-8.042414046543838735e-02 -1.152884374368439713e-01 4.704618455991785297e-01
-9.948586741428644409e-02 -1.226295008050581475e-01 4.898729831387292344e-01
-2.710563640449542566e-02 -1.137629554286809092e-01 4.784558877017711653e-01
-6.015138916674358377e-02 -1.116339535190345039e-01 4.730678085995501658e-01
-8.288450924695173194e-02 -9.151099305058756073e-02 4.466519208888594661e-01
-2.539549855592180411e-02 -1.182389067386290793e-01 5.496337456696045454e-01
-9.949137224934853987e-03 -1.280784334631241694e-01 5.177633961289093145e-01
-6.853635733958483855e-02 -1.211592312519879783e-01 5.007544446628162671e-01
-8.972617609516335413e-02 -9.440702726063529560e-02 4.480391608423707206e-01
-9.482299110304201473e-02 -1.193815527830102141e-01 5.096199668375770431e-01
-6.921291088848584294e-02 -7.532495157016216858e-02 4.390640668002680491e-01
-7.251623314075565652e-02 -1.050836229489405527e-01 4.594270338260404984e-01
-9.904107780068498179e-02 -1.196887760128014788e-01 5.072352157144646156e-01
-1.028554835846025167e-01 -8.954905186336220568e-02 4.497336208022404413e-01
-8.587294421745120254e-02 -7.403941958630448628e-02 4.401192350912485618e-01
-1.115052926467710592e-01 -1.202149664743006746e-01 4.782544029368634986e-01
-1.892434754332716559e-02 -1.213957148184983403e-01 4.903809798264825992e-01
-1.013999395600155284e-01 -1.151909325030787135e-01 4.632193756629628401e-01
-4.523221075221538906e-02 -1.155444359697425927e-01 4.837355746587277405e-01
-3.192579464953428092e-02 -9.543070223125173224e-02 4.568698996125046818e-01
-1.036935260330469760e-01 -1.180644531394860891e-01 5.031583636927913217e-01
-6.132718648489026564e-02 -1.209722517139438097e-01 5.048940707979688858e-01
-2.757584095724627607e-02 -9.614622780437884209e-02 4.562828009995071876e-01
-5.281812729921375044e-02 -5.837605957252627736e-02 4.382926907297501340e-01
-3.543399398160299030e-02 -1.175793021499597496e-01 4.880887314237202790e-01
-8.980056173362030436e-02 -7.688255157141950236e-02 4.432314783286718796e-01
-4.413052092952359645e-02 -1.208019113570276970e-01 5.303633055237941818e-01
-1.035695869269482594e-01 -1.156522233267506666e-01 5.055825824026844995e-01
-8.406242652472267762e-02 -1.220082560904716396e-01 4.970278731781510584e-01
-8.592318127624556934e-02 -8.046364792299792734e-02 4.414479925284992001e-01
-7.431176840073534795e-02 -1.168618990222891757e-01 5.216880534400908376e-01
-3.055002376241667747e-02 -1.110754596884944573e-01 5.495660340479439077e-01
-4.267795210022100327e-02 -1.216633914880656253e-01 5.112067137867516431e-01
-9.042582536938452431e-02 -1.010356112185216287e-01 4.520806335305318502e-01
-9.653604527422757209e-02 -1.226025903742612305e-01 4.883667166818581040e-01
-3.951980828516344496e-02 -9.372719055397325805e-02 4.553349045662763994e-01
-7.879986595736965249e-03 -1.282271253312624315e-01 5.242314584032642388e-01
-7.619893518119444376e-02 -7.415589631374831792e-02 4.378148152045157615e-01
-3.431361584743078397e-02 -1.161976611761746381e-01 4.850274841816822891e-01
-9.907101508976214055e-02 -1.223798629989449466e-01 4.824552563511404490e-01
-9.568850817201421388e-02 -1.041310951634063231e-01 4.538526266966609879e-01
-1.092676705377100127e-01 -1.218013364819932193e-01 4.884219525841033138e-01
-3.369742069418906610e-02 -8.719748649082856296e-02 4.505418529885678591e-01
-2.902700076070533625e-02 -1.223717599928067917e-01 5.017821004739414503e-01
-1.047911604019159809e-01 -1.221965155952917798e-01 4.939660707178835097e-01
-1.021895467724301815e-01 -1.009226577831262711e-01 4.523756966911056665e-01
-3.636687013665243495e-02 -8.277806959377791152e-02 4.477132311454657398e-01
-1.112784434631429176e-01 -1.202867048960181012e-01 4.783707510754016123e-01
-2.159745110919742209e-02 -9.947672991863040770e-02 5.629992653452655649e-01
-3.050568184192284024e-02 -1.233697874577055487e-01 5.154369268471349352e-01
-5.224320519251468564e-02 -1.180877342371093736e-01 4.911995710772139589e-01
-8.870785640611997258e-02 -1.083465951798601029e-01 4.577480299849915335e-01
-2.793858328627364662e-02 -1.201717220135313791e-01 4.926055326785844235e-01
-1.020004074147555645e-01 -8.438947657529614899e-02 4.526561416141398064e-01
-4.608796773191314866e-02 -9.145572557250949974e-02 4.522692091604176845e-01
-1.150027698742552840e-01 -9.753453895918577643e-02 4.613065981114482517e-01
-1.267386130973039392e-02 -1.161265538604168146e-01 5.569063433204292091e-01
-7.864017856671881579e-02 -1.128943045375307014e-01 5.242871396654495975e-01
-7.896813538101342400e-02 -8.224889066670143523e-02 4.412095707308862358e-01
-4.391020201520962063e-02 -1.127050821804982950e-01 4.781390484433666876e-01
-5.601975281889491620e-02 -7.255762767460226248e-02 4.414916123569647133e-01
-7.745398194485265952e-02 -1.213031387655435361e-01 5.103684817098903537e-01
-8.381886161244503364e-02 -1.117949837397591017e-01 4.628313027141364722e-01
-5.829482162726773442e-02 -5.584294281266087567e-02 4.372044534139535865e-01
-7.995979041623195449e-02 -1.213066464097697361e-01 4.926264413368769968e-01
-9.637842832165076368e-02 -1.201363428897421898e-01 4.632528472739521064e-01
-5.043549344853353461e-02 -8.398948231043683321e-02 4.467422178675604094e-01
-4.383472484874843117e-02 -1.206236848296987213e-01 5.018103460146495776e-01
-4.479138892589520221e-02 -1.058812629101391484e-01 4.671468483696120111e-01
-2.571069239207812024e-02 -1.171606837852918886e-01 4.844222658905911749e-01
-1.991497918279820992e-02 -1.004335383691370570e-01 5.641271910498211195e-01
-7.280632435526342844e-03 -1.240195403656840500e-01 4.929852795425894163e-01
-4.605942724296151203e-02 -8.176261281907808154e-02 4.464058305128760784e-01
-4.679540063188679377e-02 -8.431631466829951627e-02 4.475721928109844816e-01
-5.729192212476304918e-02 -8.145601224616022540e-02 4.442404544402813182e-01
-9.812385544773663537e-02 -9.589792982094216822e-02 4.492819841683285964e-01
-1.743678288973601540e-02 -1.185757028318212558e-01 4.824747519681312768e-01
-8.728369503857104361e-02 -1.211468180055829680e-01 4.868486760580053030e-01
-8.129693036533329475e-02 -1.197231537069622237e-01 5.150358842724026553e-01
-5.864638232993706068e-02 -1.203297760482141127e-01 5.194904758069017747e-01
-1.039993857376985686e-01 -9.263487709249174085e-02 4.503536293207137109e-01
-9.121781918586886750e-02 -1.176876300825497601e-01 4.605320564780682746e-01
-1.365435192011991115e-02 -1.265488202567856268e-01 5.272899539374246158e-01
-1.820705037154134523e-02 -1.095500713350730099e-01 4.675329002486194319e-01
-4.727783942787404381e-02 -9.846188164806127241e-02 4.578339962442167232e-01
-9.064079887956356940e-02 -1.018969260546701006e-01 4.526379650301546320e-01
-6.900572876332132510e-03 -1.226011115391101997e-01 5.402076884384664490e-01
-7.504367859569870125e-02 -8.458710868600310961e-02 4.428006379794492964e-01
-4.599689751382089742e-02 -1.205512981805701433e-01 5.025495164037223628e-01
-6.586400565288599851e-02 -1.077300499229016939e-01 4.647292086827354285e-01
-4.274565244837769812e-02 -1.068748303480195477e-01 4.685466040221151207e-01
-4.100498140523636120e-02 -1.146099585959184375e-01 5.397982366335976057e-01
-2.772825848318839423e-02 -1.054448575452013870e-01 5.545604853616520336e-01
-1.379553128629573688e-02 -1.163803025702305621e-01 4.765837871947994908e-01
-3.841665616175237580e-02 -1.128777159789448176e-01 4.783718345466874688e-01
-1.048728047817786696e-01 -1.218565991933974746e-01 4.949756659759732558e-01
-2.917967911755853239e-02 -1.190584971155863175e-01 4.902332381674830986e-01
-1.970668113264561344e-02 -1.086329618215943899e-01 4.668414157921074170e-01
-1.213946137829584326e-01 -1.103612867810113696e-01 4.756058547041632778e-01
-1.193739069268378028e-01 -1.162456290841631518e-01 4.810689761498604944e-01
-2.509766703323897813e-02 -1.128124075650425578e-01 5.558919177729245709e-01
-4.361697602121665518e-02 -5.846992509983057335e-02 4.390130094769048030e-01
-1.464743765037479148e-02 -1.146977484761989574e-01 5.585310336143309851e-01
-5.898088577041233488e-02 -1.123889656456519975e-01 4.750566020554385926e-01
-7.909744440629574991e-02 -6.234565079032676482e-02 4.370948932042524326e-01
-1.594719956488028362e-02 -1.183170135916936233e-01 4.814465551847951219e-01
-9.298858187537558523e-03 -1.268591820700533668e-01 5.294342959630985446e-01
-8.628414655874355743e-02 -1.217790699143985744e-01 5.038976344842194255e-01
-3.451787436617959753e-02 -1.183969871414555092e-01 4.902691276802156883e-01
-7.208126485450590260e-02 -9.908421293181954304e-02 4.535888960496281541e-01
-6.703577767283967759e-02 -1.131684998242648427e-01 4.743543751273907594e-01
-3.993118042395035067e-02 -1.220801223770119487e-01 5.150236358200636078e-01
-6.278839640552978663e-02 -1.152007330718713002e-01 5.280508218745098015e-01
-6.737369131080347961e-02 -1.139068504059820297e-01 4.757434320807070183e-01
-4.515950977916306092e-02 -7.257497610825143497e-02 4.428544277105421756e-01
-1.150158619094844847e-01 -1.135463815048867869e-01 4.973659127755287179e-01
-1.122931408215030180e-01 -1.012407368555985343e-01 4.569139483565082260e-01
-6.315501567090320290e-02 -8.928406837091915071e-02 4.472770948716701667e-01
-8.955987184687518032e-02 -1.219316434359874468e-01 5.005982418329797401e-01
-6.921578693377694602e-02 -5.554341234021910323e-02 4.374486692265356358e-01
-1.141525648740829291e-01 -1.150518073529910312e-01 4.694099408684997976e-01
-9.209747339365574603e-02 -1.218119282460143199e-01 5.014667567791095681e-01
-1.678405423764738405e-02 -1.097954197641014956e-01 4.674158512704539858e-01
-2.898410755074390735e-02 -1.181709805273904040e-01 5.471600887785530443e-01
-4.322258392867628363e-02 -1.216693044019748343e-01 5.127512247218736219e-01
-6.685377886351037691e-02 -9.208607058675959134e-02 4.486859911815174740e-01
-4.794143887877458377e-02 -9.234092962133258475e-02 4.524906813311516118e-01
-5.710188838005610806e-02 -1.208560632590311851e-01 5.064669171492247601e-01
-4.279039769704434670e-02 -1.144290861162581691e-01 5.386345323311578781e-01
-4.592702814790931842e-02 -1.102222501302686231e-01 4.738071804588320779e-01
-5.004636185156055572e-02 -8.039732507824803864e-02 4.452842838446908758e-01
-5.968792714660631216e-02 -1.163279841674408899e-01 5.289279039384541248e-01
-1.010279341500127347e-02 -1.253281072040094146e-01 5.336298472017052541e-01
-5.646151727799433861e-02 -1.184517089186515465e-01 5.264525884248300036e-01
-1.051365200334044708e-01 -1.021623887832638217e-01 4.536175957920068336e-01
-4.531661842754318437e-02 -1.172809873190948649e-01 5.354885346745269503e-01
-6.478119191677889077e-02 -1.210778966230055126e-01 5.125125634755153259e-01
-6.895673205619888557e-02 -1.055763369232203680e-01 4.607738595130929649e-01
-5.752513294002515459e-02 -5.830733365754346698e-02 4.377136065367185358e-01
-3.817493766690682744e-02 -1.086849707539658400e-01 5.426314346858236437e-01
-3.424580628083009892e-02 -1.071464449908636346e-01 5.458030144723978738e-01
-5.818663236238649089e-02 -7.243541905154431138e-02 4.410230145723276762e-01
-7.479594716163412427e-02 -9.423363600208521651e-02 4.494195039087890975e-01
-2.678776748443166891e-02 -1.151091896584061081e-01 4.809140003552122566e-01
-3.804729163540127024e-02 -1.198088303379558073e-01 5.374039489069424302e-01
-9.033926091867541808e-02 -1.218779222578929566e-01 4.884389517935341929e-01
-9.777940280547527119e-02 -8.906094209646536752e-02 4.479915989835876466e-01
-9.439378898707485865e-02 -1.137045908442307074e-01 4.591436290816944821e-01
-3.067795694531722656e-02 -1.039416216712198276e-01 4.646383312297723833e-01
-6.209069397141500635e-02 -1.174611713845751804e-01 4.867752936820756160e-01
-7.569562646040187137e-02 -6.755650517991172721e-02 4.360995779220450119e-01
-7.001851713464606053e-02 -1.085075289032804702e-01 4.646974103087329055e-01
-1.640634722239130150e-02 -1.266484646684589155e-01 5.179138686340765130e-01
-9.445457333144323397e-02 -1.219145990636149313e-01 4.697172037507648668e-01
-7.702877713535427606e-02 -6.729094699011826941e-02 4.360043999949324567e-01
-1.094127426132136469e-02 -1.276275560625306227e-01 5.119881321056134471e-01
-1.143769436921917848e-01 -1.138599470048747148e-01 4.681751188609333258e-01
-1.703082709475151058e-02 -1.167653350523635003e-01 4.785438440980465113e-01
-3.131494702273882047e-02 -1.224496912544817268e-01 5.046445189063067938e-01
-4.643461011504592534e-02 -7.817488462369949487e-02 4.448477907577507717e-01
-9.442330881651129354e-03 -1.278244994248562139e-01 5.110445718109920543e-01
-1.786320323446802943e-02 -1.038497236133992530e-01 5.647360389726269192e-01
-2.919076070394256706e-02 -1.224611872122604861e-01 5.024048195340957701e-01
-2.741938385211820789e-02 -1.037243671864056804e-01 4.635997721919281611e-01
-2.089702194657101081e-02 -1.251374327731763769e-01 5.083174597947783813e-01
-1.133324685730699860e-01 -1.010577230264895904e-01 4.579570209424445038e-01
-2.620414258303287516e-02 -9.381417487313256642e-02 4.541362966330834139e-01
-4.496771833631684617e-02 -1.181909994814327319e-01 5.350207112353623229e-01
-1.008799940091163749e-01 -9.936639968347252272e-02 4.513738272180716216e-01
-7.550293531550611448e-02 -7.928660388582768614e-02 4.394623079186273373e-01
-4.421301660684688606e-02 -1.206749507293113088e-01 5.309804000305549110e-01
-1.057915057871597342e-01 -1.176172024453495252e-01 4.679779372385229341e-01
-3.086374328058625466e-02 -1.232555625491003198e-01 5.138452565799928040e-01
-1.082280925807907745e-01 -1.218488037487252262e-01 4.921279670440421028e-01
-6.836366354262542189e-02 -7.561665402035623595e-02 4.393446827302679991e-01
-1.037692071920241071e-01 -1.152283338860347617e-01 4.646256608437159263e-01
-3.260213178617759472e-02 -1.100914976084207686e-01 4.729677955617790364e-01
-1.090213342940525403e-02 -1.246186434981240154e-01 4.959677184705739150e-01
-2.909837253763083303e-02 -1.237389824883362022e-01 5.224538968043436205e-01
-4.910743711059890187e-02 -1.199035243788841437e-01 5.273482230235777557e-01
-8.886792926284237115e-02 -1.219453333463550587e-01 5.005360214248893991e-01
-3.707330447555537423e-02 -1.190134757291200635e-01 4.925519124246911518e-01
-8.550228759250499966e-02 -1.124153091430031975e-01 5.191481666697729258e-01
-1.606620757745626585e-02 -1.258027010393347467e-01 5.302776764948029520e-01
-6.590990808345259522e-02 -1.124221509298903854e-01 5.282542134119726507e-01
-2.228006997962046071e-02 -1.101515114574102144e-01 4.704460039603156618e-01
-7.118032380004696291e-02 -1.216089570613659715e-01 5.030711242745848910e-01
-6.835692997892468814e-02 -9.600187453035442797e-02 4.515236415630039524e-01
-8.894236520897157161e-02 -1.176529630463828413e-01 4.662910450237663929e-01
-8.548646516729739575e-02 -1.060607783979451990e-01 4.567177749293003242e-01
-1.322543575066757564e-02 -1.053045135601404642e-01 5.654431981881541391e-01
-6.493042301998276644e-02 -1.074401015902906459e-01 4.645048280533480289e-01
-1.004287019445523205e-01 -1.165236786479383335e-01 5.086036222593536271e-01
-2.974195867900814721e-02 -9.893605212427340756e-02 4.593728978429716392e-01
-8.928017478050366551e-02 -1.217115728921747547e-01 5.033603232281363971e-01
-6.239373633290892784e-02 -8.404573956058213058e-02 4.442855569066568866e-01
-1.057690451387160169e-01 -1.187501213416537055e-01 5.008589519782112864e-01
-3.271480679645578926e-02 -9.716892650679918864e-02 4.584705214605446777e-01
-8.352801557347855343e-02 -7.439712021385019858e-02 4.384185485653290248e-01
-9.191196574355949001e-02 -1.193266766813322471e-01 4.655933405498663968e-01
-1.175392347099531304e-01 -1.183788748327238155e-01 4.893127778435196196e-01
-5.390720651191202584e-02 -6.110813162711849211e-02 4.386296819461776297e-01
-6.662524052673129971e-02 -7.312549442427512814e-02 4.390164578029804310e-01
-8.516844985242340293e-02 -1.085956257928895607e-01 4.590683011280611292e-01
-3.890637296387249033e-02 -1.139692678216732424e-01 4.804893203424344672e-01
-1.075083570090286655e-01 -1.166363917769843855e-01 4.676669368988514708e-01
-9.072248250105639789e-02 -1.113469050329977533e-01 5.167220003925908633e-01
-7.673935431167577814e-02 -1.218994989745740970e-01 5.007217517231503656e-01
-3.350459338490942990e-02 -1.022381423429255115e-01 4.632959328996120729e-01
-6.784041643288951651e-02 -1.109145718364396710e-01 4.694996339227329729e-01
-1.191017319471869701e-01 -1.004108384868689641e-01 4.703823030910292413e-01
-1.111300835071385266e-02 -1.127668625276273817e-01 5.606832536115571308e-01
-3.071162730560900514e-02 -1.222527839094281477e-01 5.027205915719100693e-01
-2.996737727534191584e-02 -1.193491818912497532e-01 4.910632443905619260e-01
-1.181946696186231965e-02 -1.262786419308469521e-01 5.028747217661465596e-01
-2.400145156549481767e-02 -1.181579885632065008e-01 4.851143035271583415e-01
-5.071490403312197554e-02 -1.109990455963634354e-01 4.744165035504102623e-01
-8.375644250981245653e-02 -9.946118081982512071e-02 4.518845745079818066e-01
-5.353053779505427545e-02 -8.815305401606382540e-02 4.484736697382939452e-01
-2.798144568095531359e-02 -1.180690552602334659e-01 5.481776349725780983e-01
-5.669111145622718340e-02 -1.138632999807223656e-01 4.786738257326784152e-01
-7.700114253128055586e-02 -6.946280003157598304e-02 4.368138877054819069e-01
-2.210914102108050422e-02 -1.253537131064898502e-01 5.203249818092211543e-01
-3.154894952498486782e-02 -1.227263903680863577e-01 5.304041556311872574e-01
-5.795773462158523848e-02 -1.187168266790572940e-01 5.253341139931126946e-01
-4.127708300618775777e-02 -7.718584400465751394e-02 4.448337399900929023e-01
-1.465074487894616265e-02 -1.220490030808479426e-01 5.465348281001227715e-01
-3.487018719675692019e-02 -9.711870713384546105e-02 4.586401385007754516e-01
-2.662092544223760085e-02 -1.047356695780488761e-01 5.560077327798692570e-01
-6.442271767391050119e-02 -1.033299090784396551e-01 4.591630573657664027e-01
-6.501312168390707691e-02 -1.214075592612307020e-01 5.066248185958792671e-01
-9.040236118483374606e-02 -1.011527854592579045e-01 4.521597709515012831e-01
-6.721293543668760417e-02 -1.016077075721905504e-01 4.568292906048959656e-01
-1.690985111948362096e-02 -1.215714987361103533e-01 4.896208651824750513e-01
-9.047584883335718642e-02 -1.158511991605967878e-01 5.140253805586381119e-01
-8.671071474200596485e-02 -1.132522116853322824e-01 5.182823420660910285e-01
-1.525937749334640992e-02 -1.040259812678922674e-01 5.654630926632813193e-01
-4.040731405994869851e-02 -1.213387160198617365e-01 5.051185464314317253e-01
-7.255336332545229971e-02 -7.445873536530331349e-02 4.381794070364272153e-01
-2.350437256476233319e-02 -1.012158077042109583e-01 5.612224271195633829e-01
-9.748490342254510777e-02 -1.182585253498664307e-01 4.623511165397239386e-01
-9.528079819745630119e-02 -1.225603572829937343e-01 4.898484242161077473e-01
-9.810024423847008013e-02 -1.222792882743612281e-01 4.949357436095767615e-01
-1.059778503546681960e-01 -8.940800237096789560e-02 4.535029004392858165e-01
-9.077670880861070379e-02 -1.125174094172130546e-01 4.592435858751624522e-01
-8.280338200730547049e-02 -1.018122893833427883e-01 4.537112107525531068e-01
-6.959764286921427123e-02 -1.160738513841267777e-01 4.794864092115673215e-01
-1.084582557499376848e-01 -1.092458343166067269e-01 4.603139757246120234e-01
-2.074938823729884779e-02 -1.213290405395983096e-01 4.914107613745517522e-01
-5.985669743744970184e-02 -1.207504883267312285e-01 5.030147760288178338e-01
