-8.390365690238228702e-02 -9.015469396902518751e-02 4.458519576378734972e-01
-3.458128164312168629e-02 -1.041418065704741297e-01 4.652376769018810032e-01
-5.011518936352371556e-02 -6.506552068647541986e-02 4.401959272976074811e-01
-4.606846729145138569e-02 -8.555778861319730810e-02 4.483963522603369167e-01
-8.559980961754705409e-02 -1.154739124782067916e-01 4.645729834123242252e-01
-6.846603586524435681e-02 -1.152712318728602719e-01 5.258292535747327578e-01
-1.049541092903040762e-01 -9.381224647590208354e-02 4.519600255230304953e-01
-1.012165405795286965e-01 -1.216552980507003695e-01 5.003344540095842063e-01
-2.859033900219962870e-02 -1.079098820690422289e-01 4.694835743589512722e-01
-1.256027965253496935e-02 -1.044825088877218977e-01 5.660423988250136151e-01
-3.804952940995764282e-02 -1.126670510325736008e-01 4.776127954734920023e-01
-1.090632314140968784e-01 -1.150007950824193936e-01 4.660178895220573048e-01
-9.124310664842415555e-03 -1.267344324560038815e-01 5.032509020434412506e-01
-8.574975062085418709e-02 -7.316717458237421978e-02 4.401390037219020668e-01
-5.279258282876368724e-02 -1.172653476653433419e-01 5.309860640714043623e-01
-4.544015603144679893e-02 -9.403253908956592244e-02 4.543969127173059230e-01
-1.021930949781184039e-01 -1.008764348600037219e-01 4.522479862834254405e-01
-8.929415717749382420e-02 -8.679397374972876167e-02 4.446736016424778781e-01
-3.210011032096099504e-02 -1.035854815567052445e-01 4.644749936040576399e-01
-6.073070471762431755e-02 -1.178922574354932112e-01 4.873699198423476764e-01
-6.526220543516378370e-02 -1.143977348486468482e-01 5.275512078493967971e-01
-4.649274328056104966e-02 -9.308676007881358516e-02 4.533659737697914860e-01
-1.096025785610437592e-01 -1.168831975402999934e-01 4.684711205935615519e-01
-7.636753582228177073e-02 -1.214316301675834181e-01 4.927565754419639399e-01
-2.270488513785691789e-02 -1.063259545700342562e-01 4.653267218173892661e-01
-5.294174072625194155e-02 -1.135338034781867844e-01 4.783519837805941810e-01
-8.387670521742617014e-02 -1.104949509249061879e-01 5.207617194133465910e-01
-1.113067065552095086e-01 -1.213515154919371924e-01 4.803114976285506876e-01
-1.144727529760747736e-01 -1.203447197455936868e-01 4.787107726808959574e-01
-4.213225218454943327e-02 -8.931011824769179153e-02 4.515154572040356862e-01
-1.408618260902790367e-02 -1.212462378959346387e-01 4.873197956961418109e-01
-1.918202411291342405e-02 -1.094237999822394447e-01 4.677721898799396816e-01
-3.210446255565346102e-02 -1.182428128072639251e-01 5.444453102732400573e-01
-2.405144050465171310e-02 -1.010322966772130432e-01 4.593978139583400622e-01
-2.169407924751646718e-02 -1.115426484591672540e-01 4.723597500902191881e-01
-9.837065838082609259e-02 -8.065121316984318056e-02 4.517565483100107193e-01
-5.299730895284174986e-02 -8.532356237277659294e-02 4.470097891755983599e-01
-1.036110300270894208e-01 -8.626330395505305004e-02 4.544028983890791018e-01
-7.079091309842043545e-02 -1.163143120264118341e-01 5.238293220456299304e-01
-5.947906659264827478e-02 -9.720830355131929168e-02 4.537360634436902185e-01
-5.016580305923822036e-02 -1.212723342175473368e-01 5.076179439320397391e-01
-7.668693156507960969e-03 -1.281938640554313447e-01 5.245752840305422104e-01
-2.499778366676807043e-02 -1.241060885900593658e-01 5.076627434267555472e-01
-1.083305351760958241e-01 -1.191351595920451395e-01 4.996244949657750456e-01
-8.669343898746430244e-02 -1.223622631491803336e-01 5.033667256558190806e-01
-8.061693367968145174e-02 -1.181337285122326386e-01 4.748269353096223888e-01
-2.453276265018916255e-02 -9.973647720488193480e-02 5.574730065409080337e-01
-4.136801087837420343e-02 -9.659856882426041957e-02 4.573829845047697185e-01
-4.798847049294315686e-02 -1.094696779007531123e-01 5.384873652416289902e-01
-1.026544815282608020e-01 -1.163249374586838025e-01 5.069015348657390785e-01
-6.816261478486033976e-02 -6.852834757050768610e-02 4.375437475089902772e-01
-3.363169827431079090e-02 -1.198392263834258537e-01 5.403389230454410663e-01
-8.403244409922767943e-02 -1.109807819520877981e-01 5.205463976877556798e-01
-9.821125961781802804e-02 -1.195440585254561316e-01 4.639538226262848730e-01
-8.954008625609544136e-02 -1.227415444563303981e-01 4.988651337204875746e-01
-4.352794276614480040e-02 -1.212172559174130998e-01 5.043889707064993511e-01
-1.081666168917524012e-01 -1.041365805155526764e-01 4.557173584374967223e-01
-9.652695835466472418e-02 -1.228060879749339473e-01 4.830808330546102480e-01
-4.983522847075409073e-02 -6.501689110196182120e-02 4.402085786965684311e-01
-3.834884612777270801e-02 -9.240216003267617828e-02 4.543213750602017598e-01
-2.356052597333984505e-02 -9.929357620008850971e-02 5.597341728572287067e-01
-8.929254263031002545e-03 -1.263886127000786730e-01 5.309810667223517910e-01
-6.964428833684126185e-02 -1.213020421996398451e-01 5.134113975681544595e-01
-5.402889537964116612e-02 -9.513369465554295801e-02 4.531812353210162847e-01
-4.723558823284303154e-02 -1.205518555559212113e-01 5.014955416789755871e-01
-4.981611746636599447e-02 -8.300650052744075469e-02 4.463790872058246983e-01
-3.336806529959963907e-02 -1.089571924482650167e-01 5.462716609799922463e-01
-8.112001446567244922e-02 -1.152753551248755365e-01 4.690937084411094249e-01
-4.678504386586262304e-02 -1.159369831916179788e-01 4.839805453141618474e-01
-4.738079934711953572e-02 -7.304494846067595415e-02 4.429498016714499276e-01
-6.240608689217606864e-02 -1.138744050301511990e-01 5.294008626721462552e-01
-2.311834210137733714e-02 -1.240680833302455766e-01 5.343944685554843366e-01
-5.930761402870812771e-02 -1.202461865725219098e-01 4.977898783917696912e-01
-7.195963575290689751e-02 -1.221969243046511916e-01 5.052895578710697722e-01
-8.777291845031313586e-03 -1.252642077445563495e-01 4.974021942014048570e-01
-5.445996790821362038e-02 -1.174604210376451185e-01 4.875207398232411782e-01
-1.191773891240344302e-01 -1.182815831165532489e-01 4.863543371900541090e-01
-8.435282840306553009e-02 -7.128272247161772379e-02 4.389119297609154757e-01
-3.160090610655112014e-02 -1.146411395604333694e-01 5.473789868650202894e-01
-4.263126179663829368e-02 -1.219790008219403810e-01 5.189242388533712447e-01
-1.882435758436750914e-02 -1.147115511752805350e-01 5.579503203557397706e-01
-5.103650111094111541e-02 -1.039370717457044624e-01 4.629905409808779404e-01
-8.077526904177223521e-02 -1.220408660454896932e-01 4.938699891998646896e-01
-9.672343697717138145e-02 -1.104681566443302676e-01 4.576482469236518580e-01
-8.662298594537766461e-02 -6.832661848290220996e-02 4.419080360449568756e-01
-9.162345599769297633e-02 -1.125937908972401841e-01 5.160290507519463832e-01
-3.598907915738199653e-02 -1.199206563795163355e-01 4.948743026454016647e-01
-1.217703107377121098e-02 -1.163951792729923385e-01 4.760820873002395981e-01
-8.678091018698301518e-02 -1.189537841005171986e-01 5.140066524771900180e-01
-6.366221385381024001e-02 -1.177356325730097714e-01 4.855443038723151750e-01
-3.366374766443522987e-02 -7.952611412694610138e-02 4.456326799352291479e-01
-1.191390107598215009e-01 -1.041588653455551017e-01 4.690825314022208925e-01
-4.777451945934339805e-02 -7.024424833867168316e-02 4.419487174804807017e-01
-5.142580906655115636e-02 -9.250253524417963169e-02 4.516082147598412533e-01
-3.405190107090583229e-02 -1.071548952638597396e-01 4.687871467559251992e-01
-7.573587153804942074e-02 -1.152657131714286409e-01 5.241825713339635096e-01
-3.818265992716542157e-02 -9.059078821667468362e-02 4.528701910875347347e-01
-6.595608144493565750e-02 -1.138079631020709331e-01 5.279202391697335184e-01
-8.523507410955766250e-02 -9.339231564250499718e-02 4.475820046334805236e-01
-9.665686039336386648e-02 -1.231371357176941489e-01 4.924409334459611265e-01
-1.136987719855284129e-01 -1.168804083755759365e-01 4.976463131361372749e-01
-7.030044585520277278e-02 -7.651873339413932384e-02 4.392885105913236776e-01
-1.063000047933775616e-01 -1.094926392217447225e-01 4.595478293083519183e-01
-1.079934977143511346e-02 -1.275527210119410393e-01 5.102514113869736079e-01
-8.713448953912446282e-02 -1.201235185338111050e-01 5.109796892141905689e-01
-4.151827142809201565e-02 -1.180163540328566935e-01 4.896107789664952969e-01
-3.233325803038600288e-02 -1.085086021633127062e-01 5.475094693720078398e-01
-1.185272748253708291e-01 -1.164626634937688254e-01 4.908541063947461924e-01
-1.915609715717851019e-02 -1.239912987708170350e-01 4.992523454668885141e-01
-1.661521583724587595e-02 -1.260751277577390472e-01 5.070095502237333962e-01
-7.022153857836742341e-02 -6.897495616682328134e-02 4.372077849127751215e-01
-1.018509023693230653e-01 -1.164662198996129078e-01 4.649229879565947021e-01
-4.893697919811591107e-02 -9.984683184218579033e-02 4.584403432594303385e-01
-5.444299367553090407e-02 -8.088730391228571293e-02 4.446837221219080982e-01
-9.511576523416633011e-02 -1.044589142078720390e-01 4.540023872024698259e-01
-3.797844012748304715e-02 -1.209643218571825052e-01 5.000723898258943034e-01
-2.254364024684818099e-02 -1.138495471763776440e-01 5.566844360113737400e-01
-6.272900499650584105e-02 -9.172401713199036799e-02 4.489957402659727759e-01
-6.148808511032267943e-02 -1.117944989341975587e-01 4.722733350202190095e-01
-6.545984909277781372e-02 -1.147499304442153589e-01 5.271289361775689519e-01
-7.199430538229863175e-02 -1.221541190821907874e-01 5.057368947612035370e-01
-9.467662388489217484e-02 -8.710714557587435902e-02 4.458336187764138647e-01
-1.117740713768135274e-01 -1.030598002814084313e-01 4.572584533471569235e-01
-4.160530063691048053e-02 -1.035759829090445450e-01 4.643398569801062692e-01
-3.977753643207714712e-02 -1.141509212226581998e-01 4.804904423044681350e-01
-1.127916265113378946e-01 -1.011679272702086518e-01 4.578633682982617414e-01
-1.810656651353391433e-02 -9.738044735931571105e-02 5.653728281785987964e-01
-9.778112570068851761e-02 -1.226505302301631739e-01 4.971643750302445763e-01
-5.833036775400088358e-02 -1.100578635589660736e-01 5.325703553421816672e-01
-4.229486612327763850e-02 -9.082019941591468193e-02 4.526440751663208806e-01
-5.790183206901667462e-02 -1.096325727019983043e-01 5.330029951603447724e-01
-8.217499758986421265e-02 -1.057788200372740545e-01 4.569451666706366155e-01
-1.069617072837536487e-01 -9.403958256580416397e-02 4.542282438711017778e-01
-7.880872835724382630e-02 -1.098738454432948292e-01 4.622994870105696097e-01
-3.824081186457291281e-02 -1.209718797337711316e-01 5.002009195197488767e-01
-8.562961526402500245e-02 -1.208460009916844796e-01 5.106802936815360017e-01
-1.117076724091562306e-01 -1.166851610110661713e-01 4.692154692196904286e-01
-4.917295336841285419e-02 -1.176600854487101222e-01 4.882620583549739934e-01
-5.913253440802104105e-02 -1.067761752193986668e-01 4.646450361339888313e-01
-8.594808499137937541e-02 -1.130722574012931470e-01 4.616666900959370268e-01
-1.535596166268288383e-02 -1.268026192274236963e-01 5.243084644286144513e-01
-3.238949482942359015e-02 -8.674266198722623000e-02 4.501708203197281599e-01
-1.105800368084042112e-01 -1.220110513440183647e-01 4.919112974738827360e-01
-8.811790696114135679e-02 -8.387489450216623066e-02 4.433529544732022765e-01
-4.588423782506884097e-02 -9.100619410267718479e-02 4.519036852369907598e-01
-5.763398656830151512e-02 -1.082525106890230987e-01 5.337081606362192865e-01
-5.854704402283193720e-02 -1.185988197262099891e-01 4.908442723282351317e-01
-3.398204118150378178e-02 -1.198983946008710388e-01 4.940963094637240705e-01
-3.618307240282239712e-02 -1.175450127621762986e-01 4.876392218340962481e-01
-2.989387572802766277e-02 -1.234904956847619334e-01 5.273974826803177196e-01
-5.430195427842808564e-02 -1.155173774915222717e-01 4.820535054276311460e-01
-1.568982725457027799e-02 -1.192653624825634751e-01 5.518353595411733536e-01
-2.486933803309801516e-02 -1.001212242592093571e-01 4.588733803362592956e-01
-3.322372487234152849e-02 -1.199193620642826641e-01 4.939120520768437439e-01
-2.796874875739764274e-02 -1.127525494889636687e-01 5.527041641129780691e-01
-7.272569994485471312e-02 -1.217732821161830181e-01 4.963998846518502539e-01
-6.701163405720396427e-02 -1.214539010639068134e-01 5.007802826484042402e-01
-1.587784733033642190e-02 -1.199130403149862439e-01 5.505371493215133194e-01
-8.756217831636013693e-02 -1.143916920767707318e-01 5.172886105353109443e-01
-1.558683331042864939e-02 -1.235165039660551106e-01 4.948207932678159726e-01
-5.991234568637827940e-02 -1.091195088359577514e-01 4.681272585597964220e-01
-6.357525828130662637e-02 -1.078901539793859082e-01 5.308935855839659324e-01
-5.459321479828069257e-02 -1.169570136254540343e-01 4.861882570563950678e-01
-7.912188727476722472e-02 -7.820014696650404162e-02 4.393464956246350139e-01
-2.890523391823083751e-02 -1.083966980369767963e-01 4.701812272742330601e-01
-2.793405518732349976e-02 -9.028548826912899394e-02 4.518933061015152908e-01
-3.245332949784693333e-02 -1.232838226970719847e-01 5.191772921362431958e-01
-7.560381023517190324e-02 -6.823663677554199503e-02 4.364654565191237734e-01
-6.766351425920058560e-02 -1.212630561708411131e-01 5.136831606512525239e-01
-4.517040074688889739e-02 -1.205685623225856568e-01 5.310642957060400793e-01
-8.056769295561172495e-02 -8.214889434760107301e-02 4.412750315058751038e-01
-6.951303882111513344e-02 -1.217352091614653936e-01 5.093188370233887596e-01
-8.789879741900813448e-02 -1.215799284102884181e-01 4.855377651164856645e-01
-2.696870762551650813e-02 -1.096405977643695184e-01 4.719118033630144149e-01
-3.381057275523351169e-02 -1.206534658770928581e-01 5.375733133921427598e-01
-1.047384185458919009e-01 -9.340083816663924399e-02 4.518036131821192014e-01
-5.575651697185354111e-02 -1.059628517399811426e-01 5.354234841065682593e-01
-1.119135148409749481e-01 -1.014017935337061110e-01 4.569029648821108514e-01
-5.054094586491721802e-02 -1.171819639779319716e-01 5.323350306241477758e-01
-1.074302767276878456e-01 -1.090394690256878685e-01 4.595030257129344431e-01
-5.332150331845067481e-02 -1.181477890145646442e-01 4.900421225847049200e-01
-5.438116250731906548e-02 -7.021506577799686843e-02 4.411810349905970208e-01
-1.196964170137869293e-01 -1.172898593201609080e-01 4.840458790539327594e-01
-9.961896988924651142e-02 -1.197892294308180450e-01 5.074063651048289492e-01
-8.945090148721532297e-02 -9.096810700081972567e-02 4.462544995653958124e-01
-8.536253326390399673e-03 -1.215481355458311458e-01 5.446369836550007948e-01
-7.197499811123320157e-02 -1.222412330781624396e-01 5.048376157484159021e-01
-4.071857978412705276e-02 -9.451049936050996692e-02 4.557592474260113713e-01
-4.070600052809161817e-02 -1.190038326462205254e-01 4.926111170224033442e-01
-8.872399834469683888e-02 -9.708009662441156873e-02 4.494727842162013487e-01
-9.497496671506353016e-02 -1.005602373096679131e-01 4.514819590406995986e-01
-4.570214266267194625e-02 -1.206577896624108359e-01 5.297613327082304480e-01
-4.157788314137637192e-02 -1.183594525372389100e-01 5.368122636773301481e-01
-5.387252127393281353e-02 -8.467577021041625129e-02 4.464722304249967300e-01
-1.518593811052887377e-02 -1.226691853904410823e-01 4.916192057298884865e-01
-1.071363605188513091e-01 -1.129610257568328946e-01 4.629671090378625897e-01
-2.692781945922609679e-02 -1.241836367560575916e-01 5.154047980107829829e-01
-9.384962336296251428e-03 -1.272416729865101237e-01 5.273828113043449450e-01
-1.013309757676359307e-01 -1.162946215905713565e-01 4.641141030167934556e-01
-9.294707382910567806e-02 -1.230418340670576260e-01 4.897782903838120983e-01
-6.899769098335503670e-02 -8.835575152352911910e-02 4.456138614636291906e-01
-8.582368235243149901e-02 -1.152660012674543571e-01 5.178433302948974859e-01
-1.714468666447259773e-02 -1.265547982550895845e-01 5.227573390191151415e-01
-6.260876226627640206e-02 -8.279517539023675821e-02 4.436992925905441365e-01
-2.573325043998142200e-02 -1.017158315266537827e-01 4.606806262545090069e-01
-8.234294513937390203e-02 -7.708402351544589581e-02 4.392603985909722120e-01
-6.666044026726881955e-02 -1.093631807199947764e-01 4.665919419581069927e-01
-1.699407749094014944e-02 -1.254567345562283276e-01 5.321079764296725578e-01
-1.782515555065944390e-02 -1.114921793647896398e-01 4.702877218729640263e-01
-6.162105774276809000e-02 -7.663301991512877498e-02 4.414722330687221308e-01
-8.545879456909569183e-02 -1.227149453671569357e-01 4.976450927308773697e-01
-6.775518531965468716e-02 -1.004628437816822289e-01 4.553440534447055210e-01
-3.081962881446312797e-03 -1.267797535056802427e-01 5.319102341330118611e-01
-1.601862428344605349e-02 -1.210096625337676868e-01 4.875173327896467068e-01
-6.965594745660450005e-02 -1.216427718763420235e-01 5.102207303733056198e-01
-1.100978944453176872e-01 -1.214602587802249833e-01 4.796432324179178419e-01
-9.749094008711137530e-03 -1.176505534583330709e-01 5.543562892701623390e-01
-5.514368463089104611e-02 -1.214621927066923540e-01 5.133413919155046523e-01
-8.231286352054793809e-02 -1.215395268193055905e-01 5.105778476424613910e-01
-4.749960651599790390e-02 -1.122105165825193623e-01 4.765240074282591221e-01
-3.596758446177392154e-02 -1.155827052342621591e-01 4.834950081049824155e-01
-4.701617356337860903e-02 -1.142953891513062703e-01 4.805707991006993862e-01
-2.875940038749844052e-02 -1.168886275638078287e-01 4.855620302030331792e-01
-6.179799680378945947e-02 -1.156604959893785950e-01 5.285078164885166352e-01
-5.310418303743182078e-02 -8.598885839640896256e-02 4.473522465625348055e-01
-8.297892960563003906e-02 -7.601511302734731412e-02 4.388874310664288569e-01
-2.747735529824285421e-03 -1.205046072182538314e-01 5.392076729598802576e-01
-1.128804304574656733e-02 -1.138710016308760870e-01 5.596041218742695555e-01
-3.928622278366995790e-02 -1.174443369824599431e-01 5.388871615278474358e-01
-2.369818426796179919e-02 -1.248167471767439723e-01 5.281682616141489817e-01
-9.838523562680095980e-02 -1.158160204893374789e-01 4.613723802739496671e-01
-8.231534269249651814e-02 -7.414818408394513449e-02 4.383377056911358927e-01
-9.810137683766814720e-02 -1.008245934232122470e-01 4.518795702824556226e-01
-5.124567300533885289e-02 -1.188677854375555648e-01 5.295602234278979914e-01
-2.312153731200091572e-02 -9.962801493480219484e-02 5.610539435165291522e-01
-3.528425076162862439e-02 -1.216964294470914004e-01 5.027269635675939430e-01
-1.072546688938435799e-01 -1.179194539813683273e-01 4.686032918543802106e-01
-6.981001974196714144e-02 -6.779361881654485944e-02 4.370242770199168625e-01
-7.119704681810230806e-02 -9.006275444743522263e-02 4.466062490983860322e-01
-3.062475407709774888e-02 -1.204922024468971370e-01 4.947401689534697833e-01
-1.333119149185934063e-02 -1.265104504962630827e-01 5.058182743755597066e-01
-8.483507423380506896e-02 -1.200090791983637328e-01 4.783161386435166307e-01
-4.127134591870797869e-02 -1.172506654432128176e-01 4.873258499760874107e-01
-8.582742768366363739e-02 -1.175497163095556435e-01 5.161012630653829536e-01
-3.506224793880456658e-02 -1.098094722984004762e-01 4.726271407719875306e-01
-7.950789068394076287e-02 -1.183162009328604797e-01 5.183255342963666301e-01
-7.831906917245115562e-02 -8.070293730605686278e-02 4.404027173737486978e-01
-5.794256648013632049e-02 -1.209651340831500999e-01 5.026552022721211266e-01
-8.756959449911508320e-02 -1.190073353101244874e-01 5.133648143583363632e-01
-8.681753674137968058e-02 -1.067500923745051122e-01 4.567020288540999395e-01
-9.666762926822380919e-02 -1.217192470591098863e-01 4.774134192109534824e-01
-3.628822884760647682e-02 -1.111830293028454320e-01 4.749370698411456426e-01
-1.077591653225429685e-01 -1.170921790106827232e-01 5.014220347515015996e-01
-3.205723446036527063e-02 -1.226811748039770417e-01 5.069104113934275180e-01
-2.337585549241515473e-02 -1.105852851066852771e-01 4.717458639165489909e-01
-6.932784689774001974e-02 -1.189181827521320761e-01 4.864869074222263334e-01
-7.054341350953977074e-02 -1.172266803783912209e-01 4.808013663369797852e-01
-2.945226965260069885e-02 -8.637278164314020346e-02 4.493579573411052852e-01
-1.156093969326654342e-01 -1.199967985303347084e-01 4.783141682373722725e-01
-1.114175463427053425e-01 -1.193574346011860299e-01 4.736659494576941909e-01
-6.061194184840251742e-02 -6.445754426793265379e-02 4.383347419721688176e-01
-1.092675919520341293e-01 -1.146368853838649338e-01 5.021146084033243362e-01
-8.003627005248135917e-02 -1.196037091855460532e-01 4.838671938019493690e-01
-1.140875899396435328e-01 -1.124861593550182393e-01 4.660119926471773533e-01
-5.764810050597017621e-02 -1.143443572698115696e-01 4.788147709680087294e-01
-8.639297905122227117e-02 -8.167967852905877457e-02 4.421093056714116565e-01
-1.533491668592354418e-02 -1.230787277265181501e-01 5.427379984097749910e-01
-5.619846250830350803e-02 -1.129256413770409195e-01 5.326675327381961145e-01
-8.726293015263744679e-02 -1.219368779471222269e-01 4.878012218546841638e-01
-1.113752517601582087e-01 -1.208047342502919785e-01 4.958551243047190638e-01
-6.058020956923393374e-02 -1.200707663310801310e-01 5.211684480055477353e-01
-1.615125433308406064e-02 -1.139542774288759969e-01 4.732519268790487676e-01
-4.910719298613241968e-02 -1.212537536520786052e-01 5.074322703610676388e-01
-5.474307845283389595e-02 -9.592798708492419890e-02 4.536857650546128329e-01
-4.641813752832019135e-02 -1.213000009169296345e-01 5.241638620475939092e-01
-1.954316952997911180e-02 -1.213494907899664160e-01 5.464716317833518966e-01
-9.070600328379081756e-02 -1.229236593984247977e-01 4.970301674936981051e-01
-5.389102403766230648e-02 -9.738933799679501402e-02 4.550902768146189437e-01
-3.311902530365976732e-02 -9.434702868451812219e-02 4.561782036884011182e-01
-2.117954274139261656e-02 -1.074397496318067469e-01 4.660492618411881116e-01
-2.299124510301752897e-02 -1.243895010364785558e-01 5.051916113771429684e-01
-6.149253567874412435e-02 -1.051324990871684711e-01 4.615908387379902278e-01
-2.156755957043193436e-02 -1.134886678346441746e-01 4.753811477323385271e-01
-1.007172949881144676e-02 -1.248638557728933285e-01 4.964177708873142580e-01
-2.965311728832560959e-02 -1.237288687055092401e-01 5.189619188162583052e-01
-2.219704484310280890e-02 -1.248772488056616448e-01 5.086438355113558352e-01
-9.080812827825507361e-02 -8.020148523842844657e-02 4.443169358984074280e-01
-6.276531980814824274e-02 -5.841297063001970463e-02 4.371283214957629726e-01
-3.304266142505916937e-02 -1.162707990072306408e-01 5.449518263052605116e-01
-5.491105042502100048e-02 -1.212841333906500285e-01 5.078265980285532333e-01
-6.882716358244492239e-02 -1.029298257740140637e-01 4.576151927760854776e-01
-1.165875559886888069e-01 -9.947229148445535518e-02 4.653408317747432243e-01
-2.748246440297261867e-02 -1.226425609408626077e-01 5.363115442655990162e-01
-8.333795537835841927e-02 -1.096828921732049406e-01 4.601977719792624266e-01
-4.760983282553677559e-02 -1.129682522916508614e-01 4.779165948106041673e-01
-1.095992978359908304e-01 -1.151345022101667726e-01 4.664170023554862210e-01
-7.012335331653606063e-02 -6.915446414834017230e-02 4.372704322893447015e-01
-9.900974637207154982e-02 -1.224033183009244352e-01 4.784432081445085250e-01
-3.842788203501162209e-02 -9.962727704837416598e-02 4.604777231515284619e-01
-9.654510600761009864e-02 -1.230462203125902987e-01 4.947608373147635019e-01
-4.654576924091181206e-02 -1.216033966828327512e-01 5.115302568331072663e-01
-6.395139198524443791e-02 -6.630228197179649507e-02 4.380220859322738747e-01
-9.513634268841060504e-02 -1.217753423573758459e-01 4.792853672966663758e-01
-2.967698756137027508e-02 -1.225264681065453415e-01 5.348060726999270820e-01
-9.247097348777889858e-02 -1.217563223079213830e-01 4.682541008721451403e-01
-1.127996840085219166e-01 -1.201683360650113996e-01 4.964337225642361240e-01
-3.060999868097004709e-02 -1.061196263626955627e-01 5.497757411799045757e-01
-5.335821619633888957e-02 -9.943479048454342828e-02 4.568703212084007648e-01
-7.195654772129100873e-02 -1.161730966057850228e-01 4.772728780782823366e-01
-1.928754130530433222e-02 -1.207389495432762694e-01 4.887398322074644752e-01
-5.250321618988364886e-02 -1.168184802770692865e-01 4.857033637928338532e-01
-5.193146494995435486e-02 -1.188906231093117272e-01 4.932742760589178266e-01
-6.629340434681212091e-02 -1.201737581756166656e-01 5.189207038500168734e-01
-9.289445766596698961e-02 -8.347764523762350730e-02 4.446743515877452646e-01
-8.691686153915251234e-02 -1.210766281353246043e-01 4.838217574347871142e-01
-1.123799355294949065e-01 -1.001070937064658800e-01 4.571504708775221415e-01
-5.009447815112696989e-02 -7.064738544298355960e-02 4.418904545048985555e-01
-1.069939388252112364e-02 -1.275054285722915792e-01 5.094612738603401247e-01
-5.711474918871094208e-02 -8.548824903992970070e-02 4.462177363823239262e-01
-7.711240080728981594e-02 -1.125575202548571296e-01 5.252894987762839474e-01
-7.439794170671221174e-02 -1.173277101053031707e-01 5.217467169616291089e-01
-1.128844191265108710e-01 -1.171386942542194526e-01 4.706199770530608006e-01
-5.552395244407697800e-02 -9.902810885704789456e-02 4.561454758834111445e-01
-1.290956358536843318e-02 -1.273845162734373870e-01 5.153319100944221409e-01
-9.861089829842943633e-02 -1.232576731575726059e-01 4.847642590787877293e-01
-6.949547688121343603e-02 -1.170497135000524574e-01 5.234298098752776518e-01
-7.240299145028138150e-02 -1.121681380267361139e-01 4.688763108631715526e-01
-5.024067186431046064e-03 -1.229079708280586269e-01 5.386369358527604012e-01
-7.713416681904565475e-02 -1.191524894223154885e-01 4.815432948602876295e-01
-7.842892951888403782e-03 -1.229465206179341519e-01 4.899990522348162125e-01
-4.593613039392385050e-02 -1.185209213706973214e-01 4.913235422520541573e-01
-3.732884052184393120e-02 -9.423445806251942725e-02 4.559358443996142651e-01
-1.202843714061494276e-02 -1.269209543232107940e-01 5.065858995432417355e-01
-7.595494262115042028e-02 -8.796119799748000623e-02 4.448389194272520109e-01
-2.005542100783707510e-02 -1.114376926297568765e-01 5.602270892155591930e-01
-1.269210634939172723e-02 -1.246175748760787044e-01 4.968418617254407033e-01
-4.415710411351186221e-02 -8.298656026339877589e-02 4.472945595043722466e-01
-1.182786200982886005e-01 -1.176612568826062716e-01 4.900594149315249393e-01
-1.200078251252771483e-01 -1.163362041155872328e-01 4.837681146277907906e-01
-6.178667963064003732e-02 -1.214805367754806242e-01 5.056878382373038994e-01
-6.857969370133923381e-02 -6.847035928433675700e-02 4.374412198085748105e-01
-5.553308228880577541e-04 -1.289506434482667052e-01 5.145540991358673599e-01
-2.882158140749906464e-02 -1.023460504028767537e-01 4.624665384942248658e-01
-3.507814643007597238e-02 -1.206977426560789796e-01 4.976255951514495512e-01
-9.615474353512476480e-02 -9.674594249691269299e-02 4.494537342222695853e-01
-6.611096118792766929e-02 -7.913871963427497602e-02 4.411161303493216779e-01
-9.593067998286183840e-02 -1.215981619976089778e-01 5.048726725368396506e-01
-1.983882962449066978e-02 -1.213928678729263161e-01 5.462833577688557263e-01
-8.818017405604965109e-02 -1.213923582627918218e-01 5.079676546666183068e-01
-9.876349983574511660e-02 -1.230936522175575948e-01 4.939516442064304513e-01
-6.453408760591002047e-02 -1.002285484321117637e-01 4.556530501209825057e-01
-5.639217052402636238e-03 -1.224892765832188563e-01 5.397648184190008136e-01
-7.086899931252832463e-02 -1.039074635487434312e-01 4.582316526606343143e-01
-5.956674196580334646e-02 -9.069555831732233064e-02 4.488304780418799211e-01
-3.141576800565354377e-02 -1.111112014795689051e-01 5.482324287110414973e-01
-2.232219541143036501e-02 -1.250422128052210979e-01 5.115492390136243683e-01
-3.293136407061750259e-02 -1.083813333712050214e-01 4.704395276421107219e-01
-9.636007861280154740e-02 -1.227866748362727300e-01 4.831564297524113538e-01
-1.081122684526714811e-01 -9.515080743765058635e-02 4.544293487139934862e-01
-9.357712703167647694e-02 -8.117074358060520634e-02 4.458434646980339866e-01
-8.009705252876968273e-02 -1.118047768347723986e-01 4.643067806130123931e-01
-3.169372739523144966e-02 -1.173946271925129237e-01 4.871146302863546551e-01
-1.194734235709808690e-01 -1.063624146753015948e-01 4.679476869457052102e-01
-5.286404515665412557e-02 -1.178456302732451139e-01 4.889377084007398011e-01
-5.298939418316594985e-02 -9.034741892356862314e-02 4.498830260457462038e-01
-7.463846115446713669e-02 -8.994108078720057520e-02 4.462326338951776439e-01
-2.410133958597422341e-02 -1.051815210749373758e-01 4.642663106553169272e-01
-3.947978620230441910e-02 -1.222063961168560337e-01 5.123373543280137499e-01
-8.871898000875659551e-02 -9.143051024305223762e-02 4.464648890875350107e-01
-3.819689500492315370e-02 -1.215073483335241816e-01 5.320193127703702896e-01
-5.391467993795621277e-02 -1.053405797420939594e-01 5.365766315536566466e-01
-5.401600112520656138e-02 -1.181201171085333318e-01 4.898598509291550718e-01
-1.140870323327611291e-01 -1.162540323311623963e-01 4.704117541074032127e-01
-1.525573653155037901e-02 -1.126727153331459202e-01 5.607156575871402593e-01
-1.183952038439989446e-01 -1.188087354026683418e-01 4.831250194612790039e-01
-1.005096292181591189e-01 -1.110989894480491763e-01 4.589163163346348662e-01
-6.261800130777955831e-02 -8.949360354898433512e-02 4.474312581640251807e-01
-6.723700110741695490e-02 -9.430621756713913895e-02 4.502052137264093701e-01
-5.175458680604362594e-02 -1.066959485253461404e-01 4.665582842650700113e-01
-3.791230043650795078e-02 -8.566855332793729683e-02 4.493752874535155706e-01
-8.422423516557532575e-02 -1.147438801856189156e-01 4.656402779189776076e-01
-8.446468117927816155e-02 -1.224567453768898029e-01 5.030309989770909151e-01
-1.191530182858192427e-01 -1.156748926812318362e-01 4.903639541655683276e-01
-1.132949168408609320e-01 -1.216163891804216413e-01 4.894812259871598736e-01
-8.364978237254597215e-02 -1.060345825287374588e-01 4.568201568647579092e-01
-5.261146562317891434e-02 -1.176125557203146349e-01 5.305800761649613895e-01
-3.317198303662724501e-02 -8.737053325877763843e-02 4.507150355334993419e-01
-6.214363196299126091e-02 -1.208916590884704517e-01 5.169566371797137405e-01
-8.824631618599990124e-02 -1.198216453867442383e-01 5.114306662412601012e-01
-2.042884342406965301e-02 -1.257186432619459560e-01 5.182399986883400311e-01
-8.481634315359408427e-02 -1.199260334111472703e-01 5.137100522751024689e-01
-8.323922143539154439e-02 -1.110152587883093123e-01 4.615192858533092024e-01
-9.387609467783307460e-02 -1.111366255839480871e-01 4.579850735760972458e-01
-2.844799880432125408e-02 -1.224404252441630703e-01 5.011444790462421528e-01
-3.268425355681115613e-02 -1.224422083962210667e-01 5.316761177904945068e-01
-7.681683917241405313e-02 -8.649111812583093473e-02 4.438116609853904326e-01
-9.042074413779864483e-02 -1.183257436738408552e-01 4.614622035945084577e-01
-5.511021026554405872e-02 -1.213317208622361754e-01 5.084582129402606121e-01
-8.452026564227924088e-02 -1.221245903613298045e-01 5.067330503790514751e-01
-9.421009023563403639e-02 -1.230906534459654950e-01 4.936122219636980835e-01
-7.710447099312468799e-02 -1.191924534982846118e-01 5.182186969917428332e-01
-1.801872730576701762e-02 -1.033371094748201935e-01 5.647068338575846891e-01
-3.186169364956912414e-02 -9.559658970619903939e-02 4.570312286747064134e-01
-5.332605538361714914e-02 -1.018482469292332354e-01 4.594423218167049128e-01
-3.043648714715836354e-02 -1.106341648066508504e-01 4.735316156012030486e-01
-1.807734140712398407e-02 -1.245597634728232705e-01 5.009786568573404431e-01
-8.049259156056129405e-03 -1.273643517130025049e-01 5.060002065717660313e-01
-8.739505093744447117e-02 -7.075808422651937157e-02 4.426965681818458287e-01
-6.671523163093556752e-02 -1.204735121662927483e-01 4.945446380116048091e-01
-3.130886436969354536e-02 -1.204275603945819256e-01 4.948985586284511129e-01
-1.958511519393434791e-02 -1.142740176834804028e-01 5.579354184699170105e-01
-9.401829128502299515e-02 -8.053502926333862277e-02 4.463115390887764655e-01
-4.487808511314687193e-02 -1.156196347174070216e-01 4.834153114792532624e-01
-1.987411077050538905e-02 -1.053837357979711814e-01 5.635278113716579718e-01
-9.726784842813318566e-02 -1.187939714412816622e-01 4.627103501800090557e-01
-1.105056833311540976e-01 -1.173438619325811866e-01 4.695111504311941797e-01
-3.622904650164250270e-03 -1.290420788602920921e-01 5.153134328565371902e-01
-9.906277379539076000e-02 -1.230288911931115559e-01 4.945552918715319657e-01
-7.526974979670850163e-02 -9.591885758820224706e-02 4.504944114756950224e-01
-9.744068972905751969e-02 -1.221111780424982973e-01 4.655061504992213384e-01
-6.615865562185838100e-02 -5.940808860341723757e-02 4.366415611891639736e-01
-5.390854510889130091e-02 -1.170835795589833250e-01 5.305553714683781674e-01
-9.821307131452476635e-02 -1.140726631150635051e-01 4.598901854317007376e-01
-4.614446553796190675e-02 -9.032473450585735975e-02 4.513197646559323206e-01
-4.641967776777716076e-02 -1.150459391191091668e-01 5.362327712693065740e-01
-7.270612115600844083e-02 -1.207496630203299115e-01 5.151549711292919831e-01
-5.172226304213847770e-02 -1.000837409821335872e-01 4.578116559285645981e-01
-6.789159442832960745e-02 -1.209073591668065883e-01 4.960756359798421111e-01
-1.742190197709410707e-02 -1.262413535331195769e-01 5.265501764368585302e-01
-5.423068689628977174e-02 -1.213842455453790076e-01 5.091158260797058466e-01
-5.026854214234986046e-02 -8.468278124215254665e-02 4.471662494845070612e-01
-8.642911008717163446e-02 -7.338455606819707655e-02 4.407003440740800970e-01
-5.113650535514161627e-02 -6.046510750969863457e-02 4.390339729157125004e-01
-8.741529160709207713e-02 -1.206060177927261584e-01 4.742433797846186128e-01
-6.845794397758334093e-02 -1.194046559035328720e-01 4.883063280459084554e-01
-7.933235841136777877e-02 -1.217224195151550836e-01 4.924440218900596467e-01
-1.043769398812806753e-01 -9.560540632199020228e-02 4.508887675588953980e-01
-4.891757359895985979e-02 -8.674122940257636416e-02 4.485364647108368574e-01
-2.163979125915390517e-02 -1.197629194971480265e-01 4.875430154402650706e-01
-2.951932820289317194e-02 -1.231250818566476390e-01 5.312102323992301534e-01
-7.597191800105883297e-02 -1.222619286998745530e-01 5.052029160103157501e-01
-3.399241796754676886e-02 -1.139189717046954070e-01 4.799901436881663930e-01
-3.642024920857729609e-02 -1.226262879746153611e-01 5.221766050302746320e-01
-5.786586560154589887e-02 -1.213487299056020541e-01 5.127717764371989562e-01
-6.517754740805234426e-02 -1.213948176157956527e-01 5.019736238457228605e-01
-4.767550101586697647e-02 -8.803563374190194468e-02 4.495014004482835168e-01
-7.898626657420550201e-02 -1.140735221589408294e-01 5.238464535927992438e-01
-1.057455223443533043e-01 -9.298544689458353163e-02 4.530608623877941943e-01
-5.076223078258808308e-02 -6.699994936311780280e-02 4.406872661449682815e-01
-3.616889607443187632e-02 -1.222102350590611869e-01 5.284841303578073912e-01
-1.032634608251139230e-01 -1.176939366825687922e-01 5.045687628887629561e-01
-4.906994653715571891e-02 -1.190440135659353721e-01 5.306553656091023141e-01
-6.381843332773119715e-02 -9.467694992522251995e-02 4.509377855517371358e-01
-8.779526126397874108e-02 -1.216014636942966826e-01 4.857206319008993134e-01
-1.320262951692437875e-02 -1.229025721846836866e-01 5.431282462794793098e-01
-9.844474597363207791e-02 -8.734915426373057734e-02 4.485538771879600817e-01
-4.596831720506325270e-02 -7.901670448169728633e-02 4.453326403096966590e-01
-7.732067461479665005e-02 -1.198427175949078605e-01 4.845457359937540009e-01
-7.378912573333580582e-02 -1.176521448169083467e-01 4.794642365742259882e-01
-6.343626836752939979e-02 -1.195697125665094174e-01 5.217421637570451853e-01
-7.023483763235000010e-02 -1.015143771899734704e-01 4.558764893655687933e-01
-1.536263247138357907e-02 -1.167404910482662955e-01 5.562704733997350104e-01
-6.014811081766643919e-02 -1.003096824719573593e-01 4.564828910457637834e-01
-6.997592202899387270e-02 -6.419474720136898738e-02 4.363309514708380021e-01
-6.662758546793068337e-02 -6.068749116790379816e-02 4.366680416609676207e-01
-1.157748212552340006e-01 -1.208117250778054513e-01 4.893490907803346723e-01
-8.008400783487781838e-02 -9.610912708580139630e-02 4.499056798253288081e-01
-8.839157671304744002e-02 -1.208051466438135185e-01 4.716759451698548378e-01
-1.760572998610172163e-02 -1.220835449095148822e-01 4.914015530131651821e-01
-2.994928143752006652e-02 -1.057064263129482290e-01 4.665717167211199112e-01
-1.082413971423896171e-01 -1.213684995438765596e-01 4.772784048522285549e-01
-8.981846376956845179e-02 -8.038487137527107473e-02 4.432241903276211148e-01
-3.980079435992105175e-02 -1.174082810503903618e-01 4.876843919900911706e-01
-5.761413818794089772e-03 -1.275559529988747609e-01 5.052817652106819102e-01
-2.741398698640441778e-02 -1.114519116549315542e-01 4.747569546125501860e-01
-7.480565001261427205e-02 -1.123247681322927516e-01 4.680744004587559237e-01
-3.721402303368787079e-02 -1.172605810482001826e-01 5.403274769399369903e-01
-1.858126551262239898e-02 -1.250867912417431282e-01 5.040918154340817692e-01
-3.101478577102435852e-02 -1.235015524985939445e-01 5.182984201306022332e-01
-6.526310435611336336e-02 -9.321653516171521381e-02 4.496337150039039776e-01
-3.983482844114447086e-02 -1.222626596972624796e-01 5.199857558665688106e-01
-1.039318006882554712e-01 -9.583933146693554561e-02 4.507961384172715080e-01
-7.307883448124771752e-02 -1.176024475898759525e-01 4.799120291810001215e-01
-7.860042291469325482e-02 -7.482720079001262126e-02 4.381650824981030978e-01
-7.496781674584003519e-02 -6.629069895497056997e-02 4.358586207785631328e-01
-5.430366967208600376e-02 -9.937479637794338627e-02 4.566375159986552079e-01
-3.543597212057421342e-02 -1.202729115701270529e-01 5.378656482944618178e-01
-3.083643364072923346e-02 -1.235306720968059602e-01 5.198341070073118075e-01
-1.780277011444208676e-02 -1.107366623069508393e-01 5.618520734875758205e-01
-7.427524626604647962e-02 -1.170755949239681709e-01 4.777635016468217977e-01
-8.377120579200710015e-02 -8.191881388324374902e-02 4.416318427174991124e-01
-9.803951681993025580e-02 -1.209869174799131086e-01 5.063574623954885112e-01
-1.034237775614148397e-01 -8.909345952877950614e-02 4.515652292602663209e-01
-7.969433435334952187e-02 -1.220059124725301897e-01 5.082094757517888750e-01
-8.160321226754914392e-02 -6.736474949038354088e-02 4.384966649718169962e-01
-2.115115764120757344e-02 -1.248040477069290166e-01 5.324883415319814350e-01
1.075998774211878953e-04 -1.289304267643519852e-01 5.151360188840511389e-01
-8.555905696288107487e-02 -1.171005564556163447e-01 5.166318065763804146e-01
-6.152586428491766540e-02 -1.112504807911977173e-01 4.711556756872584684e-01
-7.479109174485941425e-02 -1.183336397554931446e-01 4.805267472211258717e-01
