-4.127564465719561759e-02 -1.162828874431345166e-01 4.850548017651217236e-01
-3.195735946690102247e-02 -1.198347028707835438e-01 4.932799839426900146e-01
-2.752048312839530317e-02 -9.163007096992711875e-02 4.529252600463104517e-01
-3.485587517994402640e-02 -8.293227653705298463e-02 4.478522749775762368e-01
-1.300625788136649044e-02 -1.226898018227035869e-01 5.440318939767064821e-01
-8.905085366338258424e-02 -1.153464664994913180e-01 5.155400492781494481e-01
-4.684415566310471540e-02 -1.049872667379606328e-01 4.654356700512098377e-01
-9.013509341901275451e-02 -1.198166016171693382e-01 5.111046848065913251e-01
-1.045502712771550768e-01 -8.914714160835200685e-02 4.534412358014911493e-01
-1.143404686303951950e-01 -1.213423180781789401e-01 4.857436906267616483e-01
-4.055450610643150655e-02 -1.217315051705385454e-01 5.070321992155700785e-01
-3.422106328689851484e-02 -1.156694028044039785e-01 4.836917234804252175e-01
-4.652617378030809991e-02 -1.192381986042004988e-01 5.326262971666726465e-01
-8.064176631353867780e-03 -1.254023299947396031e-01 5.332095625369263070e-01
-9.908197899113377338e-02 -1.204908503338315978e-01 5.058260559171851023e-01
-1.041666732194885675e-01 -8.743939231415828739e-02 4.544323199773722677e-01
-7.018585944632593776e-02 -1.159357414011870369e-01 5.245432854217618734e-01
-2.362368691974913587e-02 -1.186690728595535815e-01 4.861893127552779914e-01
-1.398004586917396888e-02 -1.205006663787563104e-01 4.856918052564933030e-01
-3.640870967282279491e-02 -1.093499176592785810e-01 4.721524362811674314e-01
-6.479044451056997778e-02 -1.193616724610116892e-01 4.907159116421530021e-01
-1.042337069916020320e-01 -9.258532606943964405e-02 4.517204634033100685e-01
-9.430480752504256936e-02 -1.088558402366667788e-01 4.567179205518161478e-01
-9.638519398629379065e-02 -1.224885024168397285e-01 4.726578338140262070e-01
-6.449362602648585352e-02 -1.085816551195119689e-01 5.303195396513235016e-01
-3.484345662150788864e-02 -1.209729397670015610e-01 5.360186644316942139e-01
-7.698556448794370566e-02 -1.093154182474902342e-01 4.625218301155905598e-01
-7.684726927804191865e-02 -9.842243329282589215e-02 4.521494363611261447e-01
-5.746270296337883249e-02 -1.070943345949971481e-01 5.342623670037580652e-01
-7.395260186371986622e-02 -1.023718449086233884e-01 4.561037397128181459e-01
-4.217024890899841172e-02 -1.140403021877910705e-01 4.803619190111120263e-01
-3.808919068465553559e-02 -1.108149073647226035e-01 4.744891368230261253e-01
-1.185025214138508837e-01 -1.147598642360193183e-01 4.770260743968488537e-01
-2.385058729823696586e-02 -1.095356245791814370e-01 5.578777647582335852e-01
-1.748708341414163467e-02 -1.138326353095602400e-01 5.593219461066510911e-01
-7.530077813795227337e-02 -1.057265540863929071e-01 4.591464805392604376e-01
-5.600961990185181205e-02 -9.107351922186586457e-02 4.498647063659864109e-01
-8.332369608743624145e-03 -1.272097151156043604e-01 5.285404722781967823e-01
-5.665435410318372250e-02 -1.214141743997580181e-01 5.098296146751294389e-01
-2.858159076427916820e-02 -1.173118822818507712e-01 4.864851064146761828e-01
-4.225071938127553106e-02 -1.186469718703817428e-01 4.916831068152962558e-01
-2.300515053506808211e-02 -1.244921392327618948e-01 5.062545863484622100e-01
-4.738266934000976566e-02 -1.087916514007186974e-01 4.709634076194683105e-01
-9.553391391052125370e-02 -1.079396812887349205e-01 4.562423498750410866e-01
-6.667754207176808390e-02 -1.196291491625873782e-01 4.904583339676336640e-01
-2.421548189305422483e-02 -1.078971963931212169e-01 5.579230582102717717e-01
-1.173043299323890815e-01 -1.010354305311158551e-01 4.670287626463849318e-01
-7.688991477388119888e-02 -8.339213153437310955e-02 4.418059063162811939e-01
-7.024757849484596084e-02 -1.204756779890009816e-01 4.918353524203514793e-01
-9.945569887707163270e-02 -1.233322507997868661e-01 4.869913860467542377e-01
-1.840976457342104189e-02 -1.094981668824064752e-01 4.676131627151871029e-01
-3.814604636949230076e-02 -1.210803282486107579e-01 5.336680770916608640e-01
-2.838311799452920142e-02 -1.232468994305200294e-01 5.061677646250171136e-01
-4.546870827669383108e-02 -1.082397407552676133e-01 4.703423156014506223e-01
-7.889201978943351234e-02 -1.191638250367976770e-01 4.818974715172124612e-01
-3.047991613566158539e-02 -1.125797776532806299e-01 5.490060799658884605e-01
-1.064527755697989020e-01 -1.229939462829963970e-01 4.890589489485687169e-01
-9.267890291123191682e-02 -1.161111347262709648e-01 4.602189842867744352e-01
-1.502898814441367206e-02 -1.117771827011864727e-01 5.614131682547573998e-01
-6.965357720758187654e-02 -1.206978607570019513e-01 4.935230103763052489e-01
-4.702227094883495995e-02 -1.214947008426972841e-01 5.104085800714873722e-01
-3.429453243142897845e-02 -1.187257917892012432e-01 5.411327486960013644e-01
-4.245532042773968173e-03 -1.290193540594506694e-01 5.217225404704201042e-01
-6.308091249283946655e-02 -1.035095428329671635e-01 4.594228976185351088e-01
-6.880821947225908286e-02 -1.114904061555640064e-01 5.276585651649134956e-01
-8.761317286749531474e-02 -8.133378973706978377e-02 4.425348097566665917e-01
-7.022055998634671448e-02 -1.195367483774761042e-01 5.182081669583523675e-01
-3.920902045068372366e-02 -1.221776343916067958e-01 5.114224997507446080e-01
-8.030520017290357360e-02 -9.982436428622387670e-02 4.526498332628384746e-01
-8.460839814302317796e-03 -1.244231487464298042e-01 4.944600419939628178e-01
-4.355162300830396627e-02 -1.199142939602101665e-01 4.970154719946820454e-01
-1.558167479739413878e-02 -1.154045013380297913e-01 4.754672541033664879e-01
-5.885867189272503408e-02 -9.220413202224209126e-02 4.500633762408347005e-01
-5.717491699014958656e-02 -1.164444294053408324e-01 4.840259870951663101e-01
-5.060121489895823971e-02 -1.010262120641060718e-01 4.592812497091634527e-01
-7.262207952315938297e-02 -8.599757754651496389e-02 4.439405301797779702e-01
-2.007406207362459616e-02 -1.041531583387211302e-01 5.634919092312747901e-01
-6.879360476587932649e-02 -7.356645381705782805e-02 4.388763512585996951e-01
-4.286407446175883457e-02 -1.211289228663016693e-01 5.304897472025588145e-01
-2.091749424081060585e-02 -1.255989497859841542e-01 5.225973310665736893e-01
-4.862796422147997594e-02 -7.711988805623135046e-02 4.443723257441417052e-01
-5.083505886262346812e-03 -1.246513994883968329e-01 4.943032562000948538e-01
-5.911315307899840665e-02 -8.140464216416042065e-02 4.440089483509794821e-01
-6.155070602690519699e-02 -1.151756060573232709e-01 5.291195896721759828e-01
-9.451944431919958450e-03 -1.192646459241344242e-01 5.516841321025128808e-01
-3.000536295871150672e-02 -1.156505374207813103e-01 4.833575997390894829e-01
-3.063971581315815679e-02 -1.078780955883325982e-01 4.696050298166200565e-01
-4.792702255284297941e-02 -1.187313408266853915e-01 4.924756886563984581e-01
-1.721379185602637391e-02 -1.255678965571657146e-01 5.053190817914059441e-01
-1.087153912821554602e-01 -1.225683319121503856e-01 4.849902476473069712e-01
-4.411717167732493589e-02 -1.156763974069178053e-01 4.836893539285674337e-01
-8.482090463198614649e-02 -1.211492668931644923e-01 4.866860307373278571e-01
-8.018638704066369249e-02 -1.220647407960796932e-01 4.947825124879225989e-01
-4.770608795570838168e-02 -1.181401488853582871e-01 4.900685920851556854e-01
-6.037809606665741485e-02 -7.714681056778313617e-02 4.420439735918241797e-01
-1.005424749500930109e-01 -1.219537618109113458e-01 4.731482173878288622e-01
-6.072885983715232278e-02 -6.805699353590530243e-02 4.394507100112554077e-01
-2.258728953766061393e-02 -1.083879019297704915e-01 5.602332651387559315e-01
-8.942357576609283321e-02 -1.146221114769629262e-01 4.606098789266355742e-01
-7.461934890522531338e-02 -9.521587995766404855e-02 4.501422056246608960e-01
-1.784059064959337207e-02 -1.259170843992961086e-01 5.096121011031893300e-01
-5.108079759218440291e-02 -1.214024601333324321e-01 5.095073319965425229e-01
-6.636060792896097960e-02 -1.081188608849543153e-01 4.646449535447800816e-01
-7.648063912935358644e-02 -8.093096310958595996e-02 4.404689671403193008e-01
-3.941685182840734547e-02 -9.643876374565557574e-02 4.575558154147387757e-01
-7.548802884173702599e-02 -6.512953305631144496e-02 4.357614193690636517e-01
-9.437066375777602989e-02 -1.230779346741750352e-01 4.931714579111241559e-01
-6.824589699745177429e-02 -1.195027371166521302e-01 4.888895424786744437e-01
-2.030893635461257507e-02 -1.257521826344063509e-01 5.223050126650957692e-01
-1.009467546122992110e-01 -1.087287814130001723e-01 4.578560924583935376e-01
-5.982885904050662396e-02 -1.202117583312239668e-01 4.974729948400355983e-01
-2.708989101963146101e-02 -1.187921400563230756e-01 5.474537297886478138e-01
-1.018550576963320603e-01 -9.409509512895820882e-02 4.496013389567629082e-01
-1.368112058323207696e-02 -1.119269323951282147e-01 5.613823697484728870e-01
-1.064700354157867845e-01 -1.214670732258582297e-01 4.969486912058201922e-01
-5.647300047533065220e-03 -1.283729664824019845e-01 5.257977319793604165e-01
-4.106428296416436696e-02 -1.221704768083143738e-01 5.163819454224856109e-01
-8.101359215170397809e-02 -1.219566162900659889e-01 4.931113764639702968e-01
-8.578550547048902075e-02 -1.226531084806465610e-01 4.969214289522064787e-01
-2.988950143779774832e-02 -1.110520962619720026e-01 4.743900613328106419e-01
-8.436089107093711070e-02 -1.142464481795867903e-01 4.640408666964348505e-01
-6.103801695950868828e-03 -1.285382921097414644e-01 5.242715645622150200e-01
-5.900968251159686984e-02 -6.343412745573276390e-02 4.386219427186739961e-01
-5.201152558469566284e-03 -1.278025738491329610e-01 5.063791528943365483e-01
-8.457883360982673682e-02 -1.147276590874807267e-01 5.191238443472770969e-01
-4.398088029959565382e-02 -1.169934927107879885e-01 4.868793771550580796e-01
-7.986275565878905511e-03 -1.283091004206451946e-01 5.144327791789502502e-01
-4.734164442816415908e-02 -8.696658709327917403e-02 4.490001626715489635e-01
-1.254273320611786272e-02 -1.101705952244071418e-01 5.628613261958538283e-01
-3.536457151573772079e-02 -7.586111636702251582e-02 4.442058871286690414e-01
-6.683313705561014229e-02 -1.083596910541005237e-01 4.648941441400847863e-01
-3.448390751005582511e-02 -1.194653133874300360e-01 5.402922928117960266e-01
-5.881997558299755652e-02 -1.211975177718848246e-01 5.137283882149161762e-01
-4.731143897936478798e-02 -1.207874903895272550e-01 5.254444180078746696e-01
-8.559052951802983977e-02 -8.276098478726849617e-02 4.424808784678967988e-01
-5.014793415225628215e-02 -1.195489269709878039e-01 5.288033052603127171e-01
-5.720554045189898962e-02 -1.184467844091501160e-01 5.268718293353445992e-01
-1.104796496699256281e-01 -1.212678433515121945e-01 4.794923982829929487e-01
-7.537727511530038782e-02 -1.014988124790106028e-01 4.548935293735660301e-01
-4.004667473928331944e-02 -1.222772129551013831e-01 5.163762958538163916e-01
-4.587265967333534894e-02 -9.594718003098662296e-02 4.559196619865563682e-01
-6.921830706491113872e-02 -1.219930303165307345e-01 5.048092636711670744e-01
-9.522333243061423258e-02 -9.524988212351824524e-02 4.488708878926429557e-01
-7.282230340812109737e-02 -6.499077539318112717e-02 4.360666667131405383e-01
-9.287083528525756637e-02 -1.171304322359193462e-01 4.607006733879946969e-01
-9.596147505647616149e-02 -1.230787306902414585e-01 4.931541434068683061e-01
-1.212322346641863946e-01 -1.107369899096556087e-01 4.797106350392502105e-01
-3.729067512067484741e-02 -1.213636717604726079e-01 5.019845084858706175e-01
-7.017689716788427789e-02 -1.012432413649717866e-01 4.557057123780793306e-01
-1.078973207773996495e-01 -1.067070015132439154e-01 4.578058397876927921e-01
-7.990193013132684818e-02 -1.216133828132121425e-01 5.107265244444549879e-01
-2.259447182401896209e-02 -9.951906144006020249e-02 5.619597465778245482e-01
-2.973287341362465877e-02 -1.085825327387518191e-01 5.505829257787768771e-01
-4.731082269558415515e-02 -1.112526450571587333e-01 5.377163871234221793e-01
-2.552382114978471450e-02 -1.056689237736729708e-01 4.656761019990827144e-01
-6.164252836980623623e-02 -8.826864180443853847e-02 4.469686438162067676e-01
-4.225598142650972833e-02 -8.692949027670578144e-02 4.498506557276439333e-01
-3.916422137160071454e-02 -1.129723974720212021e-01 4.783163031806295651e-01
-3.171363521064456820e-02 -1.163201542625407203e-01 4.849478576064781277e-01
-9.538955066123067095e-02 -9.798738350196783964e-02 4.500988962574451469e-01
-6.956786535881478994e-02 -8.599694056930994035e-02 4.442452668804519056e-01
-7.447588132566730634e-02 -1.221692645662915966e-01 5.059330630184244448e-01
-7.047734828337680335e-02 -1.036446987667906661e-01 4.581420717381529117e-01
-5.653783308228935850e-02 -8.258545438996796328e-02 4.449585313773580242e-01
-3.072962163898643878e-02 -1.195727213315336407e-01 4.918824781137277058e-01
-5.453008536961177072e-02 -1.009817796947970192e-01 4.581630587985829894e-01
-1.333503021809077926e-02 -1.257081240669259414e-01 5.318484547702551080e-01
-9.497099275536517726e-02 -1.007428561464042416e-01 4.517756302623595066e-01
-4.682662113771732249e-02 -9.203155703611709537e-02 4.524949005295848536e-01
-6.915836999423438658e-02 -1.011667333066930130e-01 4.558234770372756595e-01
-3.933728110197550615e-02 -1.129901744282640480e-01 4.783483646251703303e-01
-7.379222720715999939e-02 -1.009983514721064374e-01 4.548027031021297795e-01
-4.694970786038908661e-02 -1.096590820424291068e-01 4.724241267077638473e-01
-1.150850847346777395e-01 -1.014467241816754545e-01 4.616477483996002107e-01
-5.779149547271831416e-02 -8.351850128466677126e-02 4.450577579433706576e-01
-4.149839930110856001e-02 -1.135234509966586425e-01 5.399747661803041554e-01
-5.329272029154105694e-02 -1.095420761231392093e-01 4.706649782415833760e-01
-2.062993111614867814e-02 -1.235275994953114465e-01 4.987777394015635024e-01
-7.896962690375085303e-02 -7.740577760154380982e-02 4.391317743997413259e-01
-5.020196169049714885e-02 -1.012745504896956361e-01 4.597507048859447165e-01
-4.007962641277745125e-02 -1.158418395963119185e-01 4.841246360552404759e-01
-1.151928104460205604e-01 -1.191170583332059330e-01 4.932498549149848532e-01
-8.937928616686598160e-02 -1.210680681670221748e-01 4.716885325215659508e-01
-5.448537883608206567e-02 -1.123373491694421994e-01 5.339108695590321085e-01
-2.788798948380865044e-03 -1.290641154060760132e-01 5.169946246124115241e-01
-6.497167560536432074e-02 -1.167421392566015542e-01 5.253810366957302191e-01
-3.420707386906684383e-02 -8.350187174085985098e-02 4.480906050949559627e-01
-9.817585230571006238e-02 -1.040740183404971209e-01 4.541861982927614116e-01
-1.020029803795260981e-01 -1.224497935212031929e-01 4.777276046630390960e-01
-5.289957727036893875e-02 -1.162092990572365370e-01 4.843123229720194822e-01
-1.787203840990685133e-02 -1.253106349094200156e-01 5.047050105365783468e-01
-1.132727428894335919e-01 -1.185846437979895668e-01 4.736000976752877678e-01
-3.350748191466215720e-02 -1.065955498019870579e-01 4.680201169042943476e-01
-4.536853969561191469e-02 -1.120325879129846075e-01 4.766535374102010558e-01
-8.758680624880781085e-02 -7.761143625155980663e-02 4.421131075068369665e-01
-7.149370936832011303e-02 -1.203603015524040976e-01 4.901587960611666905e-01
-7.174852883497888356e-02 -1.075799689017113980e-01 4.623292081401194631e-01
-9.442920498567071788e-03 -1.187176054241802642e-01 5.526350161274740103e-01
-2.930474389303960522e-02 -1.180432446599750385e-01 5.468416731688648946e-01
-5.283815178746502361e-02 -1.184290926066802335e-01 5.292102227445087959e-01
-8.452562254062216673e-02 -1.177206956211502842e-01 4.696017713494514689e-01
-7.323123926247419001e-03 -9.731932625642726598e-02 5.697002061878034818e-01
-1.620112332574175779e-02 -1.212334058236897022e-01 4.883637484512823868e-01
-9.555571994575513817e-02 -1.216724853489429964e-01 4.784307492570731846e-01
-5.138576823711557551e-02 -1.106457211012982084e-01 5.365058873911330295e-01
-6.731789558926780381e-02 -1.189356632928702390e-01 5.211431645437586413e-01
-7.728791732538585479e-02 -1.216315448735333371e-01 5.112346775225362627e-01
-1.784968964249125309e-02 -1.096908590227162750e-01 4.677030713360191827e-01
-4.644733427716899593e-02 -1.205548867742949060e-01 5.286607449436735440e-01
-2.944178445129674165e-02 -1.059650251656268222e-01 5.514893071585661444e-01
-4.213057439163107182e-02 -1.080407972049162862e-01 4.701870400741324785e-01
-9.711421478618717518e-02 -1.232429137519041457e-01 4.894010555977230115e-01
-3.054341210083499902e-02 -1.224960794922226037e-01 5.035602342138802978e-01
-1.333502650703547766e-02 -1.060677051177236624e-01 5.650241902777984881e-01
-2.150105251719655608e-02 -1.254446201142707662e-01 5.232813278765610088e-01
-4.895989046305274789e-02 -1.097300980452001889e-01 4.722757729207613941e-01
-7.170680668625852017e-02 -1.174961477136393928e-01 4.807693500813264853e-01
-2.668438801066802188e-02 -1.130686224831357889e-01 4.769597853815633615e-01
-6.970860656289354362e-02 -1.191500009090346451e-01 4.871281388041689975e-01
-9.294359848391592349e-02 -1.221727448865563559e-01 4.836862082489972181e-01
-3.671440152817533747e-02 -1.109825295416793645e-01 5.432890485946135772e-01
-4.251165581234610941e-02 -9.108550042038847383e-02 4.528898307774715248e-01
-2.990864776753283938e-02 -1.160314904696952143e-01 4.841178878108775563e-01
-2.352577327767433127e-02 -1.229877989663333698e-01 5.387613535258392039e-01
-1.219842374819558525e-02 -1.195872264186780276e-01 4.832207953019369007e-01
-1.682846219786636455e-02 -1.171476420969395776e-01 5.552945088060085022e-01
-3.536709796957454577e-02 -9.331438435634646644e-02 4.554018203396362208e-01
-4.593195344340122999e-02 -5.701103791464375709e-02 4.387698486117868057e-01
-7.348987941259618392e-03 -1.267045458186699947e-01 5.018799598562262432e-01
-5.646393363782312852e-02 -1.209491182684588051e-01 5.192474441488150738e-01
-7.503534380087339972e-02 -5.996046598983262310e-02 4.368041651908580736e-01
-2.039149694151616565e-02 -9.845089353463770676e-02 5.637300208069309093e-01
-6.103460943375214887e-02 -5.696277595949967437e-02 4.372345164262526063e-01
-2.354880535590430160e-02 -1.249114048888626399e-01 5.257686838631306925e-01
-6.473794105357472128e-02 -1.080385134489664639e-01 5.303868975525819485e-01
-1.138851989793978059e-01 -9.802418999249899734e-02 4.602188716456362960e-01
-2.663300749630206909e-02 -1.228500517284418780e-01 5.360846876582514575e-01
-7.075364381930414337e-02 -1.172875031997683698e-01 4.808958502079378472e-01
-5.060069247824027644e-02 -1.167094824246763390e-01 4.853888415431295011e-01
-1.802107933918160876e-02 -1.260646611798452443e-01 5.269239786951582794e-01
-1.765589861759955456e-02 -9.937755570314531217e-02 5.649374103594939633e-01
-1.144070298258203083e-01 -1.170813185289588249e-01 4.968997441840635187e-01
-8.406922075023555430e-02 -1.222140847121143958e-01 4.930776825088979409e-01
-9.342747102527243497e-02 -9.443514974084622760e-02 4.483935136058584958e-01
-1.071405195453489501e-01 -1.156802228298122598e-01 5.027330302835431031e-01
-1.018830241767239991e-01 -1.198504660268918248e-01 5.034823503581606907e-01
-2.974087473264549683e-02 -1.009729088202498681e-01 4.612805703034069671e-01
-1.109369338222271073e-01 -1.178060817498697427e-01 4.707809146874148976e-01
-9.420758863808442740e-02 -1.229910370501960531e-01 4.953635519577022639e-01
-3.045737599207210336e-02 -1.234802722009642334e-01 5.249626620714631375e-01
-1.217657707946526169e-01 -1.091279210521910736e-01 4.746300888906941351e-01
-8.683033209963894605e-02 -1.158269869098293853e-01 5.167059229477846127e-01
-4.454609326694966565e-02 -1.040494189036361289e-01 4.645959001513912390e-01
-3.487586160145067504e-02 -1.216358958192648998e-01 5.023958530364043273e-01
-6.627606214808162699e-02 -1.161122734474530210e-01 5.256544718408685535e-01
-5.105985305039961730e-02 -1.077845894541565597e-01 5.377054608665176039e-01
-2.999325795750540716e-02 -1.119253280617357876e-01 5.496306517430582517e-01
-4.131794947090557113e-02 -9.777591640132321515e-02 4.584459932329840171e-01
-6.119010055755102345e-02 -5.707449950389220650e-02 4.372279439474673901e-01
-7.570893078987454838e-02 -1.219775956380578230e-01 4.967214382366406666e-01
-6.825971406293732113e-02 -8.849960278091117960e-02 4.459136930933939036e-01
-5.192397035661136528e-02 -1.207770312568252763e-01 5.030642422495059662e-01
-7.624666850154554476e-02 -7.185719494487176340e-02 4.376221883589957451e-01
-4.703119280971616856e-02 -1.133320832943764400e-01 4.787859329485075199e-01
-4.612028881543109304e-02 -1.198386557465022789e-01 4.972674584892554650e-01
-5.218071689413102815e-02 -8.179373162221831306e-02 4.455457401295193076e-01
-5.106230420266362480e-02 -1.096009600697018527e-01 4.714891625476761994e-01
-1.045324782539210906e-01 -1.231931033293404559e-01 4.912116843287953616e-01
-6.377578427463870270e-02 -8.598890411744654350e-02 4.451864376752275310e-01
-9.382666409176849964e-02 -1.226906402058315776e-01 4.976986041642388336e-01
-2.211460909364030072e-02 -1.239696683443850256e-01 5.024074100754390981e-01
-7.029622039549028242e-03 -1.243745450351496917e-01 4.939409038388292705e-01
-7.381165339498965694e-02 -9.073546934273891973e-02 4.469753945867178668e-01
-4.876567042790579815e-02 -1.112981766358468738e-01 5.372115049584738067e-01
-3.794783481867469027e-02 -1.188177910110624069e-01 5.385912462626846198e-01
-4.458070972959985584e-02 -6.841354493016352234e-02 4.416283241130103954e-01
-4.757193030527243766e-02 -5.981573764797458448e-02 4.391819986832116718e-01
-9.453929061215370078e-02 -1.217746761722173776e-01 4.642438891826380920e-01
-2.043713388154331720e-02 -1.235345318011479149e-01 4.986415774308149973e-01
-9.817766296852444008e-02 -1.094066474863221589e-01 4.575047927671491155e-01
-8.400211262804214984e-02 -1.099994457852793706e-01 5.208846805651400347e-01
-6.253548333820098393e-02 -6.977530451342478512e-02 4.393485218804277226e-01
-6.118856874337202240e-02 -1.181612103857038187e-01 4.883511123643647367e-01
-5.840719970057130228e-02 -9.512197363265974259e-02 4.523344160944443026e-01
-1.009220313129836205e-01 -1.200255969629841490e-01 5.039546878521974360e-01
-5.953821374748191619e-02 -1.206488046756723775e-01 5.190888145153752520e-01
-6.698211694832066632e-02 -1.173498483279431653e-01 4.831473800856168066e-01
-7.435337549456878803e-02 -1.221225002725513098e-01 4.996975307743986572e-01
-5.323644876088699796e-02 -1.209898546822383847e-01 5.043652165805433407e-01
-4.167824767926231466e-02 -1.174789992675344952e-01 4.881250052570879072e-01
-9.768596420584602785e-03 -1.278172094411588744e-01 5.239891512038764576e-01
-1.013944995222120782e-01 -1.175443677055995478e-01 5.078450829988249149e-01
-3.097502106793892027e-02 -1.097418218110804145e-01 4.722867546743739764e-01
-1.460934896194026125e-02 -1.141538842657430081e-01 4.730329094346986674e-01
-7.157469622862799863e-02 -1.168307697706480880e-01 5.230911928295521873e-01
-8.585280191952072981e-02 -1.094608943369729526e-01 4.594979525422789868e-01
-6.009888768804818454e-02 -1.146508709384605890e-01 4.790740701649776612e-01
-3.497714173055493231e-02 -1.147876796672611943e-01 5.440210175721250652e-01
-5.987319579367361699e-02 -1.044977554944344494e-01 4.612592040560789530e-01
-5.910517138252040920e-02 -1.181005738629651719e-01 4.888033820971964261e-01
-8.005101721608198773e-02 -1.190051340550262460e-01 4.772256736940775346e-01
-1.794033435004003391e-02 -1.175654319480916032e-01 4.805095887667829024e-01
-1.111032625319800793e-01 -1.110770803338899382e-01 4.631182973294865057e-01
-4.062860291373095872e-02 -1.221003943125794355e-01 5.228247009662615463e-01
-5.048057307975051949e-02 -1.201315999826795544e-01 4.989537389672715761e-01
-2.615607909931570024e-02 -1.203571422749540182e-01 5.447034831109797137e-01
-9.570143026051013135e-02 -1.231710679786751916e-01 4.859070675534281625e-01
-5.906535098186404403e-02 -1.143318601046870303e-01 4.786015147362545075e-01
-1.097425845415102713e-01 -1.201194075696081914e-01 4.747118042348128508e-01
-1.393455347164632152e-02 -1.229400229264270283e-01 5.431349833111563941e-01
-3.246516773522979682e-02 -1.089429955878758460e-01 4.712735972735093148e-01
-2.512502764410010428e-02 -1.088503674697950674e-01 5.564541313078575913e-01
-3.727295837865725325e-02 -1.162013076438540016e-01 4.849374965447020847e-01
-6.247722121166173620e-02 -1.182269030069614119e-01 5.246554448580937891e-01
-1.529582817666789302e-02 -1.237728462207133284e-01 5.398237357977363482e-01
-1.183242844219588030e-01 -1.183809385676672932e-01 4.827866014620081914e-01
-1.082100312311327084e-01 -9.643007067542672117e-02 4.543081100604696165e-01
-4.291915445646460325e-02 -1.186112298185290209e-01 4.916006160437805250e-01
-1.140899261139919629e-01 -1.189152268482192576e-01 4.747846270934522050e-01
-5.631955871446601980e-02 -1.210677236077232904e-01 5.052026588660258888e-01
-2.118326605488664999e-02 -1.255462482840710436e-01 5.219484399635737626e-01
-7.955010555048583343e-02 -1.199733025696400196e-01 4.854505497335206421e-01
-9.301152821419783612e-02 -1.155108295427927229e-01 4.600453377892870233e-01
-5.185325928809299961e-02 -6.642722437233340715e-02 4.404444691559809555e-01
-4.464903837598895031e-02 -8.584789973661695328e-02 4.488627939046316850e-01
-6.612750573113986008e-02 -8.574850011999292365e-02 4.446553404394986697e-01
-1.008734558749546928e-01 -1.226089843261835566e-01 4.974794056455636992e-01
-7.041489311819829067e-02 -1.181144480191602258e-01 4.836593496649200796e-01
-8.243551472552948511e-02 -9.919884041250526252e-02 4.518588201751891908e-01
-9.614104096770852148e-02 -9.379087984553718949e-02 4.483004723048017448e-01
-5.613515075093496870e-02 -6.753204421097307175e-02 4.401493923988821222e-01
-4.921867609353888784e-02 -1.184863332301820393e-01 4.915349920691980956e-01
-2.574010509932675786e-02 -1.074852446210924350e-01 4.682372349949527890e-01
-9.229920983606582433e-03 -1.281070611746927268e-01 5.151723404791631600e-01
-8.267882914043943321e-02 -8.328857168205708317e-02 4.420467657556797492e-01
-2.497879095303011041e-02 -1.113789079469543197e-01 5.560779873367679427e-01
-9.248140066800920878e-02 -1.135689266955964144e-01 5.150750069770480000e-01
-2.883405986127954637e-02 -1.225259604405848773e-01 5.354900043578076918e-01
-2.208019892277172241e-02 -1.250643370008889810e-01 5.116543156268295034e-01
-1.010465895733387715e-01 -8.716789132020831554e-02 4.505392330940599099e-01
-6.615176771178422899e-02 -1.199993565544354990e-01 4.923735250858914947e-01
-5.919240726714766754e-02 -1.198058157426971637e-01 5.229579647593088909e-01
-6.082762650198742654e-02 -1.198729082268467638e-01 4.952967175765780605e-01
-8.497074313456473571e-02 -9.383461619349894867e-02 4.479655391932928499e-01
-2.331349917640681071e-02 -1.020154214287948974e-01 4.602022204100323366e-01
-1.074838635853581637e-01 -9.571132644380583865e-02 4.541896668742111953e-01
-7.227903025249476920e-02 -5.748949057519500694e-02 4.375105793186664926e-01
-1.153128817153311475e-01 -1.149409563698932379e-01 4.968348833748464366e-01
-3.107906137961787343e-02 -8.849555724605008555e-02 4.512542827149683689e-01
-7.683255999044460993e-02 -8.306876409774710535e-02 4.415799216210055667e-01
-4.209993857227747882e-02 -1.183406255332777324e-01 4.907363024621927972e-01
-1.422250796326470119e-02 -1.113419635778491734e-01 5.617718846753650963e-01
-7.322031596865642700e-02 -1.222098654480166524e-01 5.053134642265697529e-01
-1.067497877586623262e-01 -9.424271343561245462e-02 4.542710177981994502e-01
-9.011490447138661986e-02 -7.891111310274404045e-02 4.439847211583468067e-01
-6.734190858496945375e-02 -1.073147191832410363e-01 4.630847946131088633e-01
-3.893034126766264924e-02 -1.205971686110833829e-01 5.348099425571133381e-01
-9.472169462531798700e-02 -1.185658361403331001e-01 5.108670472536235296e-01
-4.102951299053299306e-02 -1.213297748381677033e-01 5.041895632111231818e-01
-4.165040674076390254e-02 -7.641512581380674463e-02 4.446589303139054650e-01
-1.816186144911714068e-02 -1.258738055788786447e-01 5.101155725642004812e-01
-6.519327771033157914e-02 -1.217352622272796503e-01 5.096397624337128951e-01
-8.848352085969031500e-02 -1.014306139303217669e-01 4.525383704316536249e-01
-1.762849826830217154e-02 -1.167360030245892938e-01 5.558153508861956027e-01
-6.610607767806016277e-02 -6.973560825957125786e-02 4.383667759768955507e-01
-4.696232784504202062e-02 -1.166410816539244916e-01 5.351440736984197644e-01
-1.021854861854428337e-01 -1.120095181430205283e-01 4.606864877537598657e-01
-8.795047744627172703e-03 -1.207032989881952345e-01 5.474203531351219398e-01
-1.242237634732642343e-02 -1.236812001653369714e-01 4.936086988678980991e-01
-8.943653778644897190e-02 -1.140479224566294802e-01 4.604443075034383992e-01
-6.593260396210622043e-02 -1.090425213301022822e-01 4.663626353180597151e-01
-9.451913866225135352e-02 -1.189934155011339034e-01 4.619197581485319781e-01
-4.207354244078508054e-02 -1.012941102817370848e-01 4.617882823179233487e-01
-3.972207053175350056e-02 -1.219853484030810620e-01 5.260907176785948325e-01
-1.192638703368164438e-01 -1.036853591019424453e-01 4.704092414141978207e-01
-9.638137004493894933e-02 -1.227239943691004892e-01 4.968776799479072137e-01
-9.211325109802966440e-03 -1.200324314665349862e-01 5.497418208574236242e-01
-5.404850436121394486e-02 -1.131028748871473477e-01 4.772510551112626453e-01
-9.251702388175268854e-02 -1.218392701185750521e-01 4.824313335143343151e-01
-1.119433860313908194e-02 -9.680765910810183728e-02 5.692853462020805999e-01
-2.414388508199115380e-02 -1.138286498476717701e-01 4.774033567162196401e-01
-4.339673954972990411e-02 -1.218519236648803877e-01 5.128388028438825019e-01
-5.540044830048498209e-02 -8.196467324273469524e-02 4.449620035205288926e-01
-1.208319665537520571e-01 -1.110711827686796244e-01 4.755319523710785923e-01
-6.218698589852813402e-02 -1.179247535796907470e-01 4.869225143273570033e-01
-8.891523297946123117e-02 -8.224691210503923267e-02 4.430684160672663796e-01
-1.104067197888789764e-01 -1.222015425440804298e-01 4.877839495189200680e-01
-7.678817845277241538e-02 -1.224168293888369674e-01 5.034709414210294387e-01
-1.002315168693569541e-01 -8.290547424467720194e-02 4.530301296379083409e-01
-2.116397030764165590e-02 -1.252935300967441268e-01 5.120082404871582060e-01
-1.166247993362146823e-01 -9.950496327105957939e-02 4.659876702121894532e-01
-7.169933661765486022e-02 -1.123620651644594570e-01 4.695705596642590907e-01
-5.661550567722716670e-02 -1.158189552881890710e-01 5.308550101556914758e-01
-2.761882307912935999e-02 -1.131222811769554831e-01 4.774392174733326222e-01
-9.143423152232538209e-02 -1.227372876661644713e-01 4.979573667677723026e-01
-5.520916876524067235e-02 -6.126636580522138581e-02 4.387422076882976918e-01
-7.859983497930142504e-02 -1.180687406238940251e-01 4.768835960979964095e-01
-3.112213344001385842e-02 -1.225842291794531635e-01 5.049284688596512582e-01
-3.241868430244827098e-02 -1.175081311398852441e-01 4.874668341115105941e-01
-2.227534130267841417e-02 -1.252893669539415500e-01 5.216696096786175296e-01
-4.865707368283373607e-02 -1.164646260733775140e-01 4.850571821694665831e-01
-8.061328917392171500e-02 -1.215747184469998798e-01 5.107416361483614331e-01
-7.448158792386960769e-02 -1.215708689492586009e-01 5.119799285670788569e-01
-7.768922681634186922e-02 -1.185710146548874244e-01 5.191044892678227107e-01
-1.200426617899168213e-01 -1.126236128698886174e-01 4.760238134695582990e-01
-8.923481209051227492e-02 -1.224678987935805541e-01 4.903492484568724441e-01
-9.592725632314264006e-02 -1.169191221778516088e-01 5.114068874719431834e-01
-5.898278907478339550e-02 -8.566610763432090658e-02 4.460094882957568729e-01
-7.855624670618550909e-02 -1.098073255503825146e-01 4.624023775662537972e-01
-3.163501680221120910e-02 -1.227091511811964630e-01 5.067863057012569339e-01
-8.606502698610450641e-02 -9.596469517874528510e-02 4.491001901298945498e-01
-7.273559017756120459e-02 -1.169917810726596036e-01 5.227216311384471625e-01
-1.217878745088338266e-02 -1.274056449570758198e-01 5.233914579696027358e-01
-1.223648616017239572e-02 -1.258747347193303612e-01 5.012915500521659684e-01
-4.042951589977556576e-02 -1.110929321825054744e-01 4.751193633135664118e-01
-3.574187066032077226e-02 -1.191246322081799397e-01 4.922064030810255342e-01
-6.252495430199310478e-02 -8.689978280866589300e-02 4.459866397379642078e-01
-1.177765438325149711e-01 -1.057950169469384361e-01 4.658587950570786673e-01
-1.880374495849116562e-02 -1.245400429019142274e-01 5.018082947147380901e-01
-3.024403907183646073e-02 -1.082817054091419345e-01 5.498005816700264337e-01
-3.856097427675399952e-02 -9.068720250516100478e-02 4.529599653028430484e-01
-5.951872647871682409e-02 -1.175157208193380737e-01 5.275122683971297244e-01
-3.600384313047135659e-02 -1.131612279622971201e-01 4.786046960419621521e-01
-5.619683542414943833e-02 -8.292944316702166585e-02 4.451569433593459135e-01
-1.017257070638217242e-01 -9.824340608255867358e-02 4.513363090044931747e-01
-9.475566713743784064e-02 -1.177936030508702492e-01 4.614486234369112871e-01
-7.288720813952882793e-02 -9.913812381337150370e-02 4.534089767610583466e-01
-1.743722037202606254e-02 -1.172460211480602227e-01 4.796544529268229606e-01
-6.607930676789949831e-02 -1.189508711583430606e-01 4.882343354585485518e-01
-4.159958381050061355e-02 -1.210259013855612964e-01 5.318207823800661371e-01
-9.804349668175196819e-02 -9.501298279609701747e-02 4.491296397879738778e-01
-8.065647758895930219e-02 -1.171740480984588412e-01 5.191283180155158439e-01
-3.259034721239519039e-02 -1.126362936837699419e-01 5.467266126633463230e-01
-7.299862118789850196e-02 -1.208420922613569620e-01 4.918499562735880737e-01
-7.514625697170795871e-02 -1.219344867830328139e-01 4.966569286876034162e-01
-4.274375638887469020e-02 -9.368504155503747099e-02 4.548788640714710452e-01
-1.054024167217515184e-01 -1.217476949415782633e-01 4.767773601415579710e-01
-4.716533164318243571e-02 -7.898654270524554932e-02 4.452330239169979276e-01
-8.264843194261750625e-02 -6.629929069673876074e-02 4.392238252777430629e-01
-5.876979234587328266e-02 -9.456527752480355098e-02 4.518169139601201367e-01
-6.378958023098180163e-02 -1.190017287818724429e-01 4.900052891922775933e-01
-6.300867471321638935e-02 -1.077459812471546485e-01 4.650401265255665328e-01
-9.521807165986793942e-02 -1.044686905776700675e-01 4.541657927467894762e-01
-9.115357295772694157e-02 -7.390379725616098849e-02 4.461479202344564299e-01
-4.213246517349377579e-02 -1.203591850273213471e-01 5.343986836040925947e-01
-2.903882256838830403e-02 -8.591136525913065092e-02 4.490172691094384549e-01
-4.930791829319160907e-02 -1.161732406820651792e-01 4.843390766077189102e-01
-2.443831347021629269e-02 -1.222804307972763377e-01 4.972322023275427272e-01
-4.636414546776441992e-02 -9.501621538706594983e-02 4.550338161338160492e-01
-5.268606519662382554e-02 -1.139861893231786383e-01 4.793976250654018445e-01
-4.136980777346011690e-02 -1.113832963836462048e-01 4.756431502346070150e-01
-3.430866444000054555e-02 -9.954699978956442485e-02 4.608231724593103151e-01
-2.708535255517921167e-02 -9.390675766372720557e-02 4.545903223427822382e-01
-7.980763298570976716e-02 -1.189344008075685771e-01 5.174284703209180991e-01
-3.428392570966565939e-02 -1.221700003882658370e-01 5.314889145042277496e-01
-1.070739470029103968e-01 -1.216037851358188482e-01 4.777517880656853566e-01
-8.913609803488796446e-02 -7.650348447608247560e-02 4.432919203974897138e-01
-5.267857917371301241e-02 -1.211852948989672052e-01 5.067569408690802968e-01
-1.237618315529560170e-02 -1.092910254946941745e-01 5.636275939402519697e-01
-6.599986513527061893e-02 -7.347534021068695409e-02 4.394638111330009811e-01
-4.413592125833017826e-02 -1.217901369858954280e-01 5.124630867150482549e-01
-4.779007109742400977e-02 -9.959051858099249310e-02 4.586182712454451860e-01
-1.751412717193685104e-02 -1.257317551563736646e-01 5.064319566713755272e-01
-5.238616304797284740e-02 -9.665723317147294213e-02 4.549229451597666118e-01
-2.771068252479827465e-02 -1.170459157303484488e-01 5.493471968515803994e-01
-4.054680424311336850e-02 -1.218412778589343104e-01 5.078915948102129541e-01
-8.428048448252399572e-02 -8.898955382591378083e-02 4.453024471663998285e-01
-1.801389166173806775e-02 -1.212297269409124550e-01 4.894436810434770746e-01
-8.006298215590315626e-02 -9.092036890938449967e-02 4.465378383885100222e-01
-5.973332698708661709e-02 -1.059493170388801225e-01 4.633663863786997017e-01
-1.427781840038470917e-02 -1.257258661948491008e-01 5.314402607204594675e-01
-4.193670028557325985e-02 -1.165805566615485400e-01 4.856890190283362219e-01
-3.007003899785446605e-02 -8.948213850297769001e-02 4.518316194967215704e-01
-3.568456162534993509e-02 -1.190637796255531872e-01 5.398442036214181616e-01
-3.786699206216549013e-02 -1.134375614251223879e-01 5.422299065764510928e-01
-1.150133837264943337e-01 -1.135432049499572882e-01 4.682704262856567379e-01
-5.652831379028737391e-02 -1.213290600047911699e-01 5.141230917493290198e-01
-3.843730844695827237e-02 -1.121305242180843514e-01 4.767614317757384867e-01
-6.527975989385362277e-02 -8.087849445876131582e-02 4.421163316044447456e-01
-1.484546789403507275e-02 -1.032108686784832252e-01 5.656039760448249298e-01
-8.692541996554344064e-02 -9.297204588023209870e-02 4.474392032727004254e-01
-7.361358206772375401e-03 -1.260110127570337468e-01 4.995547232698677176e-01
-9.128688616240540621e-02 -1.225206946589498802e-01 5.003231078584232661e-01
-1.138393985540503001e-01 -1.208502624097612943e-01 4.809345287666752511e-01
-5.796048178475665669e-02 -9.606475096926743451e-02 4.531763951223687359e-01
-3.456929713158704565e-02 -8.509948677139744788e-02 4.492538791904735485e-01
-2.501402461649367831e-02 -1.245397242332662718e-01 5.271418289773429633e-01
-8.830818061889574022e-02 -1.140709026248738489e-01 5.170036287682358012e-01
-1.199646624432327141e-01 -1.107603389464553584e-01 4.730874656655175703e-01
-9.081906780339508989e-02 -1.194720942889901383e-01 5.117316613916373935e-01
-1.158841004180978795e-01 -1.210324729635335328e-01 4.875626595334200952e-01
-4.024246852151626419e-02 -1.222559510594026788e-01 5.165884278887387104e-01
-7.501923630825312050e-02 -1.152091230463089117e-01 4.733209011156205293e-01
-1.179768974212382082e-01 -1.187200115455749605e-01 4.890840501182955324e-01
-1.469891641801441065e-02 -1.213257044858109951e-01 4.877554333322817182e-01
-1.078724056298047546e-01 -1.063993335779294669e-01 4.575252695252927659e-01
-8.822128444961664651e-02 -1.135465076429936770e-01 5.174635860946263932e-01
-3.117617103388348535e-02 -1.209962594573599642e-01 4.968333239410750446e-01
-2.975900826413023156e-02 -1.150326361077099180e-01 5.488298376993691052e-01
-1.785995504966593830e-02 -1.023634161338546761e-01 5.647920827466986760e-01
