-6.488493285158082602e-02 -1.094201303178173879e-01 4.674325161140790996e-01
-3.021609297499080679e-02 -1.183865344445809431e-01 4.890282085746520679e-01
-2.416907827123638761e-02 -1.247209430168462613e-01 5.145037581428230089e-01
-3.783989736265234993e-02 -1.101445870945264166e-01 5.425484497001478168e-01
-7.299670256630275134e-02 -9.634245403643355854e-02 4.511835598441811812e-01
-3.623651990810231732e-02 -1.197496044025244677e-01 5.389262455350255498e-01
-8.587203602073185948e-02 -1.220885476487208049e-01 4.912539662246863115e-01
-3.514359149440447749e-02 -1.170576658234564610e-01 4.866771783347029756e-01
-7.757693708521465337e-02 -1.219199421277053497e-01 5.075082037949519842e-01
-3.563714432920628283e-02 -9.664570102208670799e-02 4.581638116560179941e-01
-1.482608891332630636e-02 -1.258037919848352393e-01 5.039914443632023122e-01
-4.210183633195606345e-02 -9.520310224455218184e-02 4.561773014605508547e-01
-7.536073839982947165e-02 -6.114301744989870946e-02 4.363375298184538620e-01
-1.037670220289279022e-01 -1.205477027546989210e-01 4.721389707157990778e-01
-5.552396091321025462e-02 -1.065212739797719993e-01 4.654135982509521319e-01
-6.172066179234261818e-02 -1.152158618813584889e-01 4.801430027805086986e-01
-2.274057638487286814e-02 -1.251928706660087598e-01 5.215075138954163858e-01
-7.932629107696815077e-03 -1.180803536821223437e-01 5.534884014255737616e-01
-1.758495986528484101e-02 -1.244645323249670837e-01 5.360540939105949976e-01
-6.022983248915658727e-02 -9.832579739896034343e-02 4.546726025425063544e-01
-1.756643971796569004e-02 -1.067478708001583093e-01 5.638905713612119008e-01
-3.047358284135848194e-02 -1.187183328564167806e-01 4.897852964650557528e-01
-4.107517135963910382e-02 -1.148479025549251631e-01 4.820298149208067651e-01
-6.154776215945914619e-02 -1.018342940993149509e-01 4.579151718272975180e-01
-9.180964613326668411e-02 -1.184460449916471814e-01 5.121430687033896589e-01
-5.360982453677719251e-02 -1.163677857093879942e-01 5.317070328875742602e-01
-1.117443865377838047e-01 -9.744278256182081766e-02 4.560849556609107847e-01
-6.347975959026234960e-02 -1.091377087149760228e-01 5.305181576222082196e-01
-1.059092701929006258e-01 -1.099777098742092674e-01 4.600364089301248183e-01
-5.699218087374009062e-02 -1.131575545610326861e-01 5.320944765906721052e-01
-2.562177017222893455e-02 -1.000249997780391781e-01 5.556454418628373748e-01
-4.506452183714957510e-02 -8.281850246365531076e-02 4.470950620634294714e-01
-5.498256146825932639e-02 -7.514620919163400581e-02 4.425962809031809830e-01
-2.012743668689175730e-02 -1.185143413444453842e-01 4.834668476811018190e-01
-6.454910805873578794e-02 -1.101541596693465241e-01 4.687597802885200005e-01
-2.296680091844128385e-02 -1.207168980318038265e-01 4.912108610964753819e-01
-7.190347483657229255e-02 -1.105482978065135402e-01 4.666459919763637498e-01
-8.558830686892837658e-03 -9.849967262640585419e-02 5.690542939490026431e-01
-1.105689382055788234e-01 -1.164590332762527602e-01 4.686524031775805010e-01
-4.614112857808346652e-02 -1.206289087643575009e-01 5.020662867987839562e-01
-4.521006990186252766e-02 -1.108284573855943533e-01 4.746877552909992137e-01
-4.184200185730142796e-02 -1.180232808891851226e-01 4.898614810284835919e-01
-7.862860527655314569e-02 -1.163351297358121844e-01 5.212759860498882292e-01
-2.559324886906262989e-02 -1.151360637803579279e-01 5.537350306803922040e-01
-7.205036519663877981e-02 -1.093397551317260019e-01 4.646744245928490225e-01
-1.106425560760435078e-01 -1.192002452495863063e-01 4.733143733526070096e-01
-5.557147327534217585e-02 -1.018009109561575365e-01 4.589907081729940330e-01
-2.781406522642071791e-02 -1.208789093178736229e-01 5.424273601174032233e-01
-6.288745839105963631e-02 -5.748436198977911749e-02 4.369345794008269723e-01
-6.753767069037348858e-02 -1.135331997023473483e-01 5.274421473765498192e-01
-1.187819573916546190e-01 -1.188388406153191856e-01 4.870418910815334512e-01
-2.142488344595223915e-02 -1.247223323046283833e-01 5.053387392219838015e-01
-3.775951685748164116e-02 -9.438210567956820118e-02 4.560507097942134158e-01
-2.492084173524002771e-03 -1.289254399122777561e-01 5.242446556593193252e-01
-9.838908363862562678e-02 -1.207208712831124992e-01 5.065805540260932549e-01
-1.062707077776318676e-01 -1.214816190258502238e-01 4.768930128943307256e-01
-5.339238391052716914e-02 -1.214219759765537698e-01 5.140494026070141498e-01
-3.601682868163989804e-02 -9.837609969790846176e-02 4.597272368212685922e-01
-2.971315144039942541e-02 -1.167840262816492586e-01 4.856199799935622119e-01
-9.898108559726424144e-03 -1.239996636603581115e-01 4.934800402776765016e-01
-1.173824301638170739e-02 -1.030213381911661980e-01 5.668560360078513938e-01
-2.122918264941169725e-02 -1.213438453429939307e-01 4.918686415835080705e-01
-4.586563709785290710e-02 -1.191131387036771933e-01 4.940495503983116099e-01
-8.806145631174350230e-02 -1.225312139752210566e-01 4.993261144653005634e-01
-1.021298336552844965e-02 -1.257796508738847352e-01 5.327566583524374622e-01
-5.173924736872555913e-02 -1.168188965578043637e-01 4.858694715543489528e-01
-6.480784889400427462e-02 -1.135871250625052065e-01 4.753906387739768036e-01
-9.917029571731912629e-02 -1.220319311098086723e-01 4.999015742501322079e-01
-7.075801740836999698e-02 -1.211687001991359480e-01 5.138267493616923698e-01
-6.921409458739788412e-02 -1.218667550709283676e-01 5.045180594575048305e-01
-5.867451564749893989e-02 -1.149815213721875062e-01 4.802304771257095983e-01
-1.125828531086450618e-01 -1.191662272699341302e-01 4.970500413271383700e-01
-2.577675592316293340e-02 -1.048359932372468911e-01 5.568968990037019839e-01
-7.549043027981421072e-02 -8.397102515562822334e-02 4.423073838917245815e-01
-1.024534388374279993e-02 -1.164177684720427569e-01 5.564183060040398532e-01
-1.165927210053360613e-01 -1.198405224338249392e-01 4.806194374298362604e-01
-5.927983640209395777e-02 -1.140858711822024529e-01 5.305755240784501003e-01
-9.521825543010378756e-02 -8.506152384300802449e-02 4.458085601702851397e-01
-8.104720318403056678e-02 -1.206783792165944114e-01 4.887040424677300265e-01
-4.555995511390557862e-02 -1.154624165871174224e-01 5.364907679365003013e-01
-7.023348871532973658e-02 -9.039798276258505239e-02 4.469923730853393451e-01
-4.792533278731488794e-02 -8.666742177622457910e-02 4.487014379566753863e-01
-9.032939236628710622e-02 -9.861545269544286230e-02 4.504417114151861301e-01
-6.561353742591252702e-02 -9.360546736686208014e-02 4.499382659158741582e-01
-5.223062059132220492e-02 -1.080464907650543205e-01 4.684970536020379162e-01
-1.005460889362836951e-01 -1.016174083336801731e-01 4.526578351090657093e-01
-1.065432909364882330e-01 -1.217181672368929934e-01 4.783464869049995349e-01
-6.440998824676812118e-02 -1.093199645807942794e-01 4.674024989007094510e-01
-2.591108805000758020e-02 -1.014100413523455618e-01 5.555664143677057076e-01
-9.484688743956033730e-02 -1.016350353605053325e-01 4.523824203120714871e-01
-1.029889196453513539e-01 -1.176146777849254310e-01 5.049715727098597062e-01
-9.667637281619517742e-02 -1.140451669908923021e-01 4.596499864756597997e-01
-5.629320927787159756e-02 -1.119697599681312161e-01 4.744864282759000962e-01
-1.002586221095932012e-01 -1.119696760240722483e-01 4.597353068825427713e-01
-1.160059421943475527e-01 -1.016260597323281473e-01 4.627433219276422816e-01
-2.983063726436380875e-02 -1.124424686304040105e-01 5.499109564728813515e-01
-4.798106693746323481e-02 -1.095415186058192325e-01 5.384230127938812727e-01
-3.347779710018351090e-02 -1.142394063925663145e-01 4.807274979970846407e-01
-3.465138185942577553e-02 -1.186247928113795674e-01 4.906622614169105501e-01
-7.774260901858136286e-02 -1.203062041665765164e-01 5.149527584257053148e-01
-4.238676291793316148e-02 -1.219698739675327825e-01 5.150223730728532567e-01
-4.827941951802470349e-02 -1.209531588212648806e-01 5.226280555057137844e-01
-5.860959386237354213e-02 -1.202899195693324236e-01 5.207686333628966935e-01
-6.283357974919695499e-02 -1.204042410869780311e-01 4.974572246367961470e-01
-9.017244234833700356e-02 -1.144480278607129670e-01 5.154390888923905401e-01
-4.323246795230203249e-02 -1.138862877840031151e-01 5.385891319894086093e-01
-2.244727355721720316e-02 -1.131778233697079833e-01 4.754311290053154226e-01
-8.199291286295276593e-02 -1.042945453808202805e-01 4.558392606003837111e-01
-7.793220168527421887e-02 -1.202108742711508055e-01 4.869158373137926210e-01
-2.810152696595585517e-02 -1.238966897011126445e-01 5.268901418826064109e-01
-3.219230650709289931e-02 -8.614073950696565785e-02 4.497164082969349330e-01
-6.605178584208447334e-02 -1.013165785103180144e-01 4.565681232245679677e-01
-2.749546144468729275e-02 -1.234133908294921395e-01 5.316105763973051346e-01
-3.993987308363135258e-02 -1.189561435951415475e-01 5.372362431484811740e-01
-7.492679106483494944e-02 -1.066325138391251703e-01 4.602426045095171503e-01
-5.702530460191321954e-02 -5.621868973243072248e-02 4.376060071353533587e-01
-1.538641874755402802e-02 -1.182729052416408716e-01 4.811799836117278684e-01
-4.378266796641628461e-02 -1.035957259001648034e-01 4.641994543211157564e-01
-7.824063425380536896e-02 -1.216380360397227439e-01 5.104179878629723222e-01
-8.352635869009597536e-02 -1.221405622128837326e-01 5.051045254719050970e-01
-9.078825743006858906e-02 -1.212328516992343536e-01 4.742795575681255649e-01
-9.016564079886281446e-02 -8.103733172955659980e-02 4.434610980925454138e-01
-1.210291325631425302e-01 -1.118446779082963582e-01 4.842858904515455198e-01
-4.504958696195741213e-02 -1.182544128709967501e-01 5.350081090367314607e-01
-1.512208849869716570e-02 -1.230465098912111865e-01 5.427372995384149856e-01
-1.202040785965687308e-01 -1.111555089109281802e-01 4.740525071537373680e-01
-9.134503637735434667e-02 -1.224691606422486923e-01 4.994279391483441577e-01
-6.433424887297375938e-02 -6.863714936958401069e-02 4.384308205007197423e-01
-1.043694449069667712e-01 -1.130343089181131411e-01 4.624053847238434600e-01
-8.902523412731445235e-03 -1.230353110855690185e-01 4.905354150797854307e-01
-8.235347134819764880e-02 -9.678558254128548366e-02 4.501905739813192864e-01
-4.168525217630195817e-02 -8.797606318112027868e-02 4.505744434200913973e-01
-6.633808876018315592e-02 -9.980070128510297456e-02 4.551057488829570175e-01
-5.640398766206148468e-02 -8.282556347330172208e-02 4.450234768533557483e-01
-6.316103533434871964e-02 -1.185684817114209394e-01 5.235203133786066054e-01
-8.719994571858963317e-02 -1.131596968867093489e-01 4.611351775740175629e-01
-5.100760340753206223e-02 -1.089124399760200979e-01 4.703868229043570715e-01
-5.412706032583897847e-02 -1.212949007590924944e-01 5.090816236364772429e-01
-9.191734136675423772e-02 -1.208869120293357968e-01 4.778827580949994713e-01
-8.770967432968558575e-02 -1.223977154794648053e-01 5.005567829683944536e-01
-8.641703140842017794e-02 -1.193422778118306132e-01 4.711639991280617279e-01
-9.766619283164577892e-02 -1.230106780806108774e-01 4.841135706259139804e-01
-4.668149803948407062e-02 -9.036248522058068500e-02 4.512850615927131437e-01
-9.465855430211975174e-02 -1.064262353140861816e-01 4.551860028970746153e-01
-9.376031476718080238e-02 -8.131819412852968332e-02 4.458240517563094030e-01
-7.759245055454974671e-02 -1.200549972315649860e-01 5.158152712756001179e-01
-1.161362184333705333e-01 -1.159637815193350768e-01 4.728932503947831378e-01
-1.540243482606143757e-02 -1.172801091142091356e-01 4.790402176560936143e-01
-6.776226842635706127e-02 -1.202419909262967407e-01 4.931276633446252111e-01
-6.457434756387084307e-02 -9.386737034216180442e-02 4.502878946625906709e-01
-8.166702432160993785e-02 -1.138623190707616917e-01 4.669732869144194165e-01
-7.827524960795197162e-02 -1.127512168829190586e-01 5.248082050161495538e-01
-1.078243008852586143e-01 -9.633331063816635842e-02 4.538197530981382122e-01
-2.196120994582709957e-02 -9.936709878595924306e-02 4.572387596594990611e-01
-6.607542205659408530e-02 -1.197491481958234821e-01 4.917423538721741316e-01
-4.561762685254099753e-02 -1.208300307195206980e-01 5.285498259931485920e-01
-4.006173020686440434e-02 -1.206759323761478625e-01 4.996064015748014064e-01
-2.590584136608037324e-02 -1.194770900068153480e-01 4.898225772170216041e-01
-8.592416601502107787e-02 -1.225318740134021950e-01 4.968726026716399069e-01
-7.086000086379087848e-02 -1.064966474806921803e-01 4.612066311582455613e-01
-1.118838866666725523e-01 -1.160036426941344484e-01 4.687019672274349569e-01
-6.810620067776065878e-02 -1.213441221680449655e-01 4.992968046890600697e-01
-1.155499687083779009e-01 -1.147024158570976449e-01 4.965891393633338202e-01
-9.457725733450481065e-02 -1.225687209288755103e-01 4.848389604578015599e-01
-2.175905557905367244e-02 -1.082866464711294552e-01 4.675562875305289690e-01
-4.225721382696277784e-02 -1.130034207446786454e-01 5.397448743456235709e-01
-7.793469985309188497e-02 -1.169160794741125053e-01 5.209505530075168034e-01
-1.165573638452922223e-01 -1.175372524594922308e-01 4.758545690007460749e-01
-4.627440245313135282e-03 -1.289719500425944576e-01 5.184092769656609700e-01
-7.753632541707129733e-02 -5.755301481083489185e-02 4.378267294337949145e-01
-1.096308046431832967e-01 -9.492724682348234466e-02 4.551588355301045552e-01
-9.116136787713931267e-02 -1.209731512512485924e-01 4.774726393565419946e-01
-2.613086597794259808e-02 -1.231511526380697497e-01 5.029162046694783950e-01
-7.266917507624956474e-02 -6.087105544383638461e-02 4.362775012812459829e-01
-9.719571017178586791e-02 -1.228184475997606551e-01 4.834192927961483144e-01
-4.039701199283027289e-02 -1.093885591882430702e-01 5.416762185179911926e-01
-1.878446803410264293e-02 -1.260133849831181485e-01 5.155188916272838151e-01
-7.555674503132785158e-02 -1.133586992202410687e-01 5.252147986908110022e-01
-3.892951098593037257e-02 -9.441783824957247773e-02 4.559524303814693758e-01
-9.660337892015151418e-02 -9.100980260090348051e-02 4.478121906005000930e-01
-6.702461594550937485e-02 -1.140016733226538598e-01 4.754473308597226833e-01
-5.796231699731918541e-02 -6.397850906070566557e-02 4.387963582125778417e-01
-5.902627785586035680e-02 -1.028259428392774982e-01 4.594723611612929193e-01
-3.989735209363086399e-02 -1.129278225134612706e-01 4.782688940774108000e-01
-5.588467228635043277e-02 -1.210854209606663096e-01 5.171428465878666891e-01
-5.582213318491839604e-02 -7.289009596859818974e-02 4.417510950811247006e-01
-6.529996234838095215e-02 -1.129634737827676649e-01 4.739694411762636062e-01
-9.698527150937215346e-02 -1.215243629452034818e-01 4.771353096582094944e-01
-3.251475548928247500e-02 -1.002028779362858224e-01 4.610638833829943106e-01
-8.127733234526994532e-02 -7.502179291396117444e-02 4.384568968988489801e-01
-3.566130311339833769e-02 -1.172719637722527686e-01 4.871490580522862546e-01
-9.218880152782089887e-02 -1.221621501171688828e-01 4.852219833479815003e-01
-6.976876606991402885e-02 -1.214695722156411833e-01 5.107510637342207449e-01
-1.121171680043876878e-01 -1.077788391988536432e-01 4.602219941460345409e-01
-4.212238203029934624e-02 -1.163847012307819007e-01 4.853210400468429553e-01
-9.658645044308149241e-02 -1.220146685500733269e-01 5.004642986518873515e-01
-3.676245577267119730e-02 -1.112450300467916070e-01 4.751683297252159988e-01
-8.958294679374947944e-02 -7.100616398883428937e-02 4.451111294902215243e-01
-2.067566614768933178e-02 -1.214691851528239414e-01 5.458053680689902709e-01
-3.003795565589701885e-02 -1.090787822505314419e-01 4.712578372755345524e-01
-5.356431119701471344e-02 -1.146790524900474229e-01 4.806285313425528449e-01
-2.684779974532532781e-02 -1.182892276498240941e-01 5.485635170028583252e-01
-7.119305666192392301e-02 -5.473829210267683321e-02 4.383542773774996015e-01
-1.967390167296926076e-02 -1.258179708750584436e-01 5.160460992112758660e-01
-7.386510451218376849e-02 -1.177115464860248872e-01 5.211023812854529424e-01
-1.102567203716369182e-01 -1.018305397628262998e-01 4.555290225588640163e-01
-1.181362432004781221e-01 -1.087343381086294664e-01 4.679552625858799941e-01
-7.535588443222766830e-02 -1.205486099846162645e-01 5.147589434170254385e-01
-6.344138038778737720e-02 -6.592813592020178859e-02 4.380649025201901470e-01
-4.504844068902397886e-02 -6.539603896657253390e-02 4.407119951947600645e-01
-7.209975917872338269e-02 -7.859012337768137013e-02 4.396439310337566519e-01
-1.760069047086761790e-02 -1.248468573368728129e-01 5.344768739212486519e-01
-1.311586238801820160e-02 -1.059359096531588412e-01 5.651406348631202725e-01
-1.273340325188959329e-02 -1.208106082437001572e-01 4.860285888970157231e-01
-1.184107521704177990e-01 -1.149029297981123826e-01 4.768375058271315803e-01
-7.006581286534693809e-02 -9.006857536085828564e-02 4.467690375119507951e-01
-1.137618426782661812e-01 -1.150644311861972330e-01 4.688959511412439940e-01
-3.224770893029722113e-02 -1.217181512821611800e-01 5.353715737537848574e-01
-8.646045170534318036e-02 -7.269496738187311569e-02 4.406383448803959380e-01
-6.086465989945349930e-02 -8.937360664041391067e-02 4.477789983382692851e-01
-3.492776452461741205e-02 -1.228016139162304426e-01 5.228303960827082042e-01
-7.790517802732314923e-02 -1.147972412621519750e-01 5.235763146449853300e-01
-9.546902639556574532e-02 -1.184489064647921697e-01 5.104474208020498560e-01
-3.784869295690234531e-02 -1.223672745197693507e-01 5.140851129962012989e-01
-1.202054080542130504e-01 -1.153837299899651420e-01 4.879827631878251859e-01
-5.875214310995148514e-02 -8.023969123645008361e-02 4.435486829331775072e-01
-6.628569028555179876e-02 -6.255837266953305498e-02 4.368877660733055390e-01
-7.052727638828133749e-02 -1.149379628672407838e-01 4.757749012044267256e-01
-4.066481679308312641e-02 -1.104535222334876998e-01 4.740629626153396448e-01
-8.958699073793756351e-02 -1.151141076437217359e-01 4.606251425202010918e-01
-9.776333083219522491e-02 -1.227637763359082507e-01 4.951951563718993143e-01
-2.054366149822146881e-02 -1.016413588104935484e-01 5.633951480165668713e-01
-1.119769206389700511e-01 -1.217047319017010021e-01 4.882110216805562453e-01
-8.247156053094072126e-02 -1.225192327975489770e-01 4.989738338290671260e-01
-5.586117010983852882e-02 -1.167376000869420893e-01 5.301505696820831837e-01
-5.766788088780834369e-03 -1.287556380919023802e-01 5.225323248889864880e-01
-9.544257574518152931e-02 -1.162771056281758641e-01 5.118685210956510634e-01
-3.997430030305210158e-02 -1.182092445278276754e-01 4.903511821635097578e-01
-1.123264812252369391e-02 -1.246082509128139948e-01 5.361469956635629419e-01
-5.258037178754104701e-02 -1.145681758692099761e-01 4.806957794673900053e-01
-5.180842947320543623e-02 -1.060807615567411905e-01 5.376126833396991378e-01
-1.029408199600268664e-02 -1.224019987241021235e-01 5.431379702279074406e-01
-4.779792950768053938e-02 -1.117053737487706810e-01 5.372218662012203660e-01
-7.295190690308937798e-02 -9.414637439643992745e-02 4.495012759146804204e-01
-3.049284833358668206e-02 -9.614698563791433672e-02 4.571491745242320937e-01
-6.577631931063407378e-03 -1.238762911289013335e-01 4.924105701927027345e-01
-5.584081947396058593e-02 -1.009529303122399108e-01 4.579357706093033498e-01
-7.232335173014112217e-02 -1.209614287610628752e-01 4.932677922878337951e-01
-2.395608922566680801e-02 -1.085598167356264104e-01 5.583289716305631645e-01
-1.422007227691669470e-02 -1.268187816171268412e-01 5.247531682502736272e-01
-4.408403668203596248e-02 -7.712040367032811650e-02 4.447962318054568542e-01
-5.914444375061852360e-02 -1.178065269407722326e-01 4.879382735197786425e-01
-1.134274834708184389e-02 -1.237706460883821191e-01 4.932375293746196210e-01
-9.567123942786448509e-02 -1.014467394142851975e-01 4.522594716989776220e-01
-7.296950723978498643e-02 -8.340392092473387919e-02 4.421083959256186802e-01
-5.071166470559297472e-03 -1.239110233642335135e-01 5.364290491708881836e-01
-1.019000801751378388e-01 -8.783391980598986848e-02 4.505415044258187507e-01
-1.056831119867644581e-01 -9.867614891688354650e-02 4.526283574707328783e-01
-2.267471151351053288e-02 -1.118137304829157214e-01 4.733769681490686554e-01
-2.111779616397027604e-02 -1.208321722984894431e-01 5.469596143010511113e-01
-7.708003923523029655e-02 -9.727718989267770955e-02 4.512856138552290286e-01
-1.127266174902919887e-01 -1.001219038336280953e-01 4.577866759783557615e-01
-2.646659156941197355e-02 -9.576923623010330511e-02 4.557595767438669121e-01
-4.368237571168551159e-02 -1.194325580242021068e-01 5.349055638325009854e-01
-9.830139357845123216e-02 -1.150913636392568162e-01 4.609224141610859804e-01
-9.278614849256952568e-02 -1.220282077619342653e-01 5.031219954001606709e-01
-6.041192330589918724e-02 -1.160948793439076226e-01 5.288972998321359587e-01
-8.422562402711573915e-03 -1.280162563628783334e-01 5.114469938829583340e-01
-3.094909603101250652e-03 -1.290060020079130398e-01 5.224490762890056095e-01
-1.070103921133464669e-01 -9.188591507488025334e-02 4.547292749619882835e-01
-1.467983050689268716e-02 -1.160276318575357152e-01 5.572325107630606844e-01
-2.452787598740292438e-02 -1.127010858461532788e-01 5.562730182784128008e-01
-2.606957610726355276e-02 -9.351629730762651971e-02 4.539523286382459166e-01
-6.919239507721700044e-02 -1.102174513040618253e-01 4.673216720213200781e-01
-6.894851115646088990e-02 -1.181869121198292211e-01 5.216859238441361457e-01
-8.851145496206787311e-02 -9.693292008852417985e-02 4.494864548050607755e-01
-8.474099037963998826e-02 -1.181304601024165818e-01 4.705507990423893894e-01
-5.499306392446145358e-02 -9.927872756352651429e-02 4.565300308179244815e-01
-4.605725364998596028e-02 -8.059740819260351186e-02 4.459864802073368328e-01
-1.443896808477910035e-02 -1.266635822286193702e-01 5.085762988454279876e-01
-2.080536922450777759e-02 -1.150055820175515386e-01 4.773670157942647152e-01
-1.857873823343442199e-02 -1.178607317828489764e-01 5.535482298063967299e-01
-1.334731636557767546e-02 -1.162237100171883281e-01 4.760811076337061465e-01
-7.859667909174412881e-02 -1.170707372951974995e-01 4.751793431521382782e-01
-1.411282961177306484e-02 -1.267037507928432949e-01 5.259012333025435693e-01
-2.984199888429076367e-02 -1.234762740969464062e-01 5.131333994869714532e-01
-6.885277777214336703e-02 -1.215757427912086130e-01 5.095346411539017906e-01
-7.556714542660231126e-02 -1.193278575604233560e-01 4.835203303171641820e-01
-2.153853621522503273e-02 -1.219828630243405959e-01 4.942680481949744964e-01
-1.134320656448468793e-02 -1.206108621701643541e-01 4.852326500407947441e-01
-2.291894414252467968e-02 -1.175696534102452923e-01 4.831595914196473163e-01
-3.821335529197084774e-02 -8.685637053076246394e-02 4.500956268716258535e-01
-6.733119817308744204e-02 -1.211149293810170613e-01 4.983289846191444883e-01
-8.263041995739242584e-02 -1.117492669503879904e-01 5.218102480068778082e-01
-6.237844753490609517e-02 -1.165929414286642068e-01 4.834438446182514060e-01
-5.232600601255970457e-02 -5.856145327283869551e-02 4.385551160432152873e-01
-4.956367932342594512e-02 -1.181828267010991418e-01 5.314612654731800667e-01
-9.867974030188288170e-02 -1.002649071912475320e-01 4.517251799468034457e-01
-2.394990628160278967e-02 -1.039267921464247652e-01 4.626324773755976505e-01
-8.960459623498262527e-02 -1.172655113872775323e-01 4.614027308309344155e-01
-3.380003104948348103e-02 -9.893176294510847013e-02 4.600643652696345676e-01
-1.021412908583272938e-01 -1.227691943614080683e-01 4.807774007372773717e-01
-2.233837828286215632e-02 -1.136742312507318248e-01 5.569363805803848599e-01
-1.898638071880066197e-02 -1.242389461442142684e-01 5.368495687735393984e-01
-7.160466030045550823e-02 -1.108022598132792358e-01 5.272598253720840455e-01
-6.277180475695440243e-02 -1.187700024266084980e-01 5.233993606466418314e-01
-1.201678507519190059e-01 -1.054753774210245854e-01 4.702210554074259807e-01
-1.143148849935536442e-02 -1.016244144646969300e-01 5.674280583707889125e-01
-7.916042952596078278e-03 -1.190343118172096232e-01 5.514143540986842229e-01
-7.434164893731781687e-02 -1.217289673688987106e-01 4.962300677857384712e-01
-4.021084659479211981e-02 -7.589472847390942023e-02 4.443399618510517346e-01
-1.001026490244398270e-01 -1.231978010336857582e-01 4.878380241140307105e-01
-4.404693820576273400e-02 -1.212151723894313027e-01 5.289965025111057484e-01
-1.008651346732812176e-01 -1.152640305024422301e-01 4.631102241373581396e-01
-4.577312366126611021e-02 -1.215124961780194163e-01 5.206374408972667123e-01
-8.338996856115635237e-02 -1.199921999233113240e-01 4.849130423325538897e-01
-1.020801533144990170e-01 -1.120939779763999167e-01 4.606856902695180001e-01
-4.750507551765580788e-02 -1.215562709918012879e-01 5.162673522269238813e-01
-5.399981214144630032e-02 -1.149428773878531235e-01 4.810650864833437845e-01
-6.021874959696732477e-02 -1.142503159602738516e-01 5.300913791341159698e-01
-9.330254331720587435e-02 -1.229412985994270680e-01 4.928154755417360477e-01
-6.244212613731745833e-03 -1.247637093694320964e-01 4.949080834770512860e-01
-7.061453918093024695e-02 -1.176086743571603116e-01 4.823203403157925173e-01
-3.243539679853377211e-02 -1.091455827184514560e-01 4.715529713224967945e-01
-8.654784446361452055e-02 -1.163761074693575731e-01 5.163908398592328419e-01
-8.481964392016036469e-02 -1.222955301878787399e-01 5.029821958883825550e-01
-6.425105600953871787e-02 -1.028112323641821313e-01 4.584836550224281604e-01
-8.433618899176903438e-02 -1.160859316352910592e-01 5.181717345051388701e-01
-2.386492335662483005e-02 -1.139922662101215539e-01 5.557971355026778415e-01
-1.188503619056657523e-01 -1.018252747362246302e-01 4.701954444234150432e-01
-5.196107052982599367e-02 -8.893362084618902652e-02 4.492670228995980231e-01
-7.691727720696105164e-02 -1.173380782301318148e-01 4.769456646333901095e-01
-5.643880128546692465e-02 -1.199760888497813510e-01 5.226765635752054218e-01
-7.892919395169285812e-02 -7.875164548642218931e-02 4.396079237863656508e-01
-7.508804216729093005e-03 -1.247365415922383064e-01 5.346139230747738447e-01
-1.745355431862806450e-02 -1.259840435553589710e-01 5.089691076716447160e-01
-8.892315049759728918e-02 -8.275700253453627253e-02 4.431485745482072192e-01
-1.071849513605198367e-01 -9.569697981186013613e-02 4.537193101779310456e-01
-5.140403743236639234e-02 -1.214845664134910908e-01 5.146573138538141912e-01
-2.394729759504889838e-02 -1.169018490916294006e-01 5.527379152275856411e-01
-6.783103336060489208e-02 -1.195248107589570175e-01 4.896769595923986529e-01
-4.172595123871265105e-02 -1.089496761377693468e-01 5.412766484125408617e-01
-8.679131236111713166e-03 -1.280620028260588961e-01 5.125334404130335031e-01
-9.224811713518795558e-03 -1.254776737484867566e-01 4.983725534891073061e-01
-6.395880827211671005e-02 -1.195915381587014520e-01 5.212409243435829342e-01
-2.844969166500330160e-02 -1.058521773895119006e-01 4.665351188026952700e-01
-3.334445549455396923e-02 -1.195321243981356113e-01 4.927129688339628166e-01
-3.100149921929498675e-02 -1.221146953208046421e-01 5.352529039142717160e-01
-6.660214298917721543e-02 -1.214041774362223935e-01 5.118131793941382846e-01
-5.641800814300243494e-02 -7.138117615793516946e-02 4.411974757630476307e-01
-4.412930577274948307e-02 -1.192171673867760406e-01 4.941089270076206574e-01
-3.104559571316767644e-02 -1.196046593926079898e-01 4.921758323535390112e-01
-1.782631226296554905e-02 -1.161045998802325702e-01 5.566300329094168164e-01
-1.139031214769515993e-01 -1.122815284910485961e-01 4.658895233950295922e-01
-5.652420115043874788e-02 -1.213076905314021542e-01 5.093393536731335436e-01
-6.392525689309563885e-02 -9.605101811560351477e-02 4.520262514821438149e-01
-3.807050707816229951e-02 -9.093776389440516583e-02 4.531947830310845693e-01
-4.870999770068498713e-02 -7.334230424908774748e-02 4.429382815348074098e-01
-8.370672986443655761e-02 -8.094832678678548499e-02 4.413038441340593754e-01
-5.363530283072685811e-02 -1.214039616307534958e-01 5.104272316447643343e-01
-5.279604794219211472e-02 -1.141290881688455522e-01 4.797649533395428323e-01
-6.818646680955157968e-02 -1.211554085969327871e-01 5.133878628657473353e-01
-1.128543798296211681e-01 -9.739468984462204548e-02 4.580859507659738039e-01
-1.070873096781354422e-01 -1.217411111331973550e-01 4.950565758399695371e-01
-6.575203651280231432e-02 -1.203682319426760128e-01 4.954316103183497022e-01
-1.014200654911567162e-01 -1.222090518222699873e-01 4.760946194058860992e-01
-4.269676003997457253e-02 -1.198004282996722319e-01 4.964623318789587181e-01
-8.890094797377121050e-02 -1.137915914636479370e-01 4.605602438336499627e-01
-9.649419524207668297e-02 -8.647604706132823449e-02 4.470187756517164934e-01
-2.153254685315447031e-02 -1.118560450543283624e-01 5.589974140896704080e-01
-2.155909505002567839e-02 -1.235790377550368691e-01 5.380817832224996655e-01
-1.172833415976635013e-01 -1.192171128410299125e-01 4.812867769557166442e-01
-4.249161873250661969e-02 -1.075887122162007548e-01 4.695211137803955159e-01
-2.746471967082384294e-02 -1.192562699950388966e-01 4.899747991982386086e-01
-1.130967278506224416e-01 -9.771978959782379182e-02 4.585129362263447028e-01
-2.777375928157068199e-02 -1.164848290743720760e-01 5.499656848584365543e-01
-1.159534342495902315e-01 -1.197893940680794522e-01 4.901683978619401638e-01
-6.223676784859005773e-02 -6.955116640431864561e-02 4.393103197364538470e-01
-4.065137729323670818e-02 -1.210421252718836549e-01 5.019619211965563599e-01
-1.082075626868078816e-01 -1.130904395212928015e-01 4.637634346861677082e-01
-3.999025494444168050e-02 -8.819140350606030632e-02 4.508551000339683923e-01
-2.948535485003018347e-02 -1.228391103229276582e-01 5.045237697612923178e-01
-6.664323128066437785e-02 -7.666630658818877897e-02 4.401865748150110558e-01
-2.842716894023140234e-02 -1.239259537658594923e-01 5.203895249837696690e-01
-7.825264882146956702e-02 -7.653719761460942017e-02 4.386211067053994994e-01
-4.010106891610384916e-02 -8.030729358169128029e-02 4.462837999563007974e-01
-6.414733399255490021e-02 -7.767713345898380473e-02 4.411650869745882830e-01
-6.136766166986205168e-02 -1.215396778206435241e-01 5.097121441479564030e-01
-1.014507803800004937e-01 -1.055314619480381966e-01 4.553909953489927442e-01
-2.800558875482998117e-02 -1.239468167455315822e-01 5.257752284809082965e-01
-2.345737590225283054e-02 -1.242748827486724605e-01 5.324933459694735083e-01
-6.854633797132084205e-02 -1.191647171677084338e-01 4.879578141472351027e-01
-6.916359730800426819e-02 -9.858076182290959055e-02 4.534731774709834795e-01
-9.300860954600691233e-02 -1.080267537180516768e-01 4.563362751140466744e-01
-7.869290349148901770e-03 -1.259745275210838733e-01 4.995674035808391755e-01
-3.360583869142758084e-02 -1.221048368053908595e-01 5.329464251509491435e-01
-1.847756829260130754e-02 -1.252618958988694908e-01 5.049811492996829632e-01
-4.148521079835496006e-02 -9.486692008048558389e-02 4.559879410421402435e-01
-9.717168210765347869e-02 -1.227525719609727645e-01 4.706443361193469177e-01
-8.167833174782297700e-02 -1.118990859345114636e-01 4.637021877000737091e-01
-4.093348346618187750e-02 -1.179707689552722399e-01 4.896611784146600588e-01
-9.085347510980679164e-02 -7.575311712542283360e-02 4.450175303678251537e-01
-3.670616115468496032e-02 -1.183739988186562203e-01 4.902582601615232405e-01
-4.557567672444604034e-02 -6.483281825349798688e-02 4.405180170916515037e-01
-5.259331185319442159e-02 -6.471481831652931005e-02 4.397947361927265209e-01
-8.160039169408872528e-02 -1.191563797568191974e-01 4.795210525156886061e-01
-1.206037937616595140e-01 -1.142921889835431665e-01 4.865661673285070488e-01
-8.379507099339832121e-02 -1.207048741475335585e-01 4.869607225299858455e-01
-7.655319277806015010e-02 -5.836477173844070027e-02 4.373847910448203091e-01
-1.057276295994687559e-01 -1.069009899862881641e-01 4.573512750956286732e-01
-4.790096415043351014e-02 -1.202460052651039973e-01 5.001746759798361142e-01
-8.031628277162748686e-02 -1.158063167826424850e-01 4.706587777116365001e-01
-9.107461780576853183e-02 -1.127473395090187319e-01 5.160866194010517161e-01
-9.336757141345380928e-02 -1.005161620005935869e-01 4.515573513382866722e-01
-9.502274417444476345e-03 -9.891727144153600326e-02 5.687482386188137395e-01
-1.150230934739533278e-01 -1.032360668852564667e-01 4.610942409917764273e-01
-1.147278137506159146e-01 -1.137142530816191016e-01 4.978558694042461430e-01
-3.645535386190692367e-02 -1.201156130080203027e-01 5.376781271278966434e-01
-1.169668572258487499e-01 -1.201111177680258685e-01 4.822154739798622525e-01
-1.168505511329274160e-01 -9.996063796293505610e-02 4.656436897372323025e-01
-1.011722728769372526e-01 -1.215687390694109998e-01 5.001435511710292658e-01
-1.082785105750699445e-01 -1.187476228268909972e-01 4.997725913403037179e-01
-7.328300833319524588e-02 -1.139667375475657551e-01 4.719971132611116560e-01
-9.979278084910707391e-02 -1.220645720612311830e-01 4.742026740530846940e-01
-3.499742353088517582e-02 -1.176103039351112794e-01 5.417448312149588663e-01
-3.809770217948162813e-02 -1.081958554694566615e-01 4.704094258361240510e-01
-8.622959352383616216e-02 -1.048656032755482664e-01 4.553493158671930163e-01
-1.074337018421595430e-01 -1.226399929815626400e-01 4.897139070588776288e-01
-9.374123645898696511e-02 -1.222940162198198760e-01 4.722938606783146920e-01
-5.863732541953100424e-02 -1.172999571802874619e-01 4.863581087742072095e-01
-1.119339143365112171e-01 -1.184872510988501104e-01 4.727411034016508196e-01
-9.704033362651796890e-02 -1.166063853958204666e-01 5.109301172797456880e-01
-5.962948262877459937e-02 -1.118170048426783136e-01 4.730707986594707704e-01
-7.650643170854103114e-02 -1.216405266313669992e-01 4.943495112477206410e-01
-8.151448155833483644e-02 -8.942028209589454602e-02 4.455640046896158224e-01
-1.141949577301036578e-01 -1.018470083650211827e-01 4.598864793956592423e-01
-1.656593877008955343e-02 -1.252767486882287173e-01 5.327576728760985425e-01
-8.190574894487956392e-02 -1.161035156344967928e-01 4.696015371765344670e-01
-8.220637983428159823e-02 -1.191229200176609077e-01 5.158216682281884236e-01
-8.481429497627192282e-02 -1.196310326333118457e-01 4.735864952058007060e-01
-8.604550361626088495e-02 -1.200419044736252411e-01 4.782926272838846637e-01
-1.128993964405843875e-01 -9.744641584509518284e-02 4.581654857917026868e-01
-6.017455561464399305e-02 -7.348315665638133209e-02 4.409073378525017461e-01
-1.150755019018314951e-01 -1.174961394443697210e-01 4.736869331591204713e-01
-7.527101227039174891e-02 -8.437142286865270679e-02 4.426109979662703475e-01
-5.210426905838067696e-02 -1.162795907825349417e-01 4.845213542602454515e-01
-2.921794262892027719e-02 -1.095732519608341726e-01 5.516856625985170348e-01
-4.651122672925601942e-02 -9.600925736328227988e-02 4.558182909542702332e-01
-6.283464774672427311e-02 -1.117092738037887556e-01 4.719971906387714911e-01
-1.038144369380316762e-01 -1.224120550190912482e-01 4.791553055894079982e-01
-8.033683691425203000e-02 -6.267433561437091294e-02 4.382626785550652326e-01
-4.296887390053382577e-02 -1.216082537112838508e-01 5.257436125344298050e-01
-7.121510651578555166e-03 -1.248221810735440224e-01 4.953974108296416157e-01
-7.163997143436041937e-02 -8.242369335703961242e-02 4.416498770938716012e-01
-2.305076889124930972e-02 -1.069380910406340784e-01 4.663955144742128467e-01
-1.681417032619055354e-02 -1.051993214478421784e-01 5.646581492113776912e-01
-8.235512093586351556e-02 -8.680883655566153101e-02 4.439606575400313337e-01
-4.093766848401045322e-02 -1.220606232770558436e-01 5.215258402139827387e-01
-2.185412913901410917e-02 -1.254053505765375665e-01 5.200837250663949973e-01
-7.081872002707428893e-02 -1.153603401460422812e-01 5.248283342616085756e-01
-3.471766196584145925e-02 -1.086715041181234020e-01 5.448645821956675794e-01
-4.204730982398838246e-02 -1.002975966565228527e-01 4.606560061358437319e-01
-5.144088841474185603e-02 -1.197625482731321245e-01 5.251337186790997480e-01
-9.613708650366634134e-03 -1.265023900441331894e-01 5.023974397757141608e-01
-3.489963435228765620e-02 -1.164363789741149208e-01 5.433279521682585766e-01
-7.652729348566212828e-03 -1.216439918685023325e-01 5.429814280188203224e-01
-7.460521838131187189e-02 -1.142334656736042342e-01 5.249977252322441945e-01
-6.727451870632114583e-02 -1.151744321743982807e-01 5.261470732487792956e-01
-9.891227447497580316e-02 -1.185050312823853480e-01 4.639248373600968200e-01
-4.949956698739745031e-02 -1.114457081402704802e-01 4.750811656511241265e-01
-8.867931583311193522e-02 -9.131622918227438879e-02 4.464815726153924524e-01
-1.971304368192570294e-02 -1.229988573934815005e-01 4.961570848165677838e-01
-6.231751308230560477e-02 -1.199786438527939564e-01 4.955221255751628417e-01
-8.014739509541336099e-03 -1.187266979043125475e-01 5.524050831410035611e-01
-5.290290376245105480e-02 -1.128369140342255772e-01 5.343379848126754705e-01
-6.336489989041337034e-02 -1.208088108180273290e-01 4.992535598771311589e-01
-5.112826394556733989e-02 -8.348687004959709501e-02 4.463838780574106435e-01
-7.322376549976751525e-02 -1.106597048307642883e-01 4.662385040470499176e-01
-4.877912576064302730e-02 -1.194112231411567915e-01 4.960280282511584926e-01
-9.227713340540269482e-02 -8.652724544418502473e-02 4.446998447372491614e-01
-8.492553998460422582e-02 -1.223410309759512399e-01 5.023813809142256837e-01
-3.718302549838446627e-03 -1.290426732674290200e-01 5.159090806370593141e-01
-4.515660594218639384e-02 -1.157866036072258686e-01 4.839516652409632802e-01
-9.715822032567317246e-02 -1.195649421439346632e-01 4.633469766622574371e-01
-3.025930495312509350e-02 -1.220094255340191947e-01 5.364018078647797561e-01
-3.758534114133185028e-02 -1.191801647894792232e-01 4.928957257120991087e-01
-9.225599493463361445e-02 -1.144930514908460706e-01 5.144272435375353281e-01
-7.363753408681437962e-02 -9.834145917086872801e-02 4.525984420089123050e-01
-2.940285622234733998e-02 -1.159926271937249814e-01 4.838888977010338266e-01
-8.905653054733340956e-02 -1.094914651325523680e-01 4.583549898676239076e-01
-1.583188093503414343e-02 -1.222736100499030032e-01 5.456830810817224764e-01
-2.845905626583986395e-02 -1.179013924871237379e-01 4.876705121891905526e-01
-2.124021499983544739e-02 -9.970818539939099723e-02 4.572787140766715330e-01
-4.716938749007730525e-02 -1.183692725128795142e-01 4.910568313843970967e-01
-2.087726951408341164e-02 -1.222460506538874669e-01 4.946008344981065452e-01
-1.197184218676476258e-01 -1.129769246808415006e-01 4.779926912376151193e-01
-5.148055228944092149e-02 -1.107964484384484222e-01 4.736905970277069944e-01
-7.227886958106391480e-02 -1.216081581247113463e-01 5.100201381015102564e-01
-1.206089280877686160e-01 -1.138059305199859844e-01 4.847828604104393868e-01
-8.005651628737482650e-02 -1.076770033963899559e-01 4.597710934289224172e-01
