-9.340117295676755860e-02 -1.231912337071562197e-01 4.993747439238971353e-01
-1.939170006633089346e-02 -1.242228736002175260e-01 5.369744820936255270e-01
-1.726951622602517292e-02 -1.190725492174069117e-01 5.518169183428733859e-01
-8.031688866228883783e-02 -1.199431710416930252e-01 4.789212218736659255e-01
-9.900234046254721698e-02 -1.082119353351958385e-01 4.565798201732466643e-01
-6.400137334704475434e-02 -1.096215677253964821e-01 4.669318467471927914e-01
-3.694696267751148427e-02 -1.180114510145323231e-01 4.884498870996931696e-01
-8.248767304841181369e-02 -6.946106949778127482e-02 4.388022017836145094e-01
-4.632730642623702350e-02 -8.160039767167560909e-02 4.463134542439235464e-01
-5.011107474629951375e-02 -1.152763797493598780e-01 4.814719418400128514e-01
-9.638274455154020870e-02 -1.228033459005891948e-01 5.012816525102992138e-01
-1.029039670108393978e-01 -1.175643167315035126e-01 5.053650889597030016e-01
-6.313573842600942419e-03 -1.284654984270370004e-01 5.126535759838790618e-01
-5.518541945379652758e-02 -1.137533673037234988e-01 4.772388839430119489e-01
-2.116164725285216153e-02 -1.255551282067814411e-01 5.245670558841474262e-01
-1.073566368573679458e-01 -1.188806180706055149e-01 5.009287480154958061e-01
-6.350843269401766633e-02 -1.217843575750172658e-01 5.139922328590875722e-01
-1.112535979301858408e-01 -1.048157735846475813e-01 4.575792212859265962e-01
-3.360785479791683628e-02 -8.750582434771893292e-02 4.507068614921060923e-01
-8.055429650034387490e-02 -6.541852772404653515e-02 4.384797583727178538e-01
-6.244077119561163708e-02 -1.178848986915293079e-01 4.850861643766367637e-01
-3.492513896338848844e-02 -1.199267832201283412e-01 5.396093493604001701e-01
-2.293859394357907616e-02 -1.228207761808507714e-01 4.976752814852826168e-01
-6.436168377618582681e-02 -8.193011579923792365e-02 4.426516560582309245e-01
-1.953711567305460237e-02 -1.082332285352387291e-01 4.663134505705118227e-01
-2.030990088510426297e-02 -1.125925037030037767e-01 5.588347819363778113e-01
-3.090193043190935310e-02 -1.199823427018069655e-01 4.927195293029462686e-01
-5.205474297386204069e-02 -9.408143660532858332e-02 4.524663120519988868e-01
-3.500981503226220648e-02 -1.229983610593619048e-01 5.212610964457439211e-01
-9.927566026900341845e-02 -1.193364744930827531e-01 4.647349307859062195e-01
-7.443993189279281275e-02 -1.196136354762565995e-01 5.187641206698818674e-01
-1.170393636167317841e-01 -1.210666384963689224e-01 4.835043490991183801e-01
-8.258899972911962206e-02 -1.229461622007766430e-01 4.950811334582439494e-01
-1.113763690540390539e-01 -9.797789705570432439e-02 4.561318242251228838e-01
-6.706594791075140560e-02 -1.159516116455915069e-01 5.259978776471471162e-01
-5.841032898817349883e-02 -1.192382049580447689e-01 5.255265522767298414e-01
-7.378544415233737053e-02 -1.219228790794453232e-01 4.936937171159073712e-01
-2.229432635641607346e-02 -1.213585669148838087e-01 4.925788427297606575e-01
-1.054655071689269558e-01 -1.198037872988792635e-01 5.014544583623263829e-01
-8.705187963434342369e-02 -1.097405934267164651e-01 4.586199522025709019e-01
-5.476394702697837819e-02 -1.005955567389601873e-01 4.573528143033032678e-01
-8.127515162164924978e-02 -1.109962453630339296e-01 4.616167643604399684e-01
-8.697667603430161987e-02 -1.230997749872547176e-01 4.916499524454553405e-01
-6.192776853364460182e-02 -7.462149933953979297e-02 4.407217233717986016e-01
-1.061968256958530643e-01 -1.226080673271748855e-01 4.961295646449150887e-01
-1.153053795183622970e-01 -1.166681186836388551e-01 4.961255141743235453e-01
-2.058696401627578554e-02 -1.031115562478521624e-01 5.630379605563834433e-01
-5.836206209349167201e-02 -1.111793185806615458e-01 4.711319166708946571e-01
-7.183433673566276545e-02 -1.201387583939842463e-01 4.865616327367831007e-01
-4.628438468026831870e-02 -6.914175322564909687e-02 4.416821470801733374e-01
-6.298154384322895982e-02 -8.379631516910561462e-02 4.439297897694658990e-01
-8.944119844864978353e-02 -1.225308858293811115e-01 5.063041115459891994e-01
-9.173890648687248184e-02 -1.017173933785647660e-01 4.519227039056943895e-01
-2.200799027528650351e-02 -9.600310118131534509e-02 5.606139561604170929e-01
-9.035578894455367771e-02 -1.233564497418853517e-01 4.995665288611561006e-01
-6.934319792686340078e-02 -8.572211581331316832e-02 4.438288688408051907e-01
-6.766725219620292608e-02 -5.440785202566300605e-02 4.385626543851248726e-01
-6.467298364954940371e-02 -1.134494455743879915e-01 4.738024493112688029e-01
-3.386097356359922539e-02 -1.186955516348619233e-01 4.900146351919705268e-01
-8.993587806980150867e-02 -1.083188967151620524e-01 4.565809823376275611e-01
-8.563931226330574742e-02 -1.230809338732172797e-01 4.930816817050007184e-01
-9.893627244023064926e-02 -1.161438240487669832e-01 4.621315671720177543e-01
-8.302135303109983711e-02 -7.442048995099917463e-02 4.387861725190064788e-01
-1.024374414238706128e-02 -9.831829286692954362e-02 5.688684073082265202e-01
-5.663953728536869070e-02 -1.217416810719076925e-01 5.134749863461768316e-01
-5.438624498070492724e-02 -1.217231913590414577e-01 5.087986747433480561e-01
-2.932613948172345386e-02 -1.220212412713691241e-01 4.993066751968763817e-01
-6.778351878267652175e-02 -1.159821769301158517e-01 4.777128876482775732e-01
-2.733655575652020608e-02 -1.228001572607139019e-01 5.014987375490891353e-01
-4.346174783954418613e-02 -9.532984922224704838e-02 4.557137473512873904e-01
-6.173217003765479882e-02 -1.152562600516440772e-01 5.291221770152562121e-01
-1.176410574580021712e-01 -1.131100926890090119e-01 4.702980203428598349e-01
-4.513162720351203416e-02 -7.910379970015543605e-02 4.454406786198176760e-01
-8.841284611914188019e-02 -8.527469460955425240e-02 4.439817223223674336e-01
-4.921465568393335044e-02 -9.025351185943135401e-02 4.505108948215137965e-01
-8.454708481773363926e-02 -1.231285900092902036e-01 4.951174309829514675e-01
-4.949993516277942894e-03 -1.284822460694785007e-01 5.101288617862190788e-01
-2.778819404352895692e-02 -1.106348574004537427e-01 4.731784452717359701e-01
-8.331866513119748352e-02 -1.192392838024851354e-01 5.159727279774108943e-01
-5.405879356388763879e-02 -6.995498853741909107e-02 4.411742897179044554e-01
-1.008351248640799586e-01 -1.219245658530383331e-01 4.683628172177002891e-01
-9.828012693955209822e-02 -8.739155024359866741e-02 4.486571683946607991e-01
-2.927155148690006176e-02 -1.234347145792867723e-01 5.298031754350561728e-01
-6.322173551552139059e-02 -1.201197895745688277e-01 5.214797167254718868e-01
-8.374424362315947834e-02 -1.184231758543456692e-01 4.699521982968663525e-01
-8.841169523244230000e-02 -8.799723901541628424e-02 4.450002063455837931e-01
-8.857796711970923609e-02 -9.159556874339692956e-02 4.463664979315657422e-01
-1.100707278088589453e-01 -1.231498754820509189e-01 4.865251686815061927e-01
-3.368745195471737480e-02 -1.152880135406339907e-01 5.446442920348225636e-01
-7.705053945802284310e-02 -9.740091077081046433e-02 4.509388211940260072e-01
-6.794927306817419299e-02 -1.117065103172966700e-01 4.690310387985521801e-01
-8.369082723459511652e-02 -8.613342999128785482e-02 4.432095044971183784e-01
-8.512435383557236113e-02 -7.997730372921042774e-02 4.411421848127882739e-01
-9.472189355234586494e-02 -1.195007164999103144e-01 4.619805008160637327e-01
-3.527864589288158548e-02 -1.131352857455287936e-01 4.780186058245735059e-01
-1.799294855793280232e-02 -1.248555158368682139e-01 5.349109950279449244e-01
-1.232087039284458958e-02 -1.000952909964168552e-01 5.675863734522883508e-01
-8.547629932329588176e-02 -1.109853881205720288e-01 4.602138087900770613e-01
-4.019754508387076569e-02 -1.097301404514737233e-01 4.722909303457030750e-01
-4.101784865323170048e-02 -1.057334519643479548e-01 4.665437425578462527e-01
-3.871792808348287207e-02 -1.147791491585443691e-01 5.411585466841345449e-01
-1.074126395315110893e-01 -1.237294475825778534e-01 4.863185817578271619e-01
-5.826064916207733535e-02 -1.199162721044628177e-01 5.239419437955217251e-01
-2.321748375291645197e-02 -1.034828628447923143e-01 5.602836324320842332e-01
-5.481515350316325252e-02 -9.249359510820584496e-02 4.506942059417058943e-01
-1.021398193192946391e-01 -1.242643876785660961e-01 4.893345326528732442e-01
-2.934811968790718151e-02 -1.217285220847205279e-01 5.386057639918923057e-01
-1.513339597063528136e-02 -1.101102048745677686e-01 5.627056769819924753e-01
-6.419908112892540319e-02 -1.222744361685985798e-01 5.070865877286457879e-01
-6.432305787048181456e-02 -1.100018583978743386e-01 4.674716843694275981e-01
-6.517518466951914557e-02 -1.139346772951820297e-01 4.745848865915540671e-01
-1.160511613763378219e-01 -1.214124521758079278e-01 4.817833775257045481e-01
-1.395740996421109686e-02 -1.207496456301517390e-01 5.495534173841405412e-01
-3.112781427923641889e-02 -8.147183779777025792e-02 4.464101469934522726e-01
-9.453146517261906689e-02 -1.239931129415660638e-01 4.903927329244732736e-01
-6.383165586819455894e-02 -1.184890113151811225e-01 5.240342733338770875e-01
-9.215280775643544531e-02 -1.221641287309169904e-01 4.665089330582909422e-01
-6.505190308517691533e-02 -1.089305376142703369e-01 4.654371520990020494e-01
-6.248337888043527244e-02 -1.080940740958638568e-01 5.313881362219533555e-01
-5.341686590055069045e-02 -1.215473293813772726e-01 5.187509336221078904e-01
-1.153228510977302029e-01 -1.115361716955204363e-01 4.658777646736459443e-01
-9.314706055285242037e-02 -8.761354638214348400e-02 4.453795943247154665e-01
-6.787377254260403003e-02 -6.900610746384798488e-02 4.377517143212392714e-01
-3.428517484331680687e-02 -8.844591305837243289e-02 4.513494959023947040e-01
-1.141035930825360679e-02 -1.253105067328791900e-01 5.340436543790937352e-01
-9.233490567636100377e-02 -1.231311559085985080e-01 5.004683935888426527e-01
-8.601721081017332793e-02 -1.215751256135779584e-01 4.836035043509783193e-01
-6.945566777973702366e-02 -1.225385759769899024e-01 5.041444171360394133e-01
-4.083139256873628831e-02 -7.968302110199278199e-02 4.460236817155798783e-01
-1.731931517377928789e-02 -1.175697201244207957e-01 4.800989070042084306e-01
-5.716239353902212439e-02 -1.110003683841997019e-01 5.329142230224149790e-01
-2.854041076199749505e-02 -1.100589772925086446e-01 4.723108339544532797e-01
-6.932593715706182602e-02 -1.126272455286809193e-01 4.699367449249643447e-01
-9.361738261597354893e-02 -1.026911895185292217e-01 4.525935621799915820e-01
-8.447693142913194342e-02 -7.649438911740180647e-02 4.399534289593801661e-01
-1.603533799758981304e-02 -1.257341579447284474e-01 5.315819605974051454e-01
-6.146880359645696262e-02 -9.737100521558147981e-02 4.530861151331168624e-01
-1.030548857543031049e-01 -1.165698662212657222e-01 5.060015154563632933e-01
-5.340884099989737926e-02 -5.858051361555191572e-02 4.385397391501762443e-01
-5.442468698118948373e-02 -1.151720749637264729e-01 5.322648996317019821e-01
-1.150225850549012468e-01 -1.094391033108359640e-01 4.639721070964458738e-01
-6.723685755655590957e-02 -1.218773671902723538e-01 4.987459955365871611e-01
-5.606500426249797636e-02 -1.110622287919595386e-01 5.335679645043148733e-01
-2.886434541218054622e-02 -1.233582693488197574e-01 5.067107333639295774e-01
-9.296745929504786343e-02 -1.174300877533944049e-01 4.606675549840462125e-01
-1.047392812612890772e-01 -1.172733144213192746e-01 5.035569402444780573e-01
-4.205669023889828384e-02 -1.210937739689041115e-01 5.008104124611751917e-01
-5.857799157567870202e-02 -9.902905374830325846e-02 4.552131120298831823e-01
-9.449960496028493584e-02 -1.226697059866654477e-01 5.036801304830039738e-01
-3.465674243365600427e-02 -8.404440237656669865e-02 4.484176778188459500e-01
-9.864204429878857538e-02 -8.920144803400112399e-02 4.492338402774747608e-01
-7.034885696515320863e-02 -1.215695506954458383e-01 5.146721901576262193e-01
-4.704657906434060038e-02 -1.019057273139988423e-01 4.609547385693472665e-01
-4.649341827754115142e-02 -9.862366076124357006e-02 4.577558892134492852e-01
-2.124099169771860585e-02 -1.255985315017450754e-01 5.203125645164714541e-01
-4.889833638408082328e-02 -1.148470147754197951e-01 4.807635287930436263e-01
-9.947692712483767463e-02 -1.242128124380987714e-01 4.879321882404293320e-01
-4.225717435200472549e-02 -1.086055399696722323e-01 5.411378833762962026e-01
-1.125898145296511527e-01 -1.119508517353428600e-01 4.638595378594024266e-01
-3.999092652180415153e-02 -1.224805166461338385e-01 5.184581221328373735e-01
-6.062653514159829088e-02 -1.088915907513131054e-01 4.667619981108734328e-01
-7.434088410578816586e-02 -1.225834214795830795e-01 4.974714163727027572e-01
-8.214643228097600475e-03 -1.247754105034786370e-01 5.353852789783500876e-01
-4.219949727837010722e-02 -1.172206141160868909e-01 4.865103608927684453e-01
-3.572671086866467671e-02 -1.227001139395948182e-01 5.261272098210530990e-01
-3.276349738573269138e-02 -1.069313496231878158e-01 4.681276265895628619e-01
-5.918951578820992598e-02 -1.122315463415378967e-01 5.314759720467394644e-01
-3.967857868584269421e-02 -1.148167333690464365e-01 4.813040201360155312e-01
-6.494554943591566987e-02 -1.087597113433385609e-01 4.651826714547432906e-01
-2.987510761304469631e-02 -1.182834549948141994e-01 4.883308372917024021e-01
-8.214209146018673635e-02 -1.231887303431807024e-01 5.023410310336167139e-01
-9.868672533937114522e-02 -1.128759207232885309e-01 4.593045400913185472e-01
-6.143382089889748432e-02 -1.185277797749105105e-01 5.252508712040045991e-01
-7.859734371133331177e-02 -1.145690361133931134e-01 5.239475271935459810e-01
-1.050325369641428169e-01 -1.223861967135274620e-01 4.976292438818459840e-01
-4.671425034744407928e-02 -7.825178012070073408e-02 4.449149503084983137e-01
-1.002630878342870152e-01 -9.946769871669511320e-02 4.511151224044691044e-01
-8.101891351735880653e-02 -7.135691076673179867e-02 4.379203307673848466e-01
-1.419513221561979378e-02 -1.154203118999960337e-01 5.580734971736717176e-01
-3.396136467793137853e-02 -1.206753222761125788e-01 5.378618091358832176e-01
-6.391954518168752042e-02 -1.076856101044547792e-01 4.637255245657742053e-01
-1.141810190617865706e-01 -1.186164659061007404e-01 4.731032906090588686e-01
-1.319705683564375252e-02 -1.270156583510473614e-01 5.246048315768601089e-01
-1.045348294222851193e-01 -1.058160631116659978e-01 4.555797792152823655e-01
-7.472034324210148626e-02 -6.984682097287453484e-02 4.370549311025583306e-01
-7.145545499589675553e-02 -1.223819872188715158e-01 5.087750651732604323e-01
-1.249521567183235413e-02 -1.253941433141410045e-01 4.993987990812829847e-01
-2.972635048096247679e-02 -9.083850155251954606e-02 4.527807371449726337e-01
-3.209317571567649185e-02 -1.201106493269391978e-01 5.410417940865495101e-01
-3.792715200017252042e-02 -1.170866487603449274e-01 4.862402183620311291e-01
-6.971443009943276148e-02 -1.208804220433312981e-01 5.165617186003357286e-01
-1.694864647396497614e-02 -1.180251474774968723e-01 4.809547196935224367e-01
-7.843050019222068403e-02 -7.697094725573654095e-02 4.387452248083593687e-01
-5.793930712209523909e-02 -1.140835097694102018e-01 4.772404722416505041e-01
-6.098218576142011571e-02 -1.204419347866267920e-01 5.211674558253529543e-01
-3.815135031611817384e-02 -1.115972386344021572e-01 5.422406212145629567e-01
-2.925950040860952547e-02 -9.199916988819176189e-02 4.535920330052548577e-01
-4.854778313890345531e-02 -1.194131231352342087e-01 4.941187272418999799e-01
-7.267496205386829444e-02 -1.226682551490384243e-01 5.009439109242324051e-01
-5.003359748074922425e-02 -7.609227031376208927e-02 4.437891196586145059e-01
-1.206122820794497258e-01 -1.095126241411580742e-01 4.711872419953714863e-01
-4.952654093340481262e-02 -5.947386178057048611e-02 4.390339500260159178e-01
-2.377414156458891245e-02 -1.248779217057740670e-01 5.139898228500423549e-01
-2.486609013650412786e-02 -1.042194731528328228e-01 4.632569698502142508e-01
-9.749070415267641065e-02 -8.895061991934385959e-02 4.484266580161540006e-01
-6.489672471025531575e-02 -1.194648469753137737e-01 4.887470737027367895e-01
-3.548664756931813047e-02 -1.075439798942725012e-01 4.691977899001186225e-01
-1.000120311199737544e-01 -1.200485460863723874e-01 5.058441361514652845e-01
-3.721022463633069655e-02 -9.326711476607238427e-02 4.550022617241877843e-01
-1.072920104986889445e-01 -1.236795040386949041e-01 4.887688046130330144e-01
-1.101535687784535329e-03 -1.291191508500900420e-01 5.163962384706719533e-01
-3.091680526549963823e-02 -1.234636782547679501e-01 5.136170038747817079e-01
-1.130227546132153149e-01 -1.225085080405227678e-01 4.874864897968147481e-01
-2.704406921162527330e-02 -1.242763986770425849e-01 5.237324012833125542e-01
-6.865096460940861567e-02 -9.278327223122749545e-02 4.485763215057190223e-01
-8.409975653378240490e-02 -1.031217134590588225e-01 4.538332818620879339e-01
-6.578101336482104766e-02 -1.095497247573107291e-01 4.662473128460550287e-01
-9.224267890781948087e-02 -7.608567538883950765e-02 4.470756395678545658e-01
-1.112988283384689359e-01 -1.216235031954306239e-01 4.774087594410014179e-01
-6.233815500298822004e-02 -1.205161715672023182e-01 5.206546919341015212e-01
-7.710442800555136755e-02 -9.403595710456492951e-02 4.484634182149050408e-01
-7.986968481204223536e-02 -1.181601065308695298e-01 4.737166683649611798e-01
-1.139074522451229837e-01 -1.213150585746306520e-01 4.785336986619388444e-01
-2.229374541269650567e-02 -1.165190575350435881e-01 4.808388292051203883e-01
-6.041152540782773750e-02 -1.019886944031246079e-01 4.577065404976464746e-01
-3.685220976918236052e-02 -1.166787776092662043e-01 4.853618531243258927e-01
-5.904549052920084196e-02 -1.127904193530207960e-01 4.740825998921253670e-01
-8.124758415424224167e-02 -1.201825998237424087e-01 4.769237100305112054e-01
-3.577144568875474662e-02 -9.447912104424426027e-02 4.561311517389310954e-01
-2.203667463128889878e-02 -1.074495488226550194e-01 4.665595682744431150e-01
-9.928437050858406054e-02 -8.751627550363752506e-02 4.493916230599682704e-01
-1.957658871627306757e-02 -1.167771210806302501e-01 5.553504855095346970e-01
-9.823582422647832157e-02 -1.218378687183180320e-01 5.055668623626672353e-01
-1.156789985748736121e-01 -1.005935527322264489e-01 4.641683879759677112e-01
-5.510518251111789362e-02 -7.098189741460057822e-02 4.413037495280792144e-01
-2.665167323683923645e-02 -9.936213905508549382e-02 4.588192511685436070e-01
-4.124635230578560519e-02 -1.118002840589804869e-01 5.409975850420081223e-01
-3.566888695141381960e-02 -1.226777204428912277e-01 5.263952359169240536e-01
-2.834553247142077709e-02 -1.238954155282626923e-01 5.135759328146739522e-01
-1.022217688903060556e-02 -1.260551426231700800e-01 5.320845155291357154e-01
-3.775423434120012134e-02 -9.649074323297013311e-02 4.575863303630073875e-01
-1.096357486900818440e-01 -1.232460700789974328e-01 4.874400428808030039e-01
-8.442826518372201217e-02 -1.057380885981439173e-01 4.558249061079254760e-01
-4.620189792340565621e-02 -1.219442055768229366e-01 5.125265078371794569e-01
-3.595424805416063546e-02 -1.116149857476216312e-01 4.753064458121259994e-01
-5.371170912629247979e-02 -6.194644024559242679e-02 4.390665300433438945e-01
-5.213847939456710961e-02 -6.134317045193765638e-02 4.391573766211989693e-01
-7.124761788227124137e-02 -8.363135535487033201e-02 4.421985495911380237e-01
-1.111729755520440704e-01 -1.005765196874683631e-01 4.561835084326069101e-01
-1.052463990537735455e-01 -1.222782757705753454e-01 4.977595376255209425e-01
-1.172414513325887309e-01 -1.188671404547489152e-01 4.792638504736402294e-01
-4.845163937182989100e-02 -1.188899691523886831e-01 4.916313189612426804e-01
-6.799477658056593543e-02 -9.556114106025495603e-02 4.507750483166479416e-01
-5.059606762564898552e-02 -1.175911406975559403e-01 4.866906112520158478e-01
-5.159593823604960439e-02 -1.184481742304940854e-01 4.899448157426458117e-01
-8.119348068469511848e-02 -1.201290721918979315e-01 4.789598409732964690e-01
-4.818371365080896529e-02 -1.024529829496553662e-01 4.613110982074214994e-01
-8.635909823619979109e-02 -1.030124305637143550e-01 4.534150876347688985e-01
-7.796456126543521714e-02 -1.226521151252579211e-01 4.955063115202731350e-01
-9.022008405752326987e-02 -1.237032506964356599e-01 4.960323926851674670e-01
-6.198453509669112765e-02 -9.880134104587783017e-02 4.542837255198624025e-01
-3.623503105132704766e-02 -1.211393318387431611e-01 4.992039597389944516e-01
-4.535256181995339642e-02 -6.869308522230442582e-02 4.416336022936064865e-01
-1.106838982683264611e-01 -1.220507897860518831e-01 4.789845769896777239e-01
-6.990727392396507700e-02 -9.854062720944613274e-02 4.528418029503588627e-01
-4.801367425059836075e-02 -9.488439209545104780e-02 4.541988896122814978e-01
-1.167541801451567884e-01 -1.208657067392421569e-01 4.890325277601887954e-01
-2.051054500092313118e-02 -1.255242707291608639e-01 5.284383600752358134e-01
-5.970734556290768769e-02 -1.104193391552306946e-01 4.695147522257523964e-01
-2.694120088228642643e-02 -1.242687004769291309e-01 5.161182768464894766e-01
-1.716584802025511100e-02 -1.058244316753539083e-01 5.643536386155357798e-01
-1.979088187587242295e-02 -1.172487458947756023e-01 4.803043078226468254e-01
-9.763912301588087428e-02 -9.660709088594163219e-02 4.494143866231564144e-01
-7.021897010780508985e-02 -1.119000528843657888e-01 4.682906117290718262e-01
-1.758083134859962648e-02 -1.256310566355973712e-01 5.313892462176675879e-01
-1.525211986588443508e-02 -1.074180023209527352e-01 5.640433134229244638e-01
-6.159727060526039299e-02 -9.627190999899315482e-02 4.522224710327802377e-01
-4.630130394514972436e-02 -8.255737572451862794e-02 4.467133065922445634e-01
-1.741173222997469128e-02 -1.213959239175206317e-01 5.472008087440453084e-01
-1.091581211967743992e-01 -1.229270419700059513e-01 4.819789144567870887e-01
-2.836030904927387339e-02 -1.106097392313574734e-01 4.731193566883262203e-01
-9.186123441546877044e-02 -1.215253129963627943e-01 4.657518733189988658e-01
-8.817680419465209751e-02 -1.128538702998493626e-01 4.603840882825429581e-01
-1.926038451611884056e-02 -1.259854340631939018e-01 5.256328226577963170e-01
-1.116108504128538598e-02 -1.153116693975233253e-01 5.581782170100900720e-01
-8.138542533527305667e-02 -1.003090474504718665e-01 4.522956356719706750e-01
-3.910578303404778355e-02 -1.166249267809111312e-01 4.851925141786105344e-01
-7.332140773478595941e-02 -1.206094068784107909e-01 4.872396848688258508e-01
-5.387193614895313676e-03 -1.288255830422369297e-01 5.222967720944859948e-01
-2.542384696467101315e-02 -1.207811402603079648e-01 4.927195760714320194e-01
-9.254052936474946311e-02 -1.223758008078108389e-01 4.765105602202797108e-01
-2.888374316411069370e-02 -1.124066737268683142e-01 5.507211590624926378e-01
-7.256490749144565988e-02 -1.227548236457407932e-01 5.025529364066454452e-01
-1.133061688419694374e-01 -1.224357136554617281e-01 4.905302515761388871e-01
-7.407381788498167141e-02 -1.135432655841167315e-01 4.692953139831809728e-01
-6.083866757872306158e-02 -5.846376233267056022e-02 4.375523496122812883e-01
-2.988766396703226164e-02 -9.183314208113299570e-02 4.535469755391333679e-01
-1.167156971225363632e-01 -1.085802498840933578e-01 4.660170641401316649e-01
-7.563382022695930296e-02 -7.555232933467420642e-02 4.384011207266795274e-01
-9.345240847634291026e-02 -1.230222718278224103e-01 4.667759866481908659e-01
-3.198241042390228411e-02 -1.197611349388834900e-01 4.922985376054391793e-01
-6.698393126028269473e-02 -6.379684968174012538e-02 4.370062640097744366e-01
-2.951252909997013896e-02 -1.210845468629077881e-01 5.405915554435023473e-01
-8.741510588146171601e-02 -7.831635984481123691e-02 4.421758519413951372e-01
-3.764713619416741597e-02 -1.221340772610188252e-01 5.066608595016353078e-01
-4.750906145702204347e-02 -1.130932538852145869e-01 4.775175725804293725e-01
-1.093931927851937158e-01 -1.232967823659779222e-01 4.849952113870440451e-01
-2.536255888243778289e-02 -1.244996265226730459e-01 5.129604852258858871e-01
-4.907172123893670246e-02 -8.815679687550664889e-02 4.491538329527963169e-01
-5.624371891559662440e-02 -1.182212575970172236e-01 5.282076691528657664e-01
-1.071864292790759982e-01 -1.152824815156047178e-01 5.034073984049189932e-01
-9.564769024895262983e-02 -1.237828063664578732e-01 4.952505272427195626e-01
-8.529685536682339586e-02 -1.133625077749481208e-01 4.617988326641015995e-01
-1.111091316385603989e-01 -1.212601669660940545e-01 4.756835064945807989e-01
-2.964391377710748343e-02 -1.232380680587414901e-01 5.068958866143244979e-01
-4.432132928907308450e-02 -1.213550473817398279e-01 5.039191712775504817e-01
-5.401338827359534328e-02 -1.212714294086595646e-01 5.033718342373252330e-01
-8.910599843122812835e-03 -1.255358606183397674e-01 5.336362444953348660e-01
-8.538873147806139152e-02 -1.221324537294166818e-01 5.089402629938466482e-01
-4.882282032846660402e-02 -9.676438973337486704e-02 4.555401826109828911e-01
-3.262964466348723669e-02 -1.101241183591988443e-01 5.465589143678686312e-01
-7.625577344544662295e-02 -1.203974029606919710e-01 4.845458408794647287e-01
-5.302191345387480964e-02 -1.208536827166870470e-01 5.007746233945917780e-01
-1.079344977588931331e-01 -1.154187271165893341e-01 5.028798116541819407e-01
-6.753672566536518540e-02 -8.218748316687282673e-02 4.419466181808722749e-01
-1.057736071418248665e-02 -1.262282211687918987e-01 5.314051372354777758e-01
-4.788893464065799299e-02 -8.386038728625895555e-02 4.470376756146000052e-01
-8.929364440629343480e-02 -7.531967507425889330e-02 4.439648049791533602e-01
-5.114930561286125388e-02 -1.042749709219616266e-01 4.628731743093904005e-01
-9.551846675430313016e-02 -1.084695426806926016e-01 4.561845147615952167e-01
-3.688638360373187874e-02 -1.225062120894349627e-01 5.261351508363066865e-01
-6.199543796242064364e-02 -1.148978754906194305e-01 4.778199739839212867e-01
-5.331263736191114988e-02 -1.217580481144759780e-01 5.155797268864853455e-01
-3.905564179455534718e-02 -1.154098020238095573e-01 4.826024904850960695e-01
-4.655381718271253688e-02 -7.776436261460922816e-02 4.447524189868650724e-01
-6.962476748291768214e-02 -1.223670115716179174e-01 5.011007589768194936e-01
-8.513670646406119868e-02 -1.207272519110589165e-01 4.730522211418096701e-01
-3.363721840650715084e-02 -1.216512000493871898e-01 5.009052757371705855e-01
-8.952906428517577730e-02 -1.157552997741806838e-01 4.605936489937252354e-01
-1.415667295311619917e-02 -1.169275525203091193e-01 5.561156654242109809e-01
-4.597971561070800239e-02 -1.049170452387432617e-01 4.649878486009355050e-01
-1.153552639726339452e-01 -1.071579915719599180e-01 4.631403393416820835e-01
-5.457157382821606340e-02 -1.190946084497164631e-01 5.270004080758812215e-01
-5.518748155867496397e-03 -1.233928561687738651e-01 5.379887709160623421e-01
-4.865317846146331726e-02 -1.202415748185371586e-01 5.281252486788731160e-01
-9.806275929933840063e-02 -1.226023916666615782e-01 5.022456218524198324e-01
-6.110177355885346856e-02 -7.741052113991950256e-02 4.418162047598613862e-01
-8.074611111347286541e-02 -1.231168232104898896e-01 5.031242150287724701e-01
-1.119599964049901725e-01 -1.181682361010948229e-01 4.987507415118923593e-01
-3.487826464018455724e-02 -9.502942747310387517e-02 4.565951703414716789e-01
-1.078781811630208504e-01 -9.510690077379922724e-02 4.550476436043167094e-01
-3.218915550239961898e-02 -1.135493999501343138e-01 4.788181725267457445e-01
-6.105395578155698583e-02 -9.656569498204078950e-02 4.525370610573211105e-01
-1.230405399686465041e-02 -1.118858876655613732e-01 5.615541459952357872e-01
-9.298664121481020617e-02 -1.020314273435821706e-01 4.521175759800278859e-01
-2.209715411474199448e-02 -1.134988750630038651e-01 4.757424214317297340e-01
-9.175372469682285814e-02 -9.483870064204782957e-02 4.481635010279464426e-01
-1.186374246303523346e-02 -1.227130315796334109e-01 5.440575631701788373e-01
-2.177031140464608799e-02 -1.150638211947443701e-01 4.780148176749899891e-01
-5.029003850430571049e-02 -1.100249066133438397e-01 4.716988141386643796e-01
-1.140633531417039465e-01 -1.204244656775198957e-01 4.759213772031387069e-01
-6.435291682462684903e-02 -1.169783773101674140e-01 4.818007067154461698e-01
-6.897577614206937269e-02 -1.128021419184307428e-01 5.272815240440251738e-01
-5.121180379816021866e-02 -7.313588964170847362e-02 4.425541851756801814e-01
-8.385222701369805798e-02 -1.038220303842812553e-01 4.543671504292099983e-01
-5.304334764900724836e-02 -1.119018083756681547e-01 4.742665921313318766e-01
-8.197432460074424720e-02 -7.005126437794277627e-02 4.384972453426144168e-01
-3.344042132706004367e-02 -1.170035587843416269e-01 5.440813609831555153e-01
-3.871466657507331190e-03 -1.290754901790367171e-01 5.172319471657577106e-01
-7.785626529514570737e-02 -1.205668879546080846e-01 4.851166602829291574e-01
-5.521116473688383874e-02 -1.121141706789595960e-01 5.336848082194093346e-01
-4.671314075405352123e-02 -1.195310761763167806e-01 5.318900388371462506e-01
-9.402430133463494932e-02 -1.226069362818958952e-01 4.757854293916723432e-01
-2.591134784281580797e-02 -1.189425568623287688e-01 5.480060853667659826e-01
-1.134168029305900049e-01 -1.170940410091960704e-01 4.980995956737000463e-01
-1.698267005678327432e-02 -1.245800213257220873e-01 5.362712522228433309e-01
-6.896257076900545735e-02 -1.194986417899230324e-01 5.197116067279493601e-01
-9.903922230127253090e-02 -1.204531353165659568e-01 5.077184279673414569e-01
-9.352208658364868921e-02 -8.684359037071194554e-02 4.454246495001310535e-01
-2.035871236294205244e-02 -1.126730134875813388e-01 5.587291767414793719e-01
-4.771697898539013771e-02 -1.022979449392859563e-01 4.612460753450868811e-01
-1.204443521606126527e-01 -1.076736099869278068e-01 4.712050612492519330e-01
-5.977558543734457636e-02 -1.074005733459077461e-01 5.327730525123087757e-01
-4.173996657942927180e-02 -1.222176362315401527e-01 5.227859570047653781e-01
-7.360243633639859673e-02 -6.977280949968044099e-02 4.370273188069943027e-01
-2.504169065919611969e-02 -1.209100964870631345e-01 5.443316889313569718e-01
-7.363428407020970734e-02 -1.196381796677630643e-01 5.187720360892187355e-01
-8.978296836522668689e-02 -1.227266476466331996e-01 5.054893459968415881e-01
-8.751186615585507256e-02 -1.231841468190883609e-01 4.923246748616208479e-01
-3.905666497268094756e-02 -1.219340618758882611e-01 5.284907635805070614e-01
-2.474656241776839599e-02 -9.763262608589505509e-02 4.566706144547297286e-01
-4.922495219817416001e-02 -8.152545301311406312e-02 4.458854780276767515e-01
-7.540603133156856264e-02 -1.112078373837772916e-01 4.647626625674606271e-01
-8.700583980071441292e-02 -1.225366687157185136e-01 4.872693965836277785e-01
-4.493172566709502380e-02 -1.140325954449618456e-01 4.796868292243313681e-01
-4.168569223355462344e-02 -1.215850694830804268e-01 5.043889910456381687e-01
-8.969545926290252436e-02 -1.156870287355540317e-01 4.605010890602626028e-01
-6.245472545015423593e-02 -8.118398577423302509e-02 4.428237245636894581e-01
-5.995920384176890716e-02 -1.097555164273144312e-01 5.319398191728578196e-01
-2.464966725297625116e-02 -1.209655132864831673e-01 4.929349586336274625e-01
-1.132928080059661946e-01 -1.224476165866515004e-01 4.901383512478209026e-01
-8.315712390401873433e-03 -1.181578158439352821e-01 5.536059914875371968e-01
-1.173910229279284678e-01 -1.175015743614437475e-01 4.765215557197394203e-01
-9.762608877200057433e-02 -1.227429532059195749e-01 5.014406862864231318e-01
-4.305133864093725615e-02 -5.929286300393593612e-02 4.394507764345241263e-01
-8.919603457400761271e-02 -1.122488984860184336e-01 5.176724944558379615e-01
-9.029674687225978935e-02 -8.206835477071094953e-02 4.440430613749257738e-01
-4.847098322540024928e-02 -7.010363761118738879e-02 4.418670733895052605e-01
-4.049349374009693359e-02 -1.217754681652777199e-01 5.289295410599357261e-01
-4.795631006265776985e-02 -5.772141227774955918e-02 4.388059823530291448e-01
-6.184552736026949216e-02 -1.165416957011369964e-01 4.818506128998198967e-01
-5.738838315255672534e-02 -1.200538466494586870e-01 5.236832236918023131e-01
-5.574310203077731396e-02 -9.037365959026083528e-02 4.492066878014027154e-01
-5.437579439425965083e-02 -6.022478430201115562e-02 4.386966085188424014e-01
-8.807892703508921062e-02 -8.250845301893246220e-02 4.428587264743888974e-01
-2.144197797695417823e-02 -1.217464851451200286e-01 5.447982638695010316e-01
-4.648418526353162439e-02 -8.071253634636263441e-02 4.459305800510128259e-01
-9.864628472570027840e-02 -9.916905613392811014e-02 4.506844424321090892e-01
-2.442923782443149477e-02 -1.212586219839852375e-01 4.937134872597892521e-01
-7.008487592875546623e-02 -7.772540265607770504e-02 4.396649769780930916e-01
-1.025664105510391000e-01 -9.027256706543777820e-02 4.508290950457368162e-01
-5.021353473125945294e-02 -1.213880764285092118e-01 5.050438567230082221e-01
-8.160282584280389301e-03 -1.283953237368495037e-01 5.165196477599613978e-01
-7.672523696352986922e-02 -1.095566828859405040e-01 4.620707877844513756e-01
-3.031458720039343496e-02 -1.218877089086516236e-01 5.370711351387943422e-01
-8.970551313668849447e-02 -1.193946262942956471e-01 4.652112874527020714e-01
-1.724485011772907209e-02 -1.158852981318063274e-01 5.570880233112036617e-01
-4.144419236320888433e-02 -1.219033987770436339e-01 5.067462882457748341e-01
-1.091754371349379360e-01 -1.223182342002547551e-01 4.788872490058962983e-01
-6.537772474417072321e-02 -1.211779289188139319e-01 4.965153380526924343e-01
-4.858632815912092284e-02 -6.393167916174552490e-02 4.400646960992040668e-01
-8.604139274015919214e-02 -1.166040006947942215e-01 4.633932691411005722e-01
-4.026659883789751593e-02 -1.219088930260344705e-01 5.062207149699552433e-01
-8.134654128337216739e-02 -1.187646493775079831e-01 4.732872451650109169e-01
-9.523463125585880651e-02 -1.071261909886990771e-01 4.552391124673093592e-01
-8.987177507687398037e-02 -1.098725021347262132e-01 4.576009769169464558e-01
-6.843542723511015190e-03 -1.285491256122740511e-01 5.233896733135610102e-01
-5.363105089457249203e-02 -7.933225185313497185e-02 4.442125641887267884e-01
-5.390949988592544373e-02 -6.889679831333186955e-02 4.408546269611585688e-01
-2.975465976278585459e-02 -1.101332740951047745e-01 4.724621322486062813e-01
-9.106205740363511325e-02 -8.310197577451407247e-02 4.443428209306060084e-01
-5.297624589818066693e-02 -9.942956306616822226e-02 4.566591116470105072e-01
-2.667791989608513797e-02 -1.208488114001127350e-01 4.935155216725295446e-01
-6.764928044733224677e-02 -9.996125901029460914e-02 4.544778177358605453e-01
-3.629909061553391464e-02 -1.132779416877880141e-01 4.783221361457020704e-01
-2.071782914185353250e-02 -1.172173785858860590e-01 4.808921345349595478e-01
-2.752196136789955214e-02 -1.176846412587314733e-01 4.866935055639745600e-01
-9.500300187299061394e-02 -1.240468079266473095e-01 4.892889878541046844e-01
-1.336099714999007884e-02 -1.250897601420956906e-01 5.342768419216934461e-01
-8.750336726203605808e-02 -1.133786032870622434e-01 5.182249641249139227e-01
-2.446890178630236820e-02 -1.046447008530833195e-01 5.582342116009877397e-01
-2.870993166744646719e-02 -1.239223728211390207e-01 5.258663117540847143e-01
-3.439961320033743664e-02 -1.105911249847353339e-01 4.734374238773471633e-01
-9.561082680662648034e-03 -1.211116006662191907e-01 4.857512936763820899e-01
-1.058413772312118001e-01 -1.240607593221196708e-01 4.856473568051122847e-01
-9.019604104088631280e-02 -1.228343681485885991e-01 5.041435741313090579e-01
-2.282987423423628315e-02 -1.250196759164494131e-01 5.122648511563047125e-01
-4.046469136350706181e-02 -1.019372634408511891e-01 4.622851165185877242e-01
-8.052007181880883879e-02 -8.060889328151769895e-02 4.404706424175779400e-01
-8.952177623357628067e-02 -1.096122101491431994e-01 4.575379157374841466e-01
-8.252283460710067853e-02 -1.227254740650859516e-01 5.070282245174229097e-01
-6.298798554952898809e-02 -1.128663697306623581e-01 4.730997696409234843e-01
-3.263149457178352725e-02 -1.181400064538185163e-01 5.437797283998048181e-01
-6.888225552663657103e-02 -1.169853858991253132e-01 4.792265204641072418e-01
-5.671844498826186798e-02 -1.087440671586858698e-01 4.676526666918721653e-01
-6.766063725395081441e-02 -1.213538368770166603e-01 4.955604620882853029e-01
-2.387496813848345029e-02 -1.234037450029163291e-01 5.367359967042377722e-01
-4.924785237412480227e-02 -1.154751720794038178e-01 5.346735816464890378e-01
-1.467590709939738461e-02 -1.217420181821006753e-01 4.886957820477004777e-01
-8.357734139844212595e-02 -1.110019630048155737e-01 4.607463779477912746e-01
-3.926819519842124351e-02 -1.186919122989414099e-01 4.908067050332252657e-01
-8.881804951482898114e-02 -1.227895461547483941e-01 4.869094725301698068e-01
-1.179674385724853169e-01 -1.043889938788908067e-01 4.681487460336394291e-01
-6.935501262848195458e-02 -1.208217865541667685e-01 5.167046175041180023e-01
-5.478478173767493964e-02 -1.138810173423559363e-01 5.328903543666788645e-01
-4.493870591724774544e-02 -1.112981738639739204e-01 4.748521613110839867e-01
-1.144975579423110207e-01 -9.927296286811017334e-02 4.620324350753960974e-01
-5.381889402381418580e-02 -7.802147218629265635e-02 4.437127644644774382e-01
-3.849757229206125092e-02 -1.120260585758904165e-01 5.420969361910250583e-01
-3.836103823273324248e-02 -1.202164684030280345e-01 4.957631630463879002e-01
-9.555940869820271633e-02 -1.234852070019827885e-01 4.971477886325232909e-01
-4.745964804860035996e-02 -1.216478650573484810e-01 5.076383899347429729e-01
-5.005630496472046609e-02 -1.208422090673622745e-01 5.011336631784493179e-01
-5.893760668740058439e-02 -1.216997144998854391e-01 5.126107788466132131e-01
-4.641219744892217253e-02 -1.191442162517722531e-01 4.925818259141704902e-01
-1.952601226551240951e-02 -1.106438691098693139e-01 4.698204855805376279e-01
-6.769173085323627881e-02 -6.084844990376298696e-02 4.366009636603033206e-01
-4.931909998002483725e-02 -7.144535898181370026e-02 4.422446502190811590e-01
-3.766102520146281420e-03 -1.262957578526062719e-01 4.990682691470738064e-01
-1.188270752641588102e-01 -1.127266011521984440e-01 4.724246903930041097e-01
-7.506576861811715962e-02 -8.164790317394024499e-02 4.404824223812317530e-01
-9.175221867547918297e-02 -8.775833349801578920e-02 4.449956780270873935e-01
-3.297826798817811433e-02 -1.166730277967284318e-01 4.852441832938356736e-01
-1.002282094119503475e-01 -1.200235265767448656e-01 4.660434159385015151e-01
-7.612602750946809160e-02 -6.292411716082940698e-02 4.364006916599140196e-01
-6.431969197836175101e-02 -1.214459219274297563e-01 5.160845302390874023e-01
-7.187574049874495552e-03 -1.285828824570173501e-01 5.175666518446887521e-01
-4.905484660561212212e-02 -9.496437492406574477e-02 4.540010627604932347e-01
-9.148059212580592070e-02 -9.059833133029993046e-02 4.459382776970023388e-01
-7.074279258845991847e-02 -1.216891657135577426e-01 4.944389711841724044e-01
