-6.165860867527310843e-03 -1.281773455050360389e-01 5.101371434464450072e-01
-5.420767079365214347e-02 -1.199797964020555691e-01 4.999512295963584041e-01
-6.041635472009140168e-02 -1.195777254280950830e-01 5.226580259041412324e-01
-4.653484876180324914e-02 -7.238253334247904403e-02 4.433269721391066009e-01
-7.721724975230820354e-02 -6.958718777634753661e-02 4.377561907471990699e-01
-2.765540396670854856e-02 -1.228614060268032743e-01 5.038360780971727904e-01
-8.759328875952787641e-02 -1.222413261770067955e-01 4.995977339338629197e-01
-5.277147113679877405e-02 -1.211622265636546347e-01 5.163964132416937192e-01
-9.021480504191421723e-02 -8.813942809319705307e-02 4.461711779403454425e-01
-1.031297264387926321e-01 -9.222573414947334014e-02 4.511037361611467955e-01
-5.197337333088945105e-02 -1.208422155388615832e-01 5.059830077039997320e-01
-3.249602050186099073e-02 -1.057735836216724956e-01 4.674844666499233803e-01
-5.180197577209096765e-02 -9.214537951052531595e-02 4.520239481517889790e-01
-1.186070414335747142e-01 -1.178265340501474800e-01 4.855292022385023776e-01
-4.327336994595182285e-02 -8.016953016313323188e-02 4.467577421434262841e-01
-9.149427311217053771e-02 -1.047256675476239268e-01 4.556640327749638120e-01
-3.363786250951453921e-02 -1.227469604161146172e-01 5.146868494049792186e-01
-5.913113786526939808e-02 -1.208270327562546848e-01 5.151758733325755291e-01
-1.040252221803759647e-01 -1.051600024955169632e-01 4.570049013348709277e-01
-7.676147666685483040e-02 -1.165228053391671875e-01 4.768279106349129215e-01
-7.637954989527338812e-02 -1.099093524262833438e-01 4.649481410658483638e-01
-2.859806177873519539e-02 -1.102683306613427699e-01 4.734761277799816037e-01
-6.304885406016701166e-02 -1.148392387198624576e-01 4.798445171141346721e-01
-9.019287224976735295e-02 -1.189279635140747943e-01 4.680316141310540967e-01
-1.020807901867133022e-01 -9.807485240423211015e-02 4.524563532568836033e-01
-2.195301942742357640e-02 -1.248128564902290655e-01 5.304217318809220094e-01
-1.069511665054231619e-01 -1.115507715292010787e-01 4.633578651739783116e-01
-5.785771818601029293e-02 -1.130704584962336223e-01 4.773523486424144369e-01
-9.233126544813713421e-02 -1.177777599755044369e-01 5.129048488642452552e-01
-6.314200371884320928e-02 -7.679221438421453272e-02 4.418793864133498950e-01
-3.508463124962687973e-02 -1.120179227460384869e-01 4.770525615121265495e-01
-2.002254163277741167e-02 -1.086577706674386884e-01 4.675071426075486647e-01
-4.691417881751960839e-02 -9.863928375269727378e-02 4.587091662957363813e-01
-6.906826441824599067e-03 -1.254756670430911270e-01 4.980916483344589585e-01
-8.671944022370627059e-02 -1.199145128062309995e-01 4.790870929017612689e-01
-3.154875664386183609e-02 -1.221526693769179189e-01 5.037331575550186846e-01
-4.989284490948020512e-02 -6.979018407611994879e-02 4.421643128105133824e-01
-9.066134681321295907e-02 -1.121095510642107357e-01 4.606522778131083018e-01
-4.526712706446679724e-02 -1.043614240159617956e-01 4.656581767122124349e-01
-1.591181472908732852e-02 -1.049924416795846305e-01 5.650728111579936819e-01
-2.521058974969559580e-02 -1.239959102029256077e-01 5.093301995889462086e-01
-9.972934066656775898e-02 -1.226519933320003031e-01 4.923678397802835338e-01
-8.002551017536171929e-02 -6.882125950271734960e-02 4.380285346940938629e-01
-4.067578406624534904e-02 -1.078505421985728741e-01 5.420009160053058661e-01
-3.255627615001037423e-02 -1.229528098933775904e-01 5.156382885626233925e-01
-2.321261224698788553e-02 -1.003971741140706059e-01 5.605567698922131470e-01
-3.295681617437236366e-02 -1.195951472177039371e-01 5.412678739968972419e-01
-6.036491891692632658e-03 -1.211189475019638639e-01 5.426416601781983706e-01
-1.146357334642231357e-01 -1.183973651095735630e-01 4.955738206795383682e-01
-1.039884416592931488e-01 -1.190938140565575842e-01 4.704923597177556593e-01
-7.486824339908805526e-02 -6.255354268081937674e-02 4.366618550257125864e-01
-9.131700275895544838e-02 -8.943077533691644321e-02 4.466656862702444442e-01
-2.319288684192158737e-02 -1.208018477394888074e-01 4.923254164367679708e-01
-6.312629966811138249e-02 -9.353862097380057083e-02 4.511404088586769556e-01
-1.007994362528447235e-01 -9.148488179387929964e-02 4.503043658906262237e-01
-3.606441330872563883e-02 -1.159735536826954211e-01 4.851443307703730001e-01
-9.442259838477418121e-02 -1.186925318792152045e-01 5.113670618117643896e-01
-5.621266993871769369e-03 -1.204206953791830681e-01 5.449473788455415635e-01
-1.163322794301163560e-01 -1.041302434128184157e-01 4.643985725829188338e-01
-3.142443535795989840e-02 -1.229135380536381800e-01 5.103003939403832900e-01
-1.114264616125337955e-02 -1.266731434264121714e-01 5.053377241139231923e-01
-9.737156113782755029e-02 -1.209958518921194215e-01 5.049037923847651266e-01
-2.047805928742977080e-02 -1.216884159597201309e-01 5.454462662827483932e-01
-7.355424342312177899e-02 -8.123889919363820600e-02 4.413932719433473206e-01
-9.838604384288095195e-02 -1.045424308523307810e-01 4.557783086030288144e-01
-8.913830647131877616e-02 -7.185463486097012908e-02 4.449860034744680948e-01
-7.418488788677689294e-02 -1.219008461527993220e-01 5.032571117327759858e-01
-6.380052937954259172e-03 -1.282464657334965730e-01 5.114477942687287726e-01
-1.003366283235208739e-01 -9.336296233867909244e-02 4.500144662375473170e-01
-6.173353717636741872e-02 -1.152331470054642620e-01 4.814249762358534523e-01
-3.044922419443069073e-03 -1.289771899916684617e-01 5.186242504198109726e-01
-5.463667058301360097e-02 -9.578353990632548776e-02 4.544414049244623333e-01
-1.019112530097703861e-01 -1.147142173249382502e-01 4.650314970072038645e-01
-9.075455368516430199e-02 -1.221413570523715852e-01 4.906689911615708666e-01
-6.474689918362663832e-02 -1.161870968179351399e-01 4.826563891717015609e-01
-5.885532858030088910e-02 -9.574791711969428409e-02 4.535580750073975875e-01
-2.558578349672747596e-02 -1.066298418894773004e-01 4.674903553457707139e-01
-1.055918939767009762e-01 -1.160427813339197090e-01 5.038779119534793072e-01
-4.507680958619934841e-02 -1.214902743838836424e-01 5.121197570204422123e-01
-9.923189780650037983e-02 -1.220493918446134418e-01 4.736007013886204264e-01
-4.245906536431359041e-02 -8.156136426742538470e-02 4.474185275514949711e-01
-4.086397155735661813e-02 -8.979798370707028909e-02 4.525604716049821397e-01
-3.893094108145085663e-02 -9.965649276472281215e-02 4.610732013978431909e-01
-3.345664883255325406e-02 -8.965050671281549199e-02 4.528865312493969841e-01
-2.235382849549588657e-02 -1.250849877108477781e-01 5.255601027213238075e-01
-1.068423349497932134e-01 -1.208522450631242390e-01 4.780077885602979082e-01
-1.000091095465956981e-01 -1.109051040471996236e-01 4.601240994171226784e-01
-6.605457894355887261e-02 -1.191959106026390103e-01 4.912258979089960675e-01
-1.101615900222638333e-01 -1.018465994148737702e-01 4.567522351605145525e-01
-1.735088341533656472e-02 -1.021777876425717380e-01 5.650584437948662497e-01
-2.926726224713792693e-02 -8.980599072382970671e-02 4.522627714529077192e-01
-3.233274923103918175e-02 -1.084531102463787838e-01 5.474881547897221257e-01
-4.602832950299828862e-02 -1.154395555700942766e-01 5.364896008118773540e-01
-8.045431123200423584e-02 -1.142112594751092808e-01 4.699109971574596534e-01
-9.679485070321049156e-02 -1.222864691608018389e-01 4.967280050218367826e-01
-8.990535901367707750e-02 -1.116430624340117167e-01 5.179007746074389962e-01
-1.191701372799854886e-01 -1.116045471213525098e-01 4.747103774097793383e-01
-3.442211306779380947e-02 -1.095492972014016075e-01 4.728752606360829835e-01
-1.187997879869468615e-02 -9.641039175196963740e-02 5.694107068460337873e-01
-6.405704923734979739e-02 -1.180217862075857715e-01 4.879810188006860061e-01
-2.741423537625032464e-02 -1.222540290777490157e-01 5.003603538661882677e-01
-7.849141327301813187e-02 -1.208657657096001842e-01 5.131884480716284447e-01
-1.097529990237646608e-01 -1.205696310739953758e-01 4.797814867427980245e-01
-7.915451848274158986e-02 -1.199542268052425503e-01 4.877141871733094991e-01
-7.492959956640271590e-02 -9.136576094453777164e-02 4.482087856381093416e-01
-4.086008713509005352e-02 -9.924038755127073674e-02 4.603928978499807201e-01
-3.419482104159873859e-02 -9.502715627792847342e-02 4.572545976018352332e-01
-6.723547026707246688e-02 -1.168069928115579581e-01 5.247364716353342118e-01
-5.148312600735692468e-02 -1.200019366350866812e-01 5.001104636802923276e-01
-7.666231676125362382e-02 -1.174138625569025457e-01 5.211778209937507622e-01
-5.884914237851995855e-02 -1.166074178099680558e-01 5.293982472516755022e-01
-9.175794046356602895e-02 -1.213522856695055802e-01 4.743416105000908267e-01
-3.315726694114330686e-02 -8.340048981676523310e-02 4.482358296738451764e-01
-4.718653527603881154e-02 -1.129584423450432223e-01 4.789646824630078292e-01
-4.678708644533987465e-02 -8.774131489837280751e-02 4.501383081388729557e-01
-8.125797561672387648e-02 -1.124875348856347740e-01 5.235827809742551464e-01
-2.669294496654415691e-02 -1.236079509882554578e-01 5.087505988729713602e-01
-1.058768542795318207e-01 -1.174663013409540796e-01 4.694772238193641312e-01
-3.873041230063423851e-02 -9.893539871099280014e-02 4.604144696074651821e-01
-2.023548839699444019e-02 -1.252261307113382571e-01 5.091597880812829269e-01
-3.687677990158464564e-02 -1.076183031203398477e-01 5.436144997989205141e-01
-8.575796381949729597e-02 -7.881745246588620080e-02 4.419647360994377605e-01
-1.190006405772788961e-01 -1.133094039859208618e-01 4.785314167764194715e-01
-2.087482886879496805e-02 -1.199577150389256469e-01 4.882253375735707279e-01
-9.747178407216701423e-02 -8.125434945579651513e-02 4.499427333243786187e-01
-8.267994672254509736e-02 -7.559565906778342725e-02 4.395585650693071278e-01
-2.454145560674480045e-02 -1.243711167143146251e-01 5.119589204839372076e-01
-3.762631107269866909e-02 -1.223278956830306796e-01 5.191012468256999135e-01
-7.887791684354734933e-02 -1.168648978022013424e-01 4.759781738569496823e-01
-7.548453308823936669e-02 -1.218138962397735808e-01 5.062259770959417482e-01
-3.018651643338296151e-02 -1.213423328418677255e-01 5.385809707757653886e-01
-3.896466408445539015e-02 -9.141491578993930778e-02 4.540307363282091169e-01
-2.338361814599811128e-02 -1.004362532054180746e-01 5.601384281350912930e-01
-5.632077518153556783e-02 -1.024921076080564514e-01 4.605481855286833737e-01
-1.079660668818846619e-01 -1.027550393807669521e-01 4.561961502653492651e-01
-3.701847004654049145e-02 -1.094843156641308601e-01 5.434240067487925430e-01
-1.743244208308815379e-02 -1.242086721955339007e-01 5.371166736255299501e-01
-1.291551477799942824e-02 -1.273636247889322337e-01 5.212876701033043458e-01
-5.399785795399543453e-02 -7.295495379171229589e-02 4.426674926683752953e-01
-4.956428678541791727e-02 -1.213986160987864243e-01 5.150909658479403408e-01
-5.146873839677132412e-02 -1.099051597037995626e-01 5.371272061056465708e-01
-6.861168037958625954e-02 -1.207247016363994646e-01 4.971474014319123280e-01
-9.278124190980502339e-02 -1.219134234886554008e-01 5.004547682045141777e-01
-1.902280252558373810e-02 -1.220346641094481321e-01 4.929440883432884002e-01
-6.643538303700335934e-02 -6.109974836364657352e-02 4.373883959132009447e-01
-4.713497178108812941e-02 -5.839272420217395815e-02 4.393279601435617354e-01
-8.904753443364722687e-02 -1.198584379612705197e-01 4.711773120325818964e-01
-4.549876643130627146e-02 -1.186718626987930542e-01 5.346723216651563249e-01
-6.145908659294538334e-02 -1.188160461565333087e-01 4.924794557730257094e-01
-1.022692832852308276e-01 -1.206457421182566270e-01 4.732789894312487422e-01
-6.879937517249634649e-02 -1.000730808617640855e-01 4.558942585814748649e-01
-9.211990650657617130e-02 -1.216130559800124716e-01 4.854470552428121755e-01
-7.632295567759214694e-02 -1.012732761422973776e-01 4.556104640415628015e-01
-1.057223170341241719e-01 -1.162894103254531603e-01 5.036448333530587629e-01
-6.677615774848463803e-02 -1.193325190959254323e-01 4.912830927596060215e-01
-7.144122677714023761e-02 -5.813584097305515147e-02 4.376199243279051410e-01
-6.661504419930028287e-02 -1.159574013040012286e-01 5.259410928794604478e-01
-9.425021840364258829e-02 -1.215655789568553247e-01 4.674098591046522144e-01
-9.873302623276285217e-02 -1.224699179462526710e-01 4.947816666018005072e-01
-4.846757671568889536e-02 -1.214338881461086012e-01 5.134270848961581812e-01
-1.314712220775290930e-02 -1.263119401718908741e-01 5.296623627168007831e-01
-6.892730978282554655e-02 -8.543165552516207573e-02 4.448202387743238617e-01
-1.838534255447557553e-02 -1.260801606913827533e-01 5.194836164074335683e-01
-7.302335865613554522e-02 -1.205333732208920677e-01 4.929256380859755593e-01
-7.675578205045967273e-02 -6.692334717449550940e-02 4.367449072769273855e-01
-6.014363197829123570e-02 -1.063255898089881801e-01 5.332279078940073136e-01
-3.564231958163791014e-02 -7.803738525236490753e-02 4.455301555592598439e-01
-6.516570765050763714e-02 -6.967853014506589227e-02 4.391894419857797494e-01
-8.965294635323789452e-02 -7.280503835979520999e-02 4.452485530912997369e-01
-1.010774780258244243e-01 -1.120185403185333384e-01 4.617395462399358497e-01
-7.198796472846205607e-02 -7.000655971469614547e-02 4.378685046906967693e-01
-5.189336182730899805e-02 -9.659387909736272260e-02 4.557313688559522791e-01
-7.876019827788363625e-02 -6.643766652033229747e-02 4.373488223682341358e-01
-1.173365113932950676e-01 -1.162078266471816002e-01 4.777167339488316844e-01
-1.172529345495475217e-01 -1.021859640140394404e-01 4.668360217906195042e-01
-1.008462421656991653e-01 -9.497653591476729051e-02 4.507591878276725472e-01
-6.359037671774826761e-02 -1.133437920350301997e-01 5.295364485593024861e-01
-2.342140491441583802e-02 -1.197897056431179164e-01 4.894544589436184978e-01
-2.685785480835940070e-02 -1.225453384126158618e-01 5.368875905435620544e-01
-1.143860486832417589e-01 -1.205451463387843120e-01 4.905581362558640857e-01
-8.730112481216929787e-02 -9.452464900236948186e-02 4.492928547986510535e-01
-1.727752682193059441e-02 -1.190795623672431663e-01 4.839602783846493894e-01
-9.135744227467003375e-02 -1.180304481603318828e-01 4.620717342754849799e-01
-6.239809692105737632e-02 -1.027665247138706411e-01 4.597108624968618273e-01
-4.276279529700496851e-02 -1.193829120136045419e-01 4.957077387163434934e-01
-8.361399034717069412e-02 -1.221811332606192180e-01 4.995061054636575348e-01
-8.613616972419958773e-02 -1.202977879669125116e-01 5.108896805927961582e-01
-3.789041275785340335e-02 -1.195054829708549343e-01 4.948898382839578280e-01
-1.557291554305084355e-02 -1.163542448848973315e-01 4.776250048324109931e-01
-1.000678568346675956e-01 -1.068303397775867136e-01 4.575854226631247412e-01
-5.629914843956613374e-02 -1.190417856116492146e-01 4.950041518174286836e-01
-4.847129701096931920e-02 -1.213793938968423664e-01 5.162160213971033196e-01
-5.018997888028035870e-02 -1.102640253900158546e-01 4.738833518934965627e-01
-9.318895621419612252e-02 -1.150591586589329585e-01 5.142060531933709822e-01
-4.172994957853920495e-02 -9.123942719980511484e-02 4.536309989112932706e-01
-6.204949176943427847e-02 -9.903016291786148617e-02 4.559051787445232984e-01
-2.390398269885033247e-02 -1.170265857445039748e-01 5.524665866581743856e-01
-4.532492552599461100e-02 -1.210317597300323844e-01 5.269051817476776423e-01
-9.954376704079624660e-02 -1.064209289189600310e-01 4.572530819098281629e-01
-4.328729747085624524e-02 -1.162729541958127943e-01 5.375709631157806756e-01
-5.820339026748264089e-02 -7.784589432719341007e-02 4.435131658581710767e-01
-8.500065604772706618e-02 -1.221540738634381423e-01 5.011380154314390989e-01
-2.087843287776640355e-02 -1.209206719326656743e-01 4.909263148097243734e-01
-2.374603550284535083e-02 -1.054445499198179703e-01 4.649505241809279710e-01
-1.062037176352182838e-01 -1.069410259720982997e-01 4.589498049796663648e-01
-7.008756555158043855e-02 -1.215733671394635951e-01 5.033427949066211493e-01
-9.307627859703299089e-02 -8.585383174147295793e-02 4.458789794467535317e-01
-3.428948540826677605e-02 -1.026000893349784532e-01 4.642011836869964214e-01
-8.324633291836436300e-02 -1.169891077493995374e-01 5.182450141315904091e-01
-2.130968769456850070e-02 -1.204865680199173755e-01 4.899976714589021620e-01
-4.619154892784409216e-02 -1.154925008532553948e-01 5.363759881405784080e-01
-1.924842498851693853e-02 -1.074470787011553297e-01 5.632077368354351243e-01
-2.022109711093229845e-02 -1.127772655721719919e-01 4.739253309268890990e-01
-6.378775717306645054e-02 -9.929155742132322882e-02 4.558928190724220175e-01
-7.294786133267702755e-02 -7.602647439671866847e-02 4.395443739837791020e-01
-4.677581339581841219e-02 -8.073192001205053980e-02 4.465295606113939830e-01
-6.376881454668681393e-02 -1.186568427067820480e-01 5.231244442115258186e-01
-2.983717915806635007e-02 -1.232771833967944153e-01 5.281748438078848196e-01
-4.661138463316290281e-02 -1.213429553539885908e-01 5.115677329035449583e-01
-1.001417709665205769e-01 -1.209351182139519754e-01 4.682465992473463512e-01
-1.191615389240931189e-01 -1.076665394338841980e-01 4.701458324955994361e-01
-2.683745403268234658e-02 -1.164131996033365701e-01 4.840663768438994707e-01
-2.718475552214834334e-02 -1.228895405902753479e-01 5.350843280636390364e-01
-4.638350236876769700e-02 -1.145439152476134537e-01 5.367274534507830985e-01
-4.416891307250319504e-02 -1.173234429163490244e-01 4.888910190706453607e-01
-2.050061689285246486e-02 -1.136560001607239412e-01 4.754913306829917086e-01
-3.422817525041645104e-02 -1.170317764847686598e-01 5.432972490072559557e-01
-2.260621958219500086e-02 -1.175885569274343206e-01 5.524478015245780638e-01
-1.052066365104808998e-01 -1.214091566261805560e-01 4.790723798754968343e-01
-1.084233711822750468e-01 -1.053932222675211389e-01 4.583270863349839241e-01
-5.732056928752254227e-02 -1.212065540790864954e-01 5.112334781547177576e-01
-6.319378301588739200e-02 -9.298429819016580666e-02 4.507298124434114261e-01
-6.208624845299341027e-02 -1.162597443790407692e-01 5.277161893147567229e-01
-2.636585804051338675e-02 -1.104592297527237366e-01 4.736115217827727153e-01
-9.557994558344025393e-02 -8.694836132108831050e-02 4.474381015465503930e-01
-8.279747159458875072e-02 -1.129266853398778053e-01 4.661506823573712821e-01
-5.216972841240707232e-02 -8.805062499166402268e-02 4.493802073757396376e-01
-4.242007017026058757e-02 -9.761784153076383252e-02 4.587725553990419369e-01
-5.556728788172694139e-02 -1.189802378640953534e-01 5.258381100602500524e-01
-7.529430559450750460e-02 -8.404192596188107822e-02 4.432539914775576739e-01
-1.179103233028400005e-01 -1.092690224351819811e-01 4.697185128812196298e-01
-8.478416202292018977e-02 -6.878838232812263531e-02 4.401048824940878013e-01
-4.213391031180330898e-02 -1.096613681892067843e-01 4.735289554082045549e-01
-2.825646866459307835e-02 -1.195738909540545181e-01 5.447992589302730337e-01
-5.315606998616875106e-02 -1.183650076952935948e-01 4.926607514579142144e-01
-5.994819546985581671e-02 -9.896775177332867157e-02 4.561853825713695354e-01
-1.043944821335125728e-01 -1.200729934869553817e-01 4.742381264898540838e-01
-6.718284225921142272e-02 -1.186551373631409001e-01 4.885135318692795936e-01
-1.028443324946039239e-01 -1.226850678704717312e-01 4.883256175461450632e-01
-1.164156579537824754e-01 -1.155296791240613963e-01 4.749297209426931454e-01
-9.012606500789133168e-02 -1.212924573133456335e-01 5.070444605998666310e-01
-1.406625958927384609e-02 -1.222544745641594016e-01 5.459697225309875224e-01
-9.075529048808782251e-02 -8.875514751337815200e-02 4.463876450678450625e-01
-1.065050407674850846e-02 -1.190656904765626800e-01 4.820650326045816669e-01
-4.322328882164622882e-02 -1.127390535324004905e-01 4.787390107545242413e-01
-1.299643176833736348e-02 -1.162463141939767824e-01 4.764576008642653626e-01
-5.789754780771932952e-02 -6.568574773013705070e-02 4.398143631274828436e-01
-3.777297506839579627e-02 -1.201215419711286758e-01 4.973214111646123148e-01
-4.010958804810169781e-02 -1.123144015644729349e-01 5.417426074215782039e-01
-2.101116175034579633e-02 -1.254446836949278943e-01 5.189003193758239263e-01
-6.586698504248489523e-03 -1.239368552770043347e-01 5.365348681563725242e-01
-7.887974302387464054e-02 -1.190960344791483633e-01 4.844483758965086873e-01
-6.103078596796901456e-02 -7.686885999485608412e-02 4.424422627499444149e-01
-7.348656075090775897e-02 -8.830654139001788139e-02 4.462337392935349367e-01
-1.065338660781134372e-01 -9.218854519975930306e-02 4.551752097889862902e-01
-1.149638847748037929e-01 -1.191536380021667590e-01 4.926514349046456354e-01
-7.696418742657433476e-02 -1.191866339758600180e-01 4.845890578715844610e-01
-4.149097505826241511e-02 -1.207553204014918391e-01 5.018995625001247962e-01
-1.377409876795946536e-02 -1.168796228904848550e-01 4.781165470828112607e-01
-6.734445934254369541e-03 -1.259338960397019813e-01 5.324272474955562551e-01
-7.550808064276130771e-02 -8.656983569045710591e-02 4.449475724482486183e-01
-7.095298012480448502e-02 -1.212508546910950891e-01 5.114038953681686595e-01
-6.902409317828288315e-02 -1.083881843910831921e-01 4.655299804327837077e-01
-6.808299290904883116e-02 -1.197114527792936534e-01 5.184936921249929664e-01
-2.203245580801499806e-02 -1.249584156010870445e-01 5.117799583846301958e-01
-2.539231996393740906e-02 -1.243809929087894145e-01 5.174298202921246981e-01
-9.576201953337853956e-02 -1.152389556056852699e-01 5.129768302083216325e-01
-5.371036578862605632e-02 -1.159853071949709241e-01 4.848883074327878240e-01
-4.324066945844405596e-02 -5.807586930262320646e-02 4.395407508017667442e-01
-9.174670112823692103e-02 -1.222219061815479763e-01 4.894041732157263236e-01
-1.468259806939485254e-02 -1.189112051430083195e-01 4.828179075380774066e-01
-4.557580897788688495e-02 -7.022106806507123766e-02 4.425889219059293000e-01
-8.470195357128422475e-02 -7.164413324720322884e-02 4.398089472562203284e-01
-1.863114620907167437e-02 -1.254148278446401699e-01 5.309772400729865227e-01
-1.064463132497594222e-01 -9.024583657948315185e-02 4.555358242606323826e-01
-1.002105311724662690e-01 -1.225926419166486064e-01 4.937577059245766287e-01
-7.095328718367641119e-02 -1.171358782043819408e-01 4.822263734695373394e-01
-7.528748839102807067e-02 -6.109924879280608651e-02 4.370114860238955012e-01
-5.013927118467292887e-02 -6.660942073517242545e-02 4.411571336761990758e-01
-8.713545347873964675e-02 -1.126131334484562346e-01 4.623159300644933412e-01
-4.253706425506846578e-02 -1.110936218889426452e-01 5.407055827834676975e-01
-1.038239341966486345e-01 -1.203791350039687402e-01 4.744601689996603699e-01
-6.248517763982762430e-02 -1.140072790231638905e-01 5.296486012123414744e-01
-4.595729221419553312e-02 -1.153765626162540220e-01 4.838579701531845467e-01
-3.932269825891408083e-02 -1.199789216716584533e-01 5.364062622689594884e-01
-7.057754965837148564e-02 -1.180027178235047436e-01 4.851416087894394602e-01
-4.380387255767553834e-02 -1.168228682746241115e-01 4.874019007078517762e-01
-3.508557349093169991e-02 -1.145255459228602946e-01 5.441932372615639890e-01
-8.000691730346003172e-02 -1.091049889603146056e-01 4.624665650757194824e-01
-4.510003724640460759e-02 -1.213255065320902465e-01 5.084677719771085735e-01
-1.000585324364784701e-01 -1.158733608333867987e-01 5.100692908657443736e-01
-8.041235676849968483e-02 -8.490152724270430551e-02 4.435939662817486306e-01
-1.207082858850712370e-01 -1.110474110375727214e-01 4.851589452814726311e-01
-2.768868232753411013e-02 -9.720859170644130520e-02 4.576551715535456810e-01
-1.004215199762980709e-01 -1.226436281808548773e-01 4.865215212415201496e-01
-6.474008673251915869e-02 -1.201809920707088142e-01 5.189974980109116620e-01
-8.812568119953470558e-03 -1.248925372964627550e-01 4.967054705129966830e-01
-1.172266922559630532e-02 -9.866007192383777213e-02 5.685954765251954868e-01
-6.467815433560140936e-02 -1.092455414877363112e-01 5.303763655122377685e-01
-2.383729324871011745e-02 -1.046416546551085236e-01 4.638228005570620427e-01
-1.131487076132239589e-01 -1.042865182390609324e-01 4.605373315607324547e-01
-3.714866413766648029e-02 -7.589786234516229801e-02 4.447019468308785473e-01
-8.515766169412218589e-02 -1.129945267648785334e-01 4.635497399643411232e-01
-7.867272454913856738e-02 -7.842997724866100639e-02 4.402788736561701888e-01
-9.702975842304255305e-02 -1.221165433285023721e-01 4.977617388913520013e-01
-4.892251646233047174e-02 -1.195946888396200725e-01 5.294464905642529695e-01
-6.757697305612794803e-02 -7.631840179400729840e-02 4.406426247863873824e-01
-3.373664661459677139e-02 -1.089007816951608337e-01 4.718906418577482054e-01
-4.081712043762011216e-02 -7.654659833022213478e-02 4.451067093786043039e-01
-2.912299923722173542e-02 -1.236331532624484614e-01 5.188754300045737011e-01
-1.211465085738727548e-01 -1.098310465521023377e-01 4.766361388757856532e-01
-6.976407049090276036e-02 -1.075211456142093902e-01 4.639541208702069874e-01
-7.101393060715005534e-02 -6.105155994461753527e-02 4.369394979099833765e-01
-7.433456039869973386e-02 -5.623611058055247997e-02 4.387023806660392267e-01
-2.316474545305768906e-02 -1.249516508257335901e-01 5.221423151777733196e-01
-1.077972133445098124e-01 -1.218012053027734132e-01 4.937694086509952784e-01
-3.058956777913660746e-02 -8.378531614707078468e-02 4.481637016328704481e-01
-1.049591561688144742e-01 -9.951585427745003598e-02 4.539496109845921890e-01
-7.002958280253630818e-02 -1.195552987306179871e-01 4.900163952823398117e-01
-7.146635305543599936e-02 -1.206324157680311454e-01 4.942713102282370041e-01
-7.243285646962017987e-02 -9.150299507586268088e-02 4.485460102488647571e-01
-7.878632865945023322e-02 -1.221617548315493129e-01 5.022114593229092261e-01
-7.716826969286096072e-02 -5.762974075375975475e-02 4.384297320385429075e-01
-7.772201397379144283e-02 -1.019647501036094889e-01 4.559759167522088319e-01
-3.824581675603147546e-02 -1.149599434562479511e-01 4.831009321255266831e-01
-5.651424729358987820e-02 -1.180147271967151995e-01 4.909044578859921848e-01
-5.287122081357890913e-02 -7.591914306571252713e-02 4.438235892409012617e-01
-8.736387905618697713e-02 -1.220155346671162599e-01 5.016284102851331639e-01
-1.905398872100153018e-02 -1.188659087422804239e-01 5.515760107972317305e-01
-1.005521229150279500e-01 -1.172930469954553967e-01 4.659024124453782778e-01
-8.084628415629752096e-02 -1.156662415191271331e-01 5.209779505939065025e-01
-9.281733584804685577e-02 -1.003396007185502620e-01 4.526419053992919439e-01
-1.102293522920882868e-01 -1.171217659961015511e-01 4.713688767554320980e-01
-6.908961558636853018e-02 -1.179606472279360746e-01 5.222072805393729311e-01
-5.989928558478397475e-02 -8.254782615592455575e-02 4.449551683565582394e-01
-6.849735245858132315e-02 -1.208483240889268312e-01 5.147637781924152556e-01
-1.102127506624666353e-01 -1.154448711696933472e-01 5.014794540998380734e-01
-7.525679928780124039e-02 -9.694623935390493663e-02 4.523437956018216966e-01
-9.123527185247660987e-02 -1.172670086040020210e-01 5.137301035584351805e-01
-1.114158336827213436e-01 -1.211729949378395205e-01 4.919045434493981572e-01
-3.608796064126275349e-02 -9.088430780654972729e-02 4.538723532339574707e-01
-3.873522948154555640e-02 -1.005710031583598313e-01 4.619746860914759612e-01
-7.747909637071935529e-02 -9.410426193242497905e-02 4.499486580765786892e-01
-8.566841451919865458e-02 -1.133110142261756353e-01 4.633024684908874091e-01
-9.430581058217106516e-02 -1.110439951427154293e-01 4.594285785338899641e-01
-4.786542122643747121e-02 -1.157849432776540677e-01 4.846356562357417297e-01
-1.136479239965477867e-01 -1.182140959621284515e-01 4.755976128020773519e-01
-6.982539002278369267e-02 -5.774387068105207854e-02 4.376212262256903296e-01
-1.087625913289778506e-01 -1.112062344428306621e-01 4.636487714936094462e-01
-1.209250056850366684e-01 -1.110389359275012061e-01 4.870243993687960460e-01
-6.090174936475741679e-02 -1.063293212182208625e-01 4.646251540500207500e-01
-1.092951296221138791e-01 -1.184623096595330688e-01 4.999732157241151831e-01
-1.876715989573809334e-02 -1.259942381064080852e-01 5.196759469649998575e-01
-2.315338252962018638e-03 -1.289485712790268412e-01 5.218951622138375823e-01
-4.284358106473473704e-02 -1.063312650224023381e-01 4.682583767558521348e-01
-3.366003372353446044e-02 -1.203874287606341298e-01 4.968469100176927111e-01
-8.787089653289646696e-02 -7.303740626548888004e-02 4.431098933883043656e-01
-5.725579147217866108e-03 -1.282319999704416014e-01 5.099135715292040238e-01
-4.212918169267937385e-02 -9.157609845325843934e-02 4.538675912354477315e-01
-5.117784903437874733e-02 -6.046977784812650886e-02 4.395133149900583014e-01
-9.049353686849728740e-02 -1.018614273641196277e-01 4.538093897369512852e-01
-4.066055678098121073e-02 -9.051369524923116860e-02 4.531465987779392801e-01
-2.049762463205892504e-02 -1.147331933902012435e-01 4.771958695777628878e-01
-4.884169871986421274e-02 -8.291932746399043042e-02 4.471547666408450805e-01
-8.358272881893638595e-02 -1.101777408220281501e-01 4.620547564457711531e-01
-1.712053071668181992e-02 -1.019525200686985239e-01 5.651277354123379615e-01
-8.174312917697827696e-02 -8.493638151134941250e-02 4.436661911470856090e-01
-1.061439795299758404e-01 -1.084570245338289940e-01 4.602770543090818900e-01
-6.222022117964622068e-02 -1.205653248250618398e-01 5.176790797537805799e-01
-8.412613628067600741e-03 -1.197606592721102148e-01 5.499171687115455009e-01
-9.532628447866095533e-02 -1.213829797451581871e-01 4.762212544910919831e-01
-3.112991074193461813e-02 -1.047827736777455915e-01 4.662626942923294160e-01
-6.766774023688898465e-02 -7.550560422885106704e-02 4.403689811914116570e-01
-5.568727127310027503e-02 -7.706712886042982324e-02 4.437404965124994716e-01
-5.929784717398930288e-02 -1.208027549037702791e-01 5.036579984618093642e-01
-7.682788171084395379e-02 -8.868928582101620606e-02 4.462592219678620520e-01
-8.243925769823767791e-02 -1.190908004081793481e-01 5.160825583087140789e-01
-1.369255936593030167e-02 -1.078588265184214773e-01 5.642081965270552280e-01
-4.427232445389460425e-02 -1.209811085320877944e-01 5.052139022020886161e-01
-8.849061282769160597e-02 -1.149490310651340441e-01 4.624108975680064071e-01
-6.955043625251536299e-02 -8.476812173530211270e-02 4.443341118580557692e-01
-8.438813950968890309e-02 -8.026058539621093446e-02 4.420398029749619262e-01
-4.224557597256706903e-02 -1.021133473428485205e-01 4.633546684826762019e-01
-8.679951702531983615e-02 -1.185936293877052627e-01 5.142047734436502315e-01
-5.702703084525390098e-02 -1.114759343924780904e-01 4.743400241195229738e-01
-3.101810629904307864e-02 -9.588366604224579648e-02 4.574947465444718087e-01
-6.911939093122035360e-02 -8.368142969746403259e-02 4.437209481747066420e-01
-8.756709900567710703e-02 -7.259911560267032216e-02 4.429120744194379733e-01
-6.718808276808788116e-02 -1.120381146772294889e-01 4.726961743910261804e-01
-4.321982813630113884e-02 -5.787113981305745669e-02 4.395043222396980975e-01
-7.104426204486116725e-02 -1.156984363673148886e-01 4.784604591997496104e-01
-4.940277982124295642e-02 -1.157771634376204561e-01 4.844847296430274675e-01
-3.100036847597060705e-02 -1.013200456910590824e-01 4.623534061534076423e-01
-7.231303369513238100e-02 -1.145822379540281377e-01 4.753081575195660657e-01
-5.125599898190592169e-02 -1.081811396213508136e-01 5.377879214345167025e-01
-7.475589141515749658e-02 -5.854496858479583954e-02 4.377882190464060796e-01
-4.094749773336937848e-02 -1.219553864073401467e-01 5.192201612237907771e-01
-5.449524365496568462e-02 -1.161851130508739227e-01 5.317402483783150169e-01
-9.289598185694983301e-02 -8.743139003473138215e-02 4.460284341934359076e-01
-2.269082006913721722e-02 -1.205155726970319613e-01 4.910009180693837294e-01
-1.002448540542538596e-01 -8.324096156739696495e-02 4.531655149192556631e-01
-7.540598750796996541e-02 -1.077218043567937517e-01 4.625042493869143678e-01
-3.550793600076594669e-02 -1.179292851561539457e-01 5.409916264898896321e-01
-1.025248308713033185e-01 -8.609556393619408055e-02 4.538379191487324493e-01
-3.860047860262719177e-02 -1.176633307732637690e-01 4.894439307629377400e-01
-2.557711660490911976e-02 -1.220590447871921363e-01 4.978661510538892609e-01
-1.483894938040999228e-02 -1.149284647164399292e-01 5.585572250743782163e-01
-7.339708781686581085e-02 -7.532918514135263088e-02 4.393088125823882417e-01
-6.599155261591128918e-02 -1.156475978328964788e-01 5.264047685372236218e-01
-1.403128854081643617e-02 -1.052416266318727950e-01 5.653743579197358926e-01
-1.136814227156664192e-01 -1.194759700141435066e-01 4.785894629376137854e-01
-4.532893019571941629e-02 -1.169664582224350380e-01 4.879595878122087727e-01
-1.061968512286158989e-01 -1.222954808531121484e-01 4.924104046182505856e-01
-4.418384341220712996e-02 -1.165452081451704841e-01 4.866294411907127748e-01
-3.609586706620252633e-02 -1.193148027539557565e-01 5.395179409276859017e-01
-7.484494918968670474e-02 -1.034993363994101412e-01 4.582114716710781188e-01
-9.337270462145280669e-02 -8.888537714345251528e-02 4.465130698682239219e-01
-4.241075755809516762e-02 -1.064382897896150176e-01 4.683945230792184167e-01
-5.489216975808025589e-02 -1.105941338650648920e-01 4.732045155663371361e-01
-2.939761267879760498e-02 -1.067885813215068841e-01 4.684457565697938142e-01
-5.191406352258978729e-02 -1.181077287338195142e-01 4.917348789529327191e-01
-1.554502686084881062e-02 -1.265560654860015122e-01 5.133891399591280491e-01
-1.862543701663811960e-02 -1.208872227634689295e-01 4.893487321948958302e-01
-6.754588791734245090e-02 -1.119564725942010786e-01 4.724151439560311250e-01
-8.405233877638741691e-02 -1.194596943872858197e-01 4.772739771756923099e-01
-6.186611807247603678e-02 -8.547293812836477545e-02 4.460336902310740315e-01
-4.307577923251167118e-02 -1.216778572196817454e-01 5.215946117338535748e-01
-7.425546008675240096e-03 -1.267486149140619189e-01 5.028183151571962162e-01
-8.548540292855452694e-02 -8.560718002670661408e-02 4.444315860579589050e-01
-4.908178836028229131e-02 -1.214572448631772439e-01 5.144969313742997485e-01
-9.764169888499003164e-03 -1.279799928065930015e-01 5.173096146598318290e-01
-1.055444774509965572e-01 -1.113833013194339416e-01 4.627395368378849350e-01
-3.742805077001323116e-02 -1.175670148058809844e-01 4.888676633622655032e-01
-1.053463449434075133e-01 -1.220232080665010349e-01 4.951118713989615117e-01
-1.160278286611579335e-01 -1.180855804308949403e-01 4.781044628832997190e-01
-1.049329665150262603e-01 -1.201795514106785145e-01 4.754453976303288920e-01
-9.645574089232032688e-02 -8.157071997092622817e-02 4.485571903462305388e-01
-9.330220643359667110e-02 -1.127887941944207134e-01 4.601617723409819338e-01
-5.151425338314804397e-02 -1.213193180171605601e-01 5.148834247676554732e-01
-6.637960658371397371e-02 -1.210056338449488206e-01 5.011552148935132234e-01
-9.440675752666526088e-02 -1.214888805181744136e-01 4.757493976430293703e-01
-1.035528758850439712e-01 -1.163223276165645248e-01 4.672423907773318730e-01
-9.836846797964701739e-02 -8.073322074087675715e-02 4.522477214987545846e-01
-2.219659527116524256e-02 -1.233418030337393584e-01 5.001766957856722540e-01
-1.783612904461143178e-02 -1.240947118025478441e-01 4.994522474832680525e-01
-6.297494732573172271e-02 -6.130839327634082098e-02 4.381373953468324922e-01
-5.047187896724587841e-02 -1.151361964438347013e-01 4.829591401403340312e-01
-9.642915734173355957e-02 -1.041944233871728576e-01 4.551924539095725808e-01
-8.387236378533302616e-02 -7.759333947118339514e-02 4.406763771961979548e-01
-1.013486112286795943e-01 -1.200268275493367870e-01 4.690476486133789980e-01
-1.175459832898224366e-01 -1.019126524822172170e-01 4.678221508660923011e-01
-9.113102612510587397e-02 -8.298844971027335982e-02 4.446922655320276752e-01
-9.365129198795547893e-02 -1.225452601850877399e-01 4.903048693964049409e-01
-6.821974672422340125e-02 -1.216090432306104752e-01 5.075230655237907840e-01
-2.811764733892339191e-02 -1.236987966372197351e-01 5.146880123635017013e-01
-6.257429831267304066e-02 -6.817127851945413430e-02 4.395482623648004350e-01
-1.061758057218420148e-01 -9.088572089857144265e-02 4.549782871780106985e-01
-7.482011083783944583e-02 -7.977457156722794762e-02 4.405584510986911839e-01
-2.203036109533623374e-02 -1.024744220356642588e-01 4.605450899875795923e-01
-7.394550873116609996e-03 -1.195394201810812268e-01 5.497440717356198991e-01
-5.882511807543046312e-02 -1.210887749280293163e-01 5.089383521505783659e-01
-9.423855030659374077e-02 -1.208306320047471405e-01 4.783783156026746308e-01
-6.566155563884988611e-02 -1.204835707336585765e-01 4.981663506693637666e-01
-1.059881774676244698e-02 -1.207202971797393387e-01 5.488509879197486230e-01
-1.030805312474328689e-01 -8.687940043175058913e-02 4.538540065905913301e-01
-9.273809487565259913e-02 -1.221824529325266639e-01 4.878097639856590617e-01
-7.099113302783471857e-02 -9.614548795902984335e-02 4.522303937259052331e-01
-9.191984988887980101e-02 -1.212768738917305161e-01 4.838906330895584307e-01
-7.601961919358544983e-02 -9.043248787833581270e-02 4.474606633336574157e-01
-1.186833573172344919e-01 -1.168158843278554182e-01 4.833596707421411454e-01
-1.045477160330324506e-01 -1.225139326927782157e-01 4.923117172040189504e-01
-7.427698073564226178e-02 -1.200729380169081456e-01 4.900716873582023347e-01
-9.279303005899963708e-02 -9.601655992821914176e-02 4.500512317215115687e-01
-1.031636991222912303e-01 -1.089930313814197194e-01 4.599640419158210203e-01
-2.202753307740608693e-02 -1.037826084239553692e-01 5.623032208421787637e-01
-1.290252089502037965e-02 -1.273482953666408013e-01 5.194509930564266131e-01
-2.413335314287526519e-03 -1.289522654517846756e-01 5.214018138663609747e-01
-6.876935310035992011e-02 -1.115111570265867325e-01 4.708228039340018878e-01
-7.848105062214498495e-02 -1.065814355099576755e-01 4.603701817394918461e-01
-3.136362643116790555e-02 -1.230896726575986672e-01 5.138784013559755115e-01
-6.294746680008485307e-02 -8.738181260772909242e-02 4.469495533396499742e-01
-5.060944466638446493e-02 -1.193037170679318859e-01 5.285272647248620004e-01
-9.434442611812236812e-02 -1.050743604705823703e-01 4.557395922897217733e-01
-3.900308679977882581e-02 -1.181624421120604507e-01 4.910303538803564849e-01
-9.216447793618329221e-02 -9.154409583556834262e-02 4.477991167091853741e-01
-9.388072424343349431e-02 -1.162240506022425568e-01 5.131670812445888741e-01
-4.445380614705191774e-02 -6.586774146575236077e-02 4.413573325032777439e-01
-6.316771711555474456e-02 -7.506663405955139867e-02 4.412931442738085019e-01
-4.380211805189133251e-02 -7.166652036813561666e-02 4.431610178464653327e-01
-4.610858228529041147e-02 -1.192235053446528831e-01 5.331493820382806614e-01
